# .PCD v0.7 - Point Cloud Data file format
VERSION 0.7
FIELDS x y z
SIZE 4 4 4
TYPE F F F
COUNT 1 1 1
WIDTH 249
HEIGHT 1
VIEWPOINT 0 0 0 1 0 0 0
POINTS 249
DATA ascii
0.028810238 0.062422216 0.64780366
0.038411073 0.062417984 0.64779067
0.024150759 0.064402014 0.64894819
0.030748377 0.056641728 0.6499483
0.033957481 0.056595832 0.64978987
0.032230258 0.058014482 0.64912474
0.025798162 0.061270654 0.64923006
0.030855861 0.055215746 0.65063119
0.032467734 0.055195183 0.65055799
0.019498354 0.071493953 0.65073627
0.040796582 0.055483341 0.65158129
0.042311836 0.056958258 0.65103984
0.031206921 0.050916582 0.65286154
0.019662647 0.060626477 0.65238887
0.021569472 0.04977569 0.65487993
0.023179699 0.049670786 0.65445769
0.048119862 0.056416422 0.65489388
0.049594637 0.059513599 0.65415132
0.023251019 0.048162818 0.65507269
0.015015964 0.058395445 0.6559965
0.015015964 0.058395445 0.6559965
0.014995714 0.073312342 0.65572488
0.023481408 0.043608338 0.65705913
0.033805389 0.042256743 0.65863144
0.013532853 0.04905656 0.65879291
0.011839766 0.064273 0.6587674
0.018653709 0.040698975 0.65929812
0.022227902 0.035906643 0.6609937
0.0238369 0.037458032 0.66012418
0.03238181 0.039199054 0.66032583
0.032559592 0.037700564 0.66145533
0.037664976 0.041089088 0.66125995
0.011982588 0.042794943 0.66123027
0.017206578 0.034413159 0.66229969
0.0085953958 0.055010527 0.66210914
0.0086017502 0.058491915 0.66226256
0.010336102 0.070630044 0.66254419
0.0086685419 0.039875299 0.66387504
0.012156767 0.032996923 0.66423392
0.0069467961 0.045154184 0.66423607
0.026156889 0.029644459 0.66509235
0.024621353 0.026380032 0.66688788
0.028126331 0.028126329 0.66679472
0.010587099 0.024703205 0.66759396
0.014094511 0.024665385 0.66726768
0.040592752 0.037062973 0.66764051
0.01062171 0.023013711 0.6682902
0.0035400814 0.035400838 0.66826069
0.010696033 0.019609392 0.6697855
0.014299537 0.017874449 0.67036128
0.03214284 0.026785702 0.6701526
0.0072279009 0.014455795 0.67271918
-0.0036080219 0.027060151 0.67236131
0.005430555 0.014481485 0.67310661
0.005430555 0.014481485 0.67310661
0.025552157 0.012776077 0.67491347
0.029202998 0.012776285 0.67491752
0.0036642218 0.0091605186 0.6757533
0.0073101087 0.0091376305 0.67519999
0 0.012811631 0.67552674
0.014721519 0.0073607564 0.67672849
0.014890962 0.0037227571 0.67928517
0.0037355951 5.9604645e-08 0.68006098
0.020671397 -0 0.68143958
-0.015056816 0.011292607 0.68178773
-0.015056816 0.011292607 0.68178773
0.0018846398 -0.0037693083 0.6820941
0.018959228 -0.0037918389 0.68345606
0.017149862 -0.0057165921 0.68461704
-0.013407356 0.0019153357 0.68579954
-0.013483382 -0.0038523972 0.68711054
0.042384502 0.078989267 0.68715531
-0.0019563069 -0.019563049 0.690745
0.0019514695 -0.017563254 0.69016111
-0.023447901 -0.0039079785 0.69046563
-0.0078588724 -0.021611899 0.69176042
-0.0019666641 -0.021633297 0.69199532
-0.017661657 -0.011774421 0.69148135
-0.017930077 -0.023906767 0.69508141
-0.02192056 -0.015942246 0.69514751
0.0080261584 -0.02809158 0.6968087
-0.022096392 -0.024105102 0.69707704
-0.026217382 -0.020167232 0.6980378
-0.020388519 -0.036699325 0.7007091
-0.022409201 -0.034632385 0.70050967
0.0020437655 -0.036787778 0.70130229
-0.026565911 -0.03065297 0.70127398
-0.004124884 -0.039186388 0.70355672
-0.035116229 -0.030984908 0.70394516
-0.030968159 -0.030968159 0.70381045
-0.016662933 -0.047905952 0.7060222
-0.025152082 -0.050304145 0.70760828
-0.033475388 -0.037659764 0.70715022
-0.03361468 -0.042018324 0.70820117
-0.010560459 -0.050690204 0.7095499
-0.0084594358 -0.050756633 0.70988405
-0.038072452 -0.042302728 0.70991743
-0.027523298 -0.055046588 0.71016371
-0.038425583 -0.046964645 0.71228564
-0.034504972 -0.062540233 0.71491784
-0.038765628 -0.055994779 0.71456599
-0.015248863 -0.065352231 0.71755505
-0.015248863 -0.065352231 0.71755505
-0.041452754 -0.063269973 0.71795523
-0.047958404 -0.056678087 0.71773845
-0.021942383 -0.070215613 0.71946585
-0.013176409 -0.070274204 0.71968681
-0.05088139 -0.064154744 0.7216382
-0.046560057 -0.068731487 0.72223103
-0.024758758 -0.08102867 0.72629303
0.030593745 0.058770925 0.6489659
0.030593745 0.058770925 0.6489659
0.03737852 0.065006107 0.65077126
0.031206921 0.050916582 0.65286154
0.041241247 0.052788794 0.65372825
0.041241247 0.052788794 0.65372825
0.019817622 0.054498494 0.65394783
0.028973129 0.048012719 0.65444779
0.021510411 0.051294029 0.65433151
0.033629868 0.043718845 0.65757215
0.035205707 0.045264482 0.65696484
0.048495222 0.055184245 0.65645623
0.015034613 0.056797415 0.65624666
0.013510837 0.050665677 0.65846074
0.013510837 0.050665677 0.65846074
0.013588441 0.078133553 0.65963161
0.015419795 0.037692845 0.66141278
0.029078718 0.036773905 0.66107512
0.037664976 0.041089088 0.66125995
0.047650769 0.051054388 0.660025
0.051157754 0.054568321 0.66044086
0.012003409 0.075450003 0.66158926
0.012003409 0.075450003 0.66158926
0.010316673 0.042986125 0.66215336
0.0086090313 0.060263216 0.66243833
0.0086290985 0.062993258 0.6629228
0.012156767 0.032996923 0.66423392
0.012156767 0.032996923 0.66423392
0.0069467961 0.045154184 0.66423607
0.0052510877 0.052510887 0.66588539
0.0035570434 0.02845636 0.66928446
0.046139233 0.042590052 0.66880935
0.0017837972 0.04816252 0.66992128
0.0017837972 0.04816252 0.66992128
0.0071556224 0.019677937 0.67053795
0 0.039493471 0.67129254
0.03069674 0.018056899 0.67256403
0.0018301542 0.010980964 0.67551708
0.029430808 0.011036545 0.67663622
-0.005508455 0.02019766 0.67624104
0.01117995 0.0018633306 0.6795212
0.014890962 0.0037227571 0.67928517
0.0094012795 -0.0018802583 0.68156493
-0.0093403123 0.013076454 0.68009305
-0.015038374 0.015038401 0.68150944
-0.0056627616 -0.00094518065 0.68244988
-0.013240505 0.0075659752 0.68292224
0.00095079676 -0.0076067597 0.68415278
0.00095079676 -0.0076067597 0.68415278
0.0095093409 -0.005705595 0.6841737
0.017149862 -0.0057165921 0.68461704
-0.011500561 -0.0038335025 0.68597126
-0.017132899 0.0057109594 0.68438947
-0.0077336091 -0.013533801 0.68798018
-0.011557497 -0.007705003 0.6871168
0.019179797 -0.0076719224 0.6861186
-0.011552916 0.030807793 0.68702465
0.032714881 0.082749426 0.68689406
0.032714881 0.082749426 0.68689406
0.0097463233 -0.013644874 0.68989497
-0.017494787 -0.0038877428 0.6892432
-0.0039293594 -0.021611482 0.69175571
-0.013685693 -0.015640795 0.6905992
-0.019521089 -0.0058563352 0.69023836
-0.011864386 -0.023728758 0.69329089
0.01180741 -0.01967904 0.69214469
-0.0019891658 -0.025859118 0.69471145
-0.02192056 -0.015942246 0.69514751
-0.027898783 -0.011956602 0.69514656
-0.0080975331 -0.03441453 0.69896263
-0.022272091 -0.03037101 0.69900513
-0.032727383 -0.026591003 0.70150697
-0.018471146 -0.041046977 0.70233834
-0.0020535542 -0.03696394 0.70248383
-0.030968159 -0.030968159 0.70381045
-0.035008986 -0.028830945 0.70318377
-0.0083016427 -0.043583632 0.70512217
-0.014687614 -0.05035755 0.7078768
-0.029281538 -0.046013862 0.70706898
-0.0062498492 -0.043748915 0.70607239
-0.034258533 -0.05781126 0.71305859
-0.028040729 -0.064709365 0.71496832
-0.021506192 -0.062367946 0.71420068
-0.0064961971 -0.060631156 0.7159847
-0.038765628 -0.055994779 0.71456599
-0.041692171 -0.068024069 0.7194764
-0.041692171 -0.068024069 0.7194764
-0.017536066 -0.067952275 0.71919674
-0.03084622 -0.07491225 0.72055995
-0.019825872 -0.07049197 0.7205084
-0.024586886 -0.078231007 0.72440702
0.029669054 0.060943231 0.6481899
0.030272752 0.052363932 0.6521256
0.048893116 0.057593562 0.6546669
0.015295302 0.042486936 0.65974307
0.026101831 0.041674156 0.65787351
0.017300364 0.049390376 0.65670252
0.013416397 0.066243574 0.65703571
0.012003409 0.075450003 0.66158926
0.012087792 0.077707261 0.66304445
0.031290777 0.033029169 0.66443855
0.049656905 0.049656928 0.66491061
0.0069819749 0.0619663 0.66529763
0.022210645 0.022207454 0.66907382
0.0024561654 0.025943208 0.67057455
0.020172721 0.011003315 0.67596728
0.020172721 0.011003315 0.67596728
0.0054128524 0.01623854 0.67239428
-0.0072459448 0.029889867 0.67326367
0.010215961 0.002783671 0.67879945
-0.002773121 0.010160461 0.67761791
-0.002773121 0.010160461 0.67761791
0.037596565 0.025880288 0.67780292
-0.014113874 0.010347769 0.68173617
0.0067323959 -0.010580413 0.68674719
-0.013473009 0.023096591 0.68693161
0.044106938 0.080543131 0.68608391
0.033307534 0.085197166 0.68656957
-0.022043882 0.0016144862 0.68932891
0.048382539 0.077412069 0.68820947
0.038337544 0.083170794 0.68990463
0.0039377394 -0.019688696 0.69226152
-0.02096514 -0.033138227 0.69949836
-0.0050157253 -0.030100062 0.69682443
-0.029310385 -0.021226309 0.69859755
-0.029310385 -0.021226309 0.69859755
-0.024770029 -0.041283369 0.70376521
-0.013375233 -0.042187937 0.70299757
0.0051003192 -0.034666017 0.70074856
-0.025798794 -0.048809759 0.7070989
-0.010484074 -0.048226774 0.70770586
-0.0020844459 -0.045857787 0.70621282
-0.038286991 -0.034805994 0.70666587
-0.01915648 -0.057469428 0.71153033
-0.035110734 -0.041428816 0.70887887
-0.026827401 -0.062239423 0.7136656
-0.03897744 -0.074279249 0.7209183
-0.049091093 -0.069173783 0.72395337
-0.024586886 -0.078231007 0.72440702
