# .PCD v0.7 - Point Cloud Data file format
VERSION 0.7
FIELDS x y z
SIZE 4 4 4
TYPE F F F
COUNT 1 1 1
WIDTH 1355
HEIGHT 1
VIEWPOINT 0 0 0 1 0 0 0
POINTS 1355
DATA ascii
-0.0067103459 0.03187418 0.65710056
-0.0067476067 0.030364275 0.65822494
-0.0067852829 0.028837442 0.65936196
-0.0068233591 0.027293444 0.66051102
-0.0068618888 0.02573207 0.66167378
-0.0069008558 0.024152994 0.66284966
-0.0069402442 0.022555798 0.6640383
-0.0069801095 0.020940334 0.66524136
-0.0070078485 0.019271612 0.66607845
-0.0070485706 0.017621428 0.66730738
-0.0070897439 0.015951931 0.6685499
-0.007131502 0.014262974 0.66981006
-0.0071738064 0.012554169 0.67108667
-0.0072166165 0.010824919 0.6723786
-0.0072599654 0.009074986 0.67368674
-0.007303813 0.0073038638 0.67500997
-0.0073482203 0.0055111647 0.67635012
-0.0073931427 0.0036965609 0.67770571
-0.0074386187 0.0018596649 0.6790781
-0.0074846852 -0 0.68046826
-0.0075312974 -0.0018827915 0.68187487
-0.007578494 -0.0037892461 0.68329918
-0.0076263146 -0.0057197213 0.68474233
-0.0076747136 -0.0076746941 0.68620288
-0.0077237301 -0.0096546412 0.68768209
-0.0077734073 -0.011660099 0.68918127
-0.0078236973 -0.013691485 0.69069886
-0.0078746425 -0.015749276 0.6922363
-0.0079262862 -0.017834127 0.69379479
-0.00797858 -0.019946456 0.69537288
-0.0080315685 -0.022086799 0.69697195
-0.0080852984 -0.024255902 0.69859338
-0.0081397193 -0.026454061 0.70023572
-0.0081948768 -0.028682053 0.70190024
-0.0082508223 -0.030940592 0.70358849
-0.0083075007 -0.033230036 0.7052989
-0.0083649643 -0.035551101 0.7070331
-0.0084232641 -0.03790471 0.70879239
-0.0084825614 -0.040292174 0.7105819
-0.0085427361 -0.042713672 0.71239781
-0.0086037703 -0.045169771 0.71423972
-0.0086657219 -0.047661453 0.71610922
-0.0087285321 -0.050189018 0.7180047
-0.0087922607 -0.052753538 0.71992779
-0.0088569261 -0.055355787 0.72187936
-0.0089225508 -0.057996601 0.72385967
-0.0089891534 -0.060676783 0.72586966
-0.0090568 -0.063397616 0.727911
-0.0091254311 -0.066159338 0.72998214
-0.0091951098 -0.068963319 0.73208493
-0.0092658605 -0.071810424 0.73422003
-0.0093377521 -0.074702024 0.73638952
-0.009410724 -0.077638477 0.73859167
-0.0094848452 -0.080621213 0.74082851
-0.0095601436 -0.083651274 0.74310082
-0.0054032663 0.086452246 0.67200851
-0.0054299659 0.085069507 0.67308289
-0.0054569305 0.083672941 0.67416787
-0.0054841442 0.082262158 0.67526281
-0.0055116508 0.080837548 0.67636961
-0.005539435 0.079398572 0.67748755
-0.0055674794 0.077944726 0.67861599
-0.0055958307 0.076476336 0.67975676
-0.0045219664 0.06029287 0.6365478
-0.0045252652 0.058828443 0.63668054
-0.0045409948 0.057519257 0.63731349
-0.0045638029 0.056286901 0.63823116
-0.004586827 0.055041969 0.63915759
-0.0046100845 0.053784341 0.64009339
-0.0046335938 0.052514106 0.64103931
-0.0046573291 0.051230639 0.64199436
-0.0046813092 0.04993394 0.64295924
-0.004705552 0.048624039 0.64393473
-0.0047300328 0.047300339 0.64491969
-0.0047547692 0.045962781 0.64591503
-0.0047797807 0.044611275 0.6469214
-0.0048050419 0.043245375 0.64793789
-0.0048305709 0.041864961 0.64896512
-0.004856389 0.040469944 0.65000391
-0.0048825005 0.039060026 0.65105456
-0.0049088937 0.03763485 0.6521166
-0.0049355738 0.036194235 0.65319014
-0.0049625463 0.034737825 0.65427536
-0.0049897977 0.033265322 0.6553719
-0.0050173677 0.031776667 0.65648121
-0.0050452435 0.030271441 0.65760285
-0.0050734309 0.028749466 0.658737
-0.0051019345 0.027210355 0.65988386
-0.0051307608 0.025653809 0.66104382
-0.0051599145 0.024079591 0.66221684
-0.0051894016 0.022487402 0.66340333
-0.0052192276 0.020876914 0.66460341
-0.0052402355 0.019214183 0.66544867
-0.0052708169 0.017569423 0.6666792
-0.0053017572 0.015905261 0.66792423
-0.0053330632 0.014221519 0.66918385
-0.0053647603 0.01251778 0.67045921
-0.0053968169 0.010793626 0.67174911
-0.0054292586 0.0090487897 0.6730544
-0.0054620928 0.0072827935 0.67437553
-0.0054953266 0.0054953098 0.67571282
-0.0055289678 0.003685981 0.67706639
-0.0055630435 0.0018543899 0.67843747
-0.0055975211 -0 0.67982477
-0.0056324285 -0.0018774569 0.68122935
-0.0056677749 -0.0037784874 0.68265158
-0.0057035666 -0.0057035685 0.68409175
-0.0057398137 -0.0076530874 0.68555021
-0.0057765464 -0.0096275806 0.68702817
-0.0058137304 -0.011627436 0.68852437
-0.0058513954 -0.013653249 0.69003987
-0.0058895526 -0.015705466 0.69157523
-0.00592821 -0.017784595 0.69313067
-0.0059673782 -0.019891262 0.69470674
-0.0060070916 -0.022026002 0.69630468
-0.0060473126 -0.024189234 0.69792295
-0.0060880762 -0.026381642 0.69956321
-0.0061293179 -0.028603494 0.70122266
-0.0061711478 -0.030855715 0.70290571
-0.0062131919 -0.033136994 0.70459747
-0.0062558395 -0.035449803 0.70631349
-0.0062990761 -0.037794471 0.70805317
-0.0063428883 -0.040171593 0.70981604
-0.0063873408 -0.042582273 0.71160465
-0.0064323936 -0.045026749 0.71341747
-0.0064780307 -0.047505587 0.71525371
-0.0065239226 -0.050016731 0.71710026
-0.006569894 -0.052559167 0.71895003
-0.0066162557 -0.055135459 0.72081554
-0.0066632177 -0.0577479 0.72270513
-0.0067108204 -0.060397357 0.72462046
-0.0067591388 -0.063085288 0.72656465
-0.006808158 -0.065812171 0.72853702
-0.0068578939 -0.068578929 0.73053825
-0.0069069304 -0.071371615 0.7325114
-0.0069554811 -0.074191809 0.73446488
-0.0070047523 -0.077052265 0.73644739
-0.0070547257 -0.079953551 0.73845816
-0.0071053845 -0.082896143 0.74049652
-0.003611733 0.086681604 0.67258525
-0.0036294432 0.085291952 0.6736542
-0.0036473279 0.083888561 0.67473364
-0.0036653897 0.082471281 0.67582369
-0.0036836311 0.081039906 0.67692471
-0.0037019183 0.079591244 0.67802846
-0.0037202495 0.078125268 0.67913485
-0.003738763 0.076644659 0.68025219
-0.0030086082 0.06017217 0.6361835
-0.0030110162 0.058714807 0.63632882
-0.0030197478 0.057375222 0.63685578
-0.0030349225 0.056146085 0.63777173
-0.0030502602 0.054904699 0.63869745
-0.0030657537 0.053650707 0.63963252
-0.0030814053 0.0523839 0.6405772
-0.0030972175 0.051104128 0.64153153
-0.0031131927 0.049811065 0.64249575
-0.003129334 0.04850471 0.64346993
-0.0031456335 0.047184527 0.64445364
-0.0031621137 0.045850635 0.64544839
-0.0031787672 0.044502765 0.6464535
-0.0031955971 0.04314056 0.64746928
-0.0032126063 0.041763932 0.64849585
-0.0032297976 0.040372491 0.64953345
-0.0032471947 0.038966328 0.65058345
-0.0032647806 0.037544996 0.65164489
-0.0032825577 0.036108136 0.65271783
-0.0033005294 0.034655571 0.65380251
-0.0033186993 0.033187002 0.65489912
-0.0033370701 0.031702161 0.65600789
-0.0033556453 0.030200809 0.65712905
-0.003374429 0.028682679 0.65826273
-0.0033934237 0.027147412 0.65940917
-0.0034126337 0.025594741 0.66056859
-0.0034320506 0.024024367 0.66174048
-0.0034517015 0.022436082 0.66292655
-0.0034715789 0.020829469 0.66412622
-0.0034856661 0.019171178 0.66497648
-0.0035059252 0.017529637 0.66619921
-0.0035264213 0.015868902 0.6674363
-0.0035471714 0.014188707 0.66868865
-0.0035680651 0.012488216 0.66994965
-0.0035891032 0.010767341 0.67121947
-0.0036103909 0.0090260208 0.67250431
-0.0036319459 0.0072638988 0.67380524
-0.0036537466 0.0054806173 0.67512101
-0.0036756755 0.0036756694 0.67644459
-0.0036978007 0.0018489063 0.67777991
-0.0037201804 2.9802322e-08 0.67913067
-0.0037427205 -0.0018713474 0.68049109
-0.0037652801 -0.0037652552 0.6818527
-0.0037881283 -0.0056821704 0.68323165
-0.0038112404 -0.0076224804 0.68462658
-0.0038346364 -0.0095866024 0.68603867
-0.0038582766 -0.011574835 0.68746555
-0.0038821953 -0.013587683 0.68890917
-0.0039059245 -0.015623719 0.69034135
-0.0039298683 -0.0176844 0.69178653
-0.0039541079 -0.019770563 0.69324946
-0.0039779674 -0.021878839 0.69468951
-0.0040021013 -0.024012595 0.69614607
-0.0040263189 -0.026171058 0.69760776
-0.0040506842 -0.028354764 0.69907838
-0.0040755118 -0.030566365 0.70057678
-0.0041007129 -0.032805681 0.70209783
-0.0041262107 -0.035072833 0.70363677
-0.0041520442 -0.037368417 0.70519602
-0.0041781864 -0.039692789 0.70677376
-0.0042046774 -0.042046756 0.70837271
-0.004231811 -0.044434041 0.71001029
-0.004260439 -0.046864808 0.71173817
-0.0042894571 -0.049328774 0.71348953
-0.0043188734 -0.051826507 0.71526498
-0.0043486957 -0.054358691 0.71706492
-0.0043789325 -0.056926131 0.71888983
-0.0044095935 -0.059529483 0.72074038
-0.0044406666 -0.062169313 0.72261584
-0.0044726208 -0.064853013 0.72454447
-0.004505707 -0.067585588 0.7265414
-0.0045393072 -0.07035926 0.72856933
-0.0045733918 -0.073174268 0.73062646
-0.0046079918 -0.076031864 0.73271483
-0.0046431194 -0.07893306 0.73483491
-0.0046787867 -0.081878781 0.73698771
-0.0047150059 -0.08487007 0.73917371
-0.0018037313 0.086579114 0.67232758
-0.0018121583 0.085171461 0.67334473
-0.0018206049 0.083747834 0.67436439
-0.0018291305 0.082310885 0.67539352
-0.0018377366 0.080860406 0.67643231
-0.0018464237 0.079396218 0.67748094
-0.0018551935 0.077918142 0.67853963
-0.001864047 0.07642591 0.67960835
-0.0015030297 0.060121179 0.63602966
-0.0015032782 0.058627874 0.63605964
-0.0015069271 0.057263255 0.63650012
-0.0015145218 0.056037307 0.63741684
-0.0015221977 0.054799139 0.63834345
-0.0015299475 0.053548187 0.63927895
-0.0015377763 0.05228439 0.64022392
-0.0015456859 0.051007599 0.64117873
-0.0015536771 0.049717665 0.64214337
-0.0015617515 0.04841429 0.64311796
-0.0015699151 0.047097474 0.64410341
-0.0015781594 0.045766652 0.64509863
-0.001586491 0.044421762 0.64610434
-0.0015949107 0.043062568 0.64712071
-0.0016034206 0.041688919 0.64814794
-0.0016120216 0.040300518 0.64918613
-0.0016207207 0.038897306 0.65023625
-0.0016295089 0.037478715 0.65129703
-0.0016383929 0.036044687 0.65236944
-0.0016473742 0.034594864 0.65345359
-0.0016564545 0.033129096 0.65454972
-0.0016656634 0.031647593 0.65566128
-0.001674992 0.030149847 0.65678734
-0.0016844199 0.028635174 0.65792537
-0.0016939604 0.027103394 0.65907705
-0.0017036095 0.02555415 0.66024178
-0.0017133692 0.023987174 0.66141987
-0.0017232354 0.022402078 0.66261083
-0.0017332219 0.020798683 0.66381633
-0.0017393011 0.019132346 0.66455013
-0.0017413773 0.017413765 0.66480076
-0.0017504911 0.015754431 0.66590089
-0.0017597011 0.014077604 0.66701263
-0.0017690019 0.012383044 0.66813529
-0.0017784777 0.010670871 0.6692791
-0.0017880681 0.0089403391 0.67043686
-0.0017977561 0.0071910322 0.6716063
-0.0018075561 0.0054226816 0.67278928
-0.0018174638 0.0036349297 0.67398518
-0.0018274738 0.0018274784 0.67519355
-0.0018376014 2.9802322e-08 0.67641604
-0.0018480741 -0.0018480718 0.67768019
-0.0018589845 -0.0037179887 0.67899722
-0.0018700243 -0.0056100786 0.68032986
-0.0018811892 -0.0075247586 0.68167758
-0.0018924952 -0.009462446 0.68304229
-0.0019039378 -0.011423588 0.68442357
-0.0019155199 -0.013408631 0.68582159
-0.0019272435 -0.015417933 0.68723679
-0.0019391043 -0.017451942 0.68866849
-0.0019513095 -0.019513041 0.6901418
-0.001963893 -0.021602809 0.69166076
-0.0019766397 -0.023719698 0.69319946
-0.0019895532 -0.025864214 0.69475824
-0.0020026364 -0.028036922 0.69633752
-0.0020158929 -0.03023836 0.69793773
-0.0020293258 -0.032469183 0.69955921
-0.0020429392 -0.034729958 0.70120251
-0.0020567365 -0.03702125 0.70286798
-0.0020707299 -0.039343834 0.70455706
-0.0020852971 -0.041705936 0.70631558
-0.0021000798 -0.044101685 0.70809996
-0.0021150648 -0.046531409 0.70990884
-0.0021302649 -0.048996091 0.71174359
-0.0021456853 -0.051496446 0.71360505
-0.0021613396 -0.054033518 0.71549469
-0.0021772145 -0.056607574 0.71741092
-0.0021933245 -0.059219778 0.71935564
-0.0022096846 -0.061871171 0.72133046
-0.0022267066 -0.06457448 0.72338521
-0.0022440027 -0.067320079 0.72547305
-0.0022615697 -0.070108712 0.72759354
-0.0022794143 -0.072941244 0.72974753
-0.0022975318 -0.075818568 0.73193455
-0.0023159503 -0.078742325 0.73415792
-0.0023346667 -0.081713349 0.73641717
-0.0023536882 -0.084732801 0.7387132
0 0.086122096 0.67117828
0 0.084725559 0.67219973
0 0.083315551 0.67322993
0 0.081892073 0.67427009
0 0.080455005 0.67532003
0 0.079004407 0.67638099
0 0.077539504 0.67745137
0 0.076060385 0.67853212
0 0.06018123 0.6362108
0 0.058568239 0.63587499
0 0.057182103 0.63624245
0 0.055959046 0.63716155
0 0.054723382 0.63808942
0 0.053475231 0.63902736
0 0.052214116 0.63997442
0 0.050939947 0.64093119
0 0.049652755 0.64189851
0 0.048351973 0.64287525
0 0.047037691 0.64386296
0 0.045709372 0.64486039
0 0.044367135 0.64586902
0 0.043010473 0.64688778
0 0.041639328 0.64791745
0 0.04025349 0.6489588
0 0.038852483 0.65001094
0 0.037436396 0.65107501
0 0.036004663 0.65215015
0 0.034557313 0.65323776
0 0.03309381 0.65433681
0 0.031614959 0.65545398
0 0.030119419 0.65658313
0 0.028607041 0.65772569
0 0.027077347 0.65888065
0 0.025530219 0.66004944
0 0.023965359 0.66123164
0 0.022382259 0.66242689
0 0.020780802 0.6636368
0 0.019134372 0.66457278
0 0.017211109 0.66235393
0 0.015576601 0.66351604
0 0.013925016 0.6647101
0 0.012254447 0.66591787
0 0.010564536 0.66713971
0 0.0088549554 0.66837567
0 0.0071254373 0.66962612
0 0.0053755045 0.67089128
0 0.0036048591 0.67217147
0 0.0018131733 0.67346686
0 2.9802322e-08 0.67477775
0 -0.0018350482 0.67610443
0 -0.0036928356 0.67748016
0 -0.005573988 0.67887807
0 -0.0074788332 0.68029273
0 -0.0094079077 0.68172538
0 -0.011361659 0.68317634
0 -0.013340443 0.68464589
0 -0.015344918 0.68613541
0 -0.017375469 0.68764341
0 -0.019432694 0.68917125
0 -0.021517009 0.69071919
0 -0.02363199 0.69231766
0 -0.025776953 0.69394827
0 -0.027951628 0.69560254
0 -0.030156612 0.69727969
0 -0.032392502 0.69898033
0 -0.034659773 0.7007041
0 -0.03695944 0.70245332
0 -0.039292008 0.70422757
0 -0.041658193 0.70602739
0 -0.044064283 0.70788527
0 -0.046509773 0.70979017
0 -0.048992306 0.71172386
0 -0.051512778 0.7136873
0 -0.054072052 0.71568084
0 -0.056670934 0.71770525
0 -0.059310526 0.71976131
0 -0.06199187 0.72185087
0 -0.064733237 0.72404587
0 -0.067519963 0.72627723
0 -0.070353508 0.72854704
0 -0.073234528 0.7308538
0 -0.076164424 0.73319978
0 -0.079144537 0.73558593
0 -0.082211286 0.73813438
0 -0.085334063 0.74072945
0.0017905378 0.085945845 0.67073494
0.0017991589 0.084560484 0.67177558
0.0018079024 0.0831635 0.67283106
0.0018167313 0.081752867 0.67389679
0.0018256401 0.080328196 0.67497218
0.0018346437 0.078889698 0.67605901
0.0018437363 0.077436954 0.67715657
0.0018529126 0.075969428 0.67826426
0.001506029 0.060241163 0.6363917
0.0015008702 0.058533937 0.63576895
0.0015034677 0.057131737 0.63608253
0.001511073 0.055909723 0.63700056
0.0015187878 0.054676324 0.63793182
0.0015265821 0.053430349 0.63887268
0.001534461 0.052171707 0.63982379
0.001542422 0.050899953 0.64078474
0.001550461 0.049614757 0.64175516
0.0015585893 0.0483163 0.64273632
0.0015667984 0.047003925 0.64372724
0.0015750992 0.0456779 0.64472926
0.0015834884 0.04433769 0.64574188
0.0015919625 0.042982966 0.64676481
0.001600533 0.041613847 0.64779931
0.0016091961 0.040229946 0.64884508
0.0016179484 0.038830787 0.64990157
0.0016268016 0.037416428 0.65097028
0.0016357469 0.035986453 0.65205008
0.0016447965 0.034540713 0.65314245
0.0016539578 0.033079177 0.65424824
0.0016632548 0.031601876 0.65537053
0.0016726627 0.030107975 0.65650618
0.0016821717 0.028596967 0.65765405
0.0016917953 0.027068734 0.65881568
0.0017015239 0.025522858 0.65999001
0.001711371 0.02395919 0.66117871
0.0017213265 0.022377223 0.66238046
0.0017314047 0.020776868 0.66359693
0.0017398453 0.019138306 0.66461587
0.001720421 0.017204195 0.66227108
0.0017240964 0.015516877 0.66271478
0.0017341892 0.013873518 0.6639331
0.0017443947 0.012210757 0.66516495
0.0017547208 0.010528326 0.66641146
0.0017652884 0.0088264644 0.66768706
0.0017761354 0.0071045458 0.66899645
0.0017871229 0.0053613484 0.67032272
0.001798247 0.0035965145 0.67166555
0.0018095106 0.0018095076 0.67302519
0.0018209162 -0 0.674402
0.0018324599 -0.0018324554 0.67579538
0.0018441576 -0.0036883056 0.67720741
0.0018560055 -0.0055679977 0.67863762
0.0018680068 -0.0074720383 0.68008626
0.0018802702 -0.0094013512 0.6815666
0.0018929319 -0.011357605 0.68309504
0.0019057654 -0.013340354 0.68464416
0.001918774 -0.015350163 0.68621439
0.0019319614 -0.017387658 0.68780625
0.0019453313 -0.019453287 0.6894201
0.0019588878 -0.021547765 0.69105655
0.0019726343 -0.023671627 0.692716
0.0019865751 -0.025825471 0.69439876
0.0020011226 -0.028015703 0.69615483
0.002015966 -0.030239463 0.69794655
0.0020310392 -0.032496601 0.69976604
0.0020463315 -0.034787655 0.701612
0.0020618555 -0.037113398 0.70348585
0.002077617 -0.039474726 0.70538849
0.0020937352 -0.041874707 0.70733416
0.0021107998 -0.044326752 0.70939398
0.0021281447 -0.04681918 0.71148771
0.002145777 -0.049352884 0.71361613
0.0021637136 -0.051929086 0.71578127
0.0021821901 -0.05455476 0.71801162
0.0022017793 -0.057246268 0.72037625
0.0022224537 -0.060006231 0.72287184
0.0022446371 -0.062849849 0.72554958
0.0022671856 -0.065748334 0.72827137
0.0022893636 -0.068680942 0.73094857
0.0023109126 -0.071638256 0.73354971
0.0023314685 -0.074606955 0.73603106
0.0023524044 -0.077629358 0.73855829
0.0023736861 -0.080705315 0.74112719
0.0023940955 -0.083793312 0.74359083
0.0035789369 0.085894465 0.6706059
0.0035961196 0.084508806 0.67164296
0.0036134806 0.083110034 0.67269081
0.0036309969 0.081697434 0.67374802
0.0036487109 0.080271631 0.67481714
0.0036667595 0.078835368 0.67590642
0.0036849875 0.07738474 0.6770066
0.0037035351 0.075922489 0.67812604
0.0030150714 0.060301423 0.63657355
0.0030012634 0.058524668 0.63574016
0.0030058699 0.057111531 0.63601822
0.0030211334 0.055890918 0.63693947
0.0030365619 0.054658115 0.63787061
0.0030522142 0.053413719 0.63881534
0.0030680473 0.052156806 0.63977098
0.0030840454 0.05088678 0.64073652
0.003100221 0.049603552 0.64171284
0.0031165574 0.048306674 0.64269876
0.0031330767 0.046996176 0.64369583
0.0031497721 0.045671731 0.64470345
0.0031666462 0.044333041 0.64572191
0.0031837025 0.042979985 0.6467514
0.0032009329 0.041612148 0.64779133
0.0032183612 0.040229529 0.64884317
0.0032359804 0.038831741 0.64990658
0.0032537936 0.037418634 0.65098172
0.003271804 0.035989881 0.65206873
0.0032900041 0.034545034 0.65316725
0.0033084734 0.03308472 0.65428197
0.0033271955 0.031608373 0.65541196
0.0033461421 0.030115277 0.65655547
0.0033652941 0.028604984 0.65771139
0.0033846779 0.027077436 0.65888131
0.0034042748 0.025532037 0.6600641
0.0034241003 0.023968697 0.66126066
0.0034441696 0.022387087 0.66247195
0.0034644636 0.020786792 0.66369683
0.0034816761 0.019149244 0.66473567
0.0034430323 0.017215163 0.66240329
0.0034483594 0.015517622 0.66272485
0.0034696411 0.013878554 0.66400927
0.0034911868 0.012219161 0.66530973
0.0035130023 0.010538995 0.66662633
0.0035350916 0.0088377297 0.66795957
0.0035574608 0.0071149468 0.66930968
0.0035801148 0.0053701699 0.67067695
0.0036030596 0.003603071 0.6720618
0.0036268255 0.0018134117 0.67349625
0.0036512003 -0 0.67496735
0.0036758916 -0.001837939 0.67645758
0.0037009188 -0.003700912 0.67796814
0.0037262891 -0.0055894256 0.67949939
0.0037520099 -0.0075040162 0.68105179
0.0037781023 -0.00944525 0.68262661
0.0038049077 -0.011414677 0.68424445
0.0038330646 -0.013415724 0.68594384
0.0038616415 -0.015446544 0.68766862
0.0038906627 -0.01750797 0.68942022
0.0039201081 -0.019600511 0.69119734
0.0039500031 -0.021725029 0.69300169
0.0039818771 -0.02389127 0.69492549
0.0040148338 -0.026096404 0.69691461
0.0040495857 -0.028347075 0.69901204
0.0040873638 -0.030655205 0.70129216
0.0041245776 -0.032996625 0.70353824
0.0041612471 -0.035370648 0.70575142
0.0041962848 -0.037766546 0.70786613
0.0042301649 -0.040186554 0.70991093
0.0042645787 -0.042645782 0.71198803
0.0042994455 -0.045144171 0.71409243
0.0043336111 -0.047669739 0.71615452
0.0043675615 -0.050226957 0.7182036
0.0044020475 -0.052824587 0.72028506
0.0044371029 -0.055463761 0.72240078
0.0044723405 -0.058140397 0.72452754
0.0045079398 -0.060857207 0.72667623
0.0045440895 -0.063617229 0.72885799
0.0045808237 -0.066421926 0.73107505
0.0046181777 -0.069272667 0.73332965
0.0046561244 -0.07216993 0.7356199
0.0046947002 -0.075115204 0.73794812
0.0047339424 -0.078110039 0.74031663
0.004773824 -0.081155002 0.7427237
0.0053909048 0.086254507 0.67151117
0.0054209451 0.084928125 0.67271996
0.0054522329 0.083600879 0.67397881
0.0054855468 0.082283169 0.67531931
0.0055225398 0.080997258 0.67680776
0.0055628167 0.079733729 0.67842835
0.0055947672 0.078326762 0.67971396
0.0056253579 0.076879919 0.68094486
0.0045271628 0.06036219 0.63675684
0.0045030969 0.058540255 0.63578856
0.0045094551 0.057119787 0.63604438
0.0045325072 0.055900931 0.63697195
0.0045557828 0.05466938 0.63790852
0.0045793126 0.053425342 0.63885522
0.0046031997 0.052169591 0.6398164
0.0046273516 0.050900877 0.6407882
0.0046517723 0.0496189 0.64177084
0.0046764528 0.048323363 0.64276385
0.0047014109 0.047014117 0.64376807
0.0047266367 0.045690835 0.64478314
0.0047521349 0.044353247 0.64580905
0.0047779246 0.043001324 0.64684677
0.0048039807 0.0416345 0.64789516
0.0048303227 0.040252686 0.64895511
0.0048569548 0.038855612 0.65002668
0.0048838826 0.037443101 0.65111023
0.0049111103 0.036014795 0.65220577
0.004938643 0.034570515 0.65331352
0.004966618 0.033110797 0.65443921
0.0049949619 0.031634778 0.65557963
0.0050236303 0.030141771 0.65673321
0.0050526303 0.028631598 0.65790004
0.0050819502 0.027103722 0.65907979
0.0051116291 0.025558174 0.66027397
0.0051416573 0.023994416 0.66148221
0.0051720222 0.022412062 0.66270405
0.005202766 0.020811051 0.66394109
0.0052274247 0.019167215 0.66493326
0.0051678196 0.01722607 0.66253495
0.0051955804 0.015586734 0.66365194
0.0052295919 0.01394558 0.66502047
0.0052650305 0.012285084 0.66644633
0.0053009521 0.010601938 0.66789174
0.0053373864 0.0088956356 0.66935778
0.0053743063 0.0071657598 0.6708433
0.0054117595 0.0054117739 0.67235029
0.0054508271 0.0036338866 0.67392224
0.0054915273 0.0018305182 0.67555988
0.005534288 -0 0.67728049
0.0055791922 -0.0018596947 0.67908728
0.0056269388 -0.0037512779 0.68100846
0.0056740735 -0.0056740642 0.68290502
0.0057191914 -0.0076255798 0.6847204
0.0057634385 -0.0096057057 0.68650073
0.0058063315 -0.011612654 0.6882267
0.0058494345 -0.013648659 0.68996102
0.0058930898 -0.015714914 0.69171757
0.0059361337 -0.017808378 0.6934495
0.0059792153 -0.01993072 0.69518292
0.0060222992 -0.022081763 0.69691658
0.0060659586 -0.024263799 0.69867325
0.0061099832 -0.026476592 0.7004447
0.0061542471 -0.028719783 0.70222569
0.0061991313 -0.030995667 0.70403171
0.0062446748 -0.03330493 0.70586425
0.0062909191 -0.035648525 0.70772499
0.0063378266 -0.038026929 0.70961237
0.0063854386 -0.040441096 0.71152812
0.0064337719 -0.04289183 0.71347296
0.0064828708 -0.045380086 0.7154485
0.006532724 -0.047906637 0.71745443
0.0065833502 -0.050472349 0.71949148
0.0066347965 -0.053078353 0.72156149
0.006687053 -0.055725425 0.72366416
0.0067401393 -0.058414549 0.72580028
0.006794937 -0.061154425 0.72800505
0.006850664 -0.063939512 0.73024738
0.0069073122 -0.066770703 0.73252672
0.0069649052 -0.069649011 0.73484409
0.0070234663 -0.072575808 0.73720038
0.0070830216 -0.075552195 0.73959672
0.0071435948 -0.078579515 0.74203396
0.007205213 -0.081659049 0.74451327
0.0072476882 0.086972237 0.6733163
0.0072822077 0.085565925 0.67435801
0.0073170569 0.084146172 0.67540967
0.0073522148 0.082712412 0.67647064
0.0073877391 0.081265122 0.67754269
0.007423609 0.079803824 0.67862511
0.0074598286 0.078328192 0.67971814
0.0074963192 0.076837301 0.68081939
0.0060422486 0.06042248 0.63693887
0.0060083289 0.058581233 0.63591528
0.0060165292 0.05715701 0.63616276
0.0060475064 0.055939466 0.63709754
0.0060788053 0.054709256 0.63804209
0.0061104293 0.05346626 0.63899636
0.0061423844 0.052210301 0.63996077
0.0061748847 0.050942808 0.64094156
0.0062077302 0.049661875 0.64193273
0.0062409085 0.048367053 0.64293396
0.0062744822 0.047058642 0.64394724
0.0063084397 0.045736194 0.64497197
0.0063427659 0.044399381 0.64600778
0.0063774479 0.043047756 0.64705443
0.0064125317 0.041681439 0.64811313
0.0064480035 0.040300041 0.64918363
0.0064838696 0.038903236 0.65026599
0.0065201381 0.037490785 0.65136051
0.0065567917 0.03606233 0.65246665
0.0065939254 0.034618139 0.65358722
0.0066316803 0.033158362 0.65472662
0.0066698701 0.031681895 0.65587902
0.0067085018 0.030188292 0.65704483
0.0067475839 0.028677255 0.65822428
0.0067871464 0.027148604 0.65941817
0.0068271528 0.025601804 0.66062552
0.0068676341 0.024036735 0.66184711
0.0069085974 0.02245295 0.66308331
0.0069500529 0.020850152 0.66433436
0.0069783572 0.01919046 0.66518843
0.0069861757 0.017465442 0.66542441
0.0070363292 0.015831769 0.66693795
0.0070865308 0.014173031 0.66845286
0.0071356464 0.012487382 0.66993517
0.0071843648 0.01077655 0.67140532
0.0072337263 0.0090422034 0.6728949
0.0072825258 0.0072825551 0.67436755
0.0073314505 0.0054986179 0.67584401
0.0073805475 0.0036903024 0.67732567
0.0074296989 0.0018573999 0.67880893
0.0074793426 -0 0.68030709
0.0075290306 -0.0018822551 0.68180656
0.0075794118 -0.0037896931 0.6833269
0.0076304432 -0.0057228208 0.68486691
0.0076821661 -0.0076822042 0.68642783
0.0077346247 -0.0096682608 0.68801081
0.0077878051 -0.011681706 0.68961573
0.0078417519 -0.013723105 0.69124377
0.0078964522 -0.015792936 0.69289446
0.0079518892 -0.017891765 0.69456738
0.008008142 -0.020020366 0.69626498
0.0080651967 -0.022179276 0.69798672
0.0081230691 -0.02436921 0.6997332
0.0081817452 -0.026590675 0.70150387
0.0082413089 -0.028844595 0.70330143
0.0083017461 -0.031131536 0.70512527
0.0083638458 -0.033455402 0.70699924
0.0084271301 -0.035815328 0.70890903
0.0084913783 -0.038211197 0.71084791
0.0085566146 -0.04064393 0.71281666
0.0086228615 -0.043114305 0.71481574
0.0086901784 -0.045623451 0.71684724
0.008758517 -0.048171818 0.71890956
0.0088281343 -0.050761729 0.72101045
0.0088989055 -0.053393424 0.72314614
0.0089707812 -0.056067377 0.72531521
0.0090444405 -0.058788836 0.72753799
0.0091200257 -0.061560154 0.72981906
0.009196884 -0.064378202 0.73213851
0.0092750499 -0.067244112 0.73449731
0.009354555 -0.070159167 0.73689663
0.0094354358 -0.073124647 0.73933738
0.0095177265 -0.076141804 0.74182075
0.0096014654 -0.079212099 0.74434781
0.0090440866 0.086823255 0.67294145
0.009086824 0.085416168 0.6739732
0.0091299331 0.083995402 0.67501402
0.0091732852 0.082559556 0.67606062
0.0092169158 0.081108868 0.67711389
0.0092609618 0.079644263 0.67817736
0.0093054324 0.078165621 0.67925096
0.0093503315 0.076672733 0.68033487
0.0075603887 0.060483128 0.6371218
0.0075189886 0.058648109 0.63612235
0.0075294878 0.057224125 0.63637584
0.0075685992 0.056007683 0.63732004
0.0076081189 0.054778457 0.63827413
0.0076480536 0.053536385 0.63923824
0.0076884096 0.052281201 0.64021254
0.0077293124 0.05101344 0.64120007
0.0077707982 0.049733162 0.6422016
0.0078127319 0.048438936 0.64321399
0.0078551453 0.047130913 0.64423788
0.0078980466 0.045808673 0.64527363
0.0079414435 0.044472069 0.64632136
0.0079852957 0.043120593 0.64737999
0.0080296593 0.041754246 0.64845109
0.0080745192 0.04037258 0.64953411
0.0081198579 0.038975328 0.65062863
0.0081657339 0.03756237 0.6517362
0.0082121054 0.03613326 0.65285569
0.0082592787 0.034688979 0.65399456
0.0083070789 0.033228338 0.65514851
0.0083554368 0.031750679 0.65631604
0.0084043881 0.030255824 0.65749782
0.0084538897 0.028743207 0.6586929
0.0085039763 0.027212739 0.65990204
0.0085546598 0.025663972 0.66112566
0.0086059514 0.024096668 0.66236395
0.0086578624 0.022510439 0.66361725
0.008710403 0.020904988 0.66488564
0.0087481104 0.019245833 0.66579598
0.0088024978 0.017605007 0.66710901
0.0088575985 0.015943646 0.66843927
0.0089133922 0.014261425 0.66978627
0.0089698946 0.012557864 0.67115033
0.0090270843 0.010832489 0.67253107
0.0090850424 0.0090850294 0.67393023
0.0091437474 0.0073150098 0.67534751
0.009203217 0.0055219233 0.6767832
0.0092634652 0.0037054121 0.67823774
0.0093244724 0.0018648803 0.67971063
0.0093863243 2.9802322e-08 0.68120384
0.0094490023 -0.0018897951 0.68271703
0.0095125223 -0.0038050115 0.68425047
0.0095768655 -0.0057461262 0.68580395
0.0096421232 -0.0077137053 0.68737936
0.0097089158 -0.009708941 0.68899196
0.0097770998 -0.011732489 0.69063795
0.0098462468 -0.013784736 0.69230735
0.00991638 -0.01586619 0.69400048
0.0099876383 -0.017977744 0.69572091
0.01006005 -0.020120084 0.697469
0.010133478 -0.022293657 0.69924176
0.010208027 -0.024499267 0.70104152
0.010283682 -0.026737541 0.70286798
0.010360466 -0.029009283 0.70472175
0.010438363 -0.031315088 0.70660228
0.010517703 -0.033656657 0.70851773
0.010599429 -0.036038071 0.71049076
0.010682433 -0.038456738 0.71249461
0.010766747 -0.040913612 0.71453023
0.010852404 -0.043409616 0.71659815
0.010939433 -0.045945615 0.71869922
0.011028212 -0.048524141 0.72084248
0.011118738 -0.051146179 0.723028
0.011210713 -0.053811431 0.7252484
0.01130458 -0.056522876 0.72751462
0.011400499 -0.059282571 0.72983032
0.010825978 0.086607873 0.67239976
0.01087555 0.085191786 0.67339706
0.010925577 0.083762765 0.67440355
0.010974062 0.082305461 0.67537904
0.011022694 0.080833107 0.67635739
0.011071801 0.079347938 0.6773454
0.011118505 0.07782954 0.678285
0.011164816 0.076292932 0.67921668
0.0090816058 0.060544044 0.63730574
0.0090372358 0.058742017 0.6364131
0.0090509132 0.057322472 0.63668823
0.0090983938 0.056106746 0.63764352
0.0091463486 0.054878056 0.63860822
0.0091948388 0.053636551 0.63958383
0.0092438459 0.052381784 0.64056969
0.0092934649 0.051114082 0.64156806
0.0093438812 0.049834013 0.6425823
0.0093948469 0.048540056 0.64360762
0.009446403 0.047232032 0.64464486
0.0094986167 0.045909971 0.64569533
0.0095513798 0.044573128 0.64675683
0.0096047344 0.043221325 0.64783025
0.0096587185 0.041854471 0.6489163
0.0097132809 0.040472031 0.65001404
0.0097684953 0.039074033 0.65112484
0.0098243095 0.037659854 0.65224779
0.0098809926 0.036230326 0.65338808
0.0099385958 0.034785122 0.65454704
0.0099968426 0.033322811 0.65571886
0.010055776 0.031843305 0.65690452
0.010115408 0.030346245 0.65810424
0.010175751 0.028831303 0.65931821
0.010236854 0.027298301 0.66054749
0.010298659 0.025746673 0.66179097
0.010361251 0.02417627 0.66305023
0.01042479 0.022587091 0.66432846
0.01048959 0.020979136 0.66563219
0.010537009 0.019317865 0.66658616
0.010602804 0.017671317 0.66790986
0.010669424 0.016004115 0.66925019
0.010736887 0.014315844 0.67060745
0.01080521 0.012606084 0.67198193
0.010874801 0.010874808 0.67338204
0.010946093 0.009121716 0.67481631
0.011018527 0.0073456764 0.67627358
0.011091886 0.005545944 0.67774945
0.011166269 0.0037221014 0.67924595
0.011241658 0.0018736124 0.68076265
0.011318071 -0 0.68229991
0.011395486 -0.0018992126 0.68385738
0.011474011 -0.0038246512 0.6854372
0.011553627 -0.0057768524 0.68703896
0.011634354 -0.007756263 0.68866313
0.011716172 -0.009763509 0.69030917
0.011799196 -0.011799186 0.69197941
0.011884723 -0.013865501 0.69370008
0.01197164 -0.015962154 0.69544876
0.012059839 -0.018089741 0.69722319
0.012149494 -0.020249158 0.69902694
0.012240992 -0.022441804 0.70086765
0.012333827 -0.02466765 0.70273542
0.012428134 -0.02692765 0.7046327
0.012523893 -0.029222429 0.70655918
0.012621139 -0.031552851 0.70851564
0.012720177 -0.033920437 0.71050811
0.012821492 -0.036327571 0.71254647
0.015153587 -0.045460761 0.75946456
0.015285133 -0.048402905 0.76211101
0.015401975 -0.051339924 0.76446176
0.013896603 -0.048638076 0.73417604
0.013962656 -0.051196426 0.73550487
0.014046933 -0.053846598 0.73720044
0.014136559 -0.056546241 0.73900354
0.014227875 -0.05928278 0.74084061
0.014323521 -0.062068582 0.74276495
0.014423857 -0.064907372 0.74478358
0.014525961 -0.067787796 0.74683768
0.014620186 -0.070664257 0.7487334
0.014700582 -0.073502928 0.75035077
0.014799867 -0.076465935 0.75234824
0.012556592 0.086102366 0.67112863
0.012458731 0.083651483 0.6694411
0.012514107 0.082235575 0.67039597
0.012571239 0.080815107 0.67138118
0.012628942 0.079381943 0.67237622
0.012687084 0.077934951 0.67337888
0.012745718 0.076474309 0.67438996
0.012804803 0.074999541 0.67540884
0.012865195 0.073515415 0.67645025
0.010565482 0.058864832 0.63679314
0.010583712 0.057454437 0.63710755
0.010639847 0.056239188 0.63807553
0.010696582 0.055011004 0.63905388
0.010753958 0.053769767 0.64004332
0.010811918 0.05251503 0.64104277
0.010870711 0.051247627 0.64205664
0.010930418 0.049967617 0.64308619
0.010990819 0.0486736 0.64412785
0.011051961 0.047365576 0.64518219
0.011113823 0.046043009 0.64624894
0.011176381 0.04470551 0.64732772
0.011239612 0.043352783 0.64841807
0.011303598 0.041984767 0.64952153
0.011368317 0.040601164 0.65063751
0.011433781 0.039201558 0.65176642
0.011500306 0.037786752 0.65291357
0.011567877 0.036356151 0.65407884
0.011636247 0.034908772 0.65525782
0.011705469 0.033444196 0.65645146
0.01177548 0.031962037 0.65765876
0.011846334 0.030461997 0.65888059
0.011918044 0.028943837 0.66011727
0.011990751 0.027407438 0.66137105
0.012064435 0.025852382 0.66264164
0.012139702 0.024279445 0.6639396
0.012215958 0.022686809 0.66525459
0.012293178 0.021074027 0.66658616
0.012349176 0.019405842 0.66755188
0.012428139 0.017754495 0.66891348
0.012508163 0.016081929 0.67029345
0.012589224 0.014387667 0.6716913
0.01267134 0.012671322 0.67310739
0.012754491 0.010932446 0.67454123
0.012838786 0.009170562 0.67599487
0.012924204 0.0073852539 0.67746782
0.013011682 0.0055764318 0.67897636
0.013100942 0.0037431419 0.68051559
0.013192032 0.0018845499 0.68208635
0.013284447 -0 0.68368
0.013378166 -0.0019111335 0.68529612
0.013473216 -0.0038495064 0.68693525
0.013569627 -0.0058155358 0.68859774
0.013667429 -0.007809937 0.69028431
0.013766649 -0.0098333061 0.69199526
0.013867321 -0.011886299 0.69373131
0.013969699 -0.01396966 0.69549674
0.016495837 -0.018852383 0.73905843
0.016632609 -0.021384805 0.74141705
0.016760673 -0.023943812 0.7436254
0.016876727 -0.02652058 0.74562669
0.015204577 -0.026064992 0.71679145
0.01528033 -0.028377712 0.71809781
0.015369037 -0.030738056 0.7196275
0.015460964 -0.033130646 0.72121269
0.015554757 -0.035553724 0.72283006
0.015652632 -0.038013518 0.72451788
0.015755149 -0.040513217 0.7262857
0.015859878 -0.043048263 0.72809172
0.015959099 -0.045597404 0.72980273
0.016037654 -0.048112959 0.73115736
0.016138894 -0.050722241 0.73290324
0.016241422 -0.053364694 0.73467124
0.016345184 -0.056040585 0.73646051
0.016450357 -0.058751285 0.73827416
0.016556893 -0.061497033 0.74011135
0.016664818 -0.064278573 0.74197245
0.016774159 -0.067096621 0.74385798
0.016910298 -0.070056975 0.74620557
0.017094262 -0.073261112 0.74937791
0.017295755 -0.076595485 0.75285256
0.014367543 0.086205244 0.67138743
0.014199254 0.083420604 0.66884816
0.014272615 0.082067519 0.66995502
0.014347357 0.080703884 0.67108285
0.014427406 0.07935074 0.67229068
0.014510351 0.077993125 0.6735422
0.014595802 0.07662797 0.67483151
0.014683879 0.075254858 0.67616057
0.012133215 0.060666054 0.63767403
0.012106244 0.059017897 0.63726705
0.012131118 0.05762282 0.63764238
0.01219632 0.056407958 0.63862622
0.012262226 0.055180043 0.63962066
0.012328848 0.053938717 0.64062589
0.012396199 0.05268383 0.64164209
0.012464793 0.051417291 0.64267713
0.01253423 0.050136894 0.6437248
0.012604604 0.048842847 0.64478666
0.012675771 0.047534138 0.64586055
0.012747788 0.046210706 0.64694721
0.012820627 0.044872224 0.64804626
0.012894304 0.043518305 0.64915794
0.012968833 0.042148709 0.6502825
0.013044227 0.040763229 0.65142012
0.013121063 0.039363205 0.65257949
0.013198984 0.037947059 0.65375519
0.013277835 0.036514044 0.65494502
0.013357635 0.035063803 0.65614903
0.013438399 0.033596009 0.65736771
0.013520191 0.032110453 0.65860188
0.013603171 0.030607134 0.65985394
0.013687222 0.029085338 0.66112214
0.013773029 0.027546048 0.66241693
0.01386011 0.025987715 0.66373086
0.0139483 0.024409503 0.66506147
0.014037569 0.022811085 0.66640848
0.014125797 0.021188706 0.66773975
0.014191804 0.019513726 0.66873574
0.014285349 0.017856687 0.67014718
0.014380137 0.016177624 0.67157745
0.014476191 0.01447621 0.67302674
0.014573535 0.012751877 0.67449558
0.014672199 0.01100415 0.67598432
0.014772207 0.0092326403 0.67749333
0.014873534 0.0074367821 0.67902219
0.014976314 0.0056161582 0.68057305
0.015080811 0.0037702322 0.68214977
0.017806916 0.0022258759 0.72328353
0.017943734 -2.9802322e-08 0.725348
0.018066755 -0.0022583306 0.7272042
0.018182054 -0.0045455098 0.72894394
0.01636456 -0.0061367154 0.70152009
0.016445847 -0.0082229376 0.70274663
0.016536342 -0.010335207 0.70411211
0.016629498 -0.012472093 0.70551765
0.016724547 -0.014633954 0.7069518
0.016823517 -0.0168235 0.70844519
0.016926814 -0.019042671 0.71000379
0.017032692 -0.021290809 0.71160138
0.017134914 -0.023560494 0.71314377
0.017219532 -0.025829315 0.71442062
0.017313676 -0.028134733 0.71584117
0.017416883 -0.03047955 0.71739841
0.017521329 -0.032852471 0.71897435
0.017627032 -0.035254061 0.72056925
0.017734021 -0.037684798 0.72218359
0.017842237 -0.04014504 0.72381645
0.017951861 -0.042635649 0.7254706
0.018062841 -0.045157135 0.7271452
0.018217305 -0.047820419 0.72947586
0.0184051 -0.050614029 0.73230946
0.018608307 -0.053498894 0.73537564
0.01881844 -0.056455284 0.73854619
0.019033464 -0.059479535 0.74179065
0.019270139 -0.062627941 0.74536186
0.019545838 -0.065967232 0.74952191
0.019851275 -0.069479436 0.75413048
0.016117033 0.084166735 0.67076439
0.016193885 0.082768768 0.67179513
0.016268769 0.081343859 0.67279953
0.016341681 0.079892695 0.6737774
0.01641429 0.078423858 0.67475128
0.01648755 0.076941878 0.67573386
0.016561406 0.075446397 0.67672443
0.013663657 0.060727358 0.63785899
0.013662622 0.059204698 0.63784504
0.013697072 0.057832062 0.63830709
0.013771758 0.05661726 0.63930881
0.013847307 0.055389225 0.64032209
0.01392369 0.054147691 0.64134657
0.014001397 0.052894175 0.64238882
0.014080242 0.051627547 0.64344633
0.014160203 0.050347418 0.64451873
0.014241121 0.049052775 0.64560407
0.014322924 0.047743082 0.64670122
0.014405719 0.046418428 0.64781171
0.014489429 0.045078248 0.64893442
0.014574165 0.04372251 0.65007097
0.014660137 0.042351544 0.65122408
0.014747757 0.040966034 0.65239918
0.01483648 0.039563954 0.65358919
0.014926276 0.038144976 0.65479362
0.015017116 0.036708504 0.65601194
0.015109424 0.035255343 0.65725005
0.015202924 0.03378427 0.65850407
0.01529759 0.032294899 0.65977371
0.015394598 0.030789196 0.66107482
0.015492898 0.029264361 0.66239327
0.015592408 0.027719826 0.663728
0.015693204 0.026155353 0.66507983
0.015795313 0.024570495 0.66644937
0.015898535 0.022964537 0.66783381
0.015969686 0.021292925 0.66878808
0.018841567 0.023028612 0.70730662
0.018980222 0.021089137 0.70916629
0.019111602 0.019111603 0.71092844
0.019231746 0.01709488 0.71253979
0.017338982 0.013485879 0.68715352
0.017398939 0.011599302 0.6879577
0.017483173 0.0097129047 0.68908745
0.017574603 0.0078109503 0.69031376
0.017668104 0.0058893561 0.69156778
0.017763583 0.0039474964 0.69284838
0.017862793 0.0019847751 0.69417906
0.017965987 2.9802322e-08 0.69556308
0.018072117 -0.0020080507 0.69698662
0.01817577 -0.0040390491 0.69837672
0.018268008 -0.0060893297 0.69961387
0.018352732 -0.0081567764 0.70075023
0.018455779 -0.010253191 0.70213234
0.018559989 -0.012373328 0.70353007
0.018665381 -0.014517516 0.70494354
0.018771978 -0.016686201 0.70637333
0.018879799 -0.018879771 0.7078194
0.018988866 -0.021098733 0.70928228
0.019099202 -0.023343474 0.71076214
0.019210743 -0.025614291 0.7122581
0.019383233 -0.027998 0.7145716
0.019572534 -0.030446142 0.71711051
0.019775549 -0.032959282 0.71983349
0.019986371 -0.035531312 0.72266108
0.020201914 -0.038159162 0.72555202
0.020433836 -0.040867656 0.72866261
0.020708119 -0.043717086 0.73234129
0.02099378 -0.046652824 0.73617274
0.021449363 -0.0500485 0.74228317
0.021763982 -0.053200871 0.746503
0.021976406 -0.05616194 0.74935204
0.022173347 -0.05912891 0.75199342
0.022362739 -0.062118709 0.75453359
0.022555169 -0.065159351 0.75711453
0.022755191 -0.068265557 0.75979733
0.017817391 0.083741754 0.66967291
0.017894046 0.082312614 0.67059815
0.017971298 0.080870837 0.67153072
0.018049285 0.079416811 0.67247212
0.018127887 0.077949941 0.67342091
0.018206844 0.076468736 0.67437398
0.018285625 0.07497105 0.67532492
0.015227074 0.060908318 0.63840497
0.015237925 0.059427887 0.63853598
0.015286154 0.058087379 0.63911808
0.015371008 0.056872755 0.64014244
0.015456762 0.055644363 0.64117754
0.015544204 0.054404706 0.64223307
0.01563308 0.053152502 0.6433059
0.015723126 0.05188635 0.64439285
0.015814215 0.050605506 0.64549243
0.015906366 0.04930976 0.64660478
0.015999597 0.047998786 0.64773017
0.016093876 0.046672255 0.6488682
0.016189484 0.045330524 0.65002227
0.016287239 0.043975532 0.65120232
0.016386181 0.042604089 0.65239668
0.016486336 0.041215867 0.65360558
0.016587995 0.039811194 0.65483272
0.016691139 0.038389623 0.65607774
0.016795518 0.036950141 0.65733778
0.01690121 0.035492539 0.65861356
0.017009167 0.034018338 0.6599167
0.017118979 0.032526076 0.66124225
0.017230455 0.03101483 0.66258794
0.017343454 0.029483885 0.66395193
0.017458797 0.027934104 0.66534424
0.018325942 0.027488917 0.67581159
0.018412191 0.025777042 0.67685276
0.018503979 0.024055183 0.67796069
0.018597238 0.022316664 0.67908645
0.018692629 0.020561904 0.68023789
0.018791404 0.018791437 0.68143022
0.018893937 0.01700452 0.68266791
0.018999543 0.015199631 0.68394274
0.019104004 0.013372809 0.68520367
0.019199152 0.011519492 0.68635219
0.019278377 0.0096391737 0.68730855
0.019380677 0.0077522993 0.68854338
0.019484069 0.0058452189 0.68979144
0.019588493 0.0039177239 0.69105196
0.019694122 0.0019694269 0.69232702
0.019800894 -0 0.69361579
0.019908831 -0.0019908547 0.69491881
0.020017952 -0.0040035546 0.69623601
0.020128274 -0.0060384572 0.6975677
0.020244816 -0.0080979168 0.69897443
0.020429643 -0.010214806 0.70120555
0.020618726 -0.012371242 0.70348793
0.020820346 -0.01457423 0.70592171
0.021030545 -0.016824424 0.70845902
0.021245392 -0.019120842 0.71105254
0.021477666 -0.021477669 0.71385628
0.021742344 -0.023916572 0.71705127
0.022026613 -0.026431948 0.72048265
0.022428259 -0.029156715 0.72533095
0.022827316 -0.031958252 0.73014796
0.023045052 -0.034567595 0.73277628
0.023245255 -0.037192434 0.73519301
0.023436775 -0.039842516 0.73750484
0.023627017 -0.042528659 0.73980129
0.023820369 -0.045258731 0.74213529
0.024025794 -0.048051566 0.7446149
0.024243718 -0.050911784 0.74724549
0.024488257 -0.053874195 0.75019735
0.02478263 -0.057000071 0.75375074
0.019470172 0.083190739 0.66825771
0.019172698 0.080176741 0.66499335
0.019241469 0.078715086 0.665748
0.019315612 0.077262431 0.6665616
0.019391902 0.07580474 0.66739875
0.019468451 0.074334085 0.66823882
0.019549634 0.072866827 0.66912967
0.016827673 0.061191499 0.63925976
0.016836476 0.059692949 0.63935632
0.016904473 0.058397293 0.64010251
0.017000392 0.057183146 0.64115512
0.017098678 0.055959314 0.64223367
0.017198214 0.054721564 0.64332592
0.017298916 0.05346939 0.64443099
0.017400807 0.052202433 0.64554912
0.017503904 0.050920457 0.64668047
0.017608227 0.049623191 0.6478253
0.017713806 0.048310399 0.64898384
0.017821809 0.046984732 0.65016907
0.017931664 0.045644283 0.65137458
0.018043237 0.04428798 0.65259898
0.018156266 0.042914808 0.65383929
0.01827066 0.041524231 0.65509462
0.018387118 0.040117353 0.65637261
0.018505197 0.038692683 0.65766835
0.018626314 0.037252635 0.65899748
0.018749025 0.035793632 0.660344
0.018873431 0.034315348 0.66170919
0.019000284 0.032818675 0.66310132
0.019129917 0.031303525 0.66452384
0.019261332 0.029767513 0.66596597
0.019936774 0.028998941 0.67337805
0.020033507 0.027318418 0.67443955
0.020108087 0.025592119 0.67525804
0.020209238 0.023883671 0.676368
0.020311411 0.022157907 0.67748916
0.020414623 0.020414621 0.67862183
0.020518888 0.018653542 0.679766
0.020624224 0.016874403 0.68092191
0.020730648 0.015076846 0.68208981
0.020838175 0.013260663 0.68326974
0.020946745 0.011425495 0.68446118
0.021056531 0.009571135 0.68566597
0.021188824 0.007705003 0.6871177
0.021373633 0.0058291852 0.68914568
0.021561777 0.0039203167 0.69121033
0.021761006 0.0019782782 0.69339663
0.021969821 -2.9802322e-08 0.69568813
0.022182865 -0.0020166039 0.698026
0.022414584 -0.0040753484 0.7005688
0.022668734 -0.0061823726 0.70335782
0.022950321 -0.0083455741 0.70644784
0.023298902 -0.010590434 0.71027309
0.023767343 -0.01296401 0.71541357
0.023999801 -0.015272617 0.71796453
0.024202533 -0.017601848 0.72018921
0.02439552 -0.019959986 0.72230703
0.024582822 -0.022347987 0.72436237
0.024773022 -0.024773002 0.72644961
0.024968456 -0.027238309 0.72859424
0.025175974 -0.029753417 0.7308715
0.02539904 -0.032326072 0.73331928
0.025655717 -0.034985095 0.73613602
0.02603188 -0.037864506 0.74026394
0.021165092 0.08289662 0.66750228
0.020770747 0.079621255 0.66353548
0.020871613 0.078268558 0.66455019
0.020978151 0.076919883 0.66562182
0.021086896 0.075561374 0.66671574
0.021201713 0.074205995 0.6678707
0.02132301 0.072853655 0.66909087
0.018458705 0.06152904 0.64027816
0.018463643 0.060006827 0.64032781
0.018561475 0.058778048 0.64131194
0.018671084 0.057569176 0.64241457
0.018781936 0.05634582 0.64352965
0.018894171 0.055108041 0.64465863
0.019007757 0.05385536 0.64580119
0.019122656 0.05258733 0.64695698
0.019239936 0.051306486 0.64813673
0.019359915 0.050013125 0.64934361
0.019481841 0.048704594 0.65057009
0.019605312 0.047379494 0.6518122
0.019730359 0.046037525 0.65306997
0.019857602 0.044679612 0.65434992
0.019987362 0.043305963 0.65565526
0.02012011 0.041916907 0.65699059
0.020255385 0.040510774 0.6583513
0.020392697 0.039086014 0.65973258
0.020531885 0.037641764 0.66113275
0.020675264 0.036181718 0.66257501
0.020821238 0.034702063 0.66404343
0.020970093 0.033202678 0.66554075
0.021123173 0.031684756 0.66708064
0.021278728 0.03014487 0.66864538
0.021551004 0.028734684 0.67138433
0.021681353 0.027101696 0.67269552
0.021789303 0.025420845 0.67378139
0.021898095 0.023722947 0.67487574
0.022046279 0.022046298 0.67636633
0.022229683 0.020377249 0.67821121
0.022416165 0.018680155 0.68008709
0.022612356 0.01695925 0.68206066
0.022819122 0.015212744 0.68414056
0.023029614 0.013433963 0.68625796
0.023260055 0.011630028 0.68857598
0.023503158 0.0097929835 0.69102144
0.023781495 0.0079271793 0.69382131
0.024103992 0.0060259998 0.69706535
0.02459299 0.0040988326 0.70198429
0.024853798 0.0020711124 0.70460784
0.025059912 -2.9802322e-08 0.70668119
0.025253637 -0.0021044612 0.70862997
0.025440462 -0.0042400956 0.71050918
0.025627116 -0.0064067841 0.71238679
0.025816528 -0.00860551 0.71429217
0.026015637 -0.01083988 0.71629506
0.026223566 -0.01311174 0.71838665
0.026449401 -0.015428811 0.7206583
0.02671703 -0.017811358 0.72335052
0.022630028 0.080075473 0.66472763
0.022742143 0.078722835 0.66576862
0.022849113 0.077335447 0.66676188
0.022950126 0.075911939 0.66769981
0.02062216 0.066625476 0.64608365
0.020211233 0.063743144 0.642268
0.020126993 0.061929226 0.64148581
0.020148564 0.060445726 0.64168614
0.020270437 0.059252053 0.6428178
0.020393794 0.058043897 0.64396322
0.020518597 0.05682075 0.64512205
0.020645918 0.055585176 0.64630431
0.020777354 0.05434078 0.64752471
0.020910472 0.05308044 0.6487608
0.021045307 0.051803827 0.65001279
0.02118196 0.050510824 0.65128171
0.021321168 0.04920271 0.6525743
0.021464486 0.047882289 0.65390509
0.021611108 0.046547025 0.65526646
0.021759745 0.045193344 0.65664661
0.021911548 0.043823093 0.6580562
0.022067133 0.042436779 0.6595009
0.022227675 0.041035712 0.66099161
0.022391342 0.039615482 0.66251129
0.022559548 0.038177699 0.66407311
0.022736657 0.036728412 0.66571772
0.022916006 0.035255402 0.66738307
0.023098206 0.033758909 0.66907483
0.023291327 0.03224954 0.67086804
0.02349407 0.030723006 0.67275065
0.023700461 0.029169828 0.67466712
0.023924932 0.027605712 0.67675138
0.024026915 0.025875151 0.67769837
0.024263253 0.024263233 0.67989284
0.024533305 0.022646129 0.68240035
0.024837291 0.021016181 0.68522298
0.02527958 0.019445837 0.68932986
0.025622226 0.017738461 0.69251144
0.025831733 0.01589644 0.69445688
0.026026983 0.014014542 0.69626975
0.026214212 0.012098849 0.69800836
0.026397189 0.010152757 0.69970739
0.026582632 0.0081792474 0.70142925
0.026771247 0.0061779618 0.70318067
0.026972845 0.0041496754 0.70505255
0.027184544 0.0020911396 0.70701832
0.027415184 -0 0.70915985
0.027686253 -0.002129674 0.71167684
0.024202313 0.079521894 0.66327488
0.024233628 0.077893823 0.66354489
0.023359491 0.073415548 0.65600795
