# .PCD v0.7 - Point Cloud Data file format
VERSION 0.7
FIELDS x y z
SIZE 4 4 4
TYPE F F F
COUNT 1 1 1
WIDTH 1342
HEIGHT 1
VIEWPOINT 0 0 0 1 0 0 0
POINTS 1342
DATA ascii
-0.017400753 0.01914084 0.66464359
-0.017516986 0.017516971 0.66604662
-0.017646784 0.015882105 0.66761345
-0.017800784 0.014240623 0.6694724
-0.018171865 0.012720317 0.67395169
-0.018342737 0.01100564 0.67601436
-0.018475555 0.0092377663 0.67761761
-0.018603876 0.0074415505 0.67916662
-0.018734062 0.0056202412 0.68073803
-0.018869996 0.0037740171 0.68237889
-0.019010589 0.0019010901 0.68407607
-0.019155858 2.9802322e-08 0.68582964
-0.019308953 -0.0019308925 0.68767762
-0.019467317 -0.0038934648 0.6895892
-0.019635694 -0.005890727 0.69162178
-0.019813441 -0.0079253316 0.69376731
-0.020001147 -0.010000587 0.69603312
-0.020208837 -0.012125313 0.69854021
-0.020436736 -0.014305711 0.70129114
-0.020697704 -0.016558141 0.70444131
-0.021019856 -0.018917859 0.70832998
-0.022693859 -0.022693813 0.72853702
-0.016809676 0.089651614 0.68005431
-0.016884109 0.088172585 0.68105263
-0.016957415 0.086671203 0.68203586
-0.017028013 0.085140079 0.68298268
-0.0170992 0.083596081 0.68393749
-0.017170984 0.082039148 0.68490028
-0.013843775 0.064604282 0.6402747
-0.013850118 0.063095003 0.64035988
-0.013906104 0.061804891 0.64111066
-0.013962587 0.060504556 0.64186823
-0.014019618 0.059193969 0.6426332
-0.014078437 0.057878017 0.64342213
-0.014138018 0.056552082 0.64422125
-0.014198061 0.055214673 0.64502656
-0.014258617 0.05386588 0.64583874
-0.014320237 0.05250755 0.64666522
-0.01438354 0.0511415 0.64751422
-0.014447453 0.049763471 0.64837146
-0.014511981 0.048373282 0.64923692
-0.014577609 0.046972275 0.65011716
-0.014644309 0.045560122 0.65101171
-0.014712535 0.044137597 0.65192688
-0.014781401 0.04270187 0.65285045
-0.014851502 0.041254163 0.65379071
-0.01492227 0.039792717 0.65473986
-0.014995065 0.03832072 0.65571618
-0.015068875 0.036835045 0.65670615
-0.015143924 0.035335809 0.6577127
-0.015219727 0.033821613 0.65872943
-0.015297537 0.03229478 0.65977305
-0.015377041 0.030754089 0.66083938
-0.015457587 0.029197693 0.66191971
-0.015538928 0.027624756 0.6630106
-0.015623189 0.026038617 0.66414076
-0.01570897 0.024436206 0.66529131
-0.015795644 0.022815943 0.66645384
-0.015709683 0.020946234 0.66530085
-0.015618691 0.01908949 0.66408044
-0.015698127 0.017442346 0.66514593
-0.015786177 0.015786171 0.66632682
-0.015878016 0.014113784 0.66755861
-0.015977846 0.012427211 0.66889751
-0.01608675 0.010724515 0.67035818
-0.01621295 0.0090072155 0.67205083
-0.016370375 0.0072757006 0.67416227
-0.016710123 0.0055700541 0.67871904
-0.016857373 0.0037460923 0.68069404
-0.016978962 0.0018865466 0.68232477
-0.017099394 2.9802322e-08 0.68394011
-0.01722155 -0.0019134879 0.68557841
-0.017351141 -0.0038557947 0.68731654
-0.017483309 -0.0058277845 0.68908924
-0.01762254 -0.0078322589 0.69095665
-0.017766457 -0.009870261 0.69288689
-0.017919231 -0.011946142 0.69493598
-0.018077778 -0.014060467 0.69706243
-0.018250462 -0.016222626 0.69937849
-0.018433794 -0.018433779 0.70183754
-0.018632943 -0.020703256 0.70450848
-0.018857505 -0.023048073 0.70752037
-0.019128732 -0.025504947 0.7111581
-0.01950936 -0.028180152 0.71626323
-0.014842318 0.089053899 0.6785512
-0.014944334 0.08779797 0.68009049
-0.015031711 0.086432308 0.68140894
-0.015112923 0.085010231 0.68263435
-0.015188562 0.083537102 0.6837756
-0.012360675 0.066438645 0.64110607
-0.012312542 0.06464085 0.64037985
-0.012328316 0.063182652 0.64061785
-0.012376805 0.061884016 0.64134949
-0.012425713 0.060575366 0.64208746
-0.012475359 0.059257984 0.64283657
-0.012526503 0.057935089 0.64360827
-0.012578026 0.056601107 0.6443857
-0.012630016 0.055256307 0.64517009
-0.012682517 0.053900719 0.64596236
-0.012736024 0.05253613 0.6467697
-0.012790844 0.051163375 0.64759684
-0.012846136 0.049778789 0.64843112
-0.012901951 0.048382342 0.6492734
-0.012958714 0.046975344 0.6501298
-0.013016402 0.04555741 0.65100026
-0.013075332 0.044129282 0.65188944
-0.013134798 0.042688102 0.65278673
-0.013195372 0.041235536 0.65370071
-0.013256509 0.0397695 0.65462315
-0.01331919 0.038292646 0.65556896
-0.013382822 0.036802799 0.65652913
-0.013447474 0.035299629 0.65750462
-0.013512752 0.033781916 0.65848958
-0.013579451 0.032251239 0.65949595
-0.013647743 0.030707419 0.66052645
-0.013716958 0.029148549 0.66157085
-0.013786928 0.027573884 0.66262656
-0.013858479 0.025984645 0.66370624
-0.013932036 0.024381071 0.66481614
-0.014006379 0.022760361 0.6659379
-0.013913489 0.020870268 0.66453624
-0.013895378 0.019106179 0.66426301
-0.013958028 0.017447591 0.66520828
-0.014021246 0.015773892 0.66616219
-0.014088062 0.014088094 0.66717041
-0.014160777 0.012390673 0.66826755
-0.014234247 0.010675669 0.66937613
-0.01431672 0.0089479387 0.67062056
-0.014401712 0.0072008967 0.67190295
-0.014496112 0.0054360628 0.67332733
-0.014596973 0.0036492348 0.67484927
-0.014718109 0.001839757 0.67667699
-0.014876186 -0 0.67906219
-0.015181419 -0.0018976629 0.68366784
-0.01530699 -0.0038267672 0.68556255
-0.015417771 -0.0057816803 0.6872341
-0.015529565 -0.0077647865 0.68892097
-0.015644215 -0.0097776353 0.69065088
-0.015765039 -0.011823744 0.69247401
-0.015887998 -0.013901979 0.69432926
-0.016019616 -0.016019613 0.69631529
-0.016154088 -0.018173367 0.69834429
-0.01629906 -0.020373791 0.70053172
-0.016450576 -0.022619575 0.70281798
-0.016612383 -0.024918556 0.70525944
-0.016790209 -0.027284086 0.70794261
-0.016986145 -0.02972573 0.710899
-0.017211759 -0.032272011 0.71430326
-0.017493149 -0.034986317 0.71854919
-0.018895635 -0.040153235 0.73971105
-0.012884552 0.08835122 0.6767841
-0.012949911 0.086949408 0.6779111
-0.013019518 0.085556805 0.67911148
-0.013095065 0.08418256 0.68041426
-0.013179225 0.08284086 0.68186551
-0.010785351 0.066252857 0.64058459
-0.010784155 0.064704925 0.64056402
-0.010807415 0.06330058 0.6409651
-0.01084879 0.061993122 0.64167857
-0.010890484 0.060675561 0.64239758
-0.010933216 0.059351742 0.64313447
-0.010976834 0.058020413 0.64388663
-0.011020768 0.056678236 0.64464426
-0.01106509 0.055325478 0.64540857
-0.011109945 0.053962588 0.64618206
-0.01115577 0.052591503 0.6469723
-0.011202476 0.051211298 0.64777768
-0.011249576 0.049819559 0.64858991
-0.011297182 0.048416525 0.64941084
-0.011345596 0.04700315 0.65024573
-0.011394836 0.045579374 0.65109479
-0.011444991 0.044144958 0.65195972
-0.011495664 0.042698205 0.65283352
-0.011547207 0.041240007 0.65372241
-0.011599176 0.039768577 0.65461856
-0.011652467 0.038286686 0.65553755
-0.011706525 0.036791921 0.6564697
-0.011761522 0.035284609 0.65741807
-0.011817037 0.033762962 0.65837544
-0.01187348 0.032227993 0.65934879
-0.011931361 0.030680656 0.66034687
-0.011990095 0.029118806 0.66135973
-0.012049451 0.027541608 0.66238326
-0.012109566 0.025949061 0.66341996
-0.012171808 0.02434361 0.6644932
-0.012234776 0.022721738 0.66557908
-0.012178706 0.020877808 0.66461217
-0.012215531 0.019195825 0.66524726
-0.012256654 0.01750949 0.66595638
-0.012302936 0.015818059 0.66675448
-0.01235179 0.014116317 0.66759694
-0.012401297 0.012401283 0.66845059
-0.012458332 0.010678619 0.66943413
-0.01251585 0.0089398921 0.67042607
-0.012577152 0.0071869493 0.67148316
-0.012643347 0.0054185987 0.67262459
-0.012710289 0.0036315322 0.67377901
-0.012786433 0.0018266439 0.67509204
-0.012863919 -0 0.67642832
-0.012951828 -0.0018502772 0.67794418
-0.01304381 -0.0037267804 0.67953038
-0.013158281 -0.005639255 0.68150437
-0.013333857 -0.0076193511 0.68453205
-0.013579097 -0.0096993446 0.68876106
-0.013687083 -0.011731774 0.69062328
-0.013787839 -0.013787836 0.6923607
-0.013890034 -0.015874326 0.69412297
-0.013996496 -0.017995477 0.69595885
-0.014107044 -0.020152897 0.69786519
-0.014221778 -0.022348523 0.6998437
-0.014342386 -0.024586946 0.70192349
-0.014468702 -0.02687043 0.70410174
-0.014601645 -0.029203296 0.70639426
-0.014745056 -0.031596541 0.70886731
-0.014897773 -0.034052044 0.71150088
-0.01506437 -0.036584914 0.71437365
-0.015253312 -0.039222807 0.71763188
-0.015483313 -0.042026132 0.72159809
-0.015826769 -0.045219332 0.72752076
-0.011003181 0.088025481 0.67596483
-0.011057814 0.086619526 0.67706394
-0.011112373 0.085194916 0.67816162
-0.011166934 0.083751976 0.67925924
-0.011221781 0.082293063 0.68036276
-0.0092589557 0.066355854 0.64087373
-0.0092566721 0.064796716 0.64082778
-0.0092854165 0.063450336 0.64140606
-0.0093199797 0.062133223 0.64210141
-0.0093548 0.060806245 0.64280194
-0.0093908207 0.059475213 0.64352667
-0.0094272699 0.058134884 0.64425993
-0.0094640022 0.056784034 0.64499891
-0.0095010214 0.055422634 0.64574373
-0.0095386039 0.054052085 0.64649981
-0.0095770052 0.052673519 0.64727235
-0.0096160248 0.051285446 0.6480574
-0.0096553946 0.049886227 0.64884949
-0.0096952133 0.04847607 0.64965057
-0.0097356457 0.047055632 0.650464
-0.0097768623 0.045625359 0.65129322
-0.0098187188 0.044184268 0.65213525
-0.0098610315 0.042731136 0.65298653
-0.0099040717 0.041266978 0.65385246
-0.0099474546 0.039789796 0.65472531
-0.0099919187 0.038302362 0.6556198
-0.010036983 0.036802262 0.65652645
-0.010082828 0.035289913 0.65744871
-0.010129059 0.033763528 0.65837884
-0.010175958 0.03222385 0.65932238
-0.010224128 0.030672401 0.66029149
-0.010273074 0.029107064 0.66127622
-0.010322491 0.027526647 0.66227037
-0.010372384 0.025930971 0.66327417
-0.010423957 0.02432254 0.66431177
-0.010475644 0.02269721 0.66535163
-0.010499862 0.02099973 0.66583884
-0.010542189 0.019327343 0.66669041
-0.010581502 0.017635852 0.6674813
-0.010616827 0.015925229 0.66819197
-0.010648496 0.014197975 0.66882914
-0.010681002 0.012461185 0.66948307
-0.010717493 0.010717511 0.67021728
-0.010758512 0.0089654326 0.67104244
-0.010802099 0.0072014034 0.67191935
-0.010846278 0.0054231584 0.67280817
-0.010897183 0.0036323965 0.6738323
-0.010948568 0.0018247366 0.67486608
-0.011003625 -0 0.67597377
-0.011062784 -0.0018438101 0.67716396
-0.011122995 -0.0037076771 0.6783753
-0.011191412 -0.0055956841 0.67975175
-0.011260674 -0.0075071156 0.68114519
-0.011340902 -0.0094507635 0.68275923
-0.011426628 -0.011426628 0.68448389
-0.011529179 -0.013450712 0.68654704
-0.011775455 -0.015700608 0.6915018
-0.011900694 -0.017851025 0.6940214
-0.011994264 -0.019990414 0.69590384
-0.012084451 -0.022154838 0.69771832
-0.012176005 -0.024351954 0.69956017
-0.012272919 -0.026591331 0.70151001
-0.012372152 -0.028868347 0.70350641
-0.012477151 -0.031192869 0.70561886
-0.012585424 -0.03356114 0.70779717
-0.01270177 -0.035988361 0.71013778
-0.01282319 -0.038469523 0.71258056
-0.012954327 -0.041022003 0.71521884
-0.013097482 -0.043658286 0.71809894
-0.013255942 -0.046395779 0.72128683
-0.013439305 -0.049277455 0.72497582
-0.013674492 -0.052418888 0.72970742
-0.014774375 -0.059097499 0.75183535
-0.0091714356 0.088045746 0.67601597
-0.0092016608 0.086495608 0.67674571
-0.0092349127 0.084961206 0.67754847
-0.0092732171 0.08345899 0.67847317
-0.0093168337 0.081988126 0.67952615
-0.0077314149 0.066490173 0.64125085
-0.0077323946 0.064952135 0.64127445
-0.0077602654 0.063634187 0.64194733
-0.0077883131 0.062306494 0.64262444
-0.0078166863 0.060970157 0.64330941
-0.0078460053 0.059629619 0.64401722
-0.0078756195 0.058279574 0.64473224
-0.007905459 0.056919336 0.64545262
-0.0079354998 0.055548519 0.64617783
-0.0079660481 0.054169118 0.64691532
-0.0079974718 0.05278331 0.64767396
-0.0080291955 0.051386863 0.64843988
-0.0080611734 0.04997927 0.64921188
-0.0080935629 0.048561364 0.64999384
-0.0081263985 0.047133118 0.65078658
-0.008159901 0.045695454 0.65159535
-0.0081939232 0.04424721 0.65241671
-0.0082283104 0.042787224 0.65324688
-0.0082632611 0.041316301 0.6540907
-0.0082985098 0.03983286 0.65494168
-0.0083345873 0.038339108 0.65581262
-0.0083711771 0.036833197 0.65669602
-0.0084083714 0.035315186 0.65759397
-0.0084459269 0.033783704 0.65850067
-0.0084839044 0.032238871 0.65941751
-0.0085229231 0.030682504 0.6603595
-0.0085625947 0.029112786 0.66131723
-0.008602608 0.027528375 0.6622833
-0.0086430265 0.025929064 0.66325903
-0.0086845504 0.024316758 0.66426152
-0.0087221246 0.022677541 0.66516864
-0.0087565305 0.021015644 0.66599929
-0.0087992167 0.019358277 0.6670298
-0.0088424459 0.017684907 0.66807342
-0.0088847764 0.015992582 0.6690954
-0.0089247441 0.014279604 0.67006028
-0.0089618294 0.012546569 0.67095566
-0.0089966683 0.01079601 0.67179668
-0.0090279318 0.0090279579 0.67255145
-0.0090555772 0.0072444975 0.67321885
-0.0090835243 0.0054501295 0.67389357
-0.0091149639 0.0036459863 0.67465264
-0.0091503691 0.0018300712 0.67550737
-0.0091882441 -0 0.67642176
-0.0092266025 -0.0018453002 0.67734778
-0.0092708115 -0.0037083328 0.67841518
-0.009315446 -0.0055892766 0.67949265
-0.0093635945 -0.0074909031 0.68065512
-0.0094150072 -0.0094150007 0.68189633
-0.0094680618 -0.011361659 0.68317717
-0.0095275566 -0.013338596 0.68461347
-0.0095883915 -0.015341431 0.68608218
-0.009659024 -0.017386258 0.68778735
-0.0097366124 -0.019473195 0.68966055
-0.0098321233 -0.021630675 0.69196635
-0.01004692 -0.024112612 0.69715202
-0.010144038 -0.026374489 0.69949669
-0.010223839 -0.02862677 0.70142317
-0.010302528 -0.030907542 0.70332295
-0.010383041 -0.033225715 0.70526671
-0.010468238 -0.03559202 0.70732355
-0.010555334 -0.037999213 0.70942622
-0.010648332 -0.040463656 0.71167147
-0.010744552 -0.042978197 0.71399438
-0.010847228 -0.045558363 0.71647316
-0.010956921 -0.048210472 0.71912146
-0.011074098 -0.050940871 0.72195029
-0.01120253 -0.053772151 0.72505093
-0.011348938 -0.056744665 0.72858548
-0.011528633 -0.059948921 0.73292375
-0.011813062 -0.0637905 0.73979044
-0.0073887217 0.088664651 0.67757231
-0.0074133249 0.087106586 0.67831481
-0.0074286517 0.08542949 0.67877734
-0.0074468665 0.083777249 0.67932701
-0.0062053828 0.068259209 0.64186192
-0.0062005762 0.066656202 0.6417169
-0.0062080389 0.065184414 0.64194208
-0.0062297392 0.063854814 0.64259696
-0.0062515913 0.062515914 0.64325643
-0.0062737153 0.0611687 0.643924
-0.0062965914 0.059817642 0.64461434
-0.0063196938 0.058457136 0.64531159
-0.006342947 0.057086557 0.64601326
-0.0063663917 0.055705965 0.64672077
-0.0063902559 0.054317176 0.64744091
-0.0064147105 0.052921385 0.64817894
-0.0064394563 0.051515669 0.64892566
-0.0064643729 0.050098896 0.64967763
-0.0064895884 0.048671901 0.65043855
-0.0065152557 0.047235608 0.65121311
-0.0065415762 0.04579103 0.65200746
-0.0065681101 0.044334739 0.65280819
-0.0065949466 0.042867154 0.65361804
-0.0066221794 0.041388631 0.65443981
-0.0066496376 0.039897799 0.65526855
-0.0066777701 0.038397193 0.65611744
-0.0067062988 0.036884636 0.65697837
-0.0067353216 0.035360456 0.6578542
-0.0067645973 0.033823013 0.65873766
-0.0067941509 0.032272249 0.65962958
-0.006824546 0.030710429 0.66054678
-0.0068554487 0.029135674 0.66147935
-0.0068866331 0.027546525 0.66242051
-0.0069181263 0.025942981 0.66337085
-0.0069502946 0.024326026 0.66434157
-0.006971891 0.022658646 0.66499329
-0.0070057148 0.021017134 0.66601408
-0.007039893 0.019359708 0.66704547
-0.0070744068 0.017686039 0.66808701
-0.0071092355 0.015995771 0.66913807
-0.0071444339 0.014288902 0.67020029
-0.0071799573 0.012564957 0.67127228
-0.0072159399 0.010823935 0.67235816
-0.0072514699 0.0090643466 0.67343038
-0.0072852294 0.0072852373 0.67444921
-0.0073166024 0.0054874718 0.67539597
-0.007346251 0.0036731064 0.67629063
-0.0073728254 0.001843214 0.67709261
-0.0073960111 2.9802322e-08 0.67779231
-0.0074190684 -0.0018547475 0.67848808
-0.0074451487 -0.0037225485 0.67927516
-0.0074744825 -0.0056058466 0.6801604
-0.0075060744 -0.0075060427 0.68111372
-0.0075381054 -0.0094226301 0.68208039
-0.0075749946 -0.011362493 0.68319362
-0.0076122172 -0.01332137 0.68431687
-0.0076527046 -0.01530543 0.68553877
-0.0076956353 -0.017315179 0.68683428
-0.0077405479 -0.019351333 0.68818963
-0.0077902302 -0.021423131 0.68968892
-0.0078422744 -0.023526818 0.6912595
-0.0079013472 -0.02567938 0.69304222
-0.0079687331 -0.027890563 0.69507569
-0.0080558145 -0.030209303 0.6977036
-0.0082302606 -0.032921046 0.702968
-0.0083050532 -0.03529647 0.70522511
-0.0083705625 -0.037667543 0.70720196
-0.0084364722 -0.040073246 0.70919096
-0.0085050547 -0.042525291 0.71126068
-0.0085765244 -0.045026749 0.71341747
-0.0086510386 -0.047580719 0.71566606
-0.0087291794 -0.050192744 0.71802425
-0.008812042 -0.052872241 0.72052485
-0.0088987472 -0.055617154 0.72314137
-0.0089935567 -0.05845812 0.72600251
-0.0090963161 -0.061400115 0.72910357
-0.0092105549 -0.064473867 0.73255098
-0.0093435068 -0.067740411 0.73656321
-0.0095186774 -0.071390063 0.74184942
-0.0054954677 0.08975935 0.67571843
-0.0055210162 0.088336259 0.67674649
-0.0055493261 0.086939424 0.67788553
-0.0055775126 0.085521907 0.67901969
-0.0047691204 0.071536809 0.64649248
-0.0046690633 0.068479598 0.64246655
-0.0046643629 0.066855878 0.64227736
-0.0046756077 0.065458506 0.64272988
-0.0046914481 0.064116478 0.64336717
-0.0047073821 0.062765092 0.6440084
-0.0047234837 0.061405301 0.64465624
-0.0047402047 0.06004259 0.645329
-0.0047570593 0.058670402 0.64600718
-0.0047740499 0.057288587 0.64669085
-0.004791162 0.055896908 0.64737934
-0.0048085819 0.054497272 0.64808035
-0.00482644 0.053090841 0.64879888
-0.0048445403 0.051675081 0.64952719
-0.0048627607 0.050248533 0.65026033
-0.0048812144 0.048812181 0.65100282
-0.0048999842 0.04736656 0.65175807
-0.0049191089 0.0459117 0.65252757
-0.0049384967 0.044446468 0.65330768
-0.0049580713 0.042969972 0.65409529
-0.0049779168 0.041482627 0.65489382
-0.0049981549 0.03998524 0.65570813
-0.0050188098 0.03847757 0.6565392
-0.0050396705 0.036957592 0.65737861
-0.0050608753 0.03542611 0.65823185
-0.0050822771 0.033881843 0.65909296
-0.0051038428 0.032324374 0.65996069
-0.005126013 0.030756056 0.66085279
-0.0051486231 0.02917552 0.66176254
-0.005171434 0.027580976 0.66268039
-0.0051944298 0.025972158 0.66360563
-0.0052178125 0.024349779 0.66454649
-0.0052343882 0.022682369 0.66521341
-0.00525863 0.021034539 0.66618884
-0.0052830977 0.01937139 0.66717333
-0.0053078127 0.017692685 0.66816783
-0.005332741 0.015998244 0.66917086
-0.0053587272 0.014289945 0.67021644
-0.0053853737 0.012565881 0.67128861
-0.0054123062 0.010824621 0.67237234
-0.0054394891 0.0090658069 0.67346609
-0.0054669669 0.0072892904 0.67457169
-0.0054947231 0.0054947138 0.67568851
-0.0055228244 0.0036818683 0.67681921
-0.0055507827 0.0018502772 0.67794418
-0.0055775545 2.9802322e-08 0.67902136
-0.0056024515 -0.0018674731 0.68002319
-0.0056260955 -0.0037507117 0.68097454
-0.0056470707 -0.0056470633 0.68181849
-0.0056655072 -0.0075539947 0.68256032
-0.0056833965 -0.0094723403 0.68328017
-0.0057036532 -0.011407286 0.68409514
-0.0057265004 -0.013361841 0.68501449
-0.0057512056 -0.015336543 0.68600857
-0.0057763024 -0.017328918 0.68701833
-0.0058051641 -0.019350559 0.68817967
-0.0058343387 -0.021392554 0.68935353
-0.005866237 -0.023464948 0.69063705
-0.0058998764 -0.025566161 0.69199061
-0.0059355469 -0.027699232 0.69342589
-0.0059745274 -0.029872656 0.69499433
-0.0060162647 -0.03208673 0.69667369
-0.0060626026 -0.034354746 0.69853818
-0.006117478 -0.036704868 0.70074624
-0.0061915112 -0.039212942 0.70372516
-0.0063227969 -0.042151928 0.70900762
-0.0063773813 -0.044641674 0.71120399
-0.0064284266 -0.04714182 0.71325779
-0.0064802677 -0.049682051 0.71534371
-0.0065350276 -0.052280217 0.71754712
-0.0065913289 -0.054927737 0.71981251
-0.006651171 -0.057643473 0.72222036
-0.0067128907 -0.060416043 0.72470379
-0.0067797145 -0.063277304 0.72739255
-0.0068503823 -0.066220403 0.73023605
-0.0069261803 -0.069261789 0.7332859
-0.0070098219 -0.072434813 0.73665142
-0.0071052499 -0.075789332 0.74049109
-0.0072235893 -0.079459488 0.74525273
-0.0036397132 0.089172959 0.67427409
-0.0035931496 0.086235583 0.67146367
-0.0036792972 0.086463481 0.67666316
-0.003698867 0.085073948 0.67784429
-0.0031559507 0.071008891 0.64507639
-0.0031245856 0.068740875 0.64318335
-0.0031221872 0.067127049 0.64303863
-0.0031323705 0.065779775 0.64365321
-0.0031426107 0.064423531 0.64427125
-0.0031529278 0.063058555 0.64489394
-0.0031633028 0.06168443 0.64552009
-0.0031740586 0.060307115 0.6461693
-0.0031850094 0.058922648 0.64683026
-0.0031960257 0.057528466 0.64749515
-0.0032071187 0.056124568 0.64816463
-0.0032183821 0.054712474 0.64884442
-0.003229975 0.053294599 0.64954412
-0.0032417146 0.051867425 0.6502527
-0.0032535503 0.05043003 0.65096706
-0.0032654728 0.048982143 0.65168667
-0.0032776874 0.047526479 0.65242386
-0.0032900798 0.046061128 0.65317178
-0.0033026861 0.044586271 0.65393269
-0.0033154339 0.043100625 0.65470207
-0.0033283241 0.041604042 0.65548009
-0.0033414601 0.040097505 0.65627289
-0.0033547794 0.038579971 0.65707672
-0.0033682957 0.03705126 0.65789253
-0.0033820125 0.035511166 0.65872043
-0.0033959111 0.033959121 0.65955925
-0.0034100751 0.03239572 0.66041422
-0.0034244871 0.0308204 0.66128397
-0.0034391866 0.029233098 0.66217119
-0.0034540007 0.027631998 0.66306531
-0.0034689554 0.026017189 0.66396785
-0.0034840398 0.024388283 0.66487831
-0.0034945272 0.022714436 0.66551125
-0.0035099711 0.021059841 0.66644341
-0.0035258129 0.019391984 0.66739953
-0.0035423122 0.01771158 0.66839534
-0.0035589666 0.016015351 0.66940057
-0.0035757911 0.014303178 0.670416
-0.0035927629 0.012574673 0.67144036
-0.0036098962 0.010829687 0.67247438
-0.0036271936 0.0090680122 0.67351842
-0.0036449234 0.0072898865 0.67458844
-0.0036634172 0.0054951608 0.67570472
-0.0036821133 0.0036821067 0.67683315
-0.0037010009 0.0018505156 0.67797303
-0.0037200698 -0 0.679124
-0.0037393498 -0.0018696785 0.68028766
-0.0037588875 -0.0037589073 0.68146688
-0.0037784735 -0.0056677163 0.68264902
-0.0037973423 -0.0075947046 0.68378782
-0.0038149017 -0.0095372498 0.68484759
-0.0038315824 -0.011494756 0.68585443
-0.003846413 -0.013462454 0.68674952
-0.0038594226 -0.015437663 0.68753469
-0.0038717864 -0.017423004 0.68828088
-0.0038858133 -0.019429058 0.6891275
-0.0039016148 -0.021458864 0.69008118
-0.0039188187 -0.0235129 0.69111961
-0.0039362987 -0.025585949 0.69217461
-0.0039564213 -0.027694941 0.69338906
-0.0039767502 -0.029825628 0.69461602
-0.0039991266 -0.031993002 0.6959666
-0.0040225806 -0.034191936 0.69738215
-0.004047784 -0.036430031 0.69890326
-0.004074981 -0.038712353 0.70054477
-0.0041047498 -0.041047484 0.7023415
-0.0041371109 -0.043439686 0.70429462
-0.0041768262 -0.045945078 0.70669162
-0.0042618359 -0.049011111 0.71182251
-0.0043180161 -0.051816195 0.71521324
-0.0043551871 -0.054439813 0.7174567
-0.0043908837 -0.057081491 0.71961117
-0.0044273464 -0.059769154 0.72181195
-0.0044660936 -0.062525332 0.72415054
-0.0045058895 -0.065335393 0.72655237
-0.0045482819 -0.068224221 0.72911096
-0.0045927227 -0.071187198 0.73179322
-0.0046396321 -0.074234098 0.73462451
-0.0046908488 -0.077399015 0.73771572
-0.004746404 -0.080688864 0.74106872
-0.0018009462 0.088246346 0.67199135
-0.0017840833 0.08563599 0.66995579
-0.0017915958 0.084205002 0.67086267
-0.0018000067 0.082800299 0.67187798
-0.0015719816 0.07073918 0.64435291
-0.0015692553 0.069047213 0.64402378
-0.0015702599 0.067521155 0.64414507
-0.0015751488 0.066156298 0.64473522
-0.0015801131 0.064784646 0.64533442
-0.0015851088 0.063404322 0.64593744
-0.0015901311 0.062015146 0.64654368
-0.0015952109 0.060618043 0.64715689
-0.0016005177 0.059219182 0.64779752
-0.0016058701 0.05781135 0.64844358
-0.0016112534 0.056393832 0.64909345
-0.0016166884 0.054967433 0.64974946
-0.0016222814 0.053535253 0.65042466
-0.0016279819 0.052095413 0.65111274
-0.0016337387 0.050645918 0.65180761
-0.0016395363 0.04918611 0.65250748
-0.0016454565 0.047718227 0.65322208
-0.0016514903 0.04624173 0.65395045
-0.001657629 0.044755995 0.65469146
-0.0016638136 0.043259174 0.65543795
-0.001670061 0.041751534 0.65619212
-0.0016764735 0.0402354 0.65696621
-0.0016829412 0.038707674 0.65774691
-0.0016895332 0.037169755 0.65854263
-0.0016962287 0.035620809 0.65935087
-0.0017029834 0.034059674 0.6601662
-0.0017098796 0.03248772 0.66099864
-0.0017168614 0.030903518 0.66184139
-0.0021177949 0.036002487 0.7102384
-0.0021318805 0.034110099 0.71193862
-0.0021489474 0.032234222 0.71399885
-0.0021660833 0.030325174 0.71606731
-0.0017508219 0.022760689 0.66594082
-0.0017585753 0.021102965 0.66687673
-0.0017663979 0.019430399 0.66782093
-0.00177429 0.017742902 0.66877371
-0.0017822532 0.016040266 0.66973495
-0.0017902944 0.01432237 0.67070556
-0.0017984346 0.012589037 0.6716882
-0.0018069164 0.010841489 0.67271209
-0.0018155841 0.0090779364 0.67375827
-0.0018243355 0.0072973371 0.6748147
-0.0018331716 0.0054995418 0.67588127
-0.0018421003 0.0036841929 0.6769591
-0.0018511097 0.0018511415 0.67804658
-0.0018602839 2.9802322e-08 0.67915404
-0.0018698216 -0.0018697977 0.68030536
-0.0018795567 -0.0037590861 0.68148053
-0.0018894008 -0.0056681931 0.68266875
-0.0018993414 -0.007597357 0.68386871
-0.0019093943 -0.0095469952 0.6850822
-0.001919591 -0.011517525 0.68631303
-0.0019298824 -0.013509184 0.68755531
-0.0019398184 -0.015518546 0.68875468
-0.0019491659 -0.017542481 0.68988305
-0.0019578836 -0.019578844 0.69093537
-0.0019658683 -0.021624535 0.69189918
-0.0019727431 -0.023672909 0.69272912
-0.0019791808 -0.025729328 0.69350618
-0.001986457 -0.027810425 0.69438446
-0.001994669 -0.029920012 0.6953758
-0.0020036709 -0.032058746 0.69646245
-0.0020128111 -0.034217805 0.69756567
-0.0020233355 -0.036420017 0.69883609
-0.0020339619 -0.038645267 0.70011884
-0.0020457541 -0.040915072 0.70154226
-0.0020580308 -0.043218613 0.70302421
-0.0020713985 -0.045570791 0.70463783
-0.002085645 -0.047969818 0.70635748
-0.0021015794 -0.050437927 0.70828098
-0.0021189163 -0.052972913 0.71037376
-0.0021400962 -0.055642515 0.71293032
-0.0021893897 -0.059113532 0.71888065
-0.0022128313 -0.061959296 0.72171026
-0.0022319609 -0.064726859 0.72401947
-0.0022507152 -0.067521483 0.72628331
-0.0022701891 -0.07037589 0.728634
-0.002290569 -0.073298186 0.73109412
-0.002311927 -0.076293617 0.7336722
-0.0023342529 -0.079364628 0.73636723
-0.0023582364 -0.082538277 0.73926222
0 0.087531209 0.67022955
0 0.086068094 0.6710425
0 0.084519416 0.6716702
0 0.082953423 0.67227966
0 0.071141481 0.64543205
0 0.069405109 0.64500552
0 0.067990601 0.64546287
0 0.066597998 0.6460048
0 0.065206796 0.6465773
0 0.063808829 0.64715815
0 0.062402636 0.64774311
0 0.060987622 0.64833105
0 0.059568584 0.64893758
0 0.05814594 0.64956552
0 0.056713462 0.65019572
0 0.055271715 0.65082991
0 0.05382058 0.65146822
0 0.052364618 0.65212816
0 0.050901502 0.65280294
0 0.049428552 0.65348303
0 0.047945917 0.6541698
0 0.046456099 0.65487456
0 0.044957191 0.65559101
0 0.043448567 0.65631735
0 0.04192999 0.65705371
0 0.04040131 0.65780091
0 0.038862795 0.65856123
0 0.037314355 0.65933627
0 0.035754144 0.66011721
0 0.034183115 0.6609112
0 0.032601684 0.66172272
0 0.037715316 0.70752251
0 0.035820246 0.70894444
0 0.033902287 0.71037042
0 0.031961173 0.71180171
0 0.030005604 0.71331215
0 0.028027087 0.71484149
0 0.026043862 0.71657878
0 0.024044693 0.71845686
0 0.022037894 0.72061849
0 0.016073644 0.67018259
0 0.014352202 0.67115653
0 0.012615234 0.67213935
0 0.01086235 0.67313105
0 0.009093374 0.67413193
0 0.0073081851 0.67514199
0 0.0055064857 0.67616218
0 0.0036883056 0.67720747
0 0.001853168 0.67829573
0 -2.9802322e-08 0.67939728
0 -0.0018715262 0.68050885
0 -0.0037616193 0.68163145
0 -0.0056706071 0.68276531
0 -0.0075990558 0.68392003
0 -0.0095477402 0.68510067
0 -0.01151818 0.68632638
0 -0.01350984 0.68756616
0 -0.015522838 0.68881917
0 -0.017557621 0.69008577
0 -0.019614816 0.69136989
0 -0.02169469 0.69266903
0 -0.023792297 0.69393033
0 -0.025905699 0.6951437
0 -0.028026164 0.69624472
0 -0.030156881 0.6972816
0 -0.032283932 0.69816148
0 -0.034416318 0.69897544
0 -0.036576211 0.69988352
0 -0.038770586 0.70091486
0 -0.040999413 0.70205116
0 -0.043250501 0.70320725
0 -0.045552284 0.7045365
0 -0.04787901 0.70588094
0 -0.050259113 0.70738173
0 -0.05267486 0.70893472
0 -0.055150658 0.71064693
0 -0.05767554 0.71245176
0 -0.060289323 0.71451116
0 -0.062992066 0.71679837
0 -0.065890431 0.71972054
0 -0.069649696 0.7258063
0 -0.072621018 0.72853959
0 -0.075541049 0.73091948
0 -0.078501046 0.73330128
0 -0.081537962 0.73581219
0 -0.084640801 0.73840481
0.0017710869 0.08678326 0.66838706
0.0017186423 0.082494825 0.66205639
0.0016496337 0.077532798 0.65372634
0.001596733 0.073449731 0.64734066
0.001591441 0.071614861 0.64670187
0.0015899037 0.069955766 0.64651626
0.0015941384 0.068547994 0.64702743
0.0015984009 0.06713286 0.647542
0.0016026861 0.065710157 0.64805925
0.0016071546 0.064286172 0.64859867
0.0016117931 0.062859952 0.6491586
0.0016164586 0.061425447 0.64972174
0.0016211513 0.059982598 0.65028816
0.0016260033 0.058536142 0.6508739
0.0016310227 0.057085812 0.65147978
0.0016360892 0.055627018 0.65209138
0.0016411819 0.054159015 0.65270609
0.0016463443 0.052683026 0.65332925
0.0016517846 0.051205367 0.65398598
0.001657261 0.049717844 0.65464705
0.001662763 0.048220158 0.65531123
0.0016682958 0.046712279 0.65597904
0.0016739273 0.045196056 0.65665883
0.001679766 0.043673933 0.65736365
0.0016856571 0.042141467 0.65807474
0.0016916295 0.040599108 0.6587956
0.0016977193 0.039047539 0.65953076
0.0017039344 0.037486553 0.660281
0.0017102069 0.035914361 0.66103816
0.0017166258 0.034332514 0.66181302
0.0017231108 0.032739073 0.66259581
0.0020949361 0.037708849 0.70747906
0.0021028249 0.035748035 0.7084313
0.0021116727 0.033786774 0.70949936
0.0021219535 0.031829327 0.71074033
0.0021338989 0.029874593 0.71218228
0.0021462834 0.027901649 0.71367729
0.0021586262 0.025903553 0.71516711
0.0021710081 0.023881078 0.71666181
0.0021835424 0.021835417 0.71817476
0.002196695 0.019770265 0.71976244
0.0022102606 0.017682076 0.72139996
0.002225518 0.015578628 0.72324169
0.0022426753 0.013456017 0.72531277
0.0022614575 0.011307299 0.72757995
0.0018309446 0.0073237717 0.67561251
0.0018394255 0.0055183172 0.67663622
0.0018479854 0.0036959946 0.67766953
0.0018566253 0.0018566549 0.67871243
0.0018653466 -0 0.67976516
0.0018741569 -0.0018741488 0.68082869
0.0018831503 -0.0037662983 0.68191427
0.0018923592 -0.0056770742 0.68302584
0.0019018681 -0.00760746 0.6841737
0.0019114731 -0.0095573664 0.68533319
0.0019211757 -0.011527061 0.68650436
0.0019309847 -0.013516903 0.68768841
0.0019409622 -0.015527695 0.68889278
0.0019510661 -0.017559588 0.69011241
0.0019616063 -0.019616067 0.69138479
0.0019723233 -0.021695554 0.69267845
0.001983166 -0.023797959 0.69398725
0.0019941363 -0.025923759 0.69531149
0.002005253 -0.028073549 0.69665337
0.0020164941 -0.03024742 0.69801033
0.002027517 -0.032440275 0.69934088
0.0020382456 -0.034650147 0.70063591
0.002047864 -0.036861539 0.70179695
0.0020570492 -0.039083928 0.70290571
0.002064842 -0.04129687 0.70384645
0.0020719473 -0.043510914 0.70470411
0.002079698 -0.04575336 0.70563966
0.0020885961 -0.048037708 0.7067138
0.0020984593 -0.050363034 0.7079044
0.0021084959 -0.052712381 0.70911592
0.0021200473 -0.055121213 0.71051025
0.002131717 -0.057556361 0.71191895
0.0021448389 -0.060055524 0.71350288
0.0021583375 -0.062591791 0.71513224
0.0021734221 -0.065202653 0.71695316
0.0021891214 -0.067862749 0.71884829
0.0022074131 -0.070637196 0.72105628
0.0022281145 -0.073527783 0.72355509
0.0022558193 -0.076697856 0.72689939
0.0023070555 -0.080746949 0.7330842
0.0023288641 -0.083839118 0.7357167
0.0034424281 0.082618266 0.66236687
0.0032739984 0.076938987 0.65220118
0.0032218324 0.074102163 0.64905274
0.0032078074 0.072175682 0.64820623
0.0032127199 0.070679843 0.64850271
0.0032198522 0.069226831 0.64893317
0.003227412 0.067775667 0.64938945
0.0032354365 0.066326469 0.64987373
0.0032435006 0.06487 0.65036052
0.0032516157 0.063406527 0.6508503
0.0032603557 0.061946779 0.6513778
0.003269271 0.060481519 0.65191591
0.003278235 0.059008241 0.65245688
0.0032873561 0.057528734 0.65300745
0.0032969739 0.056048572 0.65358788
0.0033067132 0.05456081 0.6541757
0.0033165324 0.053064525 0.65476835
0.0033264768 0.051560402 0.65536857
0.0033369814 0.050054729 0.65600252
0.0033475521 0.048539519 0.65664053
0.003358213 0.047014982 0.65728402
0.0033689421 0.045480728 0.65793157
0.0033802078 0.04394269 0.65861154
0.0033916757 0.042395949 0.65930367
0.0034032101 0.04083851 0.65999985
0.0034148348 0.03927058 0.66070139
0.0034265036 0.037691504 0.66140574
0.0034386427 0.036105782 0.6621384
0.0034509993 0.034510016 0.66288412
0.0034635407 0.032903641 0.66364104
0.0035398186 0.031858385 0.66824484
0.0035639096 0.030293196 0.66969895
0.0035932788 0.028746247 0.67147148
0.0042623808 0.031967849 0.71185535
0.0042759674 0.029931754 0.71267533
0.0042915177 0.027894884 0.71361393
0.0043080524 0.025848329 0.71461189
0.0043266783 0.023796767 0.71573603
0.0043484499 0.021742225 0.71705008
0.0043736314 0.019681305 0.71856993
0.0043996093 0.01759845 0.72013783
0.0044255452 0.01548937 0.72170317
0.0044515114 0.01335454 0.72327042
0.0044780644 0.011195183 0.72487301
0.0045057274 0.0090114772 0.72654259
0.0045350697 0.0068026185 0.72831357
0.0045671924 0.0045672059 0.73025239
0.0046050232 0.0023024976 0.7325356
0.0037389586 -0 0.68026406
0.0037565029 -0.0018782616 0.68132293
0.0037743552 -0.0037743449 0.68240041
0.0037923774 -0.0056885779 0.68348813
0.0038105727 -0.0076211095 0.68458629
0.0038289437 -0.0095723271 0.68569511
0.0038476551 -0.011542976 0.68682444
0.0038666998 -0.013533443 0.68797392
0.0038863115 -0.015545279 0.68915755
0.0039063822 -0.017578721 0.69036895
0.0039266455 -0.019633234 0.69159198
0.0039471206 -0.021709144 0.6928277
0.0039679674 -0.023807824 0.69408596
0.0039890832 -0.025929064 0.69536042
0.0040107467 -0.028075248 0.69666791
0.0040331506 -0.030248612 0.69802004
0.0040558223 -0.032446593 0.69938844
0.004078784 -0.034669638 0.70077431
0.0041020405 -0.036918342 0.702178
0.0041255644 -0.039192855 0.70359778
0.0041488255 -0.04148826 0.70500171
0.0041716029 -0.043801844 0.70637643
0.0041920664 -0.046112746 0.7076115
0.0042117205 -0.048434764 0.70879781
0.0042281989 -0.050738394 0.70979226
0.0042433669 -0.053042054 0.71070772
0.0042593875 -0.05537203 0.71167469
0.004277905 -0.057751715 0.71279234
0.0042985962 -0.060180336 0.71404111
0.0043196748 -0.062635243 0.71531337
0.0043439199 -0.065158755 0.71677673
0.0043684193 -0.067710489 0.71825534
0.0043961494 -0.070338398 0.71992898
0.0044245082 -0.073004365 0.72164059
0.0044566062 -0.075762302 0.72357786
0.0044901199 -0.078577101 0.72560072
0.0045288508 -0.081519306 0.72793823
0.0045740814 -0.084620535 0.73066819
0.0050439718 0.080703586 0.65755165
0.0049257427 0.077169985 0.65279448
0.0048870305 0.074934483 0.65123683
0.0048752851 0.073129267 0.65076429
0.0048828498 0.07161513 0.65106863
0.0048906291 0.070099056 0.65138161
0.0049001123 0.068601578 0.6517632
0.0049096486 0.067098528 0.65214694
0.0049194959 0.065593272 0.65254313
0.0049304673 0.064096093 0.65298462
0.0049416833 0.062594652 0.65343589
0.0049530161 0.061087191 0.65389192
0.0049652215 0.05958268 0.654383
0.0049778838 0.058075279 0.6548925
0.0049906108 0.056560278 0.65540457
0.0050039198 0.055043131 0.65594012
0.0050176694 0.053521842 0.65649331
0.0050317305 0.051994562 0.65705913
0.005045888 0.050458878 0.65762877
0.0050608246 0.048921287 0.65822977
0.005076021 0.047376215 0.65884125
0.0050913612 0.045822263 0.65945852
0.0051068817 0.044259638 0.66008294
0.0051231608 0.042692989 0.66073799
0.0051397732 0.041118175 0.66140646
0.0051564761 0.039532989 0.6620785
0.0051733232 0.037937701 0.66275638
0.0051907115 0.036334962 0.66345602
0.0052087414 0.034724921 0.66418147
0.0052268971 0.033103704 0.66491205
0.0052451794 0.031471074 0.66564763
0.0052634426 0.029826164 0.66638249
0.00530172 0.028275847 0.66792268
0.005343067 0.026715338 0.6695863
0.0053850454 0.025130212 0.67127538
0.0054372628 0.023561507 0.6733765
0.0054742638 0.021897078 0.67486531
0.0055193109 0.020237476 0.67667788
0.0065516275 0.021838725 0.71821511
0.0065728286 0.019718468 0.71906811
0.0065972963 0.017592758 0.7200526
0.006623379 0.015454531 0.72110212
0.0066527925 0.013305575 0.72228563
0.0066874409 0.011145711 0.72367978
0.0067272717 0.0089696944 0.72528243
0.0067681898 0.0067681968 0.72692883
0.0068090842 0.0045394003 0.72857434
0.0068500075 0.0022833347 0.73022091
0.0068922476 2.9802322e-08 0.73192048
0.0069359406 -0.0023119748 0.73367864
0.0069835694 -0.0046556592 0.73559505
0.007034855 -0.007034868 0.73765868
0.0070968517 -0.009462446 0.74015319
0.0057563884 -0.0095939934 0.68621707
0.0057842042 -0.011568397 0.68733633
0.0058124242 -0.013562351 0.68847185
0.0058409222 -0.015575796 0.68961853
0.0058697001 -0.01760909 0.69077647
0.0058989027 -0.019663036 0.69195145
0.0059287483 -0.021738738 0.69315231
0.0059588975 -0.023835599 0.69436544
0.0059902868 -0.025957912 0.69562846
0.0060220575 -0.028102934 0.69690681
0.0060541914 -0.030270934 0.69819975
0.0060868664 -0.032463253 0.69951451
0.0061199972 -0.034679979 0.70084757
0.0061534899 -0.036920965 0.70219523
0.0061886013 -0.039194465 0.70360804
0.0062241675 -0.041494459 0.70503914
0.0062602223 -0.043821543 0.7064898
0.0062967776 -0.046176344 0.70796072
0.0063337353 -0.048558623 0.70944768
0.0063705882 -0.050964743 0.71093059
0.006406642 -0.053388685 0.7123813
0.0064395685 -0.055809587 0.71370614
0.0064711045 -0.058239937 0.71497506
0.0064972937 -0.060641378 0.71602881
0.0065215984 -0.063042134 0.71700674
0.0065465993 -0.065465987 0.71801269
0.0065753907 -0.067945719 0.71917123
0.0066080131 -0.070485473 0.72048384
0.006641225 -0.073053449 0.72182018
0.0066794059 -0.075699955 0.72335643
0.0067180586 -0.078377366 0.72491175
0.0067620617 -0.08114475 0.72668231
0.0068067997 -0.08395052 0.72848243
0.0068580816 -0.086869031 0.73054576
0.0067190416 0.078948736 0.65736294
0.0066481577 0.076453835 0.65522385
0.0066402615 0.074702919 0.65498555
0.0066367825 0.073004633 0.65488052
0.0066393139 0.071372628 0.65495694
0.0066425977 0.069747269 0.655056
0.0066497703 0.068160176 0.65527248
0.0066571799 0.066571802 0.65549612
0.0066670259 0.065003514 0.65579325
0.0066776364 0.063437551 0.65611345
0.0066891075 0.06187427 0.65645957
0.0067021446 0.060319275 0.65685302
0.0067155249 0.058760852 0.65725678
0.0067299772 0.057204813 0.65769297
0.0067451731 0.055647671 0.65815151
0.0067609176 0.054087371 0.65862668
0.0067774937 0.05252558 0.65912688
0.0067946124 0.050959587 0.65964353
0.0068122582 0.049388915 0.66017598
0.0068303221 0.047812223 0.66072112
0.0068495367 0.046234399 0.66130096
0.0068688593 0.044647604 0.66188407
0.0068885293 0.043053299 0.66247773
0.006908908 0.041453451 0.66309267
0.006930151 0.039848387 0.66373372
0.0069515258 0.038233399 0.66437876
0.0069730566 0.036608517 0.66502851
0.0069953571 0.034976751 0.66570151
0.007018588 0.033338308 0.66640258
0.0070419488 0.03168875 0.66710758
0.0070654913 0.030028373 0.66781795
0.0070859785 0.028343886 0.66843623
0.0071010883 0.02662909 0.66889226
0.0071264231 0.024942487 0.66965675
0.007151966 0.023243874 0.67042756
0.0071803699 0.021541089 0.67128468
0.0072372048 0.019902319 0.67299992
0.0072950013 0.018237501 0.67474407
0.0073537277 0.016545892 0.67651629
0.0074280724 0.01485616 0.67875981
0.0074789235 0.013088137 0.68029439
0.0075409738 0.011311471 0.68216699
0.0089568896 0.011196136 0.72489595
0.0089864088 0.0089863837 0.72578686
0.009020674 0.0067655146 0.72682083
0.0090572508 0.0045286417 0.7279247
0.0090986313 0.0022746921 0.72917342
0.0091476617 -2.9802322e-08 0.73065305
0.0092036929 -0.0023009479 0.73234397
0.0092610586 -0.0046305656 0.73407507
0.0093185352 -0.006988883 0.73580962
0.0093758963 -0.0093758702 0.7375406
0.0094357021 -0.011794597 0.73934543
0.0094971322 -0.014245689 0.7411992
0.009565901 -0.016740292 0.74327457
0.0096418001 -0.019283593 0.74556494
0.009728834 -0.021889865 0.74819148
0.0078832032 -0.019708008 0.69249463
0.0079223951 -0.021786571 0.69367737
0.0079621067 -0.023886293 0.69487578
0.0080022179 -0.026007205 0.69608629
0.0080427686 -0.028149694 0.69730991
0.0080843838 -0.030316442 0.69856584
0.008126433 -0.032505691 0.6998347
0.0081693213 -0.034719586 0.70112896
0.008213643 -0.036961347 0.70246649
0.008258448 -0.039227605 0.70381862
0.0083040204 -0.041520119 0.70519394
0.0083502717 -0.043838918 0.70658964
0.0083970772 -0.046183914 0.70800215
0.0084453011 -0.0485605 0.7094574
0.0084950188 -0.050970107 0.71095783
0.0085453987 -0.053408742 0.71247816
0.0085964538 -0.05587697 0.71401894
0.0086481599 -0.05837509 0.71557921
0.0087000756 -0.060900539 0.71714592
0.0087505132 -0.063441247 0.7186681
0.008798019 -0.065985173 0.72010171
0.0088421749 -0.068526834 0.72143412
0.0088800723 -0.071040571 0.72257781
0.0089147212 -0.073546439 0.72362345
0.0089494009 -0.076069921 0.72466999
0.0089893155 -0.078656495 0.72587448
0.009035009 -0.08131507 0.72725344
0.0090815807 -0.084004641 0.72865885
0.0091351774 -0.086784184 0.73027629
0.0085600456 0.070192397 0.66125572
0.0085306531 0.068245232 0.66054612
0.0085184826 0.066444188 0.66025227
0.0085136415 0.064703703 0.66013539
0.0085165398 0.063022405 0.66020536
0.008521094 0.061351895 0.66031528
0.0085301884 0.059711337 0.66053486
0.0085405549 0.058075756 0.6607852
0.0085530514 0.056450129 0.66108686
0.0085671097 0.054829568 0.66142625
0.0085828938 0.053213954 0.6618073
0.0085997107 0.051598281 0.66221327
0.0086177504 0.049982965 0.6626488
0.0086371489 0.048368067 0.66311717
0.0086569637 0.046747625 0.6635955
0.0086778933 0.045125037 0.66410077
0.0087003764 0.043501914 0.66464359
0.0087229768 0.041870296 0.66518921
0.0087460605 0.040231884 0.66574651
0.0087707741 0.038591415 0.66634315
0.0087961229 0.036943734 0.66695511
0.0088216178 0.035286486 0.66757065
0.0088474182 0.033620209 0.66819346
0.0088752899 0.03195101 0.6688664
0.0089033376 0.030271351 0.6695435
0.008913043 0.028521717 0.66977781
0.0089419382 0.026825815 0.67047542
0.0089725005 0.025123 0.67121321
0.0090033049 0.023408592 0.67195696
0.0090342881 0.021682292 0.67270499
0.0090655191 0.019944131 0.67345893
0.0090984227 0.018196851 0.67425334
0.0091316989 0.016437083 0.67505664
0.00916522 0.014664352 0.67586595
0.0091990549 0.012878656 0.67668277
0.0092671029 0.011120558 0.67832553
0.0093429293 0.0093429089 0.68015617
0.0094199702 0.0075359643 0.68201613
0.0095192185 0.0057115257 0.68441218
0.0095853787 0.0038341582 0.68600941
0.0096654799 0.0019330978 0.68794328
0.01148729 -0 0.73192561
0.011525817 -0.0023051798 0.7328558
0.011570808 -0.0046283305 0.73394197
0.011619011 -0.0069713891 0.73510569
0.011673606 -0.0093389153 0.73642373
0.011738787 -0.011738777 0.73799729
0.01181284 -0.014175415 0.73978508
0.011888339 -0.016643673 0.74160779
0.011963952 -0.01914233 0.74343324
0.012039606 -0.021671265 0.7452597
0.012119099 -0.024238169 0.74717885
0.012200303 -0.026840687 0.74913931
0.012293285 -0.029503882 0.75138402
0.0123985 -0.032236099 0.75392419
0.012513226 -0.035037041 0.7566939
0.010128555 -0.030385673 0.69912291
0.010180363 -0.032577127 0.70037365
0.010232829 -0.034791619 0.70164025
0.010285839 -0.037028998 0.70292002
0.010340127 -0.039292455 0.70423061
0.010395164 -0.041580677 0.70555937
0.01045079 -0.043893337 0.70690227
0.010508117 -0.046235681 0.70828629
0.010566836 -0.048607439 0.70970392
0.010626487 -0.051007122 0.71114397
0.010687088 -0.053435415 0.71260703
0.010748383 -0.055891603 0.71408683
0.010810574 -0.058377087 0.71558827
0.010875757 -0.060904235 0.71716195
0.010941873 -0.063462853 0.71875811
0.011008848 -0.066053063 0.72037506
0.011076697 -0.068675548 0.72201306
0.011145337 -0.07133016 0.72367013
0.011211617 -0.073996663 0.72527033
0.011275844 -0.076675713 0.72682089
0.011333873 -0.07933712 0.72822189
0.011385297 -0.081974119 0.72946328
0.01143165 -0.08459422 0.73058242
0.010558465 0.061591059 0.66701782
0.010515749 0.059589237 0.66615844
0.010498063 0.057739347 0.6658026
0.010492449 0.055959702 0.66568971
0.010494759 0.054222971 0.6657362
0.010501184 0.05250591 0.66586542
0.010511847 0.050807297 0.66607994
0.010525778 0.049120277 0.6663602
0.010541041 0.047434717 0.66666728
0.010559728 0.045758843 0.66704327
0.010579712 0.044082105 0.6674453
0.010600595 0.042402387 0.6678654
0.010624453 0.040727049 0.66834545
0.010649025 0.039046466 0.66883975
0.010673787 0.037358254 0.66933787
0.01070141 0.035671383 0.66989362
0.010729865 0.033977896 0.67046613
0.010758512 0.032275528 0.6710425
0.01076287 0.030494809 0.67113018
0.010795224 0.028787285 0.67178106
0.010827774 0.027069449 0.67243594
0.010860521 0.025341183 0.67309475
0.010894691 0.023605198 0.67378217
0.010930271 0.02186054 0.67449796
0.010966124 0.020104587 0.6752193
0.011002173 0.018336952 0.67594457
0.011040368 0.016560555 0.67671299
0.011079197 0.014772236 0.67749417
0.011118299 0.012971342 0.67828083
0.01115772 0.011157691 0.67907393
0.011198216 0.0093318522 0.67988861
0.011240269 0.0074934959 0.68073469
0.011282596 0.0056412816 0.68158627
0.011325243 0.00377509 0.68244421
0.011398472 0.0018997192 0.68391746
0.011494042 -0 0.68584025
0.011591277 -0.0019319057 0.68779635
0.011718231 -0.0039060712 0.69035053
0.011801377 -0.0059006512 0.69202328
0.011900647 -0.0079337656 0.69402051
0.01415322 -0.011794329 0.73933876
0.014201089 -0.014201075 0.74030173
0.014258079 -0.016634434 0.7414484
0.014319012 -0.019092023 0.74267417
0.014388325 -0.021582484 0.74406862
0.014471553 -0.024119228 0.74574316
0.014565639 -0.026703686 0.74763596
0.014661169 -0.029322326 0.74955785
0.0147568 -0.031973064 0.75148177
0.014852731 -0.034656376 0.75341183
0.014954313 -0.037385762 0.75545543
0.015060313 -0.040160835 0.75758803
0.015178411 -0.043005496 0.75996399
0.015318357 -0.045955062 0.76277947
0.012438277 -0.039387912 0.70483679
0.012502613 -0.041675359 0.7061311
0.012568459 -0.043989599 0.70745581
0.012635109 -0.046328694 0.70879662
0.012703114 -0.048695266 0.7101649
0.012772345 -0.051089346 0.71155763
0.012842334 -0.053509742 0.71296573
0.012913095 -0.055956751 0.71438932
0.01298683 -0.058440715 0.7158727
0.013061924 -0.060955644 0.71738356
0.013138236 -0.063501477 0.7189188
0.013215444 -0.066077203 0.72047216
0.013293625 -0.068683714 0.722045
0.013374584 -0.071331114 0.72367376
0.013457982 -0.074018866 0.72535157
0.013542426 -0.076740384 0.72705042
0.013627936 -0.079496264 0.72877079
0.013714597 -0.08228755 0.73051429
0.01379894 -0.085093468 0.73221117
0.012672258 0.052499354 0.67312312
0.012612161 0.050448656 0.67208683
0.012587459 0.048551649 0.67166084
0.012581129 0.046729892 0.67155176
0.012582936 0.044939071 0.67158288
0.012591124 0.043169558 0.67172408
0.012603811 0.041412503 0.67194283
0.012621341 0.03966707 0.67224514
0.012639424 0.03791824 0.672557
0.012663598 0.036181718 0.67297387
0.012688234 0.034439504 0.67339867
0.01269297 0.032639056 0.67348039
0.012708905 0.030864477 0.67375517
0.01274034 0.029120773 0.67429721
0.012772071 0.027368724 0.67484438
0.012807425 0.025614887 0.67545408
0.012843305 0.023851842 0.67607284
0.012879339 0.022078872 0.67669415
0.012917816 0.020299464 0.67735767
0.012957769 0.018511087 0.67804664
0.012997969 0.016711652 0.67873991
0.013038808 0.014901489 0.67944413
0.013081712 0.013081759 0.68018395
0.013125687 0.011250585 0.6809423
0.013169958 0.0094071329 0.68170571
0.013215925 0.0075519383 0.6824984
0.01326362 0.0056844354 0.68332088
0.013311711 0.0038033724 0.68415016
0.013360101 0.0019086003 0.68498462
0.013408947 2.9802322e-08 0.6858269
0.013460272 -0.0019228756 0.68671203
0.013512356 -0.0038606524 0.68761015
0.013564792 -0.0058134794 0.68851441
0.013639114 -0.0077937841 0.68979603
0.01375643 -0.0098259747 0.69181901
0.013875837 -0.0118936 0.69387817
0.014032046 -0.014032036 0.69657183
0.014135853 -0.016155273 0.69836199
0.014255407 -0.018328339 0.7004236
0.016966162 -0.024237365 0.74716896
0.01702364 -0.026751429 0.74816012
0.017093677 -0.029303461 0.74936789
0.017168753 -0.031884819 0.75066251
0.017254347 -0.034508705 0.7521385
0.017357813 -0.037195355 0.7539227
0.01747429 -0.039941221 0.75593126
0.017591899 -0.042723179 0.75795931
0.017709758 -0.045539379 0.75999182
0.017829115 -0.048393279 0.76204997
0.017954603 -0.051298827 0.76421392
0.018089244 -0.054267734 0.76653576
0.018237405 -0.057317555 0.76909065
0.014937038 -0.051212698 0.71217793
0.015016833 -0.053631544 0.71355391
0.015098268 -0.056079268 0.71495825
0.015181116 -0.058555692 0.71638691
0.015265943 -0.061063766 0.71784967
0.015351658 -0.063599706 0.71932781
0.015438339 -0.066164315 0.72082251
0.015526761 -0.068761349 0.72234732
