# .PCD v0.7 - Point Cloud Data file format
VERSION 0.7
FIELDS x y z
SIZE 4 4 4
TYPE F F F
COUNT 1 1 1
WIDTH 1341
HEIGHT 1
VIEWPOINT 0 0 0 1 0 0 0
POINTS 1341
DATA ascii
-0.016230918 0.068169862 0.65052241
-0.016284747 0.066767454 0.65117222
-0.016352605 0.065410465 0.65199131
-0.016420761 0.064040959 0.65281403
-0.016487041 0.06265074 0.65361416
-0.016538048 0.061190754 0.65422982
-0.016575027 0.05967012 0.6546762
-0.016603077 0.058110774 0.65501475
-0.016627906 0.056534886 0.65531451
-0.016655026 0.054961592 0.65564191
-0.016684907 0.053391665 0.65600252
-0.016716121 0.05182001 0.65637934
-0.016750816 0.050252438 0.65679818
-0.016785882 0.048679084 0.65722144
-0.016825281 0.047110826 0.65769702
-0.016864866 0.045535147 0.65817481
-0.016908234 0.043961406 0.65869838
-0.016952576 0.042381436 0.65923363
-0.016999688 0.04079926 0.65980232
-0.017048983 0.039212644 0.66039741
-0.017099906 0.037619799 0.66101205
-0.017154075 0.036023587 0.66166592
-0.017209062 0.034418136 0.66232967
-0.017268395 0.032809973 0.66304588
-0.017328078 0.031190544 0.66376632
-0.017392406 0.029567122 0.66454285
-0.017457578 0.027932137 0.66532958
-0.017526925 0.026290417 0.6661666
-0.017597938 0.024637163 0.66702378
-0.017672898 0.022974789 0.6679287
-0.017750075 0.021300077 0.66886026
-0.017831551 0.019614726 0.66984379
-0.017915573 0.017915606 0.67085803
-0.018004537 0.016204089 0.67193186
-0.018095959 0.014476776 0.67303544
-0.018193869 0.012735724 0.67421734
-0.018294381 0.010976672 0.67543066
-0.018402237 0.0092011094 0.6767326
-0.018514935 0.0074059963 0.67809296
-0.018633321 0.0055899918 0.67952198
-0.018740308 0.0037480593 0.68081343
-0.018817764 0.0018817782 0.68174839
-0.018871702 -0 0.68239957
-0.018923592 -0.0018923581 0.6830259
-0.018991323 -0.0037982762 0.68384349
-0.019076981 -0.005723089 0.68487751
-0.019186489 -0.0076745749 0.68619931
-0.01933731 -0.0096686482 0.68801987
-0.02044283 -0.012265682 0.7013647
-0.01635967 0.083616108 0.67401868
-0.014798109 0.073990554 0.65307456
-0.014602236 0.071388721 0.65044749
-0.014618069 0.069841862 0.6506598
-0.014642405 0.068331242 0.65098619
-0.014676525 0.066859752 0.65144384
-0.014720086 0.065422595 0.65202808
-0.014768167 0.063995391 0.65267301
-0.014829054 0.06261158 0.65348959
-0.014891577 0.061220944 0.65432823
-0.014953587 0.059814334 0.65515989
-0.015000909 0.058336884 0.65579462
-0.015036874 0.056805968 0.65627694
-0.01506338 0.055232406 0.65663248
-0.015086089 0.053639412 0.656937
-0.015110387 0.052046895 0.65726292
-0.015137713 0.050459057 0.65762949
-0.015165958 0.04886809 0.65800822
-0.015197691 0.047281712 0.65843385
-0.015229505 0.04568851 0.65886056
-0.015265541 0.044100434 0.6593439
-0.015301747 0.042504847 0.6598295
-0.015341209 0.040909916 0.66035879
-0.01538182 0.039309114 0.66090345
-0.01542476 0.037704974 0.66147935
-0.015469853 0.036096305 0.66208422
-0.01551644 0.034480989 0.662709
-0.015565998 0.032861561 0.66337371
-0.015616308 0.031232625 0.66404849
-0.015670596 0.029600024 0.66477662
-0.015725208 0.027955949 0.6655091
-0.015784185 0.026306987 0.66630012
-0.015843827 0.024645984 0.66710001
-0.01590752 0.022977531 0.66795433
-0.015972462 0.021296591 0.66882527
-0.01604142 0.019606203 0.66975021
-0.016112072 0.017902285 0.67069787
-0.016187016 0.016187012 0.67170298
-0.016263952 0.014456868 0.67273486
-0.016345952 0.012713522 0.67383468
-0.016429622 0.010953069 0.67495692
-0.016519969 0.0091777742 0.67616868
-0.016612848 0.0073834956 0.67741442
-0.016711675 0.0055705607 0.67873991
-0.016815953 0.0037368834 0.68013853
-0.016924275 0.0018804967 0.68159133
-0.017017394 -0 0.68284029
-0.017085187 -0.0018983781 0.68374956
-0.017132703 -0.0038072765 0.68438685
-0.017180221 -0.0057267249 0.6850242
-0.017245952 -0.0076648593 0.68590569
-0.017328706 -0.0096270442 0.68701571
-0.01743491 -0.011623234 0.68844014
-0.017583111 -0.013675749 0.69042778
-0.018673895 -0.016599 0.70505774
-0.013608998 0.078251749 0.65994179
-0.013550353 0.076220751 0.65905702
-0.013506506 0.074285805 0.65839529
-0.013097107 0.07039699 0.65221804
-0.013088414 0.068714172 0.65208685
-0.013098564 0.067130178 0.65223998
-0.013117839 0.065589219 0.65253085
-0.013148648 0.06409964 0.65299571
-0.013185809 0.062632591 0.65355641
-0.013229214 0.061185122 0.65421134
-0.013282242 0.059770077 0.65501148
-0.013338806 0.058357269 0.65586495
-0.013394823 0.056928009 0.65671021
-0.013439482 0.055437863 0.65738404
-0.013473908 0.053895652 0.65790349
-0.013498581 0.05230698 0.65827578
-0.013519095 0.050696611 0.65858537
-0.013540681 0.049084961 0.65891099
-0.013565369 0.047478795 0.65928352
-0.013590562 0.045868158 0.65966368
-0.013619185 0.04426235 0.66009557
-0.013647974 0.042649895 0.66052997
-0.013680299 0.041040927 0.66101766
-0.013712964 0.039424777 0.66151059
-0.013748477 0.037808299 0.66204643
-0.013785171 0.036186069 0.6626001
-0.013823924 0.034559816 0.66318488
-0.013864623 0.032928497 0.66379893
-0.013906674 0.031290025 0.66443342
-0.01395146 0.029646873 0.66510916
-0.013997025 0.027994066 0.66579676
-0.014046042 0.026336312 0.66653633
-0.014095404 0.024666935 0.66728115
-0.014148814 0.022991866 0.66808701
-0.014202731 0.021304101 0.66890055
-0.014260515 0.0196082 0.66977245
-0.014319231 0.017899036 0.67065847
-0.014381791 0.016179532 0.67160237
-0.014445733 0.014445722 0.67256719
-0.014513877 0.012699664 0.67359543
-0.014583411 0.010937542 0.67464459
-0.014658015 0.0091612637 0.67577028
-0.014734253 0.0073671341 0.67692065
-0.014816059 0.005556047 0.67815495
-0.014900829 0.0037252009 0.67943412
-0.014990279 0.0018737912 0.68078375
-0.015085529 -0 0.68222094
-0.015183031 -0.0018978715 0.6836921
-0.015262749 -0.0038156509 0.68489498
-0.015320816 -0.0057452917 0.68577123
-0.015363094 -0.0076815784 0.68640906
-0.015407682 -0.009629786 0.68708193
-0.015468831 -0.011601627 0.68800461
-0.0155476 -0.013604164 0.68919313
-0.01564917 -0.01564917 0.69072568
-0.015801383 -0.017776549 0.69302237
-0.016908081 -0.021135122 0.70972115
-0.012115222 0.077883571 0.66351742
-0.012025126 0.075586557 0.66196382
-0.0119647 0.073497474 0.66092175
-0.011925673 0.071554035 0.66024882
-0.011564173 0.06773302 0.65401495
-0.011549034 0.065994471 0.65375394
-0.011554407 0.064374566 0.65384656
-0.0115691 0.062803686 0.65409994
-0.011596488 0.061295778 0.65457219
-0.011627594 0.059799045 0.65510857
-0.011666207 0.058331043 0.65577447
-0.011711536 0.056884587 0.65655613
-0.011761678 0.055447906 0.65742081
-0.011811735 0.053996503 0.65828401
-0.011853228 0.052492887 0.65899956
-0.011885528 0.05093798 0.65955651
-0.011908117 0.049333632 0.65994602
-0.011926364 0.047705501 0.66026068
-0.011945236 0.04607448 0.66058612
-0.011967153 0.044449419 0.66096407
-0.011989315 0.042818993 0.6613462
-0.012014774 0.041193485 0.66178524
-0.01204038 0.039561242 0.66222686
-0.012068924 0.037930936 0.66271913
-0.012097981 0.036293954 0.66322011
-0.012129403 0.034655452 0.66376197
-0.012162044 0.033011258 0.66432488
-0.012196433 0.031362265 0.66491789
-0.01223264 0.029707849 0.66554224
-0.012270051 0.028045833 0.66618735
-0.012309899 0.026378363 0.66687453
-0.01235044 0.02470088 0.66757363
-0.012394055 0.023017526 0.66832572
-0.012438024 0.02132234 0.66908401
-0.012485645 0.01962027 0.66990519
-0.01253363 0.017905176 0.67073268
-0.012585198 0.016180962 0.67162192
-0.012637463 0.014442801 0.6725232
-0.012693383 0.012693405 0.67348742
-0.012750312 0.010928839 0.67446911
-0.012811268 0.0091508925 0.6755203
-0.01287328 0.0073561668 0.67658973
-0.012940055 0.0055457652 0.67774123
-0.013008445 0.0037167072 0.67892051
-0.013081321 0.0018687546 0.68017721
-0.013157441 -0 0.68148983
-0.013237203 -0.0018909872 0.68286526
-0.013322851 -0.0038065314 0.68434227
-0.013408382 -0.005746454 0.68581724
-0.013476171 -0.0077006817 0.68698621
-0.013524721 -0.0096605122 0.68782341
-0.013562062 -0.011624634 0.68846726
-0.013604678 -0.013604701 0.68920219
-0.013660072 -0.01561147 0.69015741
-0.01373286 -0.017656535 0.69141263
-0.01382823 -0.019754618 0.69305718
-0.013990345 -0.021984845 0.69585276
-0.010505373 0.075288534 0.6659497
-0.010409717 0.072868019 0.66402525
-0.010349893 0.070724249 0.66282171
-0.010315822 0.068772137 0.66213626
-0.010003138 0.065020412 0.65584552
-0.0099834455 0.063228518 0.65544933
-0.0099849068 0.061573595 0.65547872
-0.0099976417 0.059985846 0.6557349
-0.010019463 0.058446854 0.65617394
-0.010044908 0.056921124 0.65668583
-0.010078494 0.055431724 0.65736163
-0.010116431 0.053954303 0.6581248
-0.010160082 0.052493751 0.65900302
-0.010203835 0.051019192 0.6598832
-0.010241464 0.049500436 0.66064024
-0.010271106 0.04793182 0.66123664
-0.010291351 0.04631108 0.66164392
-0.010307287 0.044664919 0.66196454
-0.010323377 0.043014079 0.66228819
-0.010342512 0.041370064 0.66267323
-0.010361716 0.03971988 0.66305959
-0.010383757 0.038073808 0.66350293
-0.010406072 0.036421299 0.66395193
-0.010430766 0.034769237 0.66444874
-0.010456088 0.033110917 0.66495818
-0.010483362 0.031450093 0.6655069
-0.010511774 0.029783338 0.66607845
-0.010541671 0.02811113 0.66667998
-0.010573229 0.02643308 0.66731483
-0.010605837 0.024746954 0.6679709
-0.010640534 0.023054481 0.66866887
-0.010675913 0.021351844 0.66938066
-0.010713974 0.019642293 0.67014641
-0.010752346 0.017920613 0.67091841
-0.010793866 0.016190797 0.67175376
-0.010835708 0.014447629 0.6725955
-0.010880793 0.01269424 0.67350256
-0.010926412 0.010926425 0.67442036
-0.010975385 0.0091461539 0.67540562
-0.011025001 0.0073499978 0.67640388
-0.01107846 0.0055392385 0.67747933
-0.011132894 0.0037109852 0.67857444
-0.01119116 0.0018652081 0.67974669
-0.011251305 -0 0.68095672
-0.011314914 -0.0018858016 0.68223643
-0.011381919 -0.0037939548 0.68358451
-0.011451559 -0.0057257712 0.68498552
-0.011527054 -0.0076847076 0.6865043
-0.011600504 -0.0096670687 0.68798202
-0.011656716 -0.011656702 0.68911296
-0.011696135 -0.0136455 0.689906
-0.01172876 -0.015638381 0.69056237
-0.011768484 -0.01765272 0.69136155
-0.011819869 -0.019699752 0.69239527
-0.011886229 -0.021791399 0.69373035
-0.011977755 -0.023955494 0.69557172
-0.012648311 -0.027404666 0.70906228
-0.0088575985 0.072632313 0.66843927
-0.0087618669 0.070094913 0.66612816
-0.0087071285 0.067915618 0.6648066
-0.008676148 0.065938741 0.66405863
-0.00841315 0.06225732 0.65770936
-0.0083909985 0.060415208 0.65717459
-0.0083894795 0.058726341 0.65713787
-0.0084002689 0.057121813 0.65739834
-0.0084169712 0.055552036 0.65780157
-0.0084372954 0.053998679 0.65829229
-0.0084655313 0.0524863 0.65897393
-0.0084963515 0.050978094 0.65971804
-0.0085333008 0.049493164 0.66061002
-0.0085704857 0.047994703 0.66150773
-0.0086036138 0.046459496 0.66230756
-0.0086299982 0.044876009 0.6629445
-0.0086476272 0.043238103 0.66337013
-0.0086611295 0.041573435 0.66369605
-0.0086746439 0.039903402 0.66402239
-0.0086907046 0.038239092 0.66441011
-0.0087069776 0.036569327 0.66480297
-0.0087254411 0.034901768 0.66524875
-0.0087443488 0.033228517 0.6657052
-0.0087651201 0.031554431 0.66620672
-0.0087866075 0.029874474 0.6667254
-0.0088095963 0.028190732 0.66728038
-0.0088337045 0.026501089 0.66786242
-0.0088589471 0.024805009 0.66847187
-0.0088857235 0.02310288 0.66911829
-0.0089132972 0.021391898 0.66978395
-0.0089427372 0.019674063 0.67049468
-0.0089727258 0.017945439 0.67121863
-0.0090049896 0.016208977 0.67199761
-0.009037585 0.014460117 0.67278451
-0.0090727853 0.012701899 0.67363435
-0.0091082612 0.010929912 0.67449081
-0.0091466224 0.0091466308 0.67541695
-0.0091853086 0.0073482692 0.67635083
-0.0092270114 0.0055362582 0.67735767
-0.0092692664 0.0037077367 0.67837775
-0.0093146479 0.0018629432 0.67947346
-0.0093611423 -0 0.68059587
-0.0094105806 -0.0018821061 0.6817894
-0.0094619747 -0.0037847757 0.68303019
-0.0095159598 -0.0057095885 0.68433356
-0.0095733115 -0.0076586902 0.68571812
-0.0096329898 -0.0096329749 0.68715894
-0.0096970992 -0.011636496 0.68870658
-0.0097582219 -0.013661504 0.69018227
-0.0098036118 -0.015685767 0.69127798
-0.009834365 -0.017701834 0.69202048
-0.0098623168 -0.019724607 0.69269526
-0.0098981755 -0.021775961 0.69356102
-0.0099443262 -0.023866355 0.69467521
-0.010004173 -0.026010841 0.69612002
-0.010087796 -0.028245836 0.69813889
-0.010694077 -0.03208223 0.71277577
-0.0071795708 0.070000798 0.67126065
-0.0070806136 0.067265868 0.66827434
-0.0070358836 0.065081924 0.66692454
-0.0070057879 0.063052088 0.66601628
-0.0068102879 0.059589982 0.66011655
-0.0067709358 0.057552963 0.65892899
-0.0067687836 0.055842459 0.65886402
-0.0067762774 0.054210216 0.65909022
-0.0067883898 0.05261001 0.65945566
-0.0068049156 0.051036865 0.65995443
-0.0068267337 0.049493849 0.66061282
-0.0068507087 0.047954947 0.6613363
-0.0068807374 0.046444982 0.66224253
-0.0069110552 0.044921875 0.66315746
-0.0069390414 0.043369025 0.66400206
-0.0069612693 0.041767627 0.66467285
-0.0069761435 0.040112793 0.66512167
-0.0069872495 0.038429856 0.66545683
-0.0069982428 0.03674078 0.66578859
-0.0070111137 0.035055608 0.66617703
-0.0070243524 0.033365667 0.6665765
-0.0070391996 0.031676382 0.66702461
-0.0070545827 0.029981971 0.66748881
-0.0070713572 0.028285414 0.66799504
-0.0070888395 0.026583135 0.6685226
-0.0071074432 0.024876058 0.66908401
-0.0071270582 0.023162931 0.66967595
-0.0071475725 0.021442682 0.670295
-0.0071693351 0.019715667 0.67095178
-0.007191774 0.017979443 0.67162889
-0.0072157052 0.016235292 0.67235112
-0.0072401376 0.014480263 0.67308843
-0.0072663976 0.012716234 0.67388082
-0.0072930078 0.010939509 0.67468393
-0.0073216613 0.0091520846 0.67554861
-0.0073506217 0.0073506236 0.67642254
-0.0073818541 0.0055363774 0.67736506
-0.0074134623 0.0037067235 0.67831898
-0.0074474206 0.0018618405 0.67934376
-0.0074820551 2.9802322e-08 0.68038893
-0.0075190179 -0.0018797517 0.68150437
-0.0075570894 -0.0037785172 0.68265331
-0.0075973943 -0.0056980252 0.6838696
-0.0076395599 -0.0076395571 0.68514204
-0.0076835523 -0.0096044242 0.68646961
-0.0077306814 -0.011595994 0.68789184
-0.0077798134 -0.013614655 0.68937451
-0.0078320857 -0.01566413 0.69095206
-0.0078802845 -0.017730623 0.69240654
-0.0079149082 -0.019787282 0.6934514
-0.0079388618 -0.02183187 0.69417429
-0.0079618217 -0.023885459 0.69486713
-0.0079928227 -0.025976658 0.69580263
-0.0080325035 -0.028113782 0.69700015
-0.0080841556 -0.030315578 0.69855887
-0.0081571359 -0.032628536 0.70076132
-0.0086987894 -0.03696987 0.71710712
-0.0053715366 0.06445846 0.6707319
-0.0053306581 0.06219101 0.66908705
-0.0053039305 0.060111195 0.66801161
-0.005286037 0.058146417 0.66729158
-0.0051255226 0.054672271 0.660833
-0.0051209237 0.052916229 0.66064799
-0.0051249452 0.051249415 0.66080981
-0.0051330766 0.049619764 0.66113698
-0.0051456578 0.048026174 0.66164321
-0.0051614228 0.04645282 0.66227758
-0.0051791603 0.044886053 0.66299129
-0.0052017742 0.043348134 0.66390115
-0.0052249683 0.041799754 0.66483444
-0.0052470863 0.040227652 0.66572434
-0.0052642548 0.038604528 0.66641521
-0.005276171 0.036933213 0.66689467
-0.005284939 0.035232931 0.66724747
-0.0052933255 0.033524394 0.66758496
-0.005302975 0.031817853 0.66797316
-0.0053130728 0.030107409 0.66837943
-0.0053242859 0.028396159 0.66883063
-0.0053360206 0.026680082 0.66930282
-0.0053487215 0.024960697 0.66981387
-0.005362039 0.02323553 0.67034972
-0.0053761923 0.02150479 0.67091924
-0.0053911372 0.019767523 0.67152053
-0.0054067499 0.018022478 0.6721487
-0.0054233545 0.016270071 0.67281687
-0.0054404554 0.01450789 0.67350495
-0.0054587363 0.012737066 0.67424047
-0.0054774 0.010954797 0.67499149
-0.0054974402 0.009162426 0.67579782
-0.0055177691 0.0073570013 0.67661583
-0.0055396394 0.0055396557 0.67749578
-0.0055618277 0.0037079155 0.67838854
-0.0055856695 0.0018618703 0.67934793
-0.0056099053 -0 0.68032306
-0.0056358338 -0.0018786192 0.68136638
-0.0056624082 -0.003774941 0.68243563
-0.0056906366 -0.0056906343 0.68357146
-0.0057199104 -0.0076265633 0.68474936
-0.0057506766 -0.0095844269 0.68598729
-0.0057831337 -0.011566252 0.68729329
-0.0058167493 -0.013572395 0.68864584
-0.0058530611 -0.015608162 0.69010693
-0.0058909622 -0.017672926 0.69163191
-0.0059309271 -0.019769758 0.69323999
-0.0059662638 -0.021876305 0.6946618
-0.0059911953 -0.023964792 0.695665
-0.0060087987 -0.02603811 0.69637334
-0.0060264096 -0.02812326 0.69708192
-0.0060513602 -0.030256808 0.69808584
-0.0060832896 -0.032444209 0.69937062
-0.0061249412 -0.034708023 0.70104659
-0.0061914856 -0.037148952 0.70372409
-0.0036241724 0.061610937 0.67333603
-0.0035903263 0.059240401 0.67129326
-0.0035696432 0.057114303 0.67004496
-0.0035574865 0.055141032 0.66931117
-0.0034494528 0.051741779 0.66279083
-0.0034440276 0.049938411 0.66246337
-0.0034456048 0.048238486 0.66255856
-0.0034503688 0.046579987 0.66284609
-0.0034589076 0.044965804 0.66336143
-0.0034689796 0.04336226 0.66396934
-0.0034810102 0.041772127 0.6646955
-0.0034957724 0.040201366 0.66558647
-0.0035115106 0.038626641 0.66653633
-0.0035268317 0.03703174 0.66746104
-0.0035387294 0.035387307 0.66817915
-0.0035473222 0.033699572 0.66869777
-0.0035534818 0.031981349 0.66906953
-0.0035591691 0.030252904 0.66941279
-0.0035655983 0.028524816 0.66980082
-0.0035724468 0.026793331 0.67021418
-0.0035799614 0.02505973 0.67066771
-0.0035879193 0.02332148 0.67114806
-0.0035964684 0.021578848 0.671664
-0.0036054999 0.019830287 0.67220908
-0.0036150469 0.018075258 0.67278528
-0.0036251964 0.016313374 0.67339784
-0.0036357462 0.014542997 0.67403466
-0.0036470089 0.012764543 0.67471439
-0.003658609 0.010975838 0.67541444
-0.0036709965 0.0091775358 0.67616212
-0.0036836718 0.0073673427 0.67692721
-0.003697268 0.0055459142 0.67774773
-0.0037111025 0.0037111342 0.67858279
-0.0037259285 0.001862973 0.67947757
-0.0037410413 -0 0.68038976
-0.0037572221 -0.0018786192 0.68136638
-0.0037737428 -0.0037736893 0.68236345
-0.0037913427 -0.0056869984 0.68342572
-0.0038094702 -0.0076189339 0.68451977
-0.0038286359 -0.0095715821 0.68567657
-0.0038486465 -0.011545956 0.68688428
-0.0038695405 -0.013543367 0.68814534
-0.0038917372 -0.015566945 0.68948507
-0.0039147409 -0.017616332 0.69087344
-0.0039394447 -0.019697219 0.69236445
-0.0039654518 -0.021809995 0.69393414
-0.003992537 -0.023955256 0.6955688
-0.0040151882 -0.026098728 0.69693601
-0.004031396 -0.028219789 0.69791418
-0.0040429761 -0.030322343 0.69861311
-0.004055839 -0.032446712 0.69938946
-0.0040729074 -0.034619689 0.70041966
-0.0040955772 -0.036860198 0.70178789
-0.0041260575 -0.039197534 0.70362747
-0.0041802111 -0.041802108 0.70689595
-0.0018341863 0.058693975 0.67600381
-0.001813827 0.056228638 0.6735462
-0.0018022824 0.054068476 0.6721527
-0.0017957882 0.05207783 0.67136878
-0.0017412561 0.048755199 0.66478616
-0.0017373262 0.046907812 0.66431177
-0.0017375435 0.045176119 0.66433799
-0.0017398575 0.04349643 0.6646173
-0.0017439204 0.041854084 0.66510773
-0.0017487415 0.040221065 0.66568965
-0.00175485 0.038606733 0.66642708
-0.0017620744 0.037003547 0.66729915
-0.0017700345 0.035400718 0.66825998
-0.0017779972 0.033781976 0.66922116
-0.001784217 0.032115906 0.66997194
-0.0017888542 0.030410528 0.67053175
-0.0017920899 0.02867347 0.67092228
-0.0017949829 0.026924759 0.67127156
-0.0017981954 0.025174767 0.67165929
-0.0018016789 0.023421854 0.6720798
-0.0018054625 0.021665543 0.67253655
-0.0018095041 0.019904524 0.67302442
-0.0018138203 0.01813823 0.67354542
-0.0018184214 0.016365796 0.67410082
-0.001823252 0.014586002 0.67468393
-0.0018284153 0.012798935 0.67530721
-0.0018337695 0.0110026 0.67595345
-0.0018395067 0.0091975629 0.67664599
-0.0018453954 0.0073815882 0.67735684
-0.0018517058 0.0055551231 0.67811859
-0.0018581561 0.0037163198 0.6788972
-0.0018650753 0.0018650889 0.67973238
-0.0018721303 -0 0.68058407
-0.0018796838 -0.0018796921 0.68149585
-0.0018873982 -0.003774792 0.68242705
-0.0018956283 -0.0056868792 0.68342054
-0.0019040756 -0.0076162815 0.6844402
-0.0019130372 -0.0095651746 0.68552196
-0.0019223199 -0.011533916 0.68664241
-0.0019320883 -0.013524652 0.68782163
-0.0019423334 -0.015538692 0.6890583
-0.0019529852 -0.017576844 0.6903441
-0.001964371 -0.019643694 0.69171846
-0.0019761869 -0.021738023 0.6931448
-0.0019887784 -0.023865342 0.69466472
-0.0020021636 -0.026028097 0.69628048
-0.0020159171 -0.028222859 0.69794065
-0.0020267859 -0.030401766 0.69925267
-0.0020345077 -0.032552123 0.7001847
-0.0020403899 -0.034686595 0.70089477
-0.0020474032 -0.036853254 0.70174134
-0.002056652 -0.039076388 0.70285773
-0.0020687776 -0.041375548 0.7043215
-0.0020857493 -0.043800741 0.70637012
-0.0022245385 -0.048939824 0.72312343
0 0.055801451 0.67912567
0 0.053157121 0.675861
0 0.050985128 0.67439955
0 0.04895559 0.67346686
0 0.045762211 0.66705894
0 0.043822676 0.66619259
0 0.042060792 0.66614735
0 0.040362418 0.66643155
0 0.038689762 0.66688269
0 0.037027687 0.66743779
0 0.035388678 0.66818744
0 0.033753544 0.66904056
0 0.032122463 0.67001575
0 0.030476242 0.67099822
0 0.028789163 0.67179513
0 0.027064681 0.67239738
0 0.025307864 0.6728074
0 0.02353844 0.67316276
0 0.021766365 0.67355096
0 0.019991517 0.67397881
0 0.01821214 0.67443794
0 0.016427964 0.67493439
0 0.0146375 0.67546052
0 0.012840599 0.67602569
0 0.011035591 0.67661661
0 0.0092225373 0.67725015
0 0.0073998272 0.67790705
0 0.0055673718 0.67861104
0 0.003723532 0.67933458
0 0.0018682182 0.68010986
0 2.9802322e-08 0.6809032
0 -0.0018818378 0.68175358
0 -0.0037780404 0.68262142
0 -0.0056900978 0.68354976
0 -0.0076183379 0.68450141
0 -0.009564817 0.68551314
0 -0.011529624 0.68655598
0 -0.013515145 0.68765783
0 -0.015521884 0.68880552
0 -0.017551631 0.69000596
0 -0.019606918 0.69127434
0 -0.021686941 0.69258362
0 -0.023798823 0.69399571
0 -0.025939912 0.69546121
0 -0.028115004 0.69701087
0 -0.030329913 0.6986742
0 -0.032572508 0.7003386
0 -0.034788013 0.70161498
0 -0.036964744 0.7024889
0 -0.03913331 0.70321953
0 -0.041345298 0.70413888
0 -0.043622375 0.70534474
0 -0.04598847 0.70692974
0 -0.048506647 0.70917487
0.0018545539 0.050072938 0.67846239
0.0018400952 0.047842473 0.67671704
0.0018308909 0.045772284 0.67560601
0.0018245084 0.043788165 0.67483556
0.0017689831 0.040686637 0.66813308
0.001768183 0.038900018 0.66803646
0.0017701786 0.037173748 0.66827738
0.0017735857 0.035471708 0.66868865
0.0017780983 0.033783883 0.66923338
0.0017842678 0.032116801 0.66997814
0.0017911596 0.030449718 0.67081004
0.0017993724 0.028789997 0.67180139
0.0018076802 0.027115226 0.67280424
0.0018146755 0.025405467 0.6736486
0.0018200355 0.023660481 0.67429566
0.0018235975 0.02188316 0.67472559
0.0018265998 0.020092577 0.67508805
0.001829813 0.018298149 0.67547584
0.0018334133 0.016500741 0.67591053
0.0018372372 0.01469788 0.67637205
0.0018414293 0.012890041 0.67687809
0.0018458311 0.01107496 0.67740941
0.0018505962 0.0092530251 0.6779846
0.0018555513 0.007422179 0.67858279
0.0018608996 0.00558272 0.67922837
0.0018664181 0.0037328601 0.67989451
0.0018723547 0.0018723607 0.68061107
0.001878456 2.9802322e-08 0.68134761
0.0018849877 -0.0018849969 0.68213606
0.0018916867 -0.0037834048 0.68294472
0.0018988583 -0.0056965947 0.68381041
0.0019062009 -0.007624805 0.68469667
0.0019140323 -0.0095701516 0.685642
0.0019220761 -0.011532456 0.68661308
0.0019306196 -0.01351428 0.6876443
0.0019394575 -0.015515655 0.68871117
0.001948756 -0.017538786 0.68983358
0.0019584892 -0.019584894 0.69100845
0.0019686217 -0.021654844 0.69223166
0.0019794002 -0.023752749 0.69353259
0.0019905111 -0.025876611 0.69487381
0.00200246 -0.028034419 0.69631624
0.0020149432 -0.030224115 0.69782305
0.0020280345 -0.03244853 0.69940341
0.0020422137 -0.034717649 0.70111495
0.0020560012 -0.037008017 0.70277917
0.0020662062 -0.039257914 0.70401108
0.0020730463 -0.041460901 0.70483673
0.0020792747 -0.043664783 0.70558858
0.0020875244 -0.045925558 0.70658445
0.0020982744 -0.048260301 0.70788199
0.0021900604 -0.052561462 0.7189616
0.0022298521 -0.055746317 0.7237649
0.0037554174 0.046942741 0.68125743
0.003719406 0.044632912 0.67908388
0.0036979239 0.042526156 0.6777873
0.0036848655 0.040533513 0.67699921
0.0035727655 0.037514031 0.67023343
0.00356865 0.035686493 0.669985
0.0035714905 0.033929169 0.67015642
0.0035776063 0.032198459 0.67052555
0.0035867875 0.030487716 0.67107964
0.0035986928 0.02878952 0.67179829
0.0036121244 0.027090937 0.67260891
0.0036288248 0.025401801 0.67361689
0.0036457733 0.023697525 0.67463976
0.0036605895 0.021963567 0.67553401
0.0036720473 0.020196259 0.6762256
0.0036795407 0.018397719 0.67667788
0.0036856527 0.016585439 0.67704678
0.003692071 0.014768273 0.67743409
0.0036994137 0.012947977 0.67787731
0.003707102 0.011121333 0.67834133
0.003715622 0.0092890561 0.67885554
0.0037245143 0.0074490309 0.67939222
0.0037342289 0.0056013763 0.67997861
0.0037442606 0.0037442446 0.68058407
0.0037551497 0.0018775761 0.68124127
0.0037663574 -0 0.68191767
0.0037784451 -0.0018892288 0.68264729
0.0037908547 -0.0037908554 0.68339628
0.0038041701 -0.0057062507 0.68419993
0.0038178125 -0.0076356232 0.68502325
0.0038324189 -0.0095810294 0.68590486
0.0038474037 -0.011542201 0.6868093
0.0038633561 -0.013521731 0.6877721
0.0038798021 -0.015519202 0.68876475
0.0038972087 -0.017537415 0.68981528
0.0039152922 -0.01957646 0.69090676
0.0039342409 -0.021638334 0.6920504
0.0039541698 -0.023725003 0.69325316
0.0039748233 -0.025836319 0.69449973
0.0039969222 -0.02797845 0.6958335
0.0040197526 -0.030148149 0.69721144
0.0040441197 -0.032352954 0.69868213
0.0040697935 -0.034593225 0.70023167
0.0040967008 -0.036870271 0.70185566
0.0041256999 -0.039194167 0.70360595
0.004152975 -0.041529745 0.70525217
0.0041724206 -0.043810427 0.70642579
0.0041858065 -0.046043873 0.70723373
0.004274908 -0.049161404 0.71261144
0.0043198424 -0.05183813 0.71532351
0.0043712244 -0.054640293 0.71842468
0.0044342913 -0.057645768 0.72223109
0.0045228945 -0.061059058 0.72757876
0.0057043252 0.04373315 0.68412226
0.0056392215 0.041354269 0.68150264
0.0056033088 0.039223194 0.68005764
0.0055822004 0.037214696 0.67920828
0.0054123644 0.034278333 0.67237467
0.0054023135 0.0324139 0.67197025
0.0054047448 0.030626923 0.67206806
0.0054128524 0.028868556 0.67239428
0.0054268641 0.027134329 0.67295802
0.0054440461 0.025405556 0.67364937
0.0054638027 0.023676485 0.67444432
0.0054891175 0.021956474 0.67546296
0.005515073 0.020221919 0.67650735
0.0055385558 0.018461853 0.67745221
0.0055568242 0.016670495 0.67818725
0.0055687185 0.014849931 0.67866588
0.0055780308 0.013015419 0.67904055
0.0055876654 0.011175334 0.67942822
0.0055988575 0.009331435 0.67987853
0.0056104716 0.0074806511 0.68034589
0.0056234822 0.0056234896 0.68086934
0.0056369547 0.0037579834 0.6814115
0.0056517692 0.001883924 0.68200755
0.0056670471 -0 0.68262231
0.0056836554 -0.0018945634 0.6832906
0.0057007289 -0.0038004816 0.68397754
0.0057191914 -0.0057192147 0.6847204
0.0057381457 -0.007650882 0.6854831
0.0057584643 -0.0095974505 0.68630064
0.0057793264 -0.011558652 0.68714005
0.0058016409 -0.013537139 0.68803793
0.0058245813 -0.015532196 0.68896091
0.0058489558 -0.017546833 0.6899417
0.0058741793 -0.019580603 0.69095665
0.0059007811 -0.021636188 0.69202703
0.0059285145 -0.023714006 0.69314289
0.0059574787 -0.025815725 0.69430834
0.0059881122 -0.027944535 0.69554102
0.0060197148 -0.030098557 0.69681251
0.0060537029 -0.032286406 0.69818008
0.0060888669 -0.034503579 0.69959497
0.0061261416 -0.036756843 0.70109481
0.0061657485 -0.039049715 0.70268846
0.0062073083 -0.041382045 0.70436072
0.006251697 -0.043761879 0.70614684
0.0062918416 -0.046140164 0.70776212
0.0063633234 -0.048785478 0.71063828
0.0064200689 -0.051360548 0.7129215
0.0064826468 -0.054022044 0.7154395
0.0065527721 -0.05679065 0.71826112
0.0066350899 -0.059715807 0.72157335
0.0067362683 -0.062871814 0.72564441
0.0068919309 -0.066621959 0.73190778
0.0076021268 0.038010627 0.68401241
0.0075499057 0.035862029 0.68243647
0.007517606 0.033829212 0.68146175
0.0072888643 0.030977666 0.67455888
0.0072700661 0.029080272 0.67399156
0.0072708055 0.027265549 0.67401385
0.0072809625 0.02548337 0.6743204
0.0072991513 0.023722231 0.6748693
0.0073211524 0.021963447 0.67553324
0.0073479232 0.020206779 0.67634112
0.0073810373 0.018452585 0.67734045
0.0074162646 0.016686589 0.6784035
0.0074494169 0.014898866 0.67940396
0.0074748173 0.013080955 0.68017048
0.007491942 0.011237949 0.68068731
0.0075046392 0.0093808174 0.68107045
0.0075174645 0.007517457 0.68145752
0.007532686 0.0056495368 0.68191683
0.007548254 0.0037741363 0.68238664
0.007565917 0.0018914938 0.68291962
0.0075840652 -0 0.68346733
0.0076041776 -0.0019010603 0.68407428
0.0076248036 -0.0038124323 0.68469673
0.0076473537 -0.0057354867 0.68537724
0.0076705073 -0.0076705217 0.68607593
0.0076955766 -0.0096194744 0.68683255
0.0077212574 -0.011581868 0.68760747
0.0077488795 -0.013560504 0.68844104
0.0077772136 -0.015554398 0.68929613
0.0078075519 -0.017566979 0.69021165
0.0078387735 -0.019596934 0.69115382
0.0078718858 -0.021647692 0.6921531
0.0079062469 -0.023718715 0.69318998
0.0079423906 -0.025812775 0.6942808
0.0079802349 -0.027930856 0.69542289
0.0080195973 -0.030073464 0.69661069
0.0080614602 -0.032245845 0.69787407
0.0081045171 -0.034444183 0.69917339
0.0081508569 -0.036678851 0.70057184
0.0081990398 -0.038945407 0.70202583
0.0082497336 -0.041248679 0.7035557
0.0083040548 -0.043596268 0.70519495
0.0083611207 -0.045986176 0.70691705
0.0084374323 -0.04851523 0.70921999
0.008504115 -0.051024675 0.7112323
0.0085754218 -0.053596407 0.71338421
0.0086533194 -0.056246549 0.7157349
0.0087399287 -0.058994532 0.71834862
0.0088384254 -0.061868995 0.72132099
0.0089539252 -0.064915955 0.72480643
0.0091001624 -0.068251222 0.72921956
0.0093645351 -0.072575152 0.73719776
0.009616808 0.034620523 0.68676817
0.0095398361 0.032435447 0.68490994
0.009492239 0.030375183 0.68376082
0.0092253778 0.027676105 0.67731827
0.009172882 0.025684059 0.67605084
0.0091705946 0.023843557 0.67599565
0.0091834879 0.022040367 0.67630696
0.0092045041 0.020249933 0.67681432
0.0092307897 0.018461585 0.67744893
0.009264838 0.016676724 0.67827088
0.009305397 0.014888614 0.67925006
0.0093499469 0.013089925 0.68032563
0.0093931966 0.011271864 0.68136978
0.0094269281 0.0094269216 0.6821841
0.0094501441 0.0075601041 0.68274462
0.0094664497 0.0056799054 0.68313825
0.0094825961 0.0037930608 0.68352801
0.0095017925 0.0019003749 0.68399143
0.0095213922 -0 0.68446463
0.0095438762 -0.0019087791 0.68500745
0.0095667588 -0.0038267076 0.68555993
0.009592399 -0.0057554245 0.68617892
0.0096185096 -0.0076947808 0.6868093
0.0096472539 -0.0096472502 0.68750322
0.0096766204 -0.011611909 0.68821222
0.0097085396 -0.013591975 0.68898278
0.0097412383 -0.015585929 0.68977225
0.0097763734 -0.017597467 0.69062048
0.0098125329 -0.019625068 0.69149345
0.0098511316 -0.021672517 0.69242531
0.0098909745 -0.023738354 0.69338715
0.0099331522 -0.025826156 0.69440544
0.0099770827 -0.027935803 0.69546604
0.010023091 -0.030069292 0.69657677
0.010071551 -0.032228976 0.69774669
0.010121712 -0.034413815 0.69895762
0.010175311 -0.036631137 0.70025164
0.010230569 -0.038876176 0.70158571
0.010289646 -0.041158587 0.70301199
0.010351507 -0.043476313 0.70450538
0.010416155 -0.045831084 0.70606613
0.010504015 -0.048318475 0.70818722
0.010578498 -0.050776809 0.70998549
0.010657405 -0.053287029 0.7118904
0.010743167 -0.055864483 0.71396095
0.010835483 -0.058511615 0.71618962
0.010936612 -0.061245024 0.71863115
0.011049399 -0.064086527 0.72135401
0.011178104 -0.067068636 0.7244612
0.011329665 -0.070243925 0.72812021
0.011529323 -0.073787659 0.73294044
0.011689532 0.031172097 0.68977308
0.011574384 0.028935969 0.68745649
0.011507569 0.026850998 0.68611234
0.011465685 0.024842292 0.68526971
0.011115624 0.022231251 0.67822701
0.011107933 0.020364553 0.67807221
0.011120729 0.018534541 0.67832971
0.011143805 0.016715735 0.67879397
0.011173834 0.014898449 0.67939812
0.011215451 0.01308471 0.68023539
0.01126304 0.011263072 0.68119276
0.011317174 0.0094309449 0.68228191
0.011371185 0.0075808167 0.6833685
0.011413595 0.0057067871 0.68422168
0.01144392 0.0038146377 0.6848318
0.011464372 0.0019107461 0.68524325
0.011484106 2.9802322e-08 0.68564028
0.011507216 -0.0019178689 0.68610525
0.011530995 -0.0038436651 0.68658358
0.011558342 -0.0057791471 0.68713379
0.011586087 -0.0077240467 0.68769205
0.011617427 -0.009681195 0.68832254
0.011649207 -0.011649191 0.68896192
0.011684299 -0.013631672 0.68966788
0.011720107 -0.015626818 0.69038832
0.011759127 -0.017638654 0.69117326
0.011799058 -0.019665092 0.69197661
0.011842062 -0.021710455 0.69284183
0.011886275 -0.023772538 0.69373137
0.011933476 -0.025855869 0.69468093
0.011982344 -0.027958781 0.69566405
0.01203388 -0.030084699 0.69670093
0.012087809 -0.032234162 0.69778579
0.012144088 -0.034408242 0.69891816
0.012203624 -0.036610872 0.7001158
0.012264997 -0.038839161 0.70135057
0.012330889 -0.041102946 0.7026763
0.012398927 -0.043396264 0.70404506
0.012491272 -0.045801342 0.70590293
0.012568301 -0.048178494 0.7074526
0.012648897 -0.050595582 0.70907402
0.012734691 -0.053061217 0.71080005
0.012826806 -0.055582821 0.7126534
0.012924491 -0.058160245 0.71461856
0.013030345 -0.060808301 0.71674824
0.013145139 -0.063534856 0.71905768
0.013271119 -0.066355586 0.72159225
0.013412166 -0.069296181 0.72442985
0.01357353 -0.072392136 0.72767621
0.013768374 -0.075726032 0.73159617
0.014037212 -0.079544216 0.73700482
0.013816774 0.027633548 0.69285965
0.013654375 0.02535814 0.69005919
0.013567368 0.023258358 0.68855876
0.013513868 0.021236092 0.68763626
0.013101874 0.018716961 0.68053162
0.013083178 0.016821206 0.68020928
0.013093645 0.014964134 0.68038976
0.013117969 0.013117969 0.68080926
0.013153192 0.011274159 0.68141657
0.013200583 0.009428978 0.68223387
0.013254886 0.0075742304 0.68317026
0.013319102 0.0057081878 0.68427765
0.013384352 0.0038241148 0.68540275
0.013436158 0.0019194186 0.68629622
0.013474305 -0 0.68695402
0.013499441 -0.0019285083 0.68738747
0.013522895 -0.0038636923 0.68779194
0.013549889 -0.0058071017 0.6882574
0.013578149 -0.0077589154 0.68874466
0.013610335 -0.0097216964 0.68929982
0.013643152 -0.011694163 0.68986565
0.01368024 -0.013680249 0.69050521
0.013717853 -0.015677541 0.69115382
0.013759566 -0.017690867 0.69187313
0.013802019 -0.019717157 0.69260526
0.01384846 -0.021761864 0.69340611
0.013895875 -0.023821503 0.69422376
0.013946949 -0.025901467 0.69510448
0.013999572 -0.027999133 0.6960119
0.014055753 -0.030119479 0.69698071
0.014113923 -0.032260388 0.6979838
0.014175272 -0.034425616 0.69904166
0.014239527 -0.036615908 0.70014977
0.014306533 -0.038832039 0.70130527
0.014377593 -0.041078806 0.70253062
0.014450615 -0.043351859 0.70378983
0.014552141 -0.045735329 0.7055406
0.014634347 -0.048084259 0.70695812
0.014720578 -0.050470501 0.70844519
0.014812903 -0.052903235 0.71003729
0.014909633 -0.055378646 0.71170533
0.015011942 -0.057903171 0.71346956
0.015122583 -0.06049034 0.71537751
0.015240104 -0.063137561 0.71740413
0.015367554 -0.065860927 0.71960193
0.015506139 -0.068670064 0.72199172
0.015658861 -0.07158339 0.72462535
0.015830129 -0.074627757 0.72757876
0.016026866 -0.077844769 0.73097134
0.016272359 -0.081361771 0.7352047
0.015785806 0.021705478 0.69278735
0.015673066 0.019591331 0.69108623
0.015605243 0.017555922 0.69006288
0.015129432 0.015129447 0.68288338
0.015096566 0.013209522 0.68238747
0.015103288 0.011327446 0.68248892
0.015127945 0.0094549358 0.68286097
0.015168935 0.0075844824 0.68347949
0.015221193 0.0057079494 0.684268
0.015281744 0.0038204491 0.68518162
0.015356435 0.0019195676 0.68630862
0.01543275 -0 0.68746012
0.015495598 -0.0019369721 0.68840843
0.015542468 -0.0038856268 0.6891157
0.015572703 -0.0058397353 0.68957186
0.015600073 -0.0078000724 0.68998486
0.015630959 -0.0097693205 0.69045085
0.015663866 -0.011747867 0.69094741
0.015700852 -0.013738245 0.69150543
0.015739128 -0.015739113 0.692083
0.015782008 -0.017754763 0.69273007
0.01582556 -0.019781917 0.69338715
0.0158742 -0.021826982 0.69412106
0.015923517 -0.02388525 0.69486523
0.015977543 -0.025963515 0.69568044
0.01603277 -0.028057367 0.69651377
0.016092263 -0.030172974 0.69741136
0.016153632 -0.032307267 0.69833744
0.016219016 -0.034465402 0.69932395
0.016286924 -0.036645532 0.70034862
0.016358409 -0.038851231 0.70142722
0.016433559 -0.041083872 0.70256114
0.016511651 -0.043343067 0.70373946
0.016620107 -0.045705289 0.70537603
0.016706398 -0.048030913 0.70667803
0.016798453 -0.05039534 0.70806706
0.016894879 -0.052796513 0.70952195
0.016995449 -0.055235207 0.71103942
0.017103944 -0.057725817 0.71267647
0.017217681 -0.060261846 0.71439266
0.0173382 -0.062850982 0.7162112
0.01746735 -0.065502524 0.71815985
0.017605945 -0.068223029 0.72025114
0.017756442 -0.071025729 0.7225219
0.017920438 -0.0739218 0.72499645
0.018101558 -0.076931626 0.72772932
0.018305277 -0.080085576 0.73080325
0.01854606 -0.083457232 0.73443633
0.017977247 0.017977268 0.69571412
0.017830543 0.015849382 0.69374645
0.01774063 0.013798237 0.69254053
0.017215228 0.011476815 0.68549371
0.01714921 0.0095273256 0.68460822
0.017150581 0.0076224506 0.68462658
0.017175701 0.0057252049 0.68496352
0.01722168 0.0038270354 0.68558019
0.017278308 0.0019198656 0.68633974
0.01734459 -0 0.68722874
0.017430186 -0.0019366443 0.68837678
0.017517857 -0.003892839 0.68955266
0.017592935 -0.0058642924 0.69055963
0.017649338 -0.0078441501 0.69131613
0.01768524 -0.0098251104 0.69179761
0.01771662 -0.011811078 0.69221848
0.017751399 -0.013806641 0.69268501
0.017789125 -0.015812546 0.69319093
0.017831108 -0.017831087 0.69375408
0.017874919 -0.019861042 0.69434166
0.017923797 -0.021906853 0.69499719
0.01797373 -0.023964971 0.69566691
0.018029211 -0.026042193 0.69641107
0.018085618 -0.028133154 0.69716758
0.018147567 -0.03024599 0.69799852
0.01821083 -0.032374799 0.698847
0.01827913 -0.034527242 0.69976306
0.018349517 -0.036699027 0.70070714
0.018424518 -0.038896203 0.70171309
0.018502641 -0.041117013 0.70276088
0.018612226 -0.04342854 0.70423067
0.018699097 -0.045708895 0.70539582
0.018788816 -0.048015863 0.70659912
0.018885262 -0.050360709 0.70789266
0.018984783 -0.052735478 0.70922744
0.019090455 -0.055150211 0.71064484
0.019201815 -0.057605445 0.71213841
0.019318208 -0.060101122 0.71369952
0.019442733 -0.062648803 0.7153697
0.019574404 -0.065248013 0.71713567
0.019714257 -0.067904621 0.71901137
0.019863125 -0.070624441 0.72100806
0.020023873 -0.073420852 0.72316402
0.020198653 -0.076305985 0.72550821
0.020389704 -0.079293311 0.72807068
0.020601163 -0.082404643 0.7309069
0.020243177 0.014170229 0.6989547
0.020037912 0.012022763 0.69647694
0.019922625 0.0099613369 0.69508529
0.019849282 0.0079396963 0.69419992
0.01924227 0.0057727098 0.68687266
0.019236648 0.0038473606 0.68680477
0.019265091 0.0019265115 0.68714809
0.019312456 2.9802322e-08 0.68771988
0.019372799 -0.0019372702 0.68844831
0.019447794 -0.0038895607 0.68935359
0.019541215 -0.005862385 0.69048131
0.019640317 -0.0078561306 0.69167757
0.019729065 -0.0098645091 0.69274879
0.019795958 -0.011877537 0.69355631
0.019838264 -0.01388678 0.694067
0.019873722 -0.015898973 0.69449496
0.019912476 -0.017921239 0.69496274
0.019955201 -0.019955218 0.6954785
0.020002186 -0.022002369 0.6960457
0.020051805 -0.024062127 0.69664466
0.020106677 -0.026138663 0.69730693
0.020163314 -0.028228641 0.69799066
0.02022583 -0.030338734 0.69874531
0.020289557 -0.032463253 0.69951451
0.02035973 -0.034611523 0.70036161
0.020431394 -0.036776513 0.70122671
0.02050869 -0.038966507 0.70215976
0.020588523 -0.041177034 0.70312333
0.020704042 -0.043478489 0.70451778
0.020793006 -0.045744598 0.70559168
0.020886051 -0.048037916 0.70671487
0.020984856 -0.05036363 0.7079075
0.021086559 -0.052716374 0.70913517
0.021196343 -0.055110455 0.71046042
0.021309815 -0.057536513 0.7118302
0.021429557 -0.060002774 0.71327555
0.021556593 -0.062514126 0.714809
0.021689659 -0.06506896 0.71641529
0.021830851 -0.06767565 0.71811968
0.021981521 -0.070340872 0.71993834
0.02214163 -0.073067367 0.72187102
0.022312542 -0.075862676 0.72393411
0.022496426 -0.078737468 0.72615373
0.022696432 -0.08170715 0.72856808
0.022916285 -0.08479026 0.73122197
0.02257492 0.010261327 0.70232832
0.022297716 0.0081082582 0.69928628
0.02215554 0.0060424209 0.69772613
0.022065829 0.0040119886 0.69674164
0.021389665 0.0019445121 0.68932164
0.021369236 2.9802322e-08 0.6890974
0.021394487 -0.0019449592 0.68937457
0.02144233 -0.0038985908 0.68989956
0.021505753 -0.0058652163 0.69059563
0.021589858 -0.0078508556 0.69151855
0.021690598 -0.0098593831 0.69262397
0.021801086 -0.011891484 0.69383645
0.021904944 -0.0139395 0.69497615
0.021982545 -0.015987307 0.69582778
0.022032792 -0.018026829 0.69637918
0.022072554 -0.020065963 0.69681549
0.022115303 -0.02211532 0.69728458
0.022163123 -0.024177939 0.69780934
0.022215277 -0.026254386 0.6983816
0.022270918 -0.02834478 0.69899225
0.022332005 -0.030452728 0.69966263
0.022395521 -0.032575279 0.70035964
0.022465359 -0.034719169 0.70112598
0.022536559 -0.03687799 0.70190728
0.022615269 -0.039062738 0.70277107
0.022728739 -0.041324973 0.70401627
0.022815987 -0.043557793 0.7049737
0.02290562 -0.045811266 0.70595729
0.023001153 -0.048093319 0.70700562
0.02310117 -0.050402552 0.70810318
0.023205679 -0.052740186 0.70924997
0.023316866 -0.0551126 0.71047014
0.023431417 -0.057513505 0.7117272
0.023554759 -0.059957564 0.71308076
0.023682768 -0.062436372 0.71448541
0.023817226 -0.064956039 0.71596092
0.023960724 -0.067525655 0.71753567
0.024111351 -0.07014209 0.71918857
0.024269979 -0.072809935 0.72092932
0.024440585 -0.075543642 0.72280157
0.024622191 -0.078343362 0.72479445
0.024816362 -0.08121717 0.72692519
0.025025561 -0.084176898 0.72922093
0.024620317 0.0041033924 0.70225918
0.024438042 0.0020365119 0.70042562
0.024330299 -0 0.69934189
0.023586715 -0.0019655526 0.69186199
0.023545923 -0.00392434 0.69145167
0.023565052 -0.0058912635 0.69164407
0.023612406 -0.0078707933 0.69212037
0.023678988 -0.0098662376 0.69279015
0.023771703 -0.011885852 0.69372278
0.023879386 -0.013929635 0.69480598
0.024001569 -0.016001046 0.69603509
0.024119679 -0.018089741 0.69722319
0.024210611 -0.020175487 0.69813788
0.024270114 -0.022247612 0.69873637
0.024314338 -0.024314344 0.69918132
0.024361001 -0.026391029 0.69965065
0.024414293 -0.028483361 0.70018679
0.024471607 -0.030589491 0.70076329
0.024533501 -0.032711297 0.70138586
0.024600951 -0.034851342 0.70206439
0.024671506 -0.037007272 0.70277411
0.024748893 -0.039185762 0.7035526
0.024865428 -0.041442394 0.70472485
0.02495254 -0.043666929 0.7056011
0.025041621 -0.045909643 0.70649725
0.025138287 -0.048181713 0.70746952
0.025238248 -0.050476491 0.70847505
0.025344457 -0.052800983 0.70954353
0.025456101 -0.05515486 0.71066654
0.02557243 -0.057537973 0.71183681
0.02569643 -0.059958339 0.71308404
0.025824634 -0.06240952 0.71437365
0.025961978 -0.064904928 0.71575528
0.026105333 -0.067438781 0.7171973
0.026254984 -0.070013314 0.71870267
0.02641589 -0.072643667 0.72032124
0.026584778 -0.075323522 0.72202015
0.02676264 -0.078057677 0.72380924
0.026953297 -0.08085987 0.7257272
0.02715762 -0.083735973 0.72778243
0.027007787 2.9802322e-08 0.70537698
0.026783483 -0.0020602345 0.70329422
0.026646225 -0.0040994287 0.70201981
0.025831835 -0.0059611797 0.69445777
0.025766756 -0.0079282224 0.6938535
0.025778092 -0.0099146366 0.69395876
0.025823837 -0.011918724 0.69438362
0.025897348 -0.013944745 0.69506615
0.02599453 -0.015996635 0.69596851
0.026108675 -0.018075228 0.6970284
0.026242979 -0.020186901 0.69827545
0.026376208 -0.022318304 0.69951254
0.026481442 -0.024444401 0.7004897
0.026551165 -0.026551187 0.70113707
0.026600458 -0.028646648 0.70159477
0.026651029 -0.030751169 0.70206434
0.026709795 -0.032873571 0.70261002
0.02677246 -0.035010129 0.70319188
0.026840843 -0.037164241 0.7038269
0.026955742 -0.039396882 0.70489377
0.027033715 -0.041590333 0.70561779
0.027118357 -0.043806583 0.70640373
0.027206261 -0.046041369 0.70721996
0.02730207 -0.048303664 0.70810956
0.027400518 -0.050585538 0.70902371
0.027507354 -0.052898735 0.71001565
0.027617954 -0.055235922 0.71104276
0.027735479 -0.057604462 0.712134
0.027859023 -0.060004026 0.7132811
0.027987761 -0.062434226 0.71447653
0.028125234 -0.064904392 0.71575296
0.028267628 -0.067407399 0.71707517
0.028419537 -0.069955766 0.71848577
0.028578863 -0.072546363 0.71996522
0.028745066 -0.075179368 0.72150838
0.028923629 -0.077871323 0.72316641
0.029111847 -0.080617428 0.72491407
0.029310323 -0.083421677 0.72675705
0.029491976 -0.0042131245 0.7088834
0.029185161 -0.0062539577 0.70623797
0.029016275 -0.0082903802 0.70478177
0.028190583 -0.010068059 0.69766253
0.028033094 -0.01201418 0.69630468
0.028034667 -0.014017284 0.69631815
0.028077817 -0.016044438 0.6966902
0.028158516 -0.018101901 0.69738609
0.028259616 -0.020185411 0.69825774
0.028379718 -0.022298366 0.69929332
0.028526954 -0.024451703 0.70056278
0.028675731 -0.026627451 0.70184559
0.028794665 -0.028794616 0.70287097
0.028877402 -0.030940056 0.70358437
0.028932028 -0.03306517 0.70405537
0.028986497 -0.035197884 0.70452505
0.029097391 -0.037410945 0.70548117
0.029164139 -0.039579898 0.70605671
0.029239371 -0.041770518 0.70670539
0.029319163 -0.043978751 0.70739335
0.029404944 -0.046207756 0.70813292
0.029497439 -0.048460066 0.70893049
0.029594393 -0.050733238 0.70976645
0.02969916 -0.053034246 0.71066982
0.029807337 -0.055356473 0.71160251
0.029924611 -0.05771175 0.71261364
0.030046292 -0.060092598 0.7136628
0.030175721 -0.062506825 0.71477878
0.030311519 -0.064953238 0.71594965
0.030453177 -0.067432046 0.71717101
0.030604854 -0.069953918 0.7184788
0.030761966 -0.072510302 0.71983349
0.030929029 -0.075113356 0.72127396
0.03110523 -0.077763051 0.72279316
0.031289183 -0.080457926 0.72437924
0.031485654 -0.083212078 0.72607327
0.032065783 -0.0085508823 0.71264338
0.031646244 -0.01054877 0.7092672
0.031444184 -0.012577683 0.70764118
0.031314958 -0.014613628 0.7066012
0.030348558 -0.01618591 0.69882429
0.03033617 -0.018201679 0.69872451
0.030383328 -0.020255536 0.69910407
0.030463735 -0.022340059 0.69975114
0.030567955 -0.024454385 0.7005899
0.030693464 -0.026601017 0.70159984
0.030854216 -0.028797269 0.7028935
0.031019483 -0.031019479 0.70422345
0.031153001 -0.033229887 0.70529795
0.03130072 -0.035474122 0.7064867
0.031361934 -0.037634313 0.70697927
0.031421013 -0.039799929 0.70745474
0.031489436 -0.041985929 0.70800537
0.031561602 -0.044186264 0.7085861
0.031643838 -0.046410978 0.70924783
0.031730399 -0.048653275 0.70994449
0.031824172 -0.050918669 0.71069908
0.031924888 -0.053208172 0.71150959
0.032031022 -0.055520445 0.71236366
0.032145023 -0.05786106 0.7132811
0.032263447 -0.060225099 0.71423411
0.032391831 -0.062624186 0.71526724
0.032524761 -0.065049559 0.71633697
0.032666463 -0.067510694 0.71747732
0.032815285 -0.070005953 0.71867496
0.032970253 -0.072534591 0.71992201
0.033136632 -0.07510969 0.72126096
0.033309285 -0.077721655 0.72265035
0.033492111 -0.080381066 0.72412163
0.033691775 -0.083106369 0.72572839
0.034186706 -0.014956683 0.71251673
0.033928234 -0.016964078 0.7105667
0.033775646 -0.018998742 0.70941544
0.032736484 -0.020460308 0.70157558
0.032695573 -0.022478193 0.701267
0.032735277 -0.024551451 0.70156652
0.032814309 -0.026661605 0.70216274
0.032920908 -0.028805792 0.70296699
0.033056434 -0.030990422 0.70398945
0.033226006 -0.033226013 0.7052688
0.033649012 -0.035752058 0.70846009
0.033690222 -0.037901491 0.70877099
0.033735652 -0.040061057 0.70911378
0.033792611 -0.042240739 0.70954347
0.033856776 -0.044437021 0.71002764
0.033930101 -0.046653867 0.71058077
0.034008514 -0.048887283 0.71117234
0.034097303 -0.051145971 0.71184218
0.034190793 -0.053423107 0.71254754
0.034293167 -0.055726379 0.7133199
0.03440192 -0.058053255 0.71414042
0.034517765 -0.060406089 0.7150144
0.034641437 -0.062787563 0.71594739
0.034770679 -0.065195024 0.7169224
0.034910321 -0.067638755 0.71797597
0.03505493 -0.070109844 0.71906698
0.035209566 -0.072619736 0.72023362
0.035371821 -0.075165123 0.72145772
0.035540629 -0.07774514 0.72273129
0.035722367 -0.080375344 0.72410238
0.036120467 -0.083528578 0.7271058
0.036798567 -0.01948157 0.71589082
0.03648087 -0.021459311 0.71363497
0.036291759 -0.023482919 0.71229219
0.035178822 -0.02483207 0.70438957
0.035106082 -0.026845813 0.70387316
0.035135083 -0.028934777 0.70407909
0.035211589 -0.03106904 0.70462233
0.035319928 -0.033242255 0.70539159
0.036079481 -0.036079466 0.71078491
