# .PCD v0.7 - Point Cloud Data file format
VERSION 0.7
FIELDS x y z
SIZE 4 4 4
TYPE F F F
COUNT 1 1 1
WIDTH 1337
HEIGHT 1
VIEWPOINT 0 0 0 1 0 0 0
POINTS 1337
DATA ascii
-0.042551514 0.047030598 0.72493595
-0.042596508 0.044838428 0.72522175
-0.042689275 0.042689264 0.72581118
-0.042860955 0.040605128 0.72690183
-0.04318846 0.038642347 0.72898257
-0.04145341 0.080603838 0.73259068
-0.041265 0.077945024 0.73132718
-0.041082233 0.075317413 0.73010147
-0.040912408 0.072733164 0.72896266
-0.040750068 0.070180655 0.72787392
-0.040597428 0.067662418 0.72685027
-0.040455732 0.065178663 0.72590011
-0.040321343 0.062722117 0.72499883
-0.040200222 0.06030032 0.7241866
-0.040087853 0.057904661 0.72343302
-0.039987825 0.055538654 0.72276223
-0.039898541 0.053198069 0.7221635
-0.03982427 0.050886542 0.72166544
-0.039759748 0.04859522 0.72123271
-0.039717492 0.046337068 0.72094935
-0.039691411 0.044101566 0.72077447
-0.03968564 0.041890413 0.72073573
-0.039706461 0.039706439 0.72087538
-0.039765015 0.037555873 0.721268
-0.038384806 0.034119844 0.71201211
-0.038355544 0.031962961 0.71181589
-0.040529098 0.031522632 0.72639215
-0.039192654 0.08299619 0.73289043
-0.038990363 0.080274284 0.73145401
-0.038794577 0.077589154 0.7300638
-0.038608629 0.074946165 0.72874343
-0.03843227 0.072343111 0.72749114
-0.038262848 0.069773436 0.7262882
-0.038104471 0.067243218 0.72516358
-0.037951294 0.064740449 0.72407591
-0.037810598 0.062276304 0.72307694
-0.037676115 0.059838533 0.72212201
-0.0375522 0.057432801 0.72124207
-0.037436012 0.055052936 0.72041714
-0.037329555 0.052700549 0.71966124
-0.037233964 0.050375342 0.71898246
-0.037146319 0.048071712 0.71836013
-0.037071206 0.045793861 0.71782672
-0.037011359 0.043542773 0.7174018
-0.036963113 0.041311741 0.7170592
-0.036927324 0.039099544 0.7168051
-0.036184769 0.036184788 0.71153253
-0.03601151 0.033893168 0.71030229
-0.035865892 0.031646371 0.70926827
-0.035749223 0.029440552 0.70843983
-0.035677698 0.027282953 0.70793194
-0.035714399 0.025210202 0.70819253
-0.03764027 0.024355471 0.72186744
-0.036785338 0.08276701 0.73212188
-0.036579613 0.080017924 0.73056972
-0.036380634 0.077308893 0.72906864
-0.036193952 0.074650019 0.72766018
-0.03601177 0.072023511 0.72628576
-0.035841517 0.069442928 0.72500128
-0.035676837 0.066894114 0.72375894
-0.035521548 0.064382821 0.72258735
-0.03537323 0.061903179 0.72146833
-0.035232808 0.059455365 0.72040898
-0.03510027 0.05703795 0.71940905
-0.034974683 0.054647952 0.71846151
-0.034858793 0.052288204 0.71758723
-0.034748189 0.04995057 0.71675277
-0.034649983 0.047643751 0.71601182
-0.034556653 0.045355588 0.71530777
-0.034475256 0.043094069 0.71469367
-0.034401476 0.040851772 0.71413702
-0.034341417 0.038634092 0.7136839
-0.034036562 0.036163867 0.71138394
-0.03383946 0.033839494 0.70989692
-0.033643782 0.031541049 0.70842063
-0.033471189 0.029287308 0.70711857
-0.033317961 0.02707085 0.70596254
-0.033198588 0.024898976 0.70506191
-0.033113316 0.022765428 0.7044186
-0.03307952 0.020674706 0.70416361
-0.033272542 0.018715799 0.70561987
-0.034783691 0.085799754 0.73451543
-0.03442204 0.082612872 0.73160511
-0.034213502 0.079831511 0.72992694
-0.03401703 0.077105314 0.72834587
-0.033827227 0.074419886 0.72681844
-0.033645708 0.071777523 0.72535765
-0.033472992 0.069177538 0.72396779
-0.033306181 0.066612333 0.72262537
-0.033148929 0.064087957 0.72135985
-0.0329962 0.061592907 0.72013086
-0.032854073 0.059137374 0.71898705
-0.03271573 0.056707263 0.71787381
-0.03258732 0.054312199 0.71684051
-0.032463141 0.051941037 0.71584111
-0.03234813 0.049600452 0.71491557
-0.032238364 0.047282934 0.71403223
-0.032137178 0.044992059 0.71321797
-0.032043193 0.042724282 0.71246159
-0.031955332 0.040476739 0.71175462
-0.031817965 0.038181573 0.71064913
-0.031743951 0.035976499 0.7100535
-0.031651981 0.033762127 0.70931339
-0.031517468 0.031517446 0.70823091
-0.03134805 0.029258192 0.70686752
-0.03116723 0.027011573 0.70541239
-0.030993478 0.024794787 0.70401418
-0.030849399 0.022622913 0.70285469
-0.030726388 0.020484298 0.70186478
-0.030625459 0.018375278 0.70105261
-0.030559616 0.016298473 0.70052272
-0.030565215 0.014263779 0.70056784
-0.03213663 0.012854695 0.71321356
-0.032312628 0.085397691 0.73320359
-0.032095734 0.082531899 0.73133349
-0.031889137 0.079722822 0.72955215
-0.031692635 0.076967835 0.72785783
-0.031501796 0.074254245 0.72621244
-0.031323042 0.07159555 0.72467119
-0.031148661 0.068972051 0.72316766
-0.030983748 0.066393733 0.72174573
-0.030824777 0.063851327 0.72037506
-0.030673198 0.061346412 0.71906811
-0.030528029 0.058875501 0.71781647
-0.030389102 0.056436896 0.7166186
-0.030257314 0.054030925 0.71548229
-0.030130684 0.05165261 0.71439046
-0.030011922 0.04930532 0.71336645
-0.029897153 0.046981275 0.71237689
-0.029791364 0.044687063 0.71146476
-0.029688084 0.042411536 0.71057427
-0.029544218 0.040095747 0.70933378
-0.029452914 0.037868053 0.70854658
-0.029372886 0.035667062 0.7078566
-0.029295865 0.033480972 0.70719248
-0.029228633 0.0313164 0.70661283
-0.029157585 0.029157579 0.70600021
-0.029050089 0.026975065 0.70507336
-0.028912563 0.024782181 0.70388758
-0.028748695 0.022588283 0.70247471
-0.028587257 0.020419478 0.70108271
-0.028444594 0.018285811 0.69985271
-0.028316505 0.016180873 0.69874823
-0.028217837 0.014108926 0.69789749
-0.028143922 0.012061715 0.6972602
-0.028108235 0.010038644 0.69695246
-0.028170746 0.0080487728 0.69749147
-0.029810891 0.0063880384 0.71163315
-0.030018847 0.085438251 0.73333603
-0.029802773 0.082530737 0.73132968
-0.029598944 0.079689503 0.72943711
-0.029401869 0.076897204 0.72760713
-0.02921501 0.074161172 0.72587204
-0.029036086 0.071473449 0.72421062
-0.028863564 0.068828523 0.72260875
-0.028700424 0.066231757 0.72109389
-0.028540993 0.06366837 0.71961355
-0.028391998 0.061152011 0.71823001
-0.028246146 0.058665067 0.71687573
-0.028109068 0.056218147 0.71560287
-0.027975725 0.05379951 0.71436471
-0.027850075 0.051415563 0.71319801
-0.027728505 0.04905811 0.71206915
-0.027613968 0.046731353 0.71100569
-0.027503863 0.044429332 0.70998335
-0.027354885 0.042084455 0.70859998
-0.027255166 0.039834499 0.70767403
-0.027161954 0.037608862 0.70680857
-0.027073774 0.035404176 0.70598972
-0.02699109 0.033219784 0.70522201
-0.026914921 0.031055689 0.70451474
-0.026843278 0.028908163 0.70384949
-0.026780173 0.026780188 0.70326352
-0.026719671 0.024664342 0.70270175
-0.026640331 0.022541851 0.70196503
-0.026527233 0.020405561 0.70091486
-0.026387338 0.018268168 0.6996159
-0.026239695 0.016147494 0.69824499
-0.026097259 0.014052361 0.69692236
-0.025979374 0.011990488 0.69582772
-0.02587726 0.0099528134 0.69487959
-0.025791381 0.0079357922 0.69408214
-0.025737599 0.0059394836 0.69358277
-0.025728844 0.0039583147 0.69350147
-0.02698952 0.0020760894 0.70520747
-0.027753126 0.085572124 0.73377281
-0.027540034 0.082620084 0.73162925
-0.027335785 0.079729378 0.72957468
-0.02714166 0.076901376 0.72762191
-0.026957653 0.074133575 0.72577095
-0.026779708 0.071412563 0.72398096
-0.026611643 0.068746746 0.7222904
-0.026449518 0.066123813 0.72065949
-0.026294423 0.063544869 0.7190994
-0.026146371 0.061008215 0.71761012
-0.02600302 0.058506817 0.71616811
-0.02586747 0.056046188 0.71480453
-0.025735198 0.053615004 0.71347404
-0.025611375 0.051222712 0.71222848
-0.025489602 0.048855096 0.71100348
-0.025376486 0.046523541 0.70986563
-0.025264475 0.044212848 0.70873892
-0.025121458 0.041869104 0.70730025
-0.025019394 0.039614052 0.70627362
-0.024925917 0.037388861 0.70533329
-0.024833547 0.035180897 0.70440412
-0.024749711 0.032999635 0.70356083
-0.02466725 0.030834079 0.70273125
-0.02459299 0.028691858 0.70198429
-0.024520978 0.026564419 0.70125985
-0.024456557 0.024456561 0.70061189
-0.024395943 0.022362977 0.70000213
-0.024341643 0.020284683 0.69945598
-0.024281401 0.018211037 0.69884998
-0.024191493 0.016127676 0.69794559
-0.024078956 0.014046043 0.69681352
-0.023945479 0.011972725 0.69547081
-0.023814887 0.0099228919 0.69415718
-0.023699174 0.0078997314 0.69299322
-0.023594128 0.0058985054 0.69193655
-0.0235142 0.0039190352 0.69113255
-0.023451293 0.0019542873 0.69049966
-0.023416171 -0 0.69014645
-0.023450192 -0.0019541681 0.69048864
-0.024711106 -0.0041185021 0.70317245
-0.025513481 0.085818082 0.73457515
-0.025299337 0.082797825 0.73222518
-0.025097679 0.079856277 0.7300123
-0.024907101 0.076985568 0.72792095
-0.024724392 0.074173212 0.72591591
-0.024551021 0.071421176 0.72401339
-0.024385899 0.068723917 0.72220147
-0.024226183 0.066071421 0.72044873
-0.024076018 0.063473105 0.7188009
-0.023930201 0.060913295 0.7172007
-0.023791691 0.0583978 0.71568072
-0.023658235 0.055919468 0.71421623
-0.023530187 0.053477675 0.71281111
-0.023407701 0.051071346 0.71146697
-0.023289636 0.048696548 0.71017134
-0.023177437 0.04635486 0.70894009
-0.023032339 0.043970853 0.70734787
-0.022929382 0.041689783 0.706218
-0.022829615 0.039433002 0.70512325
-0.022735406 0.037203342 0.7040894
-0.022644205 0.034995615 0.70308858
-0.022558633 0.032812566 0.70214963
-0.022475818 0.030648857 0.70124078
-0.022398712 0.028507441 0.70039463
-0.022324305 0.026383311 0.69957811
-0.02225597 0.024279296 0.69882822
-0.022190019 0.022190034 0.6981045
-0.022131041 0.020119131 0.69745731
-0.022073705 0.018060327 0.69682807
-0.022024857 0.016018093 0.69629204
-0.021976139 0.013984829 0.69575739
-0.02190974 0.011950791 0.69502878
-0.021816727 0.0099167228 0.69400811
-0.021703942 0.0078923702 0.69277036
-0.021585878 0.0058870614 0.69147485
-0.021471858 0.0039040148 0.69022357
-0.021377536 0.0019434392 0.68918854
-0.021294661 -0 0.68827909
-0.021223631 -0.0019294024 0.68749964
-0.021180183 -0.0038509667 0.68702281
-0.021167638 -0.0057730079 0.68688524
-0.022169461 -0.0080616176 0.69787884
-0.023294061 0.086188048 0.73578209
-0.023081411 0.083093137 0.73321515
-0.02288118 0.080084145 0.73079818
-0.022691596 0.077151418 0.72850972
-0.022512924 0.07429263 0.72635293
-0.022343829 0.071500272 0.72431183
-0.022181679 0.068763196 0.72235441
-0.022027874 0.06608361 0.72049791
-0.021881163 0.063455403 0.71872687
-0.021739321 0.060870111 0.71701479
-0.021605836 0.058335781 0.71540344
-0.021475639 0.055836648 0.71383178
-0.021352831 0.053382069 0.71234941
-0.021233492 0.050960392 0.71090883
-0.021120025 0.048576087 0.70953918
-0.020977465 0.046150446 0.70781839
-0.020872893 0.043833107 0.70655602
-0.020772029 0.04154408 0.70533848
-0.020675724 0.039283872 0.70417601
-0.020582933 0.037049264 0.70305586
-0.020494495 0.034840673 0.70198834
-0.02040931 0.032654911 0.70096004
-0.020328464 0.030492693 0.69998419
-0.020250633 0.02835089 0.69904464
-0.020177219 0.026230395 0.6981585
-0.020106841 0.024128228 0.69730896
-0.020040803 0.022044897 0.69651181
-0.019977909 0.019977927 0.69575256
-0.019919373 0.017927408 0.69504601
-0.019864412 0.015891522 0.69438255
-0.019813597 0.013869554 0.69376922
-0.019767258 0.011860371 0.69320977
-0.019724477 0.0098622143 0.69269347
-0.019674916 0.0078699589 0.69209516
-0.01960177 0.0058805346 0.69121218
-0.019511269 0.0039022267 0.6901198
-0.019406309 0.0019406378 0.68885279
-0.019303292 -0 0.68760926
-0.019211905 -0.0019212067 0.68650615
-0.019128835 -0.0038257539 0.68550336
-0.019064987 -0.0057195127 0.68473268
-0.019013116 -0.0076052547 0.68410653
-0.018980445 -0.0094902217 0.68371212
-0.018994136 -0.011396468 0.68387741
-0.01997105 -0.013979733 0.69566983
-0.021095965 0.086727858 0.73754328
-0.020879989 0.083519936 0.73464656
-0.020680636 0.080424696 0.73197275
-0.020494467 0.077423513 0.72947586
-0.020318864 0.074502498 0.72712052
-0.020152822 0.071654469 0.72489357
-0.019995954 0.068874955 0.72278965
-0.019847367 0.066157877 0.72079676
-0.019704852 0.063493401 0.7188853
-0.01956981 0.06088385 0.71707404
-0.019440636 0.058321923 0.71534151
-0.019316053 0.055801898 0.71367055
-0.019198295 0.053328604 0.71209115
-0.019083176 0.050888479 0.71054715
-0.018975424 0.048492759 0.70910197
-0.018840225 0.046053886 0.70728862
-0.018740807 0.04372856 0.70595527
-0.01864359 0.041430205 0.7046513
-0.018551806 0.039164931 0.70342028
-0.018462058 0.036924154 0.70221657
-0.018377524 0.034713119 0.70108277
-0.018294726 0.03252396 0.69997221
-0.018217091 0.030361801 0.69893104
-0.01814077 0.028218955 0.69790733
-0.018069798 0.026100814 0.69695544
-0.017999882 0.02399984 0.69601768
-0.017935432 0.021921068 0.6951533
-0.017871726 0.019857466 0.69429886
-0.017813826 0.017813832 0.69352227
-0.01775644 0.015783519 0.69275254
-0.017705128 0.01377064 0.6920644
-0.017654458 0.011769623 0.69138473
-0.017609928 0.0097832978 0.69078749
-0.017566513 0.0078073442 0.69020522
-0.017528974 0.0058430135 0.68970174
-0.017490506 0.0038867593 0.68918586
-0.017435992 0.0019373596 0.68845463
-0.01736325 -0 0.68747896
-0.01727506 -0.0019194484 0.68629616
-0.017183762 -0.0038186014 0.68507159
-0.01709524 -0.0056984127 0.68388438
-0.017022219 -0.0075654387 0.68290502
-0.016957032 -0.0094205737 0.68203068
-0.016902043 -0.01126802 0.68129313
-0.016866339 -0.013118237 0.68081427
-0.016852263 -0.01497978 0.6806255
-0.016895259 -0.016895264 0.68120217
-0.017874494 -0.019860566 0.69433594
-0.018921629 0.087512553 0.74010324
-0.018698797 0.084144562 0.73674095
-0.018496184 0.080920815 0.73368376
-0.018309716 0.077816337 0.73087019
-0.018137485 0.074817151 0.72827142
-0.017976046 0.071904182 0.72583556
-0.017823964 0.069067895 0.72354072
-0.017680209 0.066300809 0.72137165
-0.017544135 0.0635975 0.71931845
-0.017415291 0.060953468 0.71737444
-0.017291313 0.058358163 0.71550369
-0.017174318 0.055816531 0.71373838
-0.017061876 0.053318381 0.71204174
-0.016953841 0.050861508 0.71041167
-0.016851138 0.048447013 0.70886195
-0.016724618 0.045992702 0.70695293
-0.016631018 0.043656379 0.7055406
-0.016538803 0.041347027 0.70414925
-0.016452607 0.039074928 0.70284861
-0.01636737 0.036826611 0.70156246
-0.016287785 0.034611553 0.70036161
-0.016208969 0.032417953 0.69917238
-0.016135594 0.030254215 0.69806522
-0.016062945 0.028110147 0.69696903
-0.015995292 0.025992334 0.69594824
-0.015928524 0.02389279 0.69494081
-0.01586627 0.021816164 0.69400144
-0.015805189 0.019756496 0.69307983
-0.015748292 0.017716825 0.69222134
-0.015692789 0.01569283 0.69138384
-0.015641158 0.013686031 0.69060481
-0.015591263 0.011693448 0.68985194
-0.015545064 0.0097156763 0.68915486
-0.015500819 0.0077504516 0.68848717
-0.015460467 0.0057976842 0.68787837
-0.015421988 0.0038555264 0.68729776
-0.015387899 0.0019234419 0.68678343
-0.015355492 -0 0.68629438
-0.015316361 -0.0019145608 0.68570393
-0.015259025 -0.0038147271 0.68483877
-0.015189196 -0.0056959391 0.6837852
-0.015109843 -0.0075549483 0.68258786
-0.015031824 -0.0093948841 0.68141061
-0.014962431 -0.011221796 0.68036354
-0.014899442 -0.013036996 0.6794132
-0.014850248 -0.014850229 0.67867082
-0.014809152 -0.016660273 0.67805076
-0.014780607 -0.018475741 0.67762005
-0.014781044 -0.020323932 0.67762667
-0.01551079 -0.023266166 0.68863767
-0.016538521 0.085055262 0.73979449
-0.016327355 0.081636786 0.73615313
-0.016138375 0.078386396 0.73289424
-0.0159663 0.075269729 0.72992688
-0.015807839 0.072264403 0.72719431
-0.015661241 0.069356918 0.72466636
-0.015523527 0.066529423 0.72229159
-0.015393692 0.06377387 0.7200526
-0.015271269 0.061085075 0.71794152
-0.015154973 0.058454931 0.71593606
-0.015045022 0.0558815 0.71404004
-0.014938821 0.053352922 0.71220863
-0.014838948 0.050876379 0.71048641
-0.01471866 0.048361331 0.70841211
-0.014626645 0.045969456 0.70682538
-0.014539032 0.04361707 0.70531458
-0.014453835 0.041296691 0.70384538
-0.014373286 0.039013237 0.70245636
-0.014294622 0.036757588 0.70109981
-0.014220276 0.034534961 0.69981784
-0.014147444 0.03233701 0.69856185
-0.014078748 0.030168772 0.6973772
-0.014011445 0.028022885 0.69621664
-0.013947892 0.025903255 0.69512069
-0.013885849 0.023804337 0.69405079
-0.01382703 0.021728188 0.6930365
-0.01377006 0.01967147 0.69205409
-0.013715812 0.01763466 0.69111866
-0.013663643 0.015615612 0.69021899
-0.013613774 0.01361379 0.68935907
-0.013566422 0.011628419 0.68854249
-0.013520963 0.00965783 0.68775856
-0.013478349 0.0077019036 0.68702376
-0.013437344 0.0057588518 0.68631661
-0.013399559 0.0038284659 0.68566501
-0.013363313 0.0019090474 0.68504
-0.013330456 2.9802322e-08 0.6844734
-0.013299378 -0.0018998981 0.68393743
-0.013271712 -0.0037919283 0.68346041
-0.013242107 -0.0056751668 0.6829499
-0.013200334 -0.0075430572 0.68222952
-0.013146231 -0.0093901455 0.68129659
-0.013080588 -0.011211932 0.68016464
-0.013013327 -0.013013303 0.67900467
-0.012947997 -0.014797717 0.67787814
-0.012894086 -0.016578138 0.67694849
-0.012845378 -0.018350542 0.67610854
-0.012804756 -0.020121783 0.67540801
-0.012776963 -0.021903336 0.67492878
-0.012763369 -0.023703367 0.6746943
-0.012786619 -0.025573254 0.67509532
-0.013472388 -0.02886942 0.68692094
-0.014182975 0.082734048 0.73993731
-0.013979041 0.079214543 0.73583448
-0.013803889 0.075921416 0.73231071
-0.013646831 0.072783113 0.72915095
-0.013503623 0.069768757 0.72626984
-0.013371664 0.066858321 0.72361505
-0.013249389 0.064038724 0.72115505
-0.013134441 0.061294079 0.71884251
-0.01302571 0.058615714 0.71665502
-0.012923433 0.056001544 0.71459734
-0.012826203 0.053442508 0.71264118
-0.012734096 0.050936401 0.71078819
-0.012624111 0.048392445 0.70857537
-0.012540738 0.045982689 0.70689809
-0.01246027 0.04361096 0.70527917
-0.012383329 0.041277766 0.70373124
-0.012309553 0.038980305 0.70224702
-0.012238298 0.036714882 0.70081347
-0.012170427 0.034482896 0.69944799
-0.012104574 0.032278895 0.69812316
-0.012041797 0.030104458 0.69686019
-0.01198086 0.027955323 0.69563425
-0.011922717 0.025832564 0.69446445
-0.011866402 0.023732811 0.69333148
-0.011812475 0.021656185 0.69224656
-0.011760555 0.019600928 0.69120204
-0.011710506 0.017565757 0.69019508
-0.011662829 0.015550464 0.68923593
-0.011616482 0.013552576 0.68830353
-0.011572822 0.011572808 0.68742514
-0.011530109 0.0096083879 0.68656582
-0.011490436 0.0076602697 0.68576765
-0.011451254 0.0057256222 0.68497932
-0.011415592 0.0038052201 0.68426186
-0.011380151 0.0018967092 0.68354887
-0.011348361 -0 0.68290931
-0.011316919 -0.0018861294 0.68227673
-0.011289087 -0.00376302 0.6817168
-0.011261772 -0.0056308806 0.6811673
-0.011238291 -0.0074921846 0.68069488
-0.0112152 -0.0093459785 0.68023032
-0.011186157 -0.011186153 0.67964602
-0.011144136 -0.013001502 0.67880064
-0.011093566 -0.014791429 0.67778325
-0.011037243 -0.016555846 0.67665011
-0.010981688 -0.018302798 0.67553246
-0.010932222 -0.020042419 0.67453724
-0.010887382 -0.021774739 0.67363513
-0.010851806 -0.023512244 0.67291933
-0.010821296 -0.02524969 0.67230558
-0.010800779 -0.027001947 0.67189282
-0.01079837 -0.02879563 0.67184436
-0.011314828 -0.032058716 0.68223476
-0.012142804 0.084999651 0.74775118
-0.011851284 0.080588728 0.74071318
-0.011652511 0.076906562 0.73591441
-0.011489664 0.073533863 0.73198295
-0.011348319 0.070359617 0.72857064
-0.011221423 0.067328513 0.72550708
-0.011105509 0.064411998 0.72270864
-0.010998636 0.0615924 0.72012848
-0.010899447 0.058857024 0.71773392
-0.010806091 0.056191653 0.71548003
-0.010717533 0.053587705 0.71334207
-0.010634482 0.051045507 0.71133697
-0.010536929 0.048469901 0.70898187
-0.01046259 0.046035409 0.70718718
-0.010390458 0.043639928 0.70544577
-0.010322677 0.0412907 0.70380938
-0.01025691 0.038976312 0.70222163
-0.010194343 0.036699653 0.70071113
-0.010133971 0.034455508 0.69925362
-0.010076053 0.032243341 0.69785541
-0.010020361 0.030061096 0.69651085
-0.0099667888 0.027907044 0.69521749
-0.0099152401 0.025779635 0.693973
-0.0098656612 0.023677617 0.69277602
-0.0098178079 0.021599174 0.69162077
-0.0097719822 0.019543976 0.69051445
-0.0097274892 0.01750949 0.68944025
-0.009685237 0.015496403 0.68842018
-0.0096438704 0.013501406 0.68742156
-0.0096049933 0.011525989 0.68648297
-0.0095665753 0.0095666051 0.68555552
-0.0095310407 0.0076248348 0.68469757
-0.0094957696 0.0056974888 0.68384612
-0.0094631556 0.0037852824 0.68305874
-0.0094310855 0.0018862486 0.68228447
-0.0094012795 -0 0.68156493
-0.0093724346 -0.0018744767 0.68086851
-0.0093455464 -0.0037382543 0.68021941
-0.009319922 -0.0055919588 0.67960072
-0.0092960959 -0.0074368715 0.67902553
-0.0092738699 -0.0092738569 0.67848897
-0.009253392 -0.011104047 0.67799455
-0.0092346398 -0.012928486 0.67754185
-0.0092136906 -0.014741898 0.67703605
-0.0091843307 -0.016531765 0.67632729
-0.0091472911 -0.018294573 0.67543304
-0.0091024283 -0.020025343 0.67435002
-0.009056855 -0.021736413 0.67324972
-0.0090124514 -0.023432344 0.67217773
-0.0089759128 -0.025132537 0.67129558
-0.0089423852 -0.026827097 0.67048615
-0.0089148227 -0.028527439 0.66982079
-0.0088949492 -0.030242831 0.66934097
-0.0088835778 -0.031980872 0.66906643
-0.0088935895 -0.033795625 0.66930819
-0.0093511352 -0.037404567 0.6803543
-0.0095562181 0.078838795 0.74298233
-0.0093449028 0.074759215 0.73660529
-0.0091929128 0.071245074 0.73201859
-0.0090675503 0.068006605 0.72823548
-0.0089580528 0.064945877 0.72493112
-0.0088595524 0.062016875 0.72195858
-0.0087694544 0.05919385 0.71923959
-0.0086863311 0.056461155 0.71673119
-0.008609063 0.053806663 0.7143994
-0.0085362503 0.051217526 0.71220207
-0.0084476536 0.04857406 0.70952839
-0.0083874352 0.046130896 0.7077111
-0.0083258525 0.043710738 0.70585269
-0.0082676932 0.041338474 0.70409763
-0.0082111834 0.039003104 0.70239228
-0.0081582665 0.03671217 0.70079541
-0.0081066508 0.034453273 0.69923776
-0.0080577927 0.032231152 0.69776332
-0.008010353 0.030038834 0.69633174
-0.0079651168 0.027877957 0.69496655
-0.007921298 0.02574423 0.69364423
-0.0078794472 0.023638368 0.69238126
-0.0078387735 0.021556616 0.69115382
-0.0078000366 0.019500077 0.68998486
-0.0077622226 0.017464995 0.68884373
-0.0077264137 0.015452832 0.68776309
-0.0076911701 0.013459533 0.68669951
-0.007658151 0.011487246 0.68570304
-0.0076254141 0.0095317662 0.68471515
-0.0075949146 0.007594943 0.68379474
-0.0075648022 0.0056736171 0.682886
-0.0075365435 0.0037682652 0.68203324
-0.007508975 0.0018772483 0.68120128
-0.0074828104 2.9802322e-08 0.6804117
-0.0074577718 -0.0018644035 0.67965609
-0.0074337558 -0.003716886 0.67893136
-0.0074112113 -0.0055584013 0.67825103
-0.0073893485 -0.0073893666 0.6775912
-0.0073693506 -0.0092116594 0.67698777
-0.0073497854 -0.011024654 0.67639726
-0.0073324176 -0.012831748 0.67587322
-0.0073153726 -0.014630735 0.67535877
-0.0073007224 -0.016426623 0.67491674
-0.0072860252 -0.01821509 0.67447317
-0.0072667142 -0.019983441 0.67389035
-0.007239535 -0.021718591 0.67307025
-0.007206975 -0.023422658 0.67208767
-0.007171365 -0.025099754 0.671013
-0.0071362057 -0.026760787 0.66995198
-0.0071048192 -0.028419256 0.6690048
-0.0070764078 -0.030074716 0.66814744
-0.007053514 -0.031740785 0.66745651
-0.0070333867 -0.033408582 0.66684914
-0.0070203603 -0.035101831 0.66645604
-0.0070171608 -0.036840081 0.66635948
-0.0070473799 -0.038760573 0.66727144
-0.0074433214 -0.042799115 0.67922002
-0.0070576118 0.072928697 0.73857427
-0.0069094738 0.069094747 0.73261368
-0.0068005393 0.065738529 0.72823048
-0.0067100101 0.062626779 0.72458792
-0.0066304593 0.059674174 0.72138697
-0.0065587843 0.056842804 0.718503
-0.0064930776 0.054109007 0.71585917
-0.006339754 0.050718069 0.70968992
-0.0063176346 0.048435211 0.70879996
-0.0062923958 0.046144247 0.70778441
-0.0062575089 0.043802559 0.70638061
-0.0062136035 0.041424036 0.70461404
-0.0061685359 0.039067417 0.70280063
-0.0061258413 0.036755055 0.70108271
-0.0060843746 0.034478158 0.69941425
-0.0060455841 0.032243103 0.69785345
-0.0060076206 0.030038148 0.6963259
-0.0059718178 0.027868479 0.69488531
-0.005936862 0.025726378 0.69347876
-0.0059037288 0.023614913 0.69214559
-0.0058713765 0.021528363 0.69084388
-0.0058407173 0.019469053 0.68961024
-0.0058106696 0.017432064 0.68840122
-0.0057822657 0.015419364 0.68725836
-0.0057542478 0.013426602 0.686131
-0.0057280078 0.011456013 0.68507516
-0.0057020066 0.0095033646 0.68402892
-0.0056776358 0.0075701773 0.68304837
-0.005653643 0.0056536496 0.68208295
-0.0056309071 0.0037539303 0.68116814
-0.0056088362 0.0018696189 0.68028009
-0.0055876863 -0 0.67942905
-0.0055674794 -0.0018558204 0.67861605
-0.005547849 -0.0036985874 0.67782617
-0.0055294768 -0.0055294633 0.67708695
-0.0055113472 -0.007348448 0.67635739
-0.0054948237 -0.0091580153 0.67569256
-0.0054783998 -0.010956764 0.67503166
-0.0054635443 -0.012748271 0.67443401
-0.0054489672 -0.014530599 0.67384744
-0.0054358058 -0.016307384 0.67331779
-0.0054231388 -0.018077105 0.67280817
-0.0054118182 -0.01984331 0.67235261
-0.0054011275 -0.021604508 0.67192256
-0.0053886604 -0.023350865 0.67142087
-0.005371287 -0.025065988 0.67072183
-0.0053499988 -0.026749969 0.66986525
-0.0053241914 -0.028395683 0.66882682
-0.0052982206 -0.030023247 0.66778189
-0.0052728723 -0.031637251 0.66676193
-0.0052520065 -0.0332627 0.66592234
-0.0052326364 -0.034884214 0.66514295
-0.0052169058 -0.036518335 0.66451001
-0.0052049849 -0.038169891 0.66403037
-0.0051972712 -0.039845735 0.66372001
-0.0051996838 -0.041597486 0.66381705
-0.0054564741 -0.045470595 0.67414945
-0.0046343035 0.067197412 0.73430288
-0.0045423363 0.063592702 0.7287522
-0.0044726403 0.060380608 0.72454566
-0.0044145146 0.057388693 0.72103745
-0.0043632388 0.054540485 0.71794271
-0.0042139729 0.050567687 0.70893371
-0.0041918731 0.048206538 0.70759988
-0.0041741957 0.04591614 0.7065329
-0.0041598114 0.043678015 0.70566475
-0.0041433801 0.041433811 0.70467305
-0.0041207904 0.039147496 0.7033096
-0.004092311 0.036830813 0.70159072
-0.0040629855 0.034535378 0.69982082
-0.0040351343 0.032281071 0.69813979
-0.0040081446 0.030061096 0.69651085
-0.0039827963 0.027879626 0.69498092
-0.0039579547 0.025726676 0.69348162
-0.0039346581 0.023607969 0.69207555
-0.0039117569 0.021514684 0.69069332
-0.0038901637 0.019450843 0.68939006
-0.0038689275 0.017410189 0.68810833
-0.003848972 0.01539588 0.68690395
-0.0038292073 0.013402224 0.68571103
-0.0038107177 0.011432141 0.68459511
-0.0037924061 0.0094810128 0.68348986
-0.0037751524 0.0075502992 0.68244851
-0.0037582098 0.0056373179 0.68142593
-0.0037421044 0.0037421286 0.6804539
-0.0037264696 0.0018632412 0.67951024
-0.0037114052 2.9802322e-08 0.67860103
-0.0036970223 -0.0018485188 0.67773294
-0.0036829668 -0.003682971 0.67688465
-0.0036697986 -0.0055047274 0.67608988
-0.0036567238 -0.0073134303 0.67530072
-0.0036447241 -0.009111762 0.67457646
-0.0036328293 -0.010898471 0.67385858
-0.003621798 -0.012676299 0.6731928
-0.0036110943 -0.014444381 0.67254674
-0.0036010239 -0.016204596 0.6719389
-0.0035915119 -0.017957568 0.67136484
-0.003582499 -0.019703746 0.67082083
-0.0035742458 -0.021445483 0.67032278
-0.0035663608 -0.023181349 0.66984689
-0.0035593968 -0.024915785 0.6694265
-0.0035521826 -0.026641339 0.66899109
-0.0035427134 -0.028341711 0.6684196
-0.0035295559 -0.030001223 0.66762549
-0.0035138163 -0.031624347 0.66667551
-0.0034969207 -0.033220738 0.66565573
-0.0034801867 -0.034801871 0.66464579
-0.0034652315 -0.03638494 0.6637432
-0.0034517252 -0.037968963 0.66292799
-0.0034406527 -0.0395675 0.6622597
-0.003430709 -0.041168541 0.66165954
-0.0034245106 -0.042806387 0.6612854
-0.0034221918 -0.04448849 0.66114545
-0.0034295097 -0.046298385 0.66158718
-0.0036130501 -0.050582707 0.67266482
-0.0022833983 0.061651736 0.73022848
-0.0022401449 0.058243781 0.7250073
-0.0022067123 0.055167794 0.72097164
-0.0021105327 0.050652802 0.70936173
-0.0020939542 0.04816094 0.70736057
-0.0020808224 0.045778096 0.70577544
-0.0020701473 0.043473095 0.70448679
-0.0020615752 0.041231543 0.70345199
-0.0020545661 0.039036751 0.70260596
-0.002046549 0.036837846 0.70163828
-0.0020355589 0.03460449 0.70031166
-0.0020217167 0.0323475 0.6986407
-0.0020074008 0.030111015 0.69691265
-0.0019937628 0.027912706 0.69526637
-0.0019805832 0.025747597 0.69367546
-0.0019681572 0.023617893 0.69217551
-0.0019559856 0.021515846 0.69070625
-0.001944583 0.019445837 0.68932986
-0.0019333274 0.017399937 0.68797117
-0.0019227852 0.01538229 0.68669862
-0.0019123571 0.013386488 0.68543983
-0.0019025696 0.011415422 0.6842584
-0.0018929105 0.0094645619 0.68309242
-0.0018837884 0.0075351596 0.68199128
-0.0018748381 0.0056245029 0.68091094
-0.0018663066 0.0037325919 0.6798811
-0.001858025 0.0018580556 0.67888135
-0.001850042 -0 0.67791778
-0.0018423989 -0.0018423796 0.67699516
-0.0018349127 -0.0036698282 0.67609149
-0.0018278811 -0.0054836273 0.67524266
-0.001820903 -0.007283628 0.67440039
-0.001814432 -0.0090721548 0.67361927
-0.0018080395 -0.010848254 0.67284763
-0.0018020228 -0.012614161 0.67212129
-0.0017962136 -0.014369696 0.6714201
-0.0017906468 -0.016115844 0.67074811
-0.0017854138 -0.017854154 0.67011642
-0.0017803065 -0.019583344 0.66949987
-0.0017756562 -0.021307886 0.66893858
-0.0017710369 -0.023023486 0.66838098
-0.0017669966 -0.024737954 0.66789329
-0.0017629747 -0.026444644 0.66740781
-0.0017594969 -0.028151929 0.66698796
-0.0017561065 -0.029853791 0.66657871
-0.001751999 -0.031535983 0.66608292
-0.0017462757 -0.033179194 0.66539204
-0.0017393979 -0.034787953 0.66456181
-0.001731219 -0.036355585 0.66357452
-0.0017229922 -0.037905812 0.66258144
-0.0017149312 -0.039443433 0.66160846
-0.0017083151 -0.040999562 0.66080976
-0.0017020854 -0.042552143 0.66005778
-0.001697086 -0.044124246 0.65945435
-0.0016931236 -0.045714349 0.65897602
-0.0016902809 -0.047327846 0.65863287
-0.0016902809 -0.049018145 0.65863287
-0.0017718584 -0.05315575 0.66848016
0 0.056265354 0.72627103
0 0.053039223 0.72136456
0 0.048434615 0.70879668
0 0.045844674 0.70614052
0 0.04342711 0.70422244
0 0.041106015 0.70269465
0 0.038854718 0.70144939
0 0.036660194 0.70044661
0 0.034507215 0.69962084
0 0.03235206 0.69867522
0 0.030169845 0.69738603
0 0.027969837 0.69575942
0 0.025790244 0.69407171
0 0.023646146 0.69245994
0 0.021534026 0.69090581
0 0.019454569 0.68943477
0 0.017402023 0.68799919
0 0.015378833 0.68664688
0 0.013379544 0.68531996
0 0.011405885 0.68406731
0 0.0094539523 0.68283683
0 0.0075246096 0.68167239
0 0.005615145 0.68053252
0 0.0037254095 0.67944574
0 0.0018539429 0.67838943
0 -0 0.67737085
0 -0.0018374324 0.67639321
0 -0.0036589801 0.67543793
0 -0.0054660738 0.67453563
0 -0.0072584152 0.67364073
0 -0.0090385377 0.67280734
0 -0.010805309 0.67198348
0 -0.012560934 0.67120385
0 -0.014305353 0.67044914
0 -0.016039222 0.66972113
0 -0.017764539 0.6690352
0 -0.019479275 0.66835755
0 -0.021188676 0.66773975
0 -0.022888273 0.66712546
0 -0.024584055 0.66656613
0 -0.026272148 0.66602004
0 -0.027957082 0.66551793
0 -0.029637635 0.66504389
0 -0.031315476 0.66460419
0 -0.032992214 0.664204
0 -0.034656733 0.6637699
0 -0.036291182 0.66320431
0 -0.037881076 0.66244549
0 -0.039427727 0.66152614
0 -0.040949255 0.66055667
0 -0.042456388 0.65959549
0 -0.043969154 0.65873426
0 -0.045486361 0.6579569
0 -0.0470213 0.65731126
0 -0.048559666 0.65672439
0 -0.050143868 0.65636116
0 -0.051769137 0.65618134
0 -0.053518236 0.6564799
0 -0.058030933 0.66686928
0.0022909676 0.054983228 0.73114216
0.0022190926 0.051039159 0.72246611
0.0021737339 0.047822177 0.71699083
0.0020787562 0.043653905 0.70552599
0.0020578362 0.041156709 0.70300072
0.0020425974 0.038809389 0.70116127
0.0020304048 0.036547303 0.69968945
0.0020204268 0.034347296 0.69848502
0.0020123741 0.032197982 0.69751298
0.0020056949 0.030085415 0.69670671
0.001998038 0.027972519 0.69578248
0.0019876563 0.025839508 0.69452924
0.0019745417 0.023694485 0.6929462
0.0019608838 0.021569729 0.69129753
0.0019478002 0.019477993 0.68971825
0.0019352193 0.017416984 0.68819958
0.0019232655 0.015386164 0.68675661
0.0019116411 0.013381511 0.6853534
0.0019006329 0.011403829 0.68402463
0.0018898861 0.0094494522 0.68272734
0.0018796767 0.0075187087 0.68149501
0.0018697099 0.0056091249 0.68029189
0.0018602078 0.0037204325 0.67914486
0.0018509729 0.0018509924 0.67803013
0.00184208 2.9802322e-08 0.67695665
0.0018335208 -0.0018335283 0.67592347
0.0018251739 -0.0036503673 0.67491591
0.0018172525 -0.0054517984 0.67395973
0.001809406 -0.0072376132 0.67301255
0.0018020942 -0.0090104342 0.67212987
0.0017948413 -0.010769039 0.6712544
0.0017879722 -0.012515783 0.67042524
0.0017812952 -0.014250368 0.66961926
0.0017748502 -0.015973657 0.6688413
0.001768733 -0.017687321 0.66810286
0.0017626828 -0.01938954 0.66737258
0.0017571241 -0.021085471 0.66670156
0.0017515942 -0.022770733 0.6660341
0.0017464708 -0.0244506 0.66541564
0.0017414925 -0.026122391 0.66481471
0.0017367714 -0.027788341 0.66424477
0.0017323518 -0.02944997 0.66371131
0.001728074 -0.03110531 0.66319489
0.0017242332 -0.032760412 0.66273129
0.0017204328 -0.034408629 0.66227257
0.0017171913 -0.036061019 0.66188121
0.0017139619 -0.03770715 0.66149139
0.0017098971 -0.039327621 0.66100073
0.0017042537 -0.040902078 0.66031957
0.0016975753 -0.042439371 0.65951335
0.0016897956 -0.043934703 0.65857428
0.0016819568 -0.045412809 0.65762806
0.0016742634 -0.046879381 0.65669942
0.0016679566 -0.048370779 0.65593815
0.00166194 -0.049858183 0.65521181
0.0016571787 -0.051372558 0.6546371
0.0016532202 -0.052903026 0.65415919
0.0016503463 -0.05446142 0.65381241
0.001650145 -0.056104928 0.65378803
0.0016602692 -0.058109432 0.6550101
0.0017504606 -0.063016593 0.66589719
0.004605595 0.050661564 0.73257023
0.0043597408 0.045777261 0.7177316
0.0042907996 0.042908013 0.71357059
0.0041046822 0.038994491 0.70233738
0.0040650321 0.036585301 0.69994432
0.0040357043 0.034303486 0.69817424
0.004012194 0.032097548 0.69675529
0.0039929035 0.029946774 0.69559097
0.0039772876 0.027841002 0.6946485
0.0039642421 0.025767565 0.69386113
0.0039492855 0.023695707 0.69295841
0.0039290814 0.021609962 0.69173896
0.0039035326 0.01951769 0.69019693
0.0038768412 0.017445773 0.688586
0.0038512091 0.01540482 0.6870389
0.0038266156 0.013393193 0.68555456
0.0038031435 0.011409432 0.68413794
0.003780429 0.0094510615 0.68276703
0.003758803 0.007517606 0.68146175
0.0037377717 0.0056066811 0.68019241
0.0037176791 0.0037176609 0.67897969
0.0036981832 0.0018490851 0.67780304
0.0036794462 -0 0.67667216
0.0036613797 -0.0018306673 0.67558169
0.0036438217 -0.0036438107 0.67452204
0.0036270753 -0.0054406524 0.67351127
0.0036105602 -0.0072211325 0.67251456
0.0035950602 -0.0089876056 0.671579
0.0035796924 -0.010739028 0.67065144
0.003565192 -0.012478173 0.66977632
0.0035509977 -0.014203995 0.66891962
0.0035373287 -0.015917957 0.66809458
0.0035242606 -0.017621309 0.66730589
0.0035113872 -0.01931265 0.66652894
0.0034994152 -0.020996481 0.66580629
0.0034875246 -0.022668898 0.66508865
0.0034764269 -0.024334967 0.66441882
0.0034656036 -0.025992006 0.66376555
0.0034552531 -0.027642041 0.66314089
0.0034455098 -0.029286832 0.66255283
0.0034359272 -0.030923337 0.66197449
0.0034272664 -0.032559037 0.66145176
0.003418661 -0.034186602 0.66093236
0.0034109817 -0.035815299 0.66046888
0.0034034876 -0.037438393 0.66001654
0.0033967528 -0.039062619 0.65961003
0.0033904347 -0.040685236 0.6592288
0.0033832819 -0.042291015 0.65879703
0.0033739854 -0.043861806 0.65823591
0.0033619925 -0.04538691 0.65751213
0.0033472276 -0.046861172 0.65662092
0.0033319481 -0.04831323 0.65569878
0.0033167524 -0.049751282 0.65478164
0.0033031225 -0.051198423 0.65395904
0.0032908479 -0.052653581 0.65321815
0.0032804809 -0.054127932 0.65259242
0.0032712051 -0.055610448 0.65203261
0.0032651213 -0.057139605 0.65166545
0.0032615562 -0.058708027 0.65145028
0.0032643334 -0.060390145 0.65161788
0.0034259877 -0.065093741 0.66137457
0.0065899687 0.043933094 0.7197578
0.0064516356 0.040860355 0.71419168
0.0063533848 0.0381203 0.7102384
0.0060797669 0.034452021 0.69922888
0.0060240394 0.032128215 0.6969865
0.0059811696 0.029905826 0.6952616
0.0059470935 0.027753115 0.69389051
0.0059191165 0.025649518 0.69276476
0.0058964002 0.023585588 0.69185072
0.0058772848 0.02155003 0.69108158
0.0058553442 0.019517809 0.69019878
0.0058258469 0.017477572 0.68901193
0.0057885535 0.015436143 0.68751132
0.0057494212 0.013415307 0.68593675
0.0057117268 0.011423439 0.68442005
0.0056756604 0.0094594657 0.68296885
0.005641107 0.0075214803 0.68157852
0.0056077885 0.0056077838 0.68023795
0.0055758967 0.0037172437 0.67895466
0.005545062 0.00184834 0.67771399
0.005515377 2.9802322e-08 0.67651957
0.0054867701 -0.0018288791 0.67536849
0.0054590739 -0.0036394 0.67425406
0.0054325596 -0.0054325461 0.67318726
0.0054065357 -0.0072087049 0.67214012
0.0053819562 -0.0089699328 0.6711511
0.0053575989 -0.010715187 0.67017102
0.0053346935 -0.012447625 0.66924942
0.0053121331 -0.014165699 0.6683417
0.005290546 -0.015871644 0.66747302
0.0052697067 -0.017565697 0.66663456
0.0052493066 -0.019247472 0.66581374
0.0052301204 -0.020920515 0.66504174
0.0052110739 -0.022581339 0.66427541
0.0051932796 -0.024235338 0.66355938
0.0051758206 -0.025879085 0.66285688
0.0051590987 -0.027515143 0.662184
0.0051432247 -0.029144943 0.66154528
0.0051275538 -0.030765295 0.66091472
0.0051132482 -0.032383889 0.66033918
0.0050990405 -0.033993602 0.65976751
0.0050859619 -0.035601735 0.6592412
0.0050733108 -0.037204295 0.65873218
0.0050614555 -0.038804471 0.6582551
0.0050504548 -0.040403634 0.65781248
0.0050399071 -0.041999191 0.65738809
0.0050306343 -0.043598801 0.65701497
0.0050213118 -0.045191795 0.65663993
0.0050093136 -0.046753585 0.65615714
0.0049926029 -0.048261821 0.65548474
0.0049731508 -0.049731523 0.65470207
0.0049509089 -0.051159382 0.6538071
0.0049285088 -0.05257079 0.65290582
0.0049064551 -0.053971022 0.65201843
0.004888399 -0.055401862 0.65129191
0.0048709502 -0.056827754 0.65058982
0.0048573161 -0.058287784 0.65004128
0.0048454781 -0.059760898 0.64956492
0.0048372336 -0.061271638 0.64923316
0.0048355977 -0.062862739 0.6491673
0.0048473245 -0.064630985 0.64963919
0.0051062386 -0.069785267 0.66005713
0.0086601721 0.038970768 0.71594173
0.0084879939 0.036074013 0.71074581
0.0083635319 0.03345415 0.70698977
0.0080063483 0.030023843 0.69621086
0.0079363752 0.027777344 0.69409925
0.0078811226 0.025613666 0.69243181
0.0078367479 0.023510247 0.69109267
0.0078006447 0.021451771 0.69000322
0.0077712643 0.019428164 0.68911654
0.0077463901 0.017429382 0.68836594
0.0077178031 0.015435606 0.68750322
0.0076795132 0.013439149 0.68634772
0.0076310541 0.011446595 0.68488538
0.0075800437 0.0094750822 0.68334597
0.007530787 0.0075307786 0.68185949
0.0074837618 0.0056128502 0.68044043
0.0074385358 0.0037192702 0.6790756
0.0073950826 0.0018487871 0.6777643
0.0073532681 -0 0.67650247
0.0073130471 -0.0018282235 0.67528868
0.0072741089 -0.0036370456 0.67411357
0.0072367867 -0.005427599 0.67298728
0.0072003375 -0.0072003305 0.67188728
0.0071657416 -0.0089571476 0.6708433
0.0071314764 -0.010697216 0.66980928
0.0070994007 -0.012423962 0.66884124
0.0070676114 -0.014135242 0.66788197
0.0070373686 -0.015834063 0.6669693
0.0070079225 -0.017519832 0.66608071
0.0069793542 -0.019193232 0.66521859
0.0069521531 -0.02085647 0.66439772
0.0069251633 -0.022506773 0.66358322
0.0069000474 -0.024150193 0.66282529
0.0068751834 -0.025781929 0.66207498
0.0068514589 -0.027405858 0.66135901
0.0068286904 -0.029021949 0.66067189
0.0068063042 -0.030628383 0.65999633
0.0067855818 -0.03223151 0.65937096
0.0067649861 -0.033824921 0.6587494
0.0067458781 -0.035415858 0.65817279
0.0067273076 -0.037000149 0.65761238
0.0067095808 -0.03858006 0.65707743
0.0066930675 -0.040158421 0.65657908
0.0066768127 -0.041730076 0.65608853
0.006662454 -0.043305933 0.65565526
0.0066481801 -0.044875234 0.6552245
0.0066357041 -0.0464499 0.65484804
0.0066236476 -0.048021436 0.65448415
0.0066094515 -0.049570918 0.65405577
0.0065909508 -0.051079869 0.65349746
0.0065680668 -0.052544504 0.65280688
0.0065394389 -0.05395034 0.65194291
0.0065103178 -0.055337667 0.65106416
0.006481329 -0.056711614 0.65018934
0.0064552613 -0.058097333 0.64940262
0.0064317994 -0.059494153 0.64869463
0.0064117303 -0.060911447 0.64808905
0.0063940124 -0.062341616 0.64755428
0.0063817385 -0.063817397 0.6471839
0.0063735284 -0.065328673 0.64693618
0.0063751526 -0.066939101 0.64698517
0.0066835904 -0.071848586 0.65629309
0.010671588 0.03414911 0.71223283
0.010472181 0.031416535 0.70741874
0.010033381 0.028093457 0.69682515
0.0098878471 0.025708407 0.69331169
0.0098036891 0.023528844 0.69127989
0.0097369161 0.021421194 0.68966788
0.0096827252 0.01936546 0.68835962
0.0096390769 0.017350316 0.68730581
0.0096034454 0.015365511 0.68644559
0.0095730554 0.013402283 0.68571186
0.0095380908 0.011445731 0.6848678
0.0094915191 0.009491533 0.68374342
0.0094325077 0.0075460374 0.68231881
0.0093701538 0.0056220889 0.68081343
0.0093097612 0.0037239194 0.67935538
0.0092522632 0.001850456 0.67796731
0.0091967555 -0 0.67662728
0.0091436142 -0.0018287301 0.67534435
0.0090922397 -0.0036368668 0.67410398
0.0090430081 -0.005425781 0.67291546
0.0089950822 -0.007196039 0.67175841
0.0089494232 -0.008949399 0.67065609
0.0089044785 -0.010685354 0.66957104
0.0088621788 -0.012407035 0.66854984
0.008820219 -0.014112353 0.6675368
0.008780594 -0.015805066 0.6665802
0.0087416908 -0.017483383 0.66564101
0.0087042507 -0.019149333 0.66473716
0.0086682122 -0.02080372 0.66386712
0.008632767 -0.022445202 0.66301137
0.0085994732 -0.024078518 0.66220754
0.0085664354 -0.025699317 0.66140997
0.0085351644 -0.027312517 0.66065502
0.0085047279 -0.028916031 0.65992022
0.0084751099 -0.030510396 0.6592052
0.0084472103 -0.032099426 0.65853161
0.0084194923 -0.033677965 0.65786242
0.0083938148 -0.035254031 0.65724254
0.0083685732 -0.036821723 0.65663314
0.0083444566 -0.038384497 0.65605092
0.0083217239 -0.039944232 0.65550208
0.008299225 -0.041496098 0.65495896
0.0082790116 -0.043050855 0.65447092
0.0082588959 -0.044598043 0.65398532
0.008240588 -0.046147317 0.65354335
0.0082231183 -0.047694087 0.65312159
0.0082067978 -0.049240768 0.65272754
0.0081920447 -0.050790668 0.65237141
0.0081765428 -0.052329868 0.65199709
0.0081574265 -0.053838968 0.65153563
0.0081299376 -0.055283606 0.65087199
0.0080984356 -0.056689024 0.65011144
0.0080630695 -0.058054104 0.64925766
0.0080274446 -0.059403092 0.64839756
0.0079922853 -0.06074135 0.64754874
0.0079635372 -0.06211558 0.6468547
0.0079353983 -0.063483179 0.64617538
0.0079136854 -0.064892218 0.64565122
0.0078940596 -0.066310078 0.64517736
0.0081142746 -0.069782749 0.6504938
0.0083621675 -0.07358706 0.65647852
0.0086255651 -0.077630088 0.66283751
0.012630165 0.029470384 0.70869726
0.012407742 0.026883453 0.70422244
0.011883781 0.023767561 0.69368118
0.011724776 0.021495432 0.69048214
0.011627506 0.019379169 0.68852526
0.011550072 0.017325133 0.68696737
0.011486568 0.015315413 0.68568981
0.011435855 0.013341844 0.68466955
0.011394361 0.011394382 0.68383479
0.011358709 0.0094655752 0.68311751
0.011317643 0.0075451136 0.68229133
0.011263209 0.0056315958 0.68119621
0.011194207 0.0037314296 0.67980796
0.011121059 0.0018535256 0.67833632
0.011049999 -0 0.6769067
0.010982451 -0.001830399 0.67554778
0.010917036 -0.0036390126 0.67423165
0.010854631 -0.0054273307 0.67297626
0.010793983 -0.0071959794 0.67175609
0.010736158 -0.0089468062 0.67059278
0.01067952 -0.010679513 0.66945326
0.010625883 -0.012396842 0.66837418
0.010572782 -0.014097035 0.66730589
0.010522975 -0.015784442 0.66630387
0.010473707 -0.017456174 0.66531265
0.010426673 -0.019115537 0.66436636
0.010380956 -0.020761907 0.66344666
0.010336458 -0.022395641 0.6625514
0.010294104 -0.024019599 0.6616993
0.010252095 -0.025630236 0.66085416
0.010212756 -0.027234018 0.66006273
0.010173923 -0.028826147 0.65928143
0.010136549 -0.030409634 0.65852952
0.010100774 -0.03198576 0.65780979
0.010065283 -0.033550918 0.65709579
0.010032488 -0.035113692 0.65643597
0.0099999057 -0.036666304 0.65578049
0.0099689253 -0.038214207 0.65515721
0.0099392878 -0.039757133 0.65456092
0.0099100536 -0.041291863 0.6539728
0.0098833665 -0.042827934 0.65343589
0.0098567903 -0.044355571 0.65290123
0.0098321922 -0.045883566 0.65240633
0.0098085487 -0.047407985 0.65193069
0.0097859129 -0.048929572 0.65147525
0.0097653819 -0.050454438 0.65106225
0.0097449366 -0.051972985 0.65065092
0.0097276326 -0.053501993 0.65030277
0.0097103594 -0.055025369 0.64995527
0.0096891737 -0.056520179 0.64952904
0.0096616093 -0.057969645 0.64897448
0.0096287001 -0.059377 0.64831245
0.0095871584 -0.06071867 0.64747667
0.009545519 -0.062045857 0.64663899
0.0095039383 -0.063359603 0.64580238
0.0094665084 -0.064687803 0.64504933
0.0097274436 -0.068092108 0.65029895
0.0098698828 -0.070734173 0.65316463
0.010175545 -0.074620649 0.6593141
0.010500707 -0.078755319 0.66585582
0.014541869 0.024928957 0.70536351
0.014296081 0.022465259 0.70112503
0.013686762 0.019552499 0.69061774
0.013518615 0.017381072 0.68771803
0.01340941 0.01532501 0.68583494
0.01332209 0.013322115 0.68432915
0.013249621 0.011356831 0.68307948
0.01319238 0.0094231367 0.68209237
0.013145392 0.0075116456 0.6812821
0.013104717 0.0056163371 0.68058068
0.013057863 0.0037308335 0.67977273
0.012995991 0.0018565655 0.67870581
0.01291753 2.9802322e-08 0.67735273
0.012833987 -0.0018334091 0.67591208
0.01275268 -0.0036436021 0.67451
0.01267556 -0.0054323971 0.6731801
0.01260059 -0.0072003305 0.67188728
0.012529327 -0.0089494884 0.67065841
0.012459707 -0.010679781 0.66945791
0.012393706 -0.012393713 0.6683197
0.012328574 -0.014089793 0.66719657
0.012267301 -0.015772223 0.66613996
0.012206676 -0.017438114 0.66509455
0.01214926 -0.019091696 0.66410446
0.012092968 -0.020730764 0.66313368
0.012038725 -0.022357643 0.66219831
0.011986484 -0.023972958 0.66129744
0.011935061 -0.025575131 0.66041064
0.011886657 -0.027169496 0.65957594
0.011838645 -0.028751016 0.65874803
0.011793044 -0.030324966 0.65796167
0.011748659 -0.03188923 0.65719628
0.011705235 -0.033443511 0.65644741
0.011664343 -0.034993023 0.65574235
0.011623696 -0.036531627 0.6550414
0.011585479 -0.038066596 0.65438235
0.011548235 -0.039593935 0.65374011
0.011511949 -0.041114122 0.65311438
0.011478071 -0.042632818 0.65253019
0.011444393 -0.044142663 0.65194941
0.011413178 -0.045652717 0.65141118
0.011382801 -0.047157317 0.65088731
0.011353577 -0.048658162 0.65038335
0.011326555 -0.050160438 0.64991736
0.011299697 -0.051655769 0.64945418
0.011275978 -0.053158164 0.64904523
0.011252612 -0.054655522 0.64864224
0.011231394 -0.056156978 0.64827639
0.011211657 -0.057659939 0.64793605
0.011189986 -0.059147045 0.64756227
0.011163948 -0.060604274 0.64711332
0.011126427 -0.061990097 0.64646631
0.011083542 -0.063334525 0.64572674
0.011036256 -0.064640895 0.64491129
0.011349641 -0.06809783 0.65031546
0.011913544 -0.073183209 0.66003966
0.012237213 -0.076919615 0.6656211
0.012431051 -0.079913899 0.66896373
0.016406078 0.020507604 0.70214653
0.016138066 0.018155336 0.69810247
0.015444122 0.01544416 0.68763173
0.0152709 0.01336205 0.685018
0.015150792 0.011363119 0.68320572
0.015054268 0.009408921 0.68174928
0.01497329 0.0074866414 0.68052739
0.014909987 0.0055912435 0.67957222
0.0148578 0.0037144721 0.67878479
0.014812386 0.0018515587 0.67809951
0.014759951 2.9802322e-08 0.67730838
0.014691046 -0.0018364191 0.6762687
0.01460363 -0.0036509335 0.67494971
0.014510195 -0.0054413378 0.67353988
0.014419039 -0.0072095096 0.67216444
0.014332818 -0.0089580119 0.67086345
0.014248585 -0.010686457 0.6695925
0.014168847 -0.012397736 0.66838932
0.014090542 -0.014090538 0.66720778
0.014016679 -0.015768737 0.66609323
0.013943538 -0.017429441 0.66498971
0.013874764 -0.019077808 0.66395193
0.013806901 -0.020710379 0.66292799
0.013742153 -0.02233097 0.66195095
0.01367913 -0.023938477 0.66100007
0.013617794 -0.025533348 0.66007459
0.013559303 -0.027118623 0.65919203
0.013501313 -0.028690279 0.65831697
0.013446887 -0.030255497 0.65749574
0.013393122 -0.031808674 0.65668458
0.01334134 -0.033353329 0.65590322
0.013291635 -0.034890532 0.65515316
0.0132423 -0.036416292 0.65440881
0.013196416 -0.037939668 0.65371644
0.013150894 -0.039452672 0.65302956
0.013107229 -0.040960103 0.65237075
0.013065515 -0.042462915 0.65174127
0.013024068 -0.04395622 0.65111589
0.012985956 -0.045450807 0.65054083
0.012948193 -0.046937168 0.64997107
0.012912147 -0.048420548 0.64942718
0.012878126 -0.049902737 0.6489138
0.012844323 -0.051377296 0.64840376
0.012813938 -0.052857459 0.64794528
0.012783818 -0.054331213 0.6474908
0.012755872 -0.055806935 0.64706922
0.012729707 -0.057283685 0.64667434
0.012704374 -0.058757722 0.64629215
0.012682276 -0.060240805 0.64595872
0.012660255 -0.061718717 0.64562643
0.012632209 -0.06316103 0.64520323
