# .PCD v0.7 - Point Cloud Data file format
VERSION 0.7
FIELDS x y z
SIZE 4 4 4
TYPE F F F
COUNT 1 1 1
WIDTH 1314
HEIGHT 1
VIEWPOINT 0 0 0 1 0 0 0
POINTS 1314
DATA ascii
-0.068760499 -0.051570386 0.68515694
-0.068578035 -0.053338468 0.68454516
-0.067464598 -0.054346472 0.68081176
-0.067268834 -0.056057364 0.68015528
-0.067564048 -0.058180124 0.68114519
-0.067554921 -0.060048819 0.68111467
-0.061221998 -0.015742779 0.66574502
-0.059806548 -0.017087579 0.66086328
-0.058907501 -0.018513799 0.65776265
-0.058210246 -0.019957751 0.65535784
-0.057623003 -0.021402806 0.65333253
-0.057120427 -0.022848159 0.65159917
-0.056679145 -0.024291039 0.65007728
-0.056285117 -0.025730312 0.64871836
-0.055930454 -0.027166218 0.64749515
-0.055608999 -0.028598934 0.6463865
-0.055321079 -0.030031472 0.64539349
-0.055059317 -0.031462461 0.64449072
-0.054820605 -0.032892376 0.6436674
-0.054602843 -0.034321785 0.64291638
-0.054404207 -0.035751373 0.64223135
-0.054290701 -0.037227869 0.6418398
-0.054266475 -0.038761735 0.6417563
-0.054320004 -0.040352017 0.64194089
-0.067048326 -0.051722974 0.6858393
-0.065992221 -0.052793801 0.68219697
-0.06574472 -0.054474175 0.68134338
-0.065937556 -0.056517899 0.68200845
-0.066033036 -0.058486402 0.6823377
-0.06578251 -0.060144007 0.68147373
-0.065447919 -0.061708003 0.68031967
-0.060770642 -0.014298975 0.67035282
-0.058740519 -0.015548944 0.66314518
-0.057759695 -0.016988099 0.65966296
-0.057022836 -0.018448561 0.65704691
-0.056422565 -0.019913852 0.65491581
-0.055906728 -0.021376073 0.65308434
-0.055455677 -0.022834659 0.65148294
-0.055055995 -0.024289399 0.65006399
-0.054698773 -0.025740594 0.64879572
-0.054376896 -0.02718845 0.64765298
-0.054085426 -0.028633446 0.64661819
-0.053820554 -0.030076206 0.6456778
-0.053579178 -0.031517148 0.64482081
-0.053359032 -0.032957047 0.64403927
-0.053160943 -0.034398258 0.643336
-0.052984446 -0.035842419 0.64270931
-0.052824691 -0.03728804 0.64214218
-0.052705716 -0.038754195 0.64171976
-0.052705716 -0.040304363 0.64171976
-0.052724663 -0.041869581 0.64178705
-0.064225562 -0.052891642 0.68261886
-0.064246178 -0.054798186 0.68269205
-0.064488746 -0.056901842 0.68355322
-0.064287692 -0.058615237 0.68283945
-0.063963793 -0.060201228 0.6816895
-0.062657245 -0.060814381 0.67705083
-0.062481895 -0.06248191 0.67642826
-0.05770383 -0.013988793 0.66567272
-0.056603599 -0.015437335 0.66164815
-0.055828679 -0.016917795 0.6588136
-0.055203587 -0.018401206 0.6565271
-0.054678388 -0.019883037 0.65460598
-0.054220535 -0.021359593 0.65293121
-0.053815678 -0.022830904 0.65145028
-0.053454004 -0.024297297 0.65012729
-0.053128421 -0.02575922 0.64893633
-0.05283381 -0.027217418 0.64785868
-0.052566376 -0.028672576 0.64688045
-0.052322514 -0.030125082 0.6459884
-0.052102927 -0.031577557 0.64518523
-0.051905565 -0.033030808 0.6444633
-0.051726539 -0.034484386 0.64380842
-0.051564354 -0.035938799 0.64321518
-0.051418073 -0.037394971 0.64268005
-0.051293485 -0.038858712 0.64222431
-0.051184408 -0.040327072 0.64182532
-0.05119599 -0.041887641 0.6418677
-0.051238567 -0.043475181 0.64202344
-0.051674571 -0.045410991 0.64361829
-0.062773339 -0.057066709 0.68421644
-0.062461555 -0.058676004 0.68307596
-0.06212198 -0.060239464 0.68183386
-0.060787078 -0.060787052 0.67695093
-0.06064352 -0.062481225 0.67642581
-0.060680293 -0.064357877 0.67656028
-0.056744482 -0.012412846 0.66864997
-0.055454846 -0.013863713 0.66378516
-0.05462468 -0.015363157 0.66065359
-0.053975392 -0.01686728 0.65820438
-0.05343179 -0.018367171 0.6561538
-0.052967098 -0.019862652 0.65440089
-0.052557468 -0.021351457 0.65285563
-0.05219188 -0.022833914 0.65147656
-0.051863234 -0.024310887 0.65023685
-0.051565923 -0.025782973 0.64911532
-0.051296312 -0.027251124 0.64809829
-0.051054068 -0.028717875 0.64718449
-0.05083476 -0.030183136 0.64635724
-0.05063526 -0.031647056 0.64560467
-0.050453838 -0.03311035 0.64492035
-0.050289668 -0.034574121 0.644301
-0.050145712 -0.036042243 0.64375806
-0.050018977 -0.03751424 0.64327991
-0.049907196 -0.038989991 0.64285827
-0.049809847 -0.040470481 0.64249104
-0.04973064 -0.04196021 0.64219224
-0.049726624 -0.043510795 0.64217716
-0.049798228 -0.045129627 0.64244723
-0.049889464 -0.046771348 0.64279139
-0.060612574 -0.058718413 0.68324119
-0.059311435 -0.05931145 0.67833304
-0.059101913 -0.060948819 0.67754263
-0.05915891 -0.062856317 0.67775762
-0.058963057 -0.064490855 0.67701894
-0.05849262 -0.065804213 0.67524433
-0.05607212 -0.010852665 0.67293674
-0.054315582 -0.012264818 0.66609704
-0.053412758 -0.013783902 0.6625815
-0.05273487 -0.015310079 0.65994179
-0.052177675 -0.016831487 0.65777218
-0.051699072 -0.01834479 0.65590858
-0.051281165 -0.019850761 0.65428132
-0.050912209 -0.021350294 0.65284461
-0.050581492 -0.022843271 0.65155685
-0.050284367 -0.024331152 0.65039986
-0.050015856 -0.025814652 0.64935428
-0.049772233 -0.027294457 0.64840561
-0.049550902 -0.02877149 0.64754385
-0.049349431 -0.030246407 0.64675933
-0.049166255 -0.031720191 0.64604604
-0.049003467 -0.033195913 0.64541221
-0.048859142 -0.034674227 0.64485019
-0.048730053 -0.036154568 0.64434755
-0.048615657 -0.037637919 0.64390206
-0.048517723 -0.039127201 0.64352077
-0.048438329 -0.040625691 0.6432116
-0.048373681 -0.04213196 0.64295989
-0.048323795 -0.043647319 0.64276564
-0.048294306 -0.045178533 0.64265072
-0.04839481 -0.046833694 0.64304215
-0.048517723 -0.048517704 0.64352071
-0.048981495 -0.050561547 0.64532661
-0.057603046 -0.061319381 0.67889798
-0.057463057 -0.063023984 0.67835295
-0.057038754 -0.064398587 0.67670077
-0.055172812 -0.064071655 0.66943491
-0.055552199 -0.066304207 0.67091221
-0.053199273 -0.010639817 0.66865528
-0.05219264 -0.012178302 0.6646049
-0.051479522 -0.013727874 0.66173553
-0.050906539 -0.015271932 0.65943003
-0.050420403 -0.016806781 0.65747392
-0.049997199 -0.018332273 0.65577108
-0.049623493 -0.01984939 0.65426743
-0.049290106 -0.021358997 0.65292597
-0.048990089 -0.022862017 0.6517188
-0.048719466 -0.024359733 0.65062988
-0.048474185 -0.025852889 0.64964294
-0.048251055 -0.02734226 0.64874518
-0.048047956 -0.02882874 0.64792794
-0.047866397 -0.030315399 0.64719743
-0.04770378 -0.031802505 0.64654315
-0.047557484 -0.033290237 0.64595443
-0.047426458 -0.0347794 0.64542723
-0.047310613 -0.036271483 0.64496112
-0.047214035 -0.037771225 0.6445725
-0.047131907 -0.0392766 0.64424205
-0.047064375 -0.040789127 0.64397037
-0.047011167 -0.042310029 0.64375627
-0.046976738 -0.043844968 0.64361775
-0.046959985 -0.045394659 0.64355028
-0.046960279 -0.046960264 0.64355147
-0.047036797 -0.048604697 0.64385939
-0.047194146 -0.050340414 0.64449251
-0.047383644 -0.052121997 0.64525497
-0.055565566 -0.062974304 0.67817652
-0.05377271 -0.062734812 0.67096257
-0.05314992 -0.063779891 0.66845667
-0.052763194 -0.065074593 0.66690063
-0.053318128 -0.067536265 0.66913342
-0.052143171 -0.0089901984 0.67164057
-0.050978258 -0.010547191 0.66679174
-0.050218206 -0.012121648 0.66362804
-0.049618896 -0.013687968 0.66113347
-0.04912236 -0.015244871 0.65906668
-0.048694089 -0.016791046 0.65728402
-0.048316784 -0.018327028 0.65571356
-0.04798064 -0.019854039 0.65431434
-0.047678724 -0.021373212 0.65305758
-0.04740613 -0.02288571 0.651923
-0.04715931 -0.024392724 0.6508956
-0.046934921 -0.025895119 0.64996159
-0.046734173 -0.027395904 0.64912605
-0.046552602 -0.028894722 0.64837027
-0.046388596 -0.030392498 0.64768755
-0.046240769 -0.031890154 0.6470722
-0.046107799 -0.033388406 0.64651871
-0.045993943 -0.034891933 0.64604479
-0.045895603 -0.036399961 0.64563549
-0.045811128 -0.037912697 0.64528388
-0.045740947 -0.03943187 0.64499176
-0.045687228 -0.040960938 0.64476812
-0.045651007 -0.042502612 0.64461732
-0.045630332 -0.044056892 0.64453137
-0.045626312 -0.045626342 0.64451462
-0.045639943 -0.047213733 0.64457136
-0.045673419 -0.048823297 0.64471066
-0.045732293 -0.0504632 0.64495569
-0.045914188 -0.052247167 0.64571285
-0.0461559 -0.054113805 0.64671898
-0.046450373 -0.056060776 0.64794469
-0.047370072 -0.058804229 0.65177286
-0.051018767 -0.065092891 0.66696036
-0.050505739 -0.066179946 0.66482496
-0.05126607 -0.0073237121 0.67561084
-0.04976571 -0.0088867247 0.6691426
-0.048940644 -0.010487258 0.6655857
-0.048322488 -0.01208058 0.66292077
-0.047809802 -0.013659954 0.66071057
-0.047371551 -0.015226573 0.65882123
-0.046991173 -0.016782552 0.65718138
-0.046652708 -0.018327862 0.6557222
-0.046349276 -0.019863993 0.65441406
-0.046075359 -0.021392137 0.65323317
-0.045829076 -0.022914499 0.65217143
-0.045607086 -0.024432361 0.65121448
-0.045405477 -0.025945961 0.65034527
-0.045223005 -0.02745679 0.6495586
-0.045057781 -0.028965712 0.64884633
-0.044908442 -0.03047356 0.64820248
-0.044777825 -0.03198415 0.64763945
-0.044662911 -0.033497185 0.64714402
-0.044562474 -0.035013378 0.64671099
-0.044475757 -0.036533654 0.64633715
-0.044403866 -0.038060457 0.64602721
-0.044350728 -0.039598882 0.64579815
-0.044311315 -0.041146189 0.64562821
-0.044286802 -0.042705119 0.64552253
-0.044278543 -0.044278532 0.64548695
-0.044288483 -0.045870215 0.64552981
-0.044320006 -0.047485709 0.64566565
-0.044372924 -0.049127162 0.64589381
-0.044449933 -0.050799936 0.64622587
-0.044555105 -0.052511364 0.64667922
-0.044697825 -0.05427593 0.64729452
-0.045002062 -0.056252554 0.64860612
-0.045392089 -0.058361247 0.65028751
-0.045920257 -0.060680315 0.65256453
-0.046779662 -0.06348668 0.65626955
-0.048565585 -0.0071949363 0.67172337
-0.047657404 -0.0088254511 0.66766304
-0.047005735 -0.010445684 0.66474956
-0.046483971 -0.012051374 0.66241688
-0.046038527 -0.01364103 0.66042542
-0.045651305 -0.015217096 0.65869427
-0.045309573 -0.0167813 0.65716642
-0.045005277 -0.018335491 0.65580595
-0.044732124 -0.01988095 0.65458477
-0.044485696 -0.021419048 0.65348303
-0.044262551 -0.022950917 0.65248543
-0.04406045 -0.024478048 0.65158188
-0.04387714 -0.026001275 0.65076232
-0.043710753 -0.02752161 0.65001851
-0.043563742 -0.029042482 0.64936119
-0.043432649 -0.030563742 0.64877516
-0.04331651 -0.032086313 0.64825588
-0.04321425 -0.033611119 0.64779878
-0.043126512 -0.035140127 0.64740646
-0.043055318 -0.036676764 0.64708817
-0.042999681 -0.038221925 0.64683944
-0.042957295 -0.039775252 0.6466499
-0.042929176 -0.041339219 0.64652419
-0.042917993 -0.042917997 0.64647418
-0.042926311 -0.044516206 0.64651144
-0.042953059 -0.04613477 0.646631
-0.043000091 -0.047777861 0.64684129
-0.043070145 -0.049450934 0.64715445
-0.043167442 -0.051161408 0.64758945
-0.043297071 -0.052918643 0.64816898
-0.043466888 -0.054736108 0.64892823
-0.04368842 -0.05663313 0.64991862
-0.04399531 -0.058660418 0.65129066
-0.044526894 -0.061018363 0.65366727
-0.045519486 -0.064064473 0.6581049
-0.047411636 -0.0054705739 0.67471677
-0.046373107 -0.0071343482 0.66989517
-0.045682661 -0.0087851286 0.66668963
-0.045136943 -0.01041621 0.66415608
-0.044686697 -0.012031019 0.66206568
-0.044295959 -0.013629526 0.66025162
-0.043952201 -0.015214205 0.65865558
-0.043646224 -0.016787022 0.65723503
-0.043371789 -0.018349618 0.65596092
-0.043124501 -0.01990363 0.65481287
-0.04290108 -0.021450549 0.65377557
-0.04269832 -0.022991389 0.65283418
-0.04251441 -0.02452755 0.65198034
-0.042350955 -0.026062101 0.65122145
-0.042203534 -0.027594626 0.65053707
-0.042071827 -0.029126644 0.64992553
-0.041954327 -0.030658931 0.64938009
-0.041851077 -0.032193154 0.64890069
-0.041764285 -0.033732712 0.6484977
-0.041691873 -0.035277724 0.64816153
-0.041633699 -0.036829799 0.64789146
-0.041588582 -0.038389415 0.64768201
-0.041557759 -0.039959371 0.6475389
-0.041545946 -0.041545928 0.647484
-0.041550457 -0.043148577 0.64750504
-0.041572236 -0.044770092 0.64760607
-0.041613594 -0.04641518 0.64779806
-0.041677047 -0.048088908 0.64809275
-0.041766699 -0.049798757 0.64850897
-0.04188719 -0.051553458 0.64906836
-0.042046126 -0.053366244 0.64980626
-0.042254116 -0.055255353 0.65077186
-0.042533591 -0.057256758 0.65206945
-0.042934213 -0.059447378 0.65392941
-0.043642126 -0.062106088 0.65721595
-0.0464053 -0.0037124455 0.67866254
-0.045083042 -0.005409956 0.67227811
-0.044339642 -0.0070942938 0.66868865
-0.0437802 -0.0087560713 0.66598749
-0.043313894 -0.010395318 0.66373593
-0.042919915 -0.012017578 0.66183364
-0.042574581 -0.013623834 0.6601662
-0.042267732 -0.01521641 0.65868461
-0.041992884 -0.016797155 0.65735745
-0.041745257 -0.018367887 0.65616179
-0.041521609 -0.019930363 0.65508199
-0.041319717 -0.021486282 0.65410715
-0.041138846 -0.023037761 0.65323383
-0.040974848 -0.02458486 0.65244198
-0.040827338 -0.026129454 0.65172976
-0.040694915 -0.027672529 0.65109032
-0.040576372 -0.029214978 0.65051794
-0.040475015 -0.030761003 0.65002853
-0.040387198 -0.0323098 0.64960456
-0.04031314 -0.033863008 0.64924693
-0.040252946 -0.035422564 0.6489563
-0.040205207 -0.036988765 0.64872581
-0.040174991 -0.03856799 0.64857996
-0.040159769 -0.040159762 0.6485064
-0.040160157 -0.041766554 0.64850831
-0.040177315 -0.043391496 0.64859116
-0.04021322 -0.045038819 0.64876449
-0.040270314 -0.046713561 0.64904022
-0.040352412 -0.048422903 0.64943659
-0.040464148 -0.050175548 0.64997613
-0.040612336 -0.051983744 0.65069163
-0.040807359 -0.053865701 0.65163326
-0.041064162 -0.055847257 0.65287322
-0.041435096 -0.058009118 0.65466428
-0.042038608 -0.06053561 0.65757829
-0.043797147 -0.0036497116 0.67488056
-0.042988908 -0.0053735971 0.67081541
-0.042403426 -0.0070672035 0.66787064
-0.041930523 -0.0087355375 0.66549212
-0.041527417 -0.010381848 0.66346467
-0.041177265 -0.012010008 0.66170359
-0.040869374 -0.013623089 0.66015494
-0.040594716 -0.015222996 0.65877354
-0.040348385 -0.016811818 0.6575346
-0.040127136 -0.018391609 0.65642178
-0.039927144 -0.019963592 0.65541595
-0.039745964 -0.021529049 0.65450472
-0.039582074 -0.023089528 0.65368038
-0.039434284 -0.024646401 0.65293705
-0.039301354 -0.026200891 0.65226853
-0.03918542 -0.027756333 0.65168536
-0.039082885 -0.029312164 0.65116966
-0.038994554 -0.030870676 0.65072536
-0.038918853 -0.032432377 0.65034467
-0.038856894 -0.033999771 0.650033
-0.038809802 -0.035575658 0.64979613
-0.038777344 -0.037161618 0.64963293
-0.038758822 -0.038758814 0.64953971
-0.03875532 -0.040370136 0.64952213
-0.038768083 -0.041998744 0.64958632
-0.038799144 -0.043649048 0.6497426
-0.038851492 -0.04532674 0.65000582
-0.038926676 -0.04703638 0.65038395
-0.039029282 -0.04878661 0.65090007
-0.039165866 -0.050589234 0.65158701
-0.039347712 -0.052463591 0.65250158
-0.039588597 -0.054434329 0.65371317
-0.039925016 -0.056560457 0.65540528
-0.040465992 -0.05901289 0.65812618
-0.042544045 -0.0018497407 0.67788148
-0.041631695 -0.0036201477 0.67309314
-0.041012421 -0.0053494275 0.66984296
-0.040524855 -0.0070477724 0.66728413
-0.040118836 -0.0087214708 0.66515321
-0.03976699 -0.01037398 0.66330659
-0.039457891 -0.012008935 0.66168439
-0.039183285 -0.01362896 0.66024321
-0.03893723 -0.015236288 0.65895182
-0.038715981 -0.016833007 0.65779066
-0.038516179 -0.018420756 0.65674198
-0.038335271 -0.020000994 0.65579259
-0.038171876 -0.021575421 0.654935
-0.038024187 -0.023145139 0.65415984
-0.037894223 -0.024713606 0.65347779
-0.037777916 -0.026280284 0.65286738
-0.037675265 -0.027846932 0.65232867
-0.03758581 -0.029414982 0.65185916
-0.037509121 -0.030985773 0.65145665
-0.037446629 -0.032562315 0.65112871
-0.037399534 -0.034147382 0.65088153
-0.037364442 -0.035739869 0.65069735
-0.037342861 -0.037342846 0.6505841
-0.037335832 -0.038959116 0.65054727
-0.037345529 -0.040592968 0.65059805
-0.037373181 -0.042247951 0.65074325
-0.037419721 -0.043927491 0.65098751
-0.037488837 -0.045638591 0.65135026
-0.037583351 -0.047387689 0.65184629
-0.037708472 -0.049184948 0.65250295
-0.037875641 -0.051049799 0.65338027
-0.038100347 -0.053009182 0.65455961
-0.038403839 -0.055101156 0.65615243
-0.038885787 -0.057483315 0.65868175
-0.040723361 0.0037021041 0.67804086
-0.040914379 0.0018597543 0.67908895
-0.041286506 -0 0.68113077
-0.040261477 -0.0018300712 0.67550653
-0.039604422 -0.0036003888 0.67190135
-0.039102182 -0.0053321123 0.6691457
-0.038687572 -0.0070341229 0.66687077
-0.038335118 -0.0087125003 0.6649369
-0.038026031 -0.010370731 0.66324103
-0.037751649 -0.012011915 0.66173553
-0.037506353 -0.013638675 0.6603896
-0.037285686 -0.015253246 0.65917885
-0.037086703 -0.016857594 0.65808707
-0.036906779 -0.018453389 0.6570999
-0.036744408 -0.02004239 0.65620893
-0.036600001 -0.021627247 0.65541667
-0.036470015 -0.023208171 0.65470338
-0.036353666 -0.024786592 0.65406501
-0.036250826 -0.026364207 0.65350068
-0.036160681 -0.027942359 0.65300614
-0.036085647 -0.029524595 0.65259439
-0.036022115 -0.031110018 0.65224582
-0.035973378 -0.032703072 0.65197837
-0.035936151 -0.034302682 0.65177417
-0.035911646 -0.035911649 0.6516397
-0.035902746 -0.037534654 0.65159082
-0.03591001 -0.039174557 0.6516307
-0.035932984 -0.040832937 0.65175676
-0.035974789 -0.042515665 0.65198618
-0.036037445 -0.044227809 0.65232998
-0.036124252 -0.045976311 0.65280622
-0.036240324 -0.047771364 0.65344316
-0.036392607 -0.049626291 0.65427864
-0.036599517 -0.051572055 0.65541399
-0.036882542 -0.053647339 0.65696687
-0.037308306 -0.055962443 0.65930295
-0.038771607 0.0036925375 0.67746204
-0.03853048 0.00183478 0.67607605
-0.038831644 2.9802322e-08 0.67780715
-0.03818047 -0.0018181205 0.67406416
-0.03766235 -0.0035868883 0.67108589
-0.037240282 -0.0053200424 0.66865981
-0.036880955 -0.0070249438 0.66659439
-0.03657236 -0.0087077022 0.66482049
-0.036299206 -0.010371208 0.66325039
-0.036055204 -0.012018412 0.66184783
-0.035835832 -0.013651729 0.66058683
-0.035638202 -0.015273482 0.65945083
-0.0354614 -0.016886353 0.65843451
-0.035301991 -0.018491536 0.65751827
-0.035158005 -0.020090252 0.65669054
-0.035028141 -0.02168411 0.65594417
-0.034912571 -0.023275048 0.65527982
-0.034809519 -0.024863958 0.65468746
-0.034721635 -0.026454568 0.65418231
-0.034645617 -0.028046459 0.65374535
-0.034581654 -0.02964142 0.65337765
-0.034531418 -0.031242698 0.65308893
-0.034492087 -0.03284964 0.65286285
-0.034466177 -0.034466177 0.65271389
-0.034455892 -0.036096662 0.65265477
-0.03445917 -0.037741005 0.6526736
-0.034478504 -0.039404005 0.65278476
-0.034515087 -0.041089416 0.65299505
-0.034571413 -0.042802662 0.65331876
-0.034650989 -0.044551253 0.65377623
-0.034758162 -0.046344191 0.6543923
-0.034899697 -0.048194826 0.65520585
-0.035086274 -0.050123245 0.65627825
-0.035349492 -0.052182585 0.65779138
-0.035732005 -0.054448754 0.65999001
-0.036545012 -0.057427883 0.66466331
-0.037239876 0.0055859983 0.67936045
-0.036950976 0.0036950707 0.67761678
-0.036795139 0.0018397868 0.67667621
-0.036576461 -0 0.67535639
-0.036201082 -0.0018100739 0.67309082
-0.035772868 -0.003577292 0.67050624
-0.035412967 -0.0053119361 0.66833407
-0.035101555 -0.0070202947 0.66645455
-0.034828272 -0.0087070465 0.66480511
-0.034585729 -0.010375679 0.66334122
-0.03436907 -0.012029171 0.66203356
-0.034174584 -0.013669848 0.66085976
-0.033999145 -0.015299588 0.65980095
-0.033840712 -0.016920358 0.65884471
-0.033697475 -0.018533587 0.65798014
-0.033568949 -0.020141363 0.65720451
-0.033453699 -0.021744907 0.65650886
-0.033353683 -0.023347557 0.65590519
-0.03326543 -0.024949074 0.65537256
-0.033188865 -0.026551068 0.65491045
-0.033124596 -0.028155923 0.65452254
-0.033073142 -0.029765815 0.654212
-0.033032205 -0.031380564 0.65396494
-0.033006821 -0.033006817 0.65381169
-0.032993432 -0.034643114 0.65373093
-0.032993652 -0.036293 0.65373224
-0.033008777 -0.037960082 0.65382349
-0.033040386 -0.039648473 0.65401435
-0.033090752 -0.041363448 0.65431833
-0.033163235 -0.043112189 0.65475577
-0.03326178 -0.044903398 0.65535057
-0.03339275 -0.04674983 0.65614098
-0.033565234 -0.048669577 0.65718198
-0.033803679 -0.050705522 0.65862113
-0.034145549 -0.052925587 0.66068459
-0.034802474 -0.055683911 0.66464937
-0.035736948 0.0075235963 0.6816417
-0.035365772 0.0055840909 0.6792835
-0.035188269 0.0037040114 0.67815584
-0.035022214 0.0018432736 0.67710084
-0.034627907 -0 0.67459571
-0.034282263 -0.0018042922 0.67239976
-0.033920925 -0.0035705864 0.67010415
-0.033610918 -0.005306989 0.66813457
-0.033339228 -0.0070187747 0.66640854
-0.033098612 -0.008710146 0.6648798
-0.032883719 -0.010384351 0.66351461
-0.032690924 -0.012044013 0.66228968
-0.032517157 -0.013691425 0.66118574
-0.032360207 -0.015328526 0.66018856
-0.032218732 -0.016957223 0.65928978
-0.032091703 -0.018579394 0.65848273
-0.031979863 -0.020197809 0.65777218
-0.031880021 -0.021812648 0.65713787
-0.03179175 -0.02342549 0.65657705
-0.031715598 -0.02503863 0.65609324
-0.031650659 -0.026653171 0.65568066
-0.031598374 -0.028272212 0.65534848
-0.031558834 -0.029897839 0.65509725
-0.031531092 -0.031531096 0.65492105
-0.031515103 -0.0331738 0.65481949
-0.031512279 -0.034829348 0.65480155
-0.031523567 -0.036500961 0.65487325
-0.031550977 -0.038193315 0.65504742
-0.031596698 -0.039911628 0.65533781
-0.03166236 -0.041660994 0.65575504
-0.031752039 -0.043450147 0.65632474
-0.031871684 -0.045291305 0.65708488
-0.032031476 -0.047204256 0.65810013
-0.032244634 -0.049215466 0.65945429
-0.032555353 -0.051403195 0.66142845
-0.033110481 -0.054022372 0.6649552
-0.033769481 0.0075043142 0.68106109
-0.033560973 0.0055934787 0.67966282
-0.033423103 0.0037136972 0.67873824
-0.03312695 0.0018403828 0.67675221
-0.032693446 -0 0.67384505
-0.032334518 -0.0017963648 0.67143798
-0.032096334 -0.0035662353 0.66984069
-0.031827409 -0.0053045452 0.66803718
-0.031589407 -0.0070198774 0.6664412
-0.031377006 -0.0087158382 0.66501677
-0.031186545 -0.010395527 0.6637395
-0.031015033 -0.012061387 0.66258937
-0.030860407 -0.013715774 0.66155243
-0.030722085 -0.015361011 0.66062474
-0.0305984 -0.016999125 0.65979534
-0.03048747 -0.01863122 0.65905142
-0.030388305 -0.020258874 0.65838647
-0.03030079 -0.021883875 0.65779948
-0.03022483 -0.023508191 0.65729016
-0.030161772 -0.025134802 0.65686727
-0.030108429 -0.026763022 0.65650952
-0.030068627 -0.028398126 0.65624261
-0.03003894 -0.030038923 0.65604353
-0.030020718 -0.031688541 0.65592134
-0.030014915 -0.033349901 0.65588236
-0.030024022 -0.03502804 0.65594351
-0.030047961 -0.036725253 0.65610403
-0.030088013 -0.03844583 0.65637261
-0.03014683 -0.040195763 0.65676701
-0.03022828 -0.041983694 0.65731329
-0.03033784 -0.043821305 0.65804803
-0.030483754 -0.045725614 0.6590265
-0.030679701 -0.047723979 0.66034055
-0.030959914 -0.049879849 0.66221976
-0.031429563 -0.052382559 0.66536927
-0.032169495 0.0094616115 0.68302155
-0.031918172 0.0075101554 0.68123704
-0.031784117 0.0056089759 0.6802851
-0.031581145 0.0037154555 0.67884392
-0.031163003 0.001833111 0.67587483
-0.030803345 2.9802322e-08 0.67332101
-0.030497203 -0.0017939508 0.67114723
-0.030284064 -0.003562808 0.66963381
-0.030057516 -0.0053042769 0.6680252
-0.029848572 -0.0070231855 0.66654152
-0.029661119 -0.008723855 0.66521055
-0.029493788 -0.010409594 0.66402239
-0.029343411 -0.012082577 0.66295457
-0.029207889 -0.013744891 0.66199231
-0.029085843 -0.015398383 0.66112566
-0.028976159 -0.017044783 0.66034687
-0.028878182 -0.018685877 0.65965116
-0.028791867 -0.020323664 0.65903825
-0.02871838 -0.021961123 0.65851647
-0.0286553 -0.023598492 0.65806854
-0.028601922 -0.025236964 0.65768951
-0.028561395 -0.026881307 0.65740174
-0.028530162 -0.02853018 0.65718001
-0.028509794 -0.030186862 0.65703535
-0.028503014 -0.031856298 0.65698725
-0.028509412 -0.033540457 0.65703267
-0.028529014 -0.035241723 0.65717185
-0.028563695 -0.036964744 0.65741807
-0.028616162 -0.038715988 0.6577906
-0.028689805 -0.040503263 0.65831357
-0.028789336 -0.042337269 0.6590203
-0.028922956 -0.04423511 0.65996903
-0.029102562 -0.046221703 0.66124445
-0.02935232 -0.048345029 0.66301787
-0.029762723 -0.050771713 0.66593194
-0.030587075 0.011470169 0.6853596
-0.030268818 0.0094589889 0.68295848
-0.030116688 0.0075291693 0.6818108
-0.029966868 0.0056187809 0.68068051
-0.029611183 0.0037013888 0.67799705
-0.029247485 0.0018279552 0.67525315
-0.028944636 -0 0.67296833
-0.028682992 -0.0017926693 0.6709944
-0.028453821 -0.0035567284 0.66926545
-0.028302129 -0.0053066313 0.66812098
-0.028118625 -0.0070296526 0.6667366
-0.027954265 -0.0087356865 0.66549659
-0.027806586 -0.010427475 0.6643824
-0.027673366 -0.012107074 0.66337729
-0.027553452 -0.01377669 0.66247267
-0.027445579 -0.015438169 0.66165888
-0.027349848 -0.017093658 0.66093659
-0.027266664 -0.01874584 0.66030902
-0.027193774 -0.020395368 0.65975916
-0.027130829 -0.022043765 0.65928423
-0.027077697 -0.023692966 0.65888339
-0.02703673 -0.025346935 0.65857434
-0.027004173 -0.027004153 0.65832865
-0.026983604 -0.028670073 0.65817344
-0.026975328 -0.030347228 0.65811104
-0.026978331 -0.032036752 0.65813375
-0.026993884 -0.033742338 0.65825105
-0.027024228 -0.035469294 0.65847999
-0.027071381 -0.03722316 0.65883571
-0.027137911 -0.039010733 0.65933764
-0.02722781 -0.040841728 0.66001594
-0.027347794 -0.042730927 0.6609211
-0.027511885 -0.044706792 0.66215903
-0.027736643 -0.046805561 0.66385472
-0.028092084 -0.049161136 0.66653633
-0.028603148 0.011441261 0.68477833
-0.028427854 0.0094759762 0.68336761
-0.028307341 0.0075486302 0.68239784
-0.028036848 0.0056073368 0.68022108
-0.027667768 0.0036890209 0.67725092
-0.027365729 0.0018244088 0.6748203
-0.027108543 2.9802322e-08 0.67275065
-0.026883658 -0.0017922223 0.67094088
-0.026684845 -0.0035579801 0.66934103
-0.026507569 -0.0053015053 0.66791439
-0.026392916 -0.0070380867 0.66699171
-0.026248461 -0.0087495148 0.66582924
-0.026118295 -0.010447323 0.66478175
-0.026001032 -0.012133807 0.66383809
-0.025896514 -0.013811499 0.66299701
-0.025804453 -0.015482694 0.66225612
-0.02572256 -0.017148376 0.66159707
-0.025650561 -0.018810391 0.66101766
-0.025588034 -0.020470411 0.66051453
-0.025535623 -0.022130847 0.66009283
-0.025494335 -0.023794711 0.65976048
-0.025461731 -0.025461763 0.6594981
-0.025441188 -0.02713728 0.65933281
-0.025430499 -0.02882123 0.6592468
-0.025430499 -0.030516565 0.65924674
-0.025442827 -0.032227606 0.65934598
-0.025468986 -0.033958644 0.65955651
-0.025510628 -0.035714895 0.65989161
-0.025570424 -0.037503302 0.66037285
-0.025651963 -0.039333016 0.66102898
-0.025760433 -0.041216671 0.66190189
-0.025907151 -0.043178588 0.6630826
-0.026112663 -0.04526189 0.66473639
-0.026420603 -0.047557086 0.66721451
-0.026931308 0.013465673 0.68680483
-0.026719285 0.011451155 0.6849767
-0.026607543 0.0095027089 0.68401325
-0.026423275 0.0075494647 0.68242449
-0.026066167 0.0055855811 0.67934543
-0.025763605 0.0036804974 0.67673671
-0.025508331 0.0018220246 0.67453563
-0.025288792 2.9802322e-08 0.67264271
-0.025095012 -0.0017925203 0.67097187
-0.024922339 -0.0035603344 0.66948307
-0.024767691 -0.0053073466 0.66814971
-0.024628537 -0.0070367157 0.66694987
-0.024542252 -0.0087650716 0.66620588
-0.024429955 -0.010469973 0.66523767
-0.024329241 -0.012164593 0.66436934
-0.024239162 -0.013850927 0.66359258
-0.024158994 -0.015530765 0.6629014
-0.024088211 -0.017205834 0.66229111
-0.024027074 -0.018878371 0.66176397
-0.023976579 -0.020551354 0.66132855
-0.023933979 -0.022224396 0.66096127
-0.023903027 -0.023903012 0.66069436
-0.023881106 -0.025586903 0.66050541
-0.023868414 -0.027278155 0.66039592
-0.023865972 -0.028980106 0.66037488
-0.023875244 -0.03069675 0.66045487
-0.023897808 -0.032432705 0.66064942
-0.023934798 -0.034192562 0.66096836
-0.023988156 -0.035982221 0.66142839
-0.024061156 -0.037810415 0.66205782
-0.02415891 -0.03968963 0.66290069
-0.024289254 -0.041638702 0.66402453
-0.024474425 -0.043704331 0.6656211
-0.024743894 -0.045952946 0.66794449
-0.025347082 -0.048883677 0.67314541
-0.02526583 0.015548229 0.68920219
-0.025002357 0.013462812 0.68675572
-0.024876522 0.011481464 0.68558729
-0.0247462 0.0095177889 0.68437725
-0.024436807 0.0075190067 0.68150437
-0.024138009 0.0055703521 0.67872989
-0.023886887 0.0036748946 0.67639816
-0.023670189 0.0018207729 0.67438596
-0.023480842 -0 0.67262781
-0.023313617 -0.0017933547 0.67107511
-0.023164012 -0.0035636723 0.6696859
-0.023030328 -0.005314678 0.66844457
-0.022910357 -0.0070492923 0.66733056
-0.022802414 -0.0087701678 0.66632831
-0.022741109 -0.010495901 0.66575909
-0.022653595 -0.012198091 0.66494644
-0.022575522 -0.013892621 0.66422147
-0.022506705 -0.015581548 0.6635825
-0.022448681 -0.017268181 0.66304374
-0.022399129 -0.018953085 0.66258359
-0.022357095 -0.020637304 0.6621933
-0.022326091 -0.022326082 0.66190541
-0.02230305 -0.024018645 0.66169143
-0.022288607 -0.025717616 0.66155738
-0.022284254 -0.027426749 0.6615169
-0.022291891 -0.029150933 0.66158783
-0.022311084 -0.030892253 0.66176605
-0.022343041 -0.032655209 0.66206282
-0.022390032 -0.03444618 0.66249913
-0.022455113 -0.036273628 0.66310346
-0.022542818 -0.038149387 0.66391784
-0.022659987 -0.04009074 0.6650058
-0.022822255 -0.042133391 0.66651255
-0.023059148 -0.044344515 0.6687122
-0.023525426 -0.047050864 0.67304182
-0.023264473 0.015509635 0.68862045
-0.023122914 0.013488382 0.68719649
-0.023021758 0.011510879 0.68617892
-0.022785265 0.0094938874 0.68379998
-0.022483483 0.0074945092 0.68076432
-0.022239398 0.0055598319 0.67830896
-0.022029534 0.0036715865 0.67619795
-0.021846384 0.0018205345 0.67435557
-0.021684565 -0 0.67272776
-0.021540644 -0.0017950535 0.67128009
-0.021411825 -0.0035686493 0.66998428
-0.021296162 -0.0053240359 0.66882074
-0.021192133 -0.0070640445 0.66777432
-0.021098603 -0.0087910891 0.66683346
-0.021014644 -0.010507315 0.66598892
-0.020972144 -0.012233734 0.66556144
-0.020907441 -0.013938278 0.66491055
-0.020850956 -0.015638202 0.66434228
-0.02080241 -0.017335325 0.663854
-0.020761339 -0.019031197 0.66344088
-0.020730516 -0.020730525 0.66313082
-0.020706709 -0.022432297 0.66289133
-0.020691155 -0.024139702 0.66273487
-0.02068652 -0.025858134 0.66268826
-0.020691581 -0.027588755 0.66273916
-0.020707065 -0.029334992 0.6628949
-0.020734238 -0.031101346 0.66316831
-0.020775205 -0.032894045 0.6635803
-0.02083287 -0.034721464 0.66416043
-0.020911083 -0.036594391 0.66494715
-0.021015966 -0.038529277 0.66600227
-0.021157337 -0.040551573 0.66742432
-0.021365728 -0.042731434 0.66952056
-0.021743458 -0.045298874 0.67332023
-0.021516597 0.01760453 0.6907146
-0.021345947 0.015524328 0.68884188
-0.021257158 0.013527274 0.68786752
-0.021097615 0.011507779 0.68611676
-0.020806823 0.009457618 0.6829257
-0.020564042 0.0074778497 0.68026149
-0.020361681 0.0055531859 0.67804086
-0.02018589 0.003670156 0.67611182
-0.02003088 0.0018209815 0.67441076
-0.019893106 -0 0.67289889
-0.019769918 -0.0017972589 0.67154706
-0.019659264 -0.0035744011 0.67033273
-0.019559776 -0.0053344965 0.66924101
-0.019470241 -0.0070800781 0.66825843
-0.019390263 -0.0088137388 0.66738081
-0.019320223 -0.01053831 0.66661221
-0.019258099 -0.012255162 0.66593051
-0.019223928 -0.013981014 0.66555548
-0.019186066 -0.015697688 0.66514003
-0.019146221 -0.017405659 0.66470277
-0.019116033 -0.019116014 0.66437149
-0.019091763 -0.020827413 0.66410518
-0.01907694 -0.022545487 0.66394252
-0.019070858 -0.024271995 0.66387576
-0.019073436 -0.026009262 0.66390407
-0.019085474 -0.027760655 0.66403615
-0.0191082 -0.029530853 0.66428554
-0.019143559 -0.031325787 0.66467351
-0.019194027 -0.033153355 0.66522741
-0.019263152 -0.035023898 0.66598594
-0.019356506 -0.0369533 0.66701043
-0.019482441 -0.038964868 0.6683923
-0.019662494 -0.041112512 0.67036825
-0.019973673 -0.043578923 0.67378294
-0.019764369 0.019764364 0.69317496
-0.019557791 0.017601997 0.69068134
-0.019459216 0.015567392 0.68949145
-0.019351969 0.013546377 0.68819684
-0.019097805 0.011458695 0.68512881
-0.018864945 0.0094324648 0.68231797
-0.018667802 0.0074671209 0.67993826
-0.018498642 0.0055496097 0.67789626
-0.018351549 0.003670305 0.67612076
-0.018220767 0.0018220842 0.67454207
-0.018103946 -0 0.67313188
-0.017999096 -0.0017999113 0.67186624
-0.017904803 -0.0035809278 0.67072803
-0.017821008 -0.0053462982 0.66971648
-0.017746173 -0.007098496 0.66881317
-0.017679393 -0.0088396966 0.66800708
-0.017620062 -0.010572016 0.66729087
-0.017567847 -0.012297481 0.66666061
-0.017522445 -0.01401794 0.66611254
-0.017485276 -0.015736759 0.6656639
-0.01748216 -0.017482162 0.66562629
-0.017459041 -0.019204944 0.66534722
-0.017444249 -0.020933121 0.6651687
-0.017436711 -0.022667706 0.66507763
-0.017437017 -0.024411827 0.66508138
-0.017446013 -0.026169002 0.66518998
-0.017464647 -0.027943462 0.66541487
-0.017495241 -0.029741883 0.66578412
-0.017539151 -0.031570464 0.66631418
-0.017599113 -0.033438295 0.66703802
-0.017681142 -0.035362273 0.66802824
-0.017792555 -0.037364393 0.66937304
-0.017947126 -0.039483666 0.6712389
-0.018205917 -0.041873604 0.67436278
-0.017744474 0.019716144 0.69259208
-0.017637378 0.017637372 0.69115573
-0.017557746 0.01560691 0.69008762
-0.017364321 0.013505578 0.68749332
-0.017134659 0.011423081 0.68441308
-0.016948033 0.0094155669 0.68190998
-0.016787492 0.0074611306 0.67975676
-0.016647484 0.0055491626 0.67787898
-0.016524032 0.0036720037 0.67622316
-0.016414471 0.0018238425 0.67475367
-0.016316516 -0 0.67343992
-0.016228901 -0.0018032193 0.67226475
-0.01615027 -0.0035889447 0.67121017
-0.016079741 -0.0053599179 0.67026424
-0.01601683 -0.0071186125 0.66942042
-0.015960857 -0.0088671148 0.6686697
-0.015911398 -0.0106076 0.66800636
-0.015869567 -0.012343019 0.6674453
-0.015834413 -0.014074981 0.66697377
-0.015792709 -0.015792698 0.66641444
-0.015700098 -0.017444551 0.66517234
-0.015784904 -0.019292682 0.66630977
-0.01578363 -0.02104485 0.66629267
-0.015782082 -0.022796333 0.66627192
-0.015788391 -0.024559706 0.6663565
-0.01580457 -0.026340932 0.66657352
-0.015830738 -0.028143525 0.66692454
-0.015868561 -0.029973984 0.66743177
-0.015920343 -0.031840682 0.66812629
-0.015989987 -0.033756644 0.66906035
-0.016087037 -0.035748988 0.670362
-0.016221885 -0.037851095 0.67217064
-0.01680585 -0.041080981 0.68000299
-0.015916426 0.021885067 0.6947583
-0.015789604 0.019737035 0.69284463
-0.015723363 0.017688811 0.69184518
-0.015594725 0.015594721 0.68990415
-0.015377198 0.013455033 0.68662196
-0.015197962 0.011398464 0.68391746
-0.015048269 0.0094051957 0.68165874
-0.014917933 0.0074589849 0.67969215
-0.014803183 0.005551219 0.67796063
-0.014701352 0.0036753714 0.67642421
-0.014610506 0.0018262863 0.67505342
-0.014529102 -0 0.67382514
-0.014456115 -0.0018070042 0.67272383
-0.014390632 -0.003597647 0.67173576
-0.014332048 -0.005374521 0.67085183
-0.014279948 -0.007139951 0.6700657
-0.014235106 -0.0088969171 0.66938907
-0.014196132 -0.010647058 0.66880101
-0.014162881 -0.012392521 0.66829926
-0.014129785 -0.014129758 0.66779989
-0.01405877 -0.015816152 0.66672838
-0.013944267 -0.017430335 0.66500068
-0.013870052 -0.019071341 0.66388083
-0.014020164 -0.021030217 0.66614592
-0.014112151 -0.022932231 0.66753381
-0.014126793 -0.02472192 0.66775477
-0.014148514 -0.026528478 0.66808254
-0.014180493 -0.028360963 0.66856503
-0.014224838 -0.030227751 0.66923416
-0.014284636 -0.032140434 0.67013645
-0.01436579 -0.034118742 0.67136091
-0.014482266 -0.036205679 0.67311847
-0.015085925 -0.039600551 0.68222696
-0.015737891 -0.043279171 0.69206434
-0.014073375 0.024125814 0.69728458
-0.01392593 0.021883607 0.69474202
-0.013855636 0.019793779 0.69352984
-0.013774282 0.017709792 0.69212693
-0.013586999 0.015527993 0.68889725
-0.013420353 0.013420373 0.68602359
-0.013279409 0.011382341 0.68359315
-0.01316006 0.0094000697 0.68153507
-0.013055186 0.0074600875 0.6797266
-0.012962084 0.0055551827 0.67812109
-0.012879103 0.0036797523 0.6766901
-0.012804803 0.0018292665 0.67540884
-0.012738163 -0 0.67425966
-0.012678313 -0.0018111765 0.67322761
-0.012625027 -0.0036071241 0.67230868
-0.012578417 -0.0053907037 0.67150497
-0.01253722 -0.0071641207 0.67079455
-0.012501243 -0.0089294612 0.67017412
-0.012470397 -0.010688901 0.66964227
-0.012443108 -0.012443125 0.66917163
-0.012390548 -0.014160633 0.66826528
-0.012292876 -0.015805095 0.66658092
-0.012212167 -0.017445952 0.66518921
-0.0121631 -0.019113421 0.66434306
-0.012141722 -0.020814359 0.6639744
-0.01222679 -0.022706896 0.66544139
-0.012360158 -0.024720341 0.66774124
-0.012465693 -0.026712179 0.66956109
-0.012511647 -0.02859804 0.67035353
-0.012562357 -0.030508578 0.67122805
-0.012630354 -0.032478034 0.67240053
-0.012727425 -0.034545839 0.67407441
-0.013288227 -0.037966371 0.68374515
-0.01321064 -0.039631903 0.68240732
-0.01203388 0.024067789 0.69670087
-0.011961862 0.021930099 0.695252
-0.011904798 0.019841343 0.69410402
-0.011765856 0.017648816 0.69130868
-0.011610732 0.015480965 0.68818784
-0.011483535 0.013397485 0.68562883
-0.011374287 0.011374295 0.68343091
-0.011279289 0.0093994439 0.68151969
-0.011196002 0.0074640214 0.67984414
-0.011121842 0.0055609345 0.67835212
-0.01105537 0.0036851466 0.67701477
-0.010996008 0.001832664 0.67582047
-0.01094318 2.9802322e-08 0.67475772
-0.010895995 -0.0018160045 0.67380846
-0.010854081 -0.0036180019 0.67296517
-0.010817007 -0.0054084957 0.67221928
-0.010784522 -0.0071896911 0.67156577
-0.010756468 -0.0089637041 0.67100137
-0.010733126 -0.010733128 0.67053169
-0.010694814 -0.012477279 0.66976094
-0.010616452 -0.014155269 0.66818446
-0.010540782 -0.015811175 0.6666621
-0.010493843 -0.017489731 0.66571772
-0.010470128 -0.019195229 0.66524059
-0.010473013 -0.020946026 0.66529864
-0.010526923 -0.022808343 0.66638327
-0.010726492 -0.025028467 0.67039829
-0.010757625 -0.026894063 0.67102462
-0.010797204 -0.02879253 0.67182088
-0.010851844 -0.030746877 0.67292011
-0.010925776 -0.032777339 0.67440754
-0.01146643 -0.036310375 0.68528473
-0.01139687 -0.037989557 0.68388528
-0.010121098 0.026314855 0.69894284
-0.01004063 0.024097532 0.69700015
-0.0099975765 0.02199468 0.69596076
-0.0099083679 0.019816756 0.69380707
-0.0097689293 0.017584085 0.69044071
-0.0096555194 0.015448809 0.68770278
-0.0095599955 0.013384014 0.68539661
-0.0094769206 0.011372298 0.68339103
-0.0094038593 0.0094038546 0.68162715
-0.0093391966 0.0074713528 0.68006605
-0.0092815766 0.0055689216 0.678675
-0.0092301434 0.0036920607 0.67743331
-0.0091840941 0.0018368065 0.67632163
-0.009142979 -0 0.67532897
-0.009106338 -0.0018212497 0.67444438
-0.0090739373 -0.0036295354 0.67366213
-0.0090454603 -0.0054272711 0.67297459
-0.009021095 -0.0072168708 0.67238641
-0.0090010697 -0.0090010762 0.67190289
-0.0089746891 -0.010769606 0.67126608
-0.008914791 -0.012480706 0.66982001
-0.0088458536 -0.014153332 0.66815567
-0.0088025909 -0.015844673 0.66711128
-0.0087792389 -0.017558515 0.66654748
-0.0087763742 -0.019308001 0.66647834
-0.0088111479 -0.021146744 0.66731781
-0.0089844223 -0.023359478 0.67150104
-0.0090129385 -0.025236219 0.67218947
-0.0090445764 -0.027133733 0.67295331
-0.0090875495 -0.029080123 0.67399073
-0.0091476934 -0.031102151 0.6754427
-0.0096199512 -0.034631848 0.68684411
-0.0095612016 -0.036332577 0.68542576
-0.01006434 -0.040257365 0.69757259
-0.0081828497 0.028639972 0.70153725
-0.0080969436 0.026315063 0.69894475
-0.008056106 0.024168313 0.69771248
-0.0080054188 0.022014916 0.69618285
-0.0078930268 0.019732565 0.69279104
-0.0077956007 0.017540097 0.68985105
-0.0077142338 0.015428483 0.68739551
-0.0076446366 0.013378143 0.68529522
-0.0075835478 0.011375338 0.68345171
-0.0075294557 0.0094118118 0.68181938
-0.0074812993 0.0074813068 0.6803661
-0.0074383146 0.0055787265 0.67906898
-0.0073998668 0.0036999583 0.67790866
-0.0073654731 0.0018413663 0.6768707
-0.0073347823 -0 0.67594457
-0.0073076263 -0.0018268824 0.675125
-0.007284116 -0.0036420524 0.67441553
-0.0072639445 -0.0054479539 0.67380679
-0.0072468491 -0.0072468519 0.67329091
-0.0072285272 -0.0090356469 0.67273802
-0.0071873059 -0.01078096 0.67149407
-0.0071268803 -0.012472034 0.66967058
-0.0070888647 -0.01417771 0.66852337
-0.0070672375 -0.015901297 0.6678707
-0.0070620012 -0.017654985 0.66771263
-0.0070801629 -0.019470453 0.66826069
-0.007221173 -0.021663547 0.67251611
-0.0072493688 -0.023560435 0.67336696
-0.0072738179 -0.025458336 0.67410481
-0.0073067727 -0.027400404 0.67509931
-0.0073527819 -0.029411137 0.6764878
-0.0074170064 -0.031522274 0.67842591
-0.0077007283 -0.034653246 0.686988
-0.0080806306 -0.038383007 0.69845253
-0.0061226431 0.028572321 0.70095408
-0.0060863239 0.026374102 0.69949269
-0.0060556321 0.024222523 0.69825774
-0.0059809075 0.021930009 0.69525105
-0.0059022889 0.019674331 0.69208765
-0.0058372878 0.017511845 0.68947226
-0.005781597 0.015417576 0.68723142
-0.0057337191 0.01337865 0.685305
-0.0056913486 0.011382669 0.68360007
-0.0056536635 0.0094227791 0.68208379
-0.0056200079 0.0074933469 0.68072957
-0.0055898917 0.0055899024 0.67951787
-0.0055629401 0.003708601 0.67843336
-0.0055390261 0.0018463433 0.6774711
-0.0055180737 -0 0.67662805
-0.0054996959 -0.0018332005 0.6758886
-0.0054837032 -0.0036557913 0.67524511
-0.0054700947 -0.0054700673 0.67469752
-0.0054574264 -0.0072765946 0.67418778
-0.0054308893 -0.0090514421 0.67312002
-0.0053858375 -0.010771662 0.67130727
-0.0053522117 -0.012488484 0.6699543
-0.0053337263 -0.014223218 0.66921049
-0.0053275363 -0.015982598 0.66896147
-0.00533733 -0.017791092 0.66935551
-0.0054357075 -0.019930929 0.67331398
-0.0054665888 -0.021866351 0.67455649
-0.0054842844 -0.023765206 0.67526847
-0.0055083539 -0.025705636 0.67623693
-0.0055407844 -0.027703911 0.67754185
-0.0055877487 -0.029801309 0.67943156
-0.0058148792 -0.032950968 0.68857062
-0.0060887435 -0.036532462 0.69958997
-0.0041202302 0.03090173 0.7032758
-0.0040875473 0.028612822 0.70130324
-0.0040695947 0.026452392 0.70021969
-0.0040300647 0.024180382 0.69783384
-0.0039729453 0.021851242 0.69438636
-0.003927046 0.01963526 0.69161612
-0.0038879872 0.01749596 0.68925869
-0.0038540864 0.015416354 0.68721259
-0.0038243344 0.013385177 0.68541694
-0.003798034 0.011394113 0.68382955
-0.0037746397 0.0094365776 0.68241763
-0.0037538258 0.007507652 0.68116134
-0.0037352464 0.0056028962 0.68004
-0.0037187287 0.0037187338 0.67904305
-0.0037040694 0.0018520653 0.67815828
-0.0036911857 -0 0.67738068
-0.00367996 -0.0018399954 0.67670316
-0.0036703232 -0.003670305 0.67612147
-0.0036621301 -0.0054931939 0.67562699
-0.0036473146 -0.007294625 0.67473286
-0.0036183279 -0.0090458095 0.67298335
-0.0035935754 -0.010780722 0.67148936
-0.0035786426 -0.01252526 0.67058814
-0.0035726251 -0.014290482 0.67022496
-0.0035772994 -0.016097844 0.67050701
-0.0036103779 -0.018051863 0.67250353
-0.0036643292 -0.02015385 0.67575979
-0.0036756755 -0.022054076 0.67644459
-0.0036912672 -0.023993224 0.67738563
-0.0037120937 -0.025984645 0.67864257
-0.0037419787 -0.028064817 0.68044639
-0.0039031822 -0.031225443 0.69017577
-0.0040795491 -0.034676164 0.70082051
-0.0020822079 0.033315331 0.70594263
-0.0020602935 0.030904412 0.70329738
-0.0020499111 0.028698772 0.70204407
-0.0020358488 0.026466012 0.70034659
-0.0020066039 0.024079233 0.69681644
-0.0019816814 0.021798521 0.69380802
-0.0019611144 0.01961112 0.69132537
-0.0019433518 0.017490178 0.68918127
-0.0019277857 0.015422285 0.68730223
-0.0019140251 0.0133982 0.68564117
-0.0019018031 0.011410832 0.68416584
-0.001890929 0.0094546378 0.68285322
-0.0018812175 0.007524848 0.68168098
-0.0018725649 0.005617708 0.68063653
-0.0018648877 0.0037297606 0.67970979
-0.0018581284 0.001858145 0.67889386
-0.0018522131 -0 0.67817986
-0.001847119 -0.0018471181 0.67756486
-0.0018429891 -0.0036859512 0.67706639
-0.0018367178 -0.0055101216 0.67630935
-0.0018232719 -0.0072930753 0.67468631
-0.0018097332 -0.0090486705 0.67305207
-0.0018014065 -0.010808408 0.6720469
-0.0017972718 -0.012580901 0.67154783
-0.0017982988 -0.014386386 0.67167181
-0.0018091444 -0.01628229 0.67298096
-0.0018422157 -0.018422157 0.67697299
-0.0018476988 -0.020324677 0.67763489
-0.0018552485 -0.022262961 0.67854619
-0.0018653882 -0.024250031 0.67977023
-0.0018794721 -0.026312619 0.68147027
-0.0019650653 -0.029475957 0.69180232
-0.0019528099 -0.031244963 0.69032294
0 0.033239663 0.7053718
0 0.030977637 0.70388651
0 0.028758496 0.70255911
0 0.026356131 0.69932598
0 0.024009973 0.69612002
0 0.021765411 0.69344479
0 0.019599378 0.69118351
0 0.01749295 0.68921858
0 0.015434265 0.6874826
0 0.013415635 0.68594205
0 0.011430889 0.68456972
0 0.0094750226 0.68334514
0 0.0075438619 0.68225354
0 0.0056338012 0.68128383
0 0.0037416518 0.68042684
0 0.0018646717 0.6796838
0 -2.9802322e-08 0.67905223
0 -0.0018550158 0.67852128
0 -0.0036996007 0.67788887
0 -0.0055131018 0.6764282
0 -0.0072914958 0.67463744
0 -0.0090682507 0.6735248
0 -0.010852516 0.67293441
0 -0.012658268 0.67288154
0 -0.014534593 0.67390794
0 -0.016669989 0.67818063
0 -0.01857847 0.67885971
0 -0.020514578 0.67971897
0 -0.022497803 0.68090832
0 -0.024548948 0.68254566
0 -0.027702272 0.69345236
0 -0.029494613 0.69195241
0.002097307 0.035654247 0.70776528
0.0020807185 0.033291459 0.70576286
0.0020712612 0.031068951 0.70462132
0.002049525 0.028693348 0.70199752
0.0020203697 0.026264817 0.69847816
0.0019970413 0.023964494 0.69566214
0.0019770772 0.021747857 0.69325221
0.001959801 0.019598007 0.69116682
0.0019447795 0.017502993 0.68935359
0.0019314619 0.015451699 0.68774599
0.001919591 0.013437152 0.68631303
0.001909001 0.011454046 0.68503475
0.0018995504 0.0094977617 0.68389392
0.001891179 0.0075646937 0.68288344
0.0018838593 0.0056515932 0.6819998
0.001877462 0.0037549436 0.68122762
0.0018719344 0.0018719137 0.68056035
0.0018672608 -0 0.67999625
0.001862576 -0.0018625855 0.67943072
0.0018523365 -0.0037046671 0.67819476
0.0018362124 -0.0055086613 0.67624837
0.0018260665 -0.0073042512 0.67502367
0.0018203929 -0.0091019571 0.67433882
0.0018191752 -0.010915041 0.67419183
0.0018251208 -0.012775838 0.67490947
0.0018618067 -0.014894456 0.67933786
0.001868195 -0.016813755 0.68010902
0.0018749646 -0.018749654 0.6809262
0.0018843488 -0.020727843 0.68205893
0.0018976053 -0.022771269 0.6836592
0.0019925877 -0.025903642 0.69512451
0.0019799876 -0.027719826 0.69360358
0.0042400588 0.038160533 0.71050811
0.0041953172 0.035660207 0.70780772
0.0041741957 0.033393562 0.7065329
0.0041429512 0.03107214 0.70464718
0.0040822118 0.02857548 0.7009812
0.0040314933 0.026204735 0.69792008
0.0039895922 0.023937583 0.69539106
0.0039532953 0.021743119 0.69320041
0.0039215526 0.019607782 0.69128454
0.0038935542 0.017521024 0.68959469
0.0038687328 0.015474945 0.68809658
0.0038466938 0.013463408 0.68676645
0.0038270839 0.011481225 0.68558288
0.0038096877 0.0095242262 0.68453294
0.0037943183 0.007588625 0.68360531
0.0037808719 0.0056713223 0.68279374
0.0037691945 0.0037692189 0.68208891
0.0037592689 0.0018796325 0.68148983
0.0037505757 -0 0.68096519
0.0037330587 -0.0018664896 0.67990792
0.0037014938 -0.0037014782 0.67800283
0.0036773097 -0.0055159628 0.67654318
0.003664356 -0.0073287189 0.6757614
0.0036603219 -0.0091507733 0.67551792
0.0036679828 -0.011003941 0.67598027
0.0037407477 -0.013092607 0.680372
0.0037573492 -0.015029401 0.68137401
0.0037704299 -0.016966939 0.68216354
0.0037884149 -0.018942088 0.683249
0.0038138258 -0.020976067 0.68478268
0.0040132883 -0.02407974 0.69682127
0.0039877323 -0.025920272 0.69527882
0.0042038476 -0.029426932 0.70832258
0.0063464278 0.038078606 0.70995849
0.0063086599 0.035749078 0.70843881
0.0062732515 0.033457369 0.70701402
0.0061871214 0.030935585 0.70354849
0.0061062048 0.02849564 0.70029265
0.0060384823 0.026166737 0.6975677
0.0059814551 0.023925841 0.6952731
0.005931607 0.021749228 0.69326735
0.0058876812 0.019625634 0.69149989
0.0058487509 0.017546237 0.68993354
0.0058142031 0.015504569 0.68854338
0.0057834238 0.01349467 0.68730491
0.0057561235 0.01151225 0.68620646
0.0057319454 0.0095532537 0.68523359
0.005710749 0.0076143444 0.68438065
0.0056923195 0.005692333 0.68363917
0.005676541 0.0037843883 0.68300426
0.0056635402 0.0018878877 0.68248117
0.0056414679 -0 0.68159306
0.0055965404 -0.001865536 0.67978531
0.0055565978 -0.0037043691 0.67817813
0.0055326968 -0.0055326819 0.67721641
0.0055238404 -0.0073651373 0.67686009
0.0055323914 -0.0092206895 0.67720413
0.0056271502 -0.011254311 0.68101698
0.0056678168 -0.0132249 0.68265331
0.0056867339 -0.015164644 0.68341446
0.0057128575 -0.0171386 0.68446559
0.0057489583 -0.019163191 0.68591815
0.0058003189 -0.021267861 0.68798476
0.0060237977 -0.024095178 0.69697678
0.0063253008 -0.027409673 0.70910835
0.0085434653 0.040581465 0.71241981
0.0084760236 0.038142115 0.71038461
0.0084361881 0.035853803 0.70918244
0.008340911 0.03336367 0.70630717
0.0082224505 0.030834198 0.70273232
0.0081268949 0.028444171 0.69984865
