# .PCD v0.7 - Point Cloud Data file format
VERSION 0.7
FIELDS x y z
SIZE 4 4 4
TYPE F F F
COUNT 1 1 1
WIDTH 254
HEIGHT 1
VIEWPOINT 0 0 0 1 0 0 0
POINTS 254
DATA ascii
-0.0067504966 -0.077630714 0.6583122
-0.0050639487 -0.077647224 0.65835547
-0.01031065 -0.065300778 0.66203219
0 -0.063910723 0.66310346
-0.0069155921 -0.06051141 0.66329443
-0.0086701643 -0.0589571 0.6639142
0.0069504394 -0.07124196 0.66434598
-0.019111251 -0.067758083 0.66431904
-0.0052373651 -0.054119408 0.66533321
0.0017589525 -0.052768558 0.66692227
-0.024718486 -0.070624247 0.66772544
-0.024718486 -0.070624247 0.66772544
0.010586091 -0.070573956 0.66757369
0.008827813 -0.063560277 0.66772014
0.008827813 -0.063560277 0.66772014
-0.017597815 -0.058072776 0.66702235
0.0070663891 -0.058297753 0.66784513
-0.0088257575 -0.047659069 0.66767055
-0.0088257575 -0.047659069 0.66767055
0 -0.047719002 0.66793853
0 -0.047719002 0.66793853
-0.023297586 -0.059139997 0.67092621
-0.019688943 -0.051907212 0.67065841
0.012600682 -0.061203271 0.67188889
-0.0036062535 -0.032456279 0.67225456
-0.010837899 -0.021675766 0.67263961
-0.028949764 -0.072374403 0.67300701
0.012695638 -0.054409832 0.67352635
-0.010870864 -0.019929886 0.67330283
-0.018240562 -0.038305163 0.67478096
0.0036372792 -0.029098213 0.6741271
0 -0.02549082 0.67438519
-0.0091125071 -0.014580011 0.67459333
0.014687004 -0.053240389 0.67620766
0.014687004 -0.053240389 0.67620766
0.01104508 -0.033135235 0.67680776
0.01104508 -0.033135235 0.67680776
0.0073548895 -0.025742143 0.67655134
0.0018413208 -0.018413186 0.67686498
0.0036895254 -0.018447638 0.67728049
0.0074224523 -0.018556118 0.67859024
0.014875412 -0.040907413 0.67905062
0.013055965 -0.027977079 0.67974001
-0.016760064 -0.022346765 0.67938894
0.0055882894 -0.013039351 0.67945337
0.0055882894 -0.013039351 0.67945337
-0.0018617582 -0.0093087554 0.67933202
-0.007444263 -2.9802322e-08 0.67924845
-0.0055912244 -0 0.67957139
-0.018681113 -0.024285436 0.68009889
0.011338203 -0.011338204 0.68270493
0.0094236257 -0.0094236135 0.68210435
0.0056700222 -0.0018899739 0.682742
0.013337309 -0.0095266402 0.68459159
-0.0038130411 0.015252173 0.6847353
0.021170568 -0.034642726 0.6869173
0.021170568 -0.034642726 0.6869173
-0.01534519 -0.0019181669 0.68613899
-0.023106009 -0.019254982 0.68702638
-0.023106009 -0.019254982 0.68702638
0.0019329018 0.017396092 0.6879198
0.0019329018 0.017396092 0.6879198
-0.021336183 -0.0096982718 0.68873477
0.0038795767 0.019397914 0.6887511
0.015588044 0.0038970113 0.68980336
-0.013657569 0.011706501 0.69011426
0.0058586583 0.023434669 0.69033211
0.0039105187 0.025418371 0.69061863
0.011767424 0.019612372 0.69134021
0.021638749 -0.017704427 0.69205499
0.021691624 -0.01577571 0.69263524
0.021743381 -0.013836682 0.69320321
0.0059362277 0.033638626 0.69345331
-0.003952296 0.04347527 0.69314009
-0.0039634099 0.045579225 0.69381088
0.0039849849 0.039849877 0.69511306
-0.020030934 0.012018561 0.69639266
0.01409864 0.038267761 0.69772029
0.01409864 0.038267761 0.69772029
0 0.058646142 0.69870877
0.024321726 0.0040535927 0.69925559
-0.01215845 0.03850174 0.69920707
-0.01215845 0.03850174 0.69920707
-0.0020274757 0.062851757 0.69933587
-0.018320329 0.026462674 0.70031559
0.008210442 0.061578333 0.70236993
0.01651901 0.055751652 0.70385051
0.0020648676 0.072270393 0.70384943
-0.0020646376 0.076391608 0.70382172
0.018615151 0.051708758 0.70426989
0.020808658 0.049940795 0.70578063
0.014567453 0.066594064 0.70580465
-0.010426226 0.060472101 0.70630932
-0.012561622 0.0586209 0.70731819
0.0041892584 0.079595923 0.70744205
-0.02100697 0.033611149 0.70817447
-0.0021069066 0.090596974 0.70892406
-0.008435796 0.071704298 0.70917064
0.0084447311 0.084447324 0.70944017
-0.0042357338 0.086832553 0.7102471
-0.0042357338 0.086832553 0.7102471
0.0063671563 0.089140207 0.71079254
0.014919412 0.087385148 0.71187401
-0.010741784 0.079489231 0.71392751
0.025827968 0.060265243 0.71440721
0.021607889 0.086431563 0.71542823
0.028354252 0.063251823 0.71787953
-0.010869425 0.086955398 0.71700907
0.028508222 0.067981124 0.71930921
0.031305544 0.082736105 0.72452033
0.033702817 0.078639925 0.7258172
0.033763919 0.081033409 0.72630894
-0.0033967409 -0.073029935 0.65960938
-0.015355386 -0.07336463 0.66054893
-0.015355386 -0.07336463 0.66054893
-0.0085320622 -0.069108658 0.66058016
-0.0068488098 -0.066775888 0.66127902
0.0034443713 -0.070609614 0.66248417
-0.0086701643 -0.0589571 0.6639142
0.010487537 -0.078656524 0.66559088
-0.019139037 -0.066985369 0.66462398
0.00173538 -0.062473685 0.66407681
-0.013091827 -0.05759944 0.66529089
-0.022848068 -0.068544194 0.66675222
0.0070079225 -0.06482327 0.66608065
-0.017648526 -0.056475312 0.66763449
0.0035199714 -0.054559559 0.66704702
0.0035199714 -0.054559559 0.66704702
-0.014134127 -0.051236182 0.6678654
-0.012417696 -0.047008649 0.66873348
0.0035555188 -0.047109619 0.66919243
-0.0017819484 -0.040984809 0.66969812
0.012577288 -0.062886417 0.67148548
0.012600682 -0.061203271 0.67188889
0.0071494961 -0.049151853 0.67035306
-0.016186493 -0.043163985 0.67169595
-0.016186493 -0.043163985 0.67169595
-0.008964913 -0.037652612 0.67103004
0.0090305712 -0.045152843 0.67261517
0.0072672148 -0.036336064 0.67390549
-0.0054470492 -0.023603886 0.67377025
-0.025618503 -0.054896772 0.67548555
0.012819003 -0.045782179 0.67565376
-0.018183356 -0.040003359 0.67409045
0.0090984171 -0.039122194 0.67425311
-0.016480008 -0.032960027 0.67563272
-0.014616213 -0.031059444 0.67513961
0.0073215808 -0.029286325 0.67554617
-0.022059644 -0.042281002 0.6765008
-0.01841436 -0.033145845 0.67687887
-0.016656106 -0.025909483 0.67799461
0.00091839605 -0.020191893 0.67617774
0.00092066039 -0.018401921 0.67672896
-0.025925415 -0.049998999 0.67813182
0.012974953 -0.033364117 0.67834294
0.0092751766 -0.022260398 0.6785205
0.0074224523 -0.018556118 0.67859024
-0.0129971 -0.014853805 0.67872488
-0.001852165 -0.012965143 0.67817402
-0.0037148495 -0.0092870891 0.67880893
-0.0093259672 2.9802322e-08 0.67974669
-0.020786785 -0.022676468 0.68270582
0.0094236257 -0.0094236135 0.68210435
-0.015196461 -0.0075982511 0.68389487
0.0076552508 0.0057414472 0.68561554
-0.0095138242 0.011416584 0.68428195
0.02112004 -0.036480099 0.68636286
-0.01534519 -0.0019181669 0.68613899
0.01157425 0.0057871044 0.68745387
0.0057843816 0.013496876 0.68734348
-0.021336183 -0.0096982718 0.68873477
-0.011638731 0.011638731 0.6887511
-0.011638731 0.011638731 0.6887511
0.011683299 0.013630539 0.68964767
-0.017565623 0.0039034784 0.6901933
0.011796044 0.021626085 0.69191599
0.00097960886 0.027415633 0.69098079
0.0039315051 0.029486299 0.69188523
0.021638749 -0.017704427 0.69205499
0.021743381 -0.013836682 0.69320321
-0.019710179 0.0039420128 0.69252086
-0.011834686 0.021696925 0.69269341
-0.011834686 0.021696925 0.69269341
0.011824804 0.023649633 0.69249457
0.013928921 0.02785784 0.69479358
-0.014084806 0.030181736 0.69748175
-0.010072038 0.038273752 0.69775844
0 0.052221358 0.69704688
0.026317941 -0.0020244122 0.69897145
-0.0081017939 0.046585321 0.6990912
-0.0060543134 0.054488838 0.69820464
-0.0060779448 0.056727499 0.69915557
0.02236549 0.012199342 0.70003009
0.0040750802 0.057051122 0.70055079
0.0061331997 0.059287637 0.70137882
0.018527001 0.047346801 0.70308757
-0.0020646376 0.076391608 0.70382172
-0.01456606 0.049940795 0.70578063
0.018704144 0.056112468 0.70546347
0.012474197 0.068608105 0.70555937
0.012474197 0.068608105 0.70555937
-0.0020778242 0.081035137 0.70541346
0.018930513 0.067308515 0.70849967
0.014721135 0.075708687 0.70845479
0.014721135 0.075708687 0.70845479
0.0084447311 0.084447324 0.70944017
0.0042211721 0.086534053 0.70936823
0 0.092682034 0.70886409
0.027678713 0.042582661 0.71160686
-0.012707577 0.065655828 0.71025461
0.025639592 0.051279187 0.71251225
-0.014926979 0.063972741 0.71200448
-0.0064247125 0.085662812 0.71310842
-0.0094358707 -0.066047445 0.66168261
-0.0034683784 -0.058962405 0.66393304
0.0098907789 -0.081433684 0.66523874
0.0061118198 -0.065675072 0.66530782
-0.015080383 -0.061478645 0.66463161
-0.0097162463 -0.047694698 0.66782975
0.01367005 -0.081994943 0.66977876
0.0035435916 -0.049610257 0.66847253
0.00599263 -0.042539172 0.67156738
-0.0062579885 -0.038439162 0.6704191
-0.0071675126 -0.028670013 0.67089671
-0.007190296 -0.026063874 0.67158425
0.010001178 -0.042489827 0.67403245
0.0063347211 -0.037990756 0.6729961
0.013872192 -0.041602686 0.67779768
0.0064929659 -0.017618529 0.67847967
-0.0031064809 -0.0068356395 0.67964363
0.014093436 -0.025360353 0.68136692
-0.018493921 -0.010202229 0.68550491
-0.017352998 -0.0028904825 0.68734145
0.0067326184 0.010579139 0.68675578
-0.0095662996 0.014351279 0.68554878
0.0064383289 0.014163753 0.68773192
-0.013725473 0.014707536 0.69128525
0.021670016 -0.039400041 0.69239807
0.015165877 0.019118985 0.69334733
-0.0019695207 0.039390445 0.69234008
-0.012137228 0.037424892 0.69878006
0.0093575418 0.041438729 0.69663137
0.0090635782 0.04531306 0.69769162
-0.0047130277 0.057200622 0.69829476
-0.018320329 0.026462674 0.70031559
-0.014265006 0.037702218 0.70058918
0.017136285 0.050030362 0.70278615
-0.013493909 0.05084905 0.7051425
0.0093877092 0.074053012 0.70639551
0.0093877092 0.074053012 0.70639551
-0.027817441 0.0021398067 0.71289504
0.022200707 0.078046054 0.71389472
-0.0086546671 0.088710338 0.71577561
-0.014752342 0.086270176 0.72163147
