# .PCD v0.7 - Point Cloud Data file format
VERSION 0.7
FIELDS x y z
SIZE 4 4 4
TYPE F F F
COUNT 1 1 1
WIDTH 1354
HEIGHT 1
VIEWPOINT 0 0 0 1 0 0 0
POINTS 1354
DATA ascii
-0.0096124113 0.0096124411 0.68666208
-0.0095856357 0.0076684952 0.68601567
-0.0095730554 0.0057438314 0.68571192
-0.011295954 0.0045183599 0.72730631
-0.011348371 0.0022696853 0.72857189
-0.011379963 -0 0.72933453
-0.011384261 -0.0022768676 0.72943836
-0.011379395 -0.0045517683 0.72932076
-0.011369774 -0.006821841 0.72908854
-0.011359398 -0.009087503 0.72883803
-0.011348319 -0.011348307 0.72857058
-0.011336492 -0.013603777 0.72828507
-0.011321973 -0.015850753 0.72793454
-0.011301362 -0.018082142 0.7274369
-0.011276656 -0.020297974 0.72684044
-0.011243664 -0.022487342 0.726044
-0.011200875 -0.024641901 0.72501099
-0.011137944 -0.026731044 0.72349167
-0.009240848 -0.024026185 0.67769176
-0.0092256498 -0.025831789 0.67732483
-0.0092107393 -0.027632207 0.67696488
-0.0091967219 -0.029429466 0.67662638
-0.0091833528 -0.031223387 0.67630368
-0.0091699902 -0.033011973 0.67598104
-0.0091566658 -0.034795344 0.67565942
-0.0091433804 -0.036573499 0.67533863
-0.0091306996 -0.038348913 0.6750325
-0.0091191838 -0.040124416 0.6747545
-0.0091085257 -0.041899234 0.67449719
-0.0090979263 -0.043670028 0.6742413
-0.0090873186 -0.045436591 0.67398524
-0.0090767676 -0.04719916 0.67373049
-0.0090664392 -0.048958749 0.67348111
-0.0090575442 -0.050722241 0.67326641
-0.009049681 -0.052488178 0.67307657
-0.0090417983 -0.054250807 0.67288625
-0.0090339631 -0.056010574 0.67269713
-0.0090261074 -0.057767063 0.67250741
-0.009018396 -0.059521407 0.67232126
-0.0090105683 -0.061271846 0.67213231
-0.0090001309 -0.063000917 0.6718803
-0.0089865206 -0.064702928 0.6715517
-0.0089699589 -0.066377699 0.67115188
-0.0089503834 -0.068022937 0.67067933
-0.0089275474 -0.069634855 0.67012793
-0.0089044785 -0.071235836 0.66957104
-0.0088837678 -0.072846889 0.66907108
-0.0088649429 -0.074465498 0.66861659
-0.0088481689 -0.076094255 0.66821164
-0.0088347336 -0.077745631 0.66788727
-0.0088218357 -0.079396531 0.66757596
-0.008647114 0.06485334 0.71554768
-0.0085221482 0.061785579 0.71177649
-0.008439959 0.059079736 0.70929623
-0.0083734682 0.056520939 0.7072897
-0.0083159925 0.054053932 0.7055552
-0.0082644159 0.05165261 0.70399868
-0.0080977948 0.048586786 0.6989705
-0.0080869654 0.046500057 0.69864362
-0.0080750557 0.044412822 0.69828427
-0.0080590583 0.042310029 0.69780153
-0.0080388598 0.040194273 0.69719201
-0.0080131758 0.038062602 0.69641685
-0.0079833223 0.035924941 0.69551599
-0.007953817 0.033803731 0.69462556
-0.0079245288 0.031698138 0.69374168
-0.0078958916 0.029609621 0.69287753
-0.0078701833 0.027545661 0.69210172
-0.0078448877 0.025495887 0.6913383
-0.0078197243 0.023459166 0.690579
-0.0077951755 0.021436751 0.68983817
-0.0077725928 0.019431442 0.68915665
-0.00775071 0.017439067 0.68849629
-0.0077289203 0.015457869 0.68783867
-0.0077072824 0.013487756 0.68718576
-0.0077555152 0.011633277 0.68864125
-0.0091048814 0.011381119 0.72936207
-0.0091502964 0.0091503263 0.7307325
-0.0091619827 0.0068714917 0.73108524
-0.0091618989 0.0045809448 0.73108268
-0.0091562821 0.0022890568 0.73091322
-0.0091483723 2.9802322e-08 0.73067451
-0.0091396412 -0.0022849143 0.73041099
-0.0091303019 -0.0045651495 0.73012912
-0.0091201905 -0.0068401694 0.72982401
-0.0091064563 -0.009106487 0.72940952
-0.0090874359 -0.011359304 0.72883552
-0.0090641826 -0.013596267 0.72813392
-0.0090343961 -0.015810221 0.72723496
-0.0089915358 -0.017983079 0.72594154
-0.0089492006 -0.020135701 0.72466391
-0.0074320165 -0.018580019 0.6788789
-0.007419921 -0.020404786 0.67851382
-0.0074079195 -0.0222238 0.67815173
-0.0073970505 -0.024040431 0.67782366
-0.0073862127 -0.025851756 0.67749661
-0.007375407 -0.027657777 0.67717046
-0.0073646596 -0.029458642 0.67684621
-0.0073539442 -0.031254262 0.67652285
-0.0073443372 -0.033049524 0.67623293
-0.0073354542 -0.034843415 0.67596483
-0.0073268344 -0.036634207 0.67570472
-0.0073182615 -0.038420886 0.67544597
-0.0073096817 -0.040203273 0.67518711
-0.0073012547 -0.041982174 0.67493278
-0.0072935657 -0.043761373 0.67470074
-0.0072868476 -0.045542777 0.67449796
-0.0072804592 -0.047322989 0.6743052
-0.0072741089 -0.04910022 0.67411363
-0.0072677694 -0.050874352 0.67392224
-0.0072614145 -0.052645236 0.67373049
-0.00725536 -0.054415226 0.67354774
-0.0072478722 -0.05617103 0.67332184
-0.0072377287 -0.057901829 0.67301571
-0.0072251088 -0.059607148 0.67263484
-0.0072100908 -0.061285794 0.67218167
-0.0071924455 -0.062933862 0.67164916
-0.0071737291 -0.064563572 0.67108434
-0.0071560824 -0.066193789 0.6705519
-0.0071401009 -0.06783098 0.67006952
-0.0071264487 -0.069482848 0.66965747
-0.0071145678 -0.071145669 0.66929901
-0.0071041379 -0.072817415 0.66898429
-0.0070937392 -0.074484244 0.66867048
-0.0070873587 -0.076189086 0.66847783
-0.007081165 -0.077892825 0.66829097
-0.007077659 -0.079623654 0.66818523
-0.0070766578 -0.081381559 0.66815501
-0.0064949319 0.071444243 0.7159338
-0.0064128274 0.068403512 0.71263015
-0.0063545415 0.065663606 0.71028495
-0.006306354 0.063063562 0.70834607
-0.0062644025 0.060555905 0.70665807
-0.006226568 0.058114618 0.7051357
-0.0061918176 0.055726349 0.70373744
-0.0061604092 0.053390205 0.70247364
-0.0061304946 0.051087469 0.70126998
-0.0060772314 0.04861784 0.69912684
-0.0060608648 0.046466619 0.69846827
-0.0060397456 0.044291466 0.69761848
-0.0060172295 0.042120636 0.69671255
-0.0059948801 0.039965868 0.6958133
-0.0059726969 0.037827104 0.69492066
-0.0059517622 0.035710573 0.69407833
-0.0059324503 0.033617228 0.69330132
-0.0059132874 0.031537533 0.69253027
-0.005894247 0.029471278 0.69176412
-0.0058761113 0.027421862 0.69103432
-0.0058593443 0.025390506 0.69035971
-0.0058427406 0.023370981 0.68969166
-0.0058262539 0.021362931 0.68902826
-0.0058099949 0.019366652 0.6883741
-0.0068591153 0.020577371 0.73058742
-0.0068869032 0.018365085 0.73170555
-0.0069110645 0.016125798 0.7326777
-0.0069155223 0.013831049 0.73285705
-0.0069127516 0.01152125 0.73274559
-0.0069072167 0.0092096627 0.73252285
-0.0069009289 0.0069009364 0.73226988
-0.0068941782 0.004596144 0.73199821
-0.0068869032 0.0022956133 0.73170555
-0.0068781935 2.9802322e-08 0.73135507
-0.0068658297 -0.0022885799 0.73085755
-0.0068506948 -0.0045671463 0.73024857
-0.0068306192 -0.0068306327 0.72944081
-0.0068045473 -0.0090726912 0.72839177
-0.0067659938 -0.011276662 0.7268405
-0.0056132828 -0.011226565 0.68045902
-0.0056039784 -0.013075948 0.68008459
-0.0055948091 -0.01491949 0.67971563
-0.0055861059 -0.016758323 0.67936552
-0.0055778651 -0.018592864 0.67903388
-0.0055696489 -0.020422012 0.67870331
-0.0055614565 -0.022245824 0.67837363
-0.0055533089 -0.024064362 0.67804581
-0.0055456972 -0.02587992 0.6777395
-0.0055385558 -0.027692795 0.67745221
-0.0055320035 -0.029504001 0.67718858
-0.005525467 -0.031310976 0.6769256
-0.0055189664 -0.033113778 0.67666399
-0.0055125211 -0.034912616 0.67640465
-0.0055063334 -0.036708891 0.67615569
-0.0055009252 -0.038506448 0.67593807
-0.0054960917 -0.040304661 0.67574358
-0.005491246 -0.042099535 0.67554861
-0.0054864287 -0.04389143 0.67535484
-0.0054816008 -0.045680016 0.67516053
-0.0054770806 -0.047468007 0.67497861
-0.0054721087 -0.049248993 0.67477858
-0.0054651159 -0.051007748 0.67449719
-0.0054561966 -0.052743226 0.67413837
-0.0054454091 -0.054454088 0.67370427
-0.0054326579 -0.056137443 0.67319119
-0.0054184408 -0.057796687 0.67261916
-0.005404375 -0.059448123 0.67205322
-0.0053922222 -0.061111838 0.67156416
-0.0053812806 -0.062781632 0.67112398
-0.0053714984 -0.064457983 0.67073035
-0.0053635715 -0.066150695 0.67041135
-0.0053556683 -0.06783843 0.6700933
-0.0053498656 -0.069548249 0.66985989
-0.0053451601 -0.071268782 0.66967058
-0.0053413752 -0.072998747 0.66951829
-0.0053406148 -0.074768588 0.66948766
-0.005340748 -0.076550737 0.66949302
-0.0053459979 -0.078407973 0.66970426
-0.0053586508 -0.080379769 0.67021346
-0.0043393425 0.078108162 0.71650046
-0.0042906711 0.075086743 0.71356285
-0.0042533227 0.072306484 0.71130866
-0.0042221337 0.069665194 0.70942628
-0.0041947369 0.067115784 0.70777273
-0.0041700732 0.064636141 0.70628411
-0.004147192 0.062207907 0.70490313
-0.0041261935 0.059829831 0.70363575
-0.0041066362 0.057492882 0.7024554
-0.0040878481 0.055185974 0.70132142
-0.0040705879 0.052917629 0.70027965
-0.0040536374 0.050670475 0.6992566
-0.0040315096 0.04837814 0.69792104
-0.0040164613 0.046189308 0.69701278
-0.0040015411 0.044016957 0.69611228
-0.0039880499 0.041874558 0.69529802
-0.0039750445 0.039750427 0.69451308
-0.0039621387 0.037640363 0.69373417
-0.0039493167 0.035543889 0.69296026
-0.0039376002 0.033469617 0.69225311
-0.0039263526 0.031410813 0.69157434
-0.0039151851 0.0293639 0.69090021
-0.0039040654 0.027328432 0.69022912
-0.0039140363 0.025441289 0.69083095
-0.0046050865 0.027630538 0.73253947
-0.0046307221 0.025468975 0.73408669
-0.0046378258 0.023189157 0.73451543
-0.0046384064 0.020872831 0.73455048
-0.0046358276 0.018543333 0.73439485
-0.0046317936 0.016211301 0.73415136
-0.0046273386 0.013882011 0.73388255
-0.0046225935 0.011556506 0.73359615
-0.0046174745 0.0092349946 0.73328722
-0.0046106032 0.0069158971 0.73287249
-0.0046010003 0.0046010017 0.73229283
-0.0045892475 0.0022946596 0.73158348
-0.0045741443 2.9802322e-08 0.73067194
-0.0045523578 -0.0022761822 0.72935706
-0.0045305323 -0.0045305192 0.72803974
-0.0037623784 -0.0056435466 0.68167758
-0.0037561788 -0.0075123608 0.68130338
-0.0037499997 -0.0093749464 0.68093038
-0.0037443871 -0.011233181 0.6805917
-0.0037388329 -0.013085932 0.68025649
-0.0037333095 -0.014933258 0.67992306
-0.0037277886 -0.016775042 0.67958987
-0.0037224221 -0.018612087 0.67926598
-0.0037175131 -0.02044633 0.67896968
-0.0037129063 -0.022277415 0.67869163
-0.0037085032 -0.024105251 0.67842591
-0.0037040969 -0.025928676 0.67815995
-0.0036997283 -0.027747989 0.67789626
-0.0036954659 -0.029563725 0.67763901
-0.0036916621 -0.031379133 0.67740947
-0.0036881927 -0.033193737 0.67720008
-0.0036849333 -0.035006881 0.67700332
-0.003681666 -0.036816657 0.67680609
-0.0036784182 -0.038623363 0.67661011
-0.0036753109 -0.04042843 0.67642254
-0.0036721013 -0.042229176 0.67622888
-0.0036679287 -0.044015139 0.67597699
-0.0036623983 -0.045779973 0.67564321
-0.0036555752 -0.047522455 0.6752314
-0.0036475272 -0.049241602 0.67474568
-0.0036380857 -0.050933212 0.6741758
-0.0036285089 -0.052613348 0.67359781
-0.0036199249 -0.054298848 0.67307973
-0.0036121372 -0.055988133 0.67260969
-0.0036051753 -0.057682812 0.67218953
-0.0035996768 -0.059394628 0.6718576
-0.0035943368 -0.061103761 0.67153537
-0.0035897724 -0.062821031 0.67125988
-0.0035865947 -0.064558715 0.67106801
-0.0035834226 -0.066293299 0.67087662
-0.0035827809 -0.068072826 0.67083788
-0.003582268 -0.069854245 0.67080694
-0.00358531 -0.071706191 0.67099053
-0.0035915505 -0.073626757 0.67136717
-0.0036704447 -0.077079356 0.67612886
-0.0036766885 -0.079048827 0.67650568
-0.0036815577 -0.080994263 0.6767996
-0.0036875131 -0.082969069 0.67715907
-0.0022162814 0.08865124 0.72212672
-0.0021762012 0.084871858 0.71728867
-0.0021532013 0.08182162 0.71451229
-0.0021354379 0.079011172 0.71236813
-0.0021202001 0.076327264 0.71052867
-0.0021068268 0.073738933 0.70891446
-0.0020946555 0.071218282 0.70744514
-0.0020834217 0.068752915 0.7060892
-0.0020729345 0.06633392 0.70482326
-0.0020632243 0.063959986 0.70365119
-0.0020539165 0.061617494 0.70252758
-0.0020452775 0.059313059 0.70148474
-0.0020369263 0.057033956 0.70047665
-0.0020290709 0.054784924 0.69952846
-0.0020214308 0.05255723 0.69860619
-0.0020142617 0.050356537 0.69774079
-0.0020042327 0.048101604 0.69653022
-0.0019976713 0.045946449 0.6957382
-0.0019911446 0.043805182 0.69495034
-0.0019847471 0.04167968 0.6941781
-0.0019790244 0.039580494 0.69348729
-0.0019733424 0.037493497 0.69280142
-0.0019677004 0.0354186 0.69212043
-0.0019620832 0.033355445 0.69144231
-0.0023142153 0.037027419 0.73394841
-0.0023221846 0.034832835 0.73491037
-0.0023318706 0.032646179 0.73607957
-0.0023339589 0.030341446 0.7363317
-0.0023333277 0.027999938 0.73625553
-0.0023315772 0.025647372 0.73604417
-0.0023294496 0.023294508 0.73578733
-0.0023271744 0.020944566 0.73551273
-0.0023246768 0.018597394 0.73521125
-0.002321786 0.016252488 0.73486227
-0.0023176777 0.013906062 0.73436636
-0.0023125038 0.011562526 0.73374188
-0.0023057263 0.0092228949 0.73292375
-0.002296899 0.0068906844 0.73185813
-0.0022837734 0.0045675337 0.73027372
-0.0018945946 0.001894623 0.68329573
-0.0018914292 -2.9802322e-08 0.68291366
-0.0018882956 -0.0018883049 0.68253541
-0.0018852861 -0.00377056 0.68217206
-0.0018824701 -0.0056473911 0.68183213
-0.0018796626 -0.0075186491 0.68149328
-0.0018768706 -0.0093843639 0.68115628
-0.0018740868 -0.011244535 0.68082023
-0.0018715492 -0.013100833 0.68051392
-0.0018690813 -0.01495263 0.68021601
-0.0018668429 -0.016801566 0.67994577
-0.0018646166 -0.018646151 0.67967707
-0.0018623887 -0.020486295 0.67940813
-0.0018602285 -0.022322714 0.6791473
-0.0018581836 -0.024156362 0.67890054
-0.001856336 -0.025988698 0.67867756
-0.0018546708 -0.027820051 0.67847651
-0.0018530156 -0.029648244 0.67827666
-0.0018513701 -0.031473279 0.67807806
-0.0018497685 -0.03329584 0.67788476
-0.0018482243 -0.035116255 0.67769831
-0.0018463624 -0.036927253 0.67747355
-0.0018437906 -0.038719565 0.67716312
-0.001840542 -0.040491939 0.67677099
-0.0018366774 -0.04224357 0.67630446
-0.0018321243 -0.043971002 0.6757549
-0.0018272669 -0.045681685 0.67516857
-0.0018226873 -0.047389865 0.67461574
-0.001818547 -0.049100757 0.67411602
-0.0018150179 -0.0508205 0.67368996
-0.0018119811 -0.052547455 0.67332345
-0.0018092751 -0.054278255 0.67299676
-0.0018066425 -0.056005925 0.67267895
-0.0018050327 -0.057761043 0.6724847
-0.0018034257 -0.059513062 0.67229068
-0.001802711 -0.061292171 0.67220438
-0.0018024512 -0.063085794 0.67217296
-0.0018034388 -0.064923793 0.67229223
-0.0018054366 -0.066801161 0.67253339
-0.0018141294 -0.068936914 0.67358273
-0.00184929 -0.072122306 0.67782694
-0.0018517469 -0.074069872 0.67812353
-0.0018545402 -0.07603614 0.67846072
-0.001857949 -0.078033864 0.67887223
-0.001862063 -0.080068693 0.67936879
-0.0018667593 -0.082137421 0.67993569
-0.0018730274 -0.084286213 0.68069232
0 0.091677547 0.71808517
0 0.088635206 0.71555442
0 0.085784346 0.71347517
0 0.083058029 0.71167469
0 0.080423117 0.71006972
0 0.077865392 0.70862991
0 0.075359941 0.70728546
0 0.072901905 0.70602739
0 0.070490897 0.70486265
0 0.068114758 0.7037549
0 0.065772325 0.70270479
0 0.063461453 0.70171005
0 0.0611763 0.70075226
0 0.058919072 0.69984466
0 0.056684345 0.69896948
0 0.054471463 0.69812703
0 0.052281588 0.69732654
0 0.050106823 0.69653505
0 0.047883153 0.69543141
0 0.045755178 0.69473439
0 0.043639719 0.69404227
0 0.041536212 0.69335324
0 0.039509982 0.69306195
0 0.044285119 0.73594981
0 0.042162895 0.73734856
0 0.039916754 0.73803192
0 0.037578791 0.73810774
0 0.035212278 0.73796403
0 0.032835782 0.73771441
0 0.030460924 0.73744124
0 0.028088868 0.73715019
0 0.025719762 0.73683852
0 0.023347229 0.73642373
0 0.020968765 0.7358371
0 0.018591464 0.73512137
0 0.016213924 0.73419666
0 0.013831228 0.73286092
0 0.011469692 0.73150098
0 0.0076198578 0.68454695
0 0.0057053566 0.68416321
0 0.0037972331 0.68378079
0 0.0018956959 0.68342918
0 -0 0.6830864
0 -0.0018900335 0.68274379
0 -0.0037744045 0.68240297
0 -0.0056535602 0.68207866
0 -0.0075279772 0.68177497
0 -0.009398073 0.68148732
0 -0.011264086 0.68121397
0 -0.013125688 0.6809423
0 -0.014983147 0.68067628
0 -0.016836375 0.68041253
0 -0.018688321 0.68018568
0 -0.020537406 0.67996931
0 -0.022384435 0.67976773
0 -0.024228007 0.67956555
0 -0.026068687 0.67936718
0 -0.02790758 0.67918074
0 -0.029740959 0.67897636
0 -0.031560183 0.67869496
0 -0.033362418 0.67833138
0 -0.03514573 0.67788553
0 -0.036907762 0.67735606
0 -0.038649827 0.67676204
0 -0.04038319 0.6761744
0 -0.042122066 0.67566669
0 -0.043863058 0.67521209
0 -0.045607209 0.6748091
0 -0.047360182 0.67447793
0 -0.049107909 0.6741479
0 -0.050873637 0.67391908
0 -0.052643359 0.67372257
0 -0.054425478 0.67358905
0 -0.056231469 0.67355728
0 -0.058059275 0.67360973
0 -0.059933603 0.67382908
0 -0.061932117 0.67447639
0 -0.065112561 0.67916316
0 -0.067062438 0.67946339
0 -0.069021642 0.67977774
0 -0.071018189 0.68019414
0 -0.073038518 0.68066275
0 -0.075099051 0.68122935
0 -0.077224553 0.68195963
0 -0.079427391 0.68287736
0 -0.081769779 0.68414402
0 -0.0844578 0.68630159
0.0021539892 0.092621565 0.71460742
0.0021394372 0.089856356 0.71285087
0.0021262907 0.087177932 0.7112639
0.0021143854 0.084575415 0.70982683
0.0021034612 0.082034975 0.70850819
0.0020931044 0.079537988 0.70725799
0.0020834825 0.077088833 0.70609647
0.0020743439 0.074676394 0.70499343
0.002065669 0.072298378 0.70394623
0.0020574552 0.069953501 0.70295471
0.0020495418 0.067634881 0.70199949
0.0020420472 0.065345496 0.70109481
0.0020347727 0.063077927 0.70021671
0.002027862 0.060835838 0.69938254
0.0020211614 0.058613658 0.69857365
0.0020147078 0.056411803 0.69779468
0.0020085371 0.054230481 0.6970498
0.0020024199 0.052062929 0.69631141
0.0019967386 0.049918473 0.69562554
0.0019882408 0.04771778 0.69459981
0.0020013629 0.046031326 0.6961838
0.0023493671 0.051686078 0.73819166
0.0023607397 0.049575508 0.73956442
0.0023634718 0.047269434 0.73989421
0.0023631591 0.04490006 0.73985642
0.0023614974 0.042506993 0.73965585
0.0023593483 0.040108949 0.73939639
0.0023570254 0.037712425 0.73911607
0.0023544745 0.035317123 0.7388081
0.0023515974 0.032922357 0.7384609
0.0023474933 0.030517429 0.7379654
0.0023421857 0.028106242 0.73732471
0.0023353205 0.025688499 0.73649609
0.0023263521 0.023263574 0.73541343
0.0023129315 0.020816386 0.7337935
0.001918693 0.015349567 0.68620467
0.0019154613 0.013408214 0.68581456
0.0019122475 0.011473507 0.68542659
0.0019091247 0.0095456243 0.68504965
0.0019062373 0.0076249838 0.68470109
0.0019033585 0.0057100952 0.68435365
0.0019004957 0.0038009882 0.68400806
0.001897663 0.0018976629 0.68366605
0.0018951113 -0 0.68335813
0.0018925596 -0.0018925965 0.68305004
0.0018902645 -0.003780514 0.68277299
0.001887975 -0.0056639016 0.68249667
0.0018857337 -0.0075429082 0.68222606
0.0018835189 -0.0094175637 0.68195873
0.0018815002 -0.011289001 0.68171507
0.0018796062 -0.013157248 0.68148643
0.0018778779 -0.015023023 0.68127787
0.0018761808 -0.016885608 0.68107295
0.001874494 -0.018744946 0.68086934
0.0018729293 -0.020602226 0.68068051
0.0018712903 -0.022455484 0.68048263
0.001869207 -0.024299711 0.68023121
0.0018663971 -0.026129574 0.67989194
0.001862888 -0.027943313 0.67946839
0.0018587359 -0.029739767 0.67896724
0.0018538531 -0.031515539 0.67837781
0.0018488868 -0.033279955 0.6777783
0.0018444295 -0.035044163 0.67724025
0.0018404066 -0.036808103 0.67675465
0.0018367921 -0.038572609 0.67631835
0.0018339846 -0.040347666 0.67597944
0.0018312125 -0.042117894 0.67564487
0.0018289567 -0.043895006 0.6753726
0.0018273069 -0.045682669 0.6751734
0.0018257933 -0.047470629 0.67499065
0.0018255269 -0.049289256 0.67495853
0.0018254004 -0.051111221 0.67494321
0.0018272402 -0.05298999 0.67516536
0.0018314673 -0.054943979 0.67567557
0.0018713812 -0.058012813 0.68049359
0.0018740798 -0.059970587 0.68081939
0.0018766101 -0.061928123 0.68112481
0.0018799735 -0.063919097 0.68153077
0.0018836323 -0.065927088 0.6819725
0.001888374 -0.067981482 0.68254483
0.0018941429 -0.07008329 0.68324113
0.0019013333 -0.072250634 0.68410909
0.0019111885 -0.074536324 0.68529874
0.0019269541 -0.077078164 0.68720186
0.0042728274 0.094002217 0.71248585
0.0042489339 0.091352046 0.71104383
0.0042273952 0.088775277 0.7097438
0.0042069047 0.086241543 0.70850706
0.0041876105 0.083752215 0.70734262
0.0041695517 0.081306219 0.70625263
0.0041521303 0.078890473 0.70520115
0.0041358285 0.076512843 0.70421726
0.004119976 0.074159563 0.70326048
0.0041050357 0.071838111 0.70235872
0.0040905215 0.069538832 0.70148277
0.0040767402 0.067266256 0.70065093
0.0040633157 0.065013081 0.69984066
0.0040504872 0.062782586 0.6990664
0.0040380168 0.06057021 0.69831377
0.0040259627 0.058376461 0.6975863
0.0040145116 0.056203157 0.69689512
0.0040031262 0.05404222 0.696208
0.0040169614 0.052220523 0.697043
0.0047400864 0.0592511 0.74068743
0.0047558327 0.057070047 0.74163783
0.0047577773 0.054714441 0.74175519
0.0047556297 0.052311927 0.74162555
0.0047513847 0.049889565 0.74136931
0.0047468096 0.047468066 0.74109322
0.0047419062 0.045048088 0.74079728
0.0047366763 0.042630106 0.74048167
0.0047298255 0.040203512 0.74006814
0.0047199875 0.03775987 0.73947442
0.0047079963 0.03530997 0.73875064
0.0046924548 0.032847226 0.73781258
0.0046699438 0.030354649 0.73645395
0.0046466985 0.027880192 0.73505098
0.0038586636 0.021222651 0.68748885
0.0038521576 0.019260794 0.68709624
0.0038456589 0.017305493 0.68670398
0.0038396239 0.015358508 0.68633974
0.0038337845 0.013418287 0.68598729
0.0038279768 0.011483938 0.68563676
0.0038221725 0.0095554292 0.68528646
0.0038168076 0.0076335967 0.68496263
0.0038116467 0.0057174861 0.68465114
0.0038067026 0.0038066804 0.68435276
0.0038020744 0.0019010603 0.68407345
0.0037974862 -0 0.68379653
0.0037930098 -0.0018964708 0.68352628
0.0037886731 -0.00378865 0.68326455
0.0037848328 -0.005677253 0.68303281
0.0037811145 -0.0075622499 0.6828084
0.0037776891 -0.009444207 0.68260163
0.003774255 -0.011322796 0.68239439
0.0037710408 -0.013198614 0.68220037
0.0037678604 -0.015071452 0.68200839
0.0037641332 -0.016938597 0.68178344
0.0037589441 -0.018794715 0.68147027
0.0037522775 -0.020637542 0.68106788
0.003744303 -0.022465825 0.68058658
0.0037348841 -0.024276704 0.68001807
0.0037248053 -0.026073635 0.6794098
0.0037153049 -0.027864784 0.67883641
0.0037067311 -0.029653847 0.67831892
0.0036994 -0.031444877 0.67787647
0.0036931881 -0.033238679 0.67750156
0.0036875675 -0.035031885 0.67716229
0.0036823163 -0.036823153 0.67684537
0.0036789726 -0.038629234 0.67664355
0.003675635 -0.040431976 0.67644215
0.0036745823 -0.042257696 0.67637855
0.0036740291 -0.044088334 0.67634517
0.0036768909 -0.045961142 0.6765179
0.0036830346 -0.047879457 0.6768887
0.0037645721 -0.050821751 0.68180996
0.003770913 -0.052792758 0.68219262
0.0037760213 -0.05475229 0.68250096
0.0037823722 -0.056735575 0.68288428
0.0037894621 -0.058736652 0.68331218
0.0037988124 -0.060781002 0.68387651
0.0038097603 -0.062861025 0.68453729
0.0038233113 -0.064996272 0.68535519
0.0038417024 -0.067229778 0.6864652
0.0038708427 -0.069675148 0.68822396
0.006341923 0.093014866 0.70977718
0.0063127722 0.090483099 0.70860422
0.0062860716 0.088005006 0.70752996
0.0062599354 0.085552454 0.70647824
0.0062356214 0.083141625 0.70549995
0.0062118554 0.080754131 0.70454365
0.00618952 0.078400582 0.70364499
0.0061676488 0.076067686 0.70276499
0.0061469884 0.073763907 0.70193362
0.0061268914 0.071480423 0.70112497
0.0061076959 0.069220543 0.70035261
0.0060889903 0.066978902 0.69959998
0.0060710129 0.064757466 0.69887662
0.0060536782 0.062554657 0.69817913
0.0060366369 0.060366392 0.69749343
0.0060202698 0.058195949 0.69683492
0.0060044485 0.056041509 0.69619828
0.0059975153 0.053977638 0.69591928
0.0071812905 0.062237859 0.74355066
0.0071766204 0.059805185 0.74336284
0.0071700732 0.05736059 0.74309933
0.0071629225 0.054915786 0.74281168
0.0071551381 0.052471012 0.7424984
0.0071465196 0.050025642 0.74215162
0.0071342578 0.047561735 0.74165827
0.0071179178 0.045080125 0.74100083
0.0070970193 0.042582124 0.74015993
0.0070697111 0.040061712 0.73906112
0.0070286295 0.037486047 0.73740816
0.0058302595 0.029151291 0.68918943
0.0058203354 0.027161568 0.68879014
0.0058104447 0.025178611 0.68839216
0.0058007226 0.023202926 0.68800092
0.0057918364 0.021236718 0.68764341
0.0057830005 0.019276679 0.68728793
0.0057741916 0.01732257 0.68693346
0.0057656746 0.015375167 0.68659073
0.0057578231 0.013434917 0.68627489
0.0057499716 0.011499941 0.68595892
0.0057428223 0.0095714033 0.68567121
0.0057358216 0.0076477528 0.68538958
0.0057289922 0.0057289898 0.6851148
0.0057222 0.0038148165 0.68484145
0.0057162074 0.0019053817 0.68460035
0.0057103797 2.9802322e-08 0.68436587
0.0057050195 -0.0019016564 0.68415016
0.0056997985 -0.0037998557 0.68394011
0.0056948247 -0.0056948066 0.68374002
0.0056900107 -0.0075867176 0.6835463
0.0056848177 -0.0094746947 0.68333733
0.0056778505 -0.011355698 0.68305695
0.0056686304 -0.013226777 0.68268597
0.0056573073 -0.015086144 0.68223035
0.0056436947 -0.016931087 0.68168265
0.0056283316 -0.018761069 0.68106449
0.005613199 -0.020581722 0.68045557
0.0056000687 -0.02240026 0.67992729
0.0055883727 -0.024216294 0.67945665
0.0055781347 -0.026031256 0.67904472
0.005569566 -0.027847797 0.67869997
0.0055610444 -0.029658914 0.67835706
0.0055555077 -0.031481206 0.67813426
0.0055504343 -0.033302605 0.67793018
0.0055476031 -0.035134822 0.67781627
0.0055467831 -0.036978543 0.67778325
0.0055493671 -0.038845539 0.6778872
0.0055550351 -0.040736914 0.67811525
0.0055807889 -0.042786032 0.67915148
0.0056908741 -0.045527011 0.68358099
0.0056986515 -0.047488749 0.68389398
0.0057076002 -0.049465865 0.68425399
0.0057183634 -0.051465273 0.68468708
0.0057317046 -0.053495914 0.68522388
0.0057472195 -0.055556446 0.68584818
0.0057670036 -0.057670027 0.6866442
0.0057934904 -0.059866071 0.68770999
0.0058319131 -0.062207073 0.68925601
0.008449222 0.095053762 0.70957577
0.0083897198 0.092286974 0.70778012
0.0083571402 0.089839309 0.70679694
0.0083256094 0.087418914 0.70584536
0.0082958285 0.085032284 0.7049467
0.0082667368 0.082667381 0.70406878
0.0082392739 0.080332935 0.70324004
0.0082122609 0.07801649 0.70242488
0.0081867315 0.075727284 0.70165437
0.0081618261 0.073456436 0.70090282
0.008137932 0.071206927 0.70018178
0.0081147365 0.0689753 0.69948179
0.0080919676 0.066758752 0.69879466
0.0080703022 0.06456244 0.6981408
0.0080492375 0.062381566 0.69750518
0.0080287661 0.060215741 0.69688737
0.0080091674 0.058066458 0.69629592
0.0079899514 0.055929691 0.69571602
0.0080111232 0.054075062 0.69635499
0.0096078264 0.062450886 0.74453974
0.0095971841 0.059982419 0.74421859
0.0095835812 0.057501495 0.74380809
0.0095636612 0.054991037 0.74320698
0.0095394105 0.05246675 0.74247509
0.0095078256 0.049916059 0.74152195
0.0094621107 0.047310561 0.74014241
0.009414088 0.044716924 0.73869318
0.0078173717 0.035178185 0.69050801
0.0078040208 0.033167094 0.69010508
0.0077906852 0.031162739 0.68970263
0.0077781505 0.029168069 0.68932438
0.0077661681 0.027181625 0.68896276
0.0077542532 0.025201321 0.68860328
0.0077423742 0.023227125 0.68824476
0.007731637 0.02126202 0.68792069
0.0077210488 0.019302636 0.68760121
0.0077108154 0.017349362 0.68729234
0.0077012917 0.015402585 0.68700492
0.0076920567 0.013461083 0.68672627
0.0076828445 0.01152423 0.68644822
0.0076742717 0.0095928609 0.68618953
0.0076663941 0.007666409 0.68595189
0.0076587074 0.00574404 0.68571985
0.0076516806 0.0038258731 0.68550777
0.007644841 0.0019111931 0.68530142
0.0076383348 -0 0.68510509
0.0076316358 -0.0019079149 0.68490291
0.0076233223 -0.0038116276 0.68465203
0.0076118703 -0.0057088733 0.68430638
0.0075974232 -0.0075974166 0.68387043
0.0075803017 -0.0094753802 0.68335378
0.0075601153 -0.011340171 0.68274462
0.0075394679 -0.013194054 0.68212152
0.0075209392 -0.015041888 0.68156236
0.0075043016 -0.016884685 0.68106025
0.0074893339 -0.018723309 0.68060851
0.0074777775 -0.02056393 0.68025982
0.0074662571 -0.02239877 0.67991215
0.007457383 -0.0242365 0.67964435
0.0074505256 -0.026076823 0.6794374
0.0074450937 -0.027919114 0.67927349
0.0074439859 -0.029775918 0.67924011
0.0074450653 -0.031641513 0.67927265
0.0074527171 -0.033537209 0.67950356
0.0074744271 -0.035503507 0.68015873
0.0076344307 -0.038172126 0.68498725
0.007644929 -0.04013586 0.68530405
0.0076560709 -0.042108387 0.68564028
0.0076705948 -0.044105917 0.68607867
0.0076874481 -0.046124697 0.68658715
0.007707193 -0.048169941 0.68718302
0.0077335788 -0.050268233 0.68797934
0.0077672531 -0.052428961 0.68899554
0.0078145033 -0.054701507 0.6904214
0.0079114037 -0.057357699 0.69334567
0.010465041 0.094185352 0.70724636
0.010424227 0.091733217 0.70626098
0.010388258 0.089339018 0.70539266
0.010353778 0.08697176 0.70456022
0.01032008 0.084624678 0.70374662
0.010288292 0.082306355 0.70297921
0.010256784 0.080002934 0.70221853
0.010227056 0.077725649 0.70150089
0.010198124 0.075466126 0.70080239
0.010169686 0.073221743 0.70011586
0.010142763 0.070999324 0.69946587
0.01011635 0.068791181 0.69882822
0.010090888 0.066599876 0.69821352
0.010066203 0.06442371 0.69761753
0.010042242 0.062261879 0.69703913
0.010018916 0.06011349 0.69647598
0.0099966172 0.057980359 0.69593763
0.0099746166 0.055857867 0.6954065
0.0099535445 0.053749144 0.69489777
0.012019419 0.062501013 0.74477232
0.011984183 0.059920907 0.7439217
0.01193792 0.057302058 0.74280477
0.011868206 0.054593772 0.74112171
0.0098439613 0.043313384 0.69225216
0.0098269861 0.041273355 0.69184232
0.0098101087 0.03924045 0.69143492
0.009793289 0.037214488 0.69102883
0.0097781308 0.035201252 0.69066292
0.0097629819 0.033194125 0.69029719
0.0097479187 0.031193346 0.68993348
0.0097337337 0.02920121 0.68959105
0.0097203087 0.027216852 0.68926692
0.0097068818 0.025237888 0.68894279
0.0096945446 0.023266882 0.68864495
0.0096827624 0.021302044 0.68836051
0.0096710846 0.019342214 0.68807852
0.0096595827 0.017387241 0.68780088
0.009649598 0.015439361 0.68755984
0.0096396338 0.013495505 0.68731922
0.0096303942 0.011556476 0.68709624
0.0096216165 0.0096216202 0.68688428
0.0096133715 0.0076907277 0.6866852
0.0096051414 0.0057630837 0.68648648
0.0095958933 0.0038383901 0.68626332
0.0095826983 0.0019165277 0.68594474
0.0095656607 -0 0.6855334
0.0095451502 -0.0019089878 0.68503821
0.0095207766 -0.0038083196 0.68444979
0.009494544 -0.0056967437 0.68381649
0.00946989 -0.0075758696 0.68322128
0.0094477171 -0.0094477236 0.68268603
0.0094286688 -0.011314392 0.68222612
0.0094127404 -0.013177842 0.68184155
0.0093981372 -0.015037 0.68148899
0.0093851276 -0.016893208 0.68117493
0.0093764393 -0.018752873 0.68096513
0.0093677677 -0.020609111 0.68075579
0.0093660839 -0.02247861 0.6807152
0.0093646813 -0.02434817 0.68068135
0.0093741557 -0.02624765 0.68091011
0.0093953488 -0.028186023 0.6814217
0.0096017122 -0.030725509 0.68640381
0.00961533 -0.032692134 0.68673253
0.0096286153 -0.034663022 0.6870532
0.0096465843 -0.036657035 0.68748707
0.0096664513 -0.038665831 0.6879667
0.0096913893 -0.040703803 0.68856877
0.0097229145 -0.042780817 0.68932986
0.0097629055 -0.044909358 0.69029534
0.0098186173 -0.047129333 0.69164032
0.0099172834 -0.049586445 0.69402242
0.012490856 0.093681455 0.70589453
0.012450916 0.091306746 0.705091
0.012412513 0.088956326 0.7043184
0.012374754 0.086623281 0.70355874
0.012339252 0.084318221 0.7028445
0.012304105 0.082027376 0.70213735
0.012270361 0.079757333 0.70145851
0.012237999 0.077507317 0.70080745
0.012206053 0.075270683 0.70016474
0.012175709 0.073054284 0.69955426
0.012146004 0.070851713 0.69895667
0.012117228 0.068664312 0.69837773
0.012089562 0.066492558 0.69782114
0.012062553 0.064333618 0.69727778
0.012036293 0.062187523 0.69674945
0.012010867 0.060054362 0.69623792
0.01198641 0.057934314 0.69574594
0.011962529 0.055825144 0.69526541
0.011939456 0.053727537 0.69480121
0.011917133 0.051640928 0.69435209
0.011896213 0.04956755 0.69393128
0.011875414 0.047501683 0.6935128
0.01183898 0.045382768 0.69277984
0.011819451 0.043337971 0.69238687
0.011801052 0.041303694 0.69201672
0.011782711 0.039275706 0.69164777
0.011764703 0.03725487 0.69128549
0.011748359 0.035245061 0.69095665
0.011732015 0.033240736 0.69062781
0.011716081 0.031242907 0.69030732
0.011701697 0.029254258 0.69001788
0.011687484 0.027270794 0.68973196
0.011673305 0.025292158 0.68944669
0.011660564 0.023321122 0.68919039
0.011648439 0.02135548 0.68894643
0.011636519 0.019394189 0.68870664
0.011625704 0.017438561 0.68848908
0.011615628 0.015487492 0.6882863
0.01160566 0.01353994 0.68808579
0.011594991 0.011594981 0.68787116
0.011581082 0.0096509457 0.68759125
0.011562259 0.0077081919 0.68721259
0.011538928 0.0057694614 0.68674326
0.011510966 0.0038370192 0.68618065
0.011479013 0.0019132197 0.68553782
0.011447541 -0 0.68490469
0.011420238 -0.0019033551 0.68435538
0.011396048 -0.0037986934 0.68386877
0.011375019 -0.005687505 0.68344563
0.011357247 -0.0075714588 0.68308806
0.011339531 -0.0094496012 0.68273163
0.011328705 -0.011328697 0.68251389
0.011318198 -0.013204545 0.68230247
0.011313635 -0.015084833 0.68221068
0.011311929 -0.016967893 0.68217635
0.011319777 -0.01886633 0.6823343
0.011337903 -0.020786166 0.68269897
0.011590963 -0.023181945 0.6877901
0.011610239 -0.025155514 0.68817788
0.01162638 -0.02712819 0.68850261
0.011646767 -0.029116929 0.68891275
0.011669176 -0.031117767 0.6893636
0.011699417 -0.033148319 0.68997204
0.011735408 -0.035206228 0.69069606
0.01178077 -0.037305772 0.69160873
0.011843557 -0.039478511 0.69287193
0.011945156 -0.041808039 0.69491589
0.014516255 0.09331879 0.70492178
0.014474503 0.090982616 0.70420176
0.014433108 0.088660538 0.70348793
0.014394492 0.086366951 0.70282203
0.014356319 0.084087014 0.70216382
0.014319224 0.081824154 0.70152414
0.014283953 0.079582036 0.70091587
0.014248913 0.077351242 0.70031166
0.014215543 0.075139344 0.69973618
0.014183423 0.0729433 0.69918227
0.014151503 0.070757538 0.69863188
0.01412115 0.068588465 0.69810843
0.014091719 0.066432416 0.69760096
0.014062976 0.064287871 0.69710529
0.014035251 0.062156141 0.69662714
0.01400853 0.06003657 0.6961664
0.01398275 0.057928562 0.69572186
0.013958342 0.055833369 0.69530094
0.01393402 0.053745508 0.6948815
0.013909782 0.051664919 0.69446349
0.013887611 0.049598634 0.69408119
0.013866004 0.047540575 0.6937086
0.013842767 0.04548341 0.69330794
0.013805773 0.043389589 0.69266993
0.013786483 0.041359484 0.69233727
0.01376719 0.039334834 0.69200462
0.013749464 0.037319988 0.69169891
0.013732644 0.035312533 0.69140887
0.013715865 0.033309937 0.69111955
0.013699932 0.031314135 0.69084477
0.013685586 0.02932626 0.69059741
0.01367127 0.027342558 0.69035053
0.013657835 0.025364578 0.69011885
0.013645756 0.023392707 0.68991059
0.013633911 0.021424741 0.68970633
0.013621874 0.019459814 0.68949878
0.013607321 0.017495096 0.68924779
0.013587051 0.015528053 0.68889821
0.013560958 0.013560981 0.68844831
0.013530051 0.011597186 0.68791533
0.013493512 0.0096382499 0.68728524
0.013455928 0.0076890886 0.68663704
0.013422205 0.0057523847 0.68605554
0.01339208 0.0038263202 0.68553603
0.013365199 0.0019093156 0.68507254
0.013344169 -0 0.68470991
0.013323206 -0.0019033253 0.6843484
0.013307917 -0.0038022697 0.68408471
0.01329544 -0.0056980252 0.6838696
0.013287067 -0.0075926185 0.68372518
0.013285051 -0.0094893277 0.68369043
0.013290042 -0.011391461 0.6837765
0.013303975 -0.013303995 0.68401676
0.01336163 -0.015270412 0.68501097
0.013630091 -0.017524421 0.6896404
0.013649212 -0.019498914 0.6899702
0.01367159 -0.021483898 0.69035602
0.013698056 -0.023482382 0.69081247
0.013731675 -0.025501668 0.69139218
0.013771466 -0.027542949 0.69207835
0.0138213 -0.029617041 0.69293767
0.013889648 -0.031747758 0.69411629
0.013999293 -0.033998281 0.69600713
0.016545707 0.093069613 0.70425338
0.016498107 0.090739578 0.70353514
0.016456394 0.088453084 0.70290577
0.016415698 0.086182415 0.70229173
0.01637554 0.083924651 0.70168573
0.016337978 0.081689924 0.70111895
0.016300784 0.079466313 0.70055777
0.016264489 0.077256352 0.70001012
0.016230065 0.075064063 0.69949067
0.01619618 0.072882801 0.69897938
0.016163414 0.070714951 0.69848502
0.016132146 0.068561643 0.69801325
0.016101325 0.066417962 0.69754815
0.016072491 0.064289987 0.69711304
0.016044274 0.062171549 0.69668734
0.016016155 0.060060561 0.69626302
0.01598903 0.057960242 0.69585371
0.01596397 0.055873901 0.69547564
0.015938988 0.053794086 0.69509864
0.015914338 0.051721573 0.69472677
0.015892223 0.049663216 0.69439304
0.015870295 0.047610939 0.69406217
0.01584843 0.045564264 0.69373226
0.015807124 0.043469608 0.69310898
0.015787736 0.041442841 0.69281644
0.015768331 0.039420843 0.69252366
0.015751578 0.037410021 0.69227082
0.015734982 0.035403728 0.69202048
0.015718486 0.033401787 0.69177157
0.015704302 0.031408608 0.69155753
0.015690574 0.02941981 0.6913504
0.015676871 0.027434528 0.69114363
0.015661905 0.025450587 0.69091785
0.015640547 0.023460835 0.69059557
0.015612911 0.021467745 0.69017863
0.015579066 0.019473821 0.68966788
0.015538728 0.017481118 0.6890592
0.015495059 0.015495032 0.68840033
0.015454021 0.013522267 0.6877811
0.015417296 0.011562943 0.68722701
0.015385592 0.0096160173 0.68674856
0.015359498 0.0076797307 0.68635488
0.015335196 0.0057506859 0.68598819
0.015314544 0.0038286448 0.68567652
0.015300085 0.0019125342 0.68545836
0.015286996 2.9802322e-08 0.68526083
0.015284661 -0.0019105971 0.68522567
0.01528542 -0.0038213432 0.68523717
0.015301547 -0.0057380795 0.68548048
0.015345484 -0.0076726973 0.6861434
0.015675459 -0.0097971261 0.69112229
0.015697651 -0.011773229 0.69145721
0.015721511 -0.013756305 0.69181716
0.015752135 -0.015752137 0.69227934
0.015788607 -0.017762184 0.69282961
0.015831506 -0.019789338 0.69347692
0.015887871 -0.021845788 0.69432735
0.015962314 -0.023943484 0.69545066
0.016072167 -0.026117265 0.69710815
0.01859601 0.092980057 0.70401317
0.018526925 0.090576082 0.70308656
0.018484415 0.088314444 0.70251638
0.018442098 0.086063147 0.70194876
0.018402006 0.08383137 0.70141113
0.018363211 0.081614316 0.70089078
0.018324727 0.079407126 0.7003746
0.018288484 0.077218086 0.69988853
0.0182532 0.075040936 0.69941527
0.018218417 0.072873682 0.69894874
0.018186413 0.070724964 0.69851947
0.018154373 0.068583161 0.69808972
0.018122373 0.066448659 0.69766057
0.018093176 0.064331263 0.69726896
0.01806465 0.062222689 0.69688642
0.018036216 0.060120732 0.69650501
0.018009745 0.05803138 0.69614995
0.017984642 0.055952251 0.6958133
0.01795968 0.053879052 0.69547844
0.017935717 0.051814288 0.69515705
0.0179141 0.049761444 0.69486713
0.017892532 0.047713399 0.69457787
0.017871231 0.045670927 0.69429219
0.017828142 0.043579876 0.69371426
0.017809246 0.041554868 0.69346082
0.017791796 0.03953734 0.69322681
0.017776206 0.037527561 0.69301772
0.017760571 0.035521179 0.69280797
0.017744195 0.033516854 0.69258833
0.017723383 0.031508237 0.6923092
0.017694551 0.029490918 0.69192255
0.017658403 0.027468622 0.6914376
0.017615369 0.025444418 0.69086051
0.017565485 0.023420632 0.69019145
0.01751636 0.021408886 0.68953252
0.017473811 0.019415349 0.68896186
0.017436193 0.017436206 0.68845731
0.017403848 0.015470088 0.68802351
0.017376114 0.013514787 0.68765152
0.017349202 0.011566132 0.68729061
0.017332708 0.0096292794 0.6870693
0.017316246 0.0076961219 0.68684852
0.017311187 0.0057704151 0.68678069
0.017308524 0.0038463175 0.68674505
0.017324772 0.0019249916 0.6869629
0.017362915 2.9802322e-08 0.68747449
0.017746294 -0.0019718111 0.69261646
0.017772067 -0.0039493144 0.69296217
0.01779728 -0.0059324205 0.69330037
0.017831814 -0.007925272 0.69376355
0.017870663 -0.0099281073 0.69428462
0.017918091 -0.011945367 0.69492072
0.017980117 -0.013984531 0.69575262
0.018059941 -0.016053259 0.69682324
0.018173054 -0.018173099 0.69834036
0.018412465 -0.020458311 0.70155138
0.02066616 0.09299773 0.70406055
0.020564405 0.090483397 0.70283222
0.020520803 0.088239461 0.70230591
0.020478306 0.086008877 0.70179296
0.020438489 0.083797783 0.7013123
0.020398825 0.081595302 0.70083356
0.020361057 0.079408109 0.70037758
0.020325078 0.077235311 0.69994336
0.020289063 0.075069547 0.69950855
0.020254487 0.07291615 0.6990912
0.020222152 0.070777506 0.6987009
0.020190082 0.068646252 0.69831377
0.02015901 0.066524744 0.69793868
0.020130219 0.064416677 0.69759113
0.020101992 0.062316179 0.69725037
0.02007417 0.060222507 0.69691455
0.020048993 0.058142066 0.69661069
0.020024681 0.056069136 0.6963172
0.020000508 0.054001391 0.69602537
0.019978626 0.051944435 0.69576132
0.019958146 0.049895376 0.69551408
0.019937787 0.047850698 0.69526827
0.019919135 0.045814037 0.69504315
0.019902654 0.04378584 0.69484419
0.019856134 0.04169789 0.69428271
0.019835196 0.039670378 0.69402993
0.019805832 0.037631094 0.69367546
0.019767569 0.035581648 0.69321358
0.01972199 0.033527374 0.69266337
0.019667879 0.03146857 0.69201022
0.019611988 0.029417992 0.69133556
0.019561844 0.027386606 0.69073027
0.019517206 0.025372356 0.69019139
0.01947785 0.023373455 0.68971634
0.019446585 0.021391243 0.68933898
0.019415421 0.019415438 0.68896276
0.019393899 0.017454505 0.688703
0.019375425 0.015500367 0.68847996
0.019365299 0.013555735 0.68835777
0.019362228 0.011617362 0.6883207
0.019374074 0.0096870363 0.68846369
0.019403676 0.0077615082 0.68882096
0.019840544 0.0059521496 0.69409448
0.019872932 0.0039746165 0.69448543
0.019901467 0.0019901693 0.69482988
0.019937787 2.9802322e-08 0.69526827
0.019978307 -0.0019977987 0.69575745
0.020031575 -0.0040062964 0.6964004
0.02009739 -0.0060292184 0.69719493
0.020181533 -0.0080726445 0.6982106
0.020300174 -0.010150045 0.69964272
0.020518277 -0.012310982 0.70227551
0.02276512 0.093130052 0.7044155
0.022613598 0.0904544 0.70275271
0.022569457 0.08822605 0.70226836
0.022528902 0.086019486 0.70182329
0.022488859 0.083822161 0.70138389
0.022448776 0.081631899 0.70094401
0.022412302 0.079461813 0.70054376
0.02237631 0.077300012 0.70014882
0.022340707 0.07514599 0.69975811
0.022308109 0.073008358 0.69940037
0.022276146 0.070878685 0.69904965
0.022244815 0.0687567 0.69870585
0.022215813 0.06664747 0.69838756
0.022187961 0.064546853 0.69808191
0.022160981 0.062453687 0.69778585
0.022135492 0.060369521 0.69750613
0.022112016 0.05829531 0.69724846
0.022089208 0.056227118 0.69699818
0.022067333 0.054165304 0.69675815
0.022048416 0.052114427 0.69655061
0.022030059 0.050068289 0.69634914
0.022011997 0.048026204 0.6961509
0.021997832 0.045995474 0.69599551
0.021984037 0.043968052 0.69584411
0.0218604 0.041733533 0.69448733
0.021802986 0.039641798 0.69385731
0.021740463 0.037551731 0.69317114
0.021681711 0.035479158 0.69252646
0.021629395 0.033427268 0.69195235
0.021583932 0.031394809 0.69145352
0.021547174 0.029382527 0.69105011
0.021512393 0.027379423 0.69066846
0.021484347 0.025390595 0.69036067
0.021463651 0.02341488 0.69013357
0.021447426 0.02144745 0.68995547
0.021444084 0.019494623 0.68991882
0.0214501 0.017550081 0.68998486
0.021473197 0.015616864 0.6902383
0.021559414 0.013719648 0.6911844
0.022000911 0.012000501 0.69602925
0.022032704 0.010014862 0.69637817
0.022070341 0.0080255568 0.69679117
0.022114147 0.0060311556 0.69727194
0.022171337 0.0040311515 0.69789946
0.022240052 0.0020218194 0.69865358
0.022327656 2.9802322e-08 0.69961488
0.022450149 -0.0020408928 0.70095909
0.022650542 -0.0041182935 0.7031582
0.024678199 0.090486735 0.70284146
0.024635874 0.088278562 0.70241565
0.024596013 0.086086065 0.70201468
0.024556279 0.08390066 0.70161498
0.024518674 0.081728935 0.70123672
0.024483183 0.079570353 0.70087975
0.024447992 0.077418655 0.70052576
0.024414789 0.075278938 0.70019174
0.024383558 0.073150694 0.69987756
0.024353096 0.071029872 0.69957119
0.02432419 0.068918556 0.69928038
0.024297317 0.066817611 0.69901001
0.024271879 0.064725012 0.69875413
0.02424708 0.062638283 0.69850469
0.024224777 0.060561955 0.69828039
0.024204465 0.058494121 0.69807607
0.024184186 0.056429774 0.69787204
0.02416686 0.05437544 0.69769776
0.024151694 0.052328676 0.69754517
0.024136549 0.050284475 0.69739282
0.02412462 0.048249245 0.6972729
0.024114739 0.046219945 0.69717348
0.02410496 0.044192463 0.69707507
0.023774996 0.041606277 0.69375592
0.023723051 0.039538443 0.69323343
0.023678705 0.037491292 0.69278735
0.023640202 0.035460323 0.69239998
0.023604516 0.033439755 0.69204104
0.023581618 0.031442165 0.69181067
0.023558762 0.029448479 0.69158077
0.023554605 0.027480364 0.69153893
0.023553312 0.025516093 0.69152594
0.023578839 0.023578823 0.69178271
0.023645511 0.02167508 0.69245338
0.024156455 0.020130426 0.69759309
0.024191493 0.018143654 0.69794554
0.024230056 0.016153395 0.69833344
0.024278456 0.014162391 0.69882029
0.024337796 0.012168944 0.69941723
0.024408733 0.010170341 0.70013082
0.024498666 0.0081662238 0.70103544
0.024623347 0.0061558485 0.70228964
0.024825744 0.0041376352 0.70432562
0.026789771 0.090673089 0.70335263
0.026723731 0.088393867 0.70273942
0.026684813 0.086212516 0.70237803
0.026646661 0.084039479 0.7020238
0.026612321 0.081884086 0.70170492
0.026578069 0.079734206 0.70138693
0.026545096 0.077593386 0.70108068
0.026515555 0.075467378 0.70080644
0.026486294 0.073346704 0.7005347
0.026458606 0.071234733 0.70027763
0.026433876 0.069134772 0.70004803
0.026410157 0.067041188 0.69982779
0.02638787 0.064954787 0.69962084
0.026367869 0.062877268 0.69943511
0.026350137 0.060808033 0.69927049
0.026333498 0.058743954 0.69911593
0.026318578 0.056686163 0.69897747
0.02630751 0.054638684 0.69887459
0.026296766 0.052593529 0.69877493
0.02628848 0.050554752 0.69869792
0.026284123 0.048524529 0.69865751
0.026279874 0.046495169 0.69861805
0.026280195 0.044474214 0.69862098
0.025757268 0.041607916 0.6937654
0.025729964 0.039584577 0.69351184
0.025704846 0.037568629 0.69327867
0.025694286 0.035576731 0.69318062
0.025690228 0.033594936 0.69314295
0.025712265 0.031645864 0.69334757
0.025767369 0.029731601 0.69385922
0.026339361 0.028365463 0.69917035
0.026378561 0.026378572 0.69953442
0.026417451 0.024385333 0.6998955
0.026470559 0.022398174 0.70038861
0.026531452 0.020408839 0.70095402
0.026603831 0.018418044 0.70162606
0.026701791 0.016431898 0.70253569
0.02682966 0.014446765 0.70372307
0.027021475 0.012471467 0.70550412
0.029003419 0.091153622 0.70467097
0.028836982 0.088570744 0.70323586
0.028799755 0.086399287 0.70291495
0.028766757 0.084245533 0.7026304
0.028734544 0.082098722 0.70235264
0.028703108 0.079958647 0.70208162
0.028675495 0.077833503 0.70184356
0.028648524 0.075713962 0.70161098
0.028623471 0.073603213 0.70139492
0.028601265 0.071503162 0.70120353
0.028580027 0.069408625 0.70102042
0.028561732 0.067324102 0.70086265
0.028545437 0.065246701 0.70072216
0.028531253 0.063176334 0.70059985
0.028519522 0.061113268 0.7004987
0.028509308 0.059055001 0.7004106
0.028503392 0.057006776 0.70035964
0.028498754 0.05496189 0.70031965
0.028496781 0.052922606 0.7003026
0.028499797 0.050892502 0.70032859
0.028503042 0.048862398 0.7003566
0.028512904 0.046842605 0.70044166
0.028524864 0.044824809 0.70054477
0.028540671 0.042811006 0.70068103
0.027874026 0.039820045 0.69493318
0.027914349 0.037883729 0.69528079
0.028548114 0.036704749 0.70074522
0.028594377 0.034721762 0.7011441
0.028636577 0.03272751 0.70150799
0.028690998 0.03074038 0.70197719
0.028752826 0.028752804 0.7025103
0.028831761 0.02677235 0.70319086
0.028932622 0.024799407 0.70406049
0.029063828 0.022835851 0.70519185
0.02925146 0.020893902 0.70680964
0.029722977 0.01910764 0.71087509
0.030981451 0.088813514 0.70391738
0.030950025 0.086660087 0.70366442
0.030920826 0.084516943 0.70342952
0.030891808 0.082378179 0.70319599
0.030867286 0.080255002 0.7029987
0.030843945 0.078138024 0.70281088
0.030822162 0.076027989 0.70263553
0.030804195 0.073930085 0.70249093
0.030787136 0.07183665 0.70235366
0.030773757 0.069753855 0.70224595
0.030762782 0.067678154 0.70215768
0.030753834 0.065608174 0.70208561
0.030748794 0.063547522 0.70204508
0.030745393 0.061490804 0.70201778
0.030747408 0.059444964 0.702034
0.030751061 0.057401985 0.70206332
0.030758999 0.055366188 0.70212722
0.030771865 0.053337902 0.70223075
0.030786254 0.05131042 0.70234656
0.03081014 0.04929623 0.70253873
0.030834189 0.04727909 0.70273232
0.030867921 0.045272946 0.70300376
0.030910766 0.043275058 0.70334852
0.030957047 0.041276038 0.70372099
0.031020252 0.039292336 0.70422965
0.031003594 0.037204295 0.7040956
0.031088093 0.0352332 0.70477557
0.031191064 0.033270478 0.70560426
0.031324368 0.031324387 0.70667696
0.03151416 0.029413223 0.70820427
0.031876344 0.027626187 0.71111894
0.033313524 0.08953011 0.70592904
0.03314114 0.086995482 0.70462847
0.033115916 0.08485955 0.70443821
0.033095792 0.082739502 0.7042864
0.033077329 0.080626011 0.7041471
0.033060394 0.07851845 0.70401931
0.033048522 0.076424718 0.70392972
0.033037066 0.0743334 0.70384336
0.033030655 0.072254539 0.70379496
0.033026978 0.070182323 0.7037673
