# .PCD v0.7 - Point Cloud Data file format
VERSION 0.7
FIELDS x y z
SIZE 4 4 4
TYPE F F F
COUNT 1 1 1
WIDTH 1347
HEIGHT 1
VIEWPOINT 0 0 0 1 0 0 0
POINTS 1347
DATA ascii
-0.032489173 -0.018565208 0.73472577
-0.032987945 -0.021206528 0.73902625
-0.033323772 -0.023802668 0.74192184
-0.033709601 -0.026486158 0.74524856
-0.034124069 -0.029249191 0.74882221
-0.03458434 -0.032113999 0.75279081
-0.035081424 -0.035081387 0.75707662
-0.035619792 -0.038164049 0.76171863
-0.036198683 -0.041369915 0.76670986
-0.03682068 -0.044710845 0.77207291
-0.037494507 -0.048207223 0.77788275
-0.024848012 0.0095569193 0.68532258
-0.024952864 0.0076777935 0.68629622
-0.02518766 0.0058125257 0.68847632
-0.025485298 0.0039207935 0.69124007
-0.025832452 0.0019871294 0.69446355
-0.026202912 -0 0.69790339
-0.026628336 -0.0020483434 0.70185363
-0.027070507 -0.0041646957 0.70595938
-0.027527025 -0.0063523948 0.7101984
-0.02794976 -0.008599937 0.71412367
-0.028319564 -0.010892123 0.71755743
-0.028598338 -0.01319924 0.720146
-0.028871892 -0.015546411 0.72268605
-0.029190363 -0.01796332 0.72564322
-0.029525183 -0.020440519 0.72875214
-0.029899079 -0.022999287 0.73222393
-0.030294975 -0.025634229 0.73589998
-0.030845335 -0.028472602 0.74101037
-0.031299211 -0.031299233 0.74522471
-0.031790242 -0.034235626 0.74978417
-0.032315373 -0.037286967 0.75466025
-0.03287575 -0.040462464 0.75986367
-0.033478983 -0.043780178 0.7654649
-0.034120686 -0.047244042 0.77142334
-0.021631753 0.014421165 0.67219651
-0.021799667 0.012716472 0.67388564
-0.02202606 0.011013031 0.67616296
-0.022277934 0.0092824996 0.67869663
-0.022576138 0.0075253844 0.6816963
-0.022890106 0.0057225227 0.68485463
-0.023243217 0.0038738549 0.68840665
-0.023608601 0.0019674003 0.69208211
-0.023982299 -0 0.69584125
-0.024327345 -0.0020272732 0.69931209
-0.024631429 -0.0041052401 0.702371
-0.024864193 -0.0062160492 0.70471233
-0.025087973 -0.0083626807 0.70696348
-0.025342319 -0.010559291 0.70952201
-0.025610173 -0.012805074 0.71221638
-0.025911562 -0.015115052 0.71524805
-0.026223335 -0.017482221 0.71838427
-0.026570661 -0.019927979 0.72187817
-0.026928274 -0.022440255 0.72547549
-0.027323844 -0.025046825 0.72945458
-0.027732233 -0.027732223 0.73356259
-0.028280709 -0.030637383 0.73907983
-0.028744828 -0.03353563 0.74374855
-0.029251199 -0.036563993 0.74884224
-0.029783705 -0.039711595 0.75419891
-0.03035544 -0.043003559 0.7599501
-0.030968228 -0.046452343 0.76611429
-0.03162558 -0.050073802 0.77272671
-0.018750174 0.020454735 0.66035664
-0.018828364 0.018828392 0.66121471
-0.018981216 0.017255664 0.66289198
-0.019180717 0.015693307 0.66508132
-0.019402361 0.014110804 0.66751355
-0.019649018 0.012503922 0.67022032
-0.019915925 0.010863245 0.67314923
-0.020207383 0.0091851652 0.67634767
-0.020508872 0.007457763 0.67965609
-0.020814613 0.0056767166 0.68301117
-0.021096077 0.0038356483 0.68609989
-0.021346031 0.0019405782 0.68884277
-0.02154026 -0 0.69097424
-0.021723386 -0.0019748509 0.69298381
-0.021926323 -0.0039866269 0.69521075
-0.022144932 -0.00603953 0.69760972
-0.0223835 -0.0081394315 0.70022774
-0.022637129 -0.01028958 0.70301092
-0.022910008 -0.012496322 0.70600539
-0.023199907 -0.014763564 0.70918667
-0.02350848 -0.017097056 0.71257287
-0.023837132 -0.019503087 0.71617937
-0.024184452 -0.021985859 0.71999085
-0.024555404 -0.024555415 0.72406149
-0.024946613 -0.027214497 0.72835451
-0.025364861 -0.029976666 0.73294431
-0.025895078 -0.032957345 0.73876268
-0.026367979 -0.035956323 0.74395216
-0.026871985 -0.039086521 0.74948293
-0.027409548 -0.042360187 0.755382
-0.027986977 -0.045796841 0.76171851
-0.028606201 -0.049410701 0.7685138
-0.029275849 -0.053228796 0.77586222
-0.016181681 0.024272531 0.64992809
-0.016294399 0.022812158 0.65128875
-0.016441859 0.021374404 0.65306872
-0.016606437 0.01992774 0.65505534
-0.016800199 0.018480211 0.65739429
-0.017003443 0.017003417 0.65984762
-0.017229566 0.015506595 0.66257715
-0.017469281 0.013975412 0.66547084
-0.017717015 0.012401909 0.6684612
-0.017966844 0.010780126 0.6714769
-0.01819572 0.0090978444 0.67423975
-0.018400816 0.007360369 0.67671537
-0.018562395 0.0055687129 0.67866588
-0.018711992 0.0037423968 0.68047166
-0.018873483 0.0018873513 0.68242097
-0.019051559 -0 0.68457061
-0.019239902 -0.0019240081 0.68684411
-0.019445905 -0.0038891733 0.68933082
-0.019659841 -0.0058979094 0.69191319
-0.019894505 -0.0079578161 0.69474584
-0.020134754 -0.010067374 0.69764596
-0.020399574 -0.012239754 0.70084262
-0.020671623 -0.01447013 0.70412648
-0.020965952 -0.016772777 0.70767939
-0.021272307 -0.019145072 0.71137738
-0.021600146 -0.021600157 0.71533477
-0.021944694 -0.024139166 0.71949375
-0.022312542 -0.026775032 0.72393417
-0.022700038 -0.029510021 0.72861159
-0.023115104 -0.03236112 0.73362184
-0.023630587 -0.035445869 0.73984432
-0.024103571 -0.038565725 0.74555379
-0.024604341 -0.041827381 0.7515986
-0.02514606 -0.045262903 0.75813776
-0.025727108 -0.048881501 0.76515162
-0.026352432 -0.052704871 0.77269989
-0.013843136 0.029224426 0.64026618
-0.013900352 0.027800679 0.64103359
-0.013998743 0.026442081 0.64235318
-0.014131231 0.025122195 0.64413017
-0.014271269 0.023785472 0.64600843
-0.014434115 0.02245307 0.64819258
-0.014600769 0.021090031 0.65042782
-0.014791062 0.019721419 0.65298003
-0.014987228 0.018317729 0.6556111
-0.01518908 0.016876757 0.6583184
-0.015392861 0.01539287 0.66105151
-0.015577952 0.013847053 0.66353405
-0.015745552 0.012246549 0.66578197
-0.015879361 0.010586262 0.66757667
-0.016000895 0.0088893771 0.66920668
-0.016128808 0.0071683526 0.67092234
-0.016273297 0.0054244101 0.67286026
-0.016421175 0.0036491752 0.67484355
-0.01658782 0.0018430948 0.67707866
-0.016757945 -0 0.67936045
-0.016943889 -0.0018826425 0.68185437
-0.017137462 -0.0038083196 0.68445069
-0.017342854 -0.0057809651 0.68720543
-0.017561102 -0.0078049302 0.69013262
-0.017787861 -0.0098821521 0.693174
-0.01803275 -0.01202181 0.69645846
-0.018284475 -0.014221251 0.69983476
-0.018557465 -0.016495526 0.70349616
-0.018839911 -0.018839896 0.70728439
-0.019143531 -0.021270573 0.71135664
-0.019460209 -0.023784697 0.71560407
-0.019800069 -0.026400119 0.72016239
-0.02015616 -0.029114455 0.72493839
-0.020539993 -0.0319511 0.73008639
-0.02101161 -0.035019338 0.73641187
-0.021450486 -0.038134187 0.74229819
-0.021915445 -0.041395843 0.74853444
-0.022417286 -0.044834554 0.75526524
-0.022960549 -0.048472255 0.76255167
-0.023548393 -0.052329779 0.77043593
-0.011732252 0.033730239 0.63162392
-0.011743543 0.03229478 0.63179427
-0.011817738 0.031021595 0.63291383
-0.011911881 0.029779702 0.63433433
-0.012019761 0.028546959 0.63596213
-0.012140905 0.027317047 0.63779008
-0.012273468 0.026081145 0.63979018
-0.012412381 0.024824768 0.64188629
-0.01256768 0.023564398 0.64422959
-0.012726913 0.02227211 0.64663219
-0.012890068 0.020946383 0.64909399
-0.01305499 0.01958248 0.65158248
-0.013203556 0.018154919 0.65382421
-0.013339429 0.01667428 0.65587437
-0.013449372 0.015130579 0.65753323
-0.013547419 0.013547421 0.65901268
-0.013647882 0.01194191 0.6605286
-0.01376422 0.010323197 0.66228402
-0.013882463 0.0086765587 0.6640681
-0.014013343 0.0070066452 0.66604292
-0.014149815 0.0053061843 0.66810209
-0.014293971 0.0035735071 0.67027724
-0.014448862 0.0018061101 0.6726144
-0.014607093 -0 0.67500192
-0.014780989 -0.0018476248 0.67762583
-0.0149593 -0.003739804 0.68031633
-0.0151489 -0.0056808591 0.68317723
-0.015348602 -0.0076743066 0.68619049
-0.015556119 -0.0097225606 0.68932164
-0.015779147 -0.011834353 0.69268692
-0.016008725 -0.014007628 0.69615096
-0.01625729 -0.016257286 0.69990146
-0.016514035 -0.018578261 0.70377547
-0.016790068 -0.02098757 0.70794052
-0.017077891 -0.023482114 0.71228343
-0.017387228 -0.026080847 0.71695095
-0.017711265 -0.028780788 0.72184032
-0.018061455 -0.031607538 0.72712421
-0.018429421 -0.034555197 0.73267639
-0.0188918 -0.037783593 0.73965317
-0.019320272 -0.04105559 0.74611831
-0.019780546 -0.044506252 0.75306332
-0.020283617 -0.048173577 0.76065409
-0.020831142 -0.05207786 0.76891559
-0.021435071 -0.056267023 0.77802813
-0.0098091392 0.036433935 0.62375045
-0.0098493285 0.035176158 0.62444353
-0.0099106701 0.033979446 0.62550133
-0.0099959755 0.032843888 0.62697238
-0.010082764 0.03168869 0.62846899
-0.010185979 0.03055793 0.63024884
-0.010292539 0.029407263 0.63208646
-0.010407442 0.028248757 0.63406789
-0.010532155 0.027082682 0.63621843
-0.010659925 0.025888383 0.63842177
-0.010790268 0.024663478 0.64066941
-0.010922168 0.023404688 0.64294398
-0.011040048 0.022080094 0.64497674
-0.011148952 0.020705193 0.64685476
-0.011238205 0.019265503 0.64839381
-0.011316418 0.017782956 0.64974254
-0.011395724 0.016279638 0.65111017
-0.011487029 0.014769047 0.65268469
-0.011581189 0.013235658 0.65430838
-0.01168216 0.011682153 0.65604961
-0.011790503 0.010106176 0.65791786
-0.011900915 0.0085006654 0.65982187
-0.012023558 0.0068705976 0.66193676
-0.012148755 0.0052065849 0.6640957
-0.012281237 0.0035089254 0.66638029
-0.012421791 0.0017745793 0.66880405
-0.012565647 -0 0.67128468
-0.0127222 -0.001817435 0.67398441
-0.012883082 -0.0036808848 0.67675871
-0.013052705 -0.0055940151 0.67968374
-0.013232102 -0.007561177 0.68277729
-0.013417834 -0.0095841587 0.68598014
-0.013617585 -0.011672229 0.68942475
-0.013823318 -0.01382333 0.69297254
-0.014044988 -0.016051441 0.69679505
-0.014274987 -0.018353552 0.70076126
-0.014521491 -0.020744979 0.70501208
-0.014779526 -0.02322498 0.70946169
-0.015056534 -0.025811225 0.71423858
-0.015347284 -0.028502107 0.71925235
-0.015662361 -0.031324714 0.72468567
-0.01599481 -0.034274548 0.73041856
-0.016410664 -0.037510067 0.73758972
-0.016800711 -0.040801734 0.74431586
-0.017221769 -0.044284552 0.75157672
-0.017684631 -0.04800114 0.75955844
-0.018193072 -0.051980197 0.76832622
-0.0187589 -0.056276649 0.77808362
-0.0084631303 0.039494604 0.62486297
-0.0084285354 0.037928432 0.62416697
-0.0083942916 0.036375284 0.623478
-0.0083602564 0.034834415 0.62279332
-0.0083856173 0.033542454 0.62330353
-0.0084698629 0.032467782 0.62499845
-0.0085631898 0.031398386 0.626876
-0.0086616436 0.030315727 0.62885678
-0.0087624639 0.029208243 0.63088506
-0.0088647949 0.02807188 0.63294387
-0.0089684194 0.026905268 0.6350286
-0.0090605281 0.025671512 0.63688171
-0.0091463756 0.02439034 0.63860881
-0.0092176497 0.023044139 0.64004272
-0.0092790164 0.021651059 0.64127731
-0.0093411775 0.020239204 0.64252788
-0.0094110742 0.018822163 0.64393413
-0.0094847819 0.017388791 0.64541698
-0.0095613878 0.01593563 0.64695823
-0.0096460255 0.014469057 0.64866102
-0.0097321738 0.012976229 0.6503942
-0.0098247593 0.011462241 0.65225679
-0.009922239 0.0099222958 0.6542179
-0.010021671 0.0083514154 0.65621841
-0.010130597 0.0067537725 0.65840983
-0.010242162 0.0051210821 0.66065431
-0.010358785 0.0034529269 0.66300058
-0.010483143 0.0017472208 0.66550243
-0.010610523 -0 0.66806519
-0.010746804 -0.0017911196 0.67080688
-0.010888567 -0.0036295056 0.67365897
-0.011036552 -0.0055182874 0.67663622
-0.011194124 -0.0074627399 0.67980629
-0.011356216 -0.0094635189 0.68306738
-0.011531217 -0.011531204 0.68658811
-0.011711968 -0.013663948 0.69022453
-0.011905177 -0.015873581 0.69411159
-0.012107356 -0.018161029 0.69817913
-0.012322943 -0.020538211 0.70251638
-0.012549966 -0.023008257 0.7070837
-0.0127933 -0.025586605 0.71197921
-0.013049887 -0.028274775 0.71714139
-0.01332821 -0.03109917 0.72274077
-0.013623483 -0.03405866 0.72868121
-0.013991941 -0.037311822 0.73609406
-0.014340146 -0.0406304 0.74309933
-0.014722065 -0.044166178 0.75078303
-0.01514281 -0.047952235 0.75924772
-0.015610604 -0.052035332 0.76865906
-0.016142432 -0.056498468 0.77935851
-0.0070680501 0.03958109 0.6252358
-0.0070434147 0.038034439 0.62464106
-0.0071687694 0.037277609 0.62766731
-0.0069819293 0.034909695 0.62315655
-0.006953713 0.033377826 0.62247539
-0.0070142872 0.032265723 0.62393785
-0.0070928377 0.031208485 0.62583417
-0.0071718311 0.030121684 0.62774128
-0.0072424836 0.028969914 0.62944698
-0.0073085162 0.027772337 0.63104111
-0.0073640407 0.026510566 0.63238162
-0.0074110068 0.025197417 0.63351548
-0.0074585988 0.023867518 0.63466442
-0.0075107715 0.022532314 0.63592404
-0.0075670886 0.021187872 0.63728362
-0.0076242094 0.019822925 0.63866264
-0.0076883151 0.018451959 0.64021027
-0.0077539636 0.01705876 0.64179516
-0.007822088 0.015644193 0.64343983
-0.0078962017 0.014213175 0.6452291
-0.0079717338 0.012754798 0.64705259
-0.0080514699 0.011272073 0.64897764
-0.008135966 0.0097631812 0.65101749
-0.0082222801 0.0082222819 0.65310133
-0.008314671 0.0066517591 0.65533185
-0.0084108021 0.0050464869 0.65765268
-0.0085092988 0.0034037232 0.6600306
-0.0086158803 0.0017231703 0.66260368
-0.0087251663 -0 0.66524208
-0.0088401344 -0.0017680228 0.66801763
-0.0089613805 -0.0035845339 0.67094475
-0.0090861963 -0.005451709 0.67395812
-0.0092207538 -0.0073766112 0.67720664
-0.0093593914 -0.0093593895 0.68055362
-0.0095071727 -0.011408597 0.68412143
-0.0096617844 -0.013526469 0.68785399
-0.0098255202 -0.015720814 0.69180697
-0.0099985758 -0.017997444 0.69598496
-0.010182061 -0.020364136 0.7004146
-0.010376926 -0.022829235 0.70511901
-0.010585302 -0.025404721 0.71014971
-0.010806044 -0.028095722 0.71547896
-0.011046275 -0.030929565 0.72127861
-0.011297484 -0.033892453 0.72734332
-0.011513881 -0.036844403 0.73256767
-0.011931145 -0.040565878 0.74264121
-0.012269651 -0.044170767 0.75081348
-0.012648099 -0.048062801 0.75995004
-0.013077721 -0.052310884 0.77032202
-0.0057139266 0.042854458 0.62703091
-0.0056902738 0.041254491 0.62631714
-0.005666832 0.039667845 0.6256097
-0.0056820996 0.038354158 0.6260705
-0.0057515288 0.037384957 0.6281656
-0.0058179535 0.036362201 0.63017023
-0.0055749635 0.033449799 0.62283731
-0.005566916 0.032009751 0.62259448
-0.0056158542 0.030887216 0.6240713
-0.0056571411 0.029699981 0.62531722
-0.0056921514 0.028460771 0.62637377
-0.0057272199 0.027204275 0.62743211
-0.0057647321 0.025941283 0.62856412
-0.0058061732 0.024676204 0.62981474
-0.0058482313 0.023392946 0.63108391
-0.0058940086 0.022102505 0.63246536
-0.0059422189 0.020797789 0.63392025
-0.0059912242 0.019471496 0.6353991
-0.0060447855 0.018134356 0.63701546
-0.006100093 0.01677528 0.63868451
-0.0061564222 0.015391052 0.64038444
-0.006217991 0.013990492 0.64224243
-0.0062809805 0.012561977 0.64414328
-0.0063457224 0.011105031 0.64609706
-0.0064156558 0.0096234679 0.64820749
-0.0064871693 0.0081089735 0.65036559
-0.0065615424 0.0065615475 0.65261
-0.0066407239 0.0049805343 0.65499949
-0.0067218621 0.0033609569 0.65744805
-0.0068078553 0.0017019808 0.66004312
-0.006897693 -2.9802322e-08 0.66275424
-0.0069903969 -0.0017476082 0.66555184
-0.0070899194 -0.0035449564 0.66855514
-0.0071922909 -0.0053941905 0.67164445
-0.007301175 -0.0073011518 0.67493039
-0.0074150832 -0.0092688203 0.67836785
-0.0075349263 -0.011302412 0.68198448
-0.0076620504 -0.013408571 0.6858207
-0.0077954191 -0.015590876 0.6898455
-0.0079380432 -0.017860591 0.69414961
-0.0080884025 -0.020221025 0.69868708
-0.0082493937 -0.022685826 0.70354539
-0.0084213503 -0.025264025 0.70873463
-0.0086046578 -0.027965128 0.71426642
-0.0087810354 -0.030733645 0.71958911
-0.0089172628 -0.033439755 0.72370011
-0.0090253521 -0.036101431 0.72696197
-0.0091670183 -0.038959801 0.73123717
-0.0098469667 -0.044311315 0.75175643
-0.01018195 -0.048364252 0.76186544
-0.010576567 -0.05288285 0.77377409
-0.0043309964 0.046197295 0.62886375
-0.0043128906 0.044566542 0.62813526
-0.0042949356 0.042949378 0.6274128
-0.0042771297 0.041345596 0.62669635
-0.0042594704 0.039755046 0.6259858
-0.0042458922 0.038213015 0.62543941
-0.0042855064 0.037141085 0.62703335
-0.0042073694 0.035061389 0.62388939
-0.0041902685 0.033522189 0.62320125
-0.0041733179 0.031995445 0.62251925
-0.0041565043 0.03048104 0.62184274
-0.0041549047 0.029084355 0.62177837
-0.0041836002 0.027890682 0.62293303
-0.0042127063 0.02668047 0.62410414
-0.0042434316 0.025460601 0.6253404
-0.0042767394 0.024234861 0.62668067
-0.0043105744 0.02298978 0.62804204
-0.0043463078 0.021731555 0.62947989
-0.004384418 0.020460635 0.63101327
-0.0044232025 0.019167215 0.63257384
-0.0044640596 0.01785624 0.6342178
-0.0045073288 0.016526848 0.63595885
-0.0045514316 0.015171409 0.6377334
-0.0045978841 0.013793647 0.63960248
-0.0046468186 0.012391537 0.64157146
-0.0046968209 0.010959268 0.64358336
-0.0047496087 0.009499222 0.64570737
-0.0048049032 0.008008182 0.64793229
-0.0048615006 0.0064820051 0.65020961
-0.0049219797 0.0049220026 0.65264314
-0.0049845618 0.0033230484 0.6551612
-0.0050492994 0.0016830862 0.65776604
-0.0051184967 2.9802322e-08 0.6605503
-0.005189599 -0.001729846 0.66341126
-0.0052650673 -0.0035100281 0.66644788
-0.0053439806 -0.0053439736 0.66962302
-0.0054264911 -0.0072353184 0.67294306
-0.0055143437 -0.0091905594 0.67647791
-0.0056055272 -0.011211038 0.68014693
-0.0057037836 -0.013308823 0.68410039
-0.0058058603 -0.015482247 0.68820769
-0.0059163868 -0.017749161 0.69265497
-0.0060322462 -0.020107508 0.69731677
-0.0061575286 -0.022577584 0.70235771
-0.0062856241 -0.025142491 0.7075119
-0.0063936529 -0.027705818 0.71185869
-0.0064731133 -0.030207843 0.71505588
-0.0065572085 -0.032786041 0.7184397
-0.0066700862 -0.03557381 0.72298151
-0.0068159485 -0.038623691 0.72885054
-0.0074413493 -0.044648111 0.75401473
-0.0077322866 -0.048971176 0.76572114
-0.0081023648 -0.054015785 0.78061199
-0.0029183512 0.049611986 0.63073599
-0.0029060203 0.047949314 0.62999177
-0.0028938018 0.046300858 0.62925428
-0.0029327364 0.045457423 0.63160419
-0.0029719828 0.044579715 0.633973
-0.0030012992 0.043518841 0.63574237
-0.0028459057 0.039842695 0.62636352
-0.002834178 0.038261414 0.62565571
-0.002822547 0.036693096 0.62495369
-0.0028110112 0.035137653 0.62425745
-0.0027995612 0.033594757 0.62356639
-0.0027882119 0.032064438 0.62288135
-0.002776962 0.030546606 0.6222024
-0.0027657948 0.029040843 0.62152839
-0.0027547171 0.027547181 0.6208598
-0.002761353 0.026232839 0.62126034
-0.0027825988 0.025043398 0.62254262
-0.0028060218 0.023851216 0.62395632
-0.0028298423 0.022638708 0.62539399
-0.0028540711 0.021405548 0.62685633
-0.0028805076 0.020163536 0.62845194
-0.0029075146 0.018898845 0.63008195
-0.0029350331 0.017610192 0.63174284
-0.0029647101 0.016305894 0.63353401
-0.0029952265 0.014976114 0.63537586
-0.0030263688 0.013618678 0.63725543
-0.0030597451 0.012239009 0.63926989
-0.0030941532 0.010829538 0.64134657
-0.0031293437 0.0093880594 0.64347053
-0.0031672376 0.0079181194 0.64575762
-0.0032060912 0.0064121783 0.64810264
-0.003246394 0.0048695803 0.65053511
-0.0032892688 0.0032892823 0.65312278
-0.003333302 0.0016666651 0.65578049
-0.0033799224 2.9802322e-08 0.65859431
-0.0034286638 -0.001714319 0.6615361
-0.0034793157 -0.0034793317 0.66459322
-0.0035334565 -0.005300194 0.66786093
-0.0035893219 -0.0071786344 0.67123264
-0.0036494294 -0.0091235638 0.67486054
-0.0037118872 -0.011135668 0.67863017
-0.0037789443 -0.0132263 0.68267739
-0.003849135 -0.015396535 0.68691379
-0.0039250129 -0.017662555 0.69149339
-0.0040044715 -0.020022362 0.69628912
-0.004078385 -0.022431105 0.70075023
-0.0041357256 -0.024814337 0.704211
-0.0041820803 -0.027183503 0.70700878
-0.0042418921 -0.029693246 0.71061873
-0.0043193395 -0.032395065 0.71529311
-0.0044183931 -0.035347134 0.72127151
-0.0045624659 -0.038780987 0.72996712
-0.0050305012 -0.045274496 0.75821555
-0.0052801077 -0.050161034 0.77328062
-0.0014687271 0.05140543 0.63188899
-0.0014624809 0.04972434 0.63113499
-0.0014562919 0.048057646 0.6303879
-0.0014501465 0.04640469 0.62964612
-0.0014607389 0.04528293 0.6309247
-0.0014747485 0.044242471 0.6326158
-0.0014913195 0.043248296 0.63461614
-0.0015110548 0.042309523 0.63699841
-0.0015415952 0.041623056 0.6406849
-0.0014143612 0.036773413 0.6253264
-0.001408568 0.035214216 0.62462711
-0.0016984801 0.040763497 0.65962261
-0.0017156017 0.039458811 0.6616894
-0.0017375193 0.038225412 0.66433507
-0.001767677 0.037121207 0.66797543
-0.0013803033 0.0276061 0.62121522
-0.0013747814 0.026120842 0.62054873
-0.0013712399 0.024682343 0.62012124
-0.0013830083 0.023511171 0.6215418
-0.0013954551 0.022327304 0.62304425
-0.001408128 0.021121919 0.62457401
-0.0014212593 0.01989764 0.62615907
-0.0014352755 0.018658578 0.62785101
-0.0014495753 0.0173949 0.62957716
-0.0014642613 0.016106874 0.63134992
-0.0014800137 0.014800161 0.63325137
-0.0014961087 0.013464987 0.63519418
-0.0015126994 0.012101591 0.6371969
-0.0015304154 0.010712892 0.63933539
-0.0015485465 0.0092912912 0.64152402
-0.0015674069 0.0078370273 0.64380068
-0.0015873918 0.0063495934 0.64621305
-0.0016078878 0.0048236847 0.64868712
-0.0016295459 0.0032590926 0.65130156
-0.0016521992 0.001652211 0.65403599
-0.0016755809 -0 0.65685844
-0.0017006795 -0.0017006993 0.65988809
-0.0017265476 -0.0034530759 0.6630106
-0.0017540995 -0.0052622855 0.66633648
-0.0017829327 -0.0071317255 0.66981697
-0.0018134654 -0.0090673268 0.67350256
-0.0018457699 -0.011074603 0.67740202
-0.0018800724 -0.013160467 0.68154275
-0.0019165323 -0.015332282 0.6859439
-0.0019530613 -0.017577529 0.69035327
-0.0019834568 -0.019834548 0.6940223
-0.0020060567 -0.022066623 0.6967504
-0.002029828 -0.024357945 0.69961983
-0.0020613202 -0.026797146 0.70342135
-0.002101447 -0.029420257 0.70826501
-0.0021536832 -0.03230527 0.71457046
-0.0022366801 -0.035786867 0.72458911
-0.002458029 -0.041786462 0.7513082
-0.002586823 -0.046562821 0.76685512
0 0.053222418 0.63305664
0 0.051522493 0.63229263
0 0.05031392 0.63322812
0 0.048166126 0.63078475
0 0.046509176 0.63004017
0 0.045166612 0.63047183
0 0.044450998 0.6334551
0 0.046718836 0.6490621
0 0.045455158 0.65055931
0 0.044194341 0.65218055
0 0.042954355 0.65402281
0 0.041773975 0.65630049
0 0.040698975 0.65929812
0 0.039747328 0.6632036
0 0.040091693 0.67457485
0 0.038886398 0.67812186
0 0.037632257 0.68172878
0 0.026176661 0.62090331
0 0.024699926 0.62023926
0 0.023234963 0.61958092
0 0.022046804 0.62092805
0 0.020866513 0.6225183
0 0.019663334 0.62413889
0 0.018440843 0.62582934
0 0.017199695 0.62761331
0 0.015932351 0.62943482
0 0.014640749 0.63132763
0 0.013326019 0.63333017
0 0.01198104 0.635378
0 0.010607332 0.63751429
0 0.0092040002 0.63976753
0 0.0077656507 0.64207757
0 0.0062932372 0.64451277
0 0.0047832429 0.64706057
0 0.0032321811 0.64967763
0 0.001639396 0.65248996
0 -2.9802322e-08 0.65538996
0 -0.0016887486 0.65844691
0 -0.0034308732 0.66167086
0 -0.0052299798 0.66503733
0 -0.0070926845 0.66863859
0 -0.0090213716 0.6723935
0 -0.011026978 0.67644376
0 -0.01310733 0.6806255
0 -0.015230387 0.68440616
0 -0.017353982 0.6873551
0 -0.01948303 0.68977863
0 -0.021712124 0.6928606
0 -0.024077535 0.69679892
0 -0.02661708 0.70174944
0 -0.029419988 0.70826286
0 -0.034439743 0.73174751
0 -0.038464159 0.74478769
0 -0.043188274 0.7612617
0.0014882057 0.055063605 0.63424027
0.0014817931 0.053344578 0.63346618
0.0014853387 0.051986843 0.63389415
0.0015117991 0.051401168 0.63708824
0.0015371434 0.050725758 0.64014757
0.0015551596 0.04976511 0.6423223
0.0015678294 0.0486027 0.64385164
0.0015795045 0.047385126 0.64526105
0.0015933771 0.046207964 0.64693552
0.0016096776 0.045070976 0.64890319
0.0016305231 0.04402411 0.65141946
0.0016587775 0.043128222 0.6548301
0.0017505341 0.04376334 0.66590613
0.0017780353 0.042672843 0.66922575
0.0018059121 0.041535974 0.67259079
0.0018338569 0.040344894 0.67596406
0.001861502 0.039091557 0.67930108
0.0018800865 0.037601739 0.68154442
0.0013806614 0.02623257 0.6212585
0.0013751365 0.024752468 0.62059158
0.0013696634 0.023284316 0.61993092
0.0013642298 0.021827698 0.61927503
0.0013755638 0.020633429 0.62064314
0.0013894526 0.019452363 0.6223197
0.0014036287 0.018247187 0.62403089
0.0014184831 0.017021805 0.62582397
0.0014340497 0.015774548 0.62770301
0.0014499575 0.014499575 0.62962329
0.001466596 0.013199359 0.63163173
0.0014840786 0.011872619 0.63374209
0.0015019785 0.010513872 0.63590276
0.0015208144 0.0091249049 0.63817644
0.0015405271 0.0077026188 0.64055598
0.0015607625 0.0062430501 0.64299864
0.0015823668 0.0047470927 0.64560652
0.001604737 0.0032094717 0.64830679
0.0016280827 0.0016281307 0.65112484
0.0016528924 2.9802322e-08 0.65411967
0.0016784699 -0.0016784966 0.65720725
0.0017060668 -0.0034120977 0.66053838
0.0017346281 -0.0052039027 0.66398609
0.0017653384 -0.0070613325 0.66769308
0.001797446 -0.0089872181 0.67156887
0.0018287428 -0.01097247 0.67534667
0.0018548016 -0.01298365 0.67849231
0.0018743185 -0.014994562 0.68084818
0.0018946808 -0.017052144 0.6833061
0.0019212937 -0.019212931 0.68651861
0.0019547322 -0.021502048 0.69055498
0.0019973922 -0.023968697 0.69570446
0.0020566771 -0.026736826 0.70286083
0.0022459771 -0.031443685 0.72571135
0.002338584 -0.035078794 0.73689008
0.0025038973 -0.040062338 0.75684512
0.0029832881 0.055190831 0.6346553
0.0029704038 0.053467304 0.63387764
0.0030057793 0.052601159 0.63601279
0.0030317965 0.051540554 0.63758302
0.003052512 0.050366431 0.63883334
0.0030778798 0.049246073 0.64036441
0.0031065922 0.048152208 0.64209735
0.0031425019 0.047137529 0.6442647
0.0031908387 0.046267211 0.64718205
0.0032532648 0.045545697 0.65094984
0.0034199578 0.04616943 0.66101068
0.0034714944 0.045129418 0.66412109
0.0035239132 0.044048935 0.66728485
0.0035769416 0.042923272 0.67048544
0.0036233587 0.041668653 0.67328691
0.0036485645 0.040134221 0.67480826
0.0036747577 0.038584948 0.67638916
0.0037080774 0.037080795 0.67840016
0.0027672327 0.026288748 0.62161517
0.0027586357 0.024827719 0.62109625
0.0038658334 0.032859594 0.68792164
0.0027342297 0.021873862 0.61962324
0.002723403 0.020425528 0.61896986
0.0027512864 0.019259006 0.62065274
0.0027805576 0.018073648 0.62241936
0.0028104505 0.01686269 0.62422365
0.0028418 0.015629917 0.62611574
0.0028746079 0.014373064 0.62809587
0.0029081823 0.013086826 0.63012224
0.0029434329 0.011773735 0.63224983
0.0029803384 0.0104312 0.63447726
0.0030181813 0.0090545416 0.63676125
0.0030583518 0.007645905 0.63918579
0.0031001058 0.0062002242 0.64170587
0.0031432523 0.0047148764 0.64431
0.0031894657 0.0031894743 0.6470992
0.0032370586 0.0016185641 0.64997166
0.0032877126 -0 0.65302896
0.003340713 -0.0016703308 0.65622777
0.0033967064 -0.0033966899 0.65960729
0.0034560885 -0.0051841438 0.66319132
0.0035167797 -0.0070335865 0.66685438
0.0035702162 -0.0089255273 0.67007953
0.0036124894 -0.010837466 0.67263097
0.0036476203 -0.012766659 0.67475128
0.0036916079 -0.014766425 0.67740613
0.0037470791 -0.016861826 0.68075413
0.0038158908 -0.019079447 0.68490732
0.0039037915 -0.021470845 0.69021255
0.0040395977 -0.024237573 0.69840914
0.0043962076 -0.028575361 0.71993256
0.0045844121 -0.032090843 0.73129165
0.0049788435 -0.037341297 0.75509769
0.0045048669 0.057061672 0.63585979
0.0044852952 0.055318624 0.63507229
0.0044658794 0.053590536 0.63429105
0.0044644447 0.052085191 0.63423336
0.0045026783 0.051030368 0.63577169
0.004549983 0.050049841 0.63767511
0.0046105091 0.049178749 0.64011049
0.0046877563 0.048440158 0.64321864
0.0049398621 0.049398661 0.65336263
0.0050124922 0.048454106 0.65628499
0.005086272 0.047471851 0.65925372
0.0051600565 0.046440512 0.6622225
0.0052341507 0.045362651 0.66520393
0.0052875825 0.04406321 0.66735381
0.0053174961 0.042539984 0.66855741
0.0053588226 0.041084319 0.67022032
0.0054082498 0.039660513 0.67220908
0.0054717497 0.038302273 0.6747641
0.0055553438 0.037035614 0.67812765
0.0056411708 0.035727412 0.68158108
0.0057300418 0.034380227 0.685157
0.0058305082 0.03303957 0.68919945
0.0041100476 0.021920264 0.61997342
0.0040937383 0.020468682 0.61931723
0.0040895115 0.019084394 0.61914718
0.0041339081 0.01791361 0.62093353
0.0041801631 0.016720653 0.62279469
0.0042274776 0.015500724 0.62469846
0.0042770687 0.014256924 0.62669384
0.0043289857 0.012986988 0.62878287
0.0043821912 0.011685848 0.63092369
0.0044383346 0.010356158 0.6331827
0.004496932 0.0089938641 0.63554049
0.0045571104 0.0075952113 0.63796192
0.0046215816 0.006162107 0.64055604
0.0046881661 0.0046881735 0.64323515
0.0047580698 0.00317204 0.64604789
0.0048320331 0.0016106963 0.64902389
0.0049087815 -0 0.65211201
0.0049914238 -0.0016638041 0.65543729
0.0050768624 -0.0033845603 0.65887511
0.0051577874 -0.0051577687 0.66213125
0.0052252593 -0.0069669783 0.66484606
0.0052764681 -0.0087940991 0.6669066
0.0053292196 -0.010658413 0.66902918
0.0053981557 -0.012595713 0.67180294
0.0054843044 -0.014624804 0.67526925
0.0055900374 -0.016770124 0.67952365
0.0057281391 -0.019093782 0.68508041
0.006236943 -0.022868752 0.70555317
0.0064621903 -0.025848746 0.7146163
0.0067489888 -0.029245615 0.72615623
0.0060204919 0.05719471 0.63628232
0.0059942566 0.055446833 0.63549066
0.0059682494 0.053714216 0.63470578
0.0059424657 0.051996559 0.6339277
0.0060248058 0.05121085 0.6364125
0.0063510789 0.052396417 0.64625865
0.0064423787 0.051539034 0.64901388
0.0065337387 0.0506365 0.65177095
0.0066264323 0.049698263 0.6545682
0.0067201019 0.048720777 0.65739489
0.0068047075 0.047632962 0.65994811
0.0068548615 0.046270281 0.66146171
0.0068962909 0.044825852 0.66271192
0.0069533368 0.043458372 0.66443336
0.0070188344 0.042113006 0.66641003
0.0071074432 0.040867805 0.66908401
0.007214535 0.039679945 0.67231584
0.0073223845 0.038442522 0.67557043
0.0074360487 0.037180245 0.67900056
0.0075668893 0.035942703 0.68294901
0.0077431831 0.034844309 0.68826914
0.0079009095 0.033578902 0.69302893
0.0054917019 0.021966815 0.62032467
0.0054698791 0.020512044 0.6196661
0.0054482147 0.019068748 0.61901236
0.0054676826 0.017769992 0.61959982
0.0055298014 0.016589403 0.62147444
0.0055948808 0.015385956 0.62343842
0.0056615099 0.014153779 0.62544906
0.0057313694 0.012895584 0.62755728
0.0058046407 0.011609286 0.62976843
0.0058798101 0.010289669 0.63203692
0.0059595588 0.0089393556 0.63444352
0.0060425587 0.00755319 0.63694823
0.0061284658 0.00612849 0.63954073
0.0062204646 0.0046653152 0.64231706
0.0063152472 0.0031576455 0.64517736
0.0064166845 0.0016041994 0.64823848
0.00652256 2.9802322e-08 0.65143353
0.00662944 -0.001657337 0.65465897
0.0067211855 -0.0033605695 0.65742761
0.0067951428 -0.0050963461 0.65965945
0.0068570697 -0.0068570673 0.66152829
0.0069334884 -0.0086668432 0.66383445
0.0070285699 -0.01054284 0.66670376
0.0071448679 -0.012503505 0.67021334
0.0072905635 -0.014581144 0.67461014
0.007489474 -0.016851336 0.6806128
0.0081519857 -0.020379961 0.70060587
0.0084482953 -0.023232847 0.70954782
0.0088415099 -0.026524544 0.72141409
0.0075432006 0.057328343 0.63670683
0.0075552971 0.055909187 0.63699895
0.0076649007 0.055187315 0.63964498
0.007771764 0.054402381 0.64222491
0.0078790924 0.05357784 0.64481604
0.0079884063 0.052723497 0.6474551
0.0080974139 0.051823437 0.65008676
0.0082076602 0.050887495 0.65274835
0.0082919085 0.049751431 0.6547823
0.0083366986 0.048352867 0.65586358
0.0083949696 0.047011852 0.65727037
0.0084649017 0.045710474 0.65895873
0.008548405 0.044451714 0.66097468
0.0086628096 0.04331404 0.66373658
0.0087894481 0.042189389 0.66679394
0.0089168558 0.041017562 0.6698699
0.009053316 0.039834589 0.67316425
0.0092131821 0.038695335 0.67702383
0.0094299121 0.037719667 0.68225622
0.0096060997 0.036503196 0.68650967
0.0097485259 0.035094678 0.6899482
0.0098771509 0.03358236 0.69305342
0.010004013 0.03201285 0.69611615
0.0068518426 0.020555526 0.62001604
0.0068246657 0.01910907 0.61935997
0.0067976667 0.017673939 0.61870813
0.0068637612 0.016473055 0.62030375
0.0069454503 0.015280008 0.62227595
0.0070314975 0.014063001 0.62435329
0.007119704 0.012815446 0.62648278
0.0072123553 0.011539787 0.62871957
0.007309563 0.010233372 0.63106644
0.0074094268 0.0088913441 0.63347727
0.0075163003 0.0075163245 0.6360575
0.0076269526 0.0061015785 0.63872886
0.0077433079 0.0046459734 0.6415379
0.007866581 0.0031466186 0.64451396
0.0079931282 0.0015986264 0.64756912
0.0081107756 -2.9802322e-08 0.6504094
0.0082084946 -0.0016416907 0.65276849
0.008283644 -0.0033134222 0.6545828
0.0083601559 -0.0050161183 0.65642995
0.0084618377 -0.0067694485 0.65888476
0.0085855741 -0.0085855722 0.66187197
0.008735342 -0.010482371 0.66548777
0.0089234076 -0.012492746 0.67002803
0.0092062997 -0.014730066 0.67685765
0.0099925054 -0.017986506 0.69583839
0.010366691 -0.020733386 0.70487195
0.010884794 -0.023946553 0.71738011
0.0090730144 0.057462454 0.63713288
0.0091327699 0.05631876 0.63833511
0.009255074 0.055530459 0.64079565
0.0093789101 0.054710329 0.643287
0.0095038787 0.05385536 0.64580119
0.0096200611 0.052910328 0.64813858
0.0096947122 0.051705152 0.64964044
0.0097461706 0.050355226 0.65067565
0.0098174978 0.049087495 0.65211076
0.0099007394 0.047853589 0.65378547
0.010005205 0.046690941 0.65588713
0.010142576 0.045641571 0.65865082
0.010286449 0.044574618 0.66154534
0.010431346 0.043463945 0.66446042
0.010588593 0.042354375 0.667624
0.010776198 0.041308761 0.67139828
0.01103205 0.040450841 0.67654562
0.011220481 0.039271683 0.68033659
0.011380238 0.037934124 0.68355066
0.011525417 0.036497146 0.68647146
0.011669312 0.035007924 0.68936634
0.011813404 0.033471316 0.69226527
0.011958574 0.031889558 0.6951859
0.012102281 0.030255705 0.69807702
0.0082069272 0.019149542 0.61970854
0.0081743915 0.017711192 0.61905396
0.0081847766 0.016369581 0.61926287
0.0082843332 0.015187919 0.62126583
0.0083878664 0.013979793 0.62334871
0.0084973844 0.012746096 0.62555206
0.0086098257 0.011479765 0.62781429
0.0087285042 0.010183275 0.63020188
0.0088527966 0.0088527799 0.63270247
0.0089812176 0.0074843764 0.63528609
0.009119343 0.0060795546 0.63806498
0.0092617832 0.0046309233 0.64093065
0.0094025861 0.003134191 0.64376336
0.0095226588 0.0015871227 0.64617902
0.0096203079 -0 0.64814353
0.0097028585 -0.0016171634 0.64980435
0.0098030725 -0.0032677054 0.65182054
0.0099261748 -0.0049631 0.65429711
0.010074538 -0.006716311 0.65728194
0.01025763 -0.0085480213 0.6609655
0.010496997 -0.010496974 0.6657812
0.011395226 -0.013294429 0.68385214
0.011767239 -0.015689641 0.69133645
0.01222086 -0.018331289 0.70046264
0.012894017 -0.021489978 0.71400547
0.010657006 0.05937475 0.63837147
0.010610066 0.057597488 0.63756198
0.010710353 0.056611866 0.63929135
0.010848891 0.055794328 0.64168036
0.010959352 0.054796755 0.64358521
0.011020456 0.053527921 0.6446389
0.011087086 0.0522677 0.64578784
0.011171889 0.051071495 0.64725029
0.01126796 0.049900979 0.64890695
0.011395614 0.048838347 0.65110821
0.011552121 0.047858775 0.6538071
0.011710792 0.046843171 0.65654331
0.0118734 0.045797408 0.65934741
0.012049576 0.044755578 0.66238534
0.012271599 0.043827176 0.66621405
0.012546876 0.043017864 0.67096102
0.012751147 0.041896611 0.6744836
0.012925634 0.040623397 0.6774925
0.013085133 0.039255381 0.68024302
0.013244059 0.037840158 0.68298358
0.013403046 0.036379695 0.68572521
0.013563217 0.034876853 0.68848723
0.013721991 0.033324838 0.69122523
0.013881281 0.031728655 0.69397199
0.014045326 0.030097097 0.69680095
0.014379245 0.028758496 0.70255911
0.0095569566 0.017748654 0.61940175
0.0095191645 0.01631856 0.61875004
0.0096132476 0.015106529 0.62037247
0.009736524 0.01390934 0.62249827
0.0098649189 0.012683481 0.62471235
0.010000942 0.011429638 0.62705797
0.010140769 0.010140777 0.62946922
0.010289788 0.0088197887 0.63203895
0.010445152 0.0074608326 0.63471812
0.010603065 0.0060589314 0.63744116
0.010747985 0.0046063066 0.63994026
0.010867573 0.0031050444 0.64200246
0.010960896 0.0015658438 0.64361179
0.011055834 2.9802322e-08 0.64524895
0.011181591 -0.0015973747 0.64741755
0.01133183 -0.0032376945 0.65000838
0.011511193 -0.004933387 0.65310133
0.011732052 -0.0067040324 0.65690994
0.012028636 -0.0085918605 0.66202438
0.013056841 -0.011191607 0.67975509
0.013484369 -0.013484359 0.68712759
0.014023787 -0.016027153 0.69642949
0.014924053 -0.019188076 0.711954
0.012262639 0.061313212 0.63962686
0.012208223 0.059515119 0.63880575
0.012154251 0.057732701 0.63799143
0.012226644 0.056548268 0.63908374
0.012284881 0.055281997 0.63996243
0.012365946 0.05410099 0.64118564
0.012461378 0.052960873 0.64262563
0.012573562 0.051865965 0.64431828
0.012724163 0.050896674 0.64659071
0.012895426 0.049969822 0.64917487
0.01306752 0.049003214 0.65177155
0.013246857 0.048019886 0.6544776
0.013445035 0.047057629 0.65746784
0.013697995 0.046230704 0.66128469
0.013986901 0.045457453 0.66564393
0.014204444 0.04438892 0.66892648
0.014391305 0.043173939 0.6717459
0.014563303 0.041869491 0.6743412
0.0147355 0.040522635 0.67693949
0.014907544 0.039132297 0.67953539
0.015080925 0.037702322 0.6821515
0.015253036 0.036225945 0.68474847
0.015425376 0.034707099 0.68734884
0.01560281 0.033155978 0.6900261
0.01592016 0.031840324 0.69481462
0.010902008 0.016352981 0.61909652
0.010932408 0.015032053 0.61955523
0.01107855 0.013848186 0.62176037
0.011228621 0.012632221 0.62402475
0.011385791 0.011385769 0.6263963
0.011552157 0.010108143 0.62890655
0.011723456 0.0087925792 0.63149124
0.011888109 0.0074300468 0.63397563
0.012029731 0.0060148835 0.63611251
0.012144773 0.0045543015 0.63784844
0.012243473 0.0030609071 0.63933766
0.012361057 0.001545161 0.64111185
0.012503495 -0 0.64326108
0.01267834 -0.0015847981 0.6458993
0.012889778 -0.0032224357 0.64908963
0.01315085 -0.0049315393 0.65302891
0.013533814 -0.0067668855 0.65880734
0.014657049 -0.0091606677 0.67575574
0.015141508 -0.011356145 0.68306565
0.015777467 -0.01380527 0.69266152
0.013828258 0.061458915 0.64006662
0.013766748 0.059655905 0.6392417
0.013705784 0.057868868 0.63842398
0.013645399 0.056097746 0.63761413
0.013691866 0.05476746 0.63823736
0.013823248 0.053757101 0.63999945
0.01399448 0.052868009 0.64229608
0.014177589 0.051984489 0.64475191
0.014361613 0.051063538 0.64722013
0.014556546 0.050139219 0.64983463
0.014775968 0.049253225 0.65277767
0.015059451 0.048524886 0.65657973
0.015357899 0.047780126 0.6605826
0.015586095 0.046758324 0.66364324
0.015783301 0.045596212 0.66628826
0.015966063 0.044350177 0.6687395
0.016149979 0.043066621 0.67120624
0.016333619 0.04174149 0.67366928
0.016518576 0.040378749 0.67614996
0.016702501 0.038972527 0.67861682
0.016886389 0.037525296 0.6810832
0.017075535 0.036048353 0.68362004
0.017367736 0.034735441 0.68753916
0.012290668 0.016387552 0.61944401
0.012250778 0.014973193 0.618909
0.012414271 0.013793617 0.6211018
0.012589995 0.012589991 0.62345868
0.012770728 0.011351764 0.62588274
0.012952739 0.010074347 0.62832391
0.013116858 0.0087445974 0.63052511
0.013252621 0.0073625743 0.63234603
0.01335964 0.0059376359 0.63378143
0.013469287 0.0044897497 0.635252
0.013612237 0.0030249357 0.6371693
0.013780693 0.0015312135 0.63942868
0.013979014 -0 0.64208859
0.014218279 -0.0015797913 0.64529771
0.014528931 -0.0032286346 0.64946425
0.015163149 -0.0050543845 0.65797055
0.016201286 -0.0072005689 0.67189437
0.016759191 -0.0093106329 0.6793772
0.01750526 -0.011670172 0.68938369
0.015470623 0.063429534 0.64134485
0.015401383 0.061605543 0.64050907
0.015527852 0.060558617 0.64203566
0.015693095 0.059633762 0.64403033
0.015197197 0.056229651 0.6380443
0.015209254 0.054753333 0.63818985
0.015402806 0.053909838 0.64052624
0.01559731 0.053030908 0.64287412
0.015806722 0.0521622 0.64540195
0.016046753 0.05134961 0.64829934
0.016360249 0.050716788 0.65208364
0.016664678 0.049994022 0.65575844
0.016901324 0.049013853 0.65861499
0.017107097 0.047899842 0.6610989
0.017299082 0.046707511 0.66341627
0.017493406 0.045482874 0.66576201
0.017687142 0.044217885 0.6681006
0.017882278 0.04291749 0.67045605
0.018076738 0.041576505 0.6728034
0.018270735 0.040195614 0.67514515
0.018470235 0.038787484 0.67755336
0.018730273 0.037460566 0.68069232
0.013685245 0.016422302 0.61979342
0.013631 0.014994115 0.61913866
0.013753671 0.013753682 0.62061942
0.013946616 0.012551934 0.62294853
0.014129074 0.011303276 0.62515092
0.014286489 0.010000557 0.62705112
0.014414239 0.0086485147 0.62859321
0.014525462 0.0072627068 0.62993574
0.014655565 0.0058622062 0.63150626
0.014811616 0.0044434965 0.63338995
0.015007037 0.0030014217 0.63574886
0.01523542 0.0015235245 0.6385057
0.01551211 -0 0.64184564
0.015877897 -0.0015877783 0.6462611
0.017195223 -0.003439039 0.66216266
0.017706359 -0.0053119063 0.66833258
0.018326143 -0.0073304474 0.67581403
0.01920807 -0.009604007 0.68645984
0.01698198 0.061752647 0.64095306
0.01703164 0.060384899 0.64149797
0.01715469 0.05926165 0.64284837
0.016756309 0.056362122 0.63847661
0.016779859 0.054915905 0.638735
0.017001389 0.054095328 0.64116603
0.017261321 0.053353161 0.64401847
0.017603386 0.052810133 0.64777219
0.017911648 0.052106619 0.65115499
0.018154709 0.051163286 0.65382218
0.018367484 0.050093144 0.65615714
0.018567499 0.048950672 0.65835208
0.018770894 0.047780424 0.66058409
0.018973559 0.046571463 0.66280806
0.019177642 0.045328975 0.66504753
0.019381385 0.044048578 0.66728342
0.019584415 0.042729646 0.66951138
0.019792812 0.041384965 0.67179823
0.020014929 0.040029854 0.6742357
0.021238536 0.025100112 0.6876632
0.021463569 0.02341482 0.69013262
0.015025782 0.015025795 0.61948633
0.015079176 0.013708323 0.62007225
0.015254877 0.012481272 0.62200034
0.015403922 0.011202842 0.62363589
0.015521251 0.0098771453 0.62492347
0.015642293 0.0085321367 0.6262517
0.015797546 0.0071807206 0.62795544
0.015978053 0.0058102012 0.62993628
0.016187405 0.004414767 0.63223362
0.016444705 0.0029899478 0.63505715
0.016759932 0.0015236437 0.63851631
0.017211175 -0 0.6434682
0.018604591 -0.0016913116 0.65875912
0.019163821 -0.0034843385 0.66489589
0.019862883 -0.0054171383 0.67256719
0.020924766 -0.0076090097 0.68421996
0.018570201 0.061900675 0.64139974
0.01848701 0.060082793 0.64056289
0.018404558 0.058281094 0.63973349
0.018322784 0.056495249 0.63891089
0.018423419 0.055270255 0.63992321
0.018793341 0.054813921 0.64364427
0.019101486 0.054120898 0.64674401
0.019347876 0.053206652 0.64922249
0.019568766 0.05218336 0.65144449
0.019775784 0.051087469 0.6535269
0.019987294 0.049968243 0.65565461
0.020197742 0.048811197 0.65777153
0.02040975 0.04762274 0.65990418
0.020621724 0.046398908 0.66203648
0.020832652 0.045137435 0.66415823
0.021048678 0.043851405 0.66633129
0.021262603 0.042525172 0.6684832
0.022579107 0.028223902 0.68172622
0.022741681 0.026531994 0.68336153
0.023086909 0.025010824 0.68683428
0.016492166 0.016492158 0.62049633
0.016426519 0.015057623 0.61983597
0.016361389 0.013634503 0.6191808
0.016465437 0.012349069 0.62022746
0.016586471 0.011057675 0.62144494
0.016725311 0.0097564459 0.62284154
0.016894588 0.0084472895 0.62454438
0.017101062 0.0071254373 0.62662131
0.017338945 0.0057796538 0.62901425
0.017621415 0.0044053495 0.63185561
0.017982448 0.0029971004 0.63548732
0.018615108 0.0015512705 0.64185148
0.019968418 -0 0.65546471
0.020580798 -0.001715064 0.66162479
0.021363905 -0.0035606325 0.66950226
0.02282528 -0.0057063103 0.68420255
0.020075435 0.060226291 0.64100707
0.019985748 0.058419913 0.64017433
0.019933566 0.056734025 0.6396898
0.02023481 0.056034863 0.64248699
0.020486802 0.055156767 0.64482677
0.020714099 0.054175317 0.64693737
0.020928165 0.053125322 0.64892501
0.021146771 0.052053601 0.65095496
0.021364165 0.050945312 0.65297353
0.021582998 0.049806923 0.65500546
0.021802338 0.048635989 0.65704215
0.022020143 0.047428012 0.65906459
0.022242952 0.046196878 0.66113347
0.02246411 0.044928223 0.66318697
0.023013622 0.044256985 0.66828942
0.023969986 0.029501528 0.67716968
0.024258727 0.027990848 0.67985082
0.02466335 0.026560545 0.68360788
0.024989964 0.024989963 0.68664062
0.017904578 0.016527295 0.62084973
0.017833205 0.015089661 0.62018698
0.01776235 0.013663352 0.61952907
0.017692057 0.012248337 0.6188764
0.017772881 0.010937214 0.61962688
0.017960738 0.0096711516 0.62137127
0.018182397 0.0083919168 0.62342936
0.018449485 0.0070959628 0.62590945
0.018768247 0.0057748258 0.6288693
0.019183379 0.0044269562 0.63272399
0.020733774 0.0031898022 0.64712006
0.021296807 0.0016382337 0.65234804
0.021969793 2.9802322e-08 0.65859699
0.02285096 -0.001757741 0.66677904
0.021574421 0.05855915 0.64061677
0.021575484 0.057020932 0.64062589
0.021808159 0.056078136 0.64263207
0.022028504 0.055071265 0.64453197
0.022253279 0.05404368 0.64646995
0.022476699 0.052980781 0.64839637
0.022701561 0.0518893 0.65033507
0.022927441 0.050767928 0.65228266
0.023151353 0.049610049 0.65421331
0.023379918 0.048429847 0.65618402
0.023607392 0.047214806 0.65814531
0.024113918 0.046505392 0.66251278
0.025156654 0.032344282 0.67150342
0.025386861 0.030826956 0.67348826
0.025787409 0.029471338 0.67694193
0.026162643 0.028031409 0.68017727
0.026458504 0.026458502 0.68272817
0.019400939 0.018015176 0.62187654
0.019323127 0.01656273 0.62120557
0.019535717 0.015349507 0.62303865
0.019875949 0.014197111 0.62597215
0.019093178 0.012274176 0.61922294
0.019017758 0.010867268 0.61857271
0.019235998 0.0096179843 0.62045443
0.019521182 0.0083662271 0.6229133
0.019877078 0.0070989728 0.62598187
0.020374743 0.005821377 0.63027287
0.021988677 0.0047118664 0.64418852
0.022593414 0.0032275915 0.64940268
0.023318823 0.0016656518 0.65565729
0.024317332 2.9802322e-08 0.66426659
0.023170685 0.058699071 0.64106119
0.023080122 0.056930989 0.6403324
0.023310369 0.05594489 0.64218527
0.023539051 0.054924428 0.64402556
0.023769177 0.053876817 0.64587748
0.024000855 0.052801877 0.64774191
0.02423005 0.051690787 0.64958632
0.024463745 0.050558388 0.65146697
0.024696628 0.049393266 0.65334105
0.025156291 0.048635483 0.65704012
0.026320538 0.035094082 0.66640925
0.026481289 0.033542961 0.66770291
0.026833294 0.032199979 0.67053556
0.027245725 0.030878484 0.67385459
0.027580939 0.02941969 0.67655218
0.027853824 0.027853847 0.67874819
0.028054874 0.026184559 0.6803661
0.020831434 0.018053889 0.62223637
0.020747649 0.016598105 0.62156212
0.020946722 0.015360951 0.62316418
0.021177286 0.014118195 0.62501955
0.020500282 0.012300193 0.61957145
0.02041913 0.010890216 0.61891842
0.02057638 0.0096023381 0.62018389
0.020973766 0.0083895028 0.62338179
0.021595292 0.0071984231 0.6283834
0.023205934 0.0061882734 0.64134485
0.023851968 0.0047703981 0.64654368
0.024653228 0.0032871068 0.65299177
0.025818832 0.0017212927 0.66237181
0.024663622 0.057034642 0.6406706
0.02478925 0.055775821 0.64161831
0.025026375 0.054745197 0.64340734
0.025259953 0.05367738 0.64516956
0.02549801 0.052589625 0.6469655
0.025735715 0.051471442 0.64875889
0.026145197 0.050656319 0.6518482
0.02753829 0.036143988 0.66235828
0.027826495 0.034783125 0.6645326
0.028267255 0.033567399 0.66785789
0.028635183 0.032214582 0.67063373
0.028937625 0.030746251 0.67291546
0.029174902 0.029174924 0.67470556
0.029348163 0.027513921 0.67601275
0.029492933 0.025806278 0.67710495
0.022268035 0.018092781 0.62259728
0.022178339 0.016633779 0.62192059
0.022173179 0.015244097 0.6218816
0.022305695 0.013941079 0.62288141
0.021913353 0.01232627 0.61992145
0.021826427 0.010913193 0.61926562
0.022052793 0.0096481442 0.62097341
0.023794094 0.0089227855 0.63411057
0.024387587 0.0076211393 0.63858807
0.025087392 0.0062718391 0.64386773
0.025959868 0.0048674941 0.65044999
0.027389523 0.0034237206 0.66123593
0.026267815 0.057171166 0.6411159
0.026244231 0.055576026 0.64094841
0.026485953 0.054529905 0.64266479
0.026727803 0.053455621 0.64438212
0.02708465 0.052576095 0.64691597
0.028568394 0.038651377 0.65745145
0.028798496 0.037268639 0.65908533
0.029202975 0.036074251 0.66195738
0.029617021 0.034843534 0.66489738
0.029955899 0.033480108 0.66730362
0.0302324 0.032010734 0.66926694
0.030434027 0.030434042 0.67069864
0.03058812 0.028788835 0.67179275
0.030727567 0.027112573 0.6727829
0.030758679 0.025330663 0.67300391
0.029954104 0.022906095 0.66729087
0.023615055 0.016669452 0.62227964
0.023520112 0.015218914 0.62160552
0.023425864 0.013779908 0.62093627
0.023332307 0.012352407 0.62027192
0.023239681 0.01093632 0.61961424
0.024921907 0.010261953 0.63155913
0.025552349 0.0090184808 0.63603562
0.026298514 0.007734865 0.64133388
0.0272578 0.006413579 0.64814544
0.027879706 0.057308286 0.64156342
0.027762055 0.055524081 0.64077437
0.027978351 0.054402381 0.64222491
0.02959126 0.041098982 0.6530413
0.029744104 0.039658815 0.65406632
0.030088013 0.038445801 0.65637261
0.030538119 0.037324399 0.65939111
0.03090658 0.036057681 0.66186202
0.031212267 0.034680337 0.663912
0.031452063 0.03319943 0.66552013
0.031628899 0.031628877 0.66670603
0.031778555 0.030013055 0.66770965
0.031894244 0.028350443 0.66848546
