# .PCD v0.7 - Point Cloud Data file format
VERSION 0.7
FIELDS x y z
SIZE 4 4 4
TYPE F F F
COUNT 1 1 1
WIDTH 1340
HEIGHT 1
VIEWPOINT 0 0 0 1 0 0 0
POINTS 1340
DATA ascii
-0.013364045 0.044546813 0.72346175
-0.013236011 0.041914046 0.72088593
-0.013051135 0.039153427 0.71716648
-0.01286964 0.036463976 0.7135151
-0.012702255 0.033872694 0.71014756
-0.012546818 0.031367034 0.7070204
-0.012402103 0.028938264 0.70410895
-0.012268255 0.026581228 0.70141613
-0.012142418 0.02428481 0.69888455
-0.012023614 0.022043318 0.69649434
-0.011912262 0.019853771 0.69425416
-0.011808385 0.017712593 0.6921643
-0.01170982 0.015613109 0.69018131
-0.011616842 0.013552964 0.6883108
-0.01153064 0.011530608 0.68657649
-0.01144859 0.0095404983 0.68492579
-0.011371789 0.0075812042 0.6833806
-0.011300816 0.0056504309 0.68195277
-0.011233539 0.0037445128 0.68059927
-0.011171672 0.0018619299 0.67935461
-0.011115006 -0 0.67821455
-0.01106205 -0.0018436909 0.67714918
-0.01101497 -0.0036716759 0.67620206
-0.010973299 -0.0054866672 0.67536366
-0.010931903 -0.0072879493 0.6745308
-0.010869446 -0.0090578794 0.67327434
-0.010784018 -0.01078403 0.67155564
-0.010687123 -0.012468308 0.66960627
-0.010596703 -0.014128894 0.66778708
-0.010520319 -0.015780449 0.66625035
-0.010462501 -0.017437488 0.66508722
-0.0104228 -0.019108474 0.66428846
-0.010413364 -0.020826697 0.66409862
-0.011101484 -0.024053246 0.67794251
-0.012210307 0.056167424 0.74938083
-0.011819648 0.052006453 0.73994946
-0.011132938 0.046758354 0.72337079
-0.011024858 0.04409942 0.72076154
-0.01095337 0.041622788 0.71903569
-0.010860601 0.039098173 0.71679598
-0.010717487 0.036439478 0.713341
-0.010568622 0.033819586 0.70974708
-0.010431224 0.03129366 0.70642996
-0.010304055 0.02885136 0.70335984
-0.010186456 0.026484817 0.70052069
-0.010076216 0.024182945 0.69785929
-0.0099724699 0.021939427 0.69535464
-0.0098748906 0.01974979 0.69299883
-0.0097842878 0.017611712 0.69081151
-0.0096983025 0.015517294 0.68873566
-0.0096165864 0.013463259 0.68676281
-0.0095412545 0.011449486 0.68494421
-0.0094694244 0.0094694197 0.68321007
-0.0094013512 0.0075210929 0.6815666
-0.0093386732 0.0056031942 0.68005347
-0.0092789605 0.003711611 0.67861181
-0.0092232693 0.0018446743 0.67726737
-0.0091720074 -0 0.6760298
-0.0091234744 -0.0018246472 0.67485803
-0.0090796007 -0.0036318302 0.67379892
-0.0090396423 -0.0054238141 0.67283416
-0.0090027219 -0.0072021484 0.67194289
-0.0089709563 -0.0089709759 0.67117602
-0.0089336997 -0.010720432 0.67027652
-0.0088760452 -0.012426466 0.66888463
-0.0088008884 -0.014081389 0.66707015
-0.0087234322 -0.015702158 0.66520023
-0.0086556757 -0.017311335 0.66356444
-0.0085986163 -0.018916965 0.66218686
-0.0085535487 -0.020528525 0.6610989
-0.0085258568 -0.022167236 0.66043025
-0.0085368827 -0.023903251 0.66069651
-0.0091397054 -0.02741912 0.67524993
-0.0096393852 0.053016603 0.7454921
-0.0088890642 0.046667576 0.72284919
-0.0087668803 0.043834418 0.71916199
-0.0086799273 0.041229665 0.71653783
-0.0086207809 0.038793504 0.71475297
-0.0085545294 0.036356747 0.71275365
-0.0084508639 0.033803433 0.70962524
-0.0083336523 0.031251192 0.70608819
-0.0082259309 0.028790772 0.70283735
-0.0081264656 0.026411027 0.69983572
-0.0080335997 0.02410081 0.69703323
-0.0079464903 0.021852851 0.69440448
-0.0078643691 0.01966092 0.6919263
-0.0077885021 0.017524123 0.68963677
-0.0077166129 0.015433252 0.68746734
-0.0076482594 0.013384461 0.68540454
-0.007584726 0.011377096 0.6834873
-0.0075246152 0.009405762 0.68167323
-0.0074671763 0.0074671805 0.67993987
-0.0074142865 0.0055607259 0.67834377
-0.0073638735 0.0036819279 0.67682254
-0.0073161745 0.0018289983 0.67538303
-0.0072723911 -2.9802322e-08 0.67406178
-0.0072306423 -0.0018076599 0.67280185
-0.007192187 -0.0035960972 0.67164135
-0.0071567991 -0.0053676069 0.67057347
-0.0071234815 -0.0071234703 0.669568
-0.0070941919 -0.0088677406 0.66868407
-0.0070676371 -0.010601461 0.6678828
-0.0070430143 -0.012325287 0.66713971
-0.0070078247 -0.014015615 0.66607773
-0.0069580507 -0.015655607 0.6645757
-0.0068979305 -0.017244786 0.66276139
-0.00683863 -0.018806219 0.66097188
-0.006790048 -0.020370156 0.65950578
-0.0067495862 -0.021936148 0.65828472
-0.0067188386 -0.02351594 0.65735686
-0.0067030196 -0.025136352 0.65687948
-0.0067233755 -0.026893467 0.65749371
-0.0072427313 -0.030781597 0.67316663
-0.0071379216 0.049965441 0.74180567
-0.0065689743 0.043793172 0.71891308
-0.0064738113 0.041000813 0.71508396
-0.0064082281 0.038449407 0.71244514
-0.0063627842 0.036055773 0.71061659
-0.0063184057 0.033698171 0.70883095
-0.0062483139 0.031241566 0.7060107
-0.0061626858 0.028759211 0.70256525
-0.0060833395 0.026361167 0.69937259
-0.0060097375 0.024038941 0.69641107
-0.0059409738 0.021783561 0.69364423
-0.005876387 0.019587964 0.69104552
-0.0058164564 0.017449379 0.68863404
-0.0057601212 0.015360355 0.68636727
-0.0057066455 0.013315499 0.68421561
-0.0056564552 0.011312902 0.68219608
-0.0056093815 0.0093489587 0.68030202
-0.0055644456 0.0074192584 0.67849398
-0.0055224383 0.0055224597 0.67680371
-0.0054828417 0.003655225 0.67521042
-0.0054448559 0.0018149316 0.67368203
-0.0054101017 -0 0.67228365
-0.0053768856 -0.0017922819 0.67094713
-0.0053456929 -0.0035637915 0.66969204
-0.005317044 -0.0053170323 0.66853929
-0.0052897441 -0.0070529878 0.66744077
-0.0052651595 -0.0087752342 0.66645157
-0.0052424865 -0.010484964 0.66553932
-0.0052213334 -0.01218313 0.66468817
-0.005203505 -0.013876021 0.66397083
-0.0051836492 -0.015550941 0.66317189
-0.005153785 -0.01717931 0.6619702
-0.0051142764 -0.018752337 0.66038048
-0.0050707399 -0.020282954 0.6586287
-0.0050299433 -0.021796405 0.65698719
-0.0049955104 -0.02331239 0.65560174
-0.0049687717 -0.024843842 0.65452582
-0.004949423 -0.0263969 0.65374732
-0.0049420903 -0.028005183 0.65345222
-0.005247545 -0.03148526 0.66574281
-0.004701118 0.047011197 0.73833549
-0.0043160049 0.041002065 0.71509182
-0.004250342 0.038253099 0.71112871
-0.0042064274 0.035754651 0.70847827
-0.0041755191 0.033404171 0.70661283
-0.004148447 0.031113327 0.70497888
-0.0041066702 0.028746694 0.70245743
-0.0040518814 0.026337236 0.69915056
-0.003999718 0.02399835 0.69600224
-0.0039512971 0.021732122 0.69307983
-0.0039060314 0.019530177 0.69034779
-0.0038639379 0.017387718 0.6878072
-0.0038246119 0.015298456 0.68543369
-0.0037874114 0.013255954 0.68318844
-0.0037521929 0.011256576 0.68106282
-0.0037194891 0.009298712 0.67908895
-0.0036882742 0.0073765516 0.67720497
-0.0036587159 0.0054880679 0.675421
-0.0036311683 0.0036311746 0.67375833
-0.0036047467 0.0018023849 0.67216361
-0.0035800766 -0 0.67067462
-0.0035567908 -0.001778394 0.6692692
-0.0035345424 -0.0035345554 0.66792643
-0.0035142114 -0.0052713156 0.66669935
-0.0034947468 -0.0069894791 0.66552454
-0.0034767771 -0.0086919367 0.66443998
-0.0034601635 -0.010380447 0.66343725
-0.0034444069 -0.012055427 0.66248631
-0.003430709 -0.013722837 0.66165954
-0.0034179837 -0.015380919 0.66089153
-0.0034065347 -0.017032653 0.66020048
-0.0033920552 -0.018656284 0.65932655
-0.00337019 -0.020221144 0.65800685
-0.0033425989 -0.021726906 0.65634167
-0.0033146979 -0.023202896 0.65465766
-0.0032901771 -0.024676323 0.65317768
-0.0032691425 -0.026153147 0.65190816
-0.0032525035 -0.027646273 0.65090382
-0.0032419141 -0.029177248 0.65026474
-0.0032398463 -0.030778557 0.65013993
-0.0034508088 -0.034508109 0.66287267
-0.0023060346 0.043814629 0.73296094
-0.0021272399 0.038290352 0.71137851
-0.0020934986 0.035589486 0.70730555
-0.0020713471 0.033141553 0.70463157
-0.0020556042 0.030834079 0.70273125
-0.0020430225 0.028602302 0.70121258
-0.0020244243 0.026317537 0.69896758
-0.001998421 0.023981005 0.69582868
-0.0019727042 0.021699786 0.69272441
-0.0019488091 0.019488096 0.68984002
-0.0019265906 0.017339319 0.68715799
-0.0019059685 0.015247792 0.68466866
-0.0018865156 0.013205618 0.68232054
-0.0018680765 0.011208445 0.68009472
-0.0018509454 0.0092547238 0.67802685
-0.0018347041 0.0073388517 0.67606628
-0.0018191752 0.0054575503 0.67419177
-0.0018047917 0.0036095977 0.67245555
-0.0017910377 0.00179106 0.67079532
-0.0017779847 -0 0.66921961
-0.001765818 -0.0017658174 0.66775107
-0.0017541118 -0.0035082102 0.66633797
-0.0017432824 -0.0052298307 0.66503072
-0.0017329939 -0.0069319308 0.6637888
-0.0017232769 -0.0086163878 0.6626159
-0.0017143554 -0.010286123 0.6615389
-0.0017058108 -0.011940688 0.6605075
-0.0016981399 -0.01358512 0.6595816
-0.0016909721 -0.015218735 0.65871632
-0.0016843689 -0.016843677 0.65791923
-0.0016786559 -0.018465221 0.65722966
-0.0016727633 -0.020073146 0.65651834
-0.0016642341 -0.021635056 0.65548879
-0.0016526522 -0.023137122 0.6540907
-0.0016391013 -0.024586529 0.65245497
-0.0016257074 -0.026011318 0.6508382
-0.0016146904 -0.027449727 0.64950824
-0.0016053393 -0.028896093 0.6483795
-0.0015979261 -0.030360609 0.64748466
-0.0015933871 -0.031867743 0.64693677
-0.001595455 -0.033504516 0.64718634
-0.0017054271 -0.037519395 0.66046119
0 0.041017324 0.72966611
0 0.035654962 0.70777059
0 0.033015281 0.70367885
0 0.030606478 0.70089978
0 0.028342098 0.69896853
0 0.026161522 0.69751883
0 0.023951411 0.69553041
0 0.021688104 0.69259679
0 0.019462705 0.68953347
0 0.017304778 0.68669504
0 0.015208483 0.68407607
0 0.013164639 0.6816135
0 0.01116845 0.6792894
0 0.0092167854 0.67711067
0 0.0073058009 0.67507029
0 0.0054309666 0.67312318
0 0.0035903454 0.67129332
0 0.0017808974 0.66956794
0 -0 0.66791135
0 -0.0017544329 0.66637731
0 -0.0034844577 0.66490543
0 -0.0051921606 0.66351455
0 -0.0068797767 0.66221333
0 -0.0085476935 0.66095704
0 -0.010200471 0.65981555
0 -0.011836827 0.65871704
0 -0.013460457 0.65770113
0 -0.015072703 0.65675759
0 -0.016673505 0.65586495
0 -0.01826942 0.65508133
0 -0.019857079 0.65434468
0 -0.021441996 0.65369618
0 -0.023002356 0.65292859
0 -0.024502367 0.65177798
0 -0.02594009 0.65030092
0 -0.027338505 0.64871836
0 -0.028724492 0.64722878
0 -0.030122608 0.64597261
0 -0.031542599 0.64497435
0 -0.032987773 0.64421588
0 -0.034489453 0.64383626
0 -0.036162168 0.64438748
0 -0.040490389 0.65824896
0.0022520728 0.038285255 0.72644717
0.0020692481 0.033107996 0.70437831
0.0020342597 0.030513883 0.70015478
0.0020107809 0.028150946 0.69732064
0.0019941919 0.025924504 0.69531822
0.0019825059 0.023790091 0.6939075
0.0019677314 0.021645069 0.69212413
0.0019455734 0.019455731 0.68944943
0.0019206079 0.017285466 0.68643582
0.0018976413 0.015181154 0.68366349
0.0018761879 0.013133317 0.68107384
0.0018560193 0.011136115 0.67863929
0.0018369942 0.0091849864 0.67634279
0.0018193736 0.0072774887 0.67421579
0.0018026071 0.00540784 0.6721918
0.0017866443 0.0035732985 0.67026496
0.0017718207 0.0017718375 0.66847563
0.0017575809 -0 0.66675669
0.0017441515 -0.0017441511 0.66513562
0.0017315067 -0.0034630001 0.66360927
0.0017192978 -0.0051578581 0.66213554
0.0017080702 -0.0068322718 0.66078019
0.0016972126 -0.0084860623 0.6594696
0.001687078 -0.010122448 0.65824628
0.0016774965 -0.011742473 0.65708965
0.0016683904 -0.013347119 0.65599048
0.0016600378 -0.014940321 0.65498221
0.0016519921 -0.016519904 0.65401101
0.0016447965 -0.018092752 0.65314245
0.0016379906 -0.019655883 0.65232086
0.001631794 -0.021213293 0.65157282
0.0016262993 -0.022768199 0.6509096
0.0016210568 -0.024315834 0.65027678
0.0016137894 -0.025820643 0.64939952
0.0016036363 -0.027261794 0.64817393
0.0015909654 -0.028637379 0.64664441
0.0015783337 -0.029988348 0.64511967
0.001567186 -0.031343728 0.64377403
0.0015574541 -0.032706529 0.64259923
0.0015498991 -0.034097791 0.64168733
0.0015446647 -0.035527289 0.64105546
0.001542831 -0.037027955 0.64083409
0.0016374598 -0.0409365 0.65225685
0.0016830601 -0.043759584 0.65776128
0.0044536111 0.035628915 0.72339714
0.0040856786 0.030642599 0.70119047
0.0040117595 0.028082341 0.696729
0.0039646029 0.025769919 0.69388294
0.0039304397 0.023582667 0.69182098
0.0039068088 0.021487445 0.69039464
0.003880359 0.019401819 0.68879831
0.0038402723 0.017281264 0.68637884
0.0037917164 0.015166879 0.68344826
0.0037463354 0.013112187 0.68070924
0.0037039323 0.011111826 0.67815
0.0036640207 0.0091600418 0.67574114
0.0036269568 0.0072539449 0.67350411
0.0035920148 0.0053880215 0.67139518
0.0035587386 0.0035587251 0.6693868
0.0035276397 0.0017638206 0.66750979
0.0034981433 -0 0.66572952
0.0034698213 -0.0017349124 0.66402018
0.0034436125 -0.0034436285 0.66243833
0.0034183224 -0.0051274598 0.66091192
0.0033945404 -0.0067890584 0.65947652
0.0033720068 -0.0084300041 0.65811658
0.0033504101 -0.01005125 0.65681309
0.0033304065 -0.011656404 0.65560579
0.0033110131 -0.013244033 0.65443522
0.003293274 -0.014819741 0.6533646
0.0032762173 -0.016381085 0.65233511
0.0032604192 -0.017932326 0.65138167
0.0032456783 -0.019474089 0.65049195
0.0032317897 -0.021006644 0.64965367
0.0032194278 -0.02253601 0.6489076
0.0032077045 -0.024057776 0.64820004
0.0031976087 -0.025580853 0.6475907
0.0031862163 -0.027082831 0.6469031
0.0031697457 -0.028527707 0.64590901
0.0031481173 -0.029907107 0.64460361
0.0031235516 -0.031235486 0.64312094
0.0030992222 -0.032541841 0.64165258
0.0030791583 -0.033870757 0.6404416
0.0030617861 -0.03521055 0.63939309
0.0030474828 -0.036569804 0.63852978
0.0030386918 -0.037983656 0.63799918
0.003037465 -0.039487064 0.63792515
0.00323321 -0.043648332 0.64973944
0.0066219768 0.033109903 0.72104567
0.0060512624 0.02823922 0.69808191
0.0059348666 0.025717765 0.69339854
0.0058638765 0.023455471 0.6905421
0.0058121318 0.021311134 0.68846005
0.0057756351 0.019252151 0.68699157
0.0057400772 0.017220259 0.68556076
0.0056850542 0.015160173 0.68334687
0.0056152148 0.013102174 0.68053669
0.0055479724 0.011095971 0.67783105
0.0054850657 0.0091418028 0.67529994
0.0054263538 0.0072351396 0.67293751
0.0053716521 0.00537166 0.67073655
0.0053197197 0.0035464764 0.66864687
0.0052705575 0.0017569065 0.66666877
0.0052246954 5.9604645e-08 0.66482341
0.0051806974 -0.0017268956 0.66305304
0.0051392983 -0.0034261942 0.66138732
0.0051000798 -0.0051001012 0.65980929
0.0050623775 -0.0067498088 0.65829223
0.0050273994 -0.0083789825 0.65688485
0.0049934997 -0.0099869668 0.6555208
0.0049619391 -0.011577874 0.65425098
0.0049316823 -0.013151169 0.65303349
0.0049031372 -0.014709443 0.65188491
0.0048763305 -0.016254455 0.65080631
0.0048506614 -0.017785758 0.64977348
0.0048271692 -0.019308656 0.64882821
0.0048043956 -0.020819068 0.64791191
0.0047841072 -0.022325814 0.6470955
0.0047646849 -0.02382341 0.64631402
0.0047472054 -0.025318444 0.64561075
0.0047313147 -0.026810795 0.64497137
0.004716686 -0.028300107 0.64438272
0.0046983203 -0.02975601 0.64364374
0.0046708938 -0.031139284 0.64254022
0.0046366421 -0.032456487 0.64116198
0.0046009421 -0.033740222 0.63972557
0.004567191 -0.035015136 0.63836747
0.0045387843 -0.036310256 0.6372245
0.0045156544 -0.037630469 0.63629389
0.0044972817 -0.038976431 0.63555455
0.0044861529 -0.040375382 0.6351068
0.0044919257 -0.041924655 0.63533908
0.0047948966 -0.046350658 0.6475296
0.0087539963 0.030638993 0.71877313
0.0079717161 0.025908083 0.69516575
0.0078057558 0.023417294 0.69015741
0.0077108154 0.02120474 0.68729234
0.0076412223 0.01910305 0.68519223
0.0075913714 0.017080635 0.68368781
0.0075474004 0.015094817 0.68236089
0.0074816355 0.013092875 0.68037623
0.0073929247 0.011089355 0.67769921
0.0073042931 0.0091303587 0.67502445
0.0072214329 0.0072214305 0.67252398
0.0071450463 0.0053588152 0.67021877
0.0070727821 0.0035364032 0.66803801
0.007004146 0.0017510653 0.66596669
0.00694022 -0 0.66403759
0.0068794843 -0.0017198622 0.66220474
0.0068213358 -0.0034106672 0.66044992
0.006767319 -0.0050754845 0.65881985
0.0067151641 -0.0067151785 0.65724599
0.006666116 -0.0083326399 0.65576577
0.0066194637 -0.0099292099 0.65435791
0.0065748421 -0.011505991 0.65301132
0.0065330989 -0.013066202 0.65175164
0.0064925775 -0.014608324 0.65052885
0.0064553865 -0.016138464 0.64940643
0.0064191539 -0.01765269 0.64831305
0.0063857906 -0.01915738 0.6473062
0.0063537806 -0.020649821 0.64634025
0.0063240672 -0.022134244 0.64544356
0.0062962151 -0.023610801 0.64460301
0.0062700794 -0.025080323 0.64381433
0.0062465183 -0.02654767 0.6431033
0.006223985 -0.028007925 0.64242327
0.0062049595 -0.029473543 0.6418491
0.0061845588 -0.0309228 0.6412335
0.0061562518 -0.032320321 0.64037925
0.0061181248 -0.033649653 0.6392287
0.0060720365 -0.034914196 0.63783783
0.0060260575 -0.036156386 0.63645029
0.0059853294 -0.037408322 0.63522124
0.0059491424 -0.038669437 0.63412917
0.005921579 -0.039970636 0.63329738
0.0059009418 -0.041306585 0.63267463
0.0058909552 -0.04270944 0.63237321
0.0059074736 -0.04430604 0.63287163
0.0063265059 -0.049030423 0.64551711
0.0098711886 0.02369085 0.69290948
0.0096287634 0.021183252 0.68705684
0.0095076058 0.019015223 0.6841318
0.0094198994 0.016955793 0.68201441
0.0093562063 0.014969915 0.68047673
0.0093042552 0.013025969 0.67922252
0.0092310971 0.011077344 0.67745632
0.0091265021 0.0091265142 0.67493117
0.0090170316 0.0072135925 0.6722883
0.008915998 0.0053496063 0.66984916
0.0088214315 0.0035285652 0.66756612
0.0087319883 0.0017464161 0.66540682
0.0086477473 2.9802322e-08 0.66337299
0.0085689584 -0.0017137825 0.66147089
0.008493525 -0.0033974051 0.65964973
0.0084226392 -0.00505355 0.65793836
0.00835538 -0.0066843033 0.65631461
0.0082907276 -0.0082907379 0.6547538
0.0082305847 -0.0098766685 0.65330178
0.0081722429 -0.011441141 0.65189332
0.0081178285 -0.012988508 0.65057963
0.0080654351 -0.014517784 0.64931476
0.0080160238 -0.01603204 0.64812183
0.0079690926 -0.017532021 0.64698887
0.0079243891 -0.019018531 0.64590961
0.0078825932 -0.020494759 0.64490056
0.0078423657 -0.021958619 0.64392936
0.0078055658 -0.023416668 0.64304096
0.0077696885 -0.024863005 0.64217478
0.0077378475 -0.026308656 0.64140606
0.0077070021 -0.027745217 0.64066142
0.0076795588 -0.029182285 0.63999885
0.0076540206 -0.030616075 0.6393823
0.0076310239 -0.032050252 0.63882709
0.0076034716 -0.033455312 0.63816202
0.0075636567 -0.034792811 0.63720071
0.0075129815 -0.03606233 0.63597739
0.0074571092 -0.037285537 0.63462847
0.0074016009 -0.038488299 0.63328838
0.0073557263 -0.039720923 0.63218087
0.0073152059 -0.04096514 0.63120264
0.0072818617 -0.042234778 0.63039762
0.007260602 -0.043563634 0.62988436
0.0072538443 -0.04497382 0.62972116
0.0073194643 -0.046844587 0.63130546
0.0078551201 -0.051843792 0.64423728
0.012260339 0.022477299 0.70125687
0.011407306 0.019012213 0.6840952
0.011256199 0.016884297 0.68105519
0.011150219 0.014867008 0.67892301
0.01107225 0.012917608 0.6773544
0.011011939 0.011011928 0.67614102
0.01093274 0.0091106296 0.67454767
0.010817591 0.0072117448 0.67223108
0.010688836 0.0053444207 0.66964072
0.010569432 0.0035231411 0.66723847
0.010457107 0.0017428398 0.66497874
0.010350749 -0 0.66283894
0.010252095 -0.0017086864 0.66085416
0.010158295 -0.0033860803 0.65896702
0.010068592 -0.0050343275 0.65716237
0.0099853044 -0.0066568553 0.65548676
0.0099049537 -0.0082541108 0.65387022
0.0098292632 -0.0098292828 0.65234745
0.0097571937 -0.011383414 0.6508975
0.0096881725 -0.012917548 0.64950889
0.009623453 -0.014435202 0.64820683
0.0095605664 -0.015934289 0.64694166
0.0095024947 -0.017421246 0.64577335
0.0094457185 -0.018891424 0.64463115
0.0093933484 -0.020352215 0.64357752
0.0093425149 -0.021799207 0.64255476
0.0092953928 -0.02323845 0.64160681
0.0092502255 -0.024667263 0.64069808
0.009208235 -0.026089996 0.63985336
0.0091686947 -0.027506083 0.63905782
0.0091317426 -0.028917193 0.63831443
0.0090980073 -0.030326694 0.63763571
0.0090661375 -0.031731486 0.63699448
0.0090385145 -0.033141226 0.63643879
0.0090111401 -0.03454268 0.6358881
0.008974961 -0.035899848 0.63516021
0.0089237411 -0.037182242 0.6341297
0.0088595897 -0.03839156 0.63283914
0.0087944726 -0.0395751 0.63152903
0.0087326933 -0.04075256 0.63028616
0.0086807273 -0.041956842 0.62924069
0.0086374702 -0.04318735 0.6283704
0.0086426921 -0.044653922 0.62847549
0.0087073399 -0.046439156 0.62977612
0.0087729618 -0.048251286 0.63109624
0.0091243042 -0.051704377 0.63816476
0.014138364 0.02019769 0.69840527
0.01314115 0.016895771 0.68120897
0.012960021 0.014811486 0.67808551
0.012834128 0.012834132 0.67591459
0.012741452 0.01092124 0.67431641
0.012673266 0.0090523362 0.67314053
0.012589313 0.0071938932 0.67169285
0.012467467 0.0053432286 0.66959167
0.012321114 0.0035203397 0.66706789
0.012183281 0.0017404854 0.66469109
0.012053515 -0 0.66245335
0.011931889 -0.0017045438 0.66035599
0.011818193 -0.0033766329 0.65839529
0.011709578 -0.0050183833 0.65652239
0.011607441 -0.0066328049 0.65476108
0.011510775 -0.0082220137 0.65309417
0.011417718 -0.0097866058 0.65148938
0.011331244 -0.01133123 0.64999825
0.0112473 -0.012854069 0.64855069
0.011168648 -0.014359683 0.64719439
0.011093056 -0.015847206 0.64589083
0.011021427 -0.017319381 0.64465564
0.01095332 -0.018777132 0.64348114
0.010888215 -0.020220995 0.64235848
0.010826958 -0.02165392 0.64130211
0.010767976 -0.023074239 0.64028502
0.010713203 -0.024487346 0.63934046
0.010660119 -0.02588886 0.63842511
0.01061161 -0.027287006 0.63758856
0.01056424 -0.028674394 0.63677174
0.010521998 -0.030062824 0.63604325
0.010480784 -0.031442344 0.63533258
0.010444529 -0.032825649 0.63470739
0.01041001 -0.034204334 0.63411212
0.010379591 -0.035587192 0.63358754
0.010344888 -0.036946028 0.63298911
0.010296594 -0.038244486 0.63215631
0.010233777 -0.039473146 0.63107312
0.010160184 -0.040640742 0.62980402
0.010086596 -0.041787326 0.62853503
0.010062371 -0.043124452 0.62811732
0.010137482 -0.044894576 0.62941253
0.010239641 -0.046809763 0.63117421
0.010291119 -0.048515245 0.6320619
0.010369696 -0.050367087 0.63341695
0.010449452 -0.052247271 0.63479227
0.010530508 -0.054156885 0.63619006
0.015984114 0.017982125 0.69577956
0.01483187 0.014831871 0.6783936
0.014623155 0.012795269 0.67524427
0.014475301 0.010856479 0.67301339
0.014366202 0.0089788437 0.67136717
0.014289327 0.0071446896 0.67020726
0.014203183 0.0053262115 0.66890746
0.014074936 0.0035187304 0.66697228
0.013914844 0.0017393529 0.66455668
0.013758874 -0 0.66220331
0.013612006 -0.001701504 0.65998721
0.013476312 -0.0033690631 0.65793979
0.01334739 -0.0050052702 0.65599453
0.013224319 -0.0066121221 0.65413749
0.013110191 -0.0081938803 0.65241539
0.013000296 -0.0097502172 0.65075719
0.012896464 -0.011284411 0.64919055
0.012797918 -0.012797922 0.64770365
0.012703124 -0.014291018 0.64627326
0.012614413 -0.015767992 0.64493471
0.012527914 -0.017225891 0.64362955
0.01244797 -0.01867193 0.64242327
0.012369767 -0.020100862 0.64124328
0.01229711 -0.021519899 0.64014697
0.01222642 -0.022924542 0.63908035
0.012160638 -0.024321258 0.63808775
0.01209706 -0.025706232 0.63712847
0.012037833 -0.027085155 0.63623482
0.011981086 -0.028455108 0.63537854
0.011928245 -0.029820591 0.63458121
0.011878301 -0.031180531 0.63382763
0.01183178 -0.032537371 0.63312566
0.011788746 -0.033892632 0.63247639
0.01174861 -0.035245836 0.63187075
0.011712959 -0.036602974 0.63133281
0.011679296 -0.037957698 0.63082492
0.011636619 -0.03927359 0.6301809
0.011575006 -0.040512502 0.62925124
0.011498762 -0.041683018 0.62810087
0.0115617 -0.043356389 0.62905049
0.011846347 -0.045904577 0.63334548
0.011758998 -0.047035977 0.63202751
0.011825943 -0.048782021 0.63303763
0.011916776 -0.05064629 0.63440818
0.012008943 -0.052539125 0.63579887
0.012102583 -0.054461643 0.6372118
0.012197732 -0.056414515 0.6386475
0.012294315 -0.058397964 0.64010477
0.017793274 0.015816271 0.6932466
0.016481092 0.012818664 0.67564726
0.01624459 0.010829717 0.67247522
0.016076928 0.0089316368 0.67022645
0.015952433 0.0070899725 0.66855669
0.015863139 0.0052877367 0.66735905
0.015775723 0.0035057366 0.66618663
0.015643269 0.001738131 0.66441011
0.015471288 -0 0.66210341
0.01529764 -0.0016997457 0.65977442
0.015135933 -0.0033635497 0.65760559
0.014984885 -0.0049949586 0.65557963
0.014841027 -0.006595999 0.65365022
0.014705761 -0.0081698596 0.65183598
0.014578128 -0.0097187459 0.65012413
0.014455197 -0.011242956 0.64847535
0.014341032 -0.012747556 0.64694411
0.014230545 -0.014230549 0.64546221
0.014126355 -0.015695959 0.64406484
0.014026648 -0.017143697 0.64272749
0.01393153 -0.018575341 0.64145172
0.013841392 -0.019993097 0.64024282
0.013754681 -0.02139616 0.63907981
0.013673157 -0.022788584 0.63798636
0.013594238 -0.024167567 0.6369279
0.013520688 -0.0255391 0.63594145
0.013449174 -0.026898354 0.63498223
0.013383105 -0.028253198 0.63409615
0.013318626 -0.029596955 0.63323128
0.01325984 -0.030939609 0.63244283
0.013202305 -0.032272309 0.63167119
0.013150759 -0.033607513 0.63097984
0.013100106 -0.034933627 0.63030046
0.01305605 -0.036266804 0.6297096
0.013013114 -0.037593424 0.6291337
0.012976179 -0.038928539 0.62863827
0.012935995 -0.040245295 0.62809938
0.012979995 -0.04182446 0.62868947
0.013077243 -0.043590814 0.6299938
0.013243111 -0.045615152 0.63221848
0.013276102 -0.047203913 0.63266098
0.015216281 -0.055793017 0.65868318
0.013909712 -0.052547798 0.64115918
0.013778628 -0.053583547 0.63940096
0.013692491 -0.054769933 0.63824564
0.013800711 -0.056736261 0.63969719
0.013910657 -0.058733925 0.64117181
0.014022368 -0.060763583 0.64267009
0.019568499 0.013697952 0.69081062
0.018094977 0.010856956 0.67302358
0.017825769 0.0089128911 0.669774
0.017638136 0.0070552528 0.66750908
0.017498055 0.0052494109 0.66581815
0.017396035 0.0034792423 0.66458666
0.017305125 0.0017305315 0.66348922
0.017173799 -0 0.66190404
0.016991779 -0.0016991794 0.65970683
0.016801046 -0.003360182 0.65740442
0.016625253 -0.0049875677 0.6552825
0.016458787 -0.0065835118 0.65327305
0.016300239 -0.0081501305 0.6513592
0.016153367 -0.0096920133 0.64958632
0.016012501 -0.011208743 0.64788592
0.015878754 -0.012703001 0.64627141
0.015752679 -0.014177382 0.64474958
0.015630638 -0.015630633 0.64327645
0.015517209 -0.017068923 0.64190722
0.015406504 -0.018487811 0.64057088
0.015303218 -0.019894183 0.63932407
0.015202831 -0.021283954 0.63811231
0.015108678 -0.022663027 0.63697577
0.015017577 -0.024028093 0.63587606
0.014931887 -0.025384218 0.6348418
0.014849287 -0.026728749 0.63384467
0.014771649 -0.028066099 0.63290751
0.014697063 -0.02939412 0.63200724
0.014627075 -0.030716866 0.63116229
0.014560164 -0.032032341 0.63035464
0.014497726 -0.033344775 0.62960094
0.014438446 -0.034652263 0.62888539
0.014383452 -0.035958618 0.62822157
0.014331953 -0.037263066 0.6275999
0.014286531 -0.038573623 0.62705159
0.01439243 -0.04029882 0.62832987
0.014500079 -0.042050213 0.62962931
0.014609223 -0.043827653 0.63094682
0.014720066 -0.045632213 0.63228482
0.017239539 -0.055166513 0.66269755
0.017058341 -0.056292474 0.6605103
0.016831622 -0.057227522 0.65777355
0.015344469 -0.053705648 0.63982207
0.015300504 -0.0550818 0.63929135
0.015683206 -0.058027893 0.643911
0.015564271 -0.059144244 0.64247525
0.01567127 -0.061117962 0.64376688
0.021308675 0.011622936 0.68843287
0.019681972 0.0089463592 0.67058194
0.019368222 0.007043004 0.66713893
0.019160552 0.0052256286 0.66486001
0.019004678 0.0034554005 0.66314954
0.018889429 0.0017172098 0.66188478
0.018792557 2.9802322e-08 0.6608218
0.018662438 -0.0016965866 0.65939391
0.018477552 -0.0033595264 0.65736496
0.01827248 -0.0049833953 0.65511459
0.018080816 -0.0065748394 0.65301132
0.017899299 -0.008136034 0.65101945
0.017728582 -0.0096701384 0.64914602
0.017568324 -0.011179835 0.64738739
0.01741435 -0.012664974 0.64569771
0.017270528 -0.014130443 0.6441195
0.017132422 -0.015574932 0.64260399
0.01700123 -0.017001212 0.6411643
0.01687669 -0.018410921 0.63979769
0.016756767 -0.019803435 0.63848162
0.016644021 -0.021183282 0.6372444
0.016534369 -0.022546858 0.6360411
0.016432136 -0.023901284 0.63491923
0.016332082 -0.025240481 0.63382125
0.016239272 -0.02657336 0.63280284
0.016148178 -0.027892292 0.6318031
0.016064094 -0.029207468 0.63088048
0.015981441 -0.030510008 0.62997341
0.015905607 -0.031811208 0.62914127
0.015831081 -0.03310135 0.62832344
0.015763208 -0.034392446 0.62757862
0.015696675 -0.035674244 0.62684846
0.015683033 -0.037068993 0.62669879
0.015799135 -0.038779676 0.62797284
0.019526746 -0.049704432 0.66887856
0.019345349 -0.05100137 0.66688794
0.019191284 -0.052339852 0.66519731
0.019061282 -0.05371812 0.66377068
0.018940717 -0.055100262 0.66244763
0.018805848 -0.056417555 0.66096759
0.018641327 -0.057618618 0.65916222
0.01842263 -0.058617443 0.6567623
0.018179175 -0.059495479 0.6540907
0.01791917 -0.060273558 0.65123749
0.017199773 -0.059417397 0.64334309
0.017339518 -0.061476469 0.6448766
0.017481554 -0.063569263 0.6464352
0.023014167 0.0095892251 0.68610257
0.021233879 0.0070779622 0.66819429
0.020873426 0.0052183568 0.66456836
0.020645479 0.0034409165 0.66227537
0.020473637 0.0017061532 0.66054684
0.02034495 -0 0.65925235
0.020242546 -0.0016869009 0.65822226
0.02011263 -0.0033521056 0.65691531
0.019929182 -0.0049822628 0.65507001
0.019711057 -0.0065703392 0.65287584
0.019503864 -0.0081265867 0.65079165
0.019307436 -0.0096536875 0.64881569
0.019125335 -0.01115644 0.64698392
0.018951721 -0.012634486 0.64523751
0.018786285 -0.014089704 0.64357334
0.018631399 -0.015526116 0.64201528
0.018481432 -0.016941309 0.6405068
0.018341424 -0.018341392 0.63909841
0.018205892 -0.019723028 0.63773501
0.018077955 -0.021090955 0.63644809
0.017954914 -0.022443652 0.63521039
0.01783799 -0.023783982 0.63403422
0.017726082 -0.025111943 0.63290852
0.017619345 -0.026428998 0.63183481
0.017517412 -0.027735919 0.63080949
0.017420238 -0.02903372 0.62983197
0.017327435 -0.030322999 0.6288985
0.017239328 -0.031605452 0.62801218
0.01715515 -0.032880694 0.62716544
0.017075675 -0.034151345 0.62636596
0.017073879 -0.035570592 0.6263479
0.017199969 -0.037266582 0.62761629
0.021973103 -0.04943949 0.67563027
0.021330206 -0.049770474 0.66916323
0.021128748 -0.051061153 0.66713667
0.02092668 -0.052316666 0.66510403
0.020744555 -0.053590059 0.66327202
0.020590326 -0.05490756 0.66172063
0.020462126 -0.056270838 0.66043103
0.020334203 -0.057613581 0.65914416
0.020178327 -0.058853447 0.6575762
0.019983372 -0.059950128 0.65561509
0.019736391 -0.060853854 0.65313065
0.01947148 -0.061659709 0.65046585
0.019190067 -0.062367707 0.64763504
0.019184181 -0.063947275 0.64757591
0.024710009 0.0076030493 0.68404114
0.022751769 0.0052503943 0.66585803
0.022342581 0.0034373403 0.66205853
0.022094341 0.0016995966 0.6597535
0.021906383 -0 0.65800822
0.021763967 -0.0016741455 0.65668583
0.021656364 -0.0033317208 0.65568674
0.021527924 -0.0049679875 0.65449411
0.021343905 -0.006567359 0.65278542
0.021117866 -0.0081222355 0.65068656
0.020895423 -0.0096440315 0.64862108
0.020686431 -0.011138827 0.64668047
0.020491449 -0.012610108 0.64486998
0.020304671 -0.0140571 0.64313567
0.020129299 -0.015484035 0.64150721
0.019962441 -0.016891301 0.6399579
0.019802429 -0.018279165 0.63847208
0.019652318 -0.019652277 0.63707829
0.019506164 -0.021006614 0.63572115
0.019370239 -0.022350252 0.63445902
0.019236991 -0.023676306 0.63322175
0.019113088 -0.024994045 0.63207132
0.018991491 -0.0262959 0.63094223
0.018878387 -0.027591497 0.62989199
0.018767273 -0.028872699 0.62886024
0.018664258 -0.030149907 0.6279037
0.018562684 -0.031413764 0.62696052
0.018469341 -0.032676548 0.62609386
0.018459069 -0.03407827 0.62599844
0.018595161 -0.035759926 0.62726212
0.024007762 -0.048015475 0.67752045
0.023804367 -0.049439847 0.67563188
0.023597542 -0.050825447 0.67371142
0.0229409 -0.051175863 0.66761422
0.022702217 -0.052389741 0.66539794
0.022487484 -0.053624004 0.66340405
0.022281887 -0.054847717 0.66149497
0.022104252 -0.056110799 0.65984559
0.021953478 -0.057416797 0.6584456
0.0218185 -0.058742076 0.65719217
0.021673899 -0.06002003 0.65584958
0.021497544 -0.06118533 0.654212
0.021277092 -0.062194556 0.652165
0.021003852 -0.063011542 0.64962786
0.020907246 -0.064329982 0.64873081
0.026387442 0.0056544542 0.6821155
0.02426704 0.0034667253 0.66383302
0.023786716 0.0016990602 0.65969157
0.023508517 -2.9802322e-08 0.6572929
0.023304237 -0.0016645491 0.65553153
0.023147756 -0.0033068061 0.65418231
0.023034271 -0.0049358904 0.65320379
0.022909744 -0.0065456629 0.65213013
0.02272675 -0.0081166923 0.65055227
0.022494022 -0.0096402764 0.64854568
0.02225646 -0.011128247 0.64649737
0.022036336 -0.012592226 0.64459944
0.021827865 -0.014032215 0.64280194
0.021628244 -0.015448719 0.64108074
0.021443261 -0.016848266 0.63948584
0.021264516 -0.018226743 0.6379447
0.021095963 -0.019589126 0.63649142
0.020934755 -0.02093479 0.63510144
0.020780798 -0.022265136 0.63377392
0.02063462 -0.023582399 0.63251352
0.02049372 -0.024885237 0.63129872
0.020360589 -0.026177913 0.63015085
0.020231631 -0.027457237 0.62903893
0.020110125 -0.028728724 0.6279912
0.019992352 -0.029988527 0.62697577
0.019881252 -0.031241983 0.62601793
0.019838629 -0.032592028 0.62565041
0.019984594 -0.034259319 0.6269089
0.020132724 -0.035951287 0.62818611
0.025799759 -0.047913849 0.67704839
0.025618317 -0.049406737 0.67548394
0.025407484 -0.050814986 0.67366612
0.025191303 -0.052182019 0.67180222
0.024971645 -0.053510666 0.66990823
0.024247386 -0.053690612 0.66366351
0.024024848 -0.054913908 0.66174471
0.023799403 -0.05609858 0.65980089
0.023592521 -0.057296127 0.65801722
0.023420095 -0.058550239 0.65653044
0.023274196 -0.059847936 0.65527248
0.023132699 -0.06113641 0.6540525
0.022970295 -0.062347963 0.6526522
0.022772556 -0.063437834 0.65094721
0.022651058 -0.064717337 0.64989972
0.028061798 0.0037415624 0.68042183
0.025788048 0.0017192364 0.6621241
0.025198858 -2.9802322e-08 0.65738273
0.024893215 -0.0016595125 0.65492302
0.024670651 -0.0032894313 0.65313196
0.02450216 -0.0049004257 0.65177608
0.024379039 -0.0065010786 0.65078533
0.024257224 -0.0080857575 0.64980501
0.024078857 -0.0096315742 0.64836961
0.023840375 -0.011125505 0.64645046
0.023589879 -0.012581259 0.64443463
0.023357233 -0.014014363 0.64256239
0.023135472 -0.015423626 0.64077783
0.022926217 -0.016812563 0.63909388
0.02272911 -0.018183291 0.63750768
0.022538675 -0.019533485 0.63597512
0.022361862 -0.020871073 0.63455236
0.02218977 -0.022189766 0.63316739
0.022028256 -0.023496807 0.63186765
0.021871878 -0.024788111 0.63060915
0.021724118 -0.026068926 0.6294201
0.021581382 -0.027336419 0.62827146
0.021446144 -0.028594851 0.6271832
0.021315437 -0.029841632 0.6261313
0.021212541 -0.031111717 0.62530327
0.021368356 -0.032764792 0.62655717
0.027547026 -0.044075221 0.67627931
0.027384503 -0.045640826 0.6749714
0.027397098 -0.047488272 0.67507279
0.027347384 -0.049225271 0.6746726
0.027191829 -0.050758064 0.67342091
0.026977876 -0.052157253 0.67169917
0.02675524 -0.053510457 0.66990745
0.026529025 -0.054826677 0.66808701
0.025810396 -0.055062175 0.66230392
0.025535017 -0.05617705 0.66008782
0.02530071 -0.057348281 0.65820229
0.025073009 -0.058503687 0.65636992
0.024872921 -0.059694991 0.65475976
0.024702156 -0.060931966 0.65338552
0.024554346 -0.062204331 0.65219605
0.024403136 -0.063448146 0.65097922
0.024415916 -0.065109134 0.65108204
0.024622494 -0.067301482 0.65274441
0.029731711 0.0018582046 0.67890638
0.028501937 -2.9802322e-08 0.66962844
0.026579563 -0.0016612411 0.65512526
0.026249785 -0.0032812059 0.65263724
0.026009714 -0.0048767924 0.6508261
0.025827043 -0.0064567327 0.64944792
0.02569145 -0.0080285966 0.64842498
0.025566818 -0.0095875859 0.64748466
0.025395611 -0.011110574 0.64619303
0.025157949 -0.012578994 0.6444
0.024896404 -0.014004201 0.64242679
0.024650181 -0.01540634 0.64056915
0.024415329 -0.016785562 0.6387974
0.024196826 -0.018147588 0.63714886
0.023987731 -0.019490033 0.63557136
0.023788864 -0.020815283 0.63407105
0.023601055 -0.022125959 0.63265413
0.023419339 -0.02341935 0.63128316
0.023249513 -0.024702609 0.6300019
0.023083264 -0.025968641 0.6287477
0.022928696 -0.027227789 0.6275816
0.022776378 -0.028470457 0.62643242
0.022635091 -0.029708534 0.62536645
0.022746479 -0.031276405 0.62620687
0.029997636 -0.043121576 0.68091261
0.029398277 -0.044097394 0.67639077
0.029094638 -0.045460343 0.67410004
0.028896576 -0.046956927 0.67260581
0.02880363 -0.048606157 0.67190456
0.028841194 -0.050472081 0.67218792
0.028720139 -0.05205524 0.67127466
0.028520316 -0.053475559 0.66976708
0.028291628 -0.054814994 0.66804177
0.028057037 -0.056114078 0.66627192
0.027818857 -0.057376385 0.66447496
0.027020216 -0.057417959 0.65844965
0.026777551 -0.058575898 0.65661895
0.026531734 -0.059696361 0.65476435
0.026304726 -0.060829654 0.65305173
0.026113046 -0.062018499 0.65160561
0.025983039 -0.063333631 0.65062481
0.026701283 -0.066753194 0.65604353
0.026425414 -0.067715123 0.65396225
0.02997775 -0.0017633736 0.66745883
0.02792996 -0.0032858551 0.65291816
0.027575744 -0.004866302 0.65040302
0.027318118 -0.0064277947 0.64857376
0.027121004 -0.0079767704 0.64717406
0.026972741 -0.0095198154 0.64612132
0.02684412 -0.011053443 0.64520806
0.026677005 -0.012553871 0.64402139
0.026445933 -0.014000773 0.6423806
0.026175585 -0.0153974 0.64046103
0.025915917 -0.016769111 0.63861722
0.025670024 -0.018120021 0.63687122
0.025440848 -0.019454777 0.63524389
0.025220061 -0.020769477 0.63367617
0.025013072 -0.022070348 0.6322065
0.024814449 -0.023354769 0.63079613
0.024625372 -0.024625361 0.62945354
0.024445262 -0.025883198 0.6281746
0.024272339 -0.027127922 0.62694675
0.02410813 -0.028362513 0.62578076
0.024118999 -0.029794067 0.62585801
0.031930637 -0.041321993 0.6813255
0.031742603 -0.042945892 0.67999041
0.031548467 -0.044539005 0.67861181
0.031348251 -0.046100348 0.67719018
0.030617077 -0.046826124 0.67199844
0.030398026 -0.048279226 0.67044306
0.030239495 -0.049806207 0.66931725
0.030269947 -0.051636964 0.66953355
0.030200304 -0.053294688 0.66903901
0.030028021 -0.054756969 0.66781569
0.029796816 -0.05608812 0.66617405
0.029557124 -0.05737558 0.6644721
0.02931378 -0.058627546 0.66274416
0.02856024 -0.058800519 0.65739357
0.02822851 -0.05977799 0.65503806
0.027977176 -0.060891479 0.65325344
0.027729193 -0.061982885 0.6514926
0.027774828 -0.063718706 0.65181667
0.028302239 -0.066593513 0.65556163
0.028250637 -0.068133906 0.65519518
0.031444818 -0.0034938753 0.66547155
0.029250856 -0.0048751235 0.6507585
0.028872211 -0.0064160228 0.64821923
0.028596733 -0.007943511 0.64637184
0.028385205 -0.0094617307 0.64495331
0.028223934 -0.010975987 0.64387184
0.02809171 -0.012485176 0.64298511
0.027929503 -0.013964742 0.64189732
0.027702536 -0.015390277 0.64037526
0.027428348 -0.01676175 0.63853651
0.027155438 -0.018103629 0.63670635
0.026900437 -0.019428104 0.63499624
0.026659252 -0.020734966 0.63337886
0.026427547 -0.022022933 0.63182497
0.026212109 -0.023299634 0.63038021
0.026002709 -0.024558157 0.62897599
0.025806608 -0.025806606 0.62766087
0.025616428 -0.027039558 0.62638557
0.025485806 -0.028317571 0.62550956
0.025673164 -0.029952049 0.62676597
0.033604048 -0.041071624 0.67995167
0.033456128 -0.042749494 0.67895967
0.033265334 -0.044353783 0.67768019
0.033066139 -0.0459252 0.67634434
0.032860562 -0.047465235 0.67496574
0.03214984 -0.048224777 0.67019951
0.031878665 -0.049589008 0.66838092
0.031675287 -0.051032394 0.6670171
0.031598717 -0.052664489 0.66650367
0.031628899 -0.05447197 0.66670609
0.031492647 -0.055986911 0.66579229
0.031275999 -0.05733934 0.66433942
0.031031383 -0.05861485 0.66269898
0.030780356 -0.059850693 0.66101557
0.030525804 -0.061051607 0.65930855
0.029658303 -0.060964271 0.6534909
0.029397314 -0.062060997 0.65174067
0.029588537 -0.064108476 0.653023
0.029841278 -0.066313937 0.65471792
0.032886561 -0.0051926076 0.66353261
0.030546041 -0.0064307451 0.64866287
0.030139985 -0.0079315603 0.64608306
0.029846646 -0.0094252527 0.64421946
0.029620485 -0.010912806 0.64278257
0.029445987 -0.012398303 0.64167392
0.029310444 -0.013883889 0.64081281
0.029154224 -0.015344322 0.63982034
0.028932497 -0.016750395 0.6384117
0.028655348 -0.018098116 0.63665092
0.028369401 -0.01941067 0.63483423
0.028105712 -0.020709485 0.63315898
0.027852755 -0.021988988 0.63155186
0.027613128 -0.023253143 0.63002944
0.027386736 -0.024503917 0.62859118
0.027168378 -0.025738448 0.62720388
0.026963867 -0.02696386 0.62590462
0.027044179 -0.028467536 0.62641484
0.027244134 -0.030111909 0.62768519
0.034752592 -0.040239841 0.67538786
0.035050362 -0.042429388 0.67727965
0.034945101 -0.044141203 0.67661095
0.034753099 -0.04572776 0.67539108
0.03455101 -0.047280341 0.67410719
0.034342699 -0.048802793 0.67278373
0.034122422 -0.050285667 0.67138427
0.033331748 -0.05087477 0.66636091
0.03310518 -0.052271336 0.66492152
0.032951649 -0.053763211 0.66394615
0.032995567 -0.055571467 0.66422516
0.032910809 -0.057160884 0.66368669
0.032722652 -0.058556348 0.66249132
0.032475837 -0.0598239 0.66092324
0.032221027 -0.061050355 0.65930438
0.031962555 -0.062242895 0.65766227
0.031698573 -0.063397169 0.65598512
0.031424575 -0.064503074 0.6542443
0.031694662 -0.066725597 0.6559602
0.034302033 -0.0068604052 0.66162902
0.031833984 -0.0079584718 0.64673299
0.031380087 -0.009414047 0.6439935
0.03106891 -0.010874093 0.64211535
0.030827912 -0.012331128 0.64066082
0.030640079 -0.013788044 0.63952714
0.030500744 -0.015250325 0.63868618
0.03035208 -0.016693622 0.63778895
0.030136727 -0.018082052 0.63648915
0.029857447 -0.019407332 0.63480353
0.029562585 -0.020693839 0.63302392
0.029286768 -0.021965086 0.63135922
0.029022025 -0.023217589 0.62976134
0.028774926 -0.024458706 0.62826997
0.028537696 -0.02568391 0.62683821
0.02840961 -0.026989132 0.62606514
0.028619148 -0.02861914 0.62732977
0.028831881 -0.030273467 0.62861371
0.03631274 -0.039943993 0.67376471
0.036157396 -0.041581005 0.67282712
0.036424953 -0.043709964 0.67444193
0.036393955 -0.04549244 0.67425489
0.036210511 -0.047073662 0.67314774
0.03600635 -0.048608541 0.67191541
0.035795644 -0.050113887 0.67064375
0.035576887 -0.051586449 0.66932338
0.034779735 -0.052169591 0.66451216
0.034521066 -0.053507626 0.66295099
0.034316383 -0.054906189 0.66171563
0.034267385 -0.056541175 0.66141987
0.034279592 -0.058275312 0.66149354
0.034128316 -0.05972454 0.66058052
0.033895962 -0.061012745 0.65917814
0.03363733 -0.062229037 0.65761715
0.033371814 -0.063406467 0.65601468
0.033283245 -0.064902306 0.65548009
0.03569195 -0.0084980726 0.65975976
0.033096567 -0.0094561577 0.64484119
0.032593518 -0.010864496 0.64194965
0.032264251 -0.012291163 0.64005697
0.032008417 -0.01371789 0.6385864
0.031808324 -0.015146822 0.63743621
0.031663973 -0.016585886 0.63660645
0.03151799 -0.018010259 0.63576734
0.031313322 -0.019384444 0.63459086
0.031035397 -0.020690233 0.63299334
0.03073195 -0.021951407 0.63124907
0.030444168 -0.023195565 0.62959486
0.030169344 -0.024422795 0.62801516
0.029913571 -0.02564019 0.62654495
0.029988527 -0.027132481 0.62697577
0.038839824 -0.036990315 0.67785424
0.038699068 -0.038699061 0.67704511
0.038143598 -0.039959967 0.67385221
0.037734982 -0.041328758 0.67150337
0.03755359 -0.042918384 0.67046076
0.037519664 -0.044666231 0.67026567
0.037793074 -0.046791434 0.67183733
0.037638605 -0.048392445 0.6709494
0.037431717 -0.049908936 0.66976023
0.03721654 -0.051394254 0.66852337
0.036995225 -0.052850306 0.66725117
0.036319785 -0.053614914 0.6633687
0.035911396 -0.05472213 0.66102123
0.035678376 -0.056066006 0.65968174
0.035532266 -0.057528406 0.65884197
0.035589915 -0.059316516 0.65917331
0.035489187 -0.06083861 0.65859431
0.035285983 -0.06217055 0.6574263
0.035025105 -0.063378766 0.6559267
0.03516518 -0.065306768 0.6567319
0.037061729 -0.010107726 0.65795004
0.034334525 -0.010924637 0.6429863
0.033786431 -0.012285948 0.63997895
0.033433732 -0.013677418 0.63804376
0.033164684 -0.015074879 0.63656753
0.032957852 -0.016478896 0.63543272
0.032801308 -0.017891616 0.6345737
0.032652538 -0.019294679 0.63375747
0.0324548 -0.020653069 0.63267249
0.032186903 -0.021945626 0.63120258
0.031878281 -0.02318421 0.62950927
0.031578779 -0.024401754 0.62786591
0.031352397 -0.025651932 0.62662375
0.04047763 -0.034957945 0.67669255
0.040366597 -0.036696881 0.67608339
0.040240433 -0.038411319 0.67539108
0.040101022 -0.040101022 0.67462623
0.039913453 -0.041727722 0.67359698
0.039147656 -0.042706549 0.66939527
0.038928639 -0.044237077 0.66819346
0.038803488 -0.045858681 0.66750681
0.039136659 -0.04803136 0.66933489
0.03903009 -0.04967463 0.66875017
0.038825799 -0.051179469 0.66762924
0.038609274 -0.052648991 0.66644114
0.038386449 -0.054090023 0.66521859
0.038157582 -0.055501908 0.66396278
0.037287455 -0.055931181 0.65918857
0.03703218 -0.057231545 0.65778786
0.036828741 -0.058591187 0.6566717
0.036811501 -0.06023702 0.65657711
0.03680313 -0.061896205 0.65653116
0.036751401 -0.063479692 0.65624726
0.038418073 -0.011692464 0.65622711
0.035548467 -0.012364686 0.64116657
0.034962367 -0.013680905 0.63809055
0.034585059 -0.015037 0.63611037
0.034302704 -0.016405612 0.63462847
0.034082457 -0.017782152 0.6334725
0.033913519 -0.019168496 0.63258588
0.033762287 -0.020550936 0.63179219
0.0335721 -0.021894842 0.63079411
0.033311762 -0.023173422 0.62942767
0.033002343 -0.024393022 0.6278038
0.03295226 -0.025788695 0.62754095
0.041755557 -0.034493744 0.67374325
0.041834336 -0.036377668 0.67415667
0.041734509 -0.038105398 0.67363274
0.041610468 -0.0398013 0.67298174
0.041472815 -0.041472822 0.67225927
0.041319441 -0.043115944 0.67145443
0.040557422 -0.044084132 0.66745508
0.040275104 -0.045528382 0.66597337
0.040111147 -0.047086984 0.66511285
0.04040917 -0.04919377 0.666677
0.040382795 -0.050917447 0.6665386
0.040192395 -0.052424848 0.66553932
0.039975159 -0.053879559 0.66439915
0.03974982 -0.05530408 0.66321653
0.039516557 -0.056697667 0.66199225
0.038687348 -0.057189971 0.6576404
0.038366456 -0.058383733 0.65595627
0.038126606 -0.059676424 0.65469742
0.03833029 -0.061661735 0.65576637
0.038662396 -0.063876987 0.65750939
0.039792456 -0.013264149 0.65473855
0.036806747 -0.013802499 0.63972151
0.036114588 -0.015047729 0.6362403
0.035715241 -0.016369522 0.63423169
0.035416827 -0.017708421 0.63273072
0.035182938 -0.019057423 0.63155448
0.03500133 -0.020417422 0.63064098
0.034847856 -0.021779895 0.6298691
0.034666076 -0.023110688 0.62895483
0.034414135 -0.024376661 0.62768763
0.034569278 -0.025926977 0.62846792
0.04247677 -0.033627421 0.66823953
0.042813115 -0.035677582 0.66993129
0.04316026 -0.037765235 0.67167723
0.043072481 -0.03948313 0.6712358
0.042950932 -0.041161299 0.67062443
0.042815406 -0.042815417 0.66994274
0.042664204 -0.044441849 0.6691823
0.041983735 -0.045482367 0.6657598
0.041603811 -0.046804279 0.66384894
0.041416846 -0.048319638 0.66290855
0.041383307 -0.05000481 0.66273981
0.041690908 -0.052113622 0.66428703
0.041532587 -0.053646266 0.66349071
0.041312121 -0.055082858 0.66238189
0.041084286 -0.056490868 0.66123593
0.040850189 -0.057871103 0.6600585
0.04060515 -0.059215814 0.65882605
0.03990154 -0.059852317 0.65528715
0.040246289 -0.062046364 0.65702111
0.041146562 -0.014812738 0.65327108
0.038063049 -0.015225232 0.63838261
0.037243806 -0.016387284 0.63442695
0.036822371 -0.017674744 0.63239205
0.036507603 -0.01898396 0.63087225
0.03626018 -0.020305723 0.62967759
0.036065727 -0.021639407 0.62873864
0.035910215 -0.022982568 0.6279878
0.035935596 -0.024436206 0.62811029
0.036203824 -0.02606678 0.6294055
0.036475983 -0.027721733 0.6307196
0.043728624 -0.03498289 0.66573834
0.043892957 -0.036870092 0.66653192
0.044436984 -0.039104551 0.6691587
0.044381488 -0.04083094 0.66889071
0.044262763 -0.042492241 0.66831744
0.044126295 -0.044126302 0.66765851
0.043975513 -0.045734525 0.66693044
0.04374529 -0.047244906 0.66581893
0.04292566 -0.048076719 0.66186136
0.042704523 -0.049537241 0.66079366
0.042575307 -0.05109036 0.66016966
0.042941574 -0.053247541 0.66193819
0.042835698 -0.054829687 0.66142696
0.042621728 -0.056260675 0.66039389
0.042393647 -0.057655364 0.65929258
0.04215904 -0.059022665 0.65815979
0.041916195 -0.060359329 0.65698725
0.042480953 -0.016338825 0.65182495
0.041051827 -0.017368078 0.64518994
0.038350809 -0.017700344 0.6326499
0.037906948 -0.018953443 0.63058919
0.037575956 -0.020233214 0.62905252
0.037314702 -0.021527678 0.62783957
0.037296087 -0.022951424 0.62775314
0.037573896 -0.024567515 0.62904292
0.037855875 -0.026207924 0.63035214
0.038142007 -0.027873009 0.63168049
0.045030858 -0.03463912 0.66366351
0.044951659 -0.036307126 0.66329587
0.045057375 -0.038125455 0.66378665
0.045672074 -0.040402204 0.66664052
0.045662455 -0.042149931 0.66659588
0.045542885 -0.043791234 0.66604072
0.045407921 -0.045407921 0.66541409
0.045259587 -0.047000319 0.66472542
0.045085322 -0.048553407 0.66391641
