# .PCD v0.7 - Point Cloud Data file format
VERSION 0.7
FIELDS x y z
SIZE 4 4 4
TYPE F F F
COUNT 1 1 1
WIDTH 1351
HEIGHT 1
VIEWPOINT 0 0 0 1 0 0 0
POINTS 1351
DATA ascii
-0.0080025066 0.080025077 0.69609499
-0.0079917694 0.077919781 0.69577092
-0.0079810303 0.07581979 0.69544679
-0.0079703508 0.07372573 0.69512451
-0.0079597002 0.071637303 0.69480312
-0.0079490785 0.069554448 0.69448256
-0.0079384847 0.067477107 0.69416285
-0.0079279188 0.065405339 0.69384408
-0.0079173809 0.063339055 0.69352603
-0.0079068718 0.061278284 0.69320887
-0.0078964205 0.059223175 0.69289351
-0.0078859981 0.057173461 0.69257903
-0.0078756027 0.0551292 0.69226527
-0.0078652352 0.053090334 0.69195241
-0.0078548631 0.051056594 0.69163942
-0.0078445487 0.049028426 0.69132817
-0.0078342631 0.047005594 0.69101775
-0.0078131296 0.044925511 0.69037998
-0.0078028948 0.04291594 0.69007111
-0.007792687 0.040911615 0.68976307
-0.0077825054 0.038912535 0.68945581
-0.0077723507 0.03691864 0.68914932
-0.0077622226 0.034929991 0.68884373
-0.007752121 0.032946527 0.68853885
-0.007742045 0.030968189 0.68823481
-0.0077319955 0.028994977 0.68793154
-0.0077219722 0.027026922 0.68762904
-0.0077119446 0.025063843 0.68732643
-0.0077019734 0.02310589 0.68702555
-0.0076920274 0.021153092 0.68672538
-0.0076821069 0.019205272 0.68642598
-0.0076722126 0.017262518 0.68612742
-0.0076623433 0.015324682 0.68582964
-0.0076524997 0.013391882 0.68553257
-0.0076426812 0.01146403 0.68523622
-0.0076328879 0.0095411241 0.68494064
-0.0076231193 0.007623136 0.68464595
-0.0076133762 0.0057100654 0.68435186
-0.0076036579 0.0038018227 0.68405861
-0.0075939638 0.0018984675 0.68376607
-0.0075842948 2.9802322e-08 0.6834743
-0.0075746505 -0.0018936694 0.68318325
-0.0075650308 -0.0037825108 0.68289292
-0.0075554061 -0.005666554 0.68260247
-0.0075458353 -0.007545799 0.68231362
-0.0075362884 -0.0094203651 0.68202555
-0.0075267656 -0.011290103 0.68173814
-0.0075172666 -0.013155222 0.6814515
-0.0075077922 -0.015015543 0.68116558
-0.0074983407 -0.016871274 0.68088043
-0.0074889138 -0.018722296 0.68059587
-0.0074795103 -0.020568639 0.6803121
-0.0074701309 -0.022410363 0.68002909
-0.0074607739 -0.024247527 0.67974663
-0.0074514411 -0.026080042 0.67946506
-0.0074421312 -0.027907968 0.67918408
-0.0074328445 -0.029731393 0.67890388
-0.0074235816 -0.031550199 0.67862433
-0.007414314 -0.033364385 0.67834461
-0.0074050967 -0.035174221 0.67806649
-0.0073959022 -0.036979496 0.67778897
-0.007386731 -0.038780332 0.67751229
-0.0073775817 -0.040576696 0.67723614
-0.0073684556 -0.042368621 0.67696071
-0.007359352 -0.044156104 0.67668599
-0.0073502711 -0.045939177 0.67641199
-0.0073412126 -0.047717869 0.67613864
-0.007332176 -0.04949221 0.67586589
-0.0073231617 -0.05126211 0.67559385
-0.0073141698 -0.053027719 0.67532247
-0.0073051993 -0.054789007 0.67505181
-0.0072962246 -0.056545705 0.67478096
-0.0072872988 -0.058298349 0.67451155
-0.0072783944 -0.060046732 0.67424297
-0.0072695115 -0.061790824 0.67397487
-0.0072606509 -0.063530684 0.67370743
-0.0072518112 -0.065266281 0.67344069
-0.0072429935 -0.066997677 0.67317462
-0.0072341971 -0.068724871 0.67290914
-0.0072254222 -0.070447832 0.67264432
-0.0072166682 -0.072166681 0.67238015
-0.0072079352 -0.073881298 0.67211664
-0.0071992236 -0.075591832 0.67185372
-0.0071905078 -0.077297956 0.67159069
-0.0071818382 -0.079000235 0.67132908
-0.0071731894 -0.080698416 0.67106807
-0.0060624559 0.094978452 0.69853228
-0.006036297 0.092556566 0.69747972
-0.0060281758 0.09042266 0.69715297
-0.0060200528 0.088294119 0.69682616
-0.0060119759 0.086171687 0.69650114
-0.0060038962 0.084054559 0.69617605
-0.0059958627 0.081943423 0.69585282
-0.0059878258 0.07983768 0.69552946
-0.0059798351 0.077737898 0.69520789
-0.0059718415 0.075643361 0.69488633
-0.0059638931 0.073554665 0.69456643
-0.005955942 0.071471334 0.69424653
-0.005948036 0.069393754 0.69392842
-0.0059401277 0.06732145 0.69361019
-0.0059322626 0.065254897 0.69329375
-0.0059243967 0.063193589 0.69297719
-0.0059165736 0.061137974 0.69266248
-0.0059087486 0.059087485 0.69234759
-0.0059009665 0.057042688 0.69203448
-0.0058931825 0.055003047 0.69172132
-0.0058854194 0.05296874 0.69140893
-0.0058776983 0.050940067 0.69109821
-0.0058699986 0.048916668 0.69078845
-0.0058620446 0.046896368 0.69046831
-0.0058414224 0.044784218 0.68963861
-0.0058337264 0.042780638 0.68932897
-0.0058260504 0.040782332 0.68902016
-0.0058183726 0.038789153 0.68871117
-0.0058106924 0.03680107 0.68840212
-0.0058030547 0.034818351 0.68809479
-0.0057954146 0.032840699 0.68778735
-0.0057878168 0.030868381 0.6874817
-0.0057802168 0.0289011 0.68717587
-0.0057726591 0.026939064 0.68687177
-0.0057650986 0.024982065 0.6865676
-0.0057575805 0.023030341 0.68626511
-0.0057500596 0.021083534 0.68596244
-0.0057425802 0.019141942 0.68566155
-0.0057350988 0.017205298 0.68536049
-0.0057276585 0.01527375 0.6850611
-0.0057202373 0.013347238 0.68476248
-0.0057128137 0.011425644 0.68446374
-0.0057054311 0.009509027 0.68416673
-0.0056980457 0.0075974166 0.68386954
-0.0056907008 0.0056906939 0.68357408
-0.0056833536 0.0037888885 0.68327844
-0.0056760474 0.0018920004 0.68298441
-0.0056687375 -0 0.68269026
-0.005661468 -0.0018871427 0.68239784
-0.0056541963 -0.0037694573 0.68210518
-0.0056469641 -0.0056469738 0.68181425
-0.0056397296 -0.0075196326 0.68152308
-0.0056325346 -0.0093875527 0.68123364
-0.005625336 -0.011250675 0.68094397
-0.0056181778 -0.013109058 0.68065596
-0.0056110169 -0.014962703 0.68036777
-0.0056038946 -0.016811669 0.68008125
-0.0055967695 -0.018655866 0.67979455
-0.0055896626 -0.020495415 0.67950857
-0.0055825738 -0.022330314 0.6792233
-0.0055755032 -0.024160475 0.67893887
-0.0055684503 -0.025986046 0.67865503
-0.0055614151 -0.027807057 0.67837203
-0.0055543976 -0.029623449 0.67808968
-0.0055473982 -0.031435281 0.67780799
-0.0055404161 -0.033242494 0.67752707
-0.0055334517 -0.035045177 0.67724681
-0.0055265045 -0.036843359 0.67696726
-0.005519575 -0.038637012 0.67668849
-0.0055126627 -0.040426195 0.67641032
-0.0055057677 -0.042210877 0.67613292
-0.0054988903 -0.043991119 0.67585611
-0.0054920292 -0.04576692 0.67558014
-0.0054851859 -0.047538251 0.67530471
-0.0054783798 -0.049305409 0.67503095
-0.00547157 -0.051067978 0.67475688
-0.0054647774 -0.052826196 0.67448366
-0.005458002 -0.054579973 0.67421091
-0.0054512429 -0.056329519 0.67393899
-0.0054445001 -0.058074683 0.67366767
-0.005437775 -0.059815526 0.67339706
-0.0054310658 -0.061552078 0.67312711
-0.0054243733 -0.063284367 0.67285782
-0.0054176971 -0.065012366 0.67258918
-0.0054110377 -0.066736102 0.67232126
-0.0054043946 -0.068455666 0.67205393
-0.0053977673 -0.070170954 0.67178726
-0.0053911568 -0.071882114 0.67152131
-0.0053845621 -0.073589027 0.67125595
-0.0053779837 -0.075291783 0.6709913
-0.0053714216 -0.076990366 0.67072725
-0.0053648753 -0.078684837 0.67046386
-0.0053583449 -0.080375165 0.67020106
-0.0040315581 0.094741642 0.69792402
-0.0040177191 0.092407525 0.69708872
-0.0040123067 0.090276897 0.69676203
-0.0040069246 0.088152349 0.69643724
-0.0040015574 0.086033493 0.69611329
-0.0039962041 0.0839203 0.69579017
-0.0039908648 0.081812739 0.69546795
-0.0039855405 0.079710841 0.69514656
-0.0039802142 0.077614158 0.69482505
-0.0039749178 0.075523466 0.69450545
-0.0039696358 0.073438287 0.69418663
-0.0039643678 0.071358651 0.69386864
-0.0039591291 0.069284797 0.69355249
-0.0039538885 0.067216098 0.69323623
-0.0039486778 0.065153182 0.69292176
-0.0039434806 0.063095689 0.69260806
-0.0039382973 0.06104362 0.69229519
-0.0039331275 0.058996916 0.69198316
-0.0039279712 0.056955576 0.69167197
-0.003922828 0.05491963 0.69136155
-0.0039176987 0.05288893 0.69105196
-0.0039125825 0.050863564 0.69074321
-0.0039074803 0.048843503 0.69043523
-0.003854383 0.046252638 0.68723053
-0.003849298 0.044266939 0.68692356
-0.0038442407 0.042286664 0.68661839
-0.003839182 0.040311426 0.68631303
-0.0038341517 0.038341492 0.68600941
-0.0038291342 0.036376774 0.68570662
-0.003824115 0.034417033 0.6854037
-0.0038191238 0.032462567 0.68510246
-0.0038141308 0.030513048 0.68480104
-0.0038091657 0.028568745 0.68450141
-0.0038041989 0.026629418 0.6842016
-0.0037992597 0.024695188 0.68390357
-0.0037943327 0.022766024 0.68360615
-0.0037894046 0.020841748 0.68330872
-0.0037845036 0.018922538 0.6830129
-0.0037796008 0.017008215 0.68271697
-0.0037747251 0.0150989 0.68242276
-0.0037698476 0.013194472 0.68212831
-0.0037649968 0.011294991 0.68183559
-0.0037601588 0.0094004273 0.68154353
-0.0037553187 0.0075106025 0.68125147
-0.0037505056 0.0056257844 0.68096095
-0.0037456902 0.0037457049 0.68067032
-0.0037409016 0.0018704236 0.6803813
-0.0037361253 -0 0.68009299
-0.0037313469 -0.001865685 0.67980456
-0.0037265946 -0.0037266016 0.67951781
-0.0037218407 -0.0055827796 0.67923093
-0.0037171126 -0.0074342191 0.67894548
-0.0037123829 -0.0092809498 0.67866004
-0.0037076788 -0.011123031 0.67837614
-0.0037029868 -0.012960434 0.67809296
-0.0036982927 -0.014793158 0.67780966
-0.0036936242 -0.016621321 0.6775279
-0.0036889543 -0.018444747 0.67724597
-0.0036843093 -0.020263702 0.67696565
-0.0036796627 -0.022077978 0.67668521
-0.0036750408 -0.023887783 0.67640626
-0.0036704177 -0.02569291 0.6761272
-0.0036658191 -0.027493656 0.67584968
-0.0036612325 -0.029289812 0.67557287
-0.0036566437 -0.031081468 0.67529595
-0.00365208 -0.032868743 0.67502046
-0.0036475142 -0.034651369 0.67474484
-0.0036429728 -0.036429703 0.67447078
-0.0036384298 -0.038203508 0.67419654
-0.0036339113 -0.039973021 0.67392385
-0.0036294039 -0.041738153 0.67365181
-0.0036248944 -0.043498725 0.67337966
-0.0036204094 -0.045255125 0.67310899
-0.0036159223 -0.047006965 0.67283815
-0.0036114594 -0.048754692 0.6725688
-0.0036069946 -0.050497949 0.67229927
-0.0036025536 -0.052237034 0.67203128
-0.0035981236 -0.053971857 0.6717639
-0.0035936914 -0.055702209 0.67149639
-0.0035892832 -0.057428539 0.67123032
-0.0035848732 -0.059150398 0.67096418
-0.0035804864 -0.060868263 0.67069942
-0.0035760978 -0.062581718 0.67043453
-0.0035717327 -0.064291179 0.67017108
-0.0035673652 -0.06599623 0.66990745
-0.0035630215 -0.067697406 0.66964531
-0.0035586881 -0.069394425 0.66938376
-0.0035543526 -0.071087047 0.66912204
-0.0035500403 -0.072775796 0.66886175
-0.003545726 -0.074460238 0.66860139
-0.0035414344 -0.076140836 0.66834241
-0.0035371408 -0.077817112 0.66808331
-0.0035328704 -0.079489574 0.66782552
-0.0035286101 -0.081157997 0.66756833
-0.0020131271 0.09461695 0.69760388
-0.0020071431 0.092328608 0.69688153
-0.0020044576 0.090200603 0.69655734
-0.002001771 0.088077933 0.69623309
-0.0019991 0.085961342 0.69591063
-0.0019964359 0.083850354 0.69558901
-0.0019937789 0.081744969 0.69526833
-0.0019911288 0.079645157 0.69494838
-0.0019884857 0.077550948 0.69462943
-0.0019858498 0.075462312 0.6943112
-0.0019832209 0.073379189 0.69399387
-0.0019805988 0.071301579 0.69367737
-0.0019779915 0.069229692 0.69336265
-0.0019753834 0.06716305 0.69304782
-0.001972782 0.065101832 0.69273382
-0.0019701878 0.063046008 0.6924206
-0.0019675998 0.060995579 0.69210827
-0.0019650192 0.058950573 0.69179672
-0.001962445 0.056910902 0.69148594
-0.0019598776 0.054876566 0.69117612
-0.0019573246 0.052847773 0.6908679
-0.0019547706 0.050824046 0.69055957
-0.0019522231 0.048805594 0.69025213
-0.00191676 0.046002269 0.68597132
-0.0019142666 0.044028163 0.68567038
-0.0019117725 0.042059034 0.68536925
-0.0019092923 0.040095091 0.68506992
-0.0019068184 0.038136393 0.6847713
-0.0019043437 0.036182523 0.68447256
-0.0019018826 0.034233868 0.68417549
-0.0018994279 0.03229028 0.68387914
-0.0018969723 0.030351549 0.68358272
-0.0018945301 0.028417945 0.68328798
-0.0018920873 0.026489228 0.68299305
-0.0018896577 0.024565548 0.6826998
-0.0018872344 0.022646815 0.68240726
-0.0018848102 0.020732909 0.6821146
-0.0018823993 0.018823981 0.68182361
-0.0018799875 0.016919911 0.6815325
-0.0018775889 0.015020758 0.68124294
-0.0018751965 0.013126403 0.68095416
-0.0018728031 0.011236787 0.68066525
-0.0018704227 0.0093521178 0.68037796
-0.0018680486 0.0074722171 0.68009132
-0.0018656735 0.0055970252 0.67980462
-0.0018633113 0.0037266314 0.67951947
-0.001860948 0.0018609464 0.67923427
-0.0018585977 -0 0.67895055
-0.0018562534 -0.0018562675 0.67866755
-0.0018539081 -0.0037077963 0.67838442
-0.0018515756 -0.0055547059 0.67810291
-0.001849242 -0.0073969662 0.67782116
-0.0018469213 -0.0092345774 0.67754102
-0.0018446064 -0.011067629 0.67726159
-0.0018422903 -0.012896001 0.67698205
-0.0018399869 -0.014719874 0.67670393
-0.0018376893 -0.016539216 0.67642665
-0.0018353906 -0.018353879 0.67614913
-0.0018331044 -0.020164192 0.67587322
-0.0018308171 -0.021969795 0.67559713
-0.0018285424 -0.023771018 0.67532247
-0.0018262732 -0.02556783 0.67504859
-0.0018240029 -0.027360052 0.67477453
-0.0018217451 -0.029147893 0.67450202
-0.0018194927 -0.030931324 0.6742301
-0.0018172392 -0.032710284 0.67395806
-0.0018149981 -0.034484953 0.67368752
-0.0018127623 -0.03625524 0.67341769
-0.0018105255 -0.038021028 0.67314774
-0.001808301 -0.039782614 0.67287922
-0.0018060751 -0.041539758 0.67261052
-0.0018038613 -0.043292642 0.67234319
-0.001801653 -0.045041323 0.6720767
-0.0017994435 -0.046785533 0.67181003
-0.0017972459 -0.048525631 0.67154467
-0.0017950537 -0.050261497 0.67128003
-0.0017928605 -0.051992923 0.67101538
-0.0017906788 -0.053720385 0.67075193
-0.0017884962 -0.055443406 0.67048854
-0.0017863252 -0.057162404 0.67022645
-0.0017841597 -0.058877289 0.66996503
-0.0017819928 -0.060587764 0.66970348
-0.0017798377 -0.062294275 0.66944331
-0.0017776877 -0.063996762 0.66918385
-0.0017755366 -0.065694869 0.66892415
-0.0017733971 -0.067389071 0.66866589
-0.0017712627 -0.069079235 0.66840827
-0.001769127 -0.070765078 0.66815042
-0.0017670029 -0.072447091 0.66789401
-0.0017648775 -0.074124843 0.66763747
-0.0017627635 -0.075798839 0.6673823
-0.0017606545 -0.077468827 0.66712773
-0.0017585445 -0.079134509 0.66687304
-0.0017564456 -0.08079648 0.66661966
0 0.0946033 0.69756866
0 0.09231934 0.69685727
0 0.090191185 0.69653219
0 0.088068753 0.69620794
0 0.085952371 0.69588554
0 0.083841294 0.69556314
0 0.08173579 0.69524145
0 0.079635978 0.69492072
0 0.077541709 0.69460076
0 0.075452983 0.69428176
0 0.073369861 0.69396353
0 0.071292788 0.69364798
0 0.06922096 0.69333243
0 0.067154586 0.69301766
0 0.065093607 0.69270372
0 0.063038111 0.69239062
0 0.060987979 0.69207835
0 0.058943182 0.69176692
0 0.05690375 0.69145626
0 0.054869711 0.69114643
0 0.052841157 0.69083828
0 0.050817698 0.69053006
0 0.048799485 0.69022268
0 0.045965225 0.68578535
0 0.043992639 0.68548399
0 0.042025119 0.68518335
0 0.040062904 0.68488449
0 0.038105607 0.68458545
0 0.036153376 0.68428719
0 0.034206301 0.6839906
0 0.032264173 0.68369389
0 0.030327082 0.68339801
0 0.028395057 0.68310368
0 0.02646789 0.68280923
0 0.024545699 0.68251556
0 0.022628546 0.68222356
0 0.02071622 0.68193138
0 0.018808752 0.68163997
0 0.016906321 0.68135017
0 0.015008599 0.68106019
0 0.013115793 0.68077195
0 0.011227816 0.68048346
0 0.0093445778 0.68019581
0 0.007466197 0.67990959
0 0.0055924952 0.67962337
0 0.0037236214 0.67933786
0 0.0018594563 0.6790539
0 -0 0.67876983
0 -0.0018547177 0.67848641
0 -0.0037048459 0.67820466
0 -0.0055502355 0.67792267
0 -0.0073910058 0.67764151
0 -0.0092271864 0.67736179
0 -0.011058718 0.67708194
0 -0.01288566 0.67680287
0 -0.014708042 0.67652524
0 -0.016525835 0.67624754
0 -0.018339097 0.67597055
0 -0.02014789 0.675695
0 -0.021952122 0.67541933
0 -0.023751855 0.67514437
0 -0.025547236 0.67487097
0 -0.027338058 0.67459732
0 -0.029124379 0.67432439
0 -0.030906439 0.67405295
0 -0.032683909 0.67378139
0 -0.034457088 0.67351043
0 -0.036225975 0.67324108
0 -0.037990361 0.67297149
0 -0.039750427 0.67270261
0 -0.04150632 0.67243516
0 -0.043257713 0.6721676
0 -0.045004874 0.67190063
0 -0.046747863 0.67163509
0 -0.048486441 0.67136949
0 -0.050220966 0.67110533
0 -0.051951051 0.67084098
0 -0.053676963 0.67057729
0 -0.055398852 0.67031509
0 -0.05711633 0.67005265
0 -0.058829635 0.66979086
0 -0.060539007 0.66953051
0 -0.062244028 0.66926998
0 -0.063944966 0.6690101
0 -0.06564194 0.66875166
0 -0.067334682 0.66849303
0 -0.069023281 0.66823506
0 -0.070708096 0.66797841
0 -0.072388574 0.66772169
0 -0.074065045 0.66746557
0 -0.07573773 0.66721076
0 -0.077406123 0.66695583
0 -0.079070583 0.66670161
0 -0.080731317 0.66644859
0.0020146591 0.094688982 0.69778883
0.0020081419 0.092374504 0.69700211
0.0020054458 0.090245098 0.69667661
0.0020027487 0.088120967 0.69635105
0.0020000669 0.086002886 0.69602734
0.0019973922 0.083890438 0.69570452
0.0019947246 0.081783712 0.69538248
0.0019920641 0.079682559 0.69506133
0.0019894107 0.077587068 0.69474101
0.0019867567 0.075496733 0.6944207
0.0019841173 0.073412329 0.69410205
0.0019814852 0.071333468 0.69378436
0.00197886 0.06926012 0.6934675
0.0019762416 0.067192227 0.69315141
0.0019736304 0.065129817 0.69283617
0.001971026 0.06307283 0.69252181
0.0019684206 0.06102106 0.69220728
0.0019658376 0.05897513 0.69189548
0.001963261 0.056934565 0.69158447
0.0019606918 0.054899365 0.69127434
0.0019581288 0.052869469 0.690965
0.0019555727 0.050844908 0.69065642
0.0019530233 0.048825592 0.69034868
0.0019214191 0.046114057 0.68653375
0.001918899 0.044134647 0.68622953
0.0019163929 0.04216063 0.68592703
0.0019138859 0.040191621 0.68562436
0.0019113857 0.038227707 0.68532258
0.0019088989 0.036269099 0.68502241
0.0019064116 0.034315407 0.68472219
0.0019039378 0.032366931 0.68442357
0.0019014635 0.030423403 0.68412489
0.0018990026 0.02848506 0.68382782
0.0018965408 0.026551574 0.68353063
0.0018940928 0.024623215 0.68323517
0.0018916437 0.022699744 0.68293947
0.0018892011 0.020781219 0.68264472
0.0018867719 0.018867731 0.68235141
0.0018843417 0.016959071 0.6820581
0.0018819249 0.015055388 0.68176633
0.0018795072 0.013156593 0.68147451
0.001877103 0.011262625 0.68118429
0.0018746977 0.0093735456 0.68089396
0.0018723055 0.0074892342 0.68060517
0.0018699125 0.0056097209 0.68031639
0.0018675256 0.0037350655 0.6800282
0.0018651517 0.0018651485 0.67974168
0.0018627769 -0 0.67945504
0.0018604153 -0.0018603802 0.67916989
0.0018580524 -0.0037160814 0.67888474
0.0018557026 -0.0055671036 0.67860103
0.0018533518 -0.0074133873 0.67831731
0.001851014 -0.0092550218 0.67803502
0.001848675 -0.011092067 0.67775273
0.0018463419 -0.012924403 0.67747116
0.0018440216 -0.014752179 0.67719102
0.0018417003 -0.016575307 0.67691088
0.0018393917 -0.018393904 0.67663217
0.0018370819 -0.020207912 0.67635334
0.0018347848 -0.022017419 0.67607605
0.0018324868 -0.023822337 0.67579865
0.001830201 -0.025622815 0.67552274
0.0018279145 -0.027418703 0.67524666
0.0018256335 -0.02921015 0.67497134
0.0018233649 -0.030997187 0.67469752
0.0018210952 -0.032779723 0.67442358
0.0018188378 -0.034557909 0.67415106
0.0018165796 -0.036331594 0.67387849
0.0018143334 -0.038100988 0.67360735
0.0018120862 -0.039865881 0.67333603
0.0018098512 -0.041626602 0.67306632
0.001807615 -0.043382764 0.67279637
0.0018053844 -0.045134634 0.67252707
0.0018031657 -0.046882302 0.67225927
0.0018009462 -0.048625529 0.67199135
0.0017987384 -0.050364673 0.6717248
0.0017965296 -0.052099377 0.67145824
0.0017943326 -0.053830028 0.67119306
0.0017921348 -0.055556148 0.6709277
0.0017899487 -0.057278305 0.67066377
0.0017877615 -0.058996141 0.67039979
0.0017855795 -0.060709685 0.67013639
0.0017834093 -0.062419325 0.66987449
0.001781238 -0.064124525 0.66961235
0.0017790783 -0.06582588 0.6693517
0.0017769176 -0.067522854 0.66909087
0.0017747683 -0.069215953 0.66883141
0.001772618 -0.070904702 0.66857183
0.0017704791 -0.072589636 0.66831362
0.0017683392 -0.074270234 0.66805536
0.0017662108 -0.075947061 0.6677984
0.0017640811 -0.077619568 0.66754127
0.0017619628 -0.079288334 0.66728562
0.0017598433 -0.080952778 0.66702986
0.004037316 0.094876945 0.69827151
0.004021497 0.092494428 0.69731677
0.0040160907 0.090362042 0.69699043
0.0040106825 0.088234991 0.69666409
0.004005305 0.086114079 0.69633949
0.0039999257 0.083998442 0.69601482
0.0039945766 0.081888825 0.69569194
0.0039892267 0.079784542 0.69536901
0.0039838902 0.077685893 0.69504696
0.0039785844 0.075593114 0.69472677
0.0039732768 0.07350564 0.69440639
0.003967999 0.071424007 0.69408786
0.0039627193 0.06934762 0.69376916
0.0039574695 0.067276955 0.69345236
0.0039522182 0.065211564 0.69313538
0.0039469958 0.063151956 0.69282019
0.003941772 0.061097473 0.69250494
0.0039365776 0.059048653 0.69219142
0.0039313813 0.057005048 0.69187772
0.0039262143 0.054966986 0.69156593
0.003921045 0.05293411 0.69125396
0.0039159055 0.050906777 0.69094372
0.0039107632 0.048884541 0.69063342
0.0038870361 0.046644449 0.6892013
0.0038818489 0.044641286 0.68888825
0.0038766761 0.042643458 0.68857604
0.0038715168 0.040650934 0.68826461
0.0038663712 0.038663685 0.68795407
0.0038612392 0.036681771 0.68764436
0.0038561062 0.034704983 0.68733454
0.0038510016 0.03273353 0.68702644
0.0038459103 0.030767262 0.68671918
0.0038407883 0.028805912 0.68641007
0.0038356506 0.026849568 0.68609995
0.0038305409 0.024898529 0.68579149
0.0038254308 0.022952586 0.6854831
0.0038203339 0.021011859 0.68517548
0.0038152507 0.019076228 0.68486869
0.0038101955 0.017145872 0.68456358
0.0038051391 0.015220612 0.68425834
0.0038000962 0.013300389 0.683954
0.0037950668 0.011385202 0.68365043
0.0037900507 0.0094751418 0.6833477
0.0037850616 0.0075701177 0.68304664
0.0037800721 0.0056701005 0.68274546
0.0037750953 0.0037751198 0.68244505
0.0037701316 0.0018850863 0.68214548
0.0037651954 -0 0.68184757
0.0037602577 -0.0018800795 0.68154955
0.0037553329 -0.0037553012 0.6812523
0.0037504211 -0.0056256354 0.68095589
0.0037455219 -0.0074910223 0.68066013
0.0037406497 -0.0093516111 0.6803661
0.0037357765 -0.011207342 0.68007195
0.0037309157 -0.013058186 0.67977858
0.0037260673 -0.014904261 0.67948598
0.0037212456 -0.016745597 0.67919493
0.0037164222 -0.018582106 0.67890388
0.0037116117 -0.020413846 0.67861354
0.0037068138 -0.022240877 0.67832392
0.0037020142 -0.024063081 0.67803419
0.0036972405 -0.025880694 0.67774612
0.0036924796 -0.027693599 0.67745876
0.003687717 -0.029501736 0.67717129
0.0036829805 -0.031305343 0.67688549
0.0036782424 -0.033104181 0.6765995
0.0036735302 -0.034898549 0.67631507
0.0036688298 -0.036688298 0.67603135
0.003664128 -0.038473338 0.67574763
0.0036594518 -0.040253967 0.67546535
0.003654774 -0.042029887 0.675183
0.0036501214 -0.043801457 0.67490226
0.0036454808 -0.045568526 0.67462218
0.0036408391 -0.047330916 0.67434198
0.0036362219 -0.049089015 0.67406332
0.0036316032 -0.050842464 0.67378461
0.0036270095 -0.052591622 0.67350727
0.0036224143 -0.05433622 0.67322993
0.0036178438 -0.056076556 0.67295408
0.003613285 -0.057812572 0.67267895
0.0036087243 -0.059543937 0.67240369
0.0036041625 -0.061270773 0.67212838
0.0035996118 -0.062993199 0.67185372
0.0035950728 -0.064711332 0.67157984
0.0035905454 -0.066425115 0.67130649
0.0035860292 -0.068134546 0.67103392
0.0035815374 -0.069839999 0.67076284
0.0035770438 -0.071540892 0.67049158
0.0035725613 -0.073237494 0.67022109
0.0035680905 -0.074929878 0.6699512
0.0035636304 -0.07661806 0.66968209
0.0035591815 -0.078302011 0.66941357
0.0035547442 -0.0799817 0.6691457
0.0035503176 -0.08165729 0.6688785
0.0060761245 0.095192581 0.69908226
0.0060447077 0.092685521 0.69781816
0.0060365153 0.09054774 0.69748855
0.0060283695 0.0884161 0.69716078
0.0060202698 0.086290509 0.69683486
0.0060121682 0.084170371 0.69650888
0.0060041123 0.082056224 0.69618469
0.0059960778 0.07994771 0.69586146
0.0059880414 0.07784456 0.6955381
0.0059800497 0.075747281 0.69521654
0.0059720553 0.073655367 0.69489491
0.0059641064 0.071569294 0.69457501
0.0059561552 0.069488466 0.69425505
0.0059482479 0.067413509 0.69393694
0.0059403623 0.065344006 0.69361961
0.005932474 0.063279718 0.69330221
0.00592463 0.061221182 0.69298667
0.0059167836 0.059167832 0.69267094
0.0059089805 0.057120144 0.692357
0.0059011751 0.055077642 0.69204289
0.0058934144 0.053040743 0.69173062
0.0058856728 0.051009148 0.69141912
0.0058779293 0.048982739 0.69110751
0.0058702286 0.046961844 0.69079769
0.0058545908 0.044885218 0.69016844
0.0058469055 0.042877316 0.68985927
0.0058392412 0.04087466 0.68955082
0.005831596 0.038877308 0.6892432
0.0058239712 0.036885172 0.68893641
0.0058163656 0.034898192 0.6886304
0.0058087804 0.032916456 0.68832517
0.0058012153 0.030939847 0.68802077
0.0057936697 0.028968394 0.6877172
0.0057861661 0.027002126 0.68741524
0.0057786591 0.025040835 0.68711317
0.0057711718 0.0230847 0.68681192
0.0057637263 0.021133661 0.68651235
0.0057562776 0.019187599 0.68621272
0.0057488708 0.017246604 0.68591464
0.0057414602 0.015310585 0.68561643
0.0057340688 0.013379484 0.68531907
0.0057267188 0.01145345 0.68502331
0.0057193656 0.009532243 0.68472743
0.0057120314 0.0076160431 0.68443233
0.0057047368 0.0057047307 0.68413883
0.0056974399 0.0037982762 0.68384522
0.0056901616 0.0018967092 0.68355238
0.0056829234 2.9802322e-08 0.68326104
0.0056756819 -0.001891911 0.68296981
0.0056684595 -0.0037789643 0.68267912
0.0056612766 -0.005661279 0.68239009
0.0056540901 -0.0075388253 0.68210095
0.0056469217 -0.0094115734 0.68181252
0.0056397934 -0.011279583 0.68152571
0.0056326613 -0.013142884 0.68123871
0.0056255683 -0.015001506 0.68095332
0.0056184726 -0.016855389 0.68066782
0.0056113945 -0.018704623 0.68038297
0.0056043551 -0.020549268 0.68009973
0.0055973125 -0.022389263 0.67981637
0.0055902875 -0.024224579 0.67953372
0.0055832802 -0.026055306 0.67925179
0.0055763111 -0.027881563 0.67897135
0.0055693388 -0.02970314 0.67869079
0.0055623837 -0.031520158 0.67841095
0.0055554667 -0.033332795 0.67813265
0.0055485466 -0.035140812 0.67785418
0.0055416431 -0.0369443 0.67757648
0.0055347779 -0.038743466 0.67730016
0.0055279089 -0.040537983 0.67702383
0.0055210367 -0.04232797 0.67674732
0.0055141812 -0.044113487 0.67647147
0.0055073434 -0.045894533 0.67619634
0.0055005224 -0.047671169 0.6759218
0.0054936977 -0.049443305 0.67564726
0.0054869102 -0.051211178 0.67537415
0.0054801395 -0.052974671 0.67510176
0.0054733655 -0.054733634 0.67482913
0.0054666284 -0.056488484 0.67455804
0.0054598879 -0.058238804 0.67428684
0.0054531838 -0.059985012 0.67401707
0.005446496 -0.061726958 0.67374802
0.0054398049 -0.063464373 0.67347884
0.0054331496 -0.065197796 0.67321098
0.0054264911 -0.066926718 0.67294312
0.0054198685 -0.068651676 0.67267656
0.0054132426 -0.070372149 0.67241001
0.0054066526 -0.072088674 0.67214483
0.0054000784 -0.073801056 0.6718803
0.0053935009 -0.075508997 0.6716156
0.0053869584 -0.077213079 0.67135245
0.005380413 -0.07891269 0.67108899
0.0053739022 -0.080608532 0.67082709
0.008083568 0.092961043 0.69854116
0.0080725476 0.0908162 0.69820857
0.008061558 0.088677138 0.69787693
0.0080506299 0.086544275 0.6975472
0.0080396989 0.084416866 0.69721735
0.0080287978 0.082295209 0.69688833
0.0080179265 0.080179274 0.69656026
0.0080071166 0.078069389 0.69623405
0.007996304 0.075964898 0.69590771
0.0079855202 0.073866099 0.69558227
0.0079747969 0.071773171 0.69525874
0.0079641342 0.069686174 0.69493699
0.0079534687 0.067604482 0.69461513
0.0079428637 0.065528631 0.69429505
0.0079322858 0.063458294 0.69397581
0.007921705 0.061393201 0.69365656
0.0079111848 0.059333891 0.69333905
0.0079006916 0.057280034 0.69302237
0.0078901947 0.055231363 0.69270563
0.0078797573 0.053188354 0.69239062
0.007869347 0.051150769 0.6920765
0.0078589348 0.04911834 0.69176221
0.0078485794 0.047091514 0.69144976
0.0078272466 0.045006692 0.69080597
0.0078169443 0.042993188 0.69049513
0.007806669 0.040985018 0.69018501
0.0077964207 0.038982123 0.68987572
0.0077861995 0.036984414 0.68956733
0.0077760047 0.034992039 0.68925965
0.007765837 0.03300482 0.6889528
0.0077556954 0.031022787 0.68864679
0.0077455803 0.02904591 0.6883415
0.0077354917 0.027074218 0.68803704
0.0077254293 0.025107652 0.68773341
0.0077153933 0.023146182 0.6874305
0.0077053835 0.021189809 0.68712842
0.0076953988 0.019238502 0.68682712
0.0076854406 0.017292202 0.68652666
0.007675508 0.015350997 0.68622684
0.0076656006 0.0134148 0.68592793
0.0076557193 0.01148358 0.68562973
0.0076458636 0.0095573366 0.6853323
0.007636033 0.0076360106 0.68503559
0.0076262271 0.0057197213 0.68473971
0.0076164473 0.00380826 0.68444455
0.0076066921 0.0019016564 0.68415016
0.0075969617 -0 0.68385649
0.0075872559 -0.0018968284 0.68356365
0.0075775473 -0.0037887692 0.68327063
0.0075678914 -0.0056759119 0.68297923
0.0075582596 -0.0075582564 0.68268859
0.0075486531 -0.0094357729 0.68239868
0.0075390702 -0.01130861 0.68210948
0.007529512 -0.01317665 0.68182105
0.0075199781 -0.01503998 0.68153334
0.0075104684 -0.016898602 0.6812464
0.0075009828 -0.018752456 0.68096012
0.0074915206 -0.02060166 0.68067455
0.0074820826 -0.022446275 0.68038976
0.0074726688 -0.024286181 0.68010563
0.0074632778 -0.026121438 0.67982227
0.007453911 -0.027952164 0.67953968
0.0074445675 -0.029778242 0.67925763
0.0074352473 -0.03159976 0.6789763
0.0074259499 -0.033416778 0.67869586
0.0074166763 -0.035229206 0.67841595
0.0074074259 -0.037037164 0.67813683
0.0073981988 -0.038840532 0.67785835
0.0073889941 -0.04063946 0.67758054
0.0073798127 -0.042433888 0.67730349
0.0073706536 -0.044223934 0.67702711
0.0073615173 -0.046009481 0.67675138
0.0073524038 -0.047790587 0.67647636
0.0073433132 -0.049567342 0.67620206
0.0073342449 -0.051339686 0.67592829
0.0073251985 -0.053107709 0.67565536
0.0073162015 -0.0548715 0.67538387
0.0073071998 -0.05663079 0.67511219
0.0072982199 -0.05838576 0.67484123
0.007289289 -0.060136616 0.67457163
0.007280353 -0.061883003 0.67430204
0.0072714393 -0.063625067 0.67403305
0.007262574 -0.065363139 0.67376542
0.0072537041 -0.06709677 0.6734978
0.0072448817 -0.068826377 0.67323154
0.0072360537 -0.07055153 0.67296517
0.007227248 -0.07227245 0.67269945
0.0072184899 -0.073989481 0.6724351
0.0072097271 -0.075702146 0.6721707
0.0072009852 -0.077410564 0.67190689
0.0071922909 -0.079115212 0.67164445
0.0071835909 -0.08081539 0.67138195
0.010143339 0.093318701 0.69947976
0.010129416 0.091164768 0.69914365
0.010115532 0.089016676 0.69880843
0.010101685 0.086874485 0.69847423
0.010087877 0.084738195 0.6981408
0.010074107 0.082607716 0.69780838
0.010060374 0.080483019 0.69747686
0.010046678 0.078364104 0.69714618
0.010033019 0.076250941 0.69681644
0.010019397 0.074143559 0.69648755
0.010005813 0.072041869 0.69615966
0.0099922661 0.069945872 0.69583255
0.0099787544 0.067855537 0.69550639
0.0099652801 0.065770864 0.69518107
0.0099518029 0.063691556 0.69485563
0.0099384002 0.06161806 0.69453216
0.0099250348 0.059550196 0.69420946
0.0099117048 0.057487875 0.69388765
0.0098984102 0.055431128 0.69356668
0.009885191 0.053380072 0.69324756
0.0098720454 0.051334649 0.69293022
0.009858896 0.049294502 0.69261271
0.0098458203 0.047259957 0.6922971
0.0098195421 0.04516989 0.69166267
0.0098064942 0.043148577 0.6913476
0.0097934809 0.041132599 0.69103348
0.009780501 0.039122015 0.69072008
0.0097675566 0.037116736 0.69040757
0.0097546456 0.035116732 0.6900959
0.0097417692 0.033122003 0.689785
0.0097289262 0.031132579 0.689475
0.0097161178 0.02914837 0.68916577
0.0097033428 0.027169377 0.68885732
0.0096906014 0.025195599 0.68854976
0.0096778935 0.023226947 0.68824291
0.0096652182 0.02126351 0.68793696
0.0096525764 0.01930514 0.68763173
0.0096399682 0.017351925 0.68732738
0.0096273925 0.015403837 0.68702376
0.0096148495 0.013460755 0.68672097
0.0096023027 0.01152277 0.686418
0.0095898239 0.0095898509 0.68611676
0.0095773796 0.0076619089 0.68581629
0.009564966 0.0057390034 0.6855166
0.009552585 0.003821075 0.68521774
0.0095402366 0.0019080639 0.6849196
0.0095279198 2.9802322e-08 0.68462223
0.0095156347 -0.0019031465 0.6843257
0.0095033804 -0.0038013458 0.68402982
0.0094911586 -0.0056946874 0.68373477
0.0094789676 -0.0075832009 0.68344045
0.0094668083 -0.0094668269 0.68314689
0.0094546797 -0.011345625 0.68285412
0.0094425827 -0.013219625 0.68256205
0.0094305165 -0.015088797 0.68227065
0.009418481 -0.01695323 0.68198013
0.0094064763 -0.018812984 0.68169039
0.0093945023 -0.020667881 0.68140125
0.0093825581 -0.022518098 0.68111289
0.0093706446 -0.024363667 0.68082529
0.0093587618 -0.026204556 0.68053842
0.009346908 -0.028040707 0.68025225
0.0093351193 -0.029872388 0.6799677
0.0093233613 -0.031699419 0.67968374
0.0093116313 -0.033521831 0.67940056
0.009299932 -0.035339743 0.67911816
0.0092882626 -0.037153035 0.67883635
0.009276621 -0.038961828 0.67855537
0.0092650438 -0.040766209 0.67827582
0.0092534609 -0.042565912 0.67799628
0.0092419069 -0.044361115 0.67771721
0.0092303818 -0.046151906 0.67743903
0.0092188846 -0.047938228 0.67716157
0.0092074173 -0.049720019 0.67688465
0.0091959778 -0.051497459 0.67660844
0.0091846008 -0.053270698 0.67633379
0.0091732172 -0.055039287 0.67605901
0.0091618635 -0.056803554 0.67578495
0.0091505367 -0.058563441 0.67551142
0.0091392379 -0.060318947 0.67523861
0.0091279671 -0.062070161 0.67496651
0.0091167251 -0.063817084 0.67469513
0.0091055427 -0.065559924 0.67442513
0.0090943547 -0.067298204 0.67415506
0.0090831947 -0.069032311 0.67388564
0.0090720616 -0.070762068 0.67361683
0.0090609556 -0.072487667 0.67334872
0.0090498775 -0.074209005 0.67308128
0.0090388265 -0.075926155 0.67281449
0.0090278341 -0.077639386 0.67254913
0.0090168361 -0.079348192 0.67228359
0.0090058651 -0.08105278 0.67201877
0.012248483 0.093905032 0.70101845
0.012215142 0.091613621 0.7003476
0.012198168 0.08945322 0.70000613
0.012181242 0.08729893 0.69966555
0.012164362 0.08515054 0.69932604
0.012147528 0.08300814 0.69898731
0.012130791 0.08087191 0.6986506
0.012114148 0.078741938 0.69831574
0.012097551 0.076617807 0.69798183
0.012080998 0.074499488 0.69764888
0.012064444 0.072386682 0.69731575
0.012047982 0.070279896 0.69698459
0.012031565 0.068178892 0.69665432
0.012015193 0.06608358 0.69632494
0.011998818 0.063993692 0.69599545
0.011982535 0.061909795 0.69566792
0.011966296 0.0598315 0.69534117
0.011950054 0.05775857 0.69501448
0.011933902 0.05569154 0.69468951
0.011917795 0.053630114 0.69436544
0.011901732 0.051574171 0.69404227
0.011885663 0.049523622 0.69371903
0.011869686 0.047478735 0.69339758
0.01183688 0.045374691 0.69273758
0.011820987 0.043343604 0.6924178
0.011805089 0.04131785 0.69209802
0.011789234 0.039297462 0.69177902
0.011773468 0.037282646 0.69146186
0.0117577 0.035273105 0.69114459
0.011741973 0.033268958 0.69082814
0.011726333 0.031270236 0.69051349
0.011710688 0.029276729 0.69019872
0.011695086 0.027288526 0.6898849
0.011679526 0.025305659 0.68957186
0.011664053 0.023328096 0.68926054
0.011648574 0.021355718 0.68894917
0.011633138 0.019388556 0.68863857
0.011617786 0.017426699 0.6883297
0.011602431 0.015469879 0.68802083
0.011587115 0.013518304 0.68771267
0.011571841 0.011571854 0.68740541
0.011556651 0.0096305311 0.68709975
0.011541456 0.007694304 0.6867941
0.011526302 0.0057631433 0.68648922
0.011511232 0.0038371086 0.68618596
0.011496156 0.0019160509 0.68588269
0.011481119 2.9802322e-08 0.68558025
0.011466123 -0.0019110143 0.68527853
0.011451209 -0.0038170815 0.68497849
0.011436291 -0.005718112 0.68467832
0.011421411 -0.007614255 0.68437892
0.011406614 -0.0095055103 0.68408126
0.011391941 -0.011391938 0.68378603
0.011377262 -0.013273448 0.68349075
0.011362621 -0.01515016 0.68319619
0.01134806 -0.017022103 0.68290323
0.011333495 -0.018889159 0.68261027
0.011318967 -0.020751417 0.68231791
0.011304517 -0.022609025 0.68202722
0.011290063 -0.024461806 0.68173647
0.011275646 -0.026309818 0.68144643
0.011261308 -0.02815327 0.68115795
0.011246964 -0.029991895 0.68086934
0.011232656 -0.03182587 0.68058145
0.011218427 -0.033655286 0.68029523
0.011204192 -0.035479933 0.68000889
0.011189993 -0.037299961 0.6797232
0.011175872 -0.039115578 0.67943907
0.011161745 -0.040926397 0.67915493
0.011147653 -0.042732716 0.67887139
0.011133638 -0.044534534 0.67858946
0.011119617 -0.046331733 0.67830735
0.011105631 -0.048124403 0.67802596
0.011091722 -0.049912721 0.67774618
0.011077806 -0.05169642 0.67746615
0.011063926 -0.053475648 0.67718691
0.011050121 -0.055250585 0.67690921
0.011036309 -0.057020932 0.67663133
0.011022532 -0.058786839 0.67635417
0.011008831 -0.060548544 0.6760785
0.010995122 -0.062305689 0.67580271
0.010981448 -0.064058453 0.67552757
0.010967847 -0.065807074 0.67525399
0.01095424 -0.067551136 0.67498022
0.010940667 -0.069290876 0.67470717
0.010927168 -0.071026564 0.67443556
0.010913663 -0.072757736 0.67416382
0.010900189 -0.074484646 0.67389286
0.01088679 -0.076207519 0.6736232
0.010873384 -0.07792592 0.67335349
0.01086001 -0.079640061 0.6730845
0.010846709 -0.081350341 0.67281687
0.014451985 0.094970226 0.70381349
0.014340331 0.092187822 0.70188808
0.014320103 0.090012103 0.70153922
0.014299932 0.087842435 0.70119143
0.014279818 0.085678905 0.70084453
0.014259819 0.083521813 0.70049965
0.014239817 0.081370413 0.70015478
0.014219873 0.079225034 0.69981086
0.01420004 0.077085942 0.69946885
0.014180207 0.074952543 0.69912684
0.014160428 0.072825044 0.69878572
0.014140705 0.070703506 0.69844562
0.014121092 0.068588167 0.69810742
0.014101478 0.066478401 0.69776917
0.014081919 0.064374477 0.69743192
0.014062468 0.062276691 0.69709653
0.014043017 0.06018436 0.69676107
0.01402362 0.058097839 0.69642657
0.01400433 0.056017309 0.69609398
0.013985039 0.053942323 0.69576126
0.015847893 0.05886361 0.72788507
0.015829701 0.056534648 0.72757137
0.015811622 0.054211259 0.72725958
0.015793584 0.051893204 0.7269485
0.015775515 0.049580187 0.72663695
0.015757559 0.047272712 0.72632724
0.015740208 0.044972032 0.72602814
0.015725087 0.042682379 0.72576731
0.015710061 0.040397316 0.72550827
0.015694998 0.038116395 0.72524846
0.01568003 0.035840094 0.72499043
0.015923256 0.034121275 0.72918469
0.015904095 0.031808197 0.7288543
0.015884981 0.029500693 0.72852463
0.01586584 0.027198583 0.72819459
0.015846819 0.024902135 0.72786653
0.015827842 0.022611201 0.72753924
0.01580891 0.02032578 0.72721279
0.015789952 0.018045664 0.72688591
0.015771111 0.015771151 0.72656095
0.015752314 0.013502002 0.72623688
0.015733562 0.011238277 0.72591352
0.015714856 0.0089799464 0.72559094
0.015696123 0.0067268908 0.72526783
0.015677504 0.0044792891 0.72494686
0.015658932 0.0022369921 0.72462648
0.0156404 -0 0.72430694
0.015621845 -0.0022316873 0.72398698
0.015603403 -0.0044581294 0.72366899
0.015585002 -0.0066792667 0.72335172
0.015566647 -0.0088951886 0.7230351
0.015548335 -0.011105955 0.72271937
0.015529998 -0.013311416 0.72240317
0.015511771 -0.015511751 0.72208881
0.015493587 -0.017706931 0.72177529
0.015475446 -0.019897014 0.72146249
0.015457279 -0.022081822 0.72114921
0.015439223 -0.024261624 0.72083771
0.015421073 -0.02643612 0.72052479
0.015402967 -0.028605521 0.72021258
0.015384902 -0.030769795 0.71990103
0.015366879 -0.032929003 0.71959025
0.015348899 -0.035083234 0.71928024
0.013168721 -0.03198117 0.68168437
0.013151809 -0.03381896 0.68139273
0.013134892 -0.035651863 0.68110102
0.013118067 -0.037480175 0.68081093
0.013101237 -0.03930369 0.68052065
0.013084497 -0.041122705 0.68023205
0.013067754 -0.042936891 0.67994326
0.0130511 -0.044746637 0.67965603
0.01303449 -0.046551734 0.67936969
0.013017921 -0.048352301 0.67908394
0.013001346 -0.05014807 0.67879808
0.012984863 -0.051939458 0.67851382
0.012968419 -0.053726315 0.67823035
0.012952019 -0.055508643 0.67794746
0.012935659 -0.057286501 0.67766535
0.012919294 -0.05905965 0.67738318
0.012903015 -0.060828507 0.67710245
0.012886779 -0.062592924 0.67682248
0.012870537 -0.064352691 0.6765424
0.012854382 -0.066108227 0.67626381
0.012838268 -0.067859411 0.67598593
0.012822195 -0.069606185 0.67570877
0.012806115 -0.071348339 0.67543149
0.012790121 -0.073086426 0.67515564
0.012774168 -0.074820161 0.67488062
0.012758253 -0.07654953 0.6746062
0.012742381 -0.078274623 0.67433238
0.012726544 -0.079995409 0.67405933
0.01271075 -0.081711963 0.67378694
0.016520713 0.092929035 0.7038762
0.016496884 0.090732843 0.70351666
0.016473122 0.088543057 0.70315814
0.01644936 0.086359143 0.70279962
0.016425736 0.084181905 0.70244312
0.016402179 0.082010925 0.70208764
0.01637869 0.079846114 0.70173323
0.0163552 0.077687234 0.70137882
0.016331844 0.075534791 0.70102644
0.016308488 0.073388189 0.70067406
0.016285267 0.071248025 0.70032358
0.01626211 0.06911397 0.69997424
0.016239019 0.066985965 0.69962585
0.01621593 0.064863741 0.6992774
0.016192971 0.062747747 0.69893098
0.01617001 0.060637534 0.6985845
0.016147245 0.058533758 0.69824106
0.016124675 0.056436419 0.69790047
0.016102167 0.054344833 0.69756079
0.01620313 0.052660167 0.69908428
0.01645619 0.051425576 0.70290267
0.016435988 0.049308002 0.7025978
0.016415766 0.047195345 0.70229274
0.016395662 0.045088053 0.70198941
0.016375607 0.042985976 0.70168674
0.016355667 0.040889174 0.70138592
0.01633591 0.038797826 0.70108771
0.016316134 0.036711305 0.70078933
0.016296405 0.034629852 0.70049167
0.016276725 0.032553464 0.70019472
0.01625709 0.030482054 0.69989848
0.016237572 0.02841574 0.69960397
0.016218031 0.026354313 0.69930911
0.01619854 0.024297804 0.69901496
0.016179094 0.022246242 0.69872159
0.016159762 0.020199716 0.69842988
0.016140409 0.018157989 0.69813782
0.016121102 0.016121119 0.69784659
0.016101843 0.014089137 0.69755596
0.016082693 0.012062043 0.69726706
0.016063524 0.010039687 0.69697779
0.016044402 0.0080221891 0.69668925
0.016025325 0.0060094893 0.69640142
0.016006421 0.0040015876 0.69611621
0.01598756 0.0019984543 0.69583154
0.015968937 2.9802322e-08 0.69555056
0.015950421 -0.0019938052 0.69527119
0.015931882 -0.0039829314 0.69499147
0.015913451 -0.0059675574 0.69471335
0.015895063 -0.0079475343 0.69443589
0.015876655 -0.0099228919 0.69415808
0.015858978 -0.011894196 0.69389141
0.015841404 -0.013861239 0.69362628
0.015823871 -0.015823871 0.69336164
0.015806375 -0.017782182 0.69309765
0.015788918 -0.019736141 0.69283432
0.01577181 -0.021686226 0.69257617
0.015754741 -0.023632109 0.69231856
0.01573851 -0.025575072 0.6920737
0.015722932 -0.027515143 0.69183862
0.015707754 -0.029452056 0.69160962
0.015694574 -0.031389117 0.69141078
0.017066678 -0.036266685 0.71211421
0.017046183 -0.03835392 0.71180499
0.017025737 -0.040436149 0.71149647
0.017005339 -0.042513341 0.71118867
0.016984919 -0.044585407 0.71088052
0.01696462 -0.046652734 0.71057427
0.016944369 -0.048715085 0.71026874
0.016924094 -0.05077228 0.70996273
0.016903941 -0.052824795 0.70965868
0.016883833 -0.054872453 0.70935529
0.016863704 -0.056914985 0.70905161
0.016843693 -0.058952928 0.70874965
0.0168238 -0.06098628 0.70844948
0.016804308 -0.063016146 0.70815539
0.016784858 -0.065041333 0.7078619
0.016765526 -0.06706208 0.70757014
0.016746167 -0.069077909 0.70727807
0.016726853 -0.071089089 0.70698661
0.016707653 -0.073096007 0.70669699
0.016688429 -0.075097919 0.70640683
0.016669249 -0.07709527 0.70611745
0.016650181 -0.07908836 0.7058298
0.016631087 -0.081076533 0.70554161
0.016612038 -0.083060145 0.70525414
0.016593101 -0.085039616 0.70496845
0.016574139 -0.087014198 0.70468235
0.018755011 0.091691136 0.70614576
0.018726934 0.089473158 0.70576918
0.018699018 0.087262094 0.70539474
0.018671108 0.085057288 0.70502037
0.01864328 0.082859039 0.70464718
0.018615613 0.080667645 0.70427608
0.018587951 0.078482449 0.70390511
0.01856037 0.07630375 0.70353514
0.018532949 0.074131787 0.70316738
0.018505532 0.071965933 0.70279962
0.018478194 0.069806546 0.70243299
0.018451015 0.067653716 0.70206845
0.018423989 0.065507531 0.70170599
0.018397119 0.063367903 0.70134556
0.018370327 0.061234415 0.70098621
0.018343613 0.059107214 0.70062792
0.018317049 0.056986421 0.70027161
0.01829049 0.0548715 0.69991541
0.018264007 0.052762687 0.69956017
0.0183035 0.05084309 0.70008987
0.018350041 0.048933446 0.70071417
0.018333605 0.046852589 0.70049369
0.018311389 0.044761181 0.70019573
0.018289227 0.042674899 0.69989848
0.018267119 0.040593624 0.69960195
0.018245064 0.038517326 0.69930619
0.018223062 0.036446154 0.69901109
0.01820104 0.03437975 0.69871569
0.018179145 0.032318473 0.69842201
0.0181573 0.030262142 0.69812906
0.01813551 0.028210789 0.69783676
0.018113771 0.026164353 0.69754523
0.018092085 0.024122775 0.69725436
0.01807045 0.022086114 0.6969642
0.018048795 0.020054251 0.69667375
0.018027263 0.018027276 0.69638497
0.018005785 0.016005158 0.69609684
0.017984355 0.013987839 0.69580942
0.017962975 0.011975318 0.69552273
0.01794165 0.0099675655 0.69523668
0.017920373 0.0079646111 0.69495136
0.017899146 0.0059664249 0.69466656
0.017877901 0.0039728582 0.69438165
0.017856773 0.0019841194 0.69409835
0.017835699 2.9802322e-08 0.69381565
0.017814672 -0.0019793808 0.6935336
0.017793695 -0.0039541721 0.69325233
0.017772768 -0.0059242547 0.69297159
0.017751889 -0.0078897476 0.69269156
0.017731059 -0.0098505914 0.6924122
0.017710209 -0.011806846 0.69213259
0.01768948 -0.013758481 0.69185454
0.017668795 -0.015705556 0.69157702
0.01764816 -0.01764816 0.69130033
0.017627575 -0.019586176 0.69102418
0.017607035 -0.021519691 0.69074875
0.017586546 -0.023448706 0.69047385
0.017571105 -0.025380492 0.69026679
0.017556172 -0.027309597 0.69006658
0.017538941 -0.029231578 0.68983543
0.017520789 -0.031148076 0.68959194
0.017502131 -0.033059567 0.68934172
0.017482968 -0.034965932 0.68908477
0.017463781 -0.036867976 0.68882734
0.01744457 -0.038765699 0.68856966
0.017424926 -0.040658146 0.68830621
0.01740526 -0.042546213 0.68804246
0.017385572 -0.044429809 0.68777841
0.017365661 -0.046308398 0.68751132
0.017345726 -0.048182607 0.68724406
0.017325705 -0.050052017 0.68697542
0.017305799 -0.051917404 0.68670839
0.017285803 -0.053778052 0.68644029
0.017265655 -0.055633783 0.68616998
0.017245555 -0.057485163 0.68590045
0.0172255 -0.059332252 0.68563145
0.017205361 -0.061174601 0.68536139
0.017185206 -0.063012421 0.68509102
0.017165029 -0.064845651 0.68482035
0.017144967 -0.066674858 0.6845513
0.017124951 -0.068499804 0.6842829
0.01710498 -0.070320457 0.68401504
0.017085059 -0.072136909 0.68374777
0.01706518 -0.073949128 0.68348122
0.017045351 -0.075757086 0.68321526
0.017025566 -0.077560902 0.6829499
0.017005827 -0.079360515 0.6826852
0.016986135 -0.081155956 0.68242103
0.016966552 -0.082947597 0.68215835
0.021122521 0.090826869 0.70956928
0.021088246 0.088570625 0.70915556
0.021054083 0.086321741 0.70874321
0.02102012 0.084080487 0.70833319
0.020987233 0.081850201 0.70793629
0.020954449 0.079626918 0.70754051
0.020921767 0.077410549 0.70714605
0.020889187 0.075201094 0.70675272
0.020856623 0.072998196 0.70635962
0.020824244 0.07080245 0.7059688
0.020791968 0.068613499 0.70557916
0.020759791 0.066431344 0.70519072
0.020727715 0.064255923 0.70480353
0.020695735 0.062087208 0.70441753
0.020663856 0.059925169 0.70403272
0.020632073 0.057769775 0.7036491
0.02060039 0.055621058 0.70326662
0.020568801 0.053478926 0.70288527
0.020537311 0.051343292 0.70250517
0.020505916 0.049214244 0.7021262
0.020474618 0.047091633 0.70174843
0.020386027 0.044849247 0.70067906
0.020355674 0.042746902 0.70031267
0.020325491 0.040650994 0.69994831
0.020295318 0.038561106 0.69958407
0.020265233 0.036477417 0.6992209
0.020235319 0.034400046 0.69885981
0.020205412 0.032328665 0.69849885
0.020175591 0.030263394 0.69813883
0.020145942 0.028204292 0.69778097
0.020116298 0.02615121 0.6974231
0.020086741 0.024104118 0.69706631
0.020057352 0.022063047 0.6967116
0.020027967 0.020027965 0.69635689
0.01999867 0.017998815 0.69600326
0.019969536 0.015975624 0.69565153
0.01994041 0.013958275 0.69529992
0.019911366 0.011946827 0.69494939
0.019882487 0.0099412799 0.69460076
0.019853614 0.0079414546 0.69425225
0.019824823 0.0059474707 0.6939047
0.019796195 0.0039592385 0.69355917
0.019767569 0.0019767582 0.69321364
0.019739028 2.9802322e-08 0.69286907
0.019710647 -0.0019710362 0.69252646
0.01968227 -0.0039364696 0.69218391
0.019653972 -0.0058961809 0.69184232
0.019625835 -0.0078503489 0.69150269
0.019597778 -0.0097988844 0.69116396
0.019569799 -0.011741877 0.69082636
0.019542055 -0.013679415 0.69049138
0.019514389 -0.01561147 0.69015741
0.019486802 -0.0175381 0.68982446
0.019459367 -0.019459397 0.6894933
0.019432765 -0.021376044 0.68917215
0.019410299 -0.023292363 0.68890095
0.019387886 -0.025204241 0.6886304
0.019365525 -0.027111739 0.68836045
0.019343216 -0.029014796 0.68809122
0.019320957 -0.030913532 0.68782252
0.019298676 -0.032807738 0.68755352
0.019276518 -0.034697741 0.68728614
0.019254414 -0.036583394 0.68701923
0.019232359 -0.038464695 0.68675297
