# .PCD v0.7 - Point Cloud Data file format
VERSION 0.7
FIELDS x y z
SIZE 4 4 4
TYPE F F F
COUNT 1 1 1
WIDTH 258
HEIGHT 1
VIEWPOINT 0 0 0 1 0 0 0
POINTS 258
DATA ascii
-0.036247022 -0.053582564 0.64483285
-0.03952492 -0.047429889 0.64544111
-0.03952492 -0.047429889 0.64544111
-0.025614509 -0.052829891 0.64784443
-0.033473067 -0.051006556 0.64700544
-0.051257227 -0.041646481 0.64795089
-0.02271938 -0.048684418 0.65048873
-0.047114901 -0.037366986 0.6507107
-0.029299956 -0.043949962 0.65108782
-0.029419016 -0.040859729 0.65188622
-0.047412787 -0.035968333 0.65195066
-0.055902682 -0.037816495 0.65307003
-0.055902682 -0.037816495 0.65307003
-0.047726244 -0.034560382 0.65325546
-0.026438158 -0.062790602 0.6540584
-0.045181073 -0.030120701 0.65659189
-0.050589312 -0.030353606 0.65815365
-0.020325117 -0.054200292 0.65905279
-0.01699155 -0.033983111 0.65970403
-0.01699155 -0.033983111 0.65970403
-0.01699155 -0.033983111 0.65970403
-0.018819544 -0.02737388 0.66111791
-0.048248429 -0.022401035 0.66260153
-0.039526872 -0.022341281 0.66204643
-0.012141091 -0.027751058 0.66396356
-0.034881689 -0.017440826 0.66512752
-0.0071163131 -0.019569844 0.6693517
-0.0089186681 -0.014269859 0.66991365
-0.012446954 -0.01244691 0.66923791
0 -0.017914444 0.67084485
0 -0.017914444 0.67084485
-0.037499979 -0.012499988 0.6701526
-0.0053967778 -0.034179598 0.67174751
-0.010821061 -0.04869476 0.67230088
-0.0054186168 -0.010837227 0.67262626
-0.001817675 -0.012723684 0.67401069
-0.0054810001 -0.040193975 0.67513633
-0.0036553212 -0.0054830015 0.67521608
-0.0018341863 -0.005502522 0.67600381
-0.029399896 -0.0036750138 0.67640305
-0.033114284 -0.0018396676 0.67666721
0 -0.029531687 0.67739713
0.0037159671 -0.0055739582 0.6788764
-0.024423687 0.0037575066 0.68138254
-0.024423687 0.0037575066 0.68138254
-0.060506523 -0.054834038 0.68284112
0.015186949 -0.0037967265 0.68375123
0.0095005296 0.0019001067 0.68396097
-0.047741052 -0.068747103 0.68511212
-0.05160879 -0.064988852 0.68532872
0.0095740072 -0.017233223 0.68573493
-0.013374487 0.011463851 0.6852327
-0.013374487 0.011463851 0.6852327
-0.059514631 -0.061434478 0.68634152
0.0076976484 0.013470888 0.68689501
-0.057925738 -0.059856594 0.68767309
0.011556918 0.0096307397 0.68710518
0.019440163 0.0097200572 0.68926144
-0.052930586 -0.050970167 0.69123816
-0.0078384047 0.019595981 0.69114268
0.025627574 0.011828125 0.69256115
0.023745285 0.015830159 0.69345707
0.015805313 0.02173233 0.69308168
0.017901992 0.023869336 0.69470477
0.0019978308 0.027969629 0.69575745
-0.046167627 -0.04215306 0.69689906
-0.0080381492 0.028133541 0.69717056
0.026314534 0.024290353 0.69893992
0.028412292 0.024353415 0.69957411
0.022345876 0.032503098 0.6998148
-0.0020489458 0.03483209 0.70192754
0.028749522 0.032856613 0.70248187
-0.037336025 -0.031113327 0.70497888
-0.037336025 -0.031113327 0.70497888
0.031118771 0.037342519 0.70502245
0.0041815038 0.041815072 0.70697403
0.03348729 0.039766133 0.70724005
0.0063155871 0.044209123 0.70871758
0.014740837 0.046328336 0.70879453
0.035926335 0.014793187 0.70969748
0.035926335 0.014793187 0.70969748
0.036238879 0.012790203 0.7119168
0.036213271 0.048994422 0.71173489
0.036213271 0.048994422 0.71173489
0.027628748 0.051006913 0.7111429
-0.023703983 -0.010774523 0.71471822
0.043391168 0.054238915 0.71648681
0.046067692 0.05922991 0.71940088
0.039575603 0.063760698 0.71999782
0.013231287 0.055130363 0.72079086
0.05318604 0.046537817 0.72210306
-0.01350077 -0.0045002103 0.72621244
-0.011307134 0.0022614598 0.72757626
-0.0045881113 0.016058385 0.73151493
-0.0023101976 0.016171366 0.73346347
0 0.018623203 0.73560029
0 0.018623203 0.73560029
0.0071346308 0.028538555 0.74167335
0.027797151 0.055594295 0.75963545
0.027881077 0.053227544 0.7605564
0.030887621 0.054053336 0.76530331
-0.032957356 -0.056498334 0.64404106
-0.034713048 -0.055225298 0.64506316
-0.027229356 -0.05926387 0.64794338
-0.027115215 -0.052635372 0.64713299
-0.036600288 -0.046942875 0.64668691
-0.021216575 -0.048961312 0.6516031
-0.029245537 -0.045493066 0.65072286
-0.029245537 -0.045493066 0.65072286
-0.019743919 -0.044423819 0.65320641
-0.062288705 -0.03770107 0.65246403
-0.052737854 -0.036257267 0.65353614
-0.052737854 -0.036257267 0.65353614
-0.024875006 -0.038970053 0.65477651
-0.0431275 -0.031516284 0.65482676
-0.016734067 -0.038488358 0.656596
-0.044974826 -0.027153656 0.65945643
-0.027009366 -0.027009368 0.65836787
-0.022166848 -0.061385125 0.6604268
-0.022166848 -0.061385125 0.6604268
-0.022166848 -0.061385125 0.6604268
-0.047076382 -0.025678292 0.66124094
-0.018869029 -0.025730491 0.66166097
-0.015522537 -0.027595609 0.66279083
-0.02071907 -0.020719051 0.66301566
-0.019039193 -0.020770013 0.66352826
-0.017351454 -0.02082172 0.66404849
-0.012310806 -0.045725852 0.6668902
-0.0052611185 -0.024551868 0.66628897
-0.031708632 -0.014092714 0.66724074
-0.014267122 -0.053501695 0.66987216
-0.01240446 -0.014176518 0.66850519
-0.026647044 -0.010658801 0.66903675
-0.0053767348 -0.017024949 0.670941
-0.037614621 -0.010746986 0.67081153
-0.0054417374 -0.038092166 0.67355657
-0.0054332674 -0.0090554059 0.67321575
-0.023500098 -0.0054230988 0.67280662
0.0054892781 -0.01646781 0.6754694
0.0054758815 -0.014602363 0.67493039
-0.031178538 -0.00366804 0.6759851
-0.0036662221 -0.0036661923 0.67587399
0 -0.027582377 0.67656362
0.0073957657 -0.0073957741 0.67778492
-0.0018341863 -0.005502522 0.67600381
-0.033114284 -0.0018396676 0.67666721
0.011199971 -0.007466644 0.67992389
0.00092905387 -0.0018546134 0.67846942
-0.024077609 -0 0.67816901
-0.024077609 -0 0.67816901
-0.063907094 -0.058268219 0.68148822
0.0018744308 -0.029990911 0.68086171
-0.041641235 -0.072869092 0.68307704
0.007600741 0.0057005584 0.68397057
0.0018877897 0.0075511932 0.68247432
-0.049435608 -0.070350647 0.6841135
-0.04595365 -0.068930477 0.685727
-0.057336092 -0.053513676 0.68530047
-0.059801906 -0.06558919 0.68746012
-0.054305863 -0.062063843 0.6887157
0.015569491 -0.0058385432 0.68952346
-0.023221105 0.013545662 0.6881842
-0.023221105 0.013545662 0.6881842
0.007759063 0.017457932 0.68874836
0.017664151 0.013738811 0.69151473
-0.0078384047 0.019595981 0.69114268
0.017821934 -0.0079208612 0.69363105
0.017821934 -0.0079208612 0.69363105
0.019814853 -0.001981467 0.69378436
0.00098413276 0.023636132 0.69235945
0.028211929 0.022166491 0.69784659
0.032360412 0.022247791 0.69873834
-0.042807166 -0.038730294 0.70065898
-0.038869329 -0.030686289 0.70154232
0.028592277 0.010211557 0.70112604
0.024451973 0.032602638 0.70056576
-0.041044973 -0.038992733 0.70232624
0.037180964 0.030984163 0.70393902
0.028749522 0.032856613 0.70248187
-0.031483755 -0.02098918 0.70795965
-0.031483755 -0.02098918 0.70795965
0.033394258 0.037568569 0.70653814
0.035926335 0.014793187 0.70969748
0.0063155871 0.044209123 0.70871758
0.033840749 0.046531022 0.70990664
0.029611031 0.048646688 0.70990992
0.010612378 0.046694458 0.71080333
0.04056051 0.044830024 0.71228665
0.021483384 0.053708434 0.71392536
0.045342494 0.036705822 0.71523237
0.02800451 0.056009024 0.71463203
0.037119575 0.061138123 0.71817023
0.046246726 0.061662316 0.72042996
-0.015654592 -0.0044727325 0.72455168
-0.011229835 0.0044919252 0.72571015
0.055909254 0.058145672 0.72455168
0.047758698 0.077323616 0.72912097
-0.0023101976 0.016171366 0.73346347
0.0047654808 0.019061953 0.7422201
0.017222362 0.039365381 0.75158697
0.017222362 0.039365381 0.75158697
0.028086951 0.051067203 0.76281571
-0.031300485 -0.057905897 0.64351308
-0.025420796 -0.044281706 0.65257108
-0.022200968 -0.058185734 0.65819734
-0.022200968 -0.058185734 0.65819734
-0.041146576 -0.026489785 0.65871686
-0.014506384 -0.032424942 0.66059989
-0.050040968 -0.024804771 0.66111588
-0.012244725 -0.042857781 0.66575062
-0.0088617746 -0.038106903 0.66854012
-0.0026798316 -0.018306535 0.67026544
-0.044361655 -0.01419574 0.66879493
-0.036977395 -0.073336661 0.67409205
0.0018063098 -0.021675706 0.67263877
-0.03384912 -0.0036593676 0.67545974
0 -0.030539379 0.6779995
0.0073763039 -0.013832718 0.67719758
-0.011266929 0.0075112879 0.68127102
-0.050765708 -0.069916949 0.68583399
-0.050026264 -0.066714577 0.68688571
-0.055792533 -0.05050081 0.68683082
0.010803073 0.0031786263 0.68471229
0.010803073 0.0031786263 0.68471229
-0.053820454 -0.053825356 0.69085914
0.011734947 -0.018585429 0.69068682
0.017664151 0.013738811 0.69151473
-0.049360421 -0.039488345 0.69293112
0.0023896606 0.026670737 0.6948334
0.0023896606 0.026670737 0.6948334
0.032361064 0.01820311 0.69874334
-0.037686475 -0.026037913 0.70274949
-0.0020596657 0.03707397 0.70322156
0.0051513263 0.037106082 0.70343685
0.03337691 0.013556868 0.70640731
0.039424796 0.026974857 0.70507127
0.040419791 0.025528312 0.71139276
0.01679958 0.046198845 0.70808399
0.01679958 0.046198845 0.70808399
0.03086642 0.045599502 0.7086364
0.0085112397 0.048939645 0.7114473
0.045320496 0.042083636 0.71510589
0.045412183 0.04649426 0.71563298
0.041064743 0.054032564 0.71549016
0.041064743 0.054032564 0.71549016
-0.019783629 -0.015387267 0.71994179
0.018581089 0.056847692 0.71852571
0.029522378 0.061233699 0.71858227
0.024255008 0.061740041 0.72076505
0.035708509 0.069185197 0.72399783
0.037884861 0.069084197 0.7236042
0.055909254 0.058145672 0.72455168
0.055987082 0.060466081 0.72492748
0.036027975 0.072055995 0.726408
0.034728166 0.078717142 0.73406863
0.0023449482 0.022275925 0.73765826
0.012078912 0.037445784 0.74620867
0.025119426 0.050238848 0.7578162
