# .PCD v0.7 - Point Cloud Data file format
VERSION 0.7
FIELDS x y z
SIZE 4 4 4
TYPE F F F
COUNT 1 1 1
WIDTH 237
HEIGHT 1
VIEWPOINT 0 0 0 1 0 0 0
POINTS 237
DATA ascii
-0.025117351 -0.027908176 0.62303865
-0.025117351 -0.027908176 0.62303865
-0.036284361 -0.018142164 0.62305599
-0.034904677 -0.018150419 0.62313259
-0.029504759 -0.019669801 0.62419504
-0.038290359 -0.014181614 0.62578517
-0.021368235 -0.038462818 0.62655622
-0.021301644 -0.035502762 0.62602031
-0.02863233 -0.0171794 0.62740928
-0.033009917 -0.014352113 0.62784356
-0.044668183 -0.015850008 0.6285311
-0.043558557 -0.011615604 0.62986398
-0.040622469 -0.011606425 0.62972534
-0.018929038 -0.029121578 0.63036233
-0.051135264 -0.016071081 0.63095713
-0.050860375 -0.014531523 0.63000906
-0.030644115 -0.013133198 0.63074422
-0.019117694 -0.02352944 0.63211405
-0.020681469 -0.019204199 0.63291752
-0.030926513 -0.011781514 0.63236749
-0.023738289 -0.014836431 0.63368946
-0.023905503 -0.013446838 0.634951
-0.037340418 -0.0089617074 0.63489342
-0.015090222 -0.033198476 0.63675302
-0.021305779 -0.012174755 0.63830042
-0.041077096 -0.0076068938 0.63824403
-0.041077096 -0.0076068938 0.63824403
-0.059395127 -0.02500847 0.64327228
-0.010939635 -0.025004864 0.64324516
-0.032808658 -0.0046869516 0.64318627
-0.029744115 -0.0046964288 0.64356804
-0.022014659 -0.0062898993 0.64441252
-0.0095048109 -0.022177905 0.6458199
-0.0095152352 -0.028545707 0.64602971
-0.015927378 -0.0079636872 0.64685839
-0.017555378 -0.0063838065 0.64724535
-0.048272468 -0.054708809 0.64883137
-0.058695581 -0.034239054 0.65140855
-0.058910768 -0.031091809 0.65213013
-0.0065678083 -0.013135582 0.65279907
-0.054242451 -0.046023875 0.65301132
-0.0066077719 -0.031386912 0.65400511
-0.0082998862 -0.006639868 0.65497488
-0.018241351 2.9802322e-08 0.654773
-0.018241351 2.9802322e-08 0.654773
-0.049854558 -0.049854547 0.65519714
-0.0099680973 -0.038211018 0.65514058
-0.058407106 -0.026700377 0.65603679
-0.0168323 0.0016832054 0.65778172
-0.050686855 -0.040549517 0.65854609
-0.054423414 -0.032313913 0.65989441
-0.0033961299 -0.028867096 0.65957248
-0.05612262 -0.023809612 0.6598888
-0.051050577 -0.039138734 0.66000956
-0.008531671 -0 0.66057068
-0.008531671 -0 0.66057068
-0.010258156 0.0017096996 0.66097611
-0.039550509 -0.048148423 0.66217041
-0.046632551 -0.044905424 0.66308117
-0.052031986 -0.038156748 0.66395843
-0.029744718 0.005249083 0.66580415
-0.015747864 0.0069990456 0.66581297
-0.038548838 -0.042053252 0.66610956
-0.037024423 -0.044076711 0.66741908
-0.0035650143 0.0053474903 0.66976559
-0.0089695407 0.0089695752 0.6711418
-0.048657946 -0.028834313 0.67213619
-0.041896474 -0.0364317 0.67448276
-0.016484594 0.014652997 0.67569417
0.0037268721 0.0093171895 0.67953455
0.015058571 -0.0018823147 0.68181419
0.0037608512 0.011282533 0.68158537
0.011406569 0.0057033002 0.68408036
-0.0095894197 0.019178867 0.68610704
0.015797267 0.011848003 0.69296026
0.023702076 -2.9802322e-08 0.69302237
-0.005932474 0.02372992 0.69330221
0.017849695 0.0099164844 0.69400334
0.031405631 0.010468543 0.70733094
0.017102627 0.029929608 0.71265662
0.0063983402 0.03199169 0.71204722
0.0086751496 0.034700602 0.71639371
0.030659104 0.026279241 0.71894658
0.018316083 0.041211188 0.73096627
0.016021149 0.043485999 0.73087275
0.020708025 0.041416079 0.7323401
0.041834854 0.032538205 0.73514867
0.041834854 0.032538205 0.73514867
0.049107283 0.025722891 0.73687285
0.020994173 0.04432106 0.73617804
0.037477076 0.03981939 0.73734063
0.021169253 0.047042757 0.73852623
0.034594417 0.051891625 0.75287753
0.035290148 0.055455953 0.75887632
0.043239631 0.055957139 0.76162648
-0.02516395 -0.032153934 0.6233511
-0.037131641 -0.016814321 0.62373698
-0.024115786 -0.038301528 0.62583512
-0.024227265 -0.022802144 0.62662673
-0.029271886 -0.017135814 0.62697101
-0.049223378 -0.015203267 0.62935638
-0.049383704 -0.013072133 0.62992561
-0.03668341 -0.012947366 0.62825191
-0.033320922 -0.013038635 0.62947583
-0.040622469 -0.011606425 0.62972534
-0.024830101 -0.016794473 0.63090724
-0.025192425 -0.044457197 0.63347995
-0.017791897 -0.038549125 0.63357061
-0.017803768 -0.023738384 0.63369
-0.022650523 -0.016741633 0.63292146
-0.023841074 -0.050662279 0.63446492
-0.03086004 -0.0090325028 0.63631821
-0.033402994 -0.0075916052 0.63787508
-0.013766078 -0.032886624 0.63923264
-0.013741361 -0.025191963 0.63890111
-0.018267596 -0.015222967 0.63835573
-0.027027376 -0.0069463402 0.64100647
-0.03109034 -0.054408088 0.6422447
-0.018747453 -0.0093736947 0.64318275
-0.018747453 -0.0093736947 0.64318275
-0.011051473 -0.017366618 0.64517379
-0.025228033 -0.0047302544 0.64492869
-0.063612722 -0.028625727 0.64656627
-0.043687996 -0.055014491 0.64991671
-0.035403453 -0.05149591 0.64885134
-0.0096724099 -0.012896538 0.64919174
-0.011245495 -0.011245489 0.64851952
-0.052090168 -0.052090168 0.65109289
-0.051921256 -0.053543806 0.65045577
-0.047064777 -0.053556472 0.65050209
-0.055463091 -0.047306746 0.65150928
-0.060175419 -0.037406325 0.65091729
-0.0064982907 -0.024368554 0.65070117
-0.0081017138 -0.014583081 0.65019059
-0.012999536 -0.0064997375 0.65074575
-0.058910768 -0.031091809 0.65213013
-0.013200682 -0.0033001602 0.65378082
-0.051485423 -0.048991576 0.65507668
-0.043450158 -0.048463672 0.6563248
-0.057167318 -0.038672 0.65755987
-0.057148498 -0.026893407 0.657493
-0.057289179 -0.025274634 0.65799248
-0.020887896 0.0016711205 0.65631866
-0.0051121688 -0.0034081042 0.66029572
-0.0051440359 -0.0017146766 0.66157794
-0.013723167 0.0034307837 0.66166449
-0.053489331 -0.037096068 0.66287959
-0.001722156 -0.0051665008 0.66248059
-0.012029752 0.003437072 0.66204357
-0.018958529 0.0051705241 0.66264307
-0.045395881 -0.043649882 0.66535825
0.0017506444 -0.022758365 0.66591942
0.0069861934 -0.013098359 0.66542494
-0.012165212 0.0052136779 0.66437948
-0.020904677 0.00696823 0.66488278
-0.01746849 0.0069873929 0.66546124
-0.051261183 -0.031817257 0.66796941
0.0052918699 -0.0088197887 0.6675263
-0.044312783 -0.037222743 0.66855896
-0.044312783 -0.037222743 0.66855896
-0.043114234 -0.039521366 0.67144573
-0.049989447 -0.030350745 0.67010725
-0.0053689242 0.0071585774 0.67062676
-0.041896474 -0.0364317 0.67448276
-0.042184893 -0.031180143 0.67599648
0.014929617 -0.0037323833 0.67986846
0.0074602179 0.0055951476 0.67972994
-0.0037222283 0.013027787 0.67925429
0.0057341345 0.013379663 0.68532169
-0.0039896243 0.023937762 0.69539303
0.022225503 0.0080820024 0.6984939
0.02233409 0.010151833 0.69968545
0.020412641 0.016330093 0.70100027
0.020733468 0.020733476 0.70487309
0.014494029 0.024846882 0.70453852
0.029492347 0.012639582 0.70888656
0.03261026 0.019566178 0.71702498
0.03042963 0.023909003 0.716968
0.03493683 0.017468423 0.71817595
0.040223923 0.020111948 0.72434556
0.029048273 0.033517212 0.72432387
0.038313515 0.024791121 0.72664797
0.031896543 0.036453217 0.72961605
0.023033066 0.041459501 0.73263156
0.041834854 0.032538205 0.73514867
0.040168773 0.040168792 0.73982143
0.025912512 0.044757932 0.73895401
0.021169253 0.047042757 0.73852623
0.047705922 0.033394128 0.74252868
0.051409241 0.039168954 0.75010478
0.02936852 0.05139491 0.75002247
0.044529557 0.049477309 0.75321972
0.042445183 0.052432299 0.75598538
-0.041953828 -0.01407373 0.62627298
-0.020173658 -0.038186669 0.62853903
-0.019021783 -0.02596958 0.6312235
-0.033874862 -0.0096747763 0.6343478
-0.021722367 -0.012628357 0.6375429
-0.012902054 -0.034066588 0.64153951
-0.030121244 -0.0054365098 0.64227611
-0.038042899 -0.053099729 0.64594722
-0.014469016 -0.010309879 0.6460681
-0.056300342 -0.021716386 0.64877087
-0.0065111388 -0.018310457 0.65108889
-0.029824045 -0.0016121268 0.64919686
-0.058466155 -0.042147871 0.6541189
-0.060631059 -0.039328247 0.65240377
-0.0049542454 -0.025598183 0.65394133
-0.0548007 -0.029718988 0.6581502
-0.0548007 -0.029718988 0.6581502
-0.0017062986 -0.0093836784 0.66056639
-0.0096459212 0.0017199181 0.66160125
-0.048152905 -0.026751608 0.66987824
-0.0342266 -0.041432202 0.67204607
0.0054772003 0.0018257201 0.67498344
-0.0027622944 0.011058271 0.67707306
-0.010136226 0.012901589 0.67707759
0.011440071 0.0066761672 0.68475437
0.014330775 0.010421058 0.69044328
0.016062427 -0.016062438 0.69696122
0.028615534 0.0051106513 0.70132655
0.027503146 0.017985791 0.70997667
0.027503146 0.017985791 0.70997667
0.03279765 0.0021864772 0.71853298
0.03279765 0.0021864772 0.71853298
0.032972138 0.024179578 0.71993721
0.032972138 0.024179578 0.71993721
0.01430981 0.035222858 0.72033352
0.042422775 0.015629441 0.72411805
0.037565928 0.030732244 0.72940844
0.021870546 0.04143779 0.73248583
0.037946396 0.042689711 0.74088132
0.03077572 0.04497993 0.74036396
0.050920442 0.019398242 0.74729514
0.051248148 0.037829861 0.74917877
0.045949992 0.049670473 0.75438559
0.045949992 0.049670473 0.75438559
