# .PCD v0.7 - Point Cloud Data file format
VERSION 0.7
FIELDS x y z
SIZE 4 4 4
TYPE F F F
COUNT 1 1 1
WIDTH 1332
HEIGHT 1
VIEWPOINT 0 0 0 1 0 0 0
POINTS 1332
DATA ascii
-0.033759959 0.031348556 0.74568272
-0.033371873 0.028604418 0.74233663
-0.033029161 0.025951475 0.73938167
-0.03253293 0.023237795 0.73510313
-0.032095443 0.020632774 0.73133093
-0.031576771 0.018043876 0.72685885
-0.031015985 0.015507966 0.72202367
-0.030472916 0.013059795 0.7173413
-0.029960832 0.010700285 0.71292597
-0.029507626 0.008430779 0.70901835
-0.029103799 0.0062365234 0.70553643
-0.028747987 0.0041068494 0.70246851
-0.028496666 0.0020354688 0.70030165
-0.03424247 0.052680701 0.77255416
-0.033586506 0.049088001 0.76646328
-0.032971073 0.04565227 0.76074874
-0.032398749 0.042367607 0.75543451
-0.031866241 0.039220005 0.75048989
-0.031364407 0.036189735 0.74583012
-0.030902045 0.033279151 0.74153692
-0.030469952 0.030469924 0.73752475
-0.029939814 0.027636766 0.73260218
-0.029567864 0.02501896 0.72914851
-0.02921921 0.022476315 0.72591108
-0.028903836 0.020010352 0.72298265
-0.028621746 0.017613411 0.72036338
-0.028347949 0.015264302 0.71782094
-0.027982704 0.012915075 0.71442956
-0.027558865 0.010599554 0.71049398
-0.027099716 0.008338362 0.70623058
-0.026652122 0.0061505139 0.70207447
-0.026219916 0.0040338337 0.69806135
-0.025845898 0.0019881427 0.69458836
-0.025493987 2.9802322e-08 0.69132072
-0.025194 -0.0019379556 0.68853521
-0.024955928 -0.0038393438 0.6863246
-0.024848105 -0.0057341754 0.68532348
-0.03175151 0.055565178 0.77399349
-0.031079959 0.051799923 0.7672382
-0.03045135 0.048214674 0.76091486
-0.029871127 0.044806719 0.75507826
-0.029325776 0.041544825 0.74959248
-0.028812276 0.038416356 0.74442708
-0.028338237 0.035422802 0.73965859
-0.027784975 0.032415837 0.73409319
-0.027366562 0.029647112 0.72988427
-0.026972186 0.026972204 0.72591722
-0.026600208 0.024383545 0.72217536
-0.026257856 0.021881521 0.71873152
-0.02593193 0.019448936 0.71545297
-0.025635211 0.017090142 0.71246827
-0.025358588 0.014792502 0.70968562
-0.025101189 0.012550592 0.70709634
-0.024876244 0.010365129 0.70483363
-0.024645988 0.0082153678 0.70251739
-0.024343418 0.0060858428 0.6994738
-0.023996675 0.0039994717 0.69598579
-0.023620116 0.001968354 0.69219792
-0.023250958 -0 0.68848455
-0.022894297 -0.0019078553 0.68489677
-0.022577155 -0.003762871 0.68170655
-0.022276446 -0.0055691004 0.67868161
-0.022023071 -0.0073409975 0.67613292
-0.021796422 -0.0090818405 0.67385304
-0.021627624 -0.010813802 0.67215502
-0.028721292 0.054831564 0.76977676
-0.028085949 0.051065385 0.76280463
-0.027499661 0.047499418 0.7563709
-0.026949879 0.044099838 0.75033778
-0.026433071 0.040851116 0.74466646
-0.025955403 0.037753314 0.73942465
-0.025413817 0.034655213 0.73348153
-0.024991129 0.031806916 0.72884303
-0.024593258 0.029064745 0.72447687
-0.02421595 0.026417404 0.72033644
-0.023865763 0.023865789 0.71649361
-0.023529986 0.021390915 0.71280885
-0.023221048 0.01899904 0.70941871
-0.022925753 0.016673297 0.70617819
-0.022651568 0.014414638 0.70316947
-0.022394611 0.012215257 0.70034963
-0.022152955 0.010069519 0.69769776
-0.021933751 0.0079759359 0.69529229
-0.021726215 0.0059252977 0.69301486
-0.021544391 0.0039171576 0.69101959
-0.021350833 0.0019409955 0.68889546
-0.021100203 -0 0.68614519
-0.02081666 -0.0018924177 0.68303365
-0.020508185 -0.0037287474 0.67964858
-0.020203896 -0.0055101216 0.67630935
-0.019909875 -0.0072399676 0.67308283
-0.019641515 -0.0089279413 0.67013794
-0.019392993 -0.010577977 0.66741079
-0.01917143 -0.012199998 0.6649794
-0.018970681 -0.013796896 0.66277647
-0.018820252 -0.015398383 0.66112566
-0.018750239 -0.017045647 0.66035736
-0.026473034 0.058240682 0.77415568
-0.025831237 0.054245621 0.76640856
-0.025237506 0.050475001 0.75924158
-0.02468555 0.046902537 0.75257885
-0.024169121 0.043504417 0.74634504
-0.023692466 0.040277213 0.74059123
-0.023243636 0.037189841 0.7351734
-0.022743374 0.034115106 0.72913474
-0.022350516 0.03129074 0.72439253
-0.021975728 0.028568447 0.71986842
-0.021627875 0.025953472 0.71566945
-0.02129603 0.023425639 0.71166372
-0.020984504 0.020984501 0.70790333
-0.020689745 0.018620759 0.70434523
-0.020410974 0.016328782 0.70098019
-0.02014943 0.014104575 0.69782311
-0.019899962 0.011939973 0.6948117
-0.019668806 0.009834379 0.69202143
-0.019446662 0.0077787042 0.68933988
-0.019244418 0.0057733357 0.68689859
-0.019049309 0.0038098693 0.68454337
-0.018874764 0.0018875003 0.68243647
-0.018709473 -0 0.68044126
-0.018561088 -0.0018561482 0.67865008
-0.018398922 -0.0036797523 0.67669255
-0.018191619 -0.0054574609 0.67419016
-0.017960589 -0.007184267 0.67140144
-0.017708238 -0.0088540912 0.66835523
-0.01745837 -0.010475039 0.66533911
-0.017216759 -0.012051731 0.6624226
-0.016990453 -0.013592333 0.65969086
-0.016785771 -0.015107155 0.65722007
-0.016593166 -0.016593128 0.65489519
-0.016427716 -0.018070489 0.65289795
-0.016283793 -0.019540548 0.65116072
-0.016170751 -0.021021992 0.64979613
-0.023659866 0.057835251 0.77193105
-0.02305565 0.0537965 0.76382715
-0.022499947 0.049999863 0.75637388
-0.021984989 0.046412766 0.74946713
-0.021510219 0.043020457 0.74309945
-0.021067541 0.039794236 0.73716205
-0.020581767 0.036589801 0.73064673
-0.020195935 0.033659905 0.72547179
-0.019831723 0.030849308 0.7205869
-0.019487832 0.028149098 0.71597451
-0.019166263 0.025555015 0.71166158
-0.018858295 0.023049057 0.70753098
-0.018572848 0.020636499 0.70370251
-0.018297551 0.018297523 0.70001012
-0.018041926 0.016037285 0.6965816
-0.017795382 0.013840854 0.69327486
-0.017566033 0.011710733 0.69019878
-0.017345127 0.0096361935 0.68723595
-0.017139679 0.0076176524 0.68448043
-0.016942039 0.0056473315 0.68182963
-0.016758816 0.0037241876 0.67937219
-0.016583299 0.001842618 0.67701805
-0.016421236 -2.9802322e-08 0.67484444
-0.016267419 -0.0018074512 0.67278135
-0.016125921 -0.0035835505 0.67088354
-0.015995042 -0.0053316653 0.66912818
-0.015874434 -0.0070552826 0.66751057
-0.015739223 -0.0087439716 0.6656971
-0.015568581 -0.010379046 0.6634084
-0.015381242 -0.011963189 0.66089571
-0.015175208 -0.013489068 0.65813231
-0.014971733 -0.014971733 0.65540326
-0.014774175 -0.016415715 0.65275353
-0.014584503 -0.017825484 0.65020961
-0.014416832 -0.019222438 0.64796078
-0.014252975 -0.020587593 0.64576304
-0.014115063 -0.021956742 0.64391333
-0.013981964 -0.02330327 0.64212817
-0.013888091 -0.024689943 0.64086914
-0.013843178 -0.02614823 0.64026678
-0.020933984 0.057568431 0.77046734
-0.020370221 0.053471833 0.76196086
-0.019855017 0.049637526 0.75418699
-0.019382671 0.046033859 0.74705982
-0.018945988 0.042628467 0.74047077
-0.018476548 0.039262682 0.73338753
-0.018097632 0.036195308 0.72767007
-0.017746128 0.033273995 0.72236627
-0.01741302 0.030472815 0.71734011
-0.017102115 0.027790934 0.71264899
-0.016808329 0.025212497 0.70821607
-0.016530128 0.02272892 0.70401829
-0.016268985 0.02033627 0.70007795
-0.016019167 0.018021554 0.69630849
-0.015785618 0.015785635 0.69278449
-0.015560896 0.013615817 0.6893937
-0.015351133 0.011513352 0.68622863
-0.015148555 0.0094678104 0.68317199
-0.014959635 0.0074798167 0.6803214
-0.01477717 0.0055414438 0.6775682
-0.014606986 0.003651768 0.67500031
-0.014442971 0.0018053949 0.67252553
-0.014289991 -0 0.67021722
-0.014143265 -0.0017679036 0.66800332
-0.014006723 -0.0035016835 0.66594303
-0.013876543 -0.0052036941 0.66397876
-0.013756321 -0.0068781674 0.66216481
-0.01364244 -0.008526504 0.66044641
-0.013539537 -0.010154665 0.65889376
-0.01344228 -0.011761993 0.6574263
-0.013330499 -0.013330519 0.65573967
-0.013191067 -0.014839947 0.65363574
-0.01304036 -0.01630041 0.6513617
-0.012873404 -0.017700911 0.64884257
-0.012709013 -0.019063532 0.64636213
-0.012548729 -0.020391673 0.64394361
-0.012392475 -0.021686852 0.64158595
-0.012254906 -0.022977948 0.63951021
-0.012121641 -0.024243295 0.63749933
-0.012002929 -0.025506198 0.63570809
-0.011894608 -0.026762873 0.63407373
-0.011805191 -0.02803731 0.63272446
-0.011732252 -0.029330611 0.63162392
-0.018288257 0.057477385 0.76996756
-0.017763918 0.053291768 0.76092577
-0.017289268 0.049397916 0.75274062
-0.016856909 0.045754522 0.74528491
-0.016458476 0.042321831 0.73841417
-0.016033983 0.038939685 0.73109412
-0.015694434 0.035872996 0.7252388
-0.015376999 0.032950729 0.71976477
-0.015077146 0.030154288 0.71459395
-0.014799635 0.027485013 0.70980853
-0.014535774 0.024918497 0.70525837
-0.014287916 0.022452444 0.70098424
-0.01405361 0.020076573 0.69694376
-0.013831234 0.017782986 0.69310904
-0.013621557 0.015567482 0.68949324
-0.013421278 0.013421297 0.68603957
-0.013232501 0.011342168 0.68278426
-0.013051879 0.0093227923 0.6796695
-0.01288114 0.007360667 0.67672521
-0.012718042 0.0054505765 0.6739127
-0.012563033 0.0035894513 0.67123967
-0.012415848 0.0017736852 0.66870159
-0.01227491 -2.9802322e-08 0.66627115
-0.012142521 -0.0017346144 0.66398823
-0.01201436 -0.0034326613 0.66177821
-0.011895821 -0.0050982237 0.65973401
-0.011779797 -0.0067313015 0.65773326
-0.011674528 -0.008338958 0.655918
-0.011571164 -0.0099181533 0.65413547
-0.011478259 -0.011478215 0.65253341
-0.011387611 -0.013014406 0.65097028
-0.011307649 -0.014538378 0.64959133
-0.011230098 -0.016042978 0.64825398
-0.011138776 -0.017503828 0.64667928
-0.011026111 -0.018901885 0.64473641
-0.010906253 -0.020254463 0.6426695
-0.010772546 -0.021545082 0.64036381
-0.010641238 -0.022802651 0.63809949
-0.010512777 -0.024029195 0.63588423
-0.01038738 -0.025226504 0.63372183
-0.010274063 -0.026419014 0.63176775
-0.010166967 -0.027596056 0.62992096
-0.010066275 -0.028760761 0.62818462
-0.0099791735 -0.029937536 0.62668264
-0.0098968083 -0.031104237 0.62526226
-0.0098370472 -0.032321721 0.6242317
-0.0098091392 -0.033631325 0.62375045
-0.015699912 0.057566375 0.77045578
-0.015214719 0.053251535 0.76069444
-0.014781868 0.049272895 0.75198615
-0.014391083 0.045571774 0.74412417
-0.014033014 0.042099059 0.73692036
-0.013657385 0.038695931 0.72936326
-0.013356077 0.035616189 0.72330147
-0.013074438 0.032686114 0.71763533
-0.012810769 0.029891789 0.7123307
-0.012566249 0.027226895 0.70741129
-0.012333979 0.024667948 0.70273846
-0.012117179 0.02221483 0.69837666
-0.011911507 0.019852489 0.6942389
-0.01171718 0.017575771 0.69032931
-0.011533342 0.015377849 0.68663085
-0.011358493 0.013251573 0.68311316
-0.011192955 0.011192948 0.67978275
-0.011035133 0.0091959834 0.67660761
-0.010885092 0.0072567463 0.67358911
-0.01074242 0.005371213 0.67071873
-0.010605837 0.0035353005 0.6679709
-0.010476777 0.0017461479 0.6653744
-0.010351784 -0 0.66285968
-0.010235144 -0.0017058551 0.66051316
-0.01012117 -0.0033737123 0.65822017
-0.010015486 -0.0050077438 0.65609396
-0.0099125737 -0.006608367 0.65402347
-0.0098160217 -0.008180052 0.65208101
-0.0097236317 -0.0097235739 0.65022224
-0.0096357772 -0.011241734 0.64845479
-0.0095535992 -0.012738109 0.64680153
-0.0094742756 -0.014211386 0.64520562
-0.0094022034 -0.015670359 0.64375567
-0.0093317982 -0.017108291 0.64233923
-0.0092701633 -0.018540323 0.64109921
-0.0092091952 -0.019953221 0.63987261
-0.0091359941 -0.021317303 0.63839996
-0.009046495 -0.022616237 0.6365993
-0.00895264 -0.023873687 0.63471109
-0.008847422 -0.025067687 0.63259435
-0.0087443171 -0.026232958 0.63051999
-0.0086430656 -0.027369708 0.628483
-0.0085441312 -0.02848044 0.62649262
-0.0084524313 -0.029583514 0.62464768
-0.00836783 -0.030682027 0.62294561
-0.0083391471 -0.031966716 0.62236857
-0.0083729643 -0.03349188 0.62304896
-0.0084070796 -0.035029501 0.62373531
-0.0084414985 -0.036579847 0.6244278
-0.01316145 0.057910383 0.77234352
-0.01271463 0.05340144 0.76155627
-0.01232332 0.04929328 0.75210917
-0.011974947 0.045504808 0.74369872
-0.011534532 0.041524321 0.7330662
-0.011322947 0.038498044 0.72795808
-0.011069835 0.035423487 0.72184741
-0.010825964 0.032477915 0.71595979
-0.010599967 0.029679924 0.71050376
-0.010389594 0.027012974 0.7054249
-0.010190564 0.024457395 0.70061988
-0.010005694 0.022012562 0.69615674
-0.0098301144 0.019660234 0.6919179
-0.009664733 0.017396539 0.68792522
-0.0095082205 0.015213162 0.68414664
-0.0093595311 0.013103336 0.68055701
-0.0092188176 0.011062592 0.67715991
-0.0090846783 0.0090846717 0.67392147
-0.0089572091 0.0071657598 0.67084408
-0.0088358251 0.0053015351 0.66791356
-0.0087195719 0.0034878254 0.66510701
-0.0086096535 0.0017219186 0.66245335
-0.0085030794 2.9802322e-08 0.6598804
-0.0084034856 -0.001680702 0.65747607
-0.008306169 -0.0033224523 0.65512657
-0.0082151247 -0.0049290657 0.65292859
-0.0081269527 -0.0065015554 0.65079993
-0.0080430061 -0.008043021 0.64877331
-0.0079633351 -0.0095559955 0.64684981
-0.007885823 -0.011040151 0.64497852
-0.0078142695 -0.012502819 0.64325106
-0.0077439789 -0.013939172 0.64155412
-0.0076790876 -0.01535818 0.63998753
-0.0076164347 -0.016756177 0.63847488
-0.0075575332 -0.018138081 0.63705295
-0.0075024827 -0.019506484 0.63572395
-0.0074499142 -0.020859778 0.63445479
-0.0074027618 -0.022208273 0.6333164
-0.0073549049 -0.023535699 0.63216102
-0.0072987294 -0.024815679 0.63080484
-0.0072293617 -0.026025683 0.62913013
-0.0071576117 -0.027198941 0.62739801
-0.0070768674 -0.028307468 0.62544858
-0.0069978847 -0.02939111 0.62354183
-0.0069361688 -0.030519128 0.62205184
-0.0069642817 -0.032035679 0.62273055
-0.007146101 -0.034301281 0.62712008
-0.0070211184 -0.035105586 0.62410265
-0.0070499051 -0.036659509 0.6247977
-0.010657498 0.058616221 0.77621639
-0.010243704 0.053779423 0.76372904
-0.0098947724 0.049473852 0.7531991
-0.0091859512 0.043633252 0.73180854
-0.0090370076 0.04066655 0.72731376
-0.0089272857 0.037941009 0.7240026
-0.0087945014 0.035178035 0.71999544
-0.0086200759 0.032325327 0.71473169
-0.0084334509 0.029517055 0.70909983
-0.0082590273 0.026841849 0.70383614
-0.008094782 0.024284363 0.6988796
-0.0079429895 0.021843255 0.6942988
-0.0077988817 0.019497246 0.68994999
-0.0076634288 0.01724273 0.6858623
-0.0075354944 0.015071005 0.68200159
-0.0074139014 0.012974322 0.67833221
-0.0072992048 0.010948807 0.67487091
-0.007189604 0.0089870393 0.67156339
-0.0070858276 0.00708583 0.66843176
-0.0069867121 0.0052400529 0.66544062
-0.0068921582 0.0034461021 0.66258717
-0.0068023023 0.0017005801 0.65987551
-0.0067155478 -0 0.65725744
-0.0066339881 -0.0016584992 0.65479624
-0.0065544085 -0.0032772124 0.65239471
-0.0064799441 -0.0048599839 0.65014756
-0.006407625 -0.0064075887 0.64796507
-0.006338628 -0.0079232752 0.64588296
-0.0062729684 -0.0094094574 0.64390147
-0.0062088282 -0.01086542 0.64196587
-0.0061494615 -0.012298942 0.64017433
-0.0060912189 -0.013705254 0.63841671
-0.0060362895 -0.015090704 0.63675904
-0.0059838626 -0.016455621 0.63517696
-0.005932936 -0.017798811 0.63364011
-0.0058861561 -0.019129992 0.63222837
-0.0058401255 -0.020440429 0.63083929
-0.0057980153 -0.021742553 0.62956852
-0.0057575018 -0.023029983 0.62834591
-0.0057197078 -0.024308771 0.62720537
-0.0056849564 -0.025582284 0.62615669
-0.0056487108 -0.026831359 0.62506288
-0.0056072637 -0.028036356 0.62381208
-0.0055554966 -0.029166371 0.62224984
-0.0055608838 -0.030584842 0.62241244
-0.0058068475 -0.03338936 0.62983501
-0.0057389131 -0.034433454 0.62778491
-0.0056671202 -0.035419524 0.62561846
-0.0056522842 -0.036739826 0.62517071
-0.005675606 -0.038310319 0.62587446
-0.0056991042 -0.039893746 0.62658364
-0.0077897878 0.054528505 0.76803482
-0.0074822623 0.049881756 0.75566089
-0.0068336977 0.043280095 0.72956467
-0.0066830642 0.040098369 0.72350359
-0.0065665315 0.037210345 0.71881479
-0.0064794561 0.034557104 0.71531111
-0.0064003319 0.032001644 0.71212739
-0.0062934249 0.029369324 0.70782578
-0.0061645079 0.026712865 0.70263863
-0.0060371221 0.024148494 0.69751298
-0.0059197 0.021705568 0.69278824
-0.0058085108 0.019361705 0.68831432
-0.0057042167 0.017112672 0.68411785
-0.0056060292 0.014949411 0.68016708
-0.0055126222 0.012862742 0.67640871
-0.0054249223 0.010849863 0.67287993
-0.0053408621 0.0089014173 0.66949761
-0.0052617639 0.0070157051 0.66631496
-0.0051857801 0.0051857829 0.6632576
-0.005113841 0.0034092367 0.66036296
-0.0050449553 0.0016816556 0.65759122
-0.0049790232 -0 0.65493834
-0.0049164663 -0.0016387999 0.65242124
-0.0048555876 -0.0032370687 0.64997172
-0.0047987285 -0.0047987103 0.64768386
-0.0047431854 -0.0063242316 0.64544892
-0.0046905396 -0.0078175664 0.64333063
-0.0046399818 -0.0092799366 0.64129639
-0.0045908811 -0.010712057 0.63932073
-0.0045449408 -0.01211983 0.63747227
-0.0044999109 -0.013499707 0.63566035
-0.0044573392 -0.014857799 0.63394737
-0.0044165268 -0.016193926 0.6323052
-0.0043766205 -0.01750648 0.63069952
-0.0043398491 -0.018805981 0.62921995
-0.004303691 -0.020083874 0.62776506
-0.0042695869 -0.02134794 0.6263929
-0.0042372867 -0.022598863 0.62509316
-0.0042056008 -0.023831755 0.62381828
-0.0041771736 -0.025063038 0.62267441
-0.0041491282 -0.02627781 0.62154597
-0.0041460567 -0.027640373 0.62142235
-0.0041627861 -0.029139489 0.62209553
-0.0041796509 -0.030650765 0.62277412
-0.0041966648 -0.032174438 0.62345874
-0.0042781904 -0.034225523 0.62673903
-0.0042375498 -0.035312891 0.62510377
-0.0042484999 -0.036820322 0.62554437
-0.0042660679 -0.03839463 0.62625128
-0.0042837821 -0.039981961 0.62696397
-0.004301656 -0.041582674 0.62768316
-0.0043196548 -0.043196544 0.62840742
-0.005340579 0.056076109 0.77693039
-0.0050662067 0.050662071 0.76037049
-0.0045831101 0.043539554 0.73121309
-0.0044312282 0.039881051 0.72204614
-0.0043257624 0.036768973 0.71568072
-0.0042464277 0.033971399 0.71089256
-0.0041851061 0.031388313 0.70719141
-0.0041380515 0.028966367 0.70435143
-0.0040811463 0.026527464 0.70091689
-0.0040077753 0.024046659 0.69648856
-0.0039271079 0.021599114 0.69161987
-0.0038505718 0.019252867 0.68700045
-0.0037789587 0.017005324 0.68267822
-0.0037118045 0.014847189 0.67862517
-0.0036478727 0.012767583 0.67476654
-0.0035882024 0.010764629 0.67116505
-0.0035307638 0.0088269114 0.66769838
-0.0034771515 0.0069542825 0.66446263
-0.0034253192 0.0051379502 0.66133422
-0.0033766949 0.0033766925 0.65839946
-0.0033297306 0.0016648471 0.65556496
-0.0032852518 -0 0.65288043
-0.0032425863 -0.0016212761 0.65030533
-0.0032015985 -0.0032016039 0.6478315
-0.0031627831 -0.0047441721 0.6454888
-0.0031248976 -0.0062498152 0.64320219
-0.0030893963 -0.0077235103 0.64105952
-0.0030548414 -0.009164542 0.63897395
-0.0030216901 -0.010575891 0.63697302
-0.0029902058 -0.011960804 0.63507283
-0.0029593708 -0.013317138 0.63321173
-0.0029304349 -0.014652163 0.63146532
-0.0029023457 -0.015962899 0.62976998
-0.0028750787 -0.017250478 0.6281243
-0.0028496007 -0.018522412 0.62658656
-0.0028245708 -0.019771993 0.62507588
-0.0028008383 -0.021006286 0.62364346
-0.0027782496 -0.022225976 0.62228012
-0.0027560145 -0.023426116 0.62093806
-0.002747834 -0.024730504 0.62044442
-0.0027588485 -0.026209056 0.62110919
-0.0027699596 -0.02769962 0.6217798
-0.0027811683 -0.029202223 0.62245631
-0.0027924599 -0.030717075 0.62313783
-0.0028038439 -0.032244205 0.62382483
-0.0028153211 -0.033783853 0.62451756
-0.0028268925 -0.035336137 0.62521595
-0.0028385513 -0.036901176 0.6259197
-0.0029983139 -0.040477216 0.63556218
-0.0029533098 -0.041346312 0.63284594
-0.002898823 -0.042032927 0.62955737
-0.0028862068 -0.043293089 0.62879592
-0.0028983697 -0.044924721 0.62953001
-0.0029106354 -0.046570152 0.63027024
-0.0026169806 0.052339584 0.77049541
-0.0024744635 0.047014803 0.75329214
-0.0022551585 0.040592849 0.72681963
-0.0021584213 0.036693186 0.71514249
-0.0021047175 0.033675462 0.70865983
-0.0020635563 0.030953348 0.70369118
-0.0020313032 0.02843827 0.69979787
-0.0020069741 0.026090682 0.69686115
-0.0019842512 0.023811042 0.6941182
-0.0019539157 0.021493077 0.69045639
-0.0019170536 0.019170523 0.68600678
-0.001880037 0.016920328 0.68153846
-0.0018454704 0.014763772 0.6773659
-0.0018125457 0.012687832 0.67339152
-0.0017820247 0.010692149 0.6697073
-0.0017526557 0.0087632835 0.66616219
-0.0017252436 0.006900996 0.66285324
-0.0016987742 0.0050963461 0.65965807
-0.0016740168 0.0033480525 0.65666962
-0.0016499764 0.0016500056 0.65376765
-0.0016274948 2.9802322e-08 0.65105391
-0.0016056639 -0.0016056597 0.64841872
-0.0015849883 -0.0031699836 0.6459229
-0.0015651222 -0.0046953559 0.64352489
-0.0015459628 -0.0061838329 0.64121211
-0.0015278546 -0.0076392591 0.63902628
-0.0015101609 -0.0090609491 0.63689047
-0.0014934562 -0.010454178 0.63487399
-0.0014773045 -0.011818439 0.63292432
-0.0014616094 -0.013154477 0.63102973
-0.0014468716 -0.014468729 0.62925076
-0.0014324281 -0.015756726 0.62750727
-0.0014186159 -0.017023355 0.62584001
-0.0014054463 -0.01827082 0.62425029
-0.0013925231 -0.019495338 0.62269032
-0.0013803794 -0.0207057 0.62122446
-0.0013686293 -0.021898061 0.61980611
-0.0013713563 -0.023313046 0.62013525
-0.0013768469 -0.024783254 0.62079811
-0.0018367852 -0.034898907 0.67631751
-0.0018059056 -0.03611809 0.67259002
-0.0017747558 -0.037269861 0.66882992
-0.0017443947 -0.038376719 0.66516495
-0.0014049688 -0.032314271 0.62419266
-0.0014107324 -0.033857614 0.62488842
-0.0015431117 -0.038577765 0.64086801
-0.0015212491 -0.03955242 0.63822889
-0.0015029124 -0.040578634 0.63601547
-0.0014849859 -0.041579604 0.63385159
-0.0014658656 -0.042510092 0.63154358
-0.0014463322 -0.043389976 0.62918568
-0.0014524407 -0.045025676 0.62992305
-0.0014586012 -0.046675205 0.63066667
-0.0014648143 -0.048338875 0.63141668
0 0.048886538 0.76518351
0 0.043567151 0.74676555
0 0.039210528 0.73301739
0 0.033710927 0.70892727
0 0.030744642 0.7020117
0 0.02810955 0.6969642
0 0.025670558 0.69296026
0 0.023385137 0.68983448
0 0.021211773 0.68736953
0 0.019037157 0.68439645
0 0.016851515 0.68061531
0 0.014698952 0.67638755
0 0.012624323 0.67229617
0 0.010632068 0.66849828
0 0.0087099671 0.66487545
0 0.0068551898 0.66147161
0 0.0050606728 0.65822363
0 0.0033229887 0.65515655
0 0.0016370714 0.65221155
0 -0 0.64943534
0 -0.0015917718 0.64674157
0 -0.003141731 0.64422005
0 -0.0046515763 0.64176321
0 -0.0061250329 0.6394372
0 -0.0075635314 0.63719797
0 -0.0089685321 0.63503075
0 -0.010344714 0.63298655
0 -0.01169011 0.63098806
0 -0.013009578 0.62908626
0 -0.014303714 0.62725866
0 -0.015570998 0.62546939
0 -0.016819865 0.62379265
0 -0.018045217 0.6221559
0 -0.019248486 0.62056196
0 -0.020450622 0.61917186
0 -0.021900833 0.61982691
0 -0.023362607 0.62048721
0 -0.033853024 0.68162125
0 -0.035178125 0.67809129
0 -0.036431193 0.67447954
0 -0.03763631 0.67093623
0 -0.038781464 0.66738605
0 -0.039883286 0.66391712
0 -0.04092145 0.66041696
0 -0.041918606 0.65699875
0 -0.041729718 0.64833724
0 -0.042678922 0.64540553
0 -0.041622221 0.63403535
0 -0.042541921 0.6316759
0 -0.043496817 0.62961566
0 -0.045127183 0.6303184
0 -0.047215611 0.63270509
0 -0.048448801 0.63181871
0 -0.050130934 0.63257855
0.0025470553 0.045847028 0.76205468
0.0023540647 0.040019095 0.73875862
0.002255748 0.036091954 0.7268908
0.0020601067 0.030901581 0.70327479
0.0019996271 0.027994782 0.69597429
0.0019560084 0.025428116 0.69070899
0.0019219505 0.023063391 0.68659794
0.0018949176 0.020844132 0.68333471
0.0018743324 0.018743336 0.68084991
0.0018545608 0.016691059 0.67846322
0.0018284355 0.014627486 0.67530966
0.0017965812 0.012576073 0.6714645
0.0017640375 0.010584235 0.66753608
0.001733246 0.0086662471 0.66381925
0.0017041725 0.0068166852 0.66030973
0.0016767433 0.0050302148 0.65699875
0.0016506077 0.0033012033 0.65384388
0.0016258818 0.0016258955 0.65085924
0.0016022602 -0 0.64800787
0.0015797239 -0.0015797317 0.64528751
0.0015582981 -0.0031165779 0.64270115
0.0015375685 -0.0046127141 0.64019883
0.001518069 -0.0060722232 0.63784504
0.001499058 -0.0074952543 0.63555026
0.001481052 -0.0088863075 0.63337672
0.0014636916 -0.01024583 0.63128114
0.0014468338 -0.011574656 0.62924623
0.0014309614 -0.012878627 0.62733024
0.0014154335 -0.014154345 0.62545586
0.0014005407 -0.015405953 0.62365812
0.0013863267 -0.016635925 0.6219424
0.0013723982 -0.01784119 0.62026107
0.0013608533 -0.019051939 0.61886746
0.00136626 -0.020493895 0.61952007
0.0013717097 -0.021947354 0.62017792
0.0013772032 -0.023412436 0.62084103
0.0013827408 -0.02488935 0.62150955
0.0018558954 -0.035261989 0.67862427
0.0018315477 -0.036630929 0.67568529
0.0018050977 -0.037907064 0.67249256
0.0017769176 -0.039092213 0.66909087
0.0017493407 -0.040234834 0.66576201
0.0017216938 -0.041320652 0.66242474
0.0016945341 -0.042363346 0.65914625
0.0016674618 -0.043354005 0.65587837
0.0016406331 -0.044297099 0.65263987
0.0016136229 -0.045181453 0.64937943
0.0015458816 -0.044830561 0.64120233
0.0015245308 -0.045735925 0.63862509
0.001506537 -0.046702623 0.63645303
0.0014908841 -0.047708273 0.63456357
0.0014749747 -0.048674136 0.6326431
0.0014778106 -0.050245568 0.63298541
0.001484193 -0.051946729 0.63375586
0.0046113678 0.036890954 0.73291862
0.0044143591 0.033107668 0.72102809
0.0040477184 0.028334022 0.69889933
0.0039058484 0.025388002 0.6903367
0.0038167059 0.022900224 0.68495655
0.0037470367 0.020608723 0.68075162
0.003691063 0.018455327 0.67737329
0.003646929 0.016411185 0.67470956
0.0036109774 0.014443904 0.67253971
0.0035680395 0.012488127 0.66994816
0.0035138163 0.010541409 0.66667551
0.0034528209 0.0086320341 0.66299409
0.0033926761 0.0067853332 0.65936404
0.0033365807 0.0050049126 0.65597838
0.0032826762 0.0032826662 0.65272492
0.003232416 0.0016162097 0.64969152
0.0031838238 -0 0.64675868
0.0031382546 -0.0015691221 0.64400834
0.0030942296 -0.0030942261 0.64135116
0.0030524936 -0.0045787692 0.63883221
0.0030124753 -0.0060249567 0.63641691
0.002973882 -0.007434696 0.63408756
0.0029373937 -0.0088121593 0.63188529
0.0029017818 -0.010156214 0.62973589
0.0028680749 -0.011472285 0.62770152
0.0028355033 -0.012759745 0.62573564
0.0028037732 -0.014018863 0.6238206
0.0027739599 -0.015256792 0.6220212
0.0027447741 -0.016468644 0.6202597
0.0027166824 -0.017658412 0.61856419
0.0027274482 -0.019092143 0.619214
0.0027383072 -0.020537317 0.61986941
0.0027492531 -0.021994025 0.62053001
0.0027602867 -0.023462385 0.62119597
0.0037279553 -0.033551574 0.67959994
0.0036898111 -0.035053194 0.67729771
0.0036522129 -0.03652212 0.67502856
0.0036116156 -0.037921965 0.67257822
0.0035676453 -0.039244086 0.66992432
0.0035201323 -0.040481538 0.66705668
0.0034688229 -0.041625917 0.66395992
0.003416257 -0.042703182 0.66078722
0.0033649206 -0.043743968 0.65768886
0.0033130299 -0.044725925 0.65455693
0.0032627156 -0.04567802 0.65152025
0.0032115856 -0.046568006 0.64843428
0.0031617938 -0.047426879 0.64542907
0.0031086283 -0.048183739 0.64222026
0.0029830039 -0.047728047 0.63463813
0.0029496972 -0.048669994 0.63262784
0.0029624021 -0.050360844 0.63339472
0.0029752257 -0.05206646 0.63416874
0.006788637 0.033943206 0.72775161
0.0064819749 0.030249208 0.7154125
0.0062508117 0.027086854 0.70611113
0.005731551 0.022926211 0.68521774
0.0055888928 0.020492613 0.67947757
0.0054824213 0.018274754 0.67519355
0.0053959824 0.016187966 0.6717155
0.0053271013 0.014205664 0.66894388
0.0052743913 0.012306899 0.66682303
0.0052223327 0.010444701 0.66472834
0.0051540858 0.008590132 0.66198236
0.0050710654 0.0067614317 0.65864187
0.0049845455 0.0049845278 0.65516055
0.0049016643 0.0032677948 0.65182567
0.0048240824 0.0016080141 0.64870405
0.004749639 -0 0.64570856
0.0046796747 -0.0015598834 0.64289349
0.0046120109 -0.0030746758 0.64017087
0.0045486181 -0.0045486093 0.63762021
0.004486931 -0.0059825778 0.63513803
0.0044288011 -0.0073813498 0.63279915
0.0043726172 -0.0087452233 0.63053846
0.0043186108 -0.010076761 0.6283654
0.0042672926 -0.011379451 0.62630051
0.00421718 -0.012651533 0.62428415
0.0041697356 -0.013899088 0.62237513
0.0041238233 -0.015120685 0.62052774
0.0040789545 -0.016315818 0.61872238
0.0040836041 -0.017695606 0.61890948
0.0040998324 -0.019132555 0.61956245
0.005801395 -0.029006958 0.68802804
0.0057220035 -0.03051734 0.68483353
0.0056431857 -0.031978071 0.6816622
0.0055688224 -0.033412904 0.67867005
0.0055001997 -0.034834564 0.6759088
0.0054376568 -0.036251038 0.6733923
0.0053830752 -0.03768155 0.67119622
0.0053298441 -0.039085537 0.66905427
0.0052750586 -0.040442109 0.66684991
0.0052155824 -0.041724652 0.66445678
0.005151344 -0.042927861 0.66187203
0.0050809868 -0.044035226 0.65904099
0.00500644 -0.045057952 0.6560415
0.0049334005 -0.046045065 0.65310264
0.0048605087 -0.046984911 0.65016967
0.0047882888 -0.047882855 0.64726377
0.0047172047 -0.04874444 0.64440358
0.0046455679 -0.049552709 0.6415211
0.004576032 -0.050336331 0.63872325
0.0044921138 -0.050910622 0.63534665
0.0044731321 -0.052186549 0.63458288
0.0044926116 -0.053911328 0.63536668
0.0088988263 0.0311459 0.72314376
0.0084751621 0.02754429 0.71035856
0.0081677884 0.02450338 0.70108277
0.0074877376 0.020591289 0.68056041
0.0072880676 0.018220156 0.6745348
0.007141171 0.016067654 0.67010188
0.0070242039 0.014048427 0.66657203
0.0069290474 0.01212585 0.66370046
0.0068531954 0.010279804 0.66141135
0.0067893802 0.0084867179 0.65948564
0.0067139254 0.0067139268 0.65720856
0.0066193976 0.0049645603 0.65435588
0.0065123728 0.0032562017 0.65112615
0.006405287 0.0016013086 0.64789456
0.0063041672 -2.9802322e-08 0.64484298
0.0062078657 -0.0015519559 0.64193684
0.006116536 -0.0030582547 0.63918072
0.0060294699 -0.0045220852 0.63655329
0.0059460145 -0.0059460104 0.63403475
0.005866935 -0.0073336661 0.63164836
0.0057899305 -0.0086849034 0.62932456
0.0057178447 -0.010006249 0.62714916
0.0056475792 -0.01129514 0.62502867
0.0055802641 -0.012555569 0.62299728
0.0055159633 -0.013789922 0.6210568
0.0054531428 -0.014996141 0.61916107
0.0054347371 -0.016304195 0.61860561
0.0054562944 -0.017732948 0.6192562
0.008030667 -0.028107315 0.69694471
0.0079236813 -0.029713839 0.69371617
0.0076448708 -0.030579448 0.68530232
0.0075197807 -0.031959057 0.68152738
0.0074200034 -0.033390015 0.67851633
0.0073208846 -0.034774244 0.67552519
0.0072259698 -0.036129832 0.67266089
0.0071367403 -0.037467897 0.66996819
0.0070577427 -0.038817585 0.66758418
0.0069860052 -0.040169537 0.66541934
0.0069189388 -0.041513592 0.66339535
0.006852679 -0.042829275 0.66139579
0.0067791925 -0.04406476 0.65917814
0.0067004166 -0.045227826 0.65680087
0.0066158096 -0.046310663 0.65424764
0.0065250904 -0.047306895 0.65150994
0.0064319856 -0.048239887 0.64870024
0.0063415403 -0.04914695 0.64597082
0.0062493072 -0.049994469 0.64318746
0.0061597 -0.050817519 0.64048332
0.0060697901 -0.051593214 0.63777006
0.0059807864 -0.052331924 0.63508415
0.0060040569 -0.054036513 0.63578635
0.011812728 0.030713141 0.73978239
0.010397583 0.02495417 0.70561779
0.010010297 0.022022665 0.6962679
0.0092013897 0.018402755 0.67673916
0.0089157755 0.016048402 0.66984379
0.0087275412 0.013964057 0.66529942
0.0085776849 0.012008756 0.66168153
0.0084544886 0.010145396 0.65870732
0.0083534839 0.0083535016 0.65626884
0.0082775056 0.0066220164 0.65443456
0.0082007721 0.0049204826 0.65258205
0.008100586 0.0032401979 0.65016341
0.007979718 0.0015959442 0.64724535
0.0078512747 -0 0.64414454
0.0077266865 -0.0015453398 0.64113665
0.0076107578 -0.0030443072 0.63833785
0.0074984129 -0.004499048 0.63562566
0.0073931362 -0.0059145093 0.63308406
0.0072913272 -0.0072913468 0.63062614
0.007194601 -0.008633554 0.62829101
0.0071019586 -0.0099427402 0.62605441
0.0070122229 -0.011219561 0.62388802
0.0069276602 -0.012469769 0.62184644
0.0068451124 -0.013690203 0.61985356
0.0067809001 -0.01491797 0.61830336
0.0068077478 -0.016338587 0.6189515
0.010137995 -0.026358783 0.69935077
0.010009496 -0.028026581 0.69624853
0.0098815598 -0.029644668 0.69315982
0.0097550265 -0.031216085 0.69010508
0.0096287262 -0.032737643 0.68705595
0.0093110083 -0.033519626 0.67938554
0.0091450512 -0.034751207 0.67537898
0.0090272799 -0.03610912 0.67253578
0.0089102816 -0.037423193 0.66971117
0.0087965559 -0.038704813 0.66696554
0.0086892257 -0.039970428 0.66437441
0.0085940678 -0.04125151 0.66207707
0.0085056527 -0.042528272 0.65994257
0.0084261559 -0.04381603 0.65802336
0.0083476854 -0.045077503 0.65612888
0.0082646534 -0.046282053 0.65412426
0.0081754737 -0.04741776 0.65197134
0.0080803093 -0.048481822 0.64967382
0.0079759015 -0.049450576 0.6471532
0.0078655668 -0.050339639 0.64448953
0.0077573056 -0.051198184 0.64187586
0.0076497602 -0.05201833 0.63927948
0.0075423364 -0.052796364 0.63668603
0.0075225607 -0.054162443 0.63620865
0.013817484 0.027634978 0.73258424
0.012250083 0.022458464 0.70105052
0.011782249 0.019637108 0.69163847
0.011398903 0.017098367 0.68392617
0.010485632 0.013980836 0.66555256
0.010245343 0.011952877 0.66071832
0.01006282 0.010062844 0.6570462
0.0099146683 0.008262217 0.65406567
0.0097925197 0.0065283477 0.65160823
0.0096941479 0.0048470795 0.64962912
0.0096085761 0.0032028556 0.64790756
0.0095083937 0.0015847385 0.64589202
0.009383982 -0 0.64338911
0.0092422245 -0.0015403926 0.64053714
0.0090983119 -0.0030327439 0.63764179
0.0089607639 -0.0044803619 0.63487458
0.0088309478 -0.0058872998 0.63226295
0.0087057743 -0.0072548091 0.62974459
0.0085881026 -0.0085880756 0.62737721
0.0084735686 -0.0098858476 0.62507296
0.008365755 -0.011154324 0.62290388
0.008261309 -0.012391955 0.62080264
0.0081608146 -0.013601333 0.61878085
0.0081541864 -0.014949322 0.61864752
0.008186562 -0.016373128 0.61929882
0.0082191499 -0.017808169 0.61995447
0.011953052 -0.027890474 0.69507474
0.011818659 -0.029546618 0.69237101
0.011673077 -0.031128228 0.68944216
0.011528072 -0.032662898 0.68652487
0.011384726 -0.034154177 0.6836409
0.011241321 -0.035597503 0.68075579
0.010899438 -0.036331445 0.67387772
0.01068564 -0.037399739 0.66957641
0.010550821 -0.038686335 0.66686404
0.010418169 -0.039936334 0.6641953
0.01028719 -0.041148752 0.66156024
0.01016483 -0.042353421 0.65909851
0.010052914 -0.043562651 0.65684694
0.0099483449 -0.044767559 0.65474319
0.0098576974 -0.046002567 0.65291947
0.009768432 -0.047214091 0.65112358
0.0096784905 -0.048392415 0.64931411
0.0095799081 -0.049496174 0.64733082
0.0094732298 -0.050523907 0.64518458
0.0093594659 -0.051477075 0.64289582
0.0092382422 -0.052350044 0.64045703
0.0091137514 -0.053163543 0.63795245
0.0090481304 -0.05428879 0.63663226
0.014050622 0.020072311 0.6968922
0.013490341 0.017344713 0.68723053
0.013057426 0.014922738 0.67976516
0.012006823 0.012006819 0.66164821
0.011713651 0.010040253 0.65659261
0.011493853 0.008209914 0.65280235
0.011315648 0.0064661205 0.64972931
0.011167224 0.004785955 0.64716977
0.011044259 0.0031554997 0.64504933
0.010949314 0.0015642047 0.64341205
0.010853665 -0 0.64176267
0.010728462 -0.0015326142 0.63960361
0.010578949 -0.0030225515 0.63702542
0.010419486 -0.0044654906 0.6342755
0.010262622 -0.005864352 0.63157052
0.010114881 -0.0072249174 0.62902284
0.0099730352 -0.0085483193 0.62657678
0.0098378761 -0.0098378658 0.62424606
0.0097089941 -0.011096001 0.62202358
0.0095839445 -0.012322247 0.61986709
0.0094956793 -0.013565272 0.61834508
0.0095332852 -0.014980882 0.61899352
0.00957119 -0.016407728 0.61964715
0.0096093975 -0.017846048 0.62030607
0.013645597 -0.027291179 0.68990779
0.013665988 -0.029284269 0.69025946
0.013555868 -0.030984789 0.68836051
0.013406124 -0.032557726 0.6857782
0.013245512 -0.034059912 0.68300861
0.013085475 -0.035517663 0.68024886
0.012927399 -0.036935449 0.6775229
0.012768812 -0.038306475 0.67478824
0.012428978 -0.03906253 0.66892797
0.012147366 -0.03991276 0.66407174
0.011996789 -0.041131794 0.66147512
0.011850261 -0.042322338 0.65894836
0.011704687 -0.043474525 0.65643799
0.01156803 -0.04461953 0.65408146
0.011440056 -0.045760214 0.65187466
0.011323954 -0.046913505 0.64987248
0.011219162 -0.048082143 0.64806545
0.011120316 -0.049247086 0.64636093
0.011022433 -0.050388277 0.64467299
0.010916077 -0.051461488 0.6428389
0.010802981 -0.052471638 0.64088869
0.010683141 -0.053415716 0.63882208
0.010580867 -0.054415867 0.6370585
0.01062758 -0.056174323 0.63786399
0.015811183 0.017787546 0.69317031
0.015152398 0.015152425 0.68322992
0.014655117 0.012823254 0.67572653
0.013497807 0.010123312 0.6582641
0.013124332 0.0082027018 0.65262884
0.012866122 0.0064330399 0.64873266
0.012656974 0.0047464073 0.64557689
0.012483063 0.00312078 0.6429528
0.012342952 0.001542896 0.64083868
0.012228848 -0 0.639117
0.012126193 -0.0015157759 0.63756812
0.012007213 -0.0030018389 0.63577282
0.011860809 -0.0044478476 0.6335637
0.011692978 -0.0058464706 0.63103133
0.011520041 -0.0072000325 0.6284219
0.011352821 -0.0085145831 0.62589872
0.011196428 -0.0097968578 0.62353897
0.011044285 -0.011044264 0.6212433
0.010901028 -0.012263656 0.61908174
0.010875084 -0.013593793 0.61869025
0.010918215 -0.015012532 0.61934108
0.016111629 -0.024167448 0.69770366
0.015603722 -0.025356025 0.69003987
0.015416524 -0.02697891 0.68721533
0.015255827 -0.028604627 0.68479055
0.015180324 -0.030360609 0.68365133
0.015195712 -0.032290876 0.68388349
0.015071612 -0.033911109 0.68201095
0.014907933 -0.035406351 0.67954135
0.014734091 -0.036835223 0.67691815
0.014560812 -0.038222104 0.67430359
0.014389751 -0.039571822 0.67172253
0.014217813 -0.04087621 0.66912812
0.01404146 -0.042124361 0.66646719
0.013538162 -0.042306751 0.65887302
0.013371155 -0.043456256 0.65635306
0.013212271 -0.044591427 0.6539557
0.013054395 -0.045690358 0.65157354
0.01290403 -0.04677707 0.64930469
0.012760589 -0.047852218 0.64714032
0.012634163 -0.048957378 0.64523268
0.012515576 -0.050062299 0.64344335
0.012407957 -0.051182821 0.64181954
0.012301569 -0.052281648 0.6402142
0.012191342 -0.053337112 0.63855112
0.012120759 -0.054543391 0.63748604
0.012174435 -0.056306764 0.63829595
0.012228512 -0.058085412 0.63911188
0.017524948 0.015577704 0.68964779
0.016760938 0.013036281 0.67940062
0.016197031 0.010798037 0.67183733
0.015013361 0.0083407462 0.65596157
0.014492599 0.0064411759 0.64897698
0.014187013 0.0047290027 0.64487839
0.01395039 0.0031000972 0.64170468
0.013754806 0.0015282929 0.63908148
0.013589725 -0 0.63686734
0.013451423 -0.0014946163 0.63501239
0.013341828 -0.0029648542 0.63354254
0.013231088 -0.0044103265 0.63205719
0.013086859 -0.0058163702 0.63012278
0.012916295 -0.0071757436 0.62783515
0.012733534 -0.0084890127 0.62538385
0.012551149 -0.0097620189 0.62293768
0.012377352 -0.011002094 0.62060666
0.012212042 -0.012212038 0.61838949
0.012260252 -0.013622463 0.61903608
0.018181344 -0.022221655 0.69845158
0.018001968 -0.024002612 0.6960457
0.017818902 -0.025738418 0.69359034
0.017587369 -0.027358115 0.69048494
0.017054517 -0.028424174 0.68333817
0.016864128 -0.029980689 0.68078464
0.016699467 -0.031543434 0.67857611
0.01665161 -0.033303201 0.67793423
0.016642379 -0.035133868 0.67781049
0.016507192 -0.036682665 0.67599726
0.016330836 -0.038105279 0.67363197
0.016145347 -0.039466411 0.67114407
0.015960403 -0.040787727 0.66866362
0.015777824 -0.042074174 0.66621482
0.015594136 -0.04331702 0.66375113
0.015410139 -0.044518173 0.66128331
0.014863119 -0.044589311 0.65394652
0.014679108 -0.045668364 0.65147853
0.014509363 -0.046752393 0.64920181
0.014340621 -0.047802091 0.64693856
0.014177545 -0.048833758 0.64475131
0.014022456 -0.049857616 0.64267129
0.013883596 -0.050906524 0.64080888
0.013751489 -0.051950052 0.63903695
0.013635978 -0.053028807 0.63748777
0.013667929 -0.054671705 0.63791627
0.013728556 -0.056439608 0.63872939
0.013789724 -0.058223277 0.63954985
0.0206572 0.014460027 0.70395243
0.018319165 0.010991514 0.67572981
0.017686205 0.0088431239 0.66808927
0.017168673 0.0068674386 0.66184217
0.015827922 0.0047483742 0.6456579
0.015471627 0.0030943155 0.64135695
0.015199644 0.001519978 0.63807386
0.014975281 -0 0.63536555
0.014784438 -0.0014784336 0.63306189
0.014628956 -0.0029258132 0.63118505
0.01450424 -0.0043512583 0.62967962
0.014388126 -0.0057552457 0.62827796
0.014254946 -0.0071274638 0.62667036
0.014092583 -0.0084555447 0.62471044
0.013905301 -0.0097336769 0.62244976
0.013709543 -0.010967642 0.62008673
0.013597292 -0.012237549 0.61873174
0.01365123 -0.013651222 0.61938286
0.020005547 -0.022006124 0.69608623
0.019823724 -0.023788482 0.69389147
0.01963554 -0.025526196 0.69161987
0.0194453 -0.027223378 0.68932343
0.019252859 -0.028879285 0.68700051
0.018741921 -0.029987097 0.68083292
0.018429281 -0.031329781 0.67705905
0.018233515 -0.032820344 0.67469597
0.018067207 -0.034327656 0.67268836
0.018052345 -0.036104679 0.67250907
0.018013481 -0.037828296 0.67203987
0.017868867 -0.039311498 0.67029428
0.017680893 -0.040666074 0.66802514
0.017485153 -0.041964352 0.66566241
0.017289937 -0.043224871 0.66330594
0.017097043 -0.04445231 0.66097748
0.016903153 -0.045638531 0.65863699
0.01671076 -0.046790123 0.65631467
0.016127335 -0.046769261 0.64927208
0.015925299 -0.047775924 0.64683336
0.015746035 -0.048812717 0.64466941
0.015567708 -0.049816668 0.64251679
0.015392855 -0.050796434 0.64040613
0.015228279 -0.051776156 0.63841951
0.015155309 -0.053043574 0.63753867
0.015672743 -0.056421876 0.6437847
0.015505475 -0.057370275 0.64176559
0.015358318 -0.05836159 0.63998914
0.015427215 -0.060166165 0.64082092
0.02221976 0.012119859 0.6984309
0.019845264 0.0090205669 0.67237389
0.019134972 0.0069581568 0.66457933
0.018573325 0.0050654411 0.65841603
0.017134449 0.0031153262 0.64262617
0.016709559 0.0015190542 0.63796359
0.016401337 -0 0.63458127
0.016147608 -0.0014679432 0.6317969
0.015941493 -0.0028984547 0.62953508
0.015766142 -0.0042998493 0.6276108
0.015617526 -0.0056791008 0.62597996
0.015496604 -0.0070438981 0.62465298
0.01537376 -0.0083856881 0.62330496
0.015215278 -0.0096824467 0.62156582
0.015029434 -0.010930508 0.61952639
0.014988587 -0.012263358 0.61907816
0.021404387 -0.019458532 0.68948323
0.021260442 -0.02126047 0.68790358
0.021555867 -0.023515493 0.69114554
0.021403555 -0.025295138 0.68947405
0.02120891 -0.026993185 0.68733811
0.021010553 -0.028650731 0.68516141
0.020810284 -0.030269474 0.68296367
0.020607006 -0.031847179 0.68073297
0.020007798 -0.032740027 0.67415738
0.019732919 -0.034084111 0.67114097
0.019531181 -0.035511255 0.66892725
0.019364951 -0.036969453 0.66710305
0.019385617 -0.038771242 0.66732985
0.019315477 -0.040386915 0.66656011
0.019161552 -0.041807026 0.66487098
0.018963559 -0.043099016 0.66269833
0.018758802 -0.044338942 0.66045135
0.01855454 -0.045542955 0.65820986
0.01835254 -0.046715558 0.65599316
0.01814968 -0.047849149 0.65376705
0.017949676 -0.048953682 0.65157223
0.017337771 -0.048860967 0.64485735
0.017114097 -0.049786478 0.64240289
0.016926361 -0.05077906 0.64034271
0.016739642 -0.051740706 0.63829368
0.016710013 -0.053168237 0.6379686
0.017142614 -0.056103081 0.64271581
0.017014423 -0.057230338 0.64130908
0.016934434 -0.058500767 0.64043128
0.021339228 0.0071130693 0.669254
0.020549946 0.0051375031 0.66131443
0.019932223 0.0033220053 0.65510064
0.018449971 0.0015375018 0.6401903
0.017915806 2.9802322e-08 0.634817
0.01756615 -0.0014638305 0.63129973
0.017290263 -0.0028817058 0.62852454
0.017058261 -0.0042645335 0.62619078
0.016858205 -0.0056193769 0.62417835
0.016689699 -0.0069540143 0.62248331
0.016558249 -0.0082791448 0.62116104
0.016431507 -0.0095850229 0.6198861
0.016320918 -0.010880619 0.6187737
0.016385725 -0.012289286 0.61942559
0.023259245 -0.019382685 0.68856788
0.022913605 -0.02100414 0.68509102
0.022720685 -0.022720724 0.68315041
0.022639725 -0.024526387 0.68233597
0.022906698 -0.026724488 0.68502152
0.022721373 -0.028401673 0.68315727
0.022519069 -0.030025423 0.6811223
0.022312539 -0.031609416 0.67904472
0.022103334 -0.033154994 0.67694026
0.021882132 -0.03464672 0.67471522
0.021228248 -0.035380423 0.66813761
0.020970972 -0.036699206 0.66554958
0.020764211 -0.038067698 0.66346973
0.020603821 -0.03949064 0.66185635
0.020637529 -0.041275054 0.66219544
0.020553462 -0.042819709 0.66134977
0.020389859 -0.044178039 0.65970409
0.020183755 -0.045413435 0.6576308
0.019971075 -0.04659915 0.65549147
0.019758863 -0.047750592 0.65335679
0.019548822 -0.048872054 0.65124393
0.019338153 -0.049956858 0.64912474
0.019130819 -0.051015496 0.64703912
0.018498572 -0.050871074 0.64067924
0.018249551 -0.051707044 0.63817424
0.018272098 -0.053293616 0.63840103
0.018353365 -0.055060074 0.63921851
0.018435355 -0.056842342 0.64004326
0.018518083 -0.058640614 0.64087546
0.022805933 0.0052629113 0.66636097
0.021921666 0.00337255 0.6581502
0.021247761 0.0016344786 0.65189266
0.020673413 -0 0.6465596
0.019101078 -0.0014693141 0.6319598
0.01870252 -0.0028773248 0.628259
0.018392779 -0.0042444468 0.6253829
0.018133128 -0.005579412 0.62297195
0.017913058 -0.0068896413 0.62092853
0.017732233 -0.008184135 0.61924946
0.017648375 -0.0095029473 0.61847079
0.017718321 -0.010903567 0.61912024
0.017788824 -0.012315333 0.61977494
0.017859841 -0.013738334 0.62043434
0.017931527 -0.015172839 0.62109995
0.024419285 -0.022540867 0.68134165
0.024145806 -0.024145812 0.67880225
0.023972636 -0.025816709 0.6771943
0.024289619 -0.028026462 0.68013763
0.024173625 -0.029752165 0.67906064
0.023970071 -0.031345487 0.67717052
0.023759501 -0.032897741 0.67521524
0.023547057 -0.034414947 0.67324269
0.023329839 -0.03589204 0.67122567
0.02308034 -0.037283599 0.66890895
0.022392113 -0.037894309 0.66251844
0.022147752 -0.039184481 0.66024947
0.021936821 -0.040498734 0.65829086
0.021782991 -0.041890353 0.6568625
0.021830363 -0.04366073 0.65730238
0.021732047 -0.045135796 0.65638947
0.021559319 -0.046435446 0.65478563
0.021345938 -0.047617853 0.65280426
0.021126304 -0.048753023 0.65076494
0.020907111 -0.049855381 0.64872956
0.020689985 -0.050929189 0.6467135
0.020472422 -0.051968455 0.64469332
0.020257875 -0.052982152 0.64270115
0.019841509 -0.053419441 0.63883501
0.019929962 -0.055190682 0.63965636
0.020019272 -0.056977898 0.64048558
0.024251331 0.0034644604 0.66369748
0.023257427 0.0016612709 0.65512794
0.022523094 2.9802322e-08 0.64879638
0.021922546 -0.0015659034 0.64361829
0.020252455 -0.0028932095 0.62921846
0.019800385 -0.0042429566 0.62532061
0.019456172 -0.0055589378 0.62235278
0.019174078 -0.0068478882 0.61992049
0.01897089 -0.0081303418 0.61816853
0.01904599 -0.0095229745 0.61881614
0.019817246 -0.011324137 0.62546599
0.019435551 -0.012494296 0.62217498
0.019274689 -0.01376763 0.62078798
0.01935222 -0.015205324 0.62145644
0.02654101 -0.022749424 0.68343961
0.025970591 -0.024115533 0.67852134
0.025553087 -0.025553077 0.67492151
0.025330035 -0.027139306 0.67299831
0.025183333 -0.028780937 0.6717335
0.025537625 -0.031009972 0.67478818
0.025370125 -0.032618731 0.67334396
0.025155118 -0.034139067 0.67149019
0.024936887 -0.035624117 0.66960853
0.024717266 -0.037075907 0.66771489
0.024494966 -0.038492084 0.66579819
0.024196045 -0.039750665 0.66322088
0.02350631 -0.040296525 0.65727377
0.023266697 -0.041547656 0.65520781
0.023052689 -0.042812139 0.65336263
0.022906672 -0.044177145 0.6521036
0.022968337 -0.045936644 0.65263528
0.022855401 -0.047343343 0.65166157
0.022674007 -0.048587173 0.65009755
0.022454148 -0.0497199 0.64820188
0.022228422 -0.050807834 0.64625561
0.02200311 -0.051864475 0.64431298
0.02177975 -0.052893654 0.64238703
0.021556163 -0.053890422 0.6404593
0.02151419 -0.055322215 0.64009738
0.027527222 0.0018351674 0.67611992
0.024574928 -0 0.65236169
0.023777913 -0.0015852153 0.64594781
0.023133762 -0.0030844808 0.64076406
0.021437753 -0.0042875409 0.62711561
0.020874077 -0.0055664182 0.62257951
0.020495076 -0.0068316758 0.61952955
0.020368705 -0.0081474781 0.61851257
0.020449396 -0.0095430315 0.61916196
0.021137387 -0.011273295 0.62469846
0.020887844 -0.012532711 0.62269032
0.020695586 -0.013797045 0.6211431
0.020778896 -0.015237868 0.62181354
0.0280533 -0.022442609 0.68035346
0.027889119 -0.024170578 0.67903227
0.027672462 -0.025827616 0.67728865
0.02696828 -0.026968271 0.67162186
0.026650924 -0.028427631 0.66906798
0.026456924 -0.029984504 0.66750681
0.026422184 -0.031706631 0.66722721
0.026701175 -0.033821493 0.66947234
0.026500175 -0.035333544 0.66785485
0.026281182 -0.036793649 0.66609257
0.026056005 -0.038215488 0.66428047
0.025829675 -0.039605498 0.66245908
0.025602348 -0.040963739 0.66062969
0.024948077 -0.041580111 0.65536457
0.024566241 -0.042581499 0.65229177
0.024331933 -0.043797493 0.65040618
0.024115838 -0.045016259 0.64866722
0.023984596 -0.046370208 0.64761102
0.024051925 -0.048103869 0.64815283
0.023927322 -0.049449801 0.64715016
0.023737604 -0.050640196 0.64562339
0.02351206 -0.05172652 0.64380836
0.023281012 -0.052770272 0.64194906
0.023050353 -0.053784132 0.64009285
0.023105845 -0.055454016 0.64053941
0.028783435 2.9802322e-08 0.67175215
0.025871782 -0.0016169846 0.6497854
