# .PCD v0.7 - Point Cloud Data file format
VERSION 0.7
FIELDS x y z
SIZE 4 4 4
TYPE F F F
COUNT 1 1 1
WIDTH 1352
HEIGHT 1
VIEWPOINT 0 0 0 1 0 0 0
POINTS 1352
DATA ascii
-0.026071588 -0.068734139 0.74069965
-0.020374322 0.016299456 0.70053774
-0.020081904 0.014057338 0.69700795
-0.019920561 0.01195237 0.69506037
-0.019817756 0.0099089146 0.69381934
-0.019745182 0.0078980923 0.69294333
-0.019325882 0.0057977438 0.68788201
-0.019204751 0.0038409233 0.68641979
-0.019199152 0.0019198954 0.68635219
-0.019237906 -2.9802322e-08 0.68682003
-0.019306717 -0.0019306839 0.68765062
-0.019405859 -0.0038811564 0.68884736
-0.0195374 -0.0058612227 0.69043523
-0.019649573 -0.0078598261 0.69178927
-0.019715851 -0.009857893 0.69258928
-0.019757422 -0.01185444 0.69309109
-0.019802304 -0.013861597 0.6936329
-0.019854007 -0.015883207 0.69425702
-0.019913189 -0.017921865 0.69497144
-0.019976553 -0.019976586 0.69573629
-0.020048913 -0.022053808 0.69660974
-0.02012698 -0.024152398 0.69755208
-0.020210471 -0.026273638 0.69855988
-0.020304294 -0.028426021 0.69969243
-0.020403733 -0.030605555 0.70089275
-0.020510539 -0.032816887 0.70218205
-0.020628925 -0.035069168 0.70361102
-0.020755744 -0.03736034 0.70514196
-0.02089233 -0.039695412 0.70679069
-0.021041246 -0.042082489 0.70858818
-0.021243408 -0.044611126 0.71102858
-0.021426346 -0.047137946 0.71323681
-0.021629747 -0.049748421 0.71569204
-0.021858795 -0.052461088 0.71845692
-0.022125768 -0.055314422 0.72167957
-0.022445563 -0.05835849 0.72553986
-0.022869049 -0.061746418 0.73065174
-0.018060666 0.018060654 0.69683295
-0.017867472 0.015882224 0.69424176
-0.01775126 0.013806522 0.69268316
-0.017670043 0.011780024 0.69159383
-0.017613372 0.0097852051 0.69083369
-0.017190453 0.0076402128 0.68516141
-0.017145554 0.0057151616 0.68455923
-0.017158423 0.0038129985 0.68473178
-0.017202338 0.0019113719 0.68532079
-0.017272476 2.9802322e-08 0.68626153
-0.017370483 -0.001930058 0.68757606
-0.017487653 -0.0038861632 0.68914747
-0.017573368 -0.0058577955 0.69029725
-0.01761985 -0.007831037 0.69092059
-0.017656604 -0.0098092258 0.69141352
-0.017699074 -0.011799395 0.69198316
-0.017745174 -0.013801813 0.69260144
-0.017800026 -0.015822262 0.6933372
-0.017858757 -0.017858744 0.69412488
-0.01792294 -0.019914359 0.69498569
-0.017994702 -0.021993548 0.69594824
-0.018070668 -0.024094224 0.69696712
-0.018154373 -0.026222974 0.69808972
-0.018245064 -0.028381199 0.69930613
-0.01834167 -0.030569404 0.70060188
-0.018447312 -0.032795191 0.70201874
-0.01856236 -0.035062224 0.70356184
-0.018686216 -0.03737244 0.70522302
-0.018820304 -0.039731771 0.70702142
-0.018967511 -0.042150021 0.70899582
-0.019166509 -0.044721842 0.71166486
-0.019350581 -0.047301441 0.71413362
-0.019558845 -0.04998374 0.71692699
-0.019801725 -0.052804589 0.72018456
-0.020097241 -0.055825651 0.72414804
-0.020493535 -0.059203565 0.72946334
-0.016124608 0.022171348 0.69789946
-0.015848178 0.01981023 0.69372845
-0.015715029 0.017679423 0.69171941
-0.015626444 0.015626431 0.69038278
-0.015566343 0.013620526 0.68947589
-0.01551043 0.01163283 0.68863225
-0.015140534 0.0094628334 0.68305093
-0.015124402 0.0075622201 0.68280751
-0.015145976 0.0056797564 0.68313307
-0.015192885 0.0037982166 0.68384087
-0.015262399 0.0019078255 0.68488973
-0.015357082 2.9802322e-08 0.6863184
-0.015455155 -0.0019318759 0.6877982
-0.015517705 -0.0038794279 0.68874192
-0.015552916 -0.0058323443 0.6892733
-0.015585132 -0.0077925622 0.68975937
-0.015624674 -0.0097654164 0.69035602
-0.01566736 -0.011750519 0.69100016
-0.015715461 -0.013751 0.69172591
-0.015769014 -0.015769005 0.69253397
-0.01582581 -0.017804027 0.69339097
-0.01589033 -0.01986292 0.69436443
-0.015958942 -0.021943539 0.69539976
-0.01603245 -0.024048686 0.69650894
-0.016113965 -0.026185215 0.69773889
-0.016200768 -0.028351367 0.69904864
-0.01629342 -0.030550182 0.70044667
-0.016396469 -0.032792926 0.70200157
-0.016507292 -0.035077989 0.70367372
-0.016627287 -0.037411392 0.70548427
-0.016758155 -0.039800614 0.70745897
-0.016902583 -0.042256445 0.70963824
-0.017100582 -0.044889033 0.71262574
-0.017286908 -0.047538996 0.71543717
-0.017504547 -0.050325602 0.71872121
-0.017773077 -0.053319246 0.72277296
-0.018142169 -0.056694299 0.72834218
-0.013873198 0.023782641 0.69383264
-0.013708726 0.021542281 0.69099641
-0.013612874 0.019446969 0.68934357
-0.01354774 0.017418534 0.68822032
-0.01350173 0.01543057 0.68742692
-0.013194665 0.01319471 0.68213177
-0.013134448 0.011258096 0.68109339
-0.013136862 0.0093834698 0.681135
-0.013164167 0.0075223744 0.68160588
-0.013211089 0.0056619048 0.68241501
-0.01327785 0.0037936866 0.68356621
-0.013365812 0.001909405 0.68508315
-0.013441211 -0 0.68638337
-0.013486706 -0.0019266605 0.68716776
-0.013514598 -0.0038613081 0.68764883
-0.01354402 -0.0058045983 0.68815625
-0.013578571 -0.0077591538 0.68875194
-0.013617267 -0.0097266138 0.68941927
-0.013658795 -0.011707574 0.69013536
-0.013706901 -0.013706923 0.69096494
-0.013757726 -0.015723079 0.69184142
-0.013813396 -0.017760068 0.69280142
-0.013874408 -0.019820541 0.6938535
-0.013938844 -0.021903902 0.69496465
-0.014010043 -0.024017215 0.6961925
-0.014086675 -0.026160955 0.69751394
-0.014168448 -0.028336883 0.69892406
-0.014257555 -0.03055191 0.70046067
-0.0143552 -0.03281188 0.7021445
-0.014460817 -0.035119116 0.70396578
-0.014576062 -0.037481308 0.70595312
-0.014703213 -0.039908707 0.70814574
-0.014845427 -0.0424155 0.71059811
-0.015040757 -0.045122266 0.71396643
-0.015235397 -0.047882706 0.71732295
-0.015473258 -0.050840706 0.7214247
-0.015818547 -0.054235041 0.72737908
-0.011991485 0.027980119 0.69584799
-0.011733161 0.025421858 0.69065088
-0.011625345 0.023250699 0.68848181
-0.011555495 0.02118507 0.68707657
-0.011507349 0.019178927 0.68610787
-0.011472258 0.017208397 0.68540192
-0.011192705 0.014923632 0.67977774
-0.011173126 0.013035327 0.67938387
-0.011183199 0.011183202 0.67958653
-0.011212352 0.0093436539 0.68017304
-0.011257803 0.0075052083 0.68108743
-0.011320631 0.0056603551 0.68235141
-0.011395141 0.0037983954 0.68385041
-0.011450597 0.0019084215 0.68496621
-0.0114809 -0 0.68557584
-0.011504306 -0.001917392 0.68604666
-0.011530861 -0.0038436353 0.68658096
-0.011560077 -0.0057800114 0.68716872
-0.011594455 -0.0077296197 0.68786031
-0.011630883 -0.0096923709 0.68859321
-0.011671762 -0.011671782 0.68941569
-0.011716265 -0.013668984 0.69031096
-0.011763366 -0.015684485 0.69125861
-0.011816427 -0.017724633 0.69232607
-0.011872408 -0.019787341 0.69345236
-0.011932669 -0.021876574 0.69466472
-0.011998962 -0.023997962 0.69599843
-0.012069683 -0.026150972 0.69742119
-0.012145464 -0.028339446 0.69894576
-0.012229324 -0.030573338 0.70063299
-0.012320414 -0.032854438 0.70246559
-0.012419804 -0.03518945 0.70446509
-0.012529485 -0.037588447 0.70667171
-0.012652202 -0.040065318 0.70914054
-0.012781099 -0.042603642 0.71173376
-0.012857459 -0.04500109 0.71327007
-0.013200801 -0.048402935 0.72017753
-0.013514019 -0.051803738 0.72647899
-0.0097911805 0.029373556 0.69097793
-0.0096627176 0.027055621 0.68787658
-0.0095889429 0.024931252 0.68609548
-0.0095411092 0.022898644 0.6849407
-0.0095069557 0.0209153 0.68411613
-0.0093309768 0.018661946 0.67986763
-0.0092485007 0.016647249 0.67787647
-0.0092415996 0.014786571 0.67770988
-0.0092560276 0.012958437 0.67805821
-0.0092850216 0.011142015 0.67875814
-0.0093271844 0.0093272328 0.67977607
-0.0093840715 0.0075072348 0.68114942
-0.0094428323 0.0056657195 0.68256807
-0.0094807632 0.0037923157 0.68348384
-0.0095022256 0.0019004345 0.68400192
-0.0095214285 -0 0.68446553
-0.0095446771 -0.0019089282 0.68502676
-0.009569576 -0.0038278401 0.68562794
-0.0095982868 -0.0057589412 0.68632108
-0.009629542 -0.0077036023 0.68707561
-0.0096631655 -0.0096631944 0.68788737
-0.0097009726 -0.011641175 0.68880016
-0.0097407829 -0.013637096 0.68976122
-0.0097845942 -0.015655369 0.69081897
-0.0098318523 -0.017697334 0.6919598
-0.0098819891 -0.019763976 0.69317025
-0.0099371765 -0.021861792 0.69450259
-0.0099965781 -0.023991764 0.69593668
-0.010060253 -0.026156664 0.69747388
-0.010129293 -0.028362006 0.69914067
-0.010205613 -0.03061682 0.70098323
-0.010288927 -0.032924592 0.70299459
-0.010380886 -0.03529501 0.70521468
-0.010483766 -0.037741572 0.70769846
-0.010584809 -0.040222287 0.71013784
-0.010641357 -0.042565405 0.71150297
-0.010680426 -0.04485777 0.71244621
-0.01074349 -0.047271371 0.71396875
-0.0077234022 0.030893594 0.68767226
-0.0076458924 0.028672129 0.68533313
-0.007598144 0.026593536 0.68389225
-0.0075644874 0.024584591 0.68287647
-0.0075407177 0.022622168 0.68215925
-0.0073648496 0.02025336 0.67685187
-0.0073386547 0.018346637 0.67606139
-0.0073415083 0.016518414 0.67614758
-0.0073571876 0.01471439 0.67662066
-0.0073832977 0.012920767 0.6774087
-0.0074200588 0.011130124 0.678518
-0.0074681239 0.0093351901 0.67996848
-0.0075095105 0.0075095296 0.68121743
-0.0075350115 0.0056512654 0.68198705
-0.0075503327 0.0037751794 0.68244934
-0.0075660888 0.0018915236 0.68292487
-0.0075849271 2.9802322e-08 0.68349338
-0.0076056514 -0.001901418 0.68411875
-0.0076283203 -0.0038141608 0.68480289
-0.0076539628 -0.0057404637 0.68557668
-0.0076809865 -0.0076809824 0.68639219
-0.0077113505 -0.0096391737 0.68730849
-0.0077437521 -0.011615634 0.68828636
-0.0077783624 -0.013612121 0.68933076
-0.0078166081 -0.015633196 0.69048494
-0.0078571448 -0.017678559 0.69170821
-0.007900754 -0.019751877 0.69302428
-0.0079486677 -0.021858811 0.69447017
-0.007999979 -0.023999929 0.6960187
-0.0080552958 -0.026179701 0.69768792
-0.0081159547 -0.028405815 0.6995185
-0.0081829829 -0.03068614 0.70154124
-0.0082569486 -0.033027798 0.70377344
-0.008339799 -0.03544414 0.70627362
-0.0084147295 -0.037866265 0.70853484
-0.0084545044 -0.040158868 0.70973516
-0.0084872376 -0.042436182 0.71072292
-0.0085408045 -0.044839203 0.71233952
-0.0086325677 -0.047479123 0.71510869
-0.0058104 0.034862429 0.68839031
-0.0057221125 0.032425284 0.68483794
-0.0056762621 0.030273408 0.68299305
-0.0056454139 0.028227061 0.68175185
-0.0056242193 0.026246339 0.68089902
-0.0056056734 0.024291247 0.68015277
-0.0054713706 0.021885514 0.6747489
-0.0054636039 0.02003324 0.67443639
-0.0054693175 0.018231094 0.67466629
-0.0054838234 0.016451508 0.67524993
-0.0055059292 0.014682502 0.67613941
-0.005536166 0.012917727 0.67735606
-0.005571737 0.011143476 0.67878735
-0.005598628 0.0093310475 0.67986929
-0.0056134928 0.0074846447 0.68046743
-0.0056246831 0.0056246817 0.68091768
-0.0056371461 0.0037580729 0.68141913
-0.0056511094 0.0018836856 0.68198103
-0.0056671966 -0 0.68262833
-0.0056841932 -0.0018947124 0.68331218
-0.0057037184 -0.0038024783 0.68409783
-0.0057244259 -0.0057244301 0.68493104
-0.0057469113 -0.0076625645 0.68583584
-0.005771616 -0.0096193552 0.68682986
-0.0057975408 -0.01159507 0.68787295
-0.0058262767 -0.013594657 0.68902916
-0.005856989 -0.015618622 0.69026494
-0.0058895755 -0.017668724 0.69157618
-0.0059254956 -0.019751638 0.69302148
-0.0059642722 -0.021869004 0.69458169
-0.0060060341 -0.024024129 0.69626212
-0.0060513602 -0.026222557 0.6980859
-0.0061015389 -0.028473824 0.70010495
-0.006157326 -0.030786633 0.70234966
-0.0062198346 -0.033172429 0.70486474
-0.0062709451 -0.035535365 0.70692134
-0.0062977285 -0.037786394 0.70799893
-0.0063239154 -0.04005146 0.70905268
-0.0063655903 -0.042437285 0.71072954
-0.0064422209 -0.045095533 0.71381283
-0.0038142907 0.03623578 0.68481076
-0.0037727612 0.033954889 0.6823042
-0.0037477103 0.031855524 0.68079221
-0.0037303453 0.029842794 0.67974418
-0.0037179552 0.027884662 0.67899632
-0.0036369355 0.025458574 0.67410636
-0.0036174646 0.023513496 0.67293119
-0.0036158699 0.021695226 0.67283499
-0.0036219948 0.019921005 0.67320466
-0.0036334493 0.018167257 0.67389596
-0.0036498155 0.016424149 0.67488378
-0.0036717241 0.014686882 0.67620611
-0.0036942791 0.012929976 0.67756736
-0.003708998 0.011127025 0.67845571
-0.003717389 0.0092934966 0.67896217
-0.0037247359 0.0074494779 0.67940557
-0.0037334769 0.005600214 0.67993319
-0.0037427763 0.0037427843 0.68049449
-0.0037537694 0.0018769205 0.68115795
-0.0037654361 2.9802322e-08 0.68186206
-0.0037782737 -0.0018891394 0.68263692
-0.0037923774 -0.0037923753 0.68348813
-0.003807195 -0.0057107806 0.68438244
-0.0038238957 -0.0076478124 0.68539047
-0.0038414223 -0.00960356 0.68644828
-0.0038603456 -0.011581004 0.68759036
-0.0038810212 -0.013583601 0.6888383
-0.0039029538 -0.015611768 0.69016206
-0.0039266148 -0.017669767 0.69159007
-0.003952655 -0.019763261 0.69316173
-0.0039806734 -0.02189371 0.69485283
-0.0040111006 -0.024066597 0.69668925
-0.0040445118 -0.026289314 0.69870579
-0.0040816455 -0.028571546 0.70094705
-0.0041234223 -0.030925691 0.7034685
-0.0041538714 -0.03323096 0.70530623
-0.0041702818 -0.035447389 0.70629668
-0.004188627 -0.037697643 0.70740396
-0.004217383 -0.04006514 0.70913953
-0.0042764791 -0.042764753 0.71270627
-0.0019171785 0.040260732 0.68602186
-0.0018833913 0.037667841 0.68194336
-0.0018671912 0.035476655 0.67998785
-0.0018564187 0.033415526 0.67868751
-0.0018488321 0.031430125 0.67777169
-0.0018434577 0.029495329 0.67712295
-0.0017994695 0.026992053 0.67181313
-0.001794867 0.025128156 0.6712575
-0.0017958462 0.023346007 0.67137575
-0.0017997735 0.021597266 0.67184979
-0.0018061403 0.019867569 0.67261833
-0.0018149981 0.018150002 0.67368758
-0.0018265065 0.016438574 0.67507672
-0.0018364347 0.014691502 0.67627519
-0.0018426431 0.012898475 0.67702466
-0.0018463897 0.011078358 0.67747688
-0.0018500763 0.0092503726 0.67792189
-0.0018545884 0.0074183643 0.67846656
-0.0018594335 0.0055783093 0.6790514
-0.0018648528 0.0037297308 0.67970562
-0.0018708494 0.0018708408 0.68042946
-0.0018771945 -0 0.68119532
-0.0018843843 -0.001884371 0.68206322
-0.0018919155 -0.0037838221 0.68297231
-0.001900178 -0.0057005584 0.68396974
-0.0019090591 -0.0076362193 0.68504179
-0.0019184354 -0.0095921755 0.68617356
-0.0019288334 -0.011572987 0.68742871
-0.001939901 -0.013579309 0.68876469
-0.0019517053 -0.015613645 0.6901896
-0.0019646951 -0.017682254 0.69175762
-0.0019787974 -0.019787937 0.69345987
-0.0019941125 -0.021935225 0.69530857
-0.0020109264 -0.024131119 0.69733822
-0.0020296387 -0.026385307 0.699597
-0.0020501297 -0.028701812 0.70207047
-0.0020635305 -0.03095296 0.70368814
-0.0020712269 -0.033139646 0.70461714
-0.0020808398 -0.035374284 0.70577747
-0.0020959366 -0.03772682 0.70759988
0 0.041475207 0.6821661
0 0.039110303 0.67940897
0 0.036977202 0.67777497
0 0.034958631 0.67669666
0 0.033002883 0.67592019
0 0.031058192 0.67513067
0 0.028543204 0.6699397
0 0.026729733 0.66970193
0 0.024977267 0.66995662
0 0.023255676 0.67053711
0 0.021552771 0.67140222
0 0.019863665 0.67257583
0 0.018171132 0.67394298
0 0.016431898 0.67498744
0 0.014645427 0.67558014
0 0.012839705 0.67601025
0 0.011028886 0.67648208
0 0.0092130005 0.67701888
0 0.0073904991 0.67762667
0 0.0055589378 0.67827255
0 0.003718257 0.67901468
0 0.001865536 0.67979121
0 2.9802322e-08 0.68065679
0 -0.0018803775 0.68158114
0 -0.0037770569 0.68256545
0 -0.0056926012 0.68365133
0 -0.0076280832 0.68479669
0 -0.009586513 0.68603694
0 -0.011570752 0.68738377
0 -0.013582617 0.68882102
0 -0.015625626 0.6903708
0 -0.017706513 0.69208306
0 -0.019828081 0.69394356
0 -0.021997064 0.69598681
0 -0.024222791 0.69826066
0 -0.026497424 0.70063794
0 -0.028702497 0.70207655
0 -0.03086248 0.7029599
0 -0.033080459 0.70417082
0 -0.035428345 0.70616144
0.0019074872 0.045779705 0.684852
0.0018604982 0.042791486 0.67917991
0.0018429552 0.040545017 0.67706233
0.0018318896 0.038469702 0.67572659
0.0018240229 0.036480486 0.67477697
0.0018184083 0.034549773 0.67409921
0.0017771701 0.031989068 0.66912133
0.00176954 0.030082166 0.66820031
0.0017693834 0.02831018 0.66818142
0.0017724924 0.026587367 0.66855669
0.0017781553 0.024894208 0.66924024
0.0017861085 0.023219407 0.67020029
0.0017966586 0.021559894 0.6714738
0.0018074909 0.019882411 0.67278135
0.0018146426 0.018146425 0.67364466
0.0018187388 0.016368687 0.67413908
0.0018222558 0.014578044 0.67456371
0.0018263665 0.0127846 0.67505985
0.0018307636 0.01098457 0.67559063
0.0018359697 0.0091798306 0.67621911
0.0018414157 0.0073657036 0.67687643
0.0018475623 0.0055426657 0.67761844
0.0018541348 0.003708303 0.67841178
0.0018612179 0.0018612444 0.67926681
0.0018689975 -0 0.68020588
0.0018771312 -0.0018771291 0.68118769
0.0018861673 -0.0037723184 0.68227845
0.0018957504 -0.0056872368 0.6834352
0.0019059032 -0.0076235831 0.68466079
0.0019171566 -0.0095857978 0.68601918
0.0019291532 -0.011574924 0.68746734
0.0019420243 -0.01359418 0.68902099
0.0019561155 -0.015648931 0.69072193
0.0019716239 -0.017744631 0.69259393
0.0019886598 -0.019886553 0.69465041
0.0020076262 -0.022083849 0.69693983
0.002026154 -0.024313867 0.69917631
0.0020367771 -0.026478082 0.70045865
0.002043949 -0.028615296 0.7013244
0.0020544394 -0.030816585 0.7025907
0.0020722304 -0.03315568 0.70473826
0.0037278859 0.046598613 0.67959571
0.0036780124 0.044136137 0.67658561
0.0036498553 0.041973352 0.67488623
0.0036307203 0.039937943 0.67373133
0.0036173861 0.037982553 0.67292649
0.0036063187 0.036063224 0.6722585
0.0035196743 0.033436924 0.66702902
0.0035135204 0.031621695 0.66665763
0.003515952 0.02988559 0.66680443
0.0035238387 0.028190732 0.66728038
0.0035362537 0.026521891 0.66802973
0.003553343 0.024873406 0.66906112
0.0035753951 0.023240089 0.67039216
0.0035944919 0.021566957 0.67154467
0.0036065655 0.019836128 0.67227346
0.0036139113 0.018069535 0.6727168
0.0036208546 0.016293883 0.67313582
0.0036294695 0.014517874 0.67365575
0.0036385353 0.01273486 0.67420298
0.0036489104 0.010946751 0.67482913
0.0036601345 0.0091503561 0.67550659
0.0036722629 0.0073445141 0.6762386
0.0036856933 0.0055285394 0.67704922
0.003699701 0.0036997199 0.67789459
0.0037154979 0.0018577576 0.67884809
0.003731987 -2.9802322e-08 0.67984331
0.0037498451 -0.0018748939 0.68092108
0.0037692087 -0.0037692189 0.68208981
0.0037896631 -0.005684495 0.68332434
0.0038119664 -0.0076239109 0.68467045
0.0038361505 -0.0095903873 0.68613005
0.003862059 -0.011586159 0.68769377
0.0038900427 -0.013615161 0.68938279
0.0039211372 -0.015684575 0.69125956
0.0039554047 -0.017799288 0.69332772
0.0039935885 -0.019967914 0.69563234
0.0040280856 -0.02215448 0.69771439
0.0040468834 -0.024281323 0.69884896
0.0040611555 -0.026397526 0.69971037
0.0040841778 -0.028589219 0.70109987
0.0041211639 -0.030908704 0.70333219
0.0055144448 0.047791839 0.67648202
0.0054584583 0.045487195 0.67422932
0.0054239812 0.043391824 0.67284209
0.0053996318 0.041397184 0.67186236
0.0053820526 0.039468408 0.67115498
0.0052786944 0.036950856 0.66699618
0.0052374383 0.034916252 0.66533613
0.0052332385 0.033143848 0.66516721
0.0052401442 0.031440854 0.66544503
0.0052544698 0.029775321 0.66602147
0.0052754106 0.028135508 0.6668641
0.005303537 0.026517719 0.66799569
0.0053360206 0.02490142 0.66930282
0.0053611198 0.023231506 0.67031276
0.0053756917 0.021502793 0.67089903
0.0053859535 0.019748479 0.67131197
0.0053969524 0.017989844 0.67175454
0.0054097506 0.016229272 0.67226946
0.005423903 0.014463753 0.67283899
0.0054392722 0.012691647 0.67345738
0.0054565533 0.010913104 0.67415267
0.0054745432 0.0091242194 0.67487657
0.0054951054 0.0073268116 0.67570388
0.0055164918 0.0055165291 0.6765644
0.0055398843 0.0036932528 0.67750567
0.0055649821 0.0018550158 0.67851549
0.0055914535 -0 0.67958069
0.0056207865 -0.0018735528 0.68076086
0.0056517478 -0.003767848 0.68200672
0.0056848177 -0.005684793 0.68333733
0.0057213493 -0.0076284707 0.68480724
0.0057604965 -0.0096008182 0.68638241
0.005802785 -0.011605561 0.68808395
0.0058489786 -0.013647616 0.68994272
0.0059006186 -0.015734971 0.69202048
0.0059582596 -0.017874777 0.69433975
0.0060054334 -0.020018101 0.69623792
0.0060305735 -0.022112101 0.69724947
0.00605341 -0.024213642 0.69816834
0.0060896822 -0.026388586 0.69962782
0.0061486252 -0.028693557 0.70199955
0.0073825079 0.051677555 0.67738479
0.0072655794 0.049042702 0.67385614
0.0072070528 0.046845853 0.67208999
0.0071670245 0.044793904 0.67088199
0.0071386243 0.042831749 0.67002493
0.0071183126 0.040930271 0.66941202
0.0069529745 0.038241357 0.66442251
0.0069289515 0.036377013 0.66369754
0.0069304393 0.034652203 0.66374242
0.0069429404 0.032978982 0.66411966
0.0069647576 0.031341404 0.66477805
0.0069956998 0.029731721 0.66571176
0.0070363786 0.028145552 0.66693944
0.0070780348 0.026542634 0.66819656
0.0071058278 0.024870396 0.6690352
0.007121834 0.023145974 0.66951823
0.0071353409 0.021406025 0.66992593
0.0071508158 0.019664735 0.67039287
0.0071676406 0.017919093 0.67090064
0.0071872026 0.016171187 0.67149091
0.007207572 0.014415175 0.67210567
0.007231113 0.012654454 0.6728161
0.0072556231 0.010883421 0.67355573
0.0072827376 0.009103477 0.67437398
0.0073117376 0.0073117316 0.67524916
0.0073425858 0.0055069625 0.67618006
0.0073764673 0.003688246 0.67720252
0.007412035 0.0018530488 0.67827582
0.0074508311 2.9802322e-08 0.67944664
0.0074925022 -0.0018731058 0.68070418
0.0075367428 -0.0037683547 0.68203926
0.0075851572 -0.0056888759 0.68350029
0.0076376935 -0.0076377094 0.68508571
0.0076944823 -0.0096181035 0.68679941
0.007756507 -0.011634767 0.68867123
0.0078251651 -0.013694048 0.69074315
0.0079018772 -0.015803754 0.69305819
0.0079583395 -0.017906249 0.69476205
0.007988994 -0.019972503 0.69568717
0.0080211395 -0.022058159 0.6966573
0.0080713434 -0.024214029 0.69817221
0.0081594307 -0.026518136 0.70083052
0.0090873847 0.052706838 0.67398679
0.0089857783 0.050320327 0.67153382
0.0089235669 0.048187256 0.67003191
0.0088817803 0.046185255 0.66902304
0.0088513624 0.044256806 0.66828871
0.0088221785 0.042346448 0.66758418
0.0086135669 0.039622396 0.66254783
0.0086011877 0.037845224 0.66224897
0.0086083505 0.036155075 0.66242188
0.0086280927 0.034512401 0.66289848
0.0086583719 0.032901824 0.66362953
0.0086996807 0.031318873 0.66462678
0.0087524867 0.029758424 0.66590166
0.0087984428 0.028155029 0.66701114
0.0088278437 0.026483566 0.66772091
0.008845822 0.024768293 0.66815501
0.0088624619 0.023042411 0.66855669
0.0088827899 0.021318704 0.66904742
0.0089040026 0.019588828 0.66955954
0.0089288848 0.01785776 0.67016029
0.0089550931 0.016119152 0.67079306
0.0089841643 0.014374673 0.67149484
0.0090155369 0.01262179 0.67225224
0.0090489937 0.010858804 0.67305994
0.0090858666 0.0090858638 0.67395014
0.0091241729 0.0072993636 0.67487496
0.0091668656 0.005500108 0.67590559
0.0092117907 0.0036846995 0.67699021
0.0092597278 0.0018519163 0.67814755
0.0093122898 2.9802322e-08 0.67941648
0.009368048 -0.0018736124 0.68076259
0.0094278865 -0.0037711561 0.68220723
0.0094940038 -0.0056964159 0.68380344
0.0095654782 -0.0076524019 0.68552899
0.0096435724 -0.0096435249 0.68741435
0.0097300243 -0.011676013 0.6895014
0.0098240152 -0.013753623 0.69177067
0.0098866755 -0.015818685 0.69328338
0.0099223973 -0.017860323 0.6941458
0.0099646058 -0.019929171 0.69516474
0.010029641 -0.022065192 0.69673491
0.010151282 -0.024363071 0.69967151
0.010981407 0.056737244 0.67552674
0.010770516 0.053852558 0.67128396
0.010675077 0.051596195 0.66936392
0.010613373 0.049529076 0.66812253
0.010569171 0.047561258 0.66723323
0.01053723 0.04566136 0.66659057
0.010304598 0.042935848 0.66191041
0.010255632 0.041022509 0.66092527
0.01025038 0.03929314 0.66081965
0.010265206 0.037639081 0.66111791
0.01029368 0.036027879 0.66169077
0.010334501 0.034448355 0.662512
0.010388788 0.03289786 0.6636042
0.010450992 0.031352997 0.6648556
0.010499494 0.029748589 0.66583145
0.010528399 0.028075725 0.66641295
0.010548078 0.026370227 0.66680884
0.010568761 0.024660468 0.667225
0.010593301 0.022952139 0.66771865
0.010619831 0.021239638 0.66825241
0.01064929 0.01952368 0.66884506
0.010681686 0.017802835 0.66949683
0.010716115 0.016074181 0.6701895
0.010754581 0.014339447 0.67096341
0.01079441 0.012593508 0.67176467
0.010839229 0.010839254 0.67266637
0.010885842 0.0090714991 0.67360419
0.010936483 0.0072909892 0.67462295
0.010991015 0.0054954886 0.6757201
0.011048331 0.0036827624 0.67687321
0.011111468 0.0018518865 0.67814338
0.011178952 2.9802322e-08 0.67950106
0.011250969 -0.0018751323 0.68094993
0.011329774 -0.0037765801 0.68253541
0.011416112 -0.0057080388 0.68427241
0.01151048 -0.007673651 0.68617094
0.011615 -0.0096791685 0.68827367
0.011723723 -0.011723697 0.69046098
0.011790439 -0.0137555 0.69180322
0.011831235 -0.015774995 0.69262397
0.011884299 -0.017826438 0.69369155
0.011964913 -0.019941509 0.69531339
0.01214684 -0.022269219 0.69897354
0.012582982 0.057522207 0.67158365
0.012427609 0.055036545 0.66890442
0.012336606 0.052871168 0.66733509
0.012274093 0.050849825 0.66625708
0.012229991 0.048920006 0.66549659
0.012195329 0.047039121 0.66489881
0.011906901 0.044225633 0.6599251
0.011877064 0.042418092 0.65941054
0.011881335 0.04073599 0.65948427
0.011903463 0.039111406 0.6598658
0.011940146 0.03752619 0.66049838
0.011992763 0.035978317 0.66140574
0.012061527 0.034461498 0.66259146
0.01213163 0.032928765 0.66380036
0.012178917 0.031317234 0.66461587
0.012206336 0.029643953 0.66508865
0.01222901 0.027952045 0.6654796
0.012254467 0.026259571 0.66591871
0.012282745 0.024565488 0.66640627
0.012314918 0.02287057 0.66696107
0.012348872 0.021169484 0.66754663
0.012387656 0.019466311 0.66821539
0.012427743 0.017753899 0.66890669
0.012473151 0.016036898 0.66968971
0.012520459 0.014309108 0.67050552
0.012572141 0.01257214 0.67139673
0.012627348 0.010823458 0.67234874
0.012685752 0.0090612471 0.67335594
0.012749987 0.0072857141 0.67446357
0.01281755 0.0054932237 0.67562866
0.012890385 0.003682971 0.67688465
0.012969716 0.0018528402 0.6782527
0.013054408 -0 0.67971319
0.013145342 -0.0018778741 0.68128121
0.013246715 -0.0037848055 0.68302935
0.013357502 -0.0057246685 0.68493986
0.013480321 -0.0077030659 0.68705773
0.013599713 -0.009714067 0.68911654
0.013669829 -0.011716992 0.69032568
0.013715972 -0.013715982 0.69112134
0.01378057 -0.015749246 0.69223535
0.013883482 -0.01785019 0.69400996
0.014194219 0.058551162 0.66877216
0.014057387 0.056229532 0.66670752
0.013972839 0.05414474 0.66543186
0.013911941 0.05216977 0.66451293
0.013867553 0.050269902 0.6638431
0.013817434 0.048361063 0.66308689
0.013496988 0.045552343 0.65825176
0.013481623 0.043815255 0.6580199
0.013494668 0.042170852 0.65821671
0.013526268 0.040578842 0.65869355
0.013573604 0.039024115 0.65940773
0.013637467 0.037503064 0.66037142
0.013718416 0.036010861 0.66159284
0.013789398 0.034473509 0.66266394
0.013835248 0.032858729 0.66335571
0.013863423 0.03119269 0.66378081
0.013888965 0.029514045 0.66416621
0.013919634 0.027839273 0.66462898
0.013951508 0.026159108 0.66510993
0.01398959 0.024481803 0.66568452
0.014028861 0.022796899 0.66627711
0.014073451 0.021110177 0.66694987
0.014120315 0.019415408 0.66765702
0.014171606 0.0177145 0.66843092
0.014226657 0.016005009 0.66926157
0.014285044 0.014285028 0.67014259
0.014348949 0.012555331 0.67110687
0.014415715 0.010811806 0.67211431
0.014489133 0.0090557039 0.67322206
0.014567066 0.0072835386 0.67439795
0.014649432 0.0054935515 0.67564076
0.014740764 0.0036852062 0.67701888
0.014838192 0.0018547773 0.67848897
0.014942938 -2.9802322e-08 0.68006945
0.015057608 -0.0018822253 0.68179971
0.015185047 -0.0037962496 0.68372262
0.015326388 -0.0057473779 0.68585527
0.015453842 -0.0077269375 0.68777835
0.015525168 -0.0097031891 0.68885463
0.015577065 -0.011682808 0.68963766
0.015654126 -0.013697356 0.69080049
0.015781386 -0.015781373 0.69272071
0.016014211 0.062277526 0.66938525
0.015786951 0.059639603 0.66633719
0.015666835 0.057445079 0.66472614
0.015583075 0.055406481 0.66360271
0.015523018 0.053468198 0.66279721
0.015479637 0.051598787 0.66221541
0.015129475 0.04875052 0.65751898
0.015068067 0.046878427 0.65669531
0.015064539 0.045193613 0.65664798
0.015088161 0.043588042 0.65696478
0.015130645 0.042029589 0.6575346
0.015190309 0.040507495 0.65833485
0.015268957 0.039020658 0.65938973
0.015358371 0.037542701 0.66058898
0.015428724 0.036000371 0.66153252
0.015471607 0.03438136 0.66210771
0.015500044 0.032722294 0.66248918
0.015529229 0.031058431 0.66288054
0.015564546 0.029399693 0.66335428
0.015601862 0.027736634 0.66385472
0.015644301 0.026073813 0.66442394
0.01568976 0.024406314 0.6650337
0.015739333 0.022734553 0.66569853
0.015793264 0.021057665 0.66642189
0.015850298 0.019372553 0.66718686
0.01591331 0.01768145 0.66803205
0.015978355 0.015978366 0.66890442
0.016051084 0.014267653 0.66987985
0.016127076 0.012543261 0.67089909
0.01620869 0.010805786 0.67199373
0.016297149 0.0090540051 0.6731801
0.016390633 0.0072847605 0.67443395
0.01649232 0.0054974258 0.67579782
0.016602742 0.0036895275 0.67727882
0.01672148 0.0018579662 0.67887139
0.016850561 2.9802322e-08 0.68060261
0.016993377 -0.0018881559 0.68251818
0.017153455 -0.003811866 0.6846652
0.017284475 -0.0057615042 0.68642247
0.017356023 -0.0077137947 0.68738204
0.017415224 -0.0096750855 0.68817604
0.017510092 -0.011673391 0.68944854
0.017659027 -0.013734818 0.69144595
0.017544195 0.063159108 0.66637504
0.017363375 0.060771823 0.66419244
0.017248692 0.058645546 0.662808
0.017170323 0.056662083 0.66186202
0.017112656 0.054760516 0.66116595
0.017060142 0.052886426 0.66053206
0.016655469 0.049966395 0.65564722
0.016626304 0.048216283 0.65529513
0.016634651 0.046577007 0.65539593
0.016666567 0.044999748 0.65578115
0.016717462 0.043465436 0.65639555
0.016790107 0.04197529 0.65727246
0.016884957 0.040523887 0.65841734
0.016981401 0.039057225 0.65958154
0.017047182 0.037503809 0.6603756
0.017085485 0.035879523 0.66083795
0.017116578 0.034233153 0.66121328
0.017150842 0.032586604 0.66162688
0.017189613 0.030941278 0.66209489
0.01723277 0.029295713 0.6626159
0.017279308 0.027646899 0.66317761
0.017331319 0.025996983 0.66380543
0.017385697 0.024340004 0.66446185
0.017446926 0.022681028 0.66520095
0.017509935 0.021011919 0.66596156
0.017580688 0.019338757 0.66681564
0.017654069 0.017654061 0.66770136
0.017733971 0.015960544 0.66866589
0.017819358 0.014255464 0.66969657
0.017909033 0.012536347 0.67077905
0.01800823 0.010804951 0.67197651
0.018112991 0.0090565085 0.67324108
0.018224815 0.0072899163 0.67459089
0.018348319 0.0055045187 0.67608172
0.018481219 0.003696233 0.67768598
0.018625692 0.0018625557 0.67942989
0.018784771 -0 0.68135017
0.018961526 -0.001896143 0.68348384
0.01909234 -0.0038184524 0.68506283
0.019164737 -0.0057494342 0.68593681
0.01923517 -0.0076940954 0.68678689
0.019344861 -0.0096724033 0.68811101
0.019516673 -0.011709988 0.69018501
0.019389169 0.066980779 0.66736877
0.019075353 0.064162582 0.66392505
0.018916436 0.061908334 0.66218114
0.018810989 0.059853137 0.66102403
0.018734857 0.05790776 0.66018856
0.018679287 0.056037843 0.65957874
0.01830901 0.053262532 0.65551555
0.018182717 0.051242173 0.65412962
0.018167233 0.049546987 0.65395963
0.018187163 0.047947973 0.65417838
0.018230597 0.046405166 0.65465504
0.018294223 0.044904023 0.65535319
0.018379137 0.043441564 0.65628505
0.018485866 0.042013317 0.65745628
0.018580098 0.040538371 0.6584903
0.01864158 0.038977861 0.65916502
0.018679604 0.037359208 0.65958226
0.018713327 0.035725445 0.65995228
0.01875305 0.03409645 0.66038823
0.018795187 0.032464415 0.66085064
0.018844415 0.030836344 0.66139084
0.018895071 0.029201478 0.66194671
0.018953763 0.027569115 0.66259074
0.019014003 0.025928169 0.66325188
0.019081635 0.024285704 0.66399401
0.019152286 0.022634506 0.66476935
0.019229233 0.020977378 0.66561371
0.019311139 0.01931116 0.66651249
0.019398052 0.017634571 0.66746628
0.019492997 0.015948862 0.66850817
0.019592293 0.014248967 0.6695978
0.019700641 0.012536794 0.6707868
0.019816827 0.010809183 0.6720618
0.019940242 0.0090637803 0.67341614
0.020075228 0.0073000789 0.67489743
0.020222453 0.005515188 0.67651308
0.020382566 0.0037059188 0.67827004
0.020558974 0.001868993 0.68020588
0.020749249 2.9802322e-08 0.68229389
0.02087841 -0.0018980205 0.68371129
0.020951847 -0.0038093925 0.68451715
0.021033516 -0.0057363808 0.68541342
0.02115893 -0.007694155 0.68678963
0.021368241 -0.0097128153 0.6890865
0.020830339 0.067698598 0.66413498
0.020591879 0.06520763 0.66173625
0.020447562 0.063046664 0.66028452
0.020347364 0.06104207 0.6592766
0.020275699 0.059137464 0.65855575
0.020222027 0.057295769 0.65801579
0.019754183 0.054323971 0.65330964
0.01968779 0.052500784 0.65264183
0.019688888 0.050862998 0.65265286
0.019720962 0.049302399 0.6529755
0.019777216 0.047794908 0.65354133
0.01985478 0.046327829 0.65432155
0.019956205 0.04490149 0.65534186
0.020070544 0.043486208 0.65649199
0.020161254 0.042002618 0.65740448
0.020217327 0.040434659 0.65796852
0.020254429 0.038820982 0.65834177
0.020290978 0.037200123 0.65870941
0.020336268 0.035588503 0.65916497
0.020382937 0.033971578 0.65963447
0.020437259 0.032359004 0.66018093
0.020494113 0.030741185 0.66075277
0.020557545 0.029123157 0.66139084
0.02062477 0.027499646 0.66206712
0.020697717 0.025872141 0.66280085
0.020776138 0.024238825 0.66358978
0.020859141 0.022597402 0.66442472
0.020949753 0.020949721 0.66533613
0.021043956 0.019290298 0.66628385
0.021148169 0.017623484 0.66733205
0.021257633 0.015943199 0.66843325
0.021374552 0.014249712 0.66960931
0.021502307 0.012542993 0.67089444
0.021637989 0.010818988 0.67225927
0.021783769 0.0090765357 0.67372572
0.021945477 0.007315129 0.67535239
0.022121411 0.0055303276 0.67712212
0.022315275 0.0037192106 0.67907226
0.022516027 0.0018763244 0.68109167
0.022641005 -2.9802322e-08 0.68234891
0.022717072 -0.0018930733 0.68311405
0.022810712 -0.0038017929 0.68405598
0.022952497 -0.0057381094 0.6854822
0.023206295 -0.0077354312 0.68803525
0.022761004 0.071784735 0.6659438
0.022290975 0.068587601 0.66157937
0.022088189 0.06626457 0.6596964
0.021960223 0.064191431 0.65850818
0.021867277 0.06223765 0.65764511
0.02179876 0.060365826 0.65700889
0.021726966 0.058495641 0.65634227
0.021219343 0.055496752 0.65162873
0.021188445 0.053786069 0.65134192
0.021202052 0.052189678 0.65146822
0.021243805 0.050658315 0.65185595
0.021308595 0.049173713 0.65245754
0.02139945 0.047737241 0.65330118
0.021518594 0.046347737 0.65440744
0.021639433 0.044943452 0.6555295
0.021722686 0.043445379 0.65630251
0.02177147 0.041868269 0.65675551
0.021810234 0.040265083 0.65711546
0.021852292 0.038661748 0.65750599
0.021900704 0.037062734 0.65795553
0.021953406 0.035463244 0.65844488
0.022011574 0.033863962 0.65898496
0.022074921 0.032263339 0.6595732
0.022142854 0.030659348 0.66020393
0.02221735 0.02905345 0.66089576
0.022295559 0.027440697 0.66162193
0.022381943 0.025825322 0.66242403
0.02247086 0.024199426 0.66324967
0.022570353 0.022570372 0.66417348
0.022673571 0.020929456 0.66513193
0.022785321 0.019279867 0.66616958
0.022905031 0.017619252 0.66728115
0.023030816 0.015944421 0.6684491
0.02316987 0.014258415 0.66974026
0.023317965 0.012555867 0.6711154
0.023476519 0.01083532 0.67258763
0.023650566 0.0090963542 0.67420381
0.023842411 0.0073361397 0.6759851
0.024054104 0.0055509508 0.6779508
0.024258727 0.0037321448 0.67985082
0.024381759 0.0018755496 0.6809932
0.024460977 2.9802322e-08 0.68172878
0.024567129 -0.0018897653 0.68271446
0.024725977 -0.0038039684 0.68418944
0.025028042 -0.0057757199 0.68699425
0.024047695 0.072143108 0.66194171
0.023745593 0.069540679 0.65933698
0.023572596 0.067350298 0.65784532
0.023450986 0.065327764 0.65679681
0.023363153 0.063414276 0.65603954
0.023298889 0.061575651 0.65548539
0.022785075 0.058590174 0.65105522
0.022682523 0.056706339 0.65017098
0.022669457 0.055054396 0.65005833
0.022697221 0.053500623 0.6502977
0.022752365 0.05200541 0.65077317
0.022831565 0.050555617 0.651456
0.022936147 0.049148887 0.65235782
0.023066506 0.047780633 0.65348172
0.023182459 0.046364903 0.65448153
0.023258738 0.044856161 0.65513921
0.023306254 0.043283045 0.65554893
0.023347501 0.041691989 0.65590453
0.023395224 0.040106148 0.65631598
0.023446748 0.038519651 0.65676028
0.023505757 0.036937624 0.65726906
0.023567598 0.035351396 0.65780228
0.02363782 0.033768296 0.65840775
0.023710147 0.032178074 0.65903139
0.023792129 0.030589908 0.65973818
0.023875976 0.028992265 0.66046119
0.023969932 0.027394205 0.66127121
0.024067027 0.025786072 0.66210842
0.024173083 0.024173081 0.66302288
0.024285633 0.02255097 0.66399336
0.024404593 0.02091822 0.66501898
0.024534773 0.019277334 0.66614139
0.02467156 0.01762259 0.66732085
0.024819642 0.015955508 0.66859764
0.024980374 0.014274478 0.66998351
0.025152408 0.012576193 0.67146683
0.025338465 0.01085937 0.67307103
0.025546007 0.0091235638 0.67486048
0.025775647 0.0073645115 0.67684042
0.025982149 0.0055675805 0.67862099
0.026100256 0.0037285984 0.67963934
0.026183864 0.0018703043 0.6803602
0.026303124 -0 0.6813885
0.026487518 -0.0018919706 0.68297839
0.026910719 -0.0038443804 0.68662727
0.025435325 0.07291463 0.6592856
0.025192432 0.070538789 0.65733099
0.025033617 0.068425238 0.65605289
0.024923058 0.066461474 0.65516323
0.024840983 0.06458658 0.65450263
0.024770064 0.062750816 0.65393203
0.024190925 0.059670925 0.64927149
0.024131266 0.057915062 0.64879137
0.024136079 0.056317538 0.64883006
0.024174638 0.054795861 0.64914036
0.024244454 0.053337783 0.64970225
0.024339113 0.051923454 0.650464
0.024461752 0.050554276 0.65145093
0.024598928 0.049197882 0.65255481
0.02470858 0.047769964 0.6534372
0.024777262 0.04625088 0.65398997
0.024822824 0.044681042 0.6543566
0.024866495 0.043101907 0.65470803
0.02492016 0.041533619 0.65513992
0.024975058 0.039960116 0.65558171
0.025040217 0.038395017 0.65610605
0.025106894 0.036823481 0.65664256
0.025182964 0.035256177 0.65725476
0.025261708 0.033682257 0.65788841
0.025349248 0.032109022 0.65859294
0.025440756 0.030528903 0.65932935
0.025540402 0.028945774 0.66013122
0.025646001 0.02735576 0.660981
0.025758399 0.025758415 0.6618855
0.025880262 0.024154902 0.66286618
0.026007159 0.022539496 0.66388738
0.02614714 0.020917714 0.66501391
0.026294991 0.019282997 0.66620368
0.026452076 0.01763472 0.66746783
0.02662549 0.015975296 0.6688633
0.026811248 0.014299303 0.67035818
0.027012246 0.012605727 0.67197573
0.027232381 0.010892957 0.67374718
0.027480155 0.0091600418 0.67574114
0.027682973 0.0073821247 0.67737329
0.027796365 0.0055592656 0.67828584
0.027886113 0.0037181675 0.67900807
0.028019473 0.0018679798 0.68008125
0.028233653 -0 0.68180478
0.028163338 0.077449143 0.66707391
0.027136808 0.072930187 0.65932935
0.026481094 0.069512904 0.65438235
0.02637692 0.067590833 0.6535964
0.026299972 0.065749913 0.65301591
0.025839547 0.0629839 0.64954221
0.025604349 0.060810357 0.64776784
0.025574332 0.059140652 0.6475414
0.025594119 0.057586789 0.64769065
0.025645934 0.056100458 0.64808154
0.025724057 0.054663599 0.64867097
0.025831543 0.053277582 0.64948189
0.02597343 0.051946849 0.65055227
0.02611688 0.050601453 0.65163457
0.026216775 0.049156427 0.65238822
0.026275545 0.047624439 0.65283155
0.026321417 0.046062499 0.65317768
0.026370142 0.044499606 0.65354526
0.026427509 0.0429447 0.65397811
0.026488453 0.041388214 0.6544379
0.026557256 0.03983587 0.65495694
0.026630491 0.038281322 0.65550947
0.026710812 0.036727339 0.65611547
0.026796734 0.035170734 0.65676361
0.026889075 0.033611357 0.65746033
0.026988514 0.032048851 0.65821058
0.027093552 0.030480266 0.65900296
0.027207822 0.028908312 0.65986508
0.027326416 0.027326435 0.66075981
0.027457912 0.025741816 0.66175187
0.027594673 0.024145365 0.66278362
0.02774241 0.022540718 0.66389829
0.027901461 0.020926118 0.66509819
0.028069725 0.019297957 0.66636765
0.028253587 0.017658502 0.66775477
0.028453214 0.01600492 0.66926086
0.028669227 0.014334589 0.67089057
0.028905967 0.012646377 0.67267656
0.029167354 0.01093778 0.67464858
0.029362049 0.0091756582 0.67611748
0.029471545 0.007367909 0.67694354
0.029570388 0.0055444539 0.67768925
0.029723983 0.0037155151 0.67884803
0.029962046 0.0018726289 0.68064415
0.030843668 0.079830647 0.67360735
0.02968617 0.075088561 0.66538835
0.028612023 0.070688516 0.65776128
0.027737513 0.066896379 0.65155172
0.027111582 0.063791931 0.64710718
0.027007252 0.061957836 0.64636636
0.026998851 0.060350358 0.64630675
0.027035151 0.058841228 0.64656442
0.027101994 0.057392448 0.64703912
0.027196012 0.055991799 0.64770663
0.027319081 0.054638177 0.64858055
0.027471101 0.053326279 0.64965999
0.027607245 0.051966608 0.65062672
0.02769777 0.050507665 0.65126956
0.027754346 0.048978269 0.65167123
0.027802516 0.047427833 0.6520133
0.027857238 0.045882523 0.6524018
0.0279174 0.044339389 0.65282899
0.027984815 0.042800307 0.65330768
0.028057093 0.041260421 0.65382087
0.028137187 0.039723128 0.65438962
0.028221486 0.03818199 0.65498817
0.028314864 0.03664276 0.65565121
0.028411901 0.035097063 0.6563403
0.02851945 0.033552289 0.6571039
0.028629838 0.031998068 0.65788776
0.028752938 0.030444324 0.65876186
0.028880142 0.028880149 0.65966511
0.029018668 0.027311683 0.6606487
0.029165527 0.025734305 0.66169143
0.029320853 0.024146557 0.66279441
0.029491335 0.022552222 0.66400492
0.029671568 0.020944625 0.66528475
0.02986492 0.019324392 0.66665757
0.030078562 0.017693281 0.66817462
0.030309856 0.016046435 0.66981691
0.03056339 0.01438278 0.67161721
0.030834947 0.012696713 0.67354542
0.031021962 0.010948926 0.67487329
0.031128788 0.0091555417 0.67563188
0.031239916 0.007350564 0.67642093
0.031409949 0.0055429339 0.67762834
0.031672869 0.0037262142 0.67949522
0.033694062 0.082363248 0.68055534
0.032775063 0.078295976 0.6743924
0.032839358 0.076625198 0.67482352
0.030365251 0.069165319 0.65823185
0.029022936 0.064495414 0.64923
0.028414845 0.061565489 0.64515209
0.028461089 0.060084522 0.64546221
0.028542537 0.058670789 0.64600843
0.028653504 0.057307005 0.64675254
0.028795961 0.055992156 0.64770794
0.028954078 0.054691017 0.64876831
0.029081507 0.053316116 0.6496228
0.029162109 0.051843733 0.65016335
0.029215842 0.050316185 0.65052372
0.029266255 0.048777074 0.65086174
0.029327245 0.047249436 0.65127081
0.029390216 0.045718133 0.65169311
0.029464345 0.044196516 0.65219021
0.029539917 0.04266879 0.65269703
0.029627081 0.041148722 0.65328157
0.029715449 0.039620638 0.6538741
0.029816382 0.038098723 0.65455103
0.029918997 0.036567688 0.65523916
0.03003373 0.035039335 0.6560086
0.030151976 0.033502221 0.65680152
0.030281432 0.031963736 0.65766972
0.030417761 0.03041774 0.658584
0.030562887 0.02886495 0.65955722
0.030719988 0.027306646 0.66061074
0.030884216 0.025736839 0.66171211
0.031064671 0.024161398 0.6629222
0.031257004 0.022574514 0.66421205
0.031461842 0.020974547 0.66558576
0.031687543 0.019364625 0.6670993
0.031934161 0.017741203 0.66875315
0.032204904 0.016102433 0.67056882
0.032483675 0.014437169 0.67243826
0.032659777 0.012701035 0.67361927
0.032766595 0.010922223 0.67433554
0.032890685 0.0091362894 0.6751678
0.033077799 0.0073506236 0.67642254
0.033374306 0.0055623651 0.67841095
0.035470013 0.080274224 0.67994577
0.034617566 0.076523006 0.67453003
0.0349469 0.075411707 0.67662239
0.035450835 0.07463339 0.67982394
0.030846847 0.063317239 0.65057397
0.029973684 0.059947371 0.64502656
0.030096566 0.058609098 0.64580727
0.030259613 0.057334006 0.64684314
0.030423459 0.056043208 0.64788407
0.030539662 0.054649949 0.64862227
0.030608097 0.053161472 0.64905709
0.030660516 0.051638722 0.6493901
0.030715095 0.050114125 0.64973688
0.030780533 0.048600852 0.65015262
0.03084865 0.047084808 0.65058535
0.030927228 0.04557699 0.6510846
0.031008938 0.044065356 0.6516037
0.031100644 0.042558789 0.65218633
0.031196168 0.041047573 0.65279317
0.031301554 0.039538801 0.65346277
0.031412009 0.038025081 0.65416449
0.031531826 0.036510557 0.65492576
0.031658564 0.034991086 0.6557309
0.031793769 0.033467114 0.65658987
0.031939361 0.031939358 0.65751487
0.032090943 0.030401945 0.6584779
0.032258309 0.028862685 0.65954119
0.032433406 0.027312338 0.66065365
0.032621935 0.025754184 0.66185141
0.032826491 0.024187922 0.66315097
0.033044536 0.022609413 0.66453624
0.033280406 0.02101922 0.66603482
0.033542611 0.019419402 0.66770059
0.033830635 0.017805606 0.66953051
0.034107488 0.016156137 0.67128944
0.034277938 0.014432847 0.67237234
0.034385305 0.012668252 0.67305446
0.034522783 0.010901958 0.67392784
0.034727585 0.0091388524 0.67522895
0.035077777 0.0073847771 0.67745388
0.036810972 0.077303022 0.67677182
0.03769109 0.077266753 0.68208379
0.037994616 0.075989217 0.68391573
0.03825153 0.074590474 0.68546629
0.031781815 0.060385495 0.64641815
0.031709507 0.058662623 0.64598173
0.031864699 0.057356447 0.64691836
0.031968631 0.055945098 0.6475457
0.032034025 0.054457843 0.6479404
0.032088567 0.052946121 0.64826959
0.032149285 0.051438838 0.64863604
0.032217495 0.049937099 0.64904773
0.032292139 0.048438221 0.64949822
0.032373939 0.046942204 0.64999187
0.03246247 0.045447469 0.65052623
0.032557946 0.04395327 0.65110248
0.032660913 0.04245919 0.65172398
0.032770645 0.040963322 0.65238625
0.03288912 0.039466947 0.65310133
0.033013899 0.037965983 0.65385443
0.033149175 0.036464095 0.65467089
0.033289999 0.034954518 0.6555208
0.033444982 0.033445001 0.65645623
0.033605475 0.031925201 0.65742493
0.033780739 0.03040269 0.65848273
0.03396672 0.028871715 0.65960521
0.034163151 0.027330488 0.6607908
0.034380168 0.025785148 0.66210055
0.034611445 0.024228036 0.66349649
0.034860425 0.022659302 0.66499919
0.035135325 0.021081209 0.6666584
0.035440683 0.019492388 0.66850138
0.035714012 0.017856985 0.67015105
0.035874434 0.016143471 0.67111933
0.035985246 0.014394075 0.6717881
0.036136635 0.012647778 0.67270184
0.036359709 0.010907918 0.67404819
0.036766749 0.0091916621 0.67650491
0.039896011 0.079792023 0.68392527
0.039740145 0.077587932 0.68302935
0.040000349 0.076191157 0.68452507
0.040248413 0.074747056 0.68595093
0.040484745 0.073258132 0.68730944
0.033289712 0.058653325 0.64595145
0.033381827 0.057226002 0.64648092
0.033443555 0.055739254 0.64683574
0.033500176 0.054238379 0.64716119
0.033567492 0.052748919 0.64754814
0.033638202 0.051258206 0.64795458
0.0337197 0.049776703 0.64842308
0.033804532 0.04829219 0.6489107
0.033900291 0.04681468 0.64946115
0.033999342 0.045332462 0.65003049
0.034109935 0.043855637 0.65066612
0.034223922 0.042372495 0.65132141
0.034350459 0.040893406 0.65204877
0.034480087 0.039405793 0.65279388
0.034624271 0.037921816 0.65362263
0.034772426 0.036428273 0.65447426
0.034934971 0.034934968 0.65540856
0.035105377 0.033433676 0.6563881
0.035287526 0.031926811 0.65743518
0.035484511 0.030415297 0.65856743
0.035691828 0.028893381 0.65975904
0.035918273 0.027366281 0.66106075
0.036163036 0.025830775 0.66246766
0.036426555 0.024284363 0.66398239
0.03671382 0.022727609 0.66563362
0.037035517 0.021163166 0.66748279
0.037300035 0.019538134 0.66900325
0.037451461 0.017834067 0.66987371
0.037566748 0.016100049 0.6705364
0.037732542 0.014374316 0.67148936
0.037981182 0.012660414 0.67291856
0.038477853 0.010993689 0.67577356
0.041734971 0.077778816 0.68359143
0.041985843 0.076337904 0.68496794
0.042228736 0.074860066 0.68630064
0.03483719 0.057006299 0.64574432
0.034896825 0.055517703 0.64607155
0.034969769 0.054044187 0.6464718
0.035044029 0.052566051 0.6468792
0.035131488 0.051100343 0.64735907
0.035220399 0.049628735 0.64784694
0.035322454 0.04816696 0.64840692
0.035426129 0.046698093 0.64897573
0.03554349 0.045237184 0.6496197
0.035663132 0.043768376 0.65027618
0.035796504 0.042304963 0.65100789
0.035933454 0.040833473 0.65175939
0.03608387 0.039364219 0.65258467
0.03624104 0.037888348 0.65344703
0.036409698 0.036409706 0.65437245
0.036590025 0.034926832 0.65536189
0.036778908 0.033435345 0.65639824
0.036987137 0.03194344 0.65754074
0.037206165 0.030441374 0.65874249
0.037441038 0.028931737 0.66003126
0.037699416 0.027417749 0.66144896
0.037977755 0.025893927 0.66297609
0.038281254 0.024360806 0.66464138
0.038614422 0.022817612 0.66646945
0.03886418 0.02119866 0.66783977
0.0390081 0.01950404 0.66862947
0.039130125 0.017786413 0.66929901
0.039311089 0.01608181 0.67029196
0.039594308 0.014397919 0.67184591
0.043954816 0.076443136 0.68528557
0.036356494 0.055325091 0.64540738
0.036437418 0.053864002 0.64583206
0.036527976 0.052409708 0.64630735
0.036623765 0.050954819 0.64681005
0.036729429 0.049504876 0.64736462
0.036840424 0.048052758 0.64794719
0.036961824 0.046604067 0.64858431
0.037089404 0.045152307 0.6492539
0.037227377 0.043701738 0.64997804
0.037372816 0.042247534 0.65074134
0.037528448 0.04079178 0.65155816
