# .PCD v0.7 - Point Cloud Data file format
VERSION 0.7
FIELDS x y z
SIZE 4 4 4
TYPE F F F
COUNT 1 1 1
WIDTH 1348
HEIGHT 1
VIEWPOINT 0 0 0 1 0 0 0
POINTS 1348
DATA ascii
-0.0075892126 0.083481342 0.68362272
-0.0075892126 0.081584036 0.68362272
-0.0075892126 0.079686701 0.68362272
-0.0075892126 0.077789426 0.68362266
-0.0075892126 0.075892121 0.68362266
-0.0075892126 0.073994845 0.68362266
-0.0075892126 0.07209751 0.68362272
-0.0075891837 0.070199937 0.68362182
-0.0075891837 0.068302691 0.68362176
-0.0075891837 0.066405356 0.68362182
-0.0075891837 0.064508051 0.68362182
-0.0075891837 0.062610805 0.68362182
-0.0075891837 0.0607135 0.68362182
-0.0075891837 0.058816195 0.68362182
-0.0075891837 0.056918919 0.68362176
-0.0075891837 0.055021584 0.68362176
-0.0075891837 0.053124279 0.68362176
-0.0075891837 0.051227003 0.68362182
-0.0075892126 0.049329907 0.68362266
-0.0075892126 0.047432572 0.68362266
-0.0075892126 0.045535296 0.68362266
-0.0075892126 0.043637931 0.68362272
-0.0075788093 0.041683435 0.68330872
-0.0075788093 0.039788753 0.68330878
-0.0075788093 0.03789407 0.68330872
-0.0075788093 0.035999358 0.68330872
-0.0075788093 0.034104675 0.68330872
-0.0075788093 0.032209933 0.68330872
-0.0075788093 0.03031525 0.68330872
-0.0075788093 0.028420538 0.68330878
-0.0075788093 0.026525855 0.68330872
-0.0075788093 0.024631143 0.68330872
-0.0075788093 0.02273646 0.68330872
-0.0075788093 0.020841748 0.68330872
-0.0075788093 0.018947035 0.68330872
-0.0075788093 0.017052293 0.68330872
-0.0075788093 0.01515758 0.68330872
-0.0075788093 0.013262898 0.68330872
-0.0075788093 0.011368215 0.68330878
-0.0075788093 0.0094735026 0.68330872
-0.0075788093 0.0075787902 0.68330872
-0.0075788093 0.0056841075 0.68330872
-0.0075788093 0.0037893653 0.68330872
-0.0075788093 0.0018946826 0.68330878
-0.0075788093 -0 0.68330872
-0.0075788093 -0.0018947124 0.68330872
-0.0075788093 -0.0037893951 0.68330872
-0.0075788093 -0.0056841075 0.68330872
-0.0075788093 -0.00757882 0.68330872
-0.0075788093 -0.0094735026 0.68330878
-0.0075788093 -0.011368185 0.68330872
-0.0075788093 -0.013262898 0.68330872
-0.0075788093 -0.01515761 0.68330872
-0.0075788093 -0.017052323 0.68330872
-0.0075788093 -0.018947035 0.68330872
-0.0075788093 -0.020841688 0.68330872
-0.0075788093 -0.0227364 0.68330872
-0.0075788093 -0.024631113 0.68330872
-0.0075788093 -0.026525825 0.68330872
-0.0075788093 -0.028420508 0.68330872
-0.0075788093 -0.03031522 0.68330872
-0.0075788093 -0.032209933 0.68330872
-0.0075788093 -0.034104645 0.68330872
-0.0075788093 -0.035999358 0.68330872
-0.0075788093 -0.03789404 0.68330872
-0.0075788093 -0.039788723 0.68330872
-0.0075788093 -0.041683435 0.68330872
-0.0075788093 -0.043578148 0.68330872
-0.0075788093 -0.04547286 0.68330872
-0.0075788093 -0.047367513 0.68330872
-0.0075788093 -0.049262226 0.68330872
-0.0075788093 -0.051156938 0.68330872
-0.0075788093 -0.05305168 0.68330872
-0.0075788093 -0.054946393 0.68330872
-0.0075788093 -0.056841105 0.68330872
-0.0075788093 -0.058735788 0.68330878
-0.0075788093 -0.0606305 0.68330878
-0.0075788093 -0.062525213 0.68330878
-0.0075788093 -0.064419866 0.68330872
-0.0075788093 -0.066314578 0.68330872
-0.0075788093 -0.068209291 0.68330872
-0.0075788093 -0.070103973 0.68330872
-0.0075788093 -0.071998686 0.68330872
-0.0075788093 -0.073893398 0.68330866
-0.0075788093 -0.075788081 0.68330872
-0.0075788093 -0.077682793 0.68330872
-0.0075788093 -0.079577506 0.68330872
-0.0075788093 -0.081472188 0.68330872
-0.0075788093 -0.083366901 0.68330872
-0.0075788093 -0.085261613 0.68330872
-0.0056798486 0.090877593 0.68313736
-0.0056798486 0.088984311 0.68313742
-0.0056798486 0.087090999 0.68313742
-0.0056798272 0.085197419 0.68313652
-0.0056798272 0.083304137 0.68313652
-0.0056798272 0.081410855 0.68313652
-0.0056798272 0.079517603 0.68313646
-0.0056798272 0.077624291 0.68313652
-0.0056798272 0.075731039 0.68313652
-0.0056798272 0.073837787 0.68313652
-0.0056798272 0.071944505 0.68313646
-0.0056798058 0.070050955 0.68313569
-0.0056798058 0.068157673 0.68313569
-0.0056798058 0.066264421 0.68313563
-0.0056798272 0.064371377 0.68313652
-0.0056798272 0.062478095 0.68313652
-0.0056798272 0.060584843 0.68313652
-0.0056798272 0.058691561 0.68313652
-0.0056798272 0.056798279 0.68313646
-0.0056798272 0.054904997 0.68313652
-0.0056798486 0.053011924 0.68313742
-0.0056798486 0.051118642 0.68313736
-0.0056798486 0.04922536 0.68313736
-0.0056798486 0.047332048 0.68313742
-0.0056798486 0.045438766 0.68313736
-0.0056796549 0.043544024 0.68312955
-0.0056722295 0.041596383 0.68283081
-0.0056722295 0.039705634 0.68283081
-0.0056722295 0.037814885 0.68283081
-0.0056722295 0.035924137 0.68283081
-0.0056722295 0.034033358 0.68283081
-0.0056722295 0.032142639 0.68283081
-0.0056722295 0.03025189 0.68283081
-0.0056722295 0.028361171 0.68283081
-0.0056722295 0.026470393 0.68283081
-0.0056722295 0.024579674 0.68283075
-0.0056722295 0.022688925 0.68283081
-0.0056722295 0.020798177 0.68283081
-0.0056722295 0.018907458 0.68283081
-0.0056722295 0.017016709 0.68283081
-0.0056722295 0.01512596 0.68283081
-0.0056722295 0.013235211 0.68283081
-0.0056722295 0.011344463 0.68283081
-0.0056722295 0.0094536841 0.68283081
-0.0056722295 0.0075629652 0.68283081
-0.0056722295 0.0056722462 0.68283081
-0.0056722295 0.0037814975 0.68283081
-0.0056722295 0.0018907189 0.68283081
-0.0056722295 -2.9802322e-08 0.68283081
-0.0056722295 -0.0018907785 0.68283081
-0.0056722076 -0.0037814677 0.68282992
-0.0056722076 -0.0056722164 0.68282998
-0.0056722076 -0.0075629354 0.68282998
-0.0056722076 -0.0094536841 0.68282998
-0.0056722076 -0.011344373 0.68282992
-0.0056722076 -0.013235152 0.68282986
-0.0056722076 -0.015125871 0.68282998
-0.0056722076 -0.017016619 0.68282998
-0.0056722076 -0.018907338 0.68282992
-0.0056722076 -0.020798087 0.68282992
-0.0056722076 -0.022688836 0.68282998
-0.0056722076 -0.024579555 0.68282992
-0.0056722076 -0.026470274 0.68282992
-0.0056722076 -0.028361052 0.68282992
-0.0056722076 -0.030251771 0.68282992
-0.0056722076 -0.03214252 0.68282998
-0.0056722076 -0.034033239 0.68282998
-0.0056722076 -0.035923988 0.68282998
-0.0056722076 -0.037814707 0.68282998
-0.0056722076 -0.039705485 0.68282998
-0.0056722076 -0.041596174 0.68282992
-0.0056722076 -0.043486923 0.68282998
-0.0056722076 -0.045377672 0.68282998
-0.0056722076 -0.04726842 0.68282992
-0.0056722076 -0.049159139 0.68282992
-0.0056722076 -0.051049858 0.68282992
-0.0056722076 -0.052940637 0.68282998
-0.0056722076 -0.054831356 0.68282998
-0.0056722076 -0.056722075 0.68282998
-0.0056722076 -0.058612823 0.68282992
-0.0056722076 -0.060503542 0.68282992
-0.0056722076 -0.062394321 0.68282998
-0.0056722076 -0.06428504 0.68282998
-0.0056722076 -0.066175789 0.68282992
-0.0056722076 -0.068066478 0.68282992
-0.0056722076 -0.069957286 0.68282998
-0.0056722076 -0.071847975 0.68282992
-0.0056722076 -0.073738694 0.68282998
-0.0056722076 -0.075629443 0.68282998
-0.0056722076 -0.077520177 0.68282992
-0.0056722076 -0.079410926 0.68282998
-0.0056722076 -0.081301615 0.68282992
-0.0056722076 -0.083192363 0.68282992
-0.0056722076 -0.085083082 0.68282998
-0.003799981 0.093099535 0.68394709
-0.0037810716 0.090745717 0.68280584
-0.0037810716 0.088855177 0.68280578
-0.0037810716 0.086964667 0.68280578
-0.0037810577 0.085073769 0.68280494
-0.0037810577 0.083183259 0.68280494
-0.0037810577 0.081292719 0.68280494
-0.0037810577 0.079402238 0.68280494
-0.0037810432 0.07751137 0.68280411
-0.0037810432 0.07562086 0.68280411
-0.0037810577 0.073730618 0.68280494
-0.0037810577 0.071840078 0.68280494
-0.0037810577 0.069949567 0.68280494
-0.0037810577 0.068059027 0.68280494
-0.0037810577 0.066168517 0.68280494
-0.0037810716 0.064278215 0.68280578
-0.0037810716 0.062387675 0.68280578
-0.0037810716 0.060497165 0.68280578
-0.0037810716 0.058606654 0.68280578
-0.0037810861 0.056716293 0.68280667
-0.0037810861 0.054825783 0.68280667
-0.0037810861 0.052935243 0.68280661
-0.0037810861 0.051044673 0.68280667
-0.0037811005 0.049154282 0.68280756
-0.0037811005 0.047263741 0.68280756
-0.0037811005 0.045373231 0.68280751
-0.0037808148 0.043479383 0.68279028
-0.0037760925 0.041537046 0.68250525
-0.0037760925 0.03964895 0.68250531
-0.0037760925 0.037760913 0.68250525
-0.0037760925 0.035872847 0.68250525
-0.0037760925 0.03398481 0.68250525
-0.0037760925 0.032096803 0.68250525
-0.0037760925 0.030208707 0.68250525
-0.0037760925 0.0283207 0.68250525
-0.0037760781 0.026432544 0.68250436
-0.0037760781 0.024544537 0.68250442
-0.0037760781 0.022656471 0.68250442
-0.0037760781 0.020768434 0.68250442
-0.0037760781 0.018880397 0.68250442
-0.0037760781 0.016992331 0.68250442
-0.0037760781 0.015104294 0.68250442
-0.0037760781 0.013216287 0.68250442
-0.0037760781 0.01132825 0.68250442
-0.0037760781 0.0094402134 0.68250442
-0.0037760781 0.0075521469 0.68250442
-0.0037760781 0.00566414 0.68250442
-0.0037760781 0.0037760735 0.68250442
-0.0037760781 0.0018880665 0.68250442
-0.0037760781 -0 0.68250442
-0.0037760781 -0.0018880069 0.68250442
-0.0037760781 -0.0037760735 0.68250436
-0.0037760781 -0.0056640804 0.68250436
-0.0037760781 -0.0075521767 0.68250442
-0.0037760781 -0.0094401836 0.68250442
-0.0037760781 -0.01132825 0.68250442
-0.0037760781 -0.013216257 0.68250442
-0.0037760781 -0.015104324 0.68250442
-0.0037760781 -0.016992331 0.68250442
-0.0037760781 -0.018880367 0.68250442
-0.0037760781 -0.020768404 0.68250442
-0.0037760781 -0.022656471 0.68250436
-0.0037760781 -0.024544477 0.68250436
-0.0037760781 -0.026432544 0.68250436
-0.0037760781 -0.028320581 0.68250442
-0.0037760781 -0.030208617 0.68250436
-0.0037760781 -0.032096654 0.68250442
-0.0037760781 -0.033984721 0.68250442
-0.0037760781 -0.035872728 0.68250442
-0.0037760781 -0.037760794 0.68250436
-0.0037760639 -0.039648652 0.68250352
-0.0037760639 -0.041536659 0.68250352
-0.0037760639 -0.043424726 0.68250352
-0.0037760639 -0.045312762 0.68250358
-0.0037760639 -0.047200799 0.68250358
-0.0037760639 -0.049088806 0.68250358
-0.0037760639 -0.050976843 0.68250352
-0.0037760639 -0.052864879 0.68250352
-0.0037760639 -0.054752916 0.68250352
-0.0037760639 -0.056640953 0.68250358
-0.0037760639 -0.05852899 0.68250358
-0.0037760639 -0.060417026 0.68250358
-0.0037760639 -0.062305063 0.68250358
-0.0037760639 -0.0641931 0.68250358
-0.0037760639 -0.066081077 0.68250352
-0.0037760639 -0.067969143 0.68250358
-0.0037760639 -0.06985718 0.68250352
-0.0037760639 -0.071745217 0.68250352
-0.0037760639 -0.073633224 0.68250358
-0.0037760639 -0.07552129 0.68250358
-0.0037760639 -0.077409297 0.68250358
-0.0037760639 -0.079297334 0.68250358
-0.0037760639 -0.081185371 0.68250358
-0.0037760639 -0.083073407 0.68250358
-0.0037760639 -0.084961429 0.68250358
-0.0037760639 -0.086849451 0.68250352
-0.0018978716 0.092995703 0.68369132
-0.0018889942 0.090671688 0.68261969
-0.0018889871 0.08878237 0.68261886
-0.0018889871 0.086893409 0.6826188
-0.0018889871 0.085004389 0.68261886
-0.0018889871 0.083115458 0.68261886
-0.0018889871 0.081226468 0.6826188
-0.0018889871 0.079337448 0.68261886
-0.0018889942 0.077448756 0.68261969
-0.0018889942 0.075559795 0.68261975
-0.0018889942 0.073670775 0.68261969
-0.0018889942 0.071781784 0.68261969
-0.0018890015 0.069893062 0.68262058
-0.0018890015 0.068004072 0.68262058
-0.0018890015 0.066115052 0.68262053
-0.0018890084 0.06422627 0.68262142
-0.0018890084 0.062337279 0.68262142
-0.0018890084 0.060448289 0.68262142
-0.0018890157 0.058559507 0.68262231
-0.0018890157 0.056670487 0.68262231
-0.0018890157 0.054781467 0.68262225
-0.0018890228 0.052892625 0.68262315
-0.0018890228 0.051003635 0.68262309
-0.0018890228 0.049114585 0.68262315
-0.00188903 0.047225744 0.68262398
-0.00188903 0.045336723 0.68262398
-0.0018888231 0.043442935 0.68259907
-0.0018865372 0.041503817 0.6823231
-0.0018865372 0.03961727 0.68232316
-0.0018865372 0.037730753 0.6823231
-0.0018865372 0.035844177 0.6823231
-0.0018865372 0.03395769 0.6823231
-0.0018865372 0.032071143 0.6823231
-0.0018865372 0.030184597 0.68232304
-0.0018865372 0.02829805 0.6823231
-0.0018865372 0.026411533 0.6823231
-0.0018865372 0.024524987 0.6823231
-0.0018865372 0.02263847 0.6823231
-0.0018865372 0.020751923 0.6823231
-0.0018865372 0.018865347 0.6823231
-0.0018865372 0.01697883 0.68232304
-0.0018865372 0.015092313 0.6823231
-0.0018865372 0.013205737 0.6823231
-0.0018865372 0.01131922 0.6823231
-0.0018865372 0.0094326735 0.6823231
-0.0018865372 0.0075461566 0.6823231
-0.0018865372 0.0056596398 0.6823231
-0.0018865372 0.0037730932 0.6823231
-0.0018865372 0.0018865466 0.6823231
-0.0018865372 -0 0.6823231
-0.0018865372 -0.0018865466 0.6823231
-0.0018865372 -0.0037730932 0.6823231
-0.0018865372 -0.00565961 0.6823231
-0.0018865372 -0.0075461566 0.6823231
-0.0018865372 -0.0094326735 0.6823231
-0.0018865372 -0.01131922 0.6823231
-0.0018865372 -0.013205767 0.6823231
-0.0018865372 -0.015092254 0.68232304
-0.0018865372 -0.01697883 0.6823231
-0.0018865372 -0.018865347 0.6823231
-0.0018865372 -0.020751894 0.6823231
-0.0018865372 -0.02263847 0.6823231
-0.0018865372 -0.024524987 0.6823231
-0.0018865372 -0.026411533 0.6823231
-0.0018865372 -0.02829805 0.6823231
-0.0018865372 -0.030184597 0.6823231
-0.0018865372 -0.032071114 0.6823231
-0.0018865372 -0.03395769 0.6823231
-0.0018865372 -0.035844177 0.6823231
-0.0018865372 -0.037730724 0.6823231
-0.0018865372 -0.03961727 0.6823231
-0.0018865372 -0.041503817 0.6823231
-0.0018865372 -0.043390363 0.6823231
-0.0018865372 -0.04527691 0.6823231
-0.0018865372 -0.047163457 0.6823231
-0.0018865372 -0.049049944 0.6823231
-0.0018865372 -0.05093649 0.68232304
-0.0018865372 -0.052823037 0.6823231
-0.0018865372 -0.054709554 0.6823231
-0.0018865372 -0.05659613 0.6823231
-0.0018865372 -0.058482617 0.6823231
-0.0018865372 -0.060369164 0.6823231
-0.0018865372 -0.06225571 0.6823231
-0.0018865372 -0.064142257 0.6823231
-0.0018865372 -0.066028804 0.6823231
-0.0018865372 -0.06791535 0.6823231
-0.0018865372 -0.069801897 0.6823231
-0.0018865372 -0.071688384 0.6823231
-0.0018865372 -0.07357493 0.6823231
-0.0018865372 -0.075461477 0.6823231
-0.0018865372 -0.077348024 0.6823231
-0.0018865372 -0.07923454 0.6823231
-0.0018865372 -0.081121087 0.68232304
-0.0018865372 -0.083007634 0.6823231
-0.0018865372 -0.08489415 0.6823231
-0.0018865372 -0.086780712 0.6823231
0 0.0929721 0.68363309
0 0.090654582 0.68257666
0 0.088765979 0.68257666
0 0.086877018 0.68257582
0 0.084988385 0.68257582
0 0.08310008 0.68257666
0 0.081211448 0.68257666
0 0.079322785 0.68257666
0 0.07743445 0.68257755
0 0.075545788 0.68257755
0 0.073657155 0.68257749
0 0.071768761 0.68257838
0 0.069880158 0.68257838
0 0.067991465 0.68257838
0 0.066102862 0.68257838
0 0.064214438 0.68257928
0 0.062325716 0.68257928
0 0.060437083 0.68257928
0 0.058548629 0.68258011
0 0.056659997 0.68258011
0 0.054771334 0.68258011
0 0.05288288 0.68258095
0 0.050994217 0.68258095
0 0.049105525 0.68258095
0 0.047216982 0.68258184
0 0.045328349 0.68258184
0 0.043434113 0.68255258
0 0.041496277 0.68228191
0 0.039610118 0.68228185
0 0.037723929 0.68228191
0 0.03583774 0.68228191
0 0.033951521 0.68228185
0 0.032065332 0.68228191
0 0.030179113 0.68228191
0 0.028292954 0.68228185
0 0.026406765 0.68228191
0 0.024520576 0.68228185
0 0.022634357 0.68228191
0 0.020748138 0.68228191
0 0.018861949 0.68228191
0 0.01697579 0.68228185
0 0.015089571 0.68228191
0 0.013203382 0.68228185
0 0.011317164 0.68228191
0 0.0094309449 0.68228191
0 0.0075447857 0.68228185
0 0.0056585968 0.68228185
0 0.0037724078 0.68228185
0 0.0018862188 0.68228191
0 -2.9802322e-08 0.68228191
0 -0.001886189 0.68228185
0 -0.0037724078 0.68228191
0 -0.0056585968 0.68228185
0 -0.0075447857 0.68228185
0 -0.0094309449 0.68228191
0 -0.011317164 0.68228185
0 -0.013203382 0.68228191
0 -0.015089542 0.68228191
0 -0.01697576 0.68228185
0 -0.018861949 0.68228185
0 -0.020748109 0.68228185
0 -0.022634387 0.68228191
0 -0.024520546 0.68228185
0 -0.026406735 0.68228185
0 -0.028292924 0.68228191
0 -0.030179113 0.68228191
0 -0.032065332 0.68228185
0 -0.033951521 0.68228185
0 -0.03583771 0.68228185
0 -0.037723899 0.68228185
0 -0.039610088 0.68228191
0 -0.041496277 0.68228191
0 -0.043382466 0.68228185
0 -0.045268685 0.68228191
0 -0.047154874 0.68228191
0 -0.049041092 0.68228185
0 -0.050927281 0.68228185
0 -0.0528135 0.68228191
0 -0.054699689 0.68228191
0 -0.056585878 0.68228185
0 -0.058472067 0.68228191
0 -0.060358256 0.68228191
0 -0.062244445 0.68228191
0 -0.064130664 0.68228185
0 -0.066016823 0.68228185
0 -0.067903042 0.68228185
0 -0.069789261 0.68228185
0 -0.07167545 0.68228191
0 -0.073561639 0.68228191
0 -0.075447798 0.68228185
0 -0.077333987 0.68228191
0 -0.07922022 0.68228185
0 -0.081106424 0.68228185
0 -0.082992628 0.68228191
0 -0.084878787 0.68228185
0 -0.086765021 0.68228191
0.0018986784 0.093035251 0.68378866
0.0018895649 0.090699136 0.68268859
0.0018895649 0.08880955 0.68268859
0.0018895578 0.086919665 0.68268776
0.0018895578 0.085030138 0.68268776
0.0018895506 0.083140254 0.68268687
0.0018895506 0.081250697 0.68268692
0.0018895506 0.079361141 0.68268687
0.0018895506 0.077471584 0.68268687
0.0018895578 0.075582296 0.68268776
0.0018895578 0.073692739 0.6826877
0.0018895649 0.07180348 0.68268865
0.0018895649 0.069913924 0.68268859
0.0018895649 0.068024367 0.68268859
0.001889572 0.066135049 0.68268943
0.001889572 0.064245462 0.68268949
0.0018895792 0.062356114 0.68269032
0.0018895792 0.060466528 0.68269026
0.0018895863 0.05857721 0.68269116
0.0018895863 0.056687593 0.68269116
0.0018895936 0.054798245 0.68269205
0.0018895936 0.052908599 0.68269205
0.0018895936 0.051019013 0.68269205
0.0018896005 0.049129635 0.68269289
0.0018896005 0.047240019 0.68269289
0.0018896078 0.045350581 0.68269378
0.0018892796 0.043453455 0.68265414
0.001882619 0.041417599 0.68185014
0.001882619 0.039535016 0.68185008
0.001882619 0.037652373 0.68185008
0.001882626 0.03576991 0.68185103
0.001882626 0.033887267 0.68185097
0.001882626 0.032004625 0.68185103
0.001882626 0.030122072 0.68185097
0.0018826331 0.028239548 0.68185186
0.0018826331 0.026356876 0.68185186
0.0018826331 0.024474233 0.68185186
0.0018826331 0.022591621 0.6818518
0.0018826401 0.020709068 0.6818527
0.0018826401 0.018826395 0.6818527
0.0018826401 0.016943812 0.6818527
0.0018826401 0.01506111 0.6818527
0.0018826473 0.013178527 0.68185353
0.0018826473 0.011295885 0.68185353
0.0018826473 0.0094132423 0.68185353
0.0018826473 0.0075305998 0.68185353
0.0018826543 0.0056479573 0.68185437
0.0018826543 0.003765285 0.68185443
0.0018826543 0.0018826425 0.68185437
0.0018826543 -0 0.68185443
0.0018826614 -0.0018826723 0.68185526
0.0018826614 -0.003765285 0.68185526
0.0018826614 -0.0056479871 0.68185526
0.0018826543 -0.0075305998 0.68185443
0.0018826543 -0.0094132721 0.68185443
0.0018826473 -0.011295885 0.68185353
0.0018826473 -0.013178527 0.68185353
0.0018826401 -0.01506111 0.6818527
0.0018826401 -0.016943753 0.6818527
0.0018826331 -0.018826306 0.68185186
0.0018826331 -0.020708978 0.68185186
0.001882626 -0.022591501 0.68185103
0.001882626 -0.024474114 0.68185097
0.001882619 -0.026356667 0.68185019
0.001882619 -0.02823928 0.68185019
0.0018826118 -0.030121803 0.6818493
0.0018826118 -0.032004416 0.68184924
0.0018826047 -0.03388688 0.68184841
0.0018826047 -0.035769463 0.68184841
0.0018825977 -0.037651926 0.68184757
0.0018825977 -0.039534569 0.68184757
0.0018825906 -0.041416973 0.68184668
0.0018825906 -0.043299556 0.68184668
0.0018825834 -0.045182019 0.68184584
0.0018825834 -0.047064602 0.68184584
0.0018825764 -0.048946977 0.68184501
0.0018825764 -0.050829589 0.68184495
0.0018825693 -0.052711964 0.68184412
0.0018825693 -0.054594487 0.68184412
0.0018825623 -0.056476831 0.68184328
0.0018825623 -0.058359444 0.68184328
0.0018825551 -0.060241759 0.68184245
0.0018825551 -0.062124342 0.68184245
0.001882548 -0.064006627 0.68184155
0.001882548 -0.06588915 0.68184161
0.001882541 -0.067771465 0.68184072
0.001882541 -0.069653988 0.68184072
0.001882534 -0.071536273 0.68183982
0.001882534 -0.073418856 0.68183982
0.0018825268 -0.075301081 0.68183905
0.0018825268 -0.077183589 0.68183905
0.0018825197 -0.079065844 0.68183815
0.0018825197 -0.080948338 0.68183815
0.0018825127 -0.082830578 0.68183732
0.0018825127 -0.084713072 0.68183732
0.0018825056 -0.086595237 0.68183643
0.0037833734 0.090800941 0.68294466
0.0037833734 0.088909298 0.68294466
0.003783359 0.087017268 0.68294382
0.003783359 0.085125595 0.68294382
0.003783359 0.083233923 0.68294382
0.0037833448 0.081341922 0.68294299
0.0037833448 0.07945025 0.68294299
0.0037833303 0.077558279 0.68294215
0.0037833303 0.075666606 0.68294215
0.0037833159 0.073774636 0.68294126
0.0037833159 0.071882993 0.68294126
0.0037833019 0.069991082 0.68294036
0.0037833159 0.068099678 0.68294126
0.0037833159 0.066208035 0.68294126
0.0037833159 0.064316392 0.68294126
0.0037833303 0.062424958 0.68294209
0.0037833303 0.060533285 0.68294215
0.0037833448 0.058641821 0.68294299
0.0037833448 0.056750149 0.68294299
0.003783359 0.054858714 0.68294382
0.003783359 0.052967042 0.68294388
0.003783359 0.051075339 0.68294382
0.0037833734 0.049183905 0.68294466
0.0037833734 0.047292173 0.68294472
0.0037833878 0.045400649 0.68294555
0.0037386655 0.042994648 0.68024635
0.0037386655 0.041125327 0.68024635
0.0037386655 0.039255977 0.68024635
0.0037386655 0.037386656 0.68024635
0.0037386655 0.035517335 0.68024635
0.0037386655 0.033648014 0.68024635
0.0037386655 0.031778634 0.68024635
0.0037386655 0.029909343 0.68024635
0.0037386655 0.028039992 0.68024635
0.0037386655 0.026170671 0.68024635
0.0037386655 0.02430132 0.68024635
0.0037386655 0.022432029 0.68024635
0.0037386655 0.020562679 0.68024629
0.0037386655 0.018693358 0.68024629
0.0037386655 0.016824007 0.68024635
0.0037386655 0.014954627 0.68024635
0.0037386655 0.013085335 0.68024635
0.0037386655 0.011215985 0.68024635
0.0037386655 0.009346664 0.68024635
0.0037386655 0.0074773133 0.68024635
0.0037386655 0.0056079924 0.68024635
0.0037386655 0.0037386715 0.68024635
0.0037386655 0.0018693507 0.68024635
0.0037386655 -0 0.68024635
0.0037386655 -0.0018693507 0.68024635
0.0037386515 -0.0037386417 0.68024546
0.0037386515 -0.0056079328 0.68024552
0.0037386515 -0.0074772835 0.68024552
0.0037386515 -0.0093466341 0.68024552
0.0037386515 -0.011215925 0.68024552
0.0037386515 -0.013085276 0.68024546
0.0037386515 -0.014954627 0.68024552
0.0037386515 -0.016823947 0.68024552
0.0037386515 -0.018693268 0.68024552
0.0037386515 -0.020562589 0.68024552
0.0037386515 -0.02243191 0.68024552
0.0037386515 -0.024301261 0.68024552
0.0037386515 -0.026170552 0.68024552
0.0037386515 -0.028039902 0.68024552
0.0037386515 -0.029909223 0.68024552
0.0037386515 -0.031778544 0.68024552
0.0037386515 -0.033647835 0.68024552
0.0037386515 -0.035517216 0.68024552
0.0037386515 -0.037386507 0.68024552
0.0037386515 -0.039255857 0.68024552
0.0037386515 -0.041125149 0.68024552
0.0037386515 -0.042994499 0.68024552
0.0037386515 -0.04486382 0.68024552
0.0037386515 -0.046733141 0.68024552
0.0037386515 -0.048602462 0.68024546
0.0037386515 -0.050471812 0.68024552
0.0037386515 -0.052341104 0.68024552
0.0037386515 -0.054210424 0.68024552
0.0037386515 -0.056079775 0.68024546
0.0037386515 -0.057949096 0.68024552
0.0037386515 -0.059818417 0.68024552
0.0037386515 -0.061687738 0.68024552
0.0037386515 -0.063557059 0.68024552
0.0037386515 -0.065426409 0.68024552
0.0037386515 -0.0672957 0.68024552
0.0037386515 -0.069165051 0.68024546
0.0037386515 -0.071034372 0.68024552
0.0037386373 -0.072903425 0.68024468
0.0037386373 -0.074772775 0.68024468
0.0037386373 -0.076642081 0.68024468
0.0037386373 -0.078511417 0.68024468
0.0037386373 -0.080380708 0.68024468
0.0037386373 -0.082250044 0.68024468
0.0037386373 -0.08411932 0.68024468
0.0037386373 -0.085988641 0.68024462
0.0056851408 0.090962291 0.68335032
0.0056851408 0.089067191 0.68335032
0.0056851185 0.087171853 0.68334943
0.0056851185 0.085276812 0.68334943
0.0056850971 0.083381444 0.68334866
0.0056850971 0.081486404 0.68334854
0.0056850757 0.079591095 0.6833477
0.0056850757 0.077696055 0.6833477
0.0056850757 0.075801015 0.6833477
0.0056850542 0.073905706 0.68334687
0.0056850542 0.072010696 0.68334687
0.0056850328 0.070115417 0.68334603
0.0056850328 0.068220377 0.68334603
0.0056850114 0.066325128 0.68334514
0.0056850114 0.064430147 0.68334508
0.00568499 0.062534928 0.68334424
0.00568499 0.060639888 0.68334424
0.00568499 0.058744907 0.68334424
0.0056849685 0.056849688 0.68334341
0.00568499 0.054954916 0.68334424
0.00568499 0.053059906 0.68334424
0.0056850114 0.051165104 0.68334514
0.0056850114 0.049270093 0.68334508
0.0056850328 0.047375262 0.68334603
0.0056850328 0.045480281 0.68334597
0.0055901418 0.042857766 0.67952788
0.0055901418 0.040994406 0.67952782
0.0055901418 0.039130986 0.67952782
0.0055901418 0.037267625 0.67952788
0.0055901418 0.035404265 0.67952788
0.0055901418 0.033540845 0.67952788
0.0055901418 0.031677514 0.67952782
0.0055901418 0.029814094 0.67952788
0.0055901418 0.027950704 0.67952788
0.0055901418 0.026087344 0.67952788
0.0055901418 0.024223953 0.67952788
0.0055901418 0.022360593 0.67952782
0.0055901418 0.020497203 0.67952788
0.0055901418 0.018633783 0.67952788
0.0055901418 0.016770422 0.67952788
0.0055901418 0.014907062 0.67952788
0.0055901418 0.013043702 0.67952788
0.0055901418 0.011180282 0.67952788
0.0055901418 0.0093169212 0.67952782
0.0055901418 0.007453531 0.67952788
0.0055901418 0.0055901706 0.67952782
0.0055901418 0.0037267804 0.67952788
0.0055901418 0.0018633902 0.67952788
0.0055901418 -0 0.67952788
0.0055901418 -0.0018633604 0.67952788
0.0055901418 -0.0037267208 0.67952782
0.0055901418 -0.0055901408 0.67952788
0.0055901418 -0.0074535012 0.67952788
0.0055901418 -0.0093168914 0.67952782
0.0055901418 -0.011180282 0.67952788
0.0055901418 -0.013043642 0.67952788
0.0055901418 -0.014907032 0.67952788
0.0055901418 -0.016770422 0.67952788
0.0055901418 -0.018633783 0.67952788
0.0055901418 -0.020497203 0.67952788
0.0055901418 -0.022360563 0.67952788
0.0055901418 -0.024223924 0.67952788
0.0055901418 -0.026087314 0.67952788
0.0055901418 -0.027950704 0.67952788
0.0055901418 -0.029814094 0.67952788
0.0055901418 -0.031677455 0.67952782
0.0055901418 -0.033540875 0.67952788
0.0055901418 -0.035404235 0.67952788
0.0055901418 -0.037267596 0.67952782
0.0055901418 -0.039131016 0.67952788
0.0055901418 -0.040994346 0.67952782
0.0055901418 -0.042857766 0.67952782
0.0055901418 -0.044721156 0.67952788
0.0055901418 -0.046584487 0.67952788
0.0055901418 -0.048447907 0.67952788
0.0055901418 -0.050311267 0.67952788
0.0055901418 -0.052174658 0.67952788
0.0055901418 -0.054038018 0.67952788
0.0055901418 -0.055901408 0.67952788
0.0055901418 -0.057764769 0.67952782
0.0055901418 -0.059628159 0.67952788
0.0055901418 -0.061491579 0.67952788
0.0055901418 -0.063354909 0.67952788
0.0055901418 -0.0652183 0.67952788
0.0055901418 -0.06708169 0.67952782
0.0055901418 -0.06894508 0.67952788
0.0055901627 -0.070808709 0.67952871
0.0055901627 -0.072672129 0.67952871
0.0055901627 -0.074535504 0.67952871
0.0055901627 -0.076398909 0.67952871
0.0055901627 -0.078262255 0.67952865
0.0055901627 -0.08012566 0.67952871
0.0055901627 -0.08198905 0.67952871
0.0055901627 -0.083852425 0.67952865
0.0055901627 -0.08571583 0.67952871
0.0076000192 0.091200233 0.68394876
0.0075988653 0.089286685 0.68391395
0.0075988653 0.087386996 0.68391395
0.0075988364 0.085486919 0.68391311
0.0075988364 0.083587199 0.68391305
0.0075988076 0.081687182 0.68391228
0.0075988076 0.079787463 0.68391228
0.0075987787 0.077887505 0.68391138
0.0075987787 0.075987816 0.68391132
0.0075987503 0.074087828 0.68391043
0.0075987503 0.072188139 0.68391049
0.0075987214 0.070288181 0.6839096
0.0075987214 0.068388522 0.6839096
0.0075986926 0.066488594 0.68390876
0.0075986926 0.064588875 0.68390876
0.0075986926 0.062689185 0.68390876
0.0075986637 0.060789317 0.68390787
0.0075986637 0.058889687 0.68390787
0.0075986348 0.056989759 0.68390703
0.0075986348 0.055090129 0.68390703
0.0075986059 0.053190231 0.68390614
0.0075986059 0.051290572 0.68390614
0.0075985771 0.049390763 0.68390524
0.0075985771 0.047491103 0.6839053
0.0075985482 0.045591295 0.68390435
0.0074592452 0.042890668 0.67970055
0.0074592452 0.041025847 0.67970055
0.0074592452 0.039161026 0.67970055
0.0074592452 0.037296206 0.67970049
0.0074592452 0.035431415 0.67970049
0.0074592452 0.033566654 0.67970049
0.0074592452 0.031701803 0.67970049
0.0074592452 0.029836982 0.67970055
0.0074592452 0.027972162 0.67970055
0.0074592452 0.026107371 0.67970055
0.0074592452 0.02424255 0.67970049
0.0074592452 0.022377729 0.67970055
0.0074592452 0.020512909 0.67970055
0.0074592452 0.018648118 0.67970055
0.0074592452 0.016783297 0.67970055
0.0074592452 0.014918506 0.67970049
0.0074592452 0.013053715 0.67970049
0.0074592452 0.011188865 0.67970061
0.0074592452 0.0093240738 0.67970055
0.0074592452 0.0074592531 0.67970055
0.0074592452 0.0055944622 0.67970055
0.0074592452 0.0037296414 0.67970055
0.0074592452 0.0018648207 0.67970055
0.0074592452 -2.9802322e-08 0.67970049
0.0074592452 -0.0018647909 0.67970049
0.0074592452 -0.0037296116 0.67970049
0.0074592452 -0.0055944324 0.67970055
0.0074592452 -0.0074592829 0.67970055
0.0074592452 -0.009324044 0.67970055
0.0074592452 -0.011188835 0.67970055
0.0074592452 -0.013053656 0.67970049
0.0074592452 -0.014918476 0.67970061
0.0074592452 -0.016783297 0.67970055
0.0074592452 -0.018648088 0.67970055
0.0074592452 -0.020512909 0.67970049
0.0074592452 -0.022377729 0.67970049
0.0074592452 -0.02424252 0.67970049
0.0074592452 -0.026107341 0.67970061
0.0074592452 -0.027972162 0.67970049
0.0074592452 -0.029836982 0.67970055
0.0074592452 -0.031701833 0.67970055
0.0074592452 -0.033566594 0.67970061
0.0074592452 -0.035431415 0.67970055
0.0074592452 -0.037296236 0.67970055
0.0074592452 -0.039161026 0.67970049
0.0074592452 -0.041025817 0.67970055
0.0074592452 -0.042890668 0.67970055
0.0074592452 -0.044755489 0.67970061
0.0074592452 -0.04662028 0.67970055
0.0074592452 -0.04848507 0.67970055
0.0074592452 -0.050349891 0.67970049
0.0074592452 -0.052214742 0.67970055
0.0074592452 -0.054079533 0.67970055
0.0074592452 -0.055944324 0.67970049
0.0074592452 -0.057809144 0.67970055
0.0074592452 -0.059673935 0.67970049
0.0074592452 -0.061538756 0.67970049
0.0074592452 -0.063403547 0.67970055
0.0074592452 -0.065268397 0.67970055
0.0074592452 -0.067133188 0.67970049
0.0074592452 -0.068998039 0.67970061
0.0074592452 -0.07086283 0.67970055
0.0074592452 -0.07272765 0.67970061
0.0074592452 -0.074592456 0.67970049
0.0074592452 -0.076457262 0.67970055
0.0074592452 -0.078322038 0.67970049
0.0074592452 -0.080186903 0.67970061
0.0074592452 -0.082051709 0.67970055
0.0074592452 -0.083916485 0.67970055
0.0074592452 -0.085781291 0.67970055
0.0095413281 0.091596752 0.68494594
0.0095292618 0.089575052 0.68465471
0.0095292982 0.087669522 0.68465561
0.0095292982 0.085763693 0.68465555
0.0095293345 0.083858162 0.68465644
0.0095293345 0.081952304 0.68465638
0.0095293717 0.080046743 0.68465728
0.0095293717 0.078140855 0.68465728
0.0095294071 0.076235265 0.68465817
0.0095294435 0.074329674 0.68465906
0.0095294435 0.072423786 0.68465906
0.0095294798 0.070518166 0.6846599
0.0095294798 0.068612278 0.68465996
0.0095295161 0.066706598 0.68466079
0.0095295161 0.064800739 0.68466079
0.0095295524 0.06289503 0.68466169
0.0095295524 0.060989171 0.68466169
0.0095295887 0.059083462 0.68466252
0.0095295887 0.057177573 0.68466252
0.0095296251 0.055271804 0.68466341
0.0095296614 0.053366095 0.68466425
0.0095296614 0.051460177 0.68466431
0.0095296977 0.049554408 0.6846652
0.0095296977 0.047648489 0.6846652
0.009529734 0.04574272 0.68466604
0.0093715927 0.043109328 0.68084818
0.0093715927 0.041235 0.68084812
0.0093715927 0.039360702 0.68084818
0.0093715927 0.037486374 0.68084818
0.0093715927 0.035612077 0.68084818
0.0093715927 0.033737749 0.68084812
0.0093715927 0.031863421 0.68084824
0.0093715927 0.029989094 0.68084824
0.0093715927 0.028114766 0.68084818
0.0093715927 0.026240468 0.68084818
0.0093715927 0.024366111 0.68084818
0.0093715927 0.022491843 0.68084818
0.0093715927 0.020617515 0.68084818
0.0093715927 0.018743187 0.68084818
0.0093715927 0.01686886 0.68084818
0.0093715927 0.014994562 0.68084818
0.0093715927 0.013120264 0.68084818
0.0093715573 0.011245877 0.68084729
0.0093715573 0.0093715787 0.68084729
0.0093715573 0.007497251 0.68084729
0.0093715573 0.0056229234 0.68084729
0.0093715573 0.0037486553 0.68084729
0.0093715573 0.0018743277 0.68084729
0.0093715573 -0 0.68084729
0.0093715573 -0.0018742979 0.68084729
0.0093715573 -0.0037486255 0.68084729
0.0093715573 -0.0056229234 0.68084729
0.0093715573 -0.0074972212 0.68084735
0.0093715573 -0.0093715489 0.68084729
0.0093715573 -0.011245877 0.68084729
0.0093715573 -0.013120145 0.68084729
0.0093715573 -0.014994472 0.68084729
0.0093715573 -0.0168688 0.68084735
0.0093715573 -0.018743098 0.68084735
0.0093715573 -0.020617396 0.68084729
0.0093715573 -0.022491723 0.68084729
0.0093715573 -0.024366021 0.68084729
0.0093715573 -0.026240349 0.68084729
0.0093715573 -0.028114676 0.68084729
0.0093715573 -0.029988945 0.68084729
0.0093715573 -0.031863272 0.68084729
0.0093715573 -0.0337376 0.68084729
0.0093715573 -0.035611898 0.68084729
0.0093715573 -0.037486196 0.68084729
0.0093715573 -0.039360523 0.68084729
0.0093715573 -0.041234821 0.68084729
0.0093715573 -0.043109149 0.68084729
0.0093715573 -0.044983476 0.68084729
0.0093715573 -0.046857774 0.68084735
0.0093715573 -0.048732102 0.68084729
0.0093715573 -0.0506064 0.68084729
0.0093715573 -0.052480727 0.68084735
0.0093715573 -0.054355025 0.68084735
0.0093715573 -0.056229353 0.68084735
0.0093715573 -0.058103651 0.68084735
0.0093715573 -0.059977978 0.68084735
0.0093715573 -0.061852276 0.68084735
0.0093715219 -0.063726366 0.68084651
0.0093715219 -0.065600634 0.68084651
0.0093715219 -0.067474961 0.68084651
0.0093715219 -0.069349289 0.68084651
0.0093715219 -0.071223587 0.68084645
0.0093715219 -0.073097885 0.68084645
0.0093715219 -0.074972183 0.68084645
0.0093715219 -0.07684648 0.68084645
0.0093715219 -0.078720778 0.68084645
0.0093715219 -0.080595076 0.68084645
0.0093715219 -0.082469374 0.68084645
0.0093715219 -0.084343731 0.68084651
0.0093715219 -0.086217999 0.68084645
0.011516221 0.092129767 0.68628645
0.011483315 0.089952618 0.68562442
0.011483315 0.088038743 0.68562436
0.011483273 0.086124539 0.68562353
0.011483228 0.084210366 0.68562257
0.011483228 0.082296431 0.68562263
0.011483184 0.080382317 0.68562174
0.011483184 0.078468412 0.68562174
0.011483139 0.076554269 0.68562084
0.011483097 0.074640125 0.68561995
0.011483097 0.07272625 0.68562001
0.011483052 0.070812166 0.68561912
0.011483052 0.06889829 0.68561912
0.011483008 0.066984236 0.68561822
0.011483052 0.065070629 0.68561912
0.011483052 0.063156784 0.68561912
0.011483097 0.061243206 0.68561995
0.011483139 0.059329569 0.68562084
0.011483139 0.057415724 0.68562084
0.011483184 0.055502027 0.68562174
0.011483184 0.053588241 0.68562174
0.011483228 0.051674545 0.68562257
0.011483273 0.049760848 0.68562353
0.011483273 0.047846943 0.68562353
0.011483315 0.045933276 0.68562436
0.011483315 0.044019371 0.68562436
0.011457021 0.042009056 0.68509537
0.011457021 0.040099621 0.68509543
0.011457021 0.038190067 0.68509543
0.011457066 0.036280721 0.68509626
0.011457066 0.034371227 0.68509626
0.011457066 0.032461673 0.68509632
0.011457066 0.030552149 0.68509626
0.011457066 0.028642684 0.68509626
0.011457066 0.02673316 0.68509626
0.011457109 0.024823755 0.68509716
0.011457109 0.022914231 0.68509716
0.011457109 0.021004736 0.68509716
0.011457109 0.019095212 0.6850971
0.011457109 0.017185688 0.68509716
0.011457109 0.015276164 0.68509722
0.011457153 0.013366669 0.68509805
0.011457153 0.011457145 0.68509805
0.011457153 0.009547621 0.68509805
0.011457153 0.0076381266 0.68509805
0.011457153 0.0057285726 0.68509805
0.011457153 0.0038190782 0.68509799
0.011457197 0.001909554 0.68509889
0.011457197 -0 0.68509889
0.011457197 -0.0019095242 0.68509895
0.011457197 -0.0038190484 0.68509889
0.011457197 -0.0057286024 0.68509889
0.01145724 -0.0076381266 0.68509978
0.01145724 -0.0095476806 0.68509984
0.01145724 -0.011457264 0.68509978
0.01145724 -0.013366759 0.68509978
0.01145724 -0.015276313 0.68509984
0.01145724 -0.017185837 0.68509978
0.011457284 -0.019095451 0.68510067
0.011457284 -0.021005005 0.68510067
0.011457284 -0.022914588 0.68510073
0.011457284 -0.024824113 0.68510067
0.011457284 -0.026733667 0.68510067
0.011457284 -0.028643191 0.68510067
0.011457327 -0.030552864 0.68510157
0.011457327 -0.032462478 0.68510157
0.011457327 -0.034371972 0.68510157
0.011457327 -0.036281526 0.68510151
0.011457327 -0.03819111 0.68510157
0.011457327 -0.040100664 0.68510151
0.011457372 -0.042010367 0.68510246
0.011457372 -0.043919921 0.6851024
0.011457372 -0.045829505 0.68510246
0.011457372 -0.047739029 0.6851024
0.011457372 -0.049648583 0.68510246
0.011457372 -0.051558167 0.68510246
0.011457415 -0.0534679 0.6851033
0.011457415 -0.055377513 0.6851033
0.011457415 -0.057287067 0.6851033
0.011457372 -0.059196413 0.68510246
0.011457327 -0.061105728 0.68510151
0.011457284 -0.063015074 0.68510067
0.011457284 -0.064924628 0.68510067
0.01145724 -0.066833884 0.68509978
0.011457197 -0.068743199 0.68509889
0.011457153 -0.070652455 0.68509805
0.011457153 -0.072561949 0.68509805
0.011457109 -0.074471235 0.68509716
0.011457066 -0.076380432 0.68509626
0.011457066 -0.078289926 0.68509626
0.011457021 -0.080199152 0.68509543
0.011456979 -0.082108349 0.68509448
0.011456934 -0.084017515 0.68509364
0.011456934 -0.08592701 0.68509364
0.013537895 0.092831314 0.68805063
0.013466949 0.090420932 0.68682712
0.013466949 0.088497102 0.68682712
0.013466896 0.086572915 0.68682623
0.013466845 0.084648758 0.68682534
0.013466845 0.082724899 0.68682534
0.013466792 0.080800772 0.68682444
0.013466742 0.078876674 0.68682355
0.013466742 0.076952815 0.68682349
0.01346669 0.075028718 0.68682271
0.013466637 0.07310462 0.68682176
0.013466637 0.071180791 0.68682182
0.013466586 0.069256723 0.68682092
0.013466534 0.067332715 0.68682003
0.013466534 0.065408885 0.68681997
0.013466483 0.063484877 0.68681908
0.013466431 0.061560839 0.68681824
0.013466431 0.05963707 0.68681818
0.013466379 0.057713062 0.68681729
0.013466327 0.055789053 0.68681645
0.013466379 0.053865552 0.68681729
0.013466379 0.051941752 0.68681729
0.013466431 0.050018191 0.68681818
0.013466483 0.048094571 0.68681908
0.013466483 0.046170831 0.68681908
0.013466534 0.04424718 0.68682003
0.013447198 0.042262614 0.6864866
0.013447145 0.040341437 0.68648565
0.013447145 0.038420409 0.68648565
0.013447145 0.036499381 0.68648565
0.013447095 0.034578234 0.68648469
0.013447095 0.032657206 0.68648481
0.013447095 0.030736238 0.68648475
0.013447043 0.028815061 0.68648386
0.013447043 0.026894122 0.68648386
0.013447043 0.024973094 0.68648386
0.013446991 0.023052007 0.68648297
0.013446991 0.021131009 0.68648303
0.013446939 0.019209921 0.68648207
0.013446939 0.017288923 0.68648213
0.013446939 0.015367955 0.68648207
0.013446888 0.013446897 0.68648124
0.013446888 0.011525899 0.68648118
0.013446888 0.0096049309 0.68648118
0.013446836 0.007683903 0.68648034
0.013446836 0.0057629347 0.68648028
0.013446836 0.0038419664 0.68648028
0.013446785 0.0019209981 0.68647939
0.013446785 2.9802322e-08 0.68647945
0.013446732 -0.0019209683 0.6864785
0.013446732 -0.0038419068 0.6864785
0.013446732 -0.0057629049 0.68647856
0.013446681 -0.0076838136 0.6864776
0.013446681 -0.0096047819 0.6864776
0.013446681 -0.01152572 0.68647766
0.013446629 -0.013446629 0.68647671
0.013446629 -0.015367568 0.68647677
0.013446629 -0.017288506 0.68647677
0.013446578 -0.019209385 0.68647587
0.013446578 -0.021130323 0.68647587
0.013446526 -0.023051172 0.68647492
0.013446526 -0.024972081 0.68647498
0.013446526 -0.026893049 0.68647498
0.013446474 -0.028813869 0.68647408
0.013446474 -0.030734777 0.68647408
0.013446474 -0.032655716 0.68647408
0.013446422 -0.034576505 0.68647319
0.013446422 -0.036497384 0.68647313
0.013446372 -0.038418204 0.6864723
0.013446372 -0.040339142 0.68647236
0.013446372 -0.042260051 0.6864723
0.013446372 -0.0441809 0.6864723
0.013446372 -0.046101868 0.6864723
0.013446372 -0.048022717 0.6864723
0.013446372 -0.049943656 0.6864723
0.013446372 -0.051864594 0.6864723
0.013446372 -0.053785473 0.68647236
0.013446372 -0.055706382 0.6864723
0.013446372 -0.05762732 0.6864723
0.013446372 -0.059548229 0.6864723
0.013446372 -0.061469167 0.6864723
0.013446372 -0.063390046 0.68647236
0.013446372 -0.065310955 0.6864723
0.013446372 -0.067231864 0.6864723
0.013446372 -0.069152772 0.6864723
0.013446372 -0.071073651 0.6864723
0.013446372 -0.07299459 0.6864723
0.013446372 -0.074915498 0.6864723
0.013446372 -0.076836407 0.68647236
0.013446372 -0.078757316 0.6864723
0.013446372 -0.080678239 0.6864723
0.013446372 -0.082599148 0.6864723
0.013446372 -0.084520042 0.6864723
0.013446372 -0.086440966 0.6864723
0.01549188 0.091014802 0.68835235
0.01549182 0.089077979 0.68835145
0.015491761 0.087141156 0.6883505
0.015491701 0.085204333 0.6883496
0.015491701 0.083267897 0.68834966
0.01549164 0.081331104 0.68834877
0.015491581 0.07939437 0.68834782
0.015491521 0.077457577 0.68834692
0.01549146 0.075520873 0.68834603
0.01549146 0.073584467 0.68834603
0.015491401 0.071647704 0.68834513
0.015491341 0.069711059 0.68834424
0.015491341 0.067774624 0.68834424
0.015491341 0.065838188 0.68834424
0.015491401 0.06390202 0.68834507
0.01549146 0.061965853 0.68834603
0.01549146 0.060029417 0.68834603
0.015491521 0.05809319 0.68834698
0.015491581 0.056156993 0.68834782
0.015491581 0.054220557 0.68834782
0.01549164 0.0522843 0.68834877
0.015491701 0.050348043 0.68834966
0.015491701 0.048411578 0.6883496
0.015491761 0.046475291 0.6883505
0.01549182 0.044538975 0.68835139
0.01546686 0.042533875 0.68797481
0.015466799 0.040600359 0.68797392
0.015466799 0.038666993 0.68797392
0.015466738 0.036733508 0.68797302
0.01546668 0.034799993 0.68797207
0.01546668 0.032866716 0.68797213
0.015466619 0.030933231 0.68797117
0.015466561 0.028999805 0.68797028
0.015466561 0.027066469 0.68797034
0.0154665 0.025133073 0.68796939
0.015466441 0.023199677 0.68796849
0.015466441 0.021266341 0.68796849
0.015466381 0.019332975 0.68796766
0.015466322 0.017399639 0.6879667
0.015466322 0.015466332 0.6879667
0.015466262 0.013532996 0.68796581
0.015466201 0.01159966 0.68796486
0.015466201 0.0096663833 0.68796486
0.015466142 0.007733047 0.68796396
0.015466142 0.0057998002 0.68796396
0.015466082 0.0038665533 0.68796307
0.015466023 0.0019332767 0.68796217
0.015466023 2.9802322e-08 0.68796217
0.015465963 -0.001933217 0.68796122
0.015465903 -0.0038664639 0.68796039
0.015465903 -0.0057997406 0.68796039
0.015465843 -0.007732898 0.68795943
0.015465784 -0.009666115 0.68795854
0.015465784 -0.011599362 0.6879586
0.015465723 -0.013532519 0.68795764
0.015465664 -0.015465677 0.68795675
0.015465664 -0.017398834 0.68795675
0.015465604 -0.019331992 0.68795586
0.015465544 -0.021265119 0.68795496
0.015465544 -0.023198307 0.68795502
0.015465485 -0.025131404 0.68795407
0.015465485 -0.027064562 0.68795407
0.015465424 -0.02899766 0.68795311
0.015465366 -0.030930728 0.68795228
0.015465366 -0.032863885 0.68795222
0.015465305 -0.034796923 0.68795133
0.015465247 -0.036729932 0.68795043
0.015465247 -0.038663089 0.68795043
0.015465186 -0.040596098 0.68794954
0.015465247 -0.042529434 0.68795049
0.015465247 -0.044462562 0.68795043
0.015465247 -0.046395719 0.68795049
0.015465305 -0.048329085 0.68795139
0.015465305 -0.050262213 0.68795133
0.015465305 -0.05219543 0.68795145
0.015465305 -0.054128557 0.68795133
0.015465366 -0.056061924 0.68795222
0.015465366 -0.057995111 0.68795228
0.015465366 -0.059928268 0.68795222
0.015465424 -0.061861694 0.68795317
0.015465424 -0.063794881 0.68795317
0.015465424 -0.065728068 0.68795311
0.015465424 -0.067661226 0.68795317
0.015465485 -0.069594681 0.68795407
0.015465485 -0.071527869 0.68795407
0.015465485 -0.073461026 0.68795407
0.015465544 -0.075394511 0.68795502
0.015465544 -0.077327698 0.6879549
0.015465544 -0.079260886 0.68795496
0.015465604 -0.081194416 0.68795592
0.015465604 -0.083127603 0.68795586
0.015465604 -0.08506082 0.68795586
0.017637378 0.092106313 0.69115567
0.017572751 0.089816272 0.6902889
0.017572682 0.087863445 0.69028795
0.017572613 0.085910589 0.69028699
0.017572682 0.083958387 0.69028795
0.017572751 0.082006156 0.6902889
0.017572818 0.080053955 0.6902898
0.017572887 0.078101754 0.69029069
0.017572956 0.076149464 0.69029164
0.017572956 0.074196965 0.69029164
0.017573025 0.072244674 0.6902926
0.017573094 0.070292383 0.69029355
0.017573163 0.068340093 0.69029438
0.01757323 0.066387773 0.69029534
0.017573299 0.064435422 0.69029623
0.017573368 0.062483072 0.69029713
0.017573437 0.060530722 0.69029808
0.017573437 0.058578134 0.69029808
0.017573506 0.056625724 0.69029897
0.017573575 0.054673344 0.69029993
0.017573642 0.052720934 0.69030082
0.017573711 0.050768524 0.69030178
0.017573779 0.048816055 0.69030267
0.017573848 0.046863616 0.69030362
0.017573779 0.044910789 0.69030267
0.017541673 0.042879641 0.68987209
0.017541673 0.040930599 0.68987203
0.017541604 0.038981348 0.68987113
0.017541537 0.037032157 0.68987018
0.017541468 0.035082936 0.68986934
0.017541401 0.033133745 0.68986839
0.017541332 0.031184584 0.68986744
0.017541263 0.029235452 0.68986654
0.017541196 0.027286321 0.68986559
0.017541127 0.025337189 0.68986475
0.017541058 0.023388058 0.6898638
0.017540991 0.021438986 0.68986291
0.017540991 0.019490004 0.68986291
0.017540922 0.017540932 0.68986201
0.017540853 0.01559186 0.68986106
0.017540785 0.013642818 0.68986017
0.017540717 0.011693835 0.68985927
0.017540649 0.0097447932 0.68985832
0.01754058 0.0077957809 0.68985742
0.017540513 0.0058468282 0.68985647
0.017540444 0.0038978755 0.68985558
0.017540375 0.0019489527 0.68985462
0.017540375 2.9802322e-08 0.68985468
0.017540306 -0.0019488931 0.68985379
0.017540239 -0.0038978159 0.68985283
0.01754017 -0.0058467388 0.68985194
0.017540103 -0.0077955723 0.68985099
0.017540034 -0.0097444654 0.68985009
0.017539965 -0.011693299 0.68984914
0.017539898 -0.013642132 0.68984824
0.017539829 -0.015590936 0.68984735
0.01753976 -0.017539769 0.6898464
0.017539693 -0.019488543 0.68984544
0.017539693 -0.021437347 0.68984544
0.017539624 -0.023386151 0.68984461
0.017539555 -0.025334924 0.68984365
0.017539486 -0.027283639 0.68984276
0.017539419 -0.029232383 0.68984187
0.01753935 -0.031181067 0.68984091
0.017539281 -0.033129781 0.68984002
0.017539214 -0.035078406 0.68983907
0.017539145 -0.037027091 0.68983817
0.017539077 -0.038975716 0.68983722
0.017539009 -0.04092437 0.68983632
0.017539009 -0.042873114 0.68983626
0.017538941 -0.044821739 0.68983543
0.017538873 -0.046770334 0.68983448
0.017538805 -0.048718899 0.68983358
0.017538736 -0.050667465 0.68983275
0.017538669 -0.052616 0.68983173
0.0175386 -0.054564506 0.68983078
0.017538531 -0.056513041 0.68982995
0.017538462 -0.058461517 0.68982899
0.017538462 -0.060410261 0.68982899
0.017538531 -0.062359214 0.68982995
0.017538531 -0.064307958 0.68982995
0.0175386 -0.06625694 0.68983078
0.0175386 -0.068205655 0.68983084
0.017538669 -0.070154667 0.68983173
0.017538736 -0.072103709 0.68983269
0.017538736 -0.074052453 0.68983263
0.017538805 -0.076001465 0.68983358
0.017538805 -0.077950209 0.68983358
0.017538873 -0.079899311 0.68983448
0.017538941 -0.081848368 0.68983543
0.017538941 -0.083797157 0.68983543
0.017539009 -0.085746273 0.68983632
0.019742377 0.090814918 0.69290948
0.019742223 0.088839978 0.69290763
0.019742144 0.086865455 0.69290668
0.019742064 0.084890902 0.69290572
0.019741988 0.082916349 0.69290483
0.019741831 0.080941498 0.69290292
0.019741831 0.078967363 0.69290292
0.019741831 0.076993167 0.69290292
0.019741831 0.075018972 0.69290292
0.019741831 0.073044777 0.69290292
0.019741831 0.071070611 0.69290292
0.019741831 0.069096416 0.69290292
0.019741831 0.067122221 0.69290292
0.019741831 0.065148026 0.69290292
0.019741831 0.063173831 0.69290292
0.019741831 0.061199725 0.69290292
0.019741831 0.05922547 0.69290292
0.019741831 0.057251304 0.69290292
0.019741831 0.055277169 0.69290292
0.019741831 0.053302974 0.69290292
0.019741831 0.051328748 0.69290292
0.020086499 0.050216287 0.69706339
0.020300588 0.048721373 0.69964767
0.020300588 0.046691358 0.69964767
0.020300588 0.044661313 0.69964767
0.020300588 0.042631239 0.69964767
0.020300588 0.040601194 0.69964767
0.020300588 0.038571119 0.69964772
