# .PCD v0.7 - Point Cloud Data file format
VERSION 0.7
FIELDS x y z
SIZE 4 4 4
TYPE F F F
COUNT 1 1 1
WIDTH 1337
HEIGHT 1
VIEWPOINT 0 0 0 1 0 0 0
POINTS 1337
DATA ascii
-0.037709925 0.044892758 0.67135942
-0.037968006 0.043392003 0.67284292
-0.029348101 0.032143176 0.62329453
-0.029434176 0.030835807 0.62378931
-0.029557046 0.029557049 0.62449563
-0.029789159 0.028370649 0.62582982
-0.030038079 0.027177334 0.62726063
-0.030296346 0.025968283 0.6287452
-0.030569229 0.024746537 0.63031375
-0.030859392 0.023511916 0.63198161
-0.031163987 0.02226001 0.6337325
-0.031490218 0.020993501 0.63560772
-0.031840522 0.019710809 0.63762128
-0.032216471 0.018409401 0.63978231
-0.032623876 0.017088681 0.64212412
-0.033071771 0.015748471 0.64469868
-0.033572745 0.014388323 0.64757836
-0.034146626 0.013008207 0.65087706
-0.034833636 0.011611193 0.6548261
-0.03575632 0.010216087 0.66012979
-0.032323014 0.067878336 0.64968455
-0.032376762 0.066372365 0.65000898
-0.033074565 0.066149145 0.65422058
-0.033415608 0.065160394 0.65627897
-0.033691462 0.064013779 0.6579439
-0.033958998 0.06282413 0.65955859
-0.034217935 0.061592281 0.66112149
-0.034477297 0.060335279 0.66268682
-0.034725908 0.05903402 0.66418731
-0.034976054 0.057710528 0.66569704
-0.035188451 0.056301504 0.66697896
-0.035333317 0.054766655 0.66785336
-0.035402317 0.053103507 0.66826981
-0.035570815 0.051577687 0.66928673
-0.035886783 0.0502415 0.67119378
-0.036337394 0.049055487 0.67391354
-0.036544669 0.047508061 0.67516452
-0.036741775 0.045927227 0.67635417
-0.0279737 0.033568442 0.62343413
-0.027963381 0.032157868 0.62337184
-0.028041976 0.030846208 0.62384617
-0.028217036 0.029627919 0.62490278
-0.028433017 0.028433055 0.6262064
-0.028657913 0.027225018 0.62756371
-0.028896824 0.026007146 0.62900567
-0.029144075 0.024772465 0.63049793
-0.029409245 0.023527414 0.63209844
-0.029687386 0.022265524 0.63377714
-0.029980803 0.020986557 0.63554811
-0.030295936 0.019692332 0.6374501
-0.030632574 0.018379539 0.6394819
-0.030993374 0.017046362 0.6416595
-0.031384416 0.015692204 0.64401966
-0.031815059 0.014316797 0.64661884
-0.032294638 0.012917876 0.64951336
-0.032844752 0.01149568 0.65283358
-0.033496249 0.010048866 0.6567657
-0.034357268 0.0085893273 0.66196239
-0.030780831 0.069661915 0.65015453
-0.030516528 0.067457587 0.64847529
-0.030547513 0.065918297 0.64867222
-0.030894164 0.06504038 0.6508745
-0.031492237 0.064641923 0.65467423
-0.031980403 0.06396085 0.65777564
-0.032275174 0.062851667 0.65964842
-0.032533627 0.061642677 0.66129035
-0.03279173 0.060405821 0.66293013
-0.033042468 0.059128612 0.66452312
-0.033290427 0.057820231 0.66609848
-0.03353291 0.056476504 0.66763902
-0.033763349 0.055087537 0.66910303
-0.033936184 0.053583443 0.67020106
-0.034030449 0.051941186 0.67079997
-0.034132469 0.050300449 0.67144817
-0.034375481 0.048849404 0.67299199
-0.034843534 0.047680616 0.67596567
-0.035080109 0.046158016 0.67746866
-0.026520083 0.033499092 0.62308514
-0.026584897 0.03218174 0.62349689
-0.026693508 0.030908287 0.62418693
-0.026880462 0.029709965 0.62537467
-0.027080307 0.028505594 0.62664437
-0.027286123 0.027286112 0.62795192
-0.027504161 0.026056588 0.62933719
-0.02773218 0.024812967 0.63078582
-0.027971005 0.023554564 0.63230312
-0.028225372 0.022283196 0.63391918
-0.028491322 0.02099359 0.63560879
-0.028775042 0.019688159 0.63741136
-0.029077537 0.018364757 0.63933313
-0.029399727 0.017020941 0.64138007
-0.02974523 0.015655398 0.64357513
-0.030122984 0.014268816 0.64597505
-0.030536229 0.012857378 0.64860052
-0.030995393 0.011419356 0.65151763
-0.031516667 0.0099526346 0.65482944
-0.032139003 0.0084576309 0.65878326
-0.032947883 0.0069364011 0.66392219
-0.034314808 0.0054181218 0.67260653
-0.028979603 0.069229066 0.64893943
-0.028732298 0.067042023 0.64728105
-0.028811621 0.065626472 0.64781296
-0.029123729 0.064719439 0.64990598
-0.029442482 0.06379205 0.65204358
-0.029827936 0.062970072 0.65462852
-0.030485095 0.062663794 0.6590355
-0.030821649 0.061643302 0.66129249
-0.031083969 0.060441047 0.66305161
-0.031337049 0.05919224 0.66474879
-0.031582095 0.057900518 0.66639215
-0.031827632 0.056582451 0.66803879
-0.0320624 0.055218577 0.66961312
-0.032297641 0.053829402 0.67119074
-0.032490939 0.052346557 0.67248702
-0.032621924 0.050745219 0.67336535
-0.032687631 0.049031436 0.67380607
-0.032870155 0.047479123 0.67503011
-0.025100762 0.034862161 0.62292737
-0.025155023 0.03354004 0.62329125
-0.025213685 0.032217503 0.62368464
-0.025375584 0.031014591 0.6247704
-0.025549429 0.029807687 0.62593615
-0.025729198 0.028587997 0.62714177
-0.025920091 0.027360111 0.62842196
-0.026116718 0.026116729 0.6297406
-0.026326502 0.024863929 0.63114733
-0.026543597 0.02359429 0.63260323
-0.026774246 0.022311866 0.63414997
-0.02701704 0.02101326 0.63577825
-0.02727204 0.019696474 0.63748825
-0.027544444 0.018362939 0.63931507
-0.02783378 0.017009526 0.64125538
-0.028141389 0.01563412 0.6433183
-0.028474767 0.014237404 0.64555395
-0.028835788 0.012815922 0.64797503
-0.029230729 0.01136753 0.6506235
-0.029669441 0.0098898113 0.65356565
-0.030166417 0.0083795786 0.65689844
-0.030754499 0.0068343282 0.66084218
-0.031512592 0.0052521229 0.66592604
-0.032425549 0.0036028624 0.67204845
-0.027200621 0.068801612 0.64773941
-0.02718037 0.067151487 0.64759558
-0.027295325 0.065829903 0.64841187
-0.027440436 0.064565718 0.64944226
-0.027675422 0.063490689 0.65111083
-0.027990893 0.06256789 0.65335083
-0.028312225 0.061620712 0.6556325
-0.028821625 0.061033994 0.65924954
-0.029326515 0.060378134 0.66283458
-0.029609391 0.059218794 0.6648432
-0.029852552 0.057949066 0.66656983
-0.030095484 0.056650311 0.66829479
-0.03033158 0.055310547 0.66997117
-0.030564379 0.053937137 0.67162418
-0.030792862 0.052529037 0.67324656
-0.031005902 0.051068544 0.67475933
-0.031160263 0.049489796 0.67585534
-0.023748236 0.036320865 0.62322533
-0.02374691 0.034921944 0.62321591
-0.023793342 0.033590615 0.62354559
-0.023908034 0.032346159 0.62435997
-0.024058083 0.03113398 0.6254254
-0.024217194 0.029915392 0.6265552
-0.024381502 0.028684139 0.62772191
-0.024554854 0.027443647 0.6289528
-0.024735652 0.026190698 0.63023663
-0.024924828 0.024924845 0.63157982
-0.02512419 0.023646295 0.63299543
-0.025331896 0.022351682 0.63447034
-0.02555258 0.02104333 0.63603729
-0.025783315 0.01971668 0.63767564
-0.026028447 0.018373042 0.63941628
-0.026288433 0.017010182 0.64126229
-0.026563786 0.015625775 0.64321744
-0.026859125 0.014219552 0.64531457
-0.027177418 0.012789369 0.64757466
-0.027521407 0.011332363 0.6500172
-0.027897622 0.0098462105 0.6526885
-0.028315617 0.00832811 0.65565658
-0.028789043 0.0067739189 0.65901822
-0.029341688 0.0051779747 0.66294235
-0.030049553 0.0035352111 0.66796863
-0.030871205 0.0018159449 0.67380291
-0.025443796 0.068380207 0.64655662
-0.025730342 0.067542136 0.64871836
-0.025870109 0.066292137 0.64977282
-0.025951033 0.064877599 0.65038335
-0.026075369 0.063558728 0.65132141
-0.026235506 0.062309325 0.65252948
-0.026514158 0.061313987 0.65463179
-0.026813336 0.060330033 0.65688896
-0.027155586 0.059402823 0.65947104
-0.027767524 0.059006006 0.66408771
-0.028095437 0.057946831 0.6665616
-0.02834221 0.056684434 0.66842335
-0.028578959 0.055371732 0.67020953
-0.028808191 0.054015398 0.67193896
-0.029038073 0.052631497 0.67367327
-0.022566564 0.039491475 0.62484956
-0.022397744 0.037796229 0.62357581
-0.022357274 0.036330581 0.62327051
-0.022393107 0.034989268 0.62354088
-0.022471424 0.033707142 0.62413174
-0.022601478 0.032489628 0.62511289
-0.022740472 0.031268179 0.62616152
-0.022882491 0.030033261 0.62723303
-0.023034249 0.028792799 0.62837791
-0.023189574 0.027537644 0.62954974
-0.023355596 0.026275069 0.63080227
-0.02352622 0.024996608 0.6320895
-0.02370806 0.023708075 0.63346148
-0.023896439 0.022402942 0.63488263
-0.024095306 0.021083415 0.636383
-0.024305034 0.019747853 0.6379652
-0.024524678 0.018393517 0.63962233
-0.024758432 0.017021418 0.64138585
-0.025005661 0.015628546 0.64325106
-0.025267845 0.014213175 0.6452291
-0.025550092 0.012775004 0.64735848
-0.025852231 0.011310369 0.64963794
-0.026178883 0.0098171234 0.65210235
-0.026536219 0.0082925856 0.65479821
-0.02693313 0.0067333281 0.65779269
-0.027382497 0.0051342249 0.66118288
-0.027904963 0.0034881532 0.6651246
-0.028412718 0.0017758012 0.66895533
-0.029300472 -0 0.67565292
-0.023707835 0.067962468 0.64538383
-0.023975553 0.067131549 0.6475383
-0.024265539 0.066325843 0.64987189
-0.02450544 0.065347821 0.65180254
-0.024595866 0.063949287 0.65253013
-0.024692079 0.062553257 0.65330446
-0.024820855 0.061224759 0.65434074
-0.025015431 0.060037047 0.65590656
-0.025306681 0.059048921 0.65825033
-0.025601912 0.058030993 0.66062617
-0.02602393 0.057252675 0.66402233
-0.026537092 0.056612492 0.66815197
-0.026805121 0.055397213 0.67030889
-0.027031025 0.054062068 0.67212677
-0.027256709 0.052696317 0.67394298
-0.021041682 0.039277822 0.62392831
-0.020983208 0.037769794 0.62345779
-0.021010581 0.036418319 0.62367803
-0.021061108 0.035101831 0.62408465
-0.021174897 0.033879876 0.62500036
-0.021293364 0.032649815 0.62595373
-0.021417933 0.031412989 0.62695611
-0.021547861 0.030167013 0.62800169
-0.021683887 0.028911889 0.62909633
-0.02182602 0.027646273 0.6302402
-0.021974467 0.026369363 0.63143474
-0.022130687 0.025081426 0.63269192
-0.022292718 0.023778886 0.63399583
-0.02246514 0.02246514 0.63538337
-0.022643462 0.0211339 0.63681841
-0.022832688 0.019788355 0.63834119
-0.023030616 0.018424511 0.639934
-0.023240279 0.017042875 0.64162123
-0.023461642 0.015641123 0.64340264
-0.02369526 0.014217168 0.64528269
-0.023945723 0.01277104 0.64729822
-0.024212617 0.011299253 0.64944601
-0.024498483 0.0097994208 0.65174645
-0.024807973 0.00826931 0.65423709
-0.025146177 0.0067056715 0.6569587
-0.025520949 0.0051042438 0.65997463
-0.025945751 0.0034594238 0.66339326
-0.026284587 0.001752317 0.66611999
-0.026123295 -0 0.66482198
-0.027728382 -0.0018485785 0.67773873
-0.021993233 0.0675506 0.6442278
-0.02181006 0.065430194 0.64264846
-0.021629982 0.063344926 0.64109576
-0.022771299 0.065060824 0.65093642
-0.023045862 0.064199179 0.6533038
-0.023221808 0.063030601 0.6548208
-0.023291996 0.061557412 0.65542597
-0.023398271 0.060166985 0.65634227
-0.023536557 0.058841407 0.6575346
-0.023774039 0.057736993 0.65958226
-0.024051823 0.056693584 0.66197741
-0.024350638 0.055658638 0.66455376
-0.024912324 0.055162996 0.6693967
-0.025226593 0.054057002 0.67210639
-0.019679952 0.040765613 0.62428224
-0.019624159 0.039248317 0.62380117
-0.019641491 0.037880003 0.6239506
-0.019673154 0.036535859 0.62422365
-0.019771939 0.03530705 0.6250754
-0.019871777 0.034065902 0.62593621
-0.019980034 0.032824367 0.62686962
-0.020089995 0.031570017 0.62781769
-0.020208577 0.030312866 0.62884009
-0.020329449 0.029042095 0.62988234
-0.020459125 0.02776596 0.6310004
-0.020591797 0.026475191 0.63214433
-0.020733131 0.025175959 0.63336295
-0.02087922 0.023861974 0.63462257
-0.021033507 0.02253589 0.63595283
-0.02119522 0.021195233 0.63734716
-0.021364586 0.019838572 0.63880748
-0.021542773 0.018465251 0.64034384
-0.021729551 0.017073244 0.6419543
-0.02192783 0.01566276 0.64366382
-0.022136614 0.014230698 0.64546406
-0.022358114 0.012776107 0.64737386
-0.022594508 0.011297256 0.6494121
-0.022845861 0.0097910762 0.65157932
-0.023115752 0.0082556307 0.65390635
-0.023407653 0.0066879094 0.65642315
-0.023727575 0.0050844848 0.65918159
-0.024080265 0.0034400225 0.66222256
-0.024411056 0.0017436743 0.66507471
-0.024273179 -0 0.66388595
-0.024191784 -0.0017279983 0.66318411
-0.026126346 -0.0037323236 0.67986429
-0.020131228 0.065039366 0.64152515
-0.020121204 0.063459188 0.64143205
-0.020234874 0.062261164 0.64248759
-0.020422287 0.061266869 0.64422774
-0.021519519 0.062903225 0.65441608
-0.021767098 0.061952531 0.65671498
-0.021878751 0.060587347 0.65775168
-0.021953925 0.059106737 0.65844971
-0.022068555 0.05771777 0.65951413
-0.02222608 0.056420088 0.66097677
-0.022486707 0.055351883 0.66339684
-0.022753598 0.054258585 0.66587502
-0.018312519 0.042259663 0.62463766
-0.018276552 0.040770799 0.6243037
-0.018283229 0.039379269 0.62436575
-0.018307416 0.038023084 0.62459028
-0.018388515 0.036777049 0.62534332
-0.018474165 0.035527259 0.62613863
-0.018564539 0.034272969 0.6269778
-0.018659331 0.033012688 0.62785798
-0.018758666 0.031745434 0.62878031
-0.018862784 0.030470669 0.62974709
-0.01897249 0.029188424 0.6307658
-0.019086616 0.027895838 0.63182551
-0.01920734 0.026594788 0.63294643
-0.01933207 0.025280386 0.63410467
-0.019464487 0.023956299 0.63533419
-0.019601328 0.022616923 0.63660479
-0.01974676 0.021265745 0.63795519
-0.019897409 0.019897401 0.63935411
-0.020057483 0.018514603 0.64084041
-0.02022443 0.017113 0.64239061
-0.020401021 0.015693098 0.64403033
-0.020586655 0.014252305 0.64575398
-0.020782398 0.01278916 0.64757156
-0.020991921 0.011303335 0.64951706
-0.02121339 0.009790808 0.65157354
-0.021449268 0.0082497299 0.65376371
-0.021703187 0.0066779256 0.65612149
-0.021978922 0.005072087 0.65868181
-0.022279065 0.0034275651 0.66146874
-0.022562601 0.0017355978 0.66410148
-0.022439465 2.9802322e-08 0.66295815
-0.022395274 -0.0017227232 0.66254783
-0.02272371 -0.0034959614 0.6655975
-0.024493491 -0.0056523383 0.68203068
-0.018472278 0.064652979 0.64041471
-0.018677067 0.063813329 0.64247465
-0.018766146 0.062553823 0.64337075
-0.018027367 0.058588952 0.63593924
-0.018979158 0.060100645 0.64551353
-0.019223491 0.059272408 0.64797133
-0.020221481 0.060664445 0.6580103
-0.020420995 0.059561223 0.66001725
-0.017331587 0.049106181 0.62894022
-0.017198788 0.047296673 0.62760437
-0.017068055 0.045514822 0.62628931
-0.016944315 0.043772817 0.62504458
-0.016936669 0.042341679 0.62496763
-0.016935091 0.040926486 0.62495178
-0.016957141 0.039566636 0.62517357
-0.017021798 0.038299054 0.62582397
-0.017093809 0.037036598 0.62654835
-0.017166972 0.035764515 0.62728429
-0.017247796 0.034495592 0.62809736
-0.017329736 0.033215344 0.62892163
-0.017419379 0.031935543 0.62982339
-0.017510004 0.030642509 0.63073498
-0.017608184 0.029346973 0.63172257
-0.017708935 0.028039157 0.63273609
-0.017816447 0.026724696 0.63381755
-0.01792768 0.025397539 0.63493645
-0.018045355 0.024060458 0.6361202
-0.018167498 0.02270934 0.63734883
-0.018296264 0.021345645 0.6386441
-0.018431226 0.019967139 0.64000177
-0.018572155 0.018572152 0.64141935
-0.018721908 0.017161757 0.6429258
-0.018877598 0.015731335 0.64449191
-0.019042721 0.014282048 0.64615291
-0.019215923 0.012810618 0.64789516
-0.019399887 0.011316597 0.6497457
-0.019595075 0.0097975731 0.65170914
-0.019801283 0.0082505643 0.65378344
-0.02002202 0.0066740215 0.65600389
-0.020260716 0.0050651729 0.65840501
-0.020517854 0.0034196377 0.66099161
-0.020741114 0.0017284453 0.66323745
-0.020621866 2.9802322e-08 0.66203785
-0.020710638 -0.0017258823 0.66293085
-0.020921867 -0.0034869909 0.66505569
-0.021221271 -0.00530532 0.66806746
-0.022844994 -0.0076149702 0.68440086
-0.017091988 0.065260291 0.64216024
-0.016696379 0.062231958 0.63781893
-0.016562084 0.060225755 0.63634527
-0.016429832 0.058251232 0.63489395
-0.016483614 0.056943387 0.6354841
-0.016646435 0.055992544 0.63727093
-0.01769029 0.057895511 0.64872587
-0.015921434 0.05065915 0.6293149
-0.015799224 0.048833966 0.62797379
-0.015678877 0.047036648 0.62665319
-0.015621117 0.045443237 0.62601936
-0.015604908 0.043977469 0.6258415
-0.015594032 0.042529166 0.62572211
-0.015619211 0.041177928 0.62599844
-0.015672002 0.039892375 0.62657773
-0.015727263 0.038603276 0.62718415
-0.01578794 0.037316918 0.62785006
-0.015851917 0.036027104 0.62855208
-0.015920514 0.03473565 0.62930489
-0.015993049 0.033440024 0.63010085
-0.01606963 0.032139271 0.63094121
-0.016150972 0.030833691 0.63183379
-0.016235776 0.029519618 0.63276446
-0.016324962 0.028197676 0.63374311
-0.016418217 0.026866198 0.63476646
-0.016517451 0.025526971 0.63585544
-0.016620247 0.024174899 0.63698351
-0.016729416 0.022812843 0.63818145
-0.016842296 0.021435648 0.63942021
-0.016961832 0.020045817 0.64073193
-0.017086469 0.018639833 0.64209962
-0.01721769 0.017217726 0.64353961
-0.017356033 0.015778214 0.64505774
-0.017501399 0.01431936 0.646653
-0.017653693 0.012839019 0.64832425
-0.017814483 0.011336505 0.65008867
-0.017985985 0.0098105073 0.65197068
-0.018166393 0.0082574189 0.65395045
-0.018357681 0.0066755116 0.65604961
-0.018564116 0.0050629079 0.65831494
-0.018785115 0.0034154952 0.66074014
-0.018935634 0.0017214417 0.66239184
-0.018979842 -2.9802322e-08 0.66287696
-0.019082494 -0.0017347932 0.66400349
-0.019226143 -0.0034956634 0.6655798
-0.019413447 -0.0052945912 0.6676352
-0.019683238 -0.0071575344 0.67059582
-0.021162672 -0.009619385 0.6868307
-0.015217996 0.062393785 0.63829541
-0.014969457 0.059877843 0.63529527
-0.014850653 0.057917535 0.63386112
-0.01504209 0.05715996 0.636172
-0.014618614 0.05408892 0.63106018
-0.014505291 0.052219063 0.62969226
-0.014393671 0.050377846 0.62834489
-0.014338894 0.048752248 0.6276837
-0.014303969 0.047203124 0.62726212
-0.014276788 0.045685709 0.62693399
-0.014261935 0.044212013 0.6267547
-0.014295797 0.042887419 0.62716347
-0.014332322 0.04156372 0.62760437
-0.014374155 0.040247619 0.62810934
-0.01442022 0.038934618 0.62866539
-0.01446972 0.037621289 0.62926286
-0.014524533 0.036311328 0.62992454
-0.014581507 0.034995645 0.63061225
-0.014644585 0.033682585 0.63137364
-0.014709204 0.032360226 0.63215375
-0.014780289 0.031038612 0.63301182
-0.014852901 0.029705793 0.6338883
-0.014932021 0.028370827 0.63484335
-0.015012215 0.027021974 0.63581133
-0.015098875 0.025668114 0.63685745
-0.015188755 0.024301976 0.63794243
-0.015283678 0.022925496 0.63908827
-0.015383296 0.021536618 0.64029074
-0.015487286 0.020133495 0.64154601
-0.015596971 0.018716395 0.64287001
-0.015711524 0.017282695 0.64425278
-0.01583248 0.015832484 0.64571285
-0.015958926 0.014363021 0.64723921
-0.016093513 0.012874812 0.64886379
-0.01623334 0.011363357 0.65055168
-0.01638232 0.009829402 0.65235001
-0.016539467 0.008269757 0.65424693
-0.01670496 0.0066819787 0.65624464
-0.016882619 0.0050648153 0.65838915
-0.017072367 0.0034144819 0.66067958
-0.017225057 0.0017224848 0.66252279
-0.017379055 -0 0.66438168
-0.017483076 -0.0017483234 0.66563725
-0.01757445 -0.0035149157 0.6667403
-0.017704478 -0.0053113401 0.66830987
-0.017873399 -0.0071493685 0.67034894
-0.018108401 -0.009054184 0.67318565
-0.019444469 -0.011666685 0.68931341
-0.020514239 -0.014359921 0.7022267
-0.013618411 0.060526282 0.63725209
-0.013408767 0.058104694 0.6344403
-0.013272697 0.056040287 0.63261533
-0.013172762 0.054154724 0.63127494
-0.013096679 0.052386731 0.63025445
-0.013036546 0.050697714 0.62944794
-0.012989017 0.049069583 0.62881047
-0.012956428 0.047506899 0.62837338
-0.012966091 0.04610166 0.62850302
-0.01298093 0.044712096 0.62870204
-0.013004245 0.043347478 0.62901473
-0.013030889 0.041988432 0.62937206
-0.013062298 0.040638298 0.62979335
-0.013098964 0.039296865 0.63028514
-0.013138135 0.037954599 0.6308105
-0.013183328 0.036620378 0.63141668
-0.01323066 0.035281777 0.63205147
-0.013283033 0.033945501 0.63275391
-0.013338154 0.032604396 0.63349319
-0.013397438 0.031260699 0.63428837
-0.01346035 0.029911906 0.63513219
-0.013526618 0.028556198 0.63602096
-0.013597399 0.027194798 0.63697028
-0.013670959 0.025822937 0.63795686
-0.013748549 0.024441898 0.63899755
-0.013829786 0.023049653 0.64008713
-0.013916331 0.021647662 0.64124787
-0.014006187 0.020231187 0.64245307
-0.014101626 0.018802196 0.64373314
-0.014200836 0.017356575 0.64506376
-0.014305542 0.015895069 0.6464681
-0.014415218 0.014415264 0.64793909
-0.014530384 0.012915879 0.6494838
-0.014652839 0.011396676 0.65112615
-0.014780625 0.0098537803 0.65284002
-0.014916635 0.0082870126 0.65466428
-0.0150592 0.0066929758 0.6565764
-0.01521073 0.0050702393 0.65860873
-0.015373051 0.0034162402 0.66078585
-0.015510509 0.0017233789 0.66262943
-0.015688175 2.9802322e-08 0.66501236
-0.015840428 -0.0017600358 0.66705447
-0.015945541 -0.0035434663 0.66846424
-0.016027147 -0.0053423643 0.66955876
-0.016142916 -0.0071746111 0.67111152
-0.01629361 -0.0090520084 0.67313272
-0.016496731 -0.010997802 0.67585695
-0.01692402 -0.01316312 0.68158787
-0.018482365 -0.016428769 0.7024889
-0.011997892 0.056989998 0.63563216
-0.011845189 0.054784 0.63332808
-0.011769993 0.052964956 0.63219339
-0.011724932 0.051296622 0.63151348
-0.011698685 0.049719423 0.63111746
-0.011685161 0.048201323 0.63091338
-0.011680898 0.046723604 0.63084906
-0.011685262 0.045280427 0.63091493
-0.011697078 0.043864042 0.63109326
-0.011713267 0.042460591 0.63133752
-0.011734798 0.041071832 0.63166231
-0.011761832 0.039696217 0.63207024
-0.011791593 0.038322687 0.63251936
-0.011826782 0.036958724 0.63305026
-0.011864851 0.035594583 0.63362467
-0.011906743 0.034231871 0.63425684
-0.011952573 0.032869607 0.63494831
-0.012000769 0.031501979 0.63567555
-0.012053966 0.030134916 0.63647819
-0.012108807 0.028758407 0.63730574
-0.012168956 0.027380168 0.63821328
-0.01223079 0.025990486 0.63914627
-0.012297979 0.024595976 0.64016008
-0.012366213 0.023186624 0.64118969
-0.012439691 0.021769494 0.6422984
-0.012516787 0.020339757 0.6434617
-0.01259782 0.018896699 0.64468437
-0.012683202 0.017439365 0.64597267
-0.012772355 0.015965432 0.64731789
-0.012866328 0.01447463 0.64873582
-0.012965051 0.012965053 0.65022546
-0.013068886 0.01143527 0.65179217
-0.013178387 0.0098837912 0.65344441
-0.013294505 0.0083090663 0.65519649
-0.013416238 0.0067081451 0.65703332
-0.013544071 0.005079031 0.65896219
-0.013662836 0.0034157336 0.6607542
-0.013793579 0.0017241836 0.662727
-0.013951508 -0 0.66510993
-0.014113097 -0.0017641187 0.66754812
-0.01426209 -0.0035654902 0.66979623
-0.014366202 -0.005387336 0.67136717
-0.014439585 -0.0072198212 0.67247444
-0.014539815 -0.0090874135 0.67398685
-0.014672468 -0.011004329 0.67598838
-0.014852012 -0.012995541 0.67869747
-0.015159456 -0.015159458 0.6833365
-0.016541878 -0.018609583 0.70419556
-0.010609198 0.054561585 0.63754702
-0.010498061 0.052490264 0.63563049
-0.010437184 0.050694883 0.63458073
-0.010401817 0.049037129 0.63397086
-0.010382175 0.04746139 0.63363212
-0.010373351 0.045939118 0.63347995
-0.010372429 0.044453263 0.63346404
-0.010377531 0.042992651 0.63355201
-0.01038969 0.041558772 0.6337617
-0.010406792 0.04014048 0.63405663
-0.01042721 0.038729608 0.63440871
-0.010452976 0.037332088 0.63485301
-0.010481943 0.035938084 0.63535261
-0.010513975 0.034545928 0.63590491
-0.010550587 0.033158988 0.63653636
-0.01058944 0.031768322 0.63720626
-0.010632161 0.030377597 0.63794297
-0.01067757 0.028981984 0.638726
-0.010726227 0.027581722 0.63956511
-0.010778149 0.026175469 0.64046043
-0.010832718 0.024760485 0.64140147
-0.010891397 0.023338675 0.64241338
-0.01095219 0.021904379 0.6434617
-0.011016401 0.020459026 0.64456898
-0.011083999 0.019001126 0.64573467
-0.011155735 0.017530471 0.6469717
-0.011230818 0.016043991 0.64826649
-0.011309949 0.014541358 0.64963102
-0.01139302 0.013020605 0.6510635
-0.011480441 0.011480421 0.65257108
-0.01157235 0.0099191666 0.65415597
-0.011669317 0.0083352327 0.65582812
-0.01177263 0.0067272484 0.65760964
-0.011879884 0.0050913393 0.65945923
-0.011967399 0.0034192502 0.6609683
-0.012090464 0.0017271936 0.66309047
-0.012216086 -0 0.6652568
-0.012354882 -0.0017649829 0.66765022
-0.012499681 -0.0035713017 0.67014718
-0.012639788 -0.0054170489 0.67256325
-0.012740989 -0.0072805583 0.67430842
-0.012808363 -0.0091488361 0.67547023
-0.012893612 -0.011051655 0.67694032
-0.013008445 -0.013008446 0.67892051
-0.013164563 -0.015045166 0.68161267
-0.013418091 -0.017251849 0.68598461
-0.014608343 -0.020869046 0.70650983
-0.0092005022 0.052136153 0.63969773
-0.0091157714 0.050136775 0.63799304
-0.0090699447 0.048373014 0.63707113
-0.0090430062 0.046722203 0.63652915
-0.0090278052 0.045139015 0.63622332
-0.0090228403 0.043610424 0.63612342
-0.0090245483 0.042114586 0.63615781
-0.0090314178 0.040641397 0.63629597
-0.0090428703 0.039185762 0.63652647
-0.0090594888 0.03774786 0.63686073
-0.0090795178 0.036318094 0.63726372
-0.0091028903 0.034894407 0.63773394
-0.0091300765 0.033476949 0.63828087
-0.0091599114 0.032059699 0.63888109
-0.0091928681 0.030642897 0.63954413
-0.009228928 0.029224962 0.64026958
-0.0092671877 0.027801573 0.64103931
-0.0093092574 0.026376277 0.6418857
-0.0093529634 0.024941266 0.64276499
-0.0094007608 0.023501933 0.64372659
-0.0094502084 0.02205047 0.64472145
-0.0095037278 0.020591408 0.64579821
-0.0095583135 0.01911661 0.64689636
-0.0096170101 0.017631203 0.64807725
-0.0096789589 0.016131639 0.64932352
-0.0097440509 0.014616072 0.6506331
-0.0098126531 0.013083577 0.65201324
-0.0098846685 0.011532128 0.65346211
-0.013333833 0.013333827 0.72285402
-0.013187232 0.010989368 0.71990454
-0.013306588 0.0088710785 0.72230577
-0.010209247 0.0051046312 0.65999216
-0.010286556 0.0034288466 0.66154748
-0.010382895 0.0017304718 0.66348565
-0.010489736 2.9802322e-08 0.66563511
-0.01060007 -0.0017666817 0.66785485
-0.010719253 -0.0035731196 0.67025268
-0.010846434 -0.005423218 0.67281127
-0.010974182 -0.0073161125 0.67538142
-0.011070005 -0.0092249811 0.67730922
-0.011133225 -0.011133224 0.67858112
-0.011202436 -0.01306951 0.67997354
-0.011299753 -0.015066326 0.68193138
-0.011432632 -0.017148942 0.68460476
-0.011635933 -0.019393206 0.68869483
-0.012639311 -0.023172051 0.70888126
-0.0079141613 0.052233487 0.64566272
-0.0077620945 0.049677432 0.6419915
-0.0077003594 0.047742277 0.64050102
-0.007666592 0.045999557 0.63968581
-0.0076465341 0.044349909 0.63920158
-0.0076360316 0.042761803 0.63894802
-0.0076324674 0.04121533 0.63886195
-0.0076356586 0.039705396 0.63893902
-0.0076433802 0.038216889 0.63912547
-0.007654699 0.036742568 0.63939869
-0.0076698828 0.03528145 0.63976526
-0.0076884329 0.033829123 0.64021313
-0.007709662 0.032380581 0.64072561
-0.0077336854 0.030934781 0.64130557
-0.0077608186 0.029491097 0.64196068
-0.0077901557 0.028044552 0.64266896
-0.0078222584 0.026595712 0.64344394
-0.0078566503 0.025141269 0.64427423
-0.0078933621 0.023680091 0.64516056
-0.0079328315 0.022211909 0.64611346
-0.0079741729 0.02073285 0.64711154
-0.0080188755 0.019245327 0.64819068
-0.008065097 0.01774323 0.64930654
-0.008114011 0.01622802 0.65048748
-0.0081659472 0.014698714 0.65174139
-0.0082207406 0.013153195 0.65306413
-0.011039793 0.015455723 0.72112209
-0.011178753 0.013414502 0.72447693
-0.011254337 0.01125437 0.72630161
-0.011150205 0.0089201927 0.72378772
-0.011209859 0.0067259073 0.72522783
-0.0085974643 0.0034390092 0.66215909
-0.0086782249 0.0017356575 0.66410875
-0.0087605165 -2.9802322e-08 0.6660955
-0.0088494839 -0.0017699003 0.66824335
-0.0089437282 -0.0035774708 0.67051864
-0.0090431385 -0.0054258704 0.67291862
-0.0091518089 -0.0073214173 0.67554212
-0.0092628486 -0.00926283 0.67822289
-0.0093520088 -0.011222392 0.6803754
-0.0094103329 -0.013174474 0.68178344
-0.0094657699 -0.015145212 0.6831218
-0.0095445672 -0.017180204 0.6850242
-0.0096544018 -0.019308805 0.68767583
-0.0098144952 -0.021591902 0.69154078
-0.010647245 -0.025553375 0.71164513
-0.0063831429 0.049469382 0.64722627
-0.0062896851 0.047172636 0.64440596
-0.0062470445 0.045291036 0.64311916
-0.0062224562 0.043557167 0.6423772
-0.0062084431 0.041906983 0.6419543
-0.0062018638 0.040312141 0.6417557
-0.0062007685 0.038754821 0.64172268
-0.0062039592 0.037223786 0.64181894
-0.0062116613 0.03571707 0.64205134
-0.0062223403 0.034222871 0.64237368
-0.0062356978 0.032737434 0.64277673
-0.006251826 0.03125912 0.64326346
-0.0062705115 0.029784918 0.64382738
-0.0062914845 0.02831167 0.64446026
-0.0063144304 0.026836336 0.64515269
-0.0063398727 0.025359511 0.64592052
-0.0063666953 0.023875117 0.64672995
-0.0063964846 0.022387683 0.6476289
-0.0064273789 0.020888984 0.64856124
-0.0064612427 0.019383729 0.64958322
-0.0064964131 0.017865121 0.65064454
-0.0065343576 0.016335905 0.65178961
-0.0065732659 0.01478985 0.65296382
-0.006615153 0.013230294 0.65422785
-0.0088404175 0.015470743 0.72138113
-0.0089176996 0.013376534 0.72371334
-0.0090557756 0.011319727 0.72788012
-0.0091201905 0.0091201961 0.72982407
-0.0091799684 0.0068849921 0.73162794
-0.0090792319 0.0045396388 0.72858799
-0.0092000542 0.0022999942 0.73223412
-0.0070295827 -0 0.66673434
-0.0070970845 -0.0017742813 0.66877139
-0.0071681798 -0.0035840869 0.67091691
-0.0072454843 -0.0054341257 0.67324972
-0.0073250909 -0.007325083 0.67565215
-0.0074142315 -0.0092677772 0.6783421
-0.0075057927 -0.011258662 0.68110526
-0.0075843809 -0.013272673 0.68347687
-0.0076370528 -0.015274107 0.6850664
-0.0076807807 -0.017281771 0.68638599
-0.0077434829 -0.019358695 0.6882782
-0.0078280726 -0.021527201 0.69083095
-0.0079549551 -0.023864865 0.69465995
-0.0086113969 -0.027987063 0.71446985
-0.004839885 0.046785563 0.64933985
-0.004781852 0.044630617 0.64700478
-0.0047523151 0.042770863 0.64581633
-0.0047357031 0.041042775 0.64514786
-0.0047269342 0.03939116 0.64479506
-0.0047234837 0.037787884 0.64465618
-0.0047238995 0.036216557 0.64467299
-0.0047275745 0.034668863 0.64482081
-0.0047341799 0.033139288 0.64508665
-0.0047432152 0.031621456 0.64545017
-0.0047544376 0.030111432 0.64590168
-0.0047678323 0.028607011 0.64644074
-0.0047827046 0.027102023 0.64703906
-0.004799787 0.025598854 0.64772642
-0.0048182444 0.024091214 0.64846909
-0.0048385435 0.022579879 0.64928591
-0.0048604463 0.021061957 0.65016717
-0.0048837555 0.019535035 0.65110505
-0.0049090059 0.017999679 0.65212113
-0.004935347 0.01645118 0.65318096
-0.0049640397 0.014892101 0.6543355
-0.0049935826 0.013316244 0.65552413
-0.0067026098 0.015639454 0.72429013
-0.0067221802 0.013444364 0.72507757
-0.0067642862 0.011273831 0.72677183
-0.0068668663 0.0091558099 0.73089927
-0.0069296649 0.006929636 0.73342615
-0.0069772722 0.0046514869 0.73534173
-0.0069028013 0.0023009479 0.73234522
-0.0069696587 -0 0.73503536
-0.0053390954 -0.0017797351 0.66942656
-0.0053910213 -0.0035939813 0.67151588
-0.0054443819 -0.0054443777 0.6736629
-0.005503729 -0.0073383152 0.6760509
-0.0055646314 -0.0092743933 0.67850137
-0.0056320485 -0.011264086 0.68121397
-0.0057024183 -0.013305634 0.68404555
-0.0057674469 -0.015379876 0.68666208
-0.005811682 -0.017435044 0.68844199
-0.0058442191 -0.019480735 0.68975121
-0.0058909394 -0.021600127 0.69163102
-0.0059531075 -0.023812443 0.69413245
-0.0060458025 -0.026198477 0.69786221
-0.0065312455 -0.030479133 0.71739495
-0.0032649082 0.044076264 0.65165257
-0.0032325622 0.042023331 0.64970034
-0.0032152073 0.040190101 0.64865285
-0.0032054237 0.038465083 0.64806235
-0.003200247 0.036802888 0.6477499
-0.0031986719 0.035185397 0.64765483
-0.0031999603 0.033599585 0.64773268
-0.0032031357 0.032031357 0.6479243
-0.0032082084 0.030477971 0.64823043
-0.0032151868 0.028936684 0.6486516
-0.0032232644 0.027397752 0.64913917
-0.0032329904 0.025863945 0.64972615
-0.0032439423 0.024329573 0.65038717
-0.0032559426 0.022791594 0.65111142
-0.0032694309 0.021251351 0.6519255
-0.0032835808 0.019701481 0.65277958
-0.0032994195 0.018146813 0.65373552
-0.0033158294 0.016579151 0.65472591
-0.0033338573 0.01500237 0.65581399
-0.0033526551 0.013410628 0.65694857
-0.0033728026 0.011804849 0.65816456
-0.0045280927 0.013584286 0.72789246
-0.0045489226 0.011372328 0.7291497
-0.0045659421 0.0091318786 0.73017693
-0.0046139406 0.0069208741 0.73307389
-0.0046807122 0.0046806931 0.73710394
-0.0047140731 0.0023570359 0.73911738
-0.004673128 2.9802322e-08 0.73664618
-0.0046987119 -0.0023493469 0.73819029
-0.0036051492 -0.0036051869 0.67218792
-0.0036406666 -0.0054609776 0.67433155
-0.0036769044 -0.0073538125 0.67651874
-0.0037167536 -0.0092918873 0.6789239
-0.0037583369 -0.011275023 0.68143362
-0.0038035193 -0.01331231 0.68416059
-0.0038516237 -0.015406489 0.68706399
-0.0038984991 -0.017543226 0.68989313
-0.0039316751 -0.019658357 0.69189548
-0.0039540296 -0.021747172 0.6932447
-0.0039844774 -0.023906857 0.69508243
-0.0040256712 -0.026166856 0.69756866
-0.0040850281 -0.028595209 0.70115119
-0.0044068941 -0.033051729 0.72057748
-0.0016540289 0.041350722 0.65425682
-0.0016395363 0.039348871 0.65250748
-0.0016321134 0.037538588 0.65161145
-0.0016277807 0.035811186 0.65108842
-0.0016256757 0.034139216 0.65083432
-0.0016252323 0.032504618 0.6507808
-0.0016261935 0.030897677 0.65089685
-0.0016283105 0.029309571 0.65115237
-0.0016311823 0.027730107 0.65149903
-0.0016350147 0.02616021 0.65196168
-0.001639617 0.024594277 0.65251714
-0.0016447426 0.023026377 0.65313596
-0.0016507657 0.021459967 0.65386295
-0.0016571843 0.019886196 0.65463781
-0.001664389 0.018308282 0.65550745
-0.0016720981 0.01672098 0.65643799
-0.0016803696 0.015123338 0.65743649
-0.0016893279 0.013514638 0.65851784
-0.001698682 0.011890799 0.65964699
-0.0017051597 0.010230929 0.66042894
-0.0017227192 0.0086135864 0.66254854
-0.0023077256 0.0092309415 0.73316503
-0.0023144935 0.0069434941 0.73398203
-0.0023323921 0.0046648085 0.73614252
-0.0023704474 0.0023704767 0.74073625
-0.0023890317 -2.9802322e-08 0.74297953
-0.002405629 -0.0024056435 0.74498302
-0.0023798731 -0.0047597289 0.74187398
-0.0024136361 -0.0072409213 0.74594957
-0.0018442731 -0.0073770285 0.67722136
-0.0018628672 -0.0093143284 0.67946589
-0.0018828103 -0.011296868 0.6818732
-0.0019041552 -0.013329089 0.68444979
-0.0019268132 -0.015414506 0.68718481
-0.0019514997 -0.017563492 0.6901648
-0.001976351 -0.019763499 0.69316459
-0.0019949551 -0.021944523 0.69541031
-0.0020068532 -0.024082273 0.6968466
-0.0020216678 -0.026281685 0.69863486
-0.0020421303 -0.028589815 0.70110494
-0.0020705156 -0.031057745 0.70453125
-0.0022304684 -0.035687476 0.72383934
0 0.040970325 0.66066271
0 0.038565248 0.65699935
0 0.03661108 0.6554774
0 0.034805 0.65466166
0 0.033073813 0.65421593
0 0.031391084 0.6540314
0 0.029738992 0.65403205
0 0.028108269 0.65418434
0 0.026495636 0.65449214
0 0.0248909 0.65490448
0 0.023288727 0.65539789
0 0.021691799 0.65601599
0 0.020090878 0.65669674
0 0.018486559 0.65746373
0 0.016876847 0.65831977
0 0.015256464 0.65922254
0 0.013628811 0.66024107
0 0.011959314 0.66082883
0 0.010308862 0.66199583
0 0.0086410344 0.66321003
0 0.006955862 0.66451001
0 0.0070204735 0.7370801
0 0.0046997964 0.73825556
0 0.0023616254 0.73966932
0 -2.9802322e-08 0.7434485
0 -0.0024217665 0.74693102
0 -0.0048785806 0.74904597
0 -0.0072424114 0.74601001
0 -0.0097568929 0.74903733
0 -0.0093442202 0.68018818
0 -0.011327714 0.68249327
0 -0.013355225 0.68490112
0 -0.015438497 0.68754721
0 -0.017572761 0.69028974
0 -0.019778818 0.69334948
0 -0.022042602 0.69648665
0 -0.02429691 0.69900614
0 -0.026492983 0.70059681
0 -0.028727829 0.70229471
0 -0.031084329 0.70474553
0 -0.033608884 0.70815748
0 -0.036774099 0.71571696
0.001724447 0.03793788 0.6627571
0.0017008126 0.03571704 0.65990418
0.0016896301 0.033792585 0.65855438
0.0016835132 0.031986743 0.65781593
0.0016804431 0.030247957 0.65744531
0.0016795348 0.028552085 0.65733576
0.0016801271 0.026882023 0.65740722
0.0016818665 0.025228024 0.65761715
0.0016846127 0.023584574 0.65794867
0.0016886267 0.021952152 0.6584332
0.0016932496 0.020319015 0.65899122
0.0016986299 0.018684924 0.65964073
0.001704933 0.017049342 0.66040158
0.0017110198 0.015399188 0.66113627
0.0017153135 0.013722539 0.66165459
0.001723473 0.012064308 0.6626395
0.0017323998 0.010394394 0.66371703
0.0017419715 0.0087098479 0.66487253
0.0017520235 0.0070081055 0.6660859
0.0017629374 0.0052888393 0.66740328
0.0017936574 0.0035873353 0.67111152
0.0023862517 0.002386272 0.74264395
0.002393855 2.9802322e-08 0.74356174
0.0024165034 -0.0024164915 0.74629569
0.0024552066 -0.0049103796 0.75096756
0.002473705 -0.0074211061 0.75320059
0.0024537737 -0.0098150969 0.75079465
0.0024675445 -0.012337685 0.7524569
0.0018940928 -0.011364549 0.68323517
0.0019137103 -0.013395935 0.68560314
0.0019339477 -0.015471578 0.6880461
0.001956169 -0.017605513 0.69072843
0.0019793767 -0.019793749 0.69352978
0.0020049957 -0.02205494 0.69662225
0.0020318476 -0.024382174 0.69986355
0.0020549204 -0.026713967 0.70264876
0.0020699503 -0.028979301 0.70446301
0.0020833698 -0.031250507 0.70608288
0.0021033464 -0.033653557 0.70849431
0.0021315264 -0.036235929 0.71189594
0.0021805165 -0.039249271 0.71780956
0.0024168303 -0.045919806 0.74633515
0.0034926124 0.034926146 0.66539574
0.0034529758 0.032803267 0.66300344
0.0034331104 0.030898035 0.66180444
0.0034224258 0.029090613 0.66115963
0.0034171783 0.027337402 0.6608429
0.003415802 0.025618523 0.66075981
0.0034181122 0.023926795 0.66089922
0.0034228002 0.022248209 0.66118217
0.0034292985 0.020575792 0.66157436
0.0034378276 0.018908024 0.66208923
0.0034394346 0.017197192 0.66218615
0.0034512016 0.015530407 0.66289634
0.0034651477 0.013860613 0.66373807
0.0034800416 0.01218012 0.66463703
0.0034963344 0.010488987 0.66562039
0.0035141616 0.0087854266 0.66669637
0.0035329452 0.0070658922 0.66783005
0.0035536205 0.0053304732 0.66907787
0.0035751525 0.0035751462 0.67037749
0.0035981883 0.0017991364 0.67176777
0.0048431582 2.9802322e-08 0.74690837
0.0048610144 -0.0024304986 0.74798608
0.0048922882 -0.0048922598 0.74987364
0.0049731527 -0.0074597299 0.7547543
0.0050178892 -0.010035783 0.75745434
0.0050547933 -0.012636989 0.7596817
0.0050023128 -0.01500693 0.75651419
0.0050773108 -0.017770529 0.76104069
0.0038803741 -0.015521497 0.68879914
0.0039216755 -0.017647535 0.69129199
0.0039665205 -0.019832581 0.69399858
0.0040140608 -0.022077322 0.69686794
0.004065726 -0.024394333 0.69998622
0.0041208751 -0.026785672 0.70331478
0.0041719158 -0.029203385 0.70639533
0.00420572 -0.031542897 0.7084356
0.0042323121 -0.033858508 0.71004051
0.0042707846 -0.036301672 0.71236259
0.0043268283 -0.038941473 0.71574515
0.0044192518 -0.041982889 0.72132337
0.0048582298 -0.048582286 0.74781805
0.0054235696 0.034349263 0.67282557
0.005310047 0.031860292 0.66825771
0.0052589248 0.029800594 0.6662007
0.0052335849 0.027912498 0.66518116
0.0052196267 0.026098162 0.66461951
0.0052136444 0.024330348 0.66437876
0.0052121598 0.022586048 0.66431904
0.0051926328 0.02077052 0.66353333
0.0051744645 0.018973023 0.66280228
0.0052115805 0.017371953 0.66429573
0.0052370727 0.015711218 0.66532147
0.0052554631 0.014014572 0.6660614
0.0052750399 0.012308449 0.66684914
0.0052968743 0.010593712 0.66772771
0.0053215111 0.0088691711 0.66871905
0.005347407 0.0071298778 0.66976094
0.0053760773 0.0053760409 0.67091459
0.0054069255 0.0036046505 0.6721558
0.0054392135 0.0018130839 0.673455
0.0054742838 -0 0.67486608
0.0056491536 -0.0018830597 0.68190229
0.0074107107 -0.0049404502 0.75278181
0.0074385838 -0.0074385405 0.75390339
0.0075249844 -0.010033309 0.75737989
0.0076350248 -0.012725025 0.76180762
0.0076934882 -0.015386969 0.76415998
0.0076171639 -0.01777339 0.76108897
0.0077021336 -0.020538986 0.76450783
0.00590222 -0.017706662 0.69208491
0.0059657418 -0.019885808 0.69464087
0.0060333372 -0.022122264 0.69736063
0.0061064535 -0.024425834 0.70030266
0.0061845472 -0.026799709 0.70344484
0.0062695574 -0.029257923 0.70686543
0.0063528745 -0.031764358 0.71021789
0.0064098705 -0.034185976 0.71251118
0.0064501381 -0.03655079 0.71413147
0.0065077161 -0.039046258 0.71644819
0.0065888409 -0.041729331 0.71971238
0.0067185396 -0.044790268 0.72493112
0.007358687 -0.051510811 0.75068867
0.0072396137 0.030768365 0.67307258
0.0071371226 0.028548479 0.66997963
0.0070220847 0.026332796 0.66650808
0.0069785025 0.024424762 0.66519284
0.0069354586 0.022540241 0.66389394
0.0068929181 0.020678788 0.66261011
0.0069182697 0.019025236 0.66337514
0.0069808639 0.01745218 0.66526413
0.007039893 0.015839785 0.66704547
0.0070860786 0.014172167 0.66843927
0.0071154027 0.012451977 0.66932416
0.0071405852 0.010710865 0.67008418
0.0071695917 0.0089620054 0.67095947
0.0072010891 0.0072011054 0.67191005
0.0072359755 0.0054270029 0.67296278
0.0072737648 0.0036368668 0.6741032
0.0073141959 0.0018285513 0.67532331
0.0073584863 -0 0.67665988
0.0074046855 -0.0018511713 0.67805409
0.0074541327 -0.0037270486 0.6795463
0.010035225 -0.0075264275 0.75743759
0.010068241 -0.010068238 0.75843394
0.010151171 -0.012688935 0.76093662
0.010326258 -0.015489399 0.76622033
0.010410099 -0.018217683 0.76875043
0.010335163 -0.020670325 0.76648909
0.010393018 -0.023384273 0.76823497
0.0079816347 -0.019954085 0.69546503
0.0080687404 -0.022189021 0.69809365
0.0081595965 -0.024478793 0.70083559
0.0082593337 -0.026842833 0.70384538
0.008363951 -0.029273838 0.70700246
0.0084804408 -0.031801641 0.71051782
0.0085979309 -0.034391701 0.71406341
0.0086857658 -0.036914498 0.71671408
0.008741417 -0.039336383 0.71839356
0.0088167004 -0.041879326 0.72066534
0.00892088 -0.044604391 0.72380924
0.0090869414 -0.047706425 0.72882068
0.0099196844 -0.054558247 0.75395089
0.0091715027 0.027514488 0.67601758
0.0086842189 0.024315804 0.66425353
0.0086308615 0.022440255 0.66296536
0.0086420411 0.020740896 0.66323525
0.0086931512 0.019124925 0.66446918
0.0087535894 0.017507195 0.66592824
0.0088279378 0.0158903 0.66772318
0.0089103775 0.014256597 0.66971344
0.008981036 0.012573481 0.67141932
0.0090323966 0.010838896 0.67265928
0.0090661105 0.0090661347 0.67347324
0.0091000115 0.0072800219 0.67429161
0.0091390051 0.0054833889 0.67523301
0.0091824764 0.0036729872 0.67628253
0.0092283729 0.0018456876 0.67739052
0.0092795119 2.9802322e-08 0.67862511
0.0093348408 -0.0018669367 0.67996091
0.0093926322 -0.0037570596 0.68135613
0.0094553949 -0.0056732297 0.68287134
0.0098044574 -0.007843554 0.69129843
0.012797358 -0.012797326 0.7635535
0.012862166 -0.015434593 0.765118
0.013058471 -0.018281817 0.76985729
0.013207447 -0.021131903 0.77345395
0.013310391 -0.023958743 0.77593917
0.013177325 -0.026354641 0.77272671
0.01338538 -0.029447824 0.77774954
0.010233122 -0.024559498 0.70164728
0.010349237 -0.02690801 0.70445067
0.010475163 -0.029330462 0.70749068
0.010609002 -0.031827003 0.71072185
0.010756331 -0.034420252 0.71427882
0.010910427 -0.037095428 0.71799886
0.011034242 -0.039723247 0.72098809
0.011109604 -0.04221648 0.72280747
0.011201327 -0.044805288 0.72502184
0.011331204 -0.04759106 0.7281574
0.011532087 -0.050741196 0.73300713
0.012554985 -0.057752907 0.75770205
0.011164608 0.024189979 0.67921251
0.010507505 0.021015018 0.66599262
0.01052899 0.019303143 0.66642487
0.010576692 0.017627835 0.66738456
0.010640948 0.015961438 0.66867727
0.010723273 0.014297694 0.6703335
0.010819891 0.012623221 0.67227733
0.010919418 0.010919422 0.67427969
0.011000036 0.0091666877 0.67590159
0.011053172 0.0073687732 0.6769706
0.01109373 0.0055468678 0.67778653
0.011139049 0.0037130415 0.6786983
0.011189034 0.0018648505 0.67970389
0.011245237 -2.9802322e-08 0.68083465
0.011305497 -0.001884222 0.68204695
0.01137084 -0.0037902892 0.68336159
0.011442263 -0.005721122 0.68479848
0.011516752 -0.0076778233 0.68629706
0.011596694 -0.0096638799 0.68790537
0.015611333 -0.015611351 0.76867372
0.015665997 -0.018276989 0.76977342
0.015827045 -0.021102726 0.77301347
0.016088536 -0.024132818 0.7782743
0.016219439 -0.027032375 0.78090787
0.016065637 -0.029453665 0.77781355
0.016258527 -0.032517016 0.78169423
0.012461615 -0.027000159 0.70530629
0.012604076 -0.029409498 0.70817238
0.012756823 -0.031892091 0.71124542
0.012921654 -0.034457743 0.71456152
0.013100282 -0.037117481 0.71815526
0.013291859 -0.039875567 0.72200954
0.013456473 -0.042612165 0.72532123
0.01356041 -0.045201331 0.72741228
0.01366528 -0.047828496 0.72952217
0.013820666 -0.05067578 0.73264831
0.014053049 -0.053870022 0.73732346
0.015261589 -0.061046362 0.76163739
0.013588948 0.023295343 0.68893093
0.01251925 0.019673109 0.67048466
0.012488316 0.017840445 0.6699512
0.012524577 0.016103059 0.67057651
0.012589856 0.014388442 0.67170221
0.012673221 0.012673229 0.67313981
0.01277715 0.010951877 0.67493194
0.012898882 0.0092134774 0.67703116
0.013012697 0.0074358582 0.67899382
0.013099472 0.0056141019 0.68049026
0.013153637 0.0037581623 0.68142426
0.013204066 0.0018863082 0.68229395
0.01326156 2.9802322e-08 0.68328536
0.013326146 -0.0019037426 0.68439907
0.013395408 -0.003827244 0.68559349
0.013471454 -0.0057734847 0.68690479
0.013555133 -0.0077457726 0.68834782
0.013642248 -0.0097444654 0.68985009
0.013736846 -0.011774421 0.69148135
0.018501561 -0.01850158 0.773646
0.018587869 -0.021243274 0.77513427
0.018711301 -0.024057418 0.77726281
0.019044915 -0.027207017 0.78301573
0.019218279 -0.030200154 0.78600526
0.019101521 -0.032745451 0.78399187
0.019205844 -0.035667986 0.78579086
0.014757233 -0.029514432 0.7090773
0.014927424 -0.031987309 0.71201211
0.015107254 -0.034530848 0.71511316
0.0153047 -0.037168562 0.71851802
0.015515275 -0.039896429 0.72214925
0.015745375 -0.042737395 0.72611719
0.015958808 -0.04559657 0.72979772
0.016096247 -0.048288733 0.73216778
0.016212704 -0.050954193 0.73417598
0.016393228 -0.053863466 0.73728901
0.016653409 -0.057097405 0.74177563
0.018046558 -0.064451993 0.76579964
0.015641036 0.019551307 0.69060296
0.014557741 0.016377479 0.67425728
0.014544782 0.014544815 0.67406178
0.0145999 0.012774944 0.67489344
0.01468641 0.011014819 0.67619878
0.014792022 0.009245038 0.67779231
0.014923383 0.0074616671 0.6797744
0.015070081 0.0056512952 0.68198788
0.015194442 0.003798604 0.68386436
0.015280694 0.0019100606 0.68516576
0.015339897 -0 0.68605912
0.015402998 -0.001925379 0.68701124
0.015473736 -0.0038684607 0.68807852
0.015554427 -0.0058329403 0.68929613
0.015639998 -0.0078199804 0.69058722
0.015734179 -0.0098338425 0.69200838
0.015836829 -0.011877626 0.69355726
0.015943877 -0.013950884 0.69517243
0.016118702 -0.016118705 0.69781029
0.021617159 -0.024319321 0.78077561
0.021705307 -0.027131647 0.78210574
0.021985704 -0.030230314 0.78633654
0.017124871 -0.032109112 0.71299219
0.017323341 -0.03464669 0.71598697
0.017533531 -0.037258774 0.71915853
0.017761406 -0.039963156 0.72259682
0.018004589 -0.042760879 0.72626621
0.018275525 -0.045688808 0.73035431
0.018542711 -0.048674613 0.73438573
0.018719347 -0.051478207 0.73705101
0.018853273 -0.054203153 0.73907185
0.019053122 -0.057159394 0.74208736
0.019347914 -0.060462236 0.74653536
0.017825391 0.015844792 0.69367737
0.016668806 0.012964636 0.6781649
0.016691482 0.011127681 0.67846906
0.016764807 0.009313792 0.67945248
0.016871646 0.0074985027 0.68088549
0.017006662 0.0056689084 0.68269634
0.017168302 0.0038152039 0.68486428
0.017334709 0.0019260943 0.68709624
0.017465949 -0 0.68885648
0.017549261 -0.0019499063 0.68997383
0.017618816 -0.0039152801 0.69090676
0.0176965 -0.0058988631 0.69194865
0.017784841 -0.0079043806 0.69313347
0.017880952 -0.0099338591 0.6944226
0.017985217 -0.01199013 0.69582099
0.018101685 -0.014079064 0.69738305
0.018222544 -0.01619783 0.69900417
0.018353855 -0.01835385 0.70076525
0.024726583 -0.027473956 0.78623819
0.024829378 -0.03034699 0.78761691
0.019794412 -0.037389427 0.72008651
0.020036614 -0.040073186 0.72333491
0.020296061 -0.042847216 0.72681475
0.020576783 -0.04572615 0.73057985
0.020885799 -0.048733562 0.73472452
0.021202741 -0.051828951 0.73897541
0.021435782 -0.054780304 0.74210101
0.021588696 -0.057569832 0.74415195
0.021806244 -0.060572863 0.74706978
0.022136614 -0.063950241 0.75150079
0.02009852 0.012059122 0.69720852
0.018888088 0.0094440579 0.68259734
0.018930679 0.0075722635 0.68311143
0.019027432 0.0057082176 0.68427932
0.019157693 0.0038315356 0.68585175
0.019322673 0.0019322634 0.68784326
0.019517129 -0 0.69019055
0.019697456 -0.0019697547 0.6923672
0.019830951 -0.0039662123 0.69397867
0.019912951 -0.0059738755 0.69496852
0.019996431 -0.0079985559 0.69597614
0.020089565 -0.010044754 0.6971004
0.020198559 -0.012119114 0.69841605
0.0203127 -0.014218837 0.69979393
0.020440325 -0.016352266 0.70133454
0.020578953 -0.01852107 0.70300788
0.020723594 -0.020723611 0.70475388
0.021125464 -0.023238033 0.7096048
0.022344526 -0.040220141 0.72432023
0.022620095 -0.042978197 0.72764665
0.022911983 -0.045823932 0.73117
0.023232846 -0.048788965 0.73504317
0.023580253 -0.051876545 0.73923677
0.02395081 -0.055086881 0.7437098
0.024249593 -0.058199018 0.74731636
0.024427645 -0.061069101 0.7494657
0.024665957 -0.064131439 0.75234234
0.025021946 -0.067559242 0.75663954
0.021290211 0.0077419281 0.68823028
0.02119715 0.0057810545 0.68720901
0.021264713 0.0038662851 0.68795043
0.021389332 0.0019444823 0.689318
0.021548694 -0 0.6910668
0.021749396 -0.0019772351 0.69326925
