# .PCD v0.7 - Point Cloud Data file format
VERSION 0.7
FIELDS x y z
SIZE 4 4 4
TYPE F F F
COUNT 1 1 1
WIDTH 240
HEIGHT 1
VIEWPOINT 0 0 0 1 0 0 0
POINTS 240
DATA ascii
0.02410813 -0.028362513 0.62578076
0.033002343 -0.024393022 0.6278038
0.011498762 -0.041683018 0.62810087
0.007260602 -0.043563634 0.62988436
0.0086807273 -0.041956842 0.62924069
0.01305605 -0.036266804 0.6297096
0.015905607 -0.031811208 0.62914127
0.029022025 -0.023217589 0.62976134
0.011636619 -0.03927359 0.6301809
0.011712959 -0.036602974 0.63133281
0.027852755 -0.021988988 0.63155186
0.03073195 -0.021951407 0.63124907
0.025013072 -0.022070348 0.6322065
0.011825943 -0.048782021 0.63303763
0.016332082 -0.025240481 0.63382125
0.0090980073 -0.030326694 0.63763571
0.03035208 -0.016693622 0.63778895
0.03035208 -0.016693622 0.63778895
0.03035208 -0.016693622 0.63778895
0.013800711 -0.056736261 0.63969719
0.013800711 -0.056736261 0.63969719
0.015303218 -0.019894183 0.63932407
0.010767976 -0.023074239 0.64028502
0.01229711 -0.021519899 0.64014697
0.014026648 -0.017143697 0.64272749
0.03106891 -0.010874093 0.64211535
0.0062465183 -0.02654767 0.6431033
0.051968455 -0.036220461 0.64469332
0.0094457185 -0.018891424 0.64463115
0.0094457185 -0.018891424 0.64463115
0.0047841072 -0.022325814 0.6470955
0.0048043956 -0.020819068 0.64791191
0.030546041 -0.0064307451 0.64866287
-0.0016146904 -0.027449727 0.64950824
0.017728582 -0.0096701384 0.64914602
0.019503864 -0.0081265867 0.65079165
0.022970295 -0.062347963 0.6526522
0.052574903 -0.039431155 0.65292144
0.052649237 -0.047713369 0.65320188
0.049675714 -0.041396439 0.6544776
-0.0033146979 -0.023202896 0.65465766
-0.0033146979 -0.023202896 0.65465766
0.013224319 -0.0066121221 0.65413749
0.013224319 -0.0066121221 0.65413749
0.035025105 -0.063378766 0.6559267
0.046506979 -0.054811746 0.65509397
0 -0.01826942 0.65508133
0.020178327 -0.058853447 0.6575762
0.043796096 -0.052218437 0.65793085
0.04215904 -0.059022665 0.65815979
0.035589915 -0.059316516 0.65917331
0.047482654 -0.037307769 0.65930021
0.047482654 -0.037307769 0.65930021
-0.0017232769 -0.0086163878 0.6626159
0.022342581 0.0034373403 0.66205853
0.031492647 -0.055986911 0.66579229
0.007004146 0.0017510653 0.66596669
0.015775723 0.0035057366 0.66618663
0.0035276397 0.0017638206 0.66750979
-0.005317044 -0.0053170323 0.66853929
0.015952433 0.0070899725 0.66855669
-0.0071234815 -0.0071234703 0.669568
-0.0073161745 0.0018289983 0.67538303
-0.014733982 -0.0073669851 0.67691654
-0.01101497 -0.0036716759 0.67620206
0.035050362 -0.042429388 0.67727965
-0.0074142865 0.0055607259 0.67834377
0.011256199 0.016884297 0.68105519
-0.0076482594 0.013384461 0.68540454
-0.021117203 -0.0019197464 0.68633175
-0.015363567 0.0057613552 0.68641621
-0.015363567 0.0057613552 0.68641621
0 0.017304778 0.68669504
-0.023725582 0.0039542615 0.69325882
0.0019825059 0.023790091 0.6939075
-0.022294644 0.014187515 0.69925261
-0.0020430225 0.028602302 0.70121258
-0.0082259309 0.028790772 0.70283735
-0.02901255 0.012433946 0.7047497
-0.004148447 0.031113327 0.70497888
-0.0063184057 0.033698171 0.70883095
-0.023187397 0.027403325 0.7090494
-0.023376979 0.029752553 0.71112984
-0.0087668803 0.043834418 0.71916199
-0.030798212 0.032998115 0.720146
-0.013236011 0.041914046 0.72088593
-0.011024858 0.04409942 0.72076154
-0.017681692 0.041994035 0.72139406
-0.040073406 0.024489313 0.7233361
-0.029128142 0.040331274 0.72506547
-0.029128142 0.040331274 0.72506547
-0.034176111 0.041011333 0.72962606
-0.04875556 0.031691134 0.74886376
-0.048639443 0.043775529 0.74816293
-0.034667522 0.064382553 0.75350785
-0.039909374 0.064852715 0.75569093
-0.03520643 0.067898124 0.75815451
0.019838629 -0.032592028 0.62565041
0.024570979 -0.028824717 0.62571615
0.020957237 -0.02905507 0.6271019
0.014500079 -0.042050213 0.62962931
0.030169344 -0.024422795 0.62801516
0.018991491 -0.0262959 0.63094223
0.037165929 -0.026964828 0.63053584
0.024814449 -0.023354769 0.63079613
0.024814449 -0.023354769 0.63079613
0.039436035 -0.018987715 0.63090724
0.011758998 -0.047035977 0.63202751
0.0059074736 -0.04430604 0.63287163
0.0073786639 -0.039104611 0.63273466
0.016239272 -0.02657336 0.63280284
0.0324548 -0.020653069 0.63267249
0.0324548 -0.020653069 0.63267249
0.010480784 -0.031442344 0.63533258
0.020934755 -0.02093479 0.63510144
0.0045272196 -0.036970362 0.63675916
0.015300504 -0.0550818 0.63929135
0.015300504 -0.0550818 0.63929135
0.013778628 -0.053583547 0.63940096
0.012160638 -0.024321258 0.63808775
0.0062049595 -0.029473543 0.6418491
0.0062049595 -0.029473543 0.6418491
0.010767976 -0.023074239 0.64028502
0.020878771 -0.015466377 0.641294
0.026445933 -0.014000773 0.6423806
0.02892221 -0.010944396 0.64332724
0.022651058 -0.064717337 0.64989972
0.00080181815 -0.027300149 0.64844614
0.0080160238 -0.01603204 0.64812183
0.014455197 -0.011242956 0.64847535
0.020895423 -0.0096440315 0.64862108
0.020895423 -0.0096440315 0.64862108
0.020895423 -0.0096440315 0.64862108
0.027140951 -0.060860567 0.65315259
0.045323707 -0.057074308 0.6572296
0.048692256 -0.05288814 0.65727633
0.050396364 -0.048716486 0.65737724
0.0067151641 -0.0067151785 0.65724599
0.035605319 -0.056797206 0.65926182
0.049220666 -0.047523379 0.65947586
0.013612006 -0.001701504 0.65998721
0.034203954 -0.058999926 0.66103703
0.041312121 -0.055082858 0.66238189
-0.0051836492 -0.015550941 0.66317189
0 -0.0068797767 0.66221333
0.031492647 -0.055986911 0.66579229
0.019191284 -0.052339852 0.66519731
0.040111147 -0.047086984 0.66511285
0.015643269 0.001738131 0.66441011
-0.001765818 -0.0017658174 0.66775107
0.00087879045 -0 0.66733402
0.024971645 -0.053510666 0.66990823
0.044262763 -0.042492241 0.66831744
-0.0053456929 -0.0035637915 0.66969204
0.0035587386 0.0035587251 0.6693868
0.0053716521 0.00537166 0.67073655
0.012589313 0.0071938932 0.67169285
0.012589313 0.0071938932 0.67169285
0.034342699 -0.048802793 0.67278373
0.036424953 -0.043709964 0.67444193
-0.0091234744 -0.0018246472 0.67485803
-0.018712483 -0.0074849725 0.68047756
0.0037917164 0.015166879 0.68344826
0.0075913714 0.017080635 0.68368781
-0.0057601212 0.015360355 0.68636727
-0.015842535 0.015842557 0.69364327
0.0009838657 0.021666586 0.69236046
-0.019835826 0.0099179149 0.69403756
-0.019935563 0.011961371 0.69524145
0.0040117595 0.028082341 0.696729
-0.028535903 0.0081531107 0.70063996
-0.02241504 0.01630187 0.7005738
-0.014236981 0.024406284 0.70010591
-0.010186456 0.026484817 0.70052069
-0.004148447 0.031113327 0.70497888
-0.027276194 0.018883497 0.70786929
-0.034170799 0.017085403 0.71239668
-0.028324742 0.032682389 0.71760553
-0.0086799273 0.041229665 0.71653783
-0.035221647 0.024214864 0.72032475
-0.035641421 0.028958648 0.72349167
-0.031907145 0.043302596 0.72970742
-0.039566197 0.041893631 0.73554277
-0.021204339 0.054188877 0.73899686
-0.021204339 0.054188877 0.73899686
-0.033300325 0.054707676 0.74171972
-0.021596357 0.057590276 0.74425471
-0.032685608 0.067885518 0.75809813
0.017199969 -0.037266582 0.62761629
0.014082431 -0.033686876 0.62989926
0.014082431 -0.033686876 0.62989926
0.039826427 -0.028026015 0.63265252
0.042067826 -0.026567876 0.63276601
0.0057758801 -0.034165151 0.63858789
0.013909712 -0.052547798 0.64115918
0.010229295 -0.021852663 0.64172375
0.01095332 -0.018777132 0.64348114
0.04224984 -0.018777668 0.6434871
0.033906359 -0.012327924 0.64061177
-0.001595455 -0.033504516 0.64718634
0.024415916 -0.065109134 0.65108204
0.056941926 -0.041489661 0.65098357
0.030678438 -0.06218072 0.65473801
0.010796373 -0.0066448301 0.65512395
0.03516518 -0.065306768 0.6567319
0.034334559 -0.061714616 0.65801942
0.043966018 -0.05073002 0.65871978
-0.0022516935 -0.017988395 0.65815848
0.0050273994 -0.0083789825 0.65688485
0.0059112348 -0.0059101433 0.6585418
0.022033097 0.00084966421 0.65917641
0.037636742 -0.054508954 0.66347921
0.04711647 -0.04653877 0.66269571
0.047881208 -0.042751074 0.66101837
0.048091091 -0.032633245 0.66192323
-0.0060011554 -0.017995663 0.66152102
0.03763853 -0.04966417 0.66968966
0.042664204 -0.044441849 0.6691823
-0.0065324414 -0.0059360368 0.66956031
-0.0073638735 0.0036819279 0.67682254
0.0064704483 0.011092663 0.67776513
0.0096287634 0.021183252 0.68705684
-0.0068364283 0.018555596 0.6903106
-0.019706916 0.0068993419 0.69248146
-0.020228902 0.017197832 0.69878238
-0.013064107 0.022103831 0.69715869
-0.017138124 0.025365859 0.70283574
-0.031056182 0.0093182623 0.7045188
-0.0053949081 0.041001439 0.71508789
-0.014345419 0.04193145 0.72099638
-0.03390424 0.03842479 0.72743821
-0.025208609 0.048125535 0.7312296
-0.041753978 0.033636957 0.73460633
-0.041753978 0.033636957 0.73460633
-0.04015474 0.047240883 0.73972183
-0.011819648 0.052006453 0.73994946
-0.02631264 0.057409376 0.7433449
-0.023934428 0.057442605 0.74351203
-0.046270665 0.051141262 0.74856442
-0.030413635 0.060825795 0.74829084
