# .PCD v0.7 - Point Cloud Data file format
VERSION 0.7
FIELDS x y z
SIZE 4 4 4
TYPE F F F
COUNT 1 1 1
WIDTH 248
HEIGHT 1
VIEWPOINT 0 0 0 1 0 0 0
POINTS 248
DATA ascii
0.03530116 0.062197298 0.6575135
0.026887631 0.067219079 0.65744936
0.025398485 0.062649578 0.65898919
0.028799765 0.059293598 0.65909439
0.0152912 0.067960888 0.65968806
0.025545966 0.057904184 0.66017604
0.04438664 0.059751272 0.66067255
0.04438664 0.059751272 0.66067255
0.027483173 0.051530927 0.66194248
0.030910717 0.051517874 0.66188979
0.034276657 0.053128839 0.6614759
0.020538488 0.061615497 0.66119915
0.031014714 0.049968153 0.66258723
0.041495129 0.053597897 0.6633023
0.012086624 0.056979805 0.66302431
0.024345307 0.045212716 0.66450781
0.036492214 0.048656285 0.66435981
0.028011585 0.0420174 0.66592896
0.02095904 0.043664664 0.66542959
0.052504446 0.054254621 0.66585952
0.015779704 0.045585841 0.66623998
0.022883838 0.038726509 0.66708434
0.026427673 0.038760573 0.66727138
0.035311375 0.042373657 0.66772091
0.010568539 0.047558457 0.66722047
0.014100419 0.07578975 0.66735679
0.012387129 0.042470157 0.66820633
0.032040954 0.037381083 0.6694693
0.0071336622 0.041018546 0.66987526
0.04441537 0.044415355 0.66905427
0.021472778 0.030419767 0.67059737
0.041178096 0.041178107 0.67071253
0.0089891031 0.032360762 0.67161411
0.0089891031 0.032360762 0.67161411
0.023478722 0.027090847 0.67260808
0.034334265 0.034334242 0.67273015
0.016304761 0.023551345 0.67328221
0.019962663 0.023592263 0.67366219
0.021723714 0.025344312 0.67312163
0.036278248 0.034464359 0.67355651
0.041719381 0.034463853 0.67355335
0.016420996 0.020070106 0.67484117
0.020045107 0.021867365 0.67456686
-0.0036487374 0.029189885 0.67481869
-0.0018198235 0.029117167 0.67427003
0.021912798 0.021912783 0.67502367
0.0055076061 0.018358678 0.67620689
0.020221787 0.018383443 0.67650568
0.0018472689 0.053570807 0.67758304
0.0018472689 0.053570807 0.67758304
0.0018556477 0.012989551 0.67859441
0.0037044671 0.012965679 0.6781823
-0.0055696489 0.018565506 0.67870325
0.02786696 0.02043578 0.67885387
0.031590294 0.020440757 0.67890888
0.0018600418 0.011160284 0.67912483
0.016770612 0.011180401 0.67953038
0.0074899509 0.0056174695 0.68062723
0.0093693808 0.0056216121 0.68079478
-0.011239974 0.014986664 0.68072873
-0.0037562351 0.0093905628 0.68130684
0.028164998 0.015021354 0.6812523
-0.0037699754 0.0056549609 0.68213606
0 -0.0018980801 0.68371564
0.013289638 0.0018985569 0.68376952
0.022764962 0.0094853938 0.68359578
0.0076430314 -0.0038214922 0.68524677
-0.017229587 0.001914382 0.68568629
-0.0076934467 -0.0076934397 0.68676817
0.02109341 0.0038351715 0.68607062
-0.019449156 -0.0077796578 0.68936998
0.011667679 -0.0077784359 0.6893335
0.017489554 -0.0038865507 0.68917304
0.0019513628 -0.015610904 0.69014823
-0.013744229 -0.019634634 0.69160867
-0.013744229 -0.019634634 0.69160867
-0.023575414 -0.013752341 0.69174832
0.0078455023 -0.013729632 0.6913569
-0.013782523 0.027565092 0.69226897
-0.0079153143 -0.025724739 0.69346368
-0.023771985 -0.017828971 0.69372565
-0.0059689679 -0.027855188 0.69477063
-0.013945782 -0.029883802 0.69508433
-0.013945782 -0.029883802 0.69508433
-0.011952051 -0.029880106 0.69505465
-0.012093992 -0.036281973 0.69791031
-0.020105546 -0.034179449 0.69729334
-0.0060569029 -0.034322441 0.69830883
0 -0.030309469 0.69850969
-0.030604102 -0.034684628 0.70088077
0 -0.032549083 0.70016176
-0.026474975 -0 0.70042962
-0.0081815785 -0.04090789 0.70149887
0.0020465909 -0.034792066 0.70164335
-0.0226692 -0.049460083 0.70336282
-0.002062323 -0.039184123 0.70354229
-0.022753544 -0.051712573 0.70428842
-0.033061214 -0.043392867 0.70402551
-0.0020702071 -0.041404158 0.704494
-0.035505097 -0.052213401 0.70670646
-0.0083529903 -0.048029661 0.70667166
-0.025108643 -0.058586836 0.70717138
-0.012558575 -0.052327365 0.70725691
-0.039929505 -0.04413259 0.70827782
-0.040201351 -0.059244096 0.71000493
-0.0085592857 -0.055635363 0.71289724
-0.042959388 -0.032219529 0.71388078
-0.047418583 -0.049573958 0.71477652
-0.021604342 -0.071294338 0.71538544
-0.0477993 -0.043453932 0.71686548
-0.028403157 -0.080839783 0.71833366
-0.035149276 -0.085676372 0.71977878
0.018499412 0.070634097 0.65760487
0.027407432 0.053101927 0.66137099
0.034276657 0.053128839 0.6614759
0.018796215 0.0632236 0.66086191
0.022509584 0.04848218 0.66360921
0.022509584 0.04848218 0.66360921
0.010402466 0.055479854 0.66387933
0.018966172 0.056898504 0.66272694
0.046797317 0.057196707 0.66381776
0.010396127 0.06064409 0.66375184
0.01915575 0.047018677 0.66480732
0.034822214 0.047009975 0.66476858
0.0087403776 0.050694197 0.6656093
0.024649164 0.038734376 0.66712773
0.021069285 0.040382802 0.6665386
0.031605814 0.04214111 0.66655123
0.014100419 0.07578975 0.66735679
0.0231138 0.033781737 0.66921961
0.010622313 0.045143604 0.66830236
0.0035514012 0.046168238 0.66894394
0.046993926 0.046106234 0.66865629
0.010662149 0.065749913 0.6691038
0.01981055 0.027014405 0.6719929
0.014327841 0.030446678 0.67078835
0.033944301 0.037517369 0.67025262
0.042907193 0.041119397 0.67040443
0.044748876 0.041169018 0.67066461
0.0090615796 0.025372416 0.6733638
0.028860116 0.030663878 0.67233074
-0.0018125259 0.032625496 0.67338914
0.00090478809 0.032559708 0.67294824
0.036278248 0.034464359 0.67355651
0.043373518 0.037045494 0.67274988
0.025593325 0.023765236 0.67526847
0.0092075188 0.014732063 0.67688715
0.0036795812 0.018397927 0.67668033
-0.0055243969 0.023017257 0.67688251
0 0.046222329 0.67777908
0.0055811419 0.0093019009 0.67916572
-0.0018539149 0.020393074 0.67838526
0.0075174081 0.0037586987 0.68145579
0.005616412 0.0056164265 0.68058491
-0.0056463694 0.011292756 0.68179023
-0.0056463694 0.011292756 0.68179023
-0.011233665 0.016850501 0.68060184
0.0056986515 -0.0018995404 0.68389398
-0.0075402348 0.011310339 0.68214464
-0.0038144798 -0.0038144588 0.68482214
-0.0038042278 -0.0019021034 0.68420339
-0.0095456233 0.026727796 0.68504965
-0.0076538166 0.036355644 0.68557227
-0.0019235834 -0.0096179247 0.686795
0.0077165533 -0.0077165365 0.68746555
-0.011539283 -0.0019232035 0.68675035
-0.0097337719 -0.015574038 0.689592
-0.019449156 -0.0077796578 0.68936998
0.00098052248 -0.017628178 0.69103241
-0.015647518 -0.013691604 0.69070077
0.0058597787 -0.013672799 0.69037724
0.015732756 -0.011799544 0.69198692
-0.0097823367 0.037172914 0.69076437
-0.0019795881 -0.023755044 0.69355536
-0.019779682 0.0079118907 0.69335985
-0.027811391 -0.019865304 0.69439304
0.011965343 -0.019942254 0.69532204
-0.024095191 -0.028111041 0.69697678
0.0060358355 -0.024143368 0.69746119
0.012019956 -0.022036582 0.69642079
-0.022215636 -0.036352843 0.6983856
-0.022215636 -0.036352843 0.6983856
-0.0060569029 -0.034322441 0.69830883
-0.0020233681 -0.032373905 0.69884002
-0.020458043 -0.045007646 0.70154834
-0.016293222 -0.0427697 0.70044369
-0.0020361803 -0.03461507 0.70038664
-0.022371309 0.012202531 0.70009387
-0.014433583 -0.047424614 0.70349616
-0.0041039414 -0.038987428 0.70229268
-0.020699417 -0.051748514 0.70446199
-0.035385016 -0.047873825 0.70585382
-0.033172451 -0.047685385 0.70486474
-0.035230692 -0.039375484 0.70475793
-0.020987323 -0.058764488 0.7079373
-0.031316392 -0.056369513 0.70661277
-0.027090009 -0.056263864 0.70614052
-0.035824053 -0.061111599 0.70897114
-0.0084141279 -0.050484747 0.70851666
-0.039960556 -0.048373282 0.70847511
-0.027524114 -0.0656344 0.71017134
-0.040756829 -0.072933286 0.713534
-0.023513097 -0.068401724 0.7126236
-0.044995133 -0.042852461 0.71323568
-0.044995133 -0.042852461 0.71323568
-0.0345136 -0.077655613 0.71498293
-0.039105974 -0.082557052 0.71684843
-0.0065057129 -0.056382865 0.7163676
0.022046763 0.066139668 0.65931606
0.022046763 0.066139668 0.65931606
0.028944019 0.056185454 0.66011864
0.0093943002 0.046970367 0.66722155
0.030720582 0.045790277 0.66450369
0.017358955 0.052944273 0.66413903
0.051683497 0.049901307 0.66972727
0.012440493 0.073755935 0.66912657
0.012440493 0.073755935 0.66912657
0.0176128 0.025289193 0.67264616
0.041863672 0.033669844 0.67431062
0.0018321177 0.047635108 0.67575407
0.0036393823 0.050951391 0.67425406
0.0064997575 0.010212824 0.67877448
0.01014467 0.013832107 0.67724687
-0.0093015069 0.021393776 0.67915618
-0.0064681461 0.021477371 0.67763776
-0.010363295 0.010361969 0.68205494
0.032241195 0.013275772 0.68353069
-0.011300221 0.020717084 0.68194079
0.005799938 -0.0096665621 0.68796939
-0.0031746114 -0.0031755865 0.68453085
0.022699377 -0.0032447975 0.68944734
-0.018915251 -0.02687908 0.69492757
-0.027811501 -0.01191923 0.69439405
-0.0094433203 -0.037100315 0.6988641
-0.0090311691 -0.033119664 0.69687831
0.0020054057 -0.026070297 0.69667178
-0.028446442 -0.010159463 0.69986862
-0.021642178 -0.049468234 0.70340383
-0.021642178 -0.049468234 0.70340383
-0.034338836 -0.049944669 0.70580029
-0.03756737 -0.042785347 0.70653027
-0.034101661 -0.070334673 0.71187508
-0.023384728 -0.065902442 0.7112149
-0.02631091 -0.062097207 0.70868343
-0.0056417994 -0.049390823 0.71010327
-0.042357877 -0.045534521 0.71025032
-0.050077461 -0.076204807 0.71741891
-0.015375649 -0.070288658 0.71974146
