# .PCD v0.7 - Point Cloud Data file format
VERSION 0.7
FIELDS x y z
SIZE 4 4 4
TYPE F F F
COUNT 1 1 1
WIDTH 1337
HEIGHT 1
VIEWPOINT 0 0 0 1 0 0 0
POINTS 1337
DATA ascii
-0.012302441 0.024604917 0.70210391
-0.012159386 0.022292197 0.6992259
-0.012021063 0.020035088 0.69644308
-0.0118899 0.017834842 0.69380426
-0.011763781 0.015685052 0.69126689
-0.011642701 0.013583153 0.68883097
-0.011527673 0.011527717 0.68651682
-0.011415374 0.0095128119 0.68425751
-0.011310566 0.007540375 0.68214893
-0.011207705 0.0056038797 0.68007958
-0.011110688 0.0037035942 0.67812771
-0.011017112 0.0018362105 0.67624509
-0.010926412 -2.9802322e-08 0.67442036
-0.010841812 -0.0018069446 0.67271835
-0.010758474 -0.0035861731 0.67104173
-0.010680963 -0.0053404868 0.66948235
-0.010606063 -0.0070707202 0.66797543
-0.010534124 -0.0087784231 0.66652817
-0.010467681 -0.010467678 0.66519141
-0.01040207 -0.012135774 0.66387141
-0.01036959 -0.013826072 0.6632179
-0.010319297 -0.015478939 0.66220617
-0.010270193 -0.017116964 0.66121829
-0.010221832 -0.018739998 0.6602453
-0.010179927 -0.020359844 0.65940219
-0.010144838 -0.021980435 0.65869629
-0.010113602 -0.023598403 0.65806782
-0.010091199 -0.025227964 0.65761715
-0.010078799 -0.026876807 0.65736771
-0.010078055 -0.028554469 0.65735275
-0.010096425 -0.030289292 0.65772229
-0.010151082 -0.032145113 0.65882194
-0.010393463 -0.034644902 0.66369832
-0.013066042 0.067943424 0.77004009
-0.01226971 0.061348557 0.75081497
-0.011944018 0.057331294 0.74295199
-0.011727178 0.053945035 0.73771703
-0.011557178 0.050851613 0.7336129
-0.011422046 0.04797259 0.73035049
-0.011319515 0.045278072 0.72787517
-0.011219712 0.042634904 0.72546577
-0.011084353 0.039903671 0.72219789
-0.010922049 0.037134975 0.71827948
-0.010761051 0.034435362 0.71439266
-0.010610082 0.031830281 0.71074796
-0.010464997 0.029302001 0.70724529
-0.010329453 0.026856601 0.703973
-0.010198124 0.024475515 0.70080245
-0.010075202 0.022165447 0.69783479
-0.0099557629 0.019911557 0.6949513
-0.0098433411 0.017718017 0.6922372
-0.0097345291 0.01557526 0.68961024
-0.0096309874 0.013483405 0.68711054
-0.0095316945 0.011438012 0.68471336
-0.0094356742 0.0094356835 0.68239522
-0.0093449876 0.007476002 0.68020594
-0.0092560621 0.0055536628 0.67805904
-0.0091728149 0.0036691129 0.67604929
-0.009091611 0.0018183589 0.67408884
-0.0090137823 2.9802322e-08 0.67220986
-0.0089398613 -0.0017879605 0.6704253
-0.0088671111 -0.0035468638 0.66866893
-0.0087997122 -0.0052798092 0.66704178
-0.0087338174 -0.0069870651 0.66545093
-0.0086705545 -0.0086705387 0.66392362
-0.0086113131 -0.010333598 0.66249341
-0.0085774194 -0.012008369 0.66167516
-0.0085246367 -0.01363939 0.66040087
-0.0084725274 -0.015250564 0.65914285
-0.0084248232 -0.016849667 0.65799117
-0.0083794193 -0.018434733 0.65689504
-0.0083367825 -0.020008266 0.65586567
-0.0082985098 -0.021576107 0.65494168
-0.0082620056 -0.023133606 0.65406036
-0.0082299886 -0.024689972 0.65328741
-0.008203676 -0.026251733 0.65265214
-0.0081812488 -0.027816236 0.65211076
-0.0081641888 -0.02939108 0.65169889
-0.0081562307 -0.03099364 0.65150672
-0.0081580393 -0.032632142 0.65155041
-0.0081753675 -0.034336537 0.65196872
-0.008221902 -0.036176354 0.65309221
-0.01032072 0.064504504 0.7660532
-0.010030196 0.060181201 0.75728583
-0.009412406 0.054121345 0.73864239
-0.0092116147 0.050663888 0.73258305
-0.0090652509 0.04759261 0.7281661
-0.0089473203 0.044736624 0.72460723
-0.0088534392 0.042053819 0.7217741
-0.0087821139 0.039519519 0.71962166
-0.0086994702 0.036972761 0.71712768
-0.0085907346 0.034362942 0.71384627
-0.0084671304 0.031751752 0.71011615
-0.0083461283 0.029211432 0.70646465
-0.0082335118 0.026758939 0.70306611
-0.0081243226 0.024372965 0.69977105
-0.0080227153 0.02206248 0.69670475
-0.0079236189 0.019809067 0.69371426
-0.0078311358 0.017620057 0.69092339
-0.0077409074 0.01548183 0.68820047
-0.0076559829 0.013397932 0.68563765
-0.0075736474 0.011360466 0.68315291
-0.0074950559 0.0093688071 0.68078125
-0.007419866 0.0074198544 0.67851222
-0.0073466827 0.0055100024 0.67630368
-0.0072779446 0.003638953 0.67422932
-0.00721048 0.0018025935 0.67219341
-0.0071466793 -0 0.67026806
-0.0070850253 -0.0017712414 0.66840744
-0.0070250421 -0.0035125017 0.66659737
-0.0069688801 -0.0052266717 0.66490251
-0.0069136336 -0.0069136322 0.66323525
-0.0068612071 -0.0085764825 0.66165316
-0.0068293898 -0.010244101 0.66069305
-0.0067804786 -0.011865854 0.659217
-0.0067352536 -0.013470531 0.65785217
-0.0066906507 -0.015053928 0.65650612
-0.0066490406 -0.016622603 0.65525049
-0.0066093863 -0.018175811 0.65405375
-0.0065708705 -0.019712627 0.65289146
-0.0065363208 -0.021243066 0.65184885
-0.0065023229 -0.022758126 0.65082288
-0.0064719194 -0.02426967 0.64990532
-0.0064430842 -0.025772333 0.64903516
-0.0064170961 -0.027272642 0.64825094
-0.0063940324 -0.028773159 0.64755493
-0.0063745226 -0.030278981 0.64696622
-0.0063588475 -0.03179422 0.64649314
-0.0063466481 -0.03331989 0.64612496
-0.0063419421 -0.034880698 0.64598298
-0.0063449782 -0.036483645 0.64607459
-0.0063601406 -0.038160861 0.64653218
-0.0063980184 -0.039987624 0.64767528
-0.0076537896 0.061230361 0.76256257
-0.0074242726 0.056919456 0.75332761
-0.0069909198 0.05126676 0.73589087
-0.0067992769 0.047594965 0.72817975
-0.0066777123 0.044518113 0.7232883
-0.0065816469 0.041683763 0.71942294
-0.0065040784 0.039024442 0.71630192
-0.0064430232 0.036510468 0.71384513
-0.0063927812 0.03409484 0.71182358
-0.0063288212 0.031644106 0.70924997
-0.0062474296 0.029154688 0.70597506
-0.0061596511 0.026691824 0.70244312
-0.0060746493 0.024298579 0.69902289
-0.0059953355 0.021982908 0.6958316
-0.0059185331 0.019728452 0.69274127
-0.0058466326 0.017539918 0.68984824
-0.0057765464 0.015404135 0.68702817
-0.0057110749 0.01332587 0.68439382
-0.0056470917 0.011294186 0.68181932
-0.0055868127 0.0093113482 0.67939389
-0.0055283364 0.0073710978 0.67704105
-0.0054723481 0.005472362 0.67478818
-0.0054188906 0.0036125779 0.67263728
-0.0053665051 0.0017888248 0.67052943
-0.0053175902 2.9802322e-08 0.66856122
-0.0052695586 -0.0017564893 0.6666286
-0.005223623 -0.0034823716 0.66478026
-0.0051797139 -0.0051797032 0.66301352
-0.0051365197 -0.0068486929 0.66127551
-0.0051094196 -0.0085156858 0.6601851
-0.0050699008 -0.010139793 0.65859497
-0.0050320001 -0.01174131 0.65706998
-0.0049961424 -0.013323039 0.65562713
-0.0049607912 -0.014882356 0.65420473
-0.0049278936 -0.016426295 0.65288103
-0.0048960368 -0.017952174 0.65159923
-0.0048652352 -0.019460917 0.65035987
-0.0048367195 -0.020959139 0.64921248
-0.0048089055 -0.022441596 0.64809334
-0.0047829486 -0.023914754 0.64704895
-0.0047585526 -0.025378942 0.64606732
-0.0047350759 -0.026832104 0.64512265
-0.0047143307 -0.02828595 0.64428794
-0.004693957 -0.029728383 0.64346814
-0.0046766712 -0.031177819 0.64277267
-0.0046610315 -0.032627225 0.64214331
-0.0046475669 -0.034082144 0.64160162
-0.0046373727 -0.035553187 0.64119136
-0.0046298066 -0.037038445 0.64088696
-0.0046266671 -0.038555503 0.6407606
-0.0046300492 -0.040127069 0.64089674
-0.0046422202 -0.041779995 0.64138639
-0.0046718679 -0.043604076 0.64257932
-0.0050550485 0.058133036 0.75969708
-0.0048907823 0.053798616 0.74978274
-0.0047595878 0.049975663 0.74186444
-0.0044721207 0.044721216 0.72451431
-0.0043778983 0.041590035 0.71882749
-0.004307867 0.038770825 0.71460068
-0.0042519132 0.036141247 0.7112236
-0.0042066569 0.033653259 0.70849216
-0.0041715507 0.031286657 0.70637327
-0.0041388217 0.028971761 0.70439792
-0.0040951753 0.026618659 0.70176357
-0.0040418985 0.024251372 0.69854808
-0.0039867158 0.021926969 0.69521743
-0.0039337147 0.019668579 0.69201863
-0.0038838077 0.017477155 0.68900645
-0.003835724 0.015342921 0.68610436
-0.0037903951 0.013266385 0.6833685
-0.0037463354 0.011239022 0.68070924
-0.0037050159 0.0092625618 0.67821538
-0.0036646111 0.0073292255 0.67577678
-0.0036265366 0.0054397881 0.67347878
-0.0035895794 0.0035895705 0.6712482
-0.0035540499 0.0017770231 0.6691038
-0.0035202191 2.9802322e-08 0.66706192
-0.0034870263 -0.0017434955 0.66505861
-0.0034558736 -0.0034558773 0.66317832
-0.0034254366 -0.0051381588 0.66134131
-0.0034045298 -0.0068090856 0.66007948
-0.0033765922 -0.0084414482 0.65839332
-0.0033491207 -0.010047346 0.65673524
-0.0033233282 -0.011631608 0.65517849
-0.0032982451 -0.013192981 0.65366459
-0.0032737625 -0.014731944 0.65218699
-0.0032508553 -0.016254246 0.65080434
-0.0032284015 -0.017756194 0.64944917
-0.0032069029 -0.019241422 0.64815164
-0.0031865914 -0.020712823 0.64692569
-0.0031667766 -0.022167444 0.64572978
-0.0031480675 -0.023610502 0.64460069
-0.0031302834 -0.025042236 0.64352727
-0.0031131543 -0.02646181 0.64249343
-0.0030973712 -0.027876347 0.64154083
-0.0030821648 -0.029280543 0.64062297
-0.0030680755 -0.030680746 0.63977265
-0.0030550188 -0.0320777 0.63898462
-0.0030428683 -0.033471584 0.6382513
-0.0030319986 -0.034868002 0.63759524
-0.0030227029 -0.036272407 0.63703418
-0.0030143082 -0.037678838 0.63652754
-0.0030085628 -0.039111286 0.63618076
-0.0030044077 -0.0405595 0.63592994
-0.0030025779 -0.042036086 0.63581955
-0.0030054182 -0.043578535 0.63599098
-0.0030140178 -0.045210272 0.63650995
-0.0030357051 -0.047053427 0.63781893
-0.0025112869 0.05524832 0.75773704
-0.0024195064 0.050809681 0.74665821
-0.0023502389 0.047004789 0.73829687
-0.0022267066 0.042307436 0.72338521
-0.0021559845 0.03880772 0.71484828
-0.0021179745 0.036005557 0.71026009
-0.002087716 0.033403456 0.70660752
-0.0020629182 0.030943751 0.70361418
-0.0020427974 0.028599143 0.70118541
-0.0020274264 0.026356548 0.69932991
-0.0020108616 0.024130374 0.69733036
-0.00198896 0.02187857 0.69468665
-0.00196293 0.01962927 0.69154453
-0.00193689 0.017432064 0.68840122
-0.0019120649 0.015296519 0.68540454
-0.0018884738 0.013219327 0.68255687
-0.0018658611 0.011195213 0.67982733
-0.0018444023 0.0092220306 0.67723697
-0.0018235907 0.0072943568 0.67472482
-0.0018040109 0.0054120123 0.67236131
-0.0017848407 0.0035696626 0.67004728
-0.0017667782 0.0017668009 0.66786695
-0.0017492305 -0 0.66574872
-0.0017323098 -0.0017322898 0.66370624
-0.0017162254 -0.0034324527 0.66176462
-0.0017040157 -0.005112052 0.66029084
-0.0016896646 -0.0067586601 0.65855843
-0.0016751378 -0.0083756745 0.65680492
-0.0016610408 -0.0099662244 0.65510327
-0.0016477377 -0.011534184 0.65349746
-0.0016346514 -0.013077199 0.65191782
-0.0016221603 -0.014599442 0.65041
-0.0016102007 -0.016101986 0.64896637
-0.0015984213 -0.017582655 0.64754444
-0.0015873467 -0.019048154 0.64620757
-0.0015766377 -0.020496279 0.64491498
-0.0015662491 -0.021927476 0.6436609
-0.0015563689 -0.02334553 0.64246821
-0.0015468374 -0.024749398 0.64131773
-0.0015377575 -0.026141852 0.64022166
-0.0015291058 -0.027523905 0.63917732
-0.0015208607 -0.028896332 0.63818204
-0.001512919 -0.030258358 0.63722336
-0.0015056302 -0.031618208 0.6363436
-0.001498479 -0.032966524 0.63548034
-0.0014921379 -0.034319133 0.6347149
-0.001485965 -0.035663188 0.63396978
-0.0014805568 -0.037013948 0.63331693
-0.0014754095 -0.038360655 0.63269562
-0.0014713226 -0.039725721 0.63220227
-0.0014675596 -0.041091651 0.63174802
-0.0014649472 -0.042483449 0.63143265
-0.0014633107 -0.043899328 0.63123512
-0.0014627845 -0.045346305 0.63117158
-0.0014641584 -0.046853051 0.63133746
-0.0014686667 -0.048466012 0.63188165
-0.0014804561 -0.050335482 0.63330472
0 0.052772522 0.75794101
0 0.047960192 0.74406308
0 0.044155955 0.73512912
0 0.040759891 0.72793949
0 0.036211908 0.711725
0 0.033371985 0.70637012
0 0.030790687 0.70238209
0 0.028365463 0.69917035
0 0.026055336 0.69653314
0 0.023840606 0.69441593
0 0.021697193 0.69269627
0 0.019551784 0.69060844
0 0.017398834 0.68795586
0 0.015265197 0.68493187
0 0.013184786 0.6819613
0 0.011161447 0.67914903
0 0.0091895759 0.67645353
0 0.0072664022 0.67388082
0 0.0053887963 0.67142552
0 0.0035531521 0.66904891
0 0.0017579794 0.66680515
0 2.9802322e-08 0.66460711
0 -0.0017226338 0.66253561
0 -0.0034118295 0.66052151
0 -0.005081594 0.65906596
0 -0.006714046 0.65721262
0 -0.0083172321 0.6553933
0 -0.0098949969 0.65366989
0 -0.011447281 0.65199906
0 -0.012974411 0.65036625
0 -0.014481664 0.64883071
0 -0.015965939 0.64732403
0 -0.017429829 0.64586723
0 -0.01887694 0.64448529
0 -0.020303816 0.64312798
0 -0.021715492 0.64183289
0 -0.023111761 0.64058691
0 -0.024491757 0.63937384
0 -0.025860697 0.63822502
0 -0.027216136 0.63711357
0 -0.028561324 0.63605356
0 -0.029893905 0.63502371
0 -0.031221569 0.63406354
0 -0.032538861 0.63313365
0 -0.033850789 0.63225663
0 -0.035158545 0.63143164
0 -0.036459506 0.63064003
0 -0.037764102 0.62992609
0 -0.039061666 0.6292336
0 -0.040370822 0.62864029
0 -0.041677386 0.62807739
0 -0.043000653 0.62761927
0 -0.044332787 0.62722504
0 -0.045870513 0.62763113
0 -0.04746443 0.62821805
0 -0.049120799 0.62899208
0 -0.050861835 0.63001418
0 -0.052722037 0.63137889
0 -0.054802343 0.6333878
0.0023828538 0.045274258 0.74223381
0.0023007011 0.041412652 0.73231709
0.0022377505 0.03804177 0.72471827
0.0021835901 0.034937412 0.71818054
0.0020572946 0.030859411 0.70293534
0.0020200273 0.028280377 0.69843674
0.0019913507 0.025887579 0.6949752
0.0019680257 0.023616284 0.69215965
0.0019488395 0.021437228 0.68984365
0.0019336339 0.019336373 0.68800819
0.0019199152 0.017279208 0.68635213
0.0019021791 0.015217423 0.68421125
0.0018801994 0.013161421 0.68155807
0.001856343 0.011138082 0.67867827
0.001833044 0.0091652274 0.67586595
0.0018111547 0.0072446167 0.67322361
0.0017899807 0.0053699613 0.67066765
0.001769878 0.003539741 0.66824108
0.0017505648 0.0017505586 0.66590977
0.0017319141 -0 0.66365844
0.0017142439 -0.0017142594 0.66152549
0.0017010149 -0.0034020245 0.65992856
0.0016846355 -0.0050539076 0.65795135
0.0016686965 -0.0066747665 0.65602744
0.0016532583 -0.0082663 0.65416384
0.0016386289 -0.0098317564 0.65239793
0.0016242561 -0.011369795 0.65066296
0.0016105636 -0.012884527 0.64901018
0.00159736 -0.014376223 0.64741635
0.0015844612 -0.015844584 0.6458593
0.0015721939 -0.017294168 0.64437854
0.0015602758 -0.018723279 0.64293987
0.0015485992 -0.020131797 0.64153039
0.0015376441 -0.021526992 0.64020795
0.0015268847 -0.022903264 0.63890922
0.0015164863 -0.024263769 0.63765401
0.0015065551 -0.02561143 0.63645524
0.001496874 -0.026943713 0.63528663
0.0014876925 -0.028266162 0.63417828
0.0014787146 -0.029574245 0.63309455
0.0014702203 -0.03087461 0.63206917
0.0014620407 -0.032164901 0.63108182
0.0014541291 -0.033444971 0.63012683
0.0014467502 -0.034722 0.62923616
0.0014394542 -0.035986364 0.62835544
0.0014328629 -0.037254453 0.62755978
0.0014263846 -0.038512379 0.62677777
0.0014204604 -0.039772868 0.62606269
0.0014152173 -0.041041285 0.62542975
0.0014165515 -0.042496517 0.6255908
0.0014185113 -0.043973848 0.62582737
0.0014212552 -0.045480147 0.6261586
0.0014279926 -0.04712376 0.62697184
0.0014374939 -0.048874795 0.62811881
0.0014471228 -0.0506493 0.62928104
0.0014568855 -0.0524479 0.63045955
0.0014667724 -0.054270595 0.63165301
0.0014767987 -0.056118354 0.63286328
0.0015104801 -0.058908701 0.63692898
0.0047606742 0.042846084 0.74193007
0.0045622368 0.038778991 0.72995329
0.0044281497 0.035425216 0.72186041
0.0043194699 0.032396019 0.71530098
0.0040713665 0.028499603 0.70032662
0.0039837002 0.025894046 0.69503546
0.0039211526 0.023526907 0.69126046
0.0038704386 0.021287411 0.68819958
0.0038282112 0.019141048 0.68565094
0.0037932831 0.017069787 0.68354279
0.0037666266 0.015066504 0.68193394
0.0037393779 0.013087839 0.68028933
0.0037032196 0.01110965 0.67810702
0.0036598532 0.0091496408 0.6754896
0.0036145512 0.0072291195 0.67275536
0.003570369 0.0053555667 0.67008877
0.0035291947 0.003529191 0.66760367
0.0034889716 0.0017445087 0.66517597
0.0034509993 -0 0.66288418
0.0034142637 -0.001707077 0.66066694
0.0033870263 -0.0033870339 0.65902311
0.0033532842 -0.0050299168 0.65698653
0.0033202078 -0.0066403747 0.6549902
0.0032889876 -0.0082224905 0.65310591
0.0032586146 -0.0097757876 0.65127271
0.003229162 -0.011302084 0.64949512
0.0032011787 -0.012804687 0.64780617
0.0031737869 -0.014282048 0.64615291
0.0031474538 -0.015737265 0.64456356
0.0031222359 -0.017172307 0.64304149
0.0030976105 -0.018585652 0.64155525
0.0030739182 -0.01998046 0.64012533
0.0030511441 -0.021358013 0.63875079
0.0030287777 -0.022715837 0.63740087
0.0030075773 -0.024060637 0.63612127
0.0029869303 -0.025388896 0.63487506
0.0029667669 -0.026700914 0.63365817
0.0029477507 -0.028003603 0.63251042
0.0029290367 -0.029290378 0.63138092
0.0029112278 -0.030567855 0.63030607
0.0028940111 -0.031834126 0.62926698
0.002877261 -0.033088505 0.62825596
0.0028615957 -0.03433913 0.62731045
0.0028460918 -0.035576135 0.62637472
0.002831684 -0.036811888 0.62550521
0.0028177074 -0.038039029 0.62466162
0.0028118009 -0.039365202 0.62430513
0.0028119904 -0.040773839 0.62431657
0.002813532 -0.042202979 0.62440962
0.002827947 -0.043833166 0.62527966
0.0028465777 -0.04554525 0.62640411
0.002865463 -0.047280148 0.62754393
0.0028845845 -0.049037918 0.62869799
0.0030354657 -0.053120628 0.63780451
0.0030134369 -0.054241866 0.63647491
0.0029943122 -0.055394784 0.63532066
0.0029738199 -0.056502596 0.63408387
0.0029842043 -0.058192 0.63471061
0.0030468612 -0.060937241 0.63849229
0.0068007554 0.036270708 0.72823918
0.0065790219 0.032895088 0.71931732
0.0064069703 0.02989918 0.71239454
0.0062607448 0.027129918 0.70651078
0.0059018023 0.023607224 0.6920681
0.0057952576 0.021249264 0.6877811
0.0057135746 0.019045264 0.68449438
0.005646497 0.016939491 0.68179542
0.0055904957 0.014908016 0.67954212
0.0055445908 0.012937367 0.67769504
0.0055075455 0.011015087 0.67620444
0.0054649566 0.0091082752 0.67449081
0.0054106084 0.007214129 0.67230397
0.0053466833 0.0053467155 0.66973186
0.0052822051 0.003521502 0.66713738
0.0052197538 0.0017399192 0.66462457
0.0051611033 -0 0.6622647
0.0051136492 -0.0017045438 0.66035533
0.0050621047 -0.0033747256 0.65828127
0.0050094975 -0.005009532 0.65616453
0.0049588741 -0.0066117942 0.6541276
0.0049106441 -0.008184433 0.65218699
0.0048633912 -0.0097267628 0.65028566
0.0048186774 -0.011243552 0.6484865
0.0047752038 -0.012733877 0.64673728
0.0047331196 -0.014199346 0.64504397
0.0046928418 -0.015642822 0.64342332
0.0046536326 -0.017063349 0.6418457
0.004615684 -0.018462718 0.64031875
0.0045794663 -0.019844353 0.63886148
0.0045441426 -0.021205962 0.63744009
0.0045098206 -0.022549093 0.63605905
0.0044771349 -0.023878038 0.63474387
0.0044450238 -0.025188476 0.63345188
0.0044141756 -0.026485056 0.63221067
0.0043844953 -0.027768463 0.63101637
0.0043552872 -0.02903524 0.62984109
0.0043277503 -0.03029424 0.6287331
0.0043007685 -0.031538963 0.62764746
0.0042746691 -0.032772452 0.62659734
0.0042499192 -0.033999354 0.62560153
0.0042254543 -0.0352121 0.6246171
0.004202575 -0.036422312 0.62369651
0.0041956562 -0.037760884 0.62341803
0.0041937921 -0.039142042 0.62334305
0.0042006816 -0.040606588 0.62362027
0.0050370321 -0.050370306 0.65727246
0.0049738591 -0.051396549 0.65473056
0.0042839777 -0.045695737 0.62697184
0.0043124822 -0.04743731 0.62811881
0.0048653139 -0.055140227 0.65036309
0.0048406497 -0.056474239 0.64937067
0.0045188898 -0.054226682 0.63642395
0.004473892 -0.055178016 0.63461345
0.0044608889 -0.056504622 0.63409024
0.0044918046 -0.058393478 0.63533413
0.0045231655 -0.060308874 0.63659602
0.0090468517 0.033925712 0.72761083
0.0087003782 0.030451328 0.7171551
0.0084563624 0.027483195 0.70979118
0.0082571534 0.024771482 0.70377958
0.0077994592 0.021448523 0.68996745
0.0076241358 0.019060314 0.68467659
0.0075054271 0.016887218 0.68109423
0.0074085505 0.014817148 0.67817068
0.0073277731 0.012823582 0.67573309
0.0072619938 0.010893017 0.67374796
0.0072086887 0.0090108812 0.67213929
0.0071616648 0.0071616471 0.67072028
0.0071031293 0.0053273439 0.66895384
0.0070303972 0.0035152137 0.66675895
0.0069478094 0.0017369092 0.66426665
0.0068661496 2.9802322e-08 0.66180229
0.006804314 -0.001701057 0.65993631
0.0067297057 -0.0033648908 0.6576848
0.0066567366 -0.0049925447 0.65548277
0.0065882392 -0.0065882206 0.65341562
0.0065214126 -0.0081517696 0.6513989
0.0064572194 -0.009685874 0.64946175
0.0063958513 -0.011192739 0.64760977
0.0063358988 -0.012671798 0.64580059
0.0062787933 -0.014127284 0.6440773
0.0062234239 -0.015558541 0.64240634
0.0061699157 -0.016967267 0.64079165
0.006118312 -0.018354923 0.6392343
0.0060683917 -0.019722223 0.6377278
0.0060199848 -0.021069944 0.63626707
0.0059734327 -0.022400349 0.63486218
0.0059283841 -0.023713529 0.63350272
0.0058841659 -0.025007695 0.63216829
0.0058423928 -0.026290774 0.63090771
0.0058013769 -0.027556539 0.62966996
0.0057614301 -0.028807163 0.62846446
0.0057235183 -0.03004846 0.62732035
0.0056861029 -0.031273574 0.62619126
0.0056503695 -0.032489657 0.62511289
0.00561587 -0.033695251 0.62407184
0.0055817892 -0.034886152 0.6230433
0.0055721542 -0.036219001 0.62275255
0.005566312 -0.037572622 0.62257624
0.0055828015 -0.039079577 0.62307382
0.0070617767 -0.051197886 0.66770589
0.0069815698 -0.052361757 0.66528547
0.0069013555 -0.053485543 0.6628648
0.0066150222 -0.052920192 0.65422386
0.0065224539 -0.053810269 0.65143043
0.0064544915 -0.054863185 0.64937937
0.0064040162 -0.056035146 0.64785624
0.0063629309 -0.057266369 0.64661634
0.0063274661 -0.058529049 0.64554608
0.0059683733 -0.056699574 0.63470954
0.0062399548 -0.060839534 0.64290524
0.0061573503 -0.061573505 0.64041239
0.0060946872 -0.06247054 0.63852143
0.010808752 0.028102756 0.71554428
0.010474768 0.025139421 0.70748121
0.010212361 0.022467226 0.70114613
0.0099889142 0.019977838 0.69575167
0.0094239088 0.016963035 0.68211126
0.0092546931 0.014807463 0.67802602
0.0091247717 0.012774706 0.67488933
0.0090174219 0.010820925 0.67229772
0.0089265592 0.0089265704 0.67010415
0.008849985 0.0070799887 0.66825545
0.0087919189 0.0052751601 0.66685361
0.0087341229 0.0034936368 0.66545832
0.0086594503 0.0017319322 0.66365552
0.0085686948 -0 0.66146451
0.0084908726 -0.0016981363 0.65958571
0.0083934488 -0.0033573508 0.65723372
0.008300134 -0.0049800873 0.6549809
0.008211269 -0.0065690279 0.65283549
0.008124657 -0.0081246495 0.65074444
0.0080431867 -0.0096518099 0.6487776
0.0079634618 -0.01114884 0.64685285
0.0078871902 -0.012619495 0.64501154
0.0078138057 -0.014064848 0.64323992
0.0077424212 -0.01548484 0.64151657
0.007673976 -0.016882747 0.63986409
0.0076077953 -0.018258691 0.63826632
0.0075439513 -0.019614279 0.63672501
0.0074819303 -0.020949394 0.63522774
0.0074222642 -0.022266805 0.63378727
0.0073643224 -0.023565799 0.63238841
0.0073081749 -0.024847806 0.63103288
0.0072542652 -0.026115358 0.62973142
0.0072012898 -0.02736485 0.62845242
0.0071506971 -0.028602809 0.62723106
0.0071015353 -0.029826432 0.62604415
0.007053046 -0.031033427 0.62487352
0.0070075877 -0.032234907 0.62377602
0.0069626924 -0.033420891 0.62269217
0.0069446792 -0.034723401 0.62225735
0.0069345729 -0.036059797 0.62201333
0.0069560329 -0.037562549 0.62253141
0.0088554043 -0.04959026 0.66838622
0.0088179177 -0.051143944 0.66748136
0.0087646293 -0.052587777 0.6661948
0.0086753657 -0.053787231 0.66403973
0.0085796257 -0.054909587 0.66172838
0.0084831854 -0.055989027 0.65940017
0.0083874259 -0.057034522 0.65708828
0.008031155 -0.056218058 0.64848715
0.007931524 -0.057106972 0.64608186
0.0078608962 -0.058170632 0.64437675
0.0078062229 -0.059327275 0.64305681
0.0077591343 -0.06052123 0.64191997
0.0077208923 -0.061767161 0.64099675
0.0076724463 -0.062914044 0.63982713
0.012936018 0.025872022 0.71485054
0.012470932 0.022863418 0.70549369
0.012136479 0.020227462 0.69876504
0.011861525 0.017792284 0.69323343
0.011225936 0.014967918 0.68044633
0.010965323 0.012792856 0.6752032
0.010794449 0.010794461 0.67176551
0.01065772 0.0088814795 0.66901469
0.010543929 0.007029295 0.6667254
0.010447246 0.0052236319 0.66478026
0.010366439 0.0034554899 0.6631546
0.010300885 0.0017168224 0.66183567
0.010268822 -0 0.66119075
0.010178339 -0.001696378 0.6593703
0.010057292 -0.0033524036 0.65693504
0.0099425791 -0.0049712658 0.65462714
0.0098312264 -0.0065541267 0.65238696
0.009725458 -0.0081045032 0.65025902
0.0096237613 -0.0096237361 0.64821303
0.0095251668 -0.01111266 0.64622945
0.009431771 -0.012575686 0.64435053
0.0093403934 -0.014010578 0.64251208
0.0092533054 -0.015422165 0.64076006
0.0091689751 -0.016809791 0.63906348
0.0090872953 -0.018174589 0.63742018
0.0090086525 -0.019518763 0.63583803
0.0089324489 -0.020842373 0.63430488
0.0088592498 -0.022148132 0.63283229
0.0087875994 -0.023433596 0.63139075
0.0087190997 -0.024704099 0.63001263
0.008652457 -0.025957376 0.62867188
0.0085873893 -0.027193397 0.62736285
0.0085254004 -0.028418005 0.62611574
0.0084644184 -0.029625475 0.6248889
0.0084055737 -0.030820429 0.62370497
0.0083489576 -0.032004356 0.62256598
0.0083168074 -0.03326723 0.62191916
0.0083020879 -0.034592032 0.62162304
0.0083204499 -0.036055267 0.62199241
0.0083742253 -0.037683994 0.62307429
0.010558206 -0.049271613 0.66701257
0.010481715 -0.050661623 0.6654737
0.010417085 -0.052085429 0.66417348
0.010365115 -0.053553075 0.66312796
0.010320823 -0.055044413 0.66223681
0.010234271 -0.056288511 0.66049558
0.010123287 -0.057365298 0.65826273
0.010013247 -0.058410615 0.65604895
0.0099031562 -0.059418932 0.65383404
0.0095001189 -0.058584049 0.64572555
0.0093703913 -0.059345782 0.64311564
0.0092722531 -0.060269654 0.6411413
0.0091993185 -0.061328784 0.63967389
0.0092069637 -0.062914252 0.63982773
0.0092728259 -0.064909801 0.6411528
0.015257697 0.023976386 0.71770751
0.014461294 0.02065897 0.70397407
0.014036995 0.018047571 0.69665718
0.01369961 0.01565668 0.69083923
0.013411001 0.013411015 0.6858623
0.012662591 0.010853648 0.67295647
0.012436259 0.008883059 0.66905349
0.012262318 0.0070070028 0.66605401
0.012117778 0.0051933527 0.66356152
0.011994243 0.0034269392 0.66143125
0.01194817 0.0017068982 0.66063666
0.012007318 -0 0.66165668
0.011874367 -0.0016963482 0.65936399
0.011728163 -0.0033508837 0.65684283
0.011586743 -0.0049657524 0.65440416
0.011452626 -0.0065443218 0.65209132
0.011325711 -0.0080897808 0.64990282
0.011202225 -0.009601891 0.64777339
0.011085121 -0.011085123 0.64575398
0.010971951 -0.012539357 0.64380246
0.010862652 -0.013966262 0.64191765
0.01075845 -0.015369207 0.64012074
0.01065652 -0.016745955 0.638363
0.010559749 -0.018102407 0.63669425
0.010465438 -0.019435823 0.63506794
0.010374487 -0.020748973 0.63349956
0.010286615 -0.022042722 0.63198423
0.010201169 -0.02331692 0.63051081
0.010119499 -0.024575889 0.62910241
0.01003924 -0.025815219 0.62771839
0.0099624265 -0.027040869 0.6263938
0.0098878397 -0.028250962 0.62510765
0.009814471 -0.029443413 0.62384242
0.0097451117 -0.030627519 0.62264633
0.0096927658 -0.031847686 0.62174368
0.009671675 -0.033160001 0.62137997
0.0096761631 -0.0345577 0.62145734
0.012635776 -0.046932876 0.67249405
0.0098015899 -0.037806153 0.62362027
0.012354491 -0.049417973 0.66764349
0.012219496 -0.050623596 0.66531557
0.012090881 -0.051818043 0.66309768
0.011995392 -0.053122461 0.66145104
0.011919626 -0.054489702 0.66014445
0.011855556 -0.055890471 0.65903968
0.011810103 -0.057363361 0.65825582
0.011733624 -0.058668107 0.65693706
0.011616141 -0.059740141 0.6549111
0.011493477 -0.060751215 0.65279579
0.011369683 -0.061721131 0.65066111
0.011246938 -0.062661484 0.64854443
0.010776424 -0.061579555 0.64043069
0.010779741 -0.0631385 0.64048791
0.01085713 -0.065142781 0.64182246
0.016477868 0.018537611 0.70322978
0.015920794 0.015920788 0.69482416
0.015511752 0.013572782 0.68865216
0.015173248 0.011379957 0.68354452
0.014404044 0.0090025365 0.67193818
0.014049246 0.0070246458 0.66658473
0.013829178 0.0051859319 0.6632641
0.013655005 0.0034137368 0.66063607
0.013692606 0.0017115772 0.66120338
0.013754619 -0 0.66213912
0.013583644 -0.0016979575 0.65955937
0.01340842 -0.0033521056 0.65691531
0.013240241 -0.0049650669 0.65437776
0.013081144 -0.0065405965 0.65197712
0.012928579 -0.0080803633 0.64967513
0.012783123 -0.0095873475 0.64748037
0.012645017 -0.01106441 0.64539647
0.012510763 -0.012510747 0.64337075
0.01238362 -0.013931572 0.64145231
0.012260123 -0.015325159 0.63958889
0.012141274 -0.016694278 0.63779563
0.012027272 -0.018040866 0.63607544
0.011915889 -0.019363314 0.63439476
0.011810347 -0.020668089 0.63280231
0.01170693 -0.021950483 0.6312418
0.011607631 -0.023215264 0.62974358
0.011511361 -0.024461627 0.62829095
0.011417456 -0.025689274 0.62687409
0.011328083 -0.026904196 0.62552547
0.011240066 -0.028100163 0.62419742
0.01115549 -0.029283166 0.62292123
0.011074474 -0.030454785 0.62169886
0.011046357 -0.031758279 0.62127459
0.011023178 -0.033069521 0.62092483
0.014822752 -0.046321064 0.67825598
0.014645948 -0.047599316 0.67558825
0.014403785 -0.048612773 0.67193425
0.014185014 -0.04964754 0.66863328
0.014017858 -0.050814688 0.66611105
0.013866544 -0.051999509 0.6638279
0.013719168 -0.05316177 0.66160417
0.013572683 -0.054290712 0.65939385
0.013454705 -0.055500686 0.65761375
0.013367672 -0.056812614 0.65630054
0.013290753 -0.058147043 0.65513986
0.013233457 -0.059550554 0.65427536
0.013172748 -0.060923964 0.65335941
0.013060655 -0.062038109 0.65166801
0.012924948 -0.063009113 0.64962029
0.012790231 -0.063951164 0.6475876
0.012655453 -0.064859182 0.64555395
0.012519998 -0.065729991 0.6435101
0.018641815 0.016570479 0.70462745
0.017803755 0.013847381 0.69338721
0.017306795 0.01153785 0.6867218
0.016906928 0.0093927681 0.6813587
0.016563416 0.0073615313 0.67675138
0.015653165 0.0052177012 0.66454285
0.015372211 0.0034160614 0.66077459
0.015446664 0.0017163157 0.6617732
0.015517135 -0 0.66271836
0.015312934 -0.0017014444 0.65997958
0.015105115 -0.0033566654 0.65719223
0.01490671 -0.0049689114 0.65453118
0.014719076 -0.0065417886 0.65201449
0.014541175 -0.0080783963 0.64962852
0.014370551 -0.009580344 0.64734006
0.014208455 -0.011050999 0.64516592
0.014053219 -0.012491733 0.64308387
0.013904857 -0.01390487 0.64109403
0.013760986 -0.015289962 0.63916433
0.013624962 -0.016652703 0.63733995
0.013492169 -0.017989576 0.63555896
0.013364834 -0.019304723 0.63385105
0.013242021 -0.02059868 0.63220382
0.013122401 -0.021870643 0.63059944
0.013008603 -0.023126394 0.6290732
0.012896874 -0.024360776 0.62757468
0.012790062 -0.025580108 0.62614202
0.012686147 -0.026781857 0.62474829
0.012584647 -0.027965873 0.62338698
0.012488117 -0.029138893 0.62209225
0.012430068 -0.0303846 0.62131369
0.012397319 -0.031682044 0.62087446
0.012440747 -0.033175349 0.62145698
0.016669733 -0.046304792 0.67817736
0.016522637 -0.047732025 0.67620438
0.016365318 -0.049095958 0.67409444
0.016182072 -0.050344229 0.6716367
0.015936118 -0.051349699 0.66833788
0.015682001 -0.052273363 0.66492957
0.015492099 -0.053361684 0.6623826
0.015325077 -0.054489166 0.66014242
0.015166008 -0.05560869 0.65800893
0.015006507 -0.056691229 0.65586966
0.014865621 -0.057810724 0.65398002
0.014763374 -0.059053481 0.65260869
0.014676861 -0.060338169 0.65144831
0.014604367 -0.061662868 0.65047604
0.01455189 -0.063058168 0.64977217
0.014453063 -0.064235806 0.64844668
0.014311272 -0.065195799 0.64654493
0.014166394 -0.066109821 0.64460182
0.019716861 0.011830121 0.69260144
0.019089209 0.009544611 0.68502498
0.018618483 0.0074473917 0.67934287
0.018226475 0.0054679513 0.67461091
0.017420927 0.0034841597 0.66488713
0.017210422 0.0017210543 0.66234612
0.017297648 -0 0.66339904
0.017073125 -0.0017073154 0.66068876
0.01682613 -0.0033651888 0.65770727
0.016592562 -0.0049777627 0.65488791
0.016372992 -0.0065491796 0.65223742
0.016166363 -0.0080831945 0.6497432
0.015967686 -0.0095805824 0.64734495
0.015781695 -0.011047184 0.64509988
0.015600958 -0.012480736 0.64291817
0.015430737 -0.013887674 0.64086342
0.015266703 -0.015266687 0.63888335
0.015109635 -0.016620606 0.63698733
0.014957242 -0.017948657 0.63514781
0.01481293 -0.0192568 0.6334058
0.014671637 -0.020540327 0.63170028
0.014536856 -0.021805286 0.63007325
0.014406022 -0.023049623 0.62849402
0.014279028 -0.024274349 0.62696099
0.014157739 -0.025483906 0.62549692
0.014038494 -0.026673108 0.62405753
0.013924842 -0.027849704 0.62268561
0.013824734 -0.029031932 0.62147719
0.013783868 -0.030324489 0.62098396
0.01377901 -0.03169173 0.62092531
0.013867378 -0.033281714 0.62199199
0.018487774 -0.046219438 0.67776513
0.018331246 -0.047661245 0.6758756
0.018171204 -0.049062282 0.67394376
0.018013936 -0.050439 0.67204535
0.017847834 -0.051758736 0.67004037
0.01766061 -0.052981824 0.66778034
0.017417107 -0.053993016 0.664841
0.017128062 -0.054809809 0.66135192
0.016915265 -0.055820376 0.65878326
0.016733116 -0.056892604 0.6565845
0.016563395 -0.057971925 0.65453577
0.016393216 -0.059015587 0.65248156
0.01623155 -0.060056701 0.65053004
0.016110094 -0.061218366 0.64906394
0.016013166 -0.062451348 0.64789391
0.015929306 -0.063717201 0.64688164
0.01586823 -0.065059721 0.64614439
0.015789563 -0.066316158 0.64519477
0.021742437 0.0098829269 0.69319284
0.020873897 0.0075905025 0.68366176
0.020318834 0.0055415034 0.6775707
0.019866826 0.0036121607 0.67261052
0.019476786 0.0017706156 0.66833031
0.019089445 2.9802322e-08 0.66407967
0.018876797 -0.0017160773 0.6617462
0.018581664 -0.0033784807 0.65850753
0.01830633 -0.0049926341 0.65548605
0.018050218 -0.0065637231 0.65267563
0.017810332 -0.0080955923 0.65004313
0.017580781 -0.0095894933 0.64752406
0.017367093 -0.011051774 0.64517915
0.017160678 -0.012480497 0.64291406
0.016965911 -0.013881177 0.64077669
0.016777761 -0.015252501 0.63871205
0.016599046 -0.016599059 0.63675088
0.016427282 -0.017920643 0.63486594
0.016262496 -0.019219309 0.63305765
0.016102822 -0.020494521 0.6313054
0.015950872 -0.021751195 0.62963796
0.015801901 -0.022984594 0.62800324
0.015660452 -0.024202526 0.62645102
0.01552239 -0.025400281 0.62493593
0.015388804 -0.026580662 0.62346995
0.015260713 -0.027746767 0.62206435
0.015184216 -0.028988034 0.62122488
0.015138067 -0.03027612 0.62071854
0.020614104 -0.043102235 0.68081093
0.020447157 -0.04461199 0.67897892
0.020282967 -0.046097636 0.67717707
0.020119334 -0.047554791 0.67538142
0.019951373 -0.048971534 0.67353821
0.019786052 -0.050364524 0.67172408
0.019616872 -0.051717222 0.66986758
0.019450219 -0.053046048 0.66803873
0.019276578 -0.054324895 0.66613328
0.019083025 -0.055514246 0.66400927
0.018850289 -0.05655089 0.66145527
0.018526312 -0.057263166 0.65790009
0.018290028 -0.058195561 0.65530717
0.018095084 -0.059220254 0.65316784
0.017913688 -0.06025514 0.65117735
0.01773401 -0.061262935 0.64920557
0.017556107 -0.062244385 0.64725333
0.017412422 -0.06331788 0.64567661
0.017305171 -0.064501077 0.64449966
0.017309744 -0.066091731 0.64454985
0.022690373 0.005672574 0.68284547
0.022009267 0.0036682189 0.67599404
0.021487609 0.0017906129 0.67074656
0.021050375 2.9802322e-08 0.66634834
0.020739682 -0.0017282665 0.66322303
0.020385705 -0.0033976138 0.65966231
0.020058675 -0.005014658 0.65637261
0.019760294 -0.0065867603 0.65337116
0.019480957 -0.0081170797 0.65056127
0.019216169 -0.0096080899 0.64789772
0.018970583 -0.011066169 0.64542723
0.018735461 -0.012490302 0.64306211
0.018513002 -0.013884753 0.64082432
0.018300613 -0.015250534 0.63868791
0.018097516 -0.016589373 0.63664484
0.017903306 -0.017903268 0.63469124
0.017716929 -0.019193321 0.63281649
0.017538493 -0.020461559 0.6310215
0.017366728 -0.021708399 0.62929374
0.01720061 -0.022934109 0.62762266
0.017041847 -0.024142593 0.62602568
0.016885942 -0.025328904 0.62445736
0.016738599 -0.026502758 0.62297523
0.016601009 -0.027668327 0.62159121
0.016545838 -0.028955191 0.62103617
0.016534813 -0.03031379 0.62092531
0.022400526 -0.042934328 0.67992985
0.022230012 -0.044460028 0.67821461
0.022056403 -0.04595083 0.67646819
0.021880617 -0.047407985 0.6746999
0.021708241 -0.048843533 0.672966
0.021537013 -0.050253034 0.67124349
0.021360485 -0.051621169 0.66946781
0.021186825 -0.052967072 0.66772091
0.021009715 -0.054275095 0.66593939
0.020834461 -0.055558592 0.6641764
0.020654498 -0.056799889 0.66236615
0.02045599 -0.057958633 0.66036928
0.020221414 -0.058979094 0.65800959
0.019897349 -0.05969204 0.65474981
0.019625949 -0.060513318 0.65201968
0.019413058 -0.061474681 0.6498782
0.019218445 -0.062459946 0.64792055
0.019030169 -0.063433871 0.64602661
0.018841404 -0.064374804 0.64412779
0.018952379 -0.066333324 0.64524418
0.024616588 0.0037871599 0.68317372
0.02370383 0.0018233657 0.67469835
0.023102308 -0 0.66911292
0.022706816 -0.0017466545 0.66544062
0.022265185 -0.0034253895 0.66133988
0.021870881 -0.0050471425 0.6576786
0.021516388 -0.0066204071 0.654387
0.021188445 -0.0081493855 0.65134192
0.020882143 -0.009637922 0.64849776
0.020599497 -0.011092007 0.64587325
0.020331135 -0.012511462 0.64338136
0.020077541 -0.013899803 0.64102662
0.01983794 -0.015259981 0.63880187
0.019607652 -0.016591072 0.6366635
0.019390507 -0.017898917 0.63464725
0.019180041 -0.01918003 0.63269299
0.018980905 -0.020440996 0.63084394
0.01878749 -0.021677881 0.62904799
0.018603776 -0.022896975 0.6273421
0.018425342 -0.024094671 0.62568527
0.018253779 -0.025274485 0.62409222
0.018088652 -0.026437283 0.62255901
0.017971806 -0.027648926 0.62147397
0.017910691 -0.028932661 0.62090647
0.024325864 -0.041166842 0.68047416
0.024153428 -0.042732984 0.67887306
0.023978643 -0.04426825 0.67725009
0.023802537 -0.045774102 0.67561489
0.023624539 -0.047249049 0.67396206
0.023444535 -0.048692495 0.67229068
0.02326043 -0.050099403 0.6705811
0.023080584 -0.051487446 0.66891116
0.02290245 -0.052851826 0.66725719
0.022718236 -0.054174274 0.66554666
0.022536881 -0.055475414 0.66386271
0.022352716 -0.056741506 0.66215271
0.02216957 -0.057981908 0.66045201
0.021984123 -0.059188038 0.65873015
0.021782042 -0.060319513 0.65685368
0.021545395 -0.061321497 0.65465629
0.021226475 -0.062046632 0.65169501
0.020921636 -0.062764883 0.64886439
0.020688143 -0.063655794 0.64669633
0.020480674 -0.064592928 0.64476997
0.020607132 -0.066576898 0.64594412
0.025429714 -0 0.67385775
0.024709158 -0.0017649531 0.66764498
0.02426267 -0.0034661293 0.66379535
0.023767587 -0.0050930679 0.65952659
0.023335755 -0.0066673756 0.65580326
0.022946591 -0.0081952214 0.65244782
0.022591375 -0.0096820593 0.64938509
0.022263251 -0.011131644 0.6465559
0.02195539 -0.012545943 0.64390147
0.021666441 -0.013928413 0.64141011
0.02139519 -0.015282273 0.63907129
0.021134535 -0.016605705 0.63682389
0.020891674 -0.017907172 0.63472992
0.020655612 -0.019180208 0.6326946
0.020433642 -0.020433635 0.6307807
0.020217326 -0.021661431 0.62891555
0.020013427 -0.022872508 0.62715751
0.019813882 -0.024059713 0.62543702
0.019625587 -0.025232881 0.62381351
0.019441107 -0.026384354 0.62222284
0.019349227 -0.027641773 0.62143064
0.019290615 -0.028935909 0.62092525
0.026046297 -0.040929914 0.67917407
0.025872178 -0.042504311 0.6776728
0.025694806 -0.04404822 0.67614347
0.025516137 -0.045564532 0.67460293
0.025334341 -0.047049493 0.6730355
0.025151866 -0.048507154 0.67146212
0.024967019 -0.049934 0.66986835
0.02478127 -0.051332623 0.66826683
0.024590068 -0.05269295 0.66661817
0.024402892 -0.054034978 0.66500431
0.024218632 -0.05535686 0.66341561
0.024027238 -0.056635618 0.66176534
0.023838928 -0.057894528 0.66014171
0.023648435 -0.059121072 0.65849924
0.023458054 -0.060320675 0.65685779
0.02326801 -0.061494008 0.6552192
0.023063544 -0.06260106 0.65345621
0.022826506 -0.063588127 0.65141243
0.022515133 -0.064328939 0.64872772
0.022176629 -0.064945847 0.64580905
0.022273941 -0.066821828 0.64664811
0.027259085 -0.0018172562 0.67396212
0.026507381 -0.003534317 0.66791284
0.025811462 -0.0051622689 0.66231251
0.025261281 -0.0067363381 0.65788502
0.024784954 -0.0082616508 0.65405178
0.024359651 -0.0097438395 0.65062928
0.023974864 -0.011188269 0.6475327
0.023618236 -0.012596399 0.6446628
0.023288235 -0.013972878 0.64200717
0.022979496 -0.015319675 0.63952267
0.022685757 -0.016636223 0.63715881
0.022411944 -0.017929554 0.63495529
0.022148777 -0.019195616 0.63283753
0.021899896 -0.020439893 0.63083464
0.021660795 -0.021660745 0.62891054
0.021432856 -0.022861689 0.62707615
0.021213079 -0.024041504 0.62530762
0.021003641 -0.02520439 0.62362218
0.020811681 -0.026361436 0.62207735
0.020733204 -0.027644277 0.62144589
0.020734636 -0.029028505 0.6214574
0.027727358 -0.040666789 0.67773056
0.027553702 -0.042249024 0.67633301
0.027375713 -0.043801099 0.67490059
0.027195968 -0.04532662 0.67345417
0.027012151 -0.046821058 0.6719749
0.026827829 -0.048290104 0.6704917
0.026639666 -0.04972738 0.66897744
0.026451517 -0.051139593 0.6674633
0.026260216 -0.052520454 0.66592383
0.026068492 -0.05387488 0.66438091
0.025872055 -0.055193692 0.66280013
0.025677852 -0.056491256 0.6612373
0.025487756 -0.057772249 0.65970755
0.025290223 -0.059010535 0.65811795
0.025095476 -0.060229123 0.65655077
0.024899328 -0.06141834 0.65497226
0.024702318 -0.062579185 0.65338683
0.024508402 -0.063721836 0.65182632
0.024299318 -0.064798191 0.65014374
0.024063801 -0.065774411 0.64824843
0.023953211 -0.067068979 0.64735848
0.028215149 -0.0052903295 0.66746479
0.027372105 -0.0068430007 0.6611045
0.026743919 -0.0083574653 0.65636522
0.026215916 -0.0098309517 0.65238172
0.025753599 -0.011267185 0.64889377
0.025335174 -0.012667567 0.64573705
0.024954531 -0.014036924 0.6428653
0.024600264 -0.015375167 0.64019263
0.02426709 -0.016683638 0.63767898
0.023958085 -0.017968535 0.63534766
0.023663489 -0.019226581 0.63312519
0.023384385 -0.020461351 0.63101947
0.02311966 -0.021674693 0.6290223
0.022865368 -0.022865325 0.62710381
0.022624088 -0.024038076 0.62528348
0.022390913 -0.025189757 0.62352437
0.022213291 -0.026378304 0.62218428
0.022125809 -0.02765727 0.62152427
0.029004302 -0.038068175 0.67341852
0.028783644 -0.039577484 0.67175376
0.029194478 -0.041967064 0.67485321
0.029018179 -0.043527246 0.67352319
0.02883943 -0.045061588 0.67217457
0.028655579 -0.046565294 0.67078757
0.028470617 -0.048044175 0.66939211
0.028280934 -0.049491644 0.66796112
0.028091395 -0.050915688 0.66653121
0.027897282 -0.052307367 0.6650666
0.02770401 -0.053676486 0.66360855
0.027506875 -0.055013746 0.6621213
0.027309636 -0.056326121 0.66063321
0.027108597 -0.057605773 0.65911651
0.026908236 -0.058861762 0.65760487
0.026712239 -0.060102522 0.6561262
0.026509507 -0.061303228 0.65459669
0.026308788 -0.062483355 0.65308243
0.026107596 -0.063637242 0.65156454
0.025904512 -0.064761266 0.6500324
0.025704565 -0.065867916 0.64852393
0.03009985 -0.0070822835 0.66832578
0.02895111 -0.0085150301 0.66016901
0.028221952 -0.009960711 0.65499151
0.027639272 -0.011380881 0.65085411
0.027133634 -0.012768805 0.64726382
0.026681524 -0.014125496 0.64405346
0.026270328 -0.01545313 0.64113379
0.025889099 -0.016751766 0.63842678
0.025538463 -0.018027157 0.63593709
0.025206534 -0.019275576 0.63358021
0.02489339 -0.020500422 0.6313566
0.024599165 -0.021705151 0.62926745
0.024315218 -0.022884905 0.62725127
0.024049921 -0.024049938 0.62536746
0.023790812 -0.025190264 0.62352765
0.023626272 -0.026405811 0.62235928
0.023529349 -0.027681589 0.62167108
0.023650577 -0.029215425 0.62253189
0.030553401 -0.039539695 0.67154628
0.030216504 -0.040881127 0.66915405
0.030016048 -0.042375565 0.66773069
0.030442303 -0.044768095 0.67075741
0.030261332 -0.046282053 0.66947234
0.030076968 -0.047769278 0.66816324
0.029888427 -0.049227983 0.66682452
0.029698713 -0.050662518 0.66547745
0.029503608 -0.052065164 0.66409212
0.029309439 -0.053446651 0.66271335
0.029109932 -0.054795146 0.66129673
0.028911944 -0.056123197 0.65989089
0.028709462 -0.057418942 0.65845317
0.028507216 -0.058691323 0.65701699
0.028302239 -0.059934154 0.65556157
0.028096663 -0.061151564 0.65410191
0.027894696 -0.062352821 0.65266776
0.027687224 -0.063517734 0.65119463
0.027481217 -0.064661697 0.64973187
0.027275544 -0.06578216 0.64827144
0.030583128 -0.010194391 0.65969294
0.029713294 -0.011555165 0.65385973
0.029054955 -0.012913287 0.64944476
0.028499186 -0.014249593 0.64571774
0.028010806 -0.015561521 0.64244252
0.027569065 -0.016847759 0.63948017
0.027164614 -0.018109709 0.63676786
0.026787225 -0.019346356 0.63423705
0.026434837 -0.020560414 0.63187385
0.026105665 -0.021754712 0.62966639
0.025790127 -0.022924542 0.62755036
0.025495255 -0.024078876 0.62557292
0.025210792 -0.025210798 0.62366521
0.025053212 -0.026445031 0.62260848
0.024961349 -0.027734876 0.62199247
0.025122605 -0.02930972 0.62307388
0.032351822 -0.039541125 0.67155409
0.032061715 -0.040967703 0.66960853
0.031708296 -0.042277724 0.66723847
0.031388924 -0.043595731 0.66509676
0.031211292 -0.045082986 0.6639055
0.031644125 -0.047466159 0.66680813
0.031459205 -0.048936516 0.66556805
0.031269483 -0.050378621 0.66429573
0.031076889 -0.051794797 0.66300416
0.030881993 -0.053185642 0.66169715
0.030682731 -0.054547071 0.66036087
0.030484371 -0.055887997 0.65903068
0.030279804 -0.057195187 0.65765882
0.030077564 -0.058484167 0.65630251
0.029870274 -0.059740558 0.65491241
0.029663479 -0.060974911 0.65352559
0.029455096 -0.062182963 0.65212816
0.029244775 -0.063363671 0.65071774
0.029037438 -0.064527631 0.64932728
0.028850477 -0.065714955 0.64807355
0.032358006 -0.011921346 0.66017455
0.031223629 -0.013146788 0.65296769
0.030468311 -0.014432371 0.64816904
0.029859114 -0.015715301 0.64429867
0.029328531 -0.016979694 0.64092779
0.028852591 -0.01822269 0.63790399
0.028418332 -0.019444108 0.63514513
0.028019147 -0.020645708 0.63260901
0.027647499 -0.021826953 0.63024783
0.027294898 -0.02298516 0.62800771
0.026966317 -0.024127752 0.62592012
0.026652647 -0.025249898 0.62392741
0.026497241 -0.026497245 0.62294
0.026432924 -0.027824134 0.62253141
0.026604243 -0.0294047 0.62361979
0.033964191 -0.039326996 0.67037904
0.033758078 -0.040865004 0.66906947
0.033500887 -0.042316914 0.66743553
0.033193026 -0.043675005 0.6654796
0.032818105 -0.044909 0.66309768
0.032522388 -0.046216011 0.66121894
0.032374203 -0.047709346 0.66027749
0.032802593 -0.050067127 0.66299915
0.032614436 -0.051496476 0.66180384
0.032419469 -0.05289489 0.66056508
0.032223321 -0.054270864 0.65931892
0.032023709 -0.055620134 0.65805078
0.031820588 -0.056942075 0.65676028
0.031618133 -0.05824393 0.65547407
0.031409211 -0.059512153 0.65414667
0.03120303 -0.060763806 0.6528368
0.030991452 -0.061982885 0.6514926
0.030780533 -0.063181117 0.65015262
0.03056922 -0.064356238 0.64881009
0.032784283 -0.014752895 0.65246856
0.031896081 -0.015948057 0.64710784
0.031212816 -0.017167091 0.64298397
0.030633701 -0.018380195 0.63948864
0.030122938 -0.019579917 0.63640594
0.029661339 -0.02076295 0.63361996
0.029236032 -0.021927029 0.63105297
0.028838281 -0.023070633 0.62865233
0.028470553 -0.024199963 0.6264329
0.028122356 -0.025310099 0.62433136
0.027962055 -0.026563942 0.62336385
0.027914008 -0.027913988 0.62307382
0.02809559 -0.029500365 0.62416983
0.035404198 -0.038944602 0.66828114
0.035272669 -0.040563554 0.66748726
0.035105743 -0.042126894 0.66647983
0.034881081 -0.043601334 0.66512382
0.034607019 -0.044989109 0.66346979
0.034276303 -0.046272993 0.66147375
0.033886895 -0.047441632 0.65912342
0.033619136 -0.048747718 0.6575073
0.03351476 -0.050272137 0.6568774
0.033920318 -0.052576482 0.65932512
0.033729047 -0.053966463 0.6581707
0.033529248 -0.055323243 0.65696478
0.033330023 -0.05666104 0.65576237
0.033125803 -0.057970136 0.65452981
0.032919411 -0.059254959 0.65328419
0.032712799 -0.060518682 0.65203714
0.032500315 -0.061750606 0.65075469
0.032290578 -0.062966615 0.64948881
0.032074992 -0.064149991 0.64818764
0.034477938 -0.01641807 0.65278149
0.033342212 -0.017464966 0.64625323
0.032566849 -0.018609613 0.64179629
0.031935453 -0.019769549 0.63816696
0.031383563 -0.020922363 0.63499463
0.030887239 -0.022062331 0.63214171
0.030433144 -0.02318716 0.6295315
0.030018512 -0.024300694 0.62714815
0.029628221 -0.025395632 0.62490475
0.029451668 -0.026646733 0.6238898
0.029404769 -0.028004527 0.62362027
0.029596593 -0.029596597 0.6247229
0.036747716 -0.038497567 0.66582847
0.036648896 -0.040139258 0.66526043
0.036523543 -0.041741192 0.66453993
0.036381405 -0.043311208 0.66372287
0.036193304 -0.044810772 0.6626417
0.035951085 -0.046222806 0.66124934
0.035659607 -0.047546148 0.65957391
0.035308041 -0.048758715 0.65755302
0.034928586 -0.049897999 0.6553719
0.034682214 -0.051197559 0.6539557
0.035194978 -0.053630441 0.65690315
0.034999322 -0.054998904 0.65577847
0.034804791 -0.056350589 0.65466028
0.03460101 -0.057668358 0.65348893
0.034398817 -0.058969393 0.6523267
0.034190401 -0.060240224 0.65112871
0.033980984 -0.061489403 0.64992493
