# .PCD v0.7 - Point Cloud Data file format
VERSION 0.7
FIELDS x y z
SIZE 4 4 4
TYPE F F F
COUNT 1 1 1
WIDTH 1340
HEIGHT 1
VIEWPOINT 0 0 0 1 0 0 0
POINTS 1340
DATA ascii
-0.016539212 -0.070291668 0.70415539
-0.016584506 -0.072557241 0.70483881
-0.016632954 -0.074848264 0.7055698
-0.016684672 -0.077166587 0.70635021
-0.016743645 -0.079532325 0.70723999
-0.016806494 -0.081931651 0.7081883
-0.016885614 -0.084428072 0.70938218
-0.01698773 -0.08706212 0.71092296
-0.013047552 0.085741043 0.67959487
-0.013056793 0.083936542 0.67975426
-0.013066389 0.082131624 0.67991972
-0.01307595 0.080323696 0.68008465
-0.013085573 0.078513443 0.68025053
-0.013095163 0.07670024 0.68041593
-0.013104766 0.074884385 0.68058151
-0.013114432 0.073066115 0.68074822
-0.013124064 0.071244925 0.68091428
-0.013133759 0.069421291 0.68108147
-0.013143418 0.067594737 0.68124807
-0.013153834 0.065769136 0.68142772
-0.013164265 0.063940734 0.68160754
-0.013174714 0.062109381 0.68178773
-0.013185227 0.060275346 0.68196905
-0.01319571 0.058438122 0.68214977
-0.013206208 0.056598037 0.68233085
-0.013216722 0.054754972 0.68251216
-0.013227254 0.052909017 0.68269372
-0.013237803 0.05106011 0.68287563
-0.01324892 0.04921028 0.68306732
-0.013260306 0.047358245 0.68326372
-0.013271712 0.04550302 0.68346035
-0.013283087 0.043644428 0.68365651
-0.013294532 0.041782826 0.68385392
-0.013305997 0.039918005 0.68405163
-0.013317481 0.038049966 0.6842497
-0.013328984 0.036178708 0.68444806
-0.013340459 0.034304023 0.68464589
-0.013352664 0.032427907 0.68485641
-0.013365046 0.030548692 0.68506992
-0.013377451 0.02866599 0.68528378
-0.013389928 0.02677986 0.68549895
-0.013402379 0.024890155 0.68571365
-0.013414853 0.022996902 0.68592882
-0.01342735 0.021100134 0.68614423
-0.013439923 0.019199908 0.68636107
-0.013452725 0.017296314 0.68658185
-0.013466224 0.015389979 0.68681467
-0.013479751 0.013479769 0.68704784
-0.013493356 0.011565745 0.6872825
-0.013506937 0.0096478164 0.68751669
-0.013520545 0.0077260137 0.68775141
-0.013534182 0.0058003664 0.68798655
-0.013547897 0.0038708448 0.688223
-0.013561799 0.0019373894 0.68846273
-0.013576624 -0 0.68871844
-0.013591426 -0.0019416511 0.68897367
-0.013606263 -0.0038875341 0.68922961
-0.013621132 -0.0058375895 0.68948591
-0.013636035 -0.007791996 0.68974292
-0.013650968 -0.009750694 0.69000047
-0.013665936 -0.011713654 0.69025856
-0.013681737 -0.01368171 0.69053108
-0.013697896 -0.015654743 0.69080973
-0.013714148 -0.017632484 0.69108993
-0.013730437 -0.019614875 0.69137084
-0.013746712 -0.021601945 0.69165146
-0.013763078 -0.023593813 0.69193375
-0.013779431 -0.02559036 0.69221568
-0.013795605 -0.027591199 0.69249463
-0.013811108 -0.029595226 0.69276196
-0.013825282 -0.031600624 0.6930064
-0.013838612 -0.033608049 0.69323623
-0.013851143 -0.035617232 0.6934523
-0.013861779 -0.037624836 0.6936357
-0.013872375 -0.03963536 0.69381845
-0.013882932 -0.041648805 0.69400048
-0.013969699 -0.043904752 0.69549674
-0.013989898 -0.045966834 0.69584513
-0.014010884 -0.04803732 0.69620699
-0.014031935 -0.050114065 0.69656992
-0.01405299 -0.052196801 0.69693303
-0.014074165 -0.054286063 0.69729823
-0.014095747 -0.056382954 0.69767034
-0.014118815 -0.058492213 0.69806814
-0.01414236 -0.060610145 0.69847417
-0.014165983 -0.062735051 0.69888157
-0.014189915 -0.064868212 0.69929427
-0.014213987 -0.067008764 0.69970936
-0.014239817 -0.069164842 0.70015484
-0.014266556 -0.071332783 0.70061588
-0.014293512 -0.073509455 0.70108068
-0.014320572 -0.075694472 0.70154732
-0.01434879 -0.077893436 0.70203394
-0.014379482 -0.080114275 0.70256323
-0.014410245 -0.082344264 0.70309365
-0.014441201 -0.084584177 0.70362753
-0.01447486 -0.086849183 0.70420796
-0.014510603 -0.089136541 0.70482427
-0.011169385 0.085631967 0.67930859
-0.011176413 0.083823115 0.67945004
-0.011183741 0.082014084 0.67959744
-0.011191369 0.080204785 0.67975092
-0.011198968 0.078392744 0.67990375
-0.011206618 0.076578587 0.68005764
-0.011214237 0.074761599 0.68021095
-0.011221908 0.072942466 0.68036526
-0.011229548 0.071120471 0.68051898
-0.011237239 0.06929633 0.68067372
-0.0112449 0.067469388 0.68082786
-0.011252613 0.065640241 0.68098301
-0.011260674 0.063810468 0.68114525
-0.011269001 0.061979502 0.68131274
-0.011277298 0.060145587 0.68147963
-0.01128565 0.058309168 0.68164766
-0.011293971 0.056469887 0.68181503
-0.011302348 0.054628015 0.68198359
-0.011310694 0.052783221 0.6821515
-0.011319094 0.050935894 0.68232054
-0.011327465 0.049085677 0.68248892
-0.011335935 0.047233075 0.68265927
-0.011344973 0.045379907 0.68284118
-0.011354069 0.043523937 0.68302411
-0.011363138 0.041664839 0.68320656
-0.01137222 0.03980276 0.68338931
-0.011381316 0.037937731 0.68357229
-0.011390427 0.036069691 0.68375564
-0.011399597 0.034198791 0.68394005
-0.011408738 0.032324761 0.68412399
-0.011417892 0.030447721 0.68430817
-0.011427672 0.028569192 0.68450493
-0.011437554 0.026687652 0.68470371
-0.011447411 0.024802715 0.68490207
-0.011457327 0.022914678 0.68510151
-0.011467262 0.021023303 0.68530142
-0.011477213 0.01912868 0.68550164
-0.011487183 0.017230779 0.6857022
-0.011497169 0.01532957 0.68590307
-0.011507172 0.013425052 0.6861043
-0.011517899 0.011517942 0.68632019
-0.011528648 0.0096072257 0.68653643
-0.01153946 0.0076929927 0.68675393
-0.011550249 0.0057751536 0.68697095
-0.011561058 0.0038537085 0.68718845
-0.011571886 0.0019286275 0.6874063
-0.01158278 -0 0.68762547
-0.011593649 -0.0019322634 0.6878441
-0.011605033 -0.0038683414 0.68807316
-0.011616752 -0.0058083832 0.68830889
-0.011628496 -0.0077523589 0.68854523
-0.011640265 -0.0097002089 0.68878198
-0.011652101 -0.011652052 0.6890201
-0.011663917 -0.013607919 0.68925786
-0.011675756 -0.01556769 0.68949598
-0.011687621 -0.017531425 0.6897347
-0.0117001 -0.019500166 0.68998581
-0.011712927 -0.021473706 0.69024384
-0.011725782 -0.023451567 0.69050246
-0.011738666 -0.025433779 0.69076169
-0.011751579 -0.027420342 0.69102138
-0.011764518 -0.029411316 0.69128174
-0.011777488 -0.031406641 0.69154269
-0.011790577 -0.033406585 0.69180596
-0.011804625 -0.035413861 0.6920886
-0.011818659 -0.037425786 0.69237107
-0.011832774 -0.039442599 0.69265497
-0.011846875 -0.041464031 0.69293869
-0.011880865 -0.043563157 0.69362247
-0.011895319 -0.045598716 0.69391322
-0.011910515 -0.047642052 0.69421899
-0.011925749 -0.049690634 0.69452548
-0.011941023 -0.051744431 0.69483274
-0.011956383 -0.053803742 0.69514179
-0.011972739 -0.055872768 0.69547081
-0.011989138 -0.057947546 0.69580078
-0.012005584 -0.060027897 0.69613159
-0.012022074 -0.06211403 0.69646335
-0.012038947 -0.064207703 0.69680285
-0.012055819 -0.066306978 0.6971423
-0.012073564 -0.068416834 0.69749928
-0.012091751 -0.070535213 0.69786525
-0.012110141 -0.072660834 0.69823515
-0.012128781 -0.074794173 0.69861019
-0.01214748 -0.07693404 0.69898635
-0.012166285 -0.07908085 0.69936466
-0.012186682 -0.081244528 0.69977498
-0.012207394 -0.083417177 0.70019174
-0.012228178 -0.085597247 0.7006098
-0.012249034 -0.087784722 0.70102942
-0.012270261 -0.089981899 0.70145655
-0.0093015917 0.085574657 0.67915821
-0.0093069896 0.083762914 0.67928857
-0.0093123596 0.081948787 0.67941821
-0.0093180137 0.080134898 0.67955464
-0.0093238819 0.078320622 0.67969632
-0.0093297586 0.076504022 0.67983824
-0.0093356417 0.074685127 0.67998022
-0.0093415333 0.072863936 0.68012249
-0.0093474314 0.071040511 0.68026489
-0.0093533378 0.069214702 0.68040746
-0.0093592517 0.067386597 0.68055022
-0.0093651721 0.065556198 0.68069321
-0.0093711009 0.063723505 0.68083626
-0.009377283 0.061890066 0.68098557
-0.0093837194 0.060055822 0.68114096
-0.0093901288 0.058218807 0.68129575
-0.0093965484 0.056379318 0.68145061
-0.0094030108 0.054537445 0.68160671
-0.0094094481 0.05269289 0.6817621
-0.0094159283 0.05084604 0.68191856
-0.0094223823 0.048996419 0.68207437
-0.009428882 0.047144413 0.68223125
-0.0094353529 0.045289695 0.68238747
-0.009442226 0.043434262 0.68255347
-0.0094492519 0.041576743 0.68272305
-0.0094562527 0.039716274 0.68289202
-0.0094632991 0.037853211 0.6830622
-0.0094703203 0.035987228 0.68323165
-0.0094773872 0.034118563 0.6834023
-0.0094844298 0.032247066 0.68357229
-0.0094915191 0.030372888 0.68374348
-0.0094985813 0.028495729 0.68391395
-0.0095058354 0.026616365 0.68408906
-0.0095134629 0.024735004 0.68427324
-0.0095211025 0.022850662 0.68445766
-0.0095287533 0.020963222 0.68464243
-0.0095364545 0.01907295 0.68482828
-0.0095441304 0.01717943 0.68501365
-0.0095518194 0.015282929 0.68519926
-0.0095595205 0.013383329 0.68538511
-0.0095672337 0.011480689 0.68557143
-0.0095750336 0.0095750391 0.68575966
-0.0095833596 0.007666707 0.68596065
-0.0095916996 0.0057550669 0.68616199
-0.0096000182 0.0038400292 0.68636286
-0.009608387 0.0019216835 0.68656492
-0.0096167708 -0 0.68676734
-0.0096251694 -0.0019250512 0.68697006
-0.009633583 -0.0038534403 0.68717325
-0.0096419742 -0.0057851672 0.68737572
-0.0096506029 -0.0077205002 0.68758416
-0.0096596582 -0.0096596479 0.68780267
-0.0096687675 -0.011602491 0.68802261
-0.0096778553 -0.01354897 0.68824196
-0.0096869618 -0.015499145 0.6884619
-0.009696085 -0.017452985 0.68868214
-0.009705225 -0.019410431 0.6889028
-0.00971442 -0.021371722 0.68912476
-0.0097235944 -0.023336649 0.68934625
-0.009733431 -0.02530691 0.68958378
-0.0097433245 -0.027281314 0.68982261
-0.0097532384 -0.029259741 0.69006193
-0.0097631728 -0.031242162 0.69030178
-0.009773165 -0.033228755 0.690543
-0.0097831395 -0.035219282 0.6907838
-0.0097931353 -0.037213922 0.69102508
-0.0098031508 -0.039212614 0.69126689
-0.0098139569 -0.041218638 0.69152784
-0.0098403599 -0.043297589 0.6921652
-0.0098512098 -0.045315564 0.69242722
-0.009862083 -0.047337979 0.69268966
-0.0098729804 -0.049364895 0.69295275
-0.0098838629 -0.051396072 0.69321549
-0.0098953564 -0.053434938 0.69349295
-0.0099070733 -0.055479586 0.69377583
-0.0099189356 -0.057529837 0.69406223
-0.0099308258 -0.059584945 0.69434929
-0.0099427458 -0.061645001 0.694637
-0.0099546937 -0.063710034 0.69492549
-0.0099667888 -0.065780818 0.69521749
-0.0099795908 -0.067861199 0.69552654
-0.0099924253 -0.069946975 0.69583642
-0.010005333 -0.072038412 0.69614804
-0.010018234 -0.074134916 0.69645953
-0.010031208 -0.076237202 0.69677275
-0.010044903 -0.078350246 0.69710338
-0.010058836 -0.080470711 0.69743979
-0.010073012 -0.082598686 0.69778192
-0.010087186 -0.084732354 0.69812411
-0.010101441 -0.086872399 0.69846827
-0.010115695 -0.089018121 0.69881243
-0.010169728 -0.091527551 0.70011681
-0.0074407477 0.085568637 0.67914236
-0.0074446779 0.083752602 0.67926097
-0.0074486127 0.08193472 0.6793797
-0.0074525783 0.080115229 0.67949933
-0.0074567716 0.078296125 0.67962587
-0.0074610803 0.076476067 0.67975593
-0.0074653933 0.074653924 0.6798861
-0.0074697407 0.072829962 0.68001729
-0.0074740634 0.071003616 0.68014777
-0.0074784206 0.069175452 0.6802792
-0.0074827541 0.067344815 0.68041003
-0.0074870931 0.065512091 0.68054092
-0.0074914652 0.06367749 0.68067288
-0.0074958135 0.061840475 0.68080413
-0.0075003644 0.060002893 0.68094146
-0.0075051174 0.058164686 0.68108487
-0.0075098765 0.056324065 0.68122852
-0.0075146421 0.054481179 0.68137228
-0.0075194128 0.052635908 0.68151629
-0.0075241905 0.050788283 0.68166047
-0.0075289742 0.048938334 0.68180484
-0.0075337635 0.04708603 0.68194938
-0.0075385594 0.045231342 0.6820941
-0.0075433613 0.04337436 0.68223894
-0.0075483969 0.041516185 0.68239093
-0.0075535816 0.039656341 0.68254739
-0.0075588021 0.037793994 0.68270493
-0.0075640013 0.035929024 0.68286186
-0.0075692362 0.034061581 0.68301988
-0.0075744498 0.032191396 0.68317717
-0.0075796992 0.030318856 0.68333554
-0.0075849271 0.028443456 0.68349338
-0.007590191 0.026565671 0.68365222
-0.0075954334 0.024685174 0.68381035
-0.0076010586 0.022803187 0.68398017
-0.007606721 0.020918489 0.68415105
-0.0076124207 0.019031078 0.68432301
-0.0076180995 0.017140716 0.68449444
-0.0076238159 0.015247673 0.68466693
-0.0076295123 0.013351619 0.68483883
-0.0076352172 0.011452824 0.68501097
-0.0076409592 0.0095511973 0.68518424
-0.0076466813 0.0076466799 0.68535697
-0.0076526171 0.0057394505 0.68553603
-0.0076587955 0.0038294196 0.68572247
-0.0076650139 0.0019162595 0.68591017
-0.0076712128 -0 0.68609726
-0.0076774219 -0.001919359 0.6862846
-0.0076836408 -0.0038417876 0.6864723
-0.0076898998 -0.0057674348 0.68666124
-0.0076961392 -0.0076961517 0.68684947
-0.0077023879 -0.0096279681 0.68703806
-0.0077087963 -0.011563182 0.68723142
-0.0077155423 -0.01350221 0.68743497
-0.0077223 -0.015444607 0.68763894
-0.0077290395 -0.017390341 0.68784231
-0.007735821 -0.019339532 0.68804693
-0.0077426145 -0.02129218 0.68825197
-0.0077494192 -0.023248285 0.68845731
-0.0077562067 -0.025207698 0.68866223
-0.0077630356 -0.027170628 0.68886822
-0.0077701481 -0.029138058 0.68908292
-0.0077775158 -0.031110078 0.68930525
-0.0077848672 -0.033085674 0.68952703
-0.0077922321 -0.035065025 0.6897493
-0.0077996114 -0.037048161 0.68997198
-0.0078070043 -0.039035022 0.69019508
-0.0078144418 -0.041025817 0.69041955
-0.0078328215 -0.043080479 0.69097424
-0.0078413226 -0.045087606 0.69123071
-0.007849318 -0.047095895 0.69147205
-0.0078573301 -0.049108326 0.69171381
-0.0078653889 -0.05112502 0.691957
-0.0078734336 -0.053145677 0.69219983
-0.0078815268 -0.055170715 0.69244403
-0.0078896042 -0.057199627 0.69268775
-0.0078980103 -0.059235066 0.69294149
-0.0079066847 -0.061276793 0.69320321
-0.0079153776 -0.063322991 0.69346553
-0.0079241209 -0.065373957 0.6937294
-0.0079328837 -0.067429483 0.69399387
-0.0079416977 -0.069489866 0.69425988
-0.0079505304 -0.07155478 0.69452643
-0.0079597002 -0.073627234 0.69480312
-0.007969209 -0.075707465 0.69509
-0.0079787076 -0.077792406 0.69537675
-0.0079882611 -0.079882592 0.69566506
-0.0079978062 -0.081977516 0.69595301
-0.0080073727 -0.084077418 0.69624174
-0.0080171237 -0.08618404 0.69653606
-0.0080274781 -0.088302225 0.69684845
-0.0080378903 -0.090426251 0.69716275
-0.0055807061 0.087431073 0.6791482
-0.0055833841 0.08561188 0.67925596
-0.0055860849 0.083791286 0.67936462
-0.0055887681 0.081968606 0.67947257
-0.0055914535 0.080144167 0.67958069
-0.0055941418 0.07831797 0.67968881
-0.005597041 0.076492906 0.6798054
-0.0056000059 0.074666768 0.67992473
-0.0056029949 0.072838932 0.68004507
-0.0056059668 0.07100895 0.68016458
-0.0056089619 0.069177181 0.6802851
-0.0056119398 0.067343295 0.68040496
-0.0056149205 0.065507442 0.68052489
-0.0056179254 0.06366986 0.68064582
-0.0056209126 0.061830044 0.68076599
-0.0056239245 0.059988528 0.68088716
-0.0056270654 0.058146358 0.68101352
-0.0056303586 0.056303561 0.68114603
-0.0056336336 0.054458439 0.68127781
-0.0056369342 0.052611381 0.68141061
-0.0056402171 0.050761968 0.68154275
-0.0056435033 0.04891035 0.68167496
-0.0056468155 0.047056794 0.68180823
-0.0056501105 0.045200914 0.68194079
-0.0056534298 0.043342978 0.68207437
-0.0056567322 0.041482717 0.68220723
-0.0056601875 0.039621353 0.68234622
-0.0056637973 0.037758678 0.68249148
-0.0056674108 0.035893619 0.68263692
-0.005671029 0.034026206 0.68278253
-0.0056746528 0.032156378 0.68292826
-0.0056782803 0.030284166 0.68307424
-0.0056819129 0.02840957 0.68322039
-0.0056855497 0.02653259 0.68336678
-0.0056891916 0.024653137 0.68351334
-0.0056928378 0.022771358 0.68366003
-0.0056966613 0.020887733 0.68381393
-0.0057005989 0.019001991 0.6839723
-0.005704564 0.017113715 0.6841318
-0.0057085119 0.015222698 0.68429071
-0.0057124877 0.013329178 0.68445063
-0.0057164468 0.011432886 0.68461001
-0.0057204333 0.009534061 0.68477041
-0.0057244035 0.0076325536 0.68493015
-0.0057284012 0.0057283938 0.68509102
-0.0057323831 0.0038215816 0.68525124
-0.0057366765 0.0019122362 0.68542397
-0.0057409769 -0 0.685597
-0.0057453061 -0.001915127 0.68577117
-0.0057496191 -0.0038330853 0.68594474
-0.0057539609 -0.0057539642 0.68611944
-0.0057582874 -0.0076777339 0.68629354
-0.0057626418 -0.0096043944 0.68646872
-0.0057669817 -0.011533976 0.68664336
-0.0057713496 -0.013466477 0.68681908
-0.0057758801 -0.015402347 0.68700141
-0.0057805954 -0.017341793 0.68719113
-0.0057852962 -0.019284308 0.68738025
-0.0057900045 -0.021230012 0.68756968
-0.0057947431 -0.023178965 0.68776035
-0.0057994672 -0.025131017 0.68795043
-0.0058041988 -0.027086228 0.68814081
-0.0058089383 -0.029044658 0.68833148
-0.0058137076 -0.031006455 0.68852347
-0.0058186431 -0.032972306 0.68872201
-0.0058237673 -0.034942627 0.68892825
-0.0058288784 -0.036916256 0.68913388
-0.0058340207 -0.038893461 0.68934083
-0.0058391728 -0.040874183 0.68954808
-0.0058520115 -0.042914748 0.69006473
-0.005857721 -0.044909209 0.69029444
-0.0058628912 -0.046903133 0.69050246
-0.005868278 -0.048902303 0.69071913
-0.0058738575 -0.050906718 0.69094366
-0.0058794487 -0.052915007 0.69116861
-0.0058850497 -0.054927111 0.69139397
-0.005890639 -0.05694285 0.69161892
-0.0058962614 -0.058962584 0.69184512
-0.0059018945 -0.060986221 0.6920718
-0.0059075388 -0.063013732 0.69229895
-0.0059134504 -0.06504795 0.69253677
-0.00591949 -0.067087561 0.69277984
-0.0059255422 -0.069131315 0.69302332
-0.005931607 -0.071179271 0.69326735
-0.0059377071 -0.073231727 0.6935128
-0.0059438203 -0.075288385 0.69375873
-0.0059499457 -0.077349335 0.69400525
-0.0059562023 -0.079416037 0.69425696
-0.0059627797 -0.081491321 0.69452167
-0.0059693716 -0.083571225 0.69478691
-0.005975978 -0.085655659 0.69505268
-0.0059825997 -0.087744817 0.69531918
-0.0059892354 -0.08983852 0.69558614
-0.0037248053 0.087532938 0.67940986
-0.0037264002 0.085707217 0.67950606
-0.0037280105 0.083880246 0.67960322
-0.0037296226 0.082051724 0.67970055
-0.0037312214 0.080221266 0.67979705
-0.0037328361 0.078389585 0.67989451
-0.0037344517 0.076556295 0.67999202
-0.0037361949 0.074723899 0.68009722
-0.0037380091 0.072891176 0.68020672
-0.0037398112 0.071056426 0.68031549
-0.003741615 0.069219887 0.68042439
-0.0037434204 0.067381561 0.68053329
-0.0037452276 0.065541536 0.68064243
-0.0037470367 0.063699603 0.68075156
-0.0037488616 0.06185624 0.68086171
-0.0037506742 0.060010791 0.68097115
-0.0037524884 0.058163553 0.68108064
-0.0037544172 0.056316257 0.68119705
-0.0037564184 0.054468066 0.68131781
-0.0037584358 0.052618116 0.68143958
-0.0037604414 0.050765961 0.68156064
-0.0037624631 0.048912019 0.68168265
-0.0037644729 0.0470559 0.681804
-0.0037664848 0.045197785 0.68192542
-0.0037685132 0.043337911 0.68204784
-0.0037705295 0.041475862 0.6821695
-0.0037725619 0.039611906 0.68229222
-0.0037746681 0.037746668 0.6824193
-0.0037768905 0.035880506 0.68255341
-0.0037791012 0.0340119 0.68268687
-0.0037813289 0.032141328 0.68282133
-0.003783545 0.030268341 0.68295509
-0.0037857634 0.028393239 0.68308896
-0.003787999 0.02651602 0.68322384
-0.0037902226 0.024636477 0.68335807
-0.0037924491 0.022754669 0.68349248
-0.0037946925 0.020870805 0.68362784
-0.0037970252 0.018985122 0.68376869
-0.0037994471 0.017097533 0.68391484
-0.0038018867 0.015207529 0.68406206
-0.0038043291 0.013315171 0.68420947
-0.003806775 0.01142031 0.68435711
-0.0038092239 0.0095230341 0.68450493
-0.0038116761 0.0076233447 0.68465292
-0.0038141308 0.0057212114 0.6848011
-0.0038165895 0.0038166046 0.68494952
-0.003819051 0.001909554 0.68509805
-0.003821647 -0 0.68525475
-0.0038243053 -0.0019121468 0.68541515
-0.0038269814 -0.0038270056 0.68557668
-0.0038296469 -0.0057444572 0.68573755
-0.0038323307 -0.0076646507 0.68589956
-0.0038350038 -0.0095874667 0.68606091
-0.0038376804 -0.011513054 0.68622243
-0.0038403757 -0.013441324 0.68638515
-0.0038430747 -0.015372306 0.68654799
-0.0038457774 -0.017306 0.68671107
-0.0038486761 -0.01924336 0.68688607
-0.0038515944 -0.021183789 0.68706226
-0.0038545022 -0.02312699 0.68723774
-0.003857414 -0.025073171 0.68741345
-0.0038603456 -0.027022421 0.68759036
-0.0038632667 -0.028974503 0.68776667
-0.0038662069 -0.030929685 0.68794417
-0.0038691366 -0.032887667 0.68812096
-0.0038720861 -0.034848779 0.688299
-0.0038751897 -0.036814302 0.68848634
-0.0038783588 -0.03878358 0.68867755
-0.0038815478 -0.040756255 0.68887007
-0.003889695 -0.042786658 0.68936181
-0.0038932513 -0.044772387 0.68957639
-0.0038964346 -0.046757221 0.68976855
-0.0038996383 -0.048745483 0.68996191
-0.0039028472 -0.050737023 0.69015563
-0.0039061531 -0.052733064 0.69035512
-0.0039096023 -0.054734409 0.69056326
-0.003913057 -0.05673933 0.69077176
-0.0039165183 -0.058747739 0.69098067
-0.0039199851 -0.060759813 0.69119
-0.0039234743 -0.062775582 0.69140059
-0.0039269538 -0.064794749 0.69161057
-0.0039304397 -0.066817492 0.69182092
-0.0039339466 -0.06884408 0.69203264
-0.0039376928 -0.070878476 0.69225872
-0.0039414461 -0.072916716 0.69248521
-0.0039452063 -0.07495892 0.69271219
-0.003948974 -0.077004999 0.69293958
-0.0039527486 -0.079054952 0.69316745
-0.0039565307 -0.081108868 0.69339573
-0.0039603198 -0.083166689 0.69362432
-0.003964195 -0.085230201 0.69385827
-0.0039682663 -0.08730185 0.69410396
-0.003972346 -0.089377806 0.69435024
-0.0039942423 -0.091867581 0.6956718
-0.001865722 0.087688953 0.67981052
-0.001866432 0.085855901 0.67989618
-0.0018671493 0.084021688 0.67998278
-0.0018678602 0.082185864 0.68006861
-0.0018685717 0.080348551 0.6801545
-0.0018692908 0.078510225 0.68024129
-0.0018700033 0.07667014 0.6803273
-0.0018707165 0.074828655 0.68041342
-0.0018714932 0.072988242 0.68050712
-0.0018722984 0.071147323 0.6806044
-0.0018731115 0.069305152 0.68070251
-0.0018739183 0.067461073 0.6807999
-0.0018747328 0.065615654 0.68089819
-0.0018755479 0.063768625 0.6809966
-0.0018763568 0.061919749 0.68109423
-0.0018771734 0.060069561 0.68119282
-0.0018779907 0.058217734 0.68129146
-0.0018788016 0.05636403 0.68138933
-0.0018796697 0.054510415 0.68149412
-0.0018805811 0.052656233 0.68160415
-0.0018814933 0.050800323 0.68171424
-0.0018824134 0.048942775 0.68182534
-0.0018833275 0.047083199 0.68193567
-0.0018842424 0.045221806 0.68204606
-0.0018851581 0.043358624 0.68215662
-0.0018860748 0.041493654 0.68226731
-0.0018869995 0.039626986 0.68237889
-0.001887918 0.03775841 0.68248975
-0.00188888 0.035888702 0.68260592
-0.0018898933 0.03401807 0.68272823
-0.0018909075 0.032145441 0.6828506
-0.0018919299 0.030270875 0.6829741
-0.0018929461 0.028394163 0.68309677
-0.0018939709 0.026515603 0.68322039
-0.0018949895 0.024634868 0.68334341
-0.0018960163 0.022752196 0.68346727
-0.001897037 0.020867407 0.68359053
-0.0018980589 0.018980592 0.68371391
-0.0018991251 0.017092139 0.6838426
-0.0019002431 0.015201926 0.68397754
-0.0019013694 0.013309598 0.68411356
-0.00190249 0.011414945 0.68424881
-0.0019036192 0.0095180869 0.68438506
-0.0019047424 0.0076189637 0.68452072
-0.0019058742 0.0057176352 0.68465728
-0.0019070001 0.0038140118 0.68479317
-0.0019081272 0.0019081235 0.68492925
-0.0019092632 -2.9802322e-08 0.6850664
-0.0019104368 -0.0019104481 0.68520802
-0.0019116703 -0.0038233101 0.68535691
-0.0019129055 -0.0057386756 0.68550599
-0.0019141423 -0.0076565742 0.68565536
-0.0019153806 -0.0095768869 0.68580484
-0.0019166204 -0.011499703 0.68595445
-0.0019178546 -0.013424993 0.68610346
-0.0019190978 -0.015352756 0.68625355
-0.0019203426 -0.017283082 0.68640375
-0.0019215889 -0.019215912 0.68655425
-0.0019229033 -0.02115193 0.68671292
-0.0019242567 -0.023091078 0.6868763
-0.0019256045 -0.025032848 0.68703896
-0.0019269616 -0.02697745 0.68720281
-0.0019283131 -0.028924674 0.68736589
-0.0019296741 -0.030874789 0.68753016
-0.0019310295 -0.032827467 0.68769377
-0.0019323942 -0.034783065 0.68785852
-0.0019337534 -0.036741287 0.68802261
-0.001935137 -0.038702756 0.68818963
-0.001936605 -0.040668726 0.68836683
-0.0019405556 -0.042692214 0.68884373
-0.0019421602 -0.044669688 0.68903738
-0.0019436387 -0.04664734 0.6892159
-0.0019451272 -0.048628181 0.68939555
-0.0019466104 -0.050611854 0.6895746
-0.0019480959 -0.052598536 0.68975389
-0.0019495912 -0.054588556 0.68993437
-0.0019511194 -0.056582451 0.69011891
-0.001952726 -0.058581769 0.6903128
-0.0019543353 -0.060584366 0.69050705
-0.0019559474 -0.062590301 0.6907016
-0.0019575618 -0.064599544 0.69089651
-0.0019591793 -0.066612095 0.69109184
-0.0019607991 -0.068627983 0.69128734
-0.0019624219 -0.07064715 0.69148314
-0.0019640471 -0.072669744 0.69167942
-0.0019657526 -0.074698597 0.69188523
-0.0019674993 -0.076732457 0.69209617
-0.0019692495 -0.078769952 0.69230735
-0.0019710027 -0.080811083 0.69251901
-0.001972751 -0.082855538 0.69273007
-0.0019745105 -0.084903955 0.69294238
-0.001976273 -0.086956009 0.69315517
-0.0019780386 -0.089011699 0.69336832
-0.001986047 -0.091358155 0.69433498
0 0.087902963 0.6803602
0 0.086061001 0.68043447
0 0.084217846 0.68050879
0 0.082373738 0.68058407
0 0.08052811 0.68065852
0 0.07868129 0.68073297
0 0.076833248 0.68080753
0 0.074983984 0.6808821
0 0.073133737 0.68095762
0 0.071283132 0.68103564
0 0.069433779 0.6811223
0 0.067583054 0.68120897
0 0.065731138 0.68129659
0 0.063877583 0.68138337
0 0.062022537 0.68147027
0 0.060166389 0.68155807
0 0.058308512 0.6816451
0 0.056449264 0.68173218
0 0.054588795 0.68182021
0 0.052727431 0.68191087
0 0.050866514 0.68201011
0 0.049003929 0.68210948
0 0.047139615 0.68220806
0 0.045273811 0.6823076
0 0.043406278 0.68240637
0 0.041537166 0.68250608
0 0.039666504 0.68260598
0 0.037793994 0.68270493
0 0.035920084 0.68280488
0 0.034044981 0.68290848
0 0.032169223 0.68301988
0 0.030291736 0.68313134
0 0.028412342 0.68324292
0 0.02653113 0.68335462
0 0.024648249 0.68346733
0 0.022763312 0.68357927
0 0.020876586 0.68369126
0 0.018988043 0.68380338
0 0.017097652 0.68391657
0 0.015205532 0.68403161
0 0.013312042 0.6841563
0 0.011416525 0.68428028
0 0.0095189214 0.68440521
0 0.0076192617 0.68452942
0 0.0057175457 0.68465382
0 0.0038137436 0.68477917
0 0.0019079447 0.6849038
0 -0 0.68502951
0 -0.0019099712 0.68515432
0 -0.003822118 0.68528295
0 -0.0057365894 0.68542039
0 -0.0076533258 0.68555725
0 -0.0095723271 0.68569511
0 -0.011493623 0.6858322
0 -0.013417274 0.68597043
0 -0.01534313 0.68610793
0 -0.01727134 0.6862464
0 -0.019201785 0.6863842
0 -0.021134645 0.68652308
0 -0.023070246 0.68666655
0 -0.025008976 0.68681729
0 -0.026950181 0.68696743
0 -0.028893948 0.68711859
0 -0.030840278 0.68726993
0 -0.032789141 0.68742156
0 -0.034740537 0.68757331
0 -0.036694527 0.68772525
0 -0.038651019 0.68787742
0 -0.040610105 0.68802983
0 -0.042629212 0.68849808
0 -0.044598699 0.68866485
0 -0.046570629 0.68883008
0 -0.048545331 0.68899548
0 -0.050522834 0.68916118
0 -0.052503139 0.68932712
0 -0.054486215 0.6894933
0 -0.056472331 0.68966055
0 -0.058461308 0.6898281
0 -0.060454756 0.69000226
0 -0.062452614 0.69018221
0 -0.06445381 0.69036347
0 -0.066457808 0.69054395
0 -0.068464845 0.69072473
0 -0.07047525 0.6909067
0 -0.072488517 0.69108808
0 -0.074505091 0.69127065
0 -0.076524526 0.6914525
0 -0.078549534 0.69164217
0 -0.080580026 0.69183868
0 -0.082613841 0.69203538
0 -0.084651068 0.69223255
0 -0.086691678 0.69243002
0 -0.088735625 0.69262773
0 -0.090987623 0.69336265
0.0018760472 0.088174194 0.68105686
0.0018766946 0.08632797 0.681135
0.0018772086 0.084474355 0.68119705
0.0018777299 0.082620114 0.68125999
0.0018782445 0.080764532 0.6813221
0.0018787663 0.078908175 0.6813851
0.0018792815 0.077050567 0.68144727
0.001879804 0.075192183 0.68151033
0.0018803197 0.073332459 0.68157256
0.0018808426 0.071472049 0.68163574
0.0018813588 0.069610298 0.68169802
0.0018819532 0.067750335 0.68176979
0.0018825764 0.065890193 0.68184501
0.001883207 0.064029038 0.68192112
0.001883831 0.062166423 0.68199646
0.0018844552 0.060302615 0.68207181
0.00188508 0.058437496 0.6821472
0.0018857052 0.056571156 0.68222272
0.0018863308 0.054703593 0.68229818
0.001886964 0.052835017 0.6823746
0.0018875904 0.050964922 0.68245023
0.00188831 0.049096048 0.68253708
0.0018890442 0.047226101 0.68262571
0.0018897719 0.045354515 0.68271363
0.0018905001 0.043481529 0.68280149
0.0018912362 0.041607201 0.6828903
0.0018919656 0.039731264 0.68297839
0.0018926957 0.037853926 0.68306649
0.0018934333 0.035975218 0.6831556
0.0018941644 0.034094959 0.68324381
0.0018949033 0.03221333 0.68333298
0.0018957361 0.03033179 0.68343353
0.0018965624 0.028448433 0.68353325
0.0018973968 0.026563585 0.68363392
0.0018982246 0.024676919 0.68373388
0.0018990602 0.022788733 0.68383479
0.0018998968 0.020898879 0.6839357
0.0019007267 0.019007266 0.68403596
0.0019015645 0.017114043 0.68413711
0.0019024033 0.015219241 0.68423831
0.0019032427 0.013322711 0.68433964
0.0019041842 0.011425138 0.68445331
0.0019051195 0.0095255971 0.68456626
0.0019060557 0.0076242089 0.68467921
0.0019069929 0.005720973 0.68479234
0.0019079309 0.0038158894 0.68490553
0.001908877 0.0019088686 0.68501979
0.0019098171 -2.9802322e-08 0.68513322
0.0019107579 -0.0019107461 0.68524683
0.0019116997 -0.0038233995 0.68536049
0.0019126568 -0.0057379901 0.68547606
0.0019137029 -0.0076548159 0.68560231
0.0019147429 -0.0095737278 0.68572783
0.001915784 -0.011494696 0.68585348
0.0019168333 -0.01341784 0.6859802
0.0019178768 -0.01534301 0.6861062
0.0019189285 -0.017270356 0.68623304
0.0019199741 -0.019199729 0.68635929
0.0019210208 -0.021131247 0.68648565
0.0019220761 -0.023064882 0.68661302
0.0019231472 -0.02500093 0.68674231
0.0019242936 -0.026940107 0.68688071
0.0019254488 -0.028881699 0.68702018
0.0019265979 -0.030825585 0.68715882
0.001927756 -0.032771826 0.68729866
0.0019289078 -0.034720331 0.68743771
0.0019300686 -0.036671311 0.68757784
0.0019312232 -0.038624495 0.6877172
0.0019323867 -0.040580153 0.68785763
0.0019360655 -0.04259342 0.68830174
0.0019372874 -0.044557571 0.68844914
0.0019385482 -0.046525151 0.68860143
0.0019398108 -0.048495263 0.68875384
0.0019410825 -0.050468177 0.68890733
0.0019423486 -0.052443385 0.68906009
0.0019436236 -0.054421425 0.68921405
0.0019448928 -0.056401908 0.68936729
0.0019461714 -0.058385134 0.68952155
0.0019474589 -0.06037122 0.689677
0.0019487485 -0.062359899 0.68983263
0.001950108 -0.064353555 0.68999678
0.0019514922 -0.066350758 0.69016391
0.0019528784 -0.068350762 0.69033122
0.0019542666 -0.070353597 0.69049883
0.0019556645 -0.072359592 0.69066751
0.0019570643 -0.074368417 0.69083649
0.0019584661 -0.076380163 0.69100571
0.0019598776 -0.078395098 0.69117606
0.0019612834 -0.080412596 0.69134575
0.0019627376 -0.082434967 0.69152129
0.0019642476 -0.084462643 0.69170356
0.0019657679 -0.08649379 0.69188708
0.0019672827 -0.088527724 0.69206989
0.0019725487 -0.090737224 0.69270557
0.0037533892 0.088204652 0.681135
0.0037564465 0.086398274 0.68131953
0.0037588452 0.084574014 0.68146431
0.0037610915 0.082744032 0.68159986
0.0037633262 0.080911517 0.68173474
0.0037655637 0.079076827 0.6818698
0.0037678177 0.077240229 0.68200588
0.0037699328 0.075398654 0.6821335
0.0037713537 0.073541433 0.68221921
0.0037727612 0.071682453 0.6823042
0.003774184 0.069822401 0.68239009
0.0037755938 0.067960709 0.68247515
0.0037769761 0.066097081 0.68255854
0.0037780313 0.064226538 0.68262225
0.0037790872 0.062354952 0.68268603
0.0037801433 0.060482293 0.68274975
0.003781186 0.058608413 0.68281269
0.0037822437 0.056733668 0.68287653
0.0037832875 0.054857671 0.68293953
0.0037843464 0.05298084 0.68300343
0.0037853913 0.051102787 0.68306649
0.0037864512 0.04922384 0.6831305
0.0037875546 0.047344416 0.68319702
0.0037888309 0.045465976 0.68327409
0.0037900936 0.043586075 0.68335027
0.0037913572 0.041704923 0.68342656
0.0037926217 0.039822549 0.68350285
0.0037938869 0.037938833 0.68357927
0.0037951532 0.036053985 0.68365568
0.0037964347 0.034167916 0.68373299
0.0037977023 0.032280475 0.68380952
0.003798971 0.030391753 0.68388611
0.0038003705 0.028502762 0.68397057
0.0038018434 0.026612908 0.68405944
0.0038033172 0.024721593 0.68414843
0.0038048066 0.022828847 0.68423831
0.0038062828 0.020934582 0.68432736
0.0038077598 0.019038796 0.68441653
0.003809253 0.01714164 0.68450665
0.0038107326 0.015242964 0.684596
0.0038122132 0.013342768 0.68468535
0.0038137094 0.011441112 0.68477571
0.0038153378 0.0095383525 0.68487394
0.003817026 0.0076340437 0.68497586
0.003818701 0.0057280958 0.68507695
0.0038203921 0.0038204193 0.685179
0.003822085 0.0019110441 0.68528116
0.0038237644 2.9802322e-08 0.68538249
0.0038254599 -0.0019127131 0.68548489
0.0038271423 -0.0038271546 0.68558645
0.003828841 -0.005743295 0.68568891
0.0038305409 -0.0076611042 0.68579155
0.003832404 -0.0095810294 0.68590403
0.0038343132 -0.011502922 0.68601918
0.0038362092 -0.013426721 0.68613362
0.0038381072 -0.015352428 0.68624818
0.0038400071 -0.017279983 0.68636286
0.0038419089 -0.019209564 0.68647766
0.0038438272 -0.021141022 0.68659341
0.0038457329 -0.023074389 0.68670845
0.0038476405 -0.025009632 0.68682361
0.0038495497 -0.026946813 0.68693876
0.0038516535 -0.028887391 0.68706578
0.0038537746 -0.030830175 0.68719381
0.0038558831 -0.032775015 0.68732107
0.0038580091 -0.03472209 0.68744934
0.0038601223 -0.036671162 0.68757695
0.0038622376 -0.03862235 0.68770462
0.0038643708 -0.040575892 0.68783331
0.0038715319 -0.042586863 0.68826556
0.0038736446 -0.044546902 0.68839306
0.0038758053 -0.046509653 0.68852347
0.0038781334 -0.048476666 0.68866402
0.0038804642 -0.050446033 0.68880463
0.0038827977 -0.052417785 0.68894553
0.0038851495 -0.05439207 0.68908745
0.003887489 -0.05636856 0.68922859
0.0038898312 -0.058347434 0.68936998
0.0038921912 -0.06032899 0.68951243
0.0038945694 -0.06231311 0.68965596
0.0038969505 -0.064299673 0.68979967
0.0038993347 -0.06628868 0.68994355
0.0039019038 -0.068283319 0.69009864
0.0039044616 -0.070280313 0.69025302
0.0039070379 -0.072280198 0.69040847
0.0039096177 -0.074282736 0.69056427
0.0039122156 -0.076288193 0.69072104
0.0039148023 -0.078296036 0.69087714
0.0039174072 -0.080306858 0.69103438
0.0039200159 -0.082320347 0.69119185
0.0039226282 -0.084336519 0.69134951
0.0039253361 -0.086357415 0.691513
0.0039281561 -0.088383526 0.69168311
0.00393822 -0.090579033 0.69229048
0.0056130732 0.08793816 0.6804505
0.0056174211 0.086133808 0.68062544
0.0056220707 0.084331065 0.6808126
0.0056267283 0.082525343 0.68099999
0.0056313933 0.08071664 0.68118763
0.0056360662 0.078904957 0.68137574
0.0056407251 0.077089906 0.68156314
0.0056454139 0.075272173 0.68175185
0.0056501525 0.073451966 0.68194252
0.0056547928 0.071627378 0.68212926
0.0056594191 0.069799513 0.68231535
0.0056640748 0.067968935 0.68250269
0.005668716 0.066135049 0.68268943
0.0056730011 0.064293981 0.68286186
0.0056763906 0.062440306 0.68299824
0.0056797843 0.060584366 0.68313479
0.0056832037 0.05872646 0.68327236
0.0056866053 0.05686608 0.68340921
0.0056899674 0.055003047 0.68354452
0.0056926436 0.053131342 0.68365222
0.0056948033 0.051253229 0.68373913
0.0056969426 0.049373507 0.68382519
0.0056991056 0.047492564 0.68391222
0.0057012485 0.045610011 0.68399847
0.005702938 0.04372254 0.68406641
0.0057045203 0.041833133 0.68413013
0.0057061249 0.039942861 0.68419468
0.0057077087 0.038051367 0.6842584
0.0057093157 0.036159009 0.68432295
0.0057109008 0.034265399 0.68438679
0.0057125092 0.032370865 0.68445152
0.0057140966 0.030475199 0.68451536
0.0057157064 0.02857855 0.68458021
0.0057172957 0.026680738 0.68464416
0.0057191914 0.024783164 0.6847204
0.005721109 0.022884429 0.68479759
0.0057230289 0.020984441 0.68487483
0.0057249493 0.019083172 0.68495208
0.005726872 0.017180651 0.68502945
0.0057288171 0.015276849 0.68510771
0.0057307417 0.013371766 0.68518513
0.0057326676 0.011465341 0.68526262
0.0057345945 0.0095576942 0.68534017
0.0057366109 0.0076488256 0.68542135
0.0057388479 0.0057388842 0.68551129
0.0057411091 0.0038274229 0.68560231
0.0057433494 0.0019144714 0.68569243
0.0057455916 -2.9802322e-08 0.68578273
0.005747858 -0.0019159317 0.68587387
0.0057501039 -0.0038334131 0.68596423
0.0057523516 -0.0057523549 0.68605459
0.0057546226 -0.0076728165 0.68614602
0.0057568736 -0.0095947683 0.68623662
0.0057592816 -0.011518598 0.68633354
0.0057618236 -0.013444245 0.68643582
0.0057643908 -0.01537174 0.68653911
0.0057669594 -0.017300874 0.68664241
0.0057695084 -0.019231707 0.68674499
0.0057720817 -0.021164298 0.68684858
0.0057746572 -0.023098588 0.68695223
0.0057772137 -0.025034606 0.68705505
0.005779794 -0.026972383 0.68715882
0.0057823546 -0.028911769 0.68726194
0.0057851402 -0.030854076 0.68737394
0.0057880175 -0.032798797 0.68748981
0.0057908981 -0.034745395 0.68760568
0.0057938038 -0.03669408 0.68772256
0.0057966895 -0.038644612 0.68783873
0.005799579 -0.040597051 0.68795502
0.0058101076 -0.042607427 0.68837857
0.0058130096 -0.044566393 0.6884954
0.0058158925 -0.046527117 0.68861139
0.0058188234 -0.048490226 0.68872929
0.0058219153 -0.050456583 0.68885368
0.0058251009 -0.052425921 0.68898195
0.0058283121 -0.054397553 0.68911111
0.0058315275 -0.05637145 0.68924052
0.0058347243 -0.058347255 0.68936908
0.0058379462 -0.060325414 0.68949872
0.0058411951 -0.062306046 0.68962944
0.0058444701 -0.064289182 0.68976128
0.0058477484 -0.066274494 0.68989319
0.0058510536 -0.068262279 0.69002616
0.0058544311 -0.070253164 0.690162
0.0058579724 -0.07224834 0.69030452
0.005861518 -0.0742459 0.69044721
0.005865091 -0.076246172 0.69059092
0.005868691 -0.078249216 0.69073582
0.0058722952 -0.080254734 0.69088084
0.0058759041 -0.08226265 0.69102609
0.0058795176 -0.0842731 0.69117141
0.0058831354 -0.086286008 0.69131702
0.0058867577 -0.088301346 0.69146276
0.0059026605 -0.090507448 0.69210261
0.0074836216 0.087932557 0.68043619
0.0074869529 0.086099982 0.68053675
0.0074902875 0.084265739 0.68063736
0.0074935965 0.082429588 0.68073726
0.0074969367 0.080592126 0.68083799
0.0075011794 0.078762412 0.68096602
0.0075059338 0.076935828 0.68110955
0.0075106937 0.075106949 0.68125314
0.0075154603 0.073275745 0.68139702
0.0075202323 0.071442217 0.68154097
0.007525011 0.069606364 0.68168521
0.0075297956 0.067768157 0.68182957
0.0075347568 0.065929115 0.68197936
0.0075410302 0.064098775 0.6821686
0.0075473147 0.062265366 0.68235832
0.00755361 0.060428888 0.68254822
0.0075599155 0.058589339 0.68273854
0.0075662318 0.056746751 0.68292916
0.0075725294 0.054900825 0.68311924
0.0075788959 0.053052276 0.68331134
0.0075854445 0.051201731 0.68350899
0.0075916885 0.049346 0.68369734
0.0075979419 0.04748714 0.68388617
0.0076042353 0.045625418 0.68407601
0.0076101627 0.043758452 0.68425488
0.0076154326 0.041884899 0.68441391
0.0076200427 0.040005237 0.68455309
0.0076246294 0.038123131 0.68469143
0.0076292218 0.03623879 0.68483007
0.007633761 0.034351975 0.68496704
0.0076378686 0.032460958 0.68509102
0.0076411637 0.030564666 0.68519044
0.0076441118 0.028665423 0.68527937
0.007647003 0.026764512 0.68536663
0.007649926 0.02486226 0.68545485
0.0076523237 0.022956967 0.68552721
0.0076544899 0.021049887 0.68559259
0.0076566571 0.019141614 0.68565798
0.0076587955 0.017232269 0.68572253
0.0076609654 0.01532194 0.68578798
0.0076631065 0.013410449 0.68585259
0.0076652784 0.011497945 0.68591821
0.0076674218 0.0095842779 0.68598282
0.007669596 0.0076695979 0.68604845
0.0076717422 0.0057538152 0.68611324
0.007674125 0.003837049 0.68618512
0.007676715 0.0019191802 0.68626332
0.0076793069 2.9802322e-08 0.68634152
0.00768193 -0.0019204915 0.68642068
0.0076845256 -0.0038422346 0.686499
0.0076871235 -0.0057653189 0.68657738
0.0076897223 -0.0076897144 0.68665582
0.0076923231 -0.0096154213 0.68673438
0.0076949252 -0.01154241 0.68681288
0.0076975594 -0.013470709 0.68689233
0.0077005508 -0.015401095 0.68698257
0.0077035744 -0.017333061 0.68707389
0.0077065998 -0.019266486 0.68716514
0.0077096573 -0.021201521 0.68725741
0.0077126878 -0.023138046 0.68734884
0.0077157207 -0.025076121 0.68744034
0.0077187857 -0.027015775 0.6875329
0.0077218232 -0.028956831 0.68762457
0.007724863 -0.030899465 0.68771631
0.0077280244 -0.032844126 0.68781173
0.0077314577 -0.034791529 0.68791533
0.0077349236 -0.036740899 0.68801993
0.007738363 -0.038691819 0.6881237
0.0077418354 -0.040644646 0.68822849
0.0077555757 -0.042655647 0.6886431
0.0077590328 -0.044614404 0.68874741
0.0077624936 -0.04657495 0.68885189
0.0077659576 -0.048537225 0.68895638
0.0077694845 -0.050501645 0.68906289
0.0077730757 -0.05246824 0.6891712
0.0077768811 -0.054438144 0.68928611
0.007780781 -0.05641067 0.68940377
0.0077846856 -0.058385134 0.68952155
0.0077885627 -0.060361356 0.68963856
0.0077924747 -0.062339783 0.68975663
0.0077963904 -0.064320207 0.68987477
0.0078003709 -0.066303134 0.68999493
0.0078043863 -0.068288356 0.69011605
0.0078083747 -0.070275366 0.69023645
0.007812398 -0.072264671 0.69035786
0.0078165783 -0.074257493 0.69048399
0.0078209154 -0.076253921 0.69061494
0.0078252573 -0.078252584 0.69074595
0.0078296652 -0.080254048 0.69087899
0.0078341095 -0.08225815 0.6910131
0.0078385277 -0.084264174 0.69114643
0.0078429515 -0.086272418 0.69127989
0.0078474097 -0.08828336 0.69141448
0.0078717619 -0.090525255 0.69214934
0.0093895653 0.088261932 0.68128204
0.0093890727 0.086379468 0.68127018
0.0093885437 0.084496915 0.68125737
0.0093906578 0.082637787 0.68130845
0.0093928445 0.08077845 0.68136126
0.0093950313 0.078918278 0.68141401
0.0093972189 0.077057213 0.68146682
0.0093994429 0.075195551 0.68152058
0.0094016334 0.073332757 0.68157345
0.0094044255 0.071473628 0.68164086
0.0094086342 0.069623917 0.68174243
0.0094128465 0.067772508 0.68184412
0.0094170626 0.065919429 0.68194592
0.0094212471 0.064064533 0.68204689
0.0094254715 0.062208116 0.68214893
0.0094296988 0.06035006 0.68225098
0.0094338944 0.058490157 0.6823523
0.0094398744 0.056639254 0.68249667
0.0094458982 0.054786235 0.6826421
0.0094519295 0.052930832 0.68278766
0.0094579682 0.051073045 0.68293345
0.0094640143 0.049212873 0.68307948
0.0094700688 0.047350347 0.68322563
0.0094761318 0.045485407 0.68337202
0.0094831353 0.043622404 0.68354106
0.009491086 0.041760772 0.68373305
0.0094990507 0.039896011 0.68392533
0.0095070275 0.038028121 0.68411791
0.0095150191 0.036157072 0.68431079
0.0095229866 0.034282774 0.68450314
0.0095310044 0.032405436 0.68469679
0.0095391814 0.030525386 0.6848942
0.0095475549 0.028642684 0.68509626
0.0095554683 0.026755303 0.6852873
0.0095634311 0.024864882 0.68547958
0.0095711509 0.022970766 0.68566591
0.0095780762 0.021071792 0.68583316
0.0095844977 0.019168973 0.68598819
0.0095903026 0.017262518 0.68612826
0.0095961513 0.015353858 0.68626952
0.0096018603 0.013442606 0.68640733
0.0096074641 0.011528969 0.68654263
0.009612116 0.009612143 0.68665493
0.0096160695 0.0076928735 0.68675035
0.0096198032 0.0057718754 0.68684053
0.009623467 0.003849417 0.68692899
0.0096266521 0.0019253492 0.68700588
0.0096294675 2.9802322e-08 0.68707383
0.0096322112 -0.0019264221 0.68714005
0.0096349185 -0.0038539469 0.68720549
0.0096376659 -0.0057825744 0.68727171
0.009640377 -0.0077123046 0.68733728
0.0096431263 -0.0096431375 0.68740362
0.0096458411 -0.011575013 0.68746912
0.0096485931 -0.013508052 0.68753558
0.009651348 -0.015442163 0.68760204
0.0096541038 -0.017377377 0.68766856
0.009657383 -0.019314766 0.68774778
0.0096607022 -0.021253556 0.68782794
0.009663986 -0.023193568 0.68790722
0.0096672727 -0.025134921 0.68798661
0.0096705612 -0.027077556 0.68806589
0.0096738515 -0.029021531 0.68814528
0.0096771447 -0.030966878 0.68822479
0.009680477 -0.032913595 0.68830526
0.0096837748 -0.034861594 0.68838489
0.0096873743 -0.036812007 0.68847179
0.0096912021 -0.038764775 0.6885643
0.0096950699 -0.040719271 0.68865764
0.0097119315 -0.042732477 0.68906462
0.0097157778 -0.044692576 0.68915749
0.0097195907 -0.046654046 0.68924963
0.0097234435 -0.048617214 0.68934262
0.009727262 -0.050581753 0.68943477
0.0097311595 -0.05254823 0.68952888
0.0097351354 -0.054516762 0.68962491
0.0097391522 -0.056487083 0.68972188
0.0097434763 -0.058460861 0.68982625
0.0097478805 -0.060436845 0.68993253
0.0097522503 -0.062414378 0.69003808
0.0097566238 -0.064393729 0.6901437
0.0097610019 -0.066374838 0.69024932
0.0097655356 -0.068358749 0.69035882
0.0097700739 -0.070344537 0.69046837
0.0097745778 -0.072331846 0.69057709
0.0097791245 -0.074321359 0.69068694
0.0097836759 -0.076312691 0.69079673
0.0097884992 -0.078307986 0.6909132
0.0097934036 -0.080305904 0.69103158
0.009798428 -0.082306787 0.69115293
0.0098034963 -0.084310085 0.69127524
0.009808532 -0.086315051 0.69139683
0.0098135723 -0.088322163 0.69151855
0.0098512098 -0.090631098 0.6924271
0.011634806 0.089200169 0.68867213
0.011628317 0.087212384 0.68854159
0.011402107 0.083615482 0.6839906
0.01137972 0.081554681 0.68354023
0.011364987 0.079554915 0.68324381
0.011358666 0.077617556 0.68311661
0.011352352 0.075682342 0.6829896
0.011346045 0.073749304 0.68286276
0.01134343 0.071841747 0.68281007
0.011342829 0.069947451 0.68279803
0.011342186 0.068053156 0.68278509
0.011341544 0.06615904 0.68277216
0.011340945 0.06426537 0.68276006
0.011341074 0.062375873 0.68276268
0.011343731 0.060499907 0.68281615
0.011346389 0.058623016 0.68286967
0.011349048 0.056745231 0.68292314
0.011351707 0.054866612 0.68297666
0.011354326 0.05298686 0.68302935
0.01135699 0.051106453 0.68308288
0.011361159 0.049231678 0.68316674
0.011366234 0.047359318 0.6832689
0.011371357 0.045485407 0.68337202
0.011376485 0.043609887 0.68347514
0.011381618 0.041732609 0.68357837
0.011386711 0.039853483 0.68368089
0.011391853 0.037972838 0.68378437
0.01139765 0.03609255 0.68390089
0.011404966 0.034214914 0.68404812
0.011412293 0.032334805 0.68419552
0.01141963 0.030452341 0.68434316
0.011426975 0.028567463 0.68449092
0.011434332 0.026680112 0.68463886
0.011441696 0.024790347 0.68478703
0.01144907 0.022898138 0.68493539
0.011458464 0.02100718 0.68512446
0.011468138 0.0191136 0.68531907
0.011477827 0.017216712 0.68551397
0.011487534 0.015316695 0.68570924
0.011497257 0.013413459 0.68590486
0.011506952 0.011506945 0.68609989
0.011516707 0.0095972419 0.68629616
0.011526832 0.0076845586 0.68649989
0.011536976 0.0057685077 0.68670398
0.011546695 0.0038488805 0.68689948
0.011556339 0.0019260645 0.6870935
0.011564798 -0 0.68726367
0.011573224 -0.0019288659 0.68743318
0.011580723 -0.0038602352 0.6875841
0.011587742 -0.0057938397 0.68772531
0.011594679 -0.0077297688 0.68786484
0.011601669 -0.009668082 0.68800551
0.01160768 -0.011607677 0.68812639
0.011613247 -0.013548791 0.68823838
0.011617877 -0.015490472 0.68833148
0.011622419 -0.017433614 0.68842292
0.011626424 -0.019377381 0.6885035
0.011629938 -0.021321565 0.68857419
0.011633273 -0.023266524 0.68864125
0.011636565 -0.025212556 0.68870753
0.011639902 -0.02715975 0.6887747
0.011643243 -0.029108107 0.68884194
0.011646541 -0.031057447 0.68890822
0.011649885 -0.033007979 0.68897551
0.011653186 -0.034959555 0.68904191
0.011656535 -0.036912382 0.68910933
0.011659839 -0.038866103 0.68917578
0.011663646 -0.040822744 0.68925238
0.011683662 -0.042840064 0.68965507
0.011687621 -0.044802547 0.6897347
0.011691625 -0.04676652 0.68981528
0.011695588 -0.048731625 0.68989497
0.011699599 -0.05069828 0.68997562
0.011703568 -0.052666068 0.69005549
0.011707584 -0.054635406 0.69013631
0.011711694 -0.056606501 0.69021904
0.011715945 -0.058579713 0.69030452
0.011720153 -0.060554117 0.69038922
0.01172473 -0.062531888 0.69048131
0.011729357 -0.064511448 0.69057441
0.011734032 -0.066492856 0.6906684
0.011738666 -0.068475544 0.69076163
0.011743442 -0.070460647 0.69085765
0.011748267 -0.072447628 0.6909548
0.011753143 -0.074436545 0.69105285
0.011757976 -0.076426864 0.69115013
0.011762859 -0.07841903 0.69124836
0.011767746 -0.080412924 0.6913467
0.011772869 -0.082410082 0.6914497
0.011778273 -0.084410951 0.69155848
0.011783775 -0.086414382 0.69166923
0.011789234 -0.088419244 0.69177896
0.011846408 -0.090822458 0.69292927
0.013757726 0.088442564 0.69184142
0.013744122 0.086391628 0.69160682
0.013730976 0.084347427 0.69138014
0.013723013 0.082338095 0.69124281
0.013715329 0.080332637 0.69111025
0.013707653 0.078329444 0.69097793
0.013699985 0.076328486 0.69084573
0.013692326 0.074329764 0.69071364
0.013684677 0.072333306 0.69058174
0.013677035 0.070339024 0.69044995
0.013669402 0.068347007 0.69031835
0.013662203 0.066359282 0.69019419
0.013655012 0.064373642 0.69007021
0.01338609 0.061193585 0.68543279
0.013359591 0.059163928 0.68497586
0.013345695 0.057195842 0.68473619
0.013338224 0.055258363 0.68460733
0.01333076 0.05332303 0.68447864
0.013323256 0.051389694 0.68434918
0.013321583 0.0494802 0.68432039
0.013320875 0.04757458 0.68430817
0.013320114 0.045668989 0.68429506
0.013319405 0.043763787 0.6842829
0.013318646 0.041858613 0.68426973
0.01331976 0.039959282 0.68428898
0.013322902 0.038065434 0.6843431
0.013326043 0.036170691 0.68439734
0.013329188 0.034275055 0.68445158
0.013332333 0.032378525 0.68450582
