# .PCD v0.7 - Point Cloud Data file format
VERSION 0.7
FIELDS x y z
SIZE 4 4 4
TYPE F F F
COUNT 1 1 1
WIDTH 245
HEIGHT 1
VIEWPOINT 0 0 0 1 0 0 0
POINTS 245
DATA ascii
0.031694449 0.066725165 0.65595889
0.039976321 0.066627204 0.65566331
0.028638033 0.062329829 0.65794599
0.026839765 0.068776876 0.65708828
0.032167278 0.0575625 0.65896285
0.023618374 0.074229181 0.65824008
0.039020933 0.05768311 0.65939111
0.02370774 0.066043019 0.65901065
0.02370774 0.066043019 0.65901065
0.025627175 0.054671288 0.66082954
0.030659439 0.054505676 0.66020465
0.039171681 0.056202829 0.6601823
0.020566629 0.059985995 0.66148227
0.022388337 0.051665395 0.66248339
0.018989859 0.055243254 0.66298687
0.018952262 0.077531964 0.66257429
0.034570199 0.048398286 0.66324747
0.017291728 0.060521066 0.66332757
0.017287964 0.069151878 0.6632821
0.027941387 0.041912109 0.66539943
0.048906308 0.055892915 0.66543764
0.042234011 0.047513247 0.66701865
0.042234011 0.047513247 0.66701865
0.012322283 0.054570109 0.66708815
0.012321677 0.056327671 0.6670776
0.037268549 0.040817916 0.66882229
0.01064091 0.04611063 0.6686765
0.049682587 0.053231359 0.66878432
0.049682587 0.053231359 0.66878432
0.017799074 0.032038331 0.66945171
0.028491188 0.033833295 0.66954732
0.012441914 0.03732577 0.66915107
0.0089188581 0.053513169 0.66991818
0.016077099 0.030367881 0.67022878
0.008948206 0.037582487 0.67062676
0.055541657 0.059124976 0.6708712
0.023312867 0.028692752 0.67106807
0.0071840812 0.039512426 0.67139673
0.0072124288 0.030652791 0.67225224
0.018121846 0.021746248 0.67334795
0.0072630481 0.0236049 0.67377979
0.03082232 0.029009223 0.67345577
0.0072934595 0.063817769 0.67469752
0.025583884 0.021929055 0.67518711
0.00184128 0.018412799 0.67686009
0 0.022099167 0.6768986
0.0018370618 0.045926571 0.67635089
0.0073910956 0.011086643 0.67764395
-0.0073936619 0.024029404 0.67772138
0.012989919 0.009278506 0.67860103
0.031586304 0.018580168 0.67888051
0.031586304 0.018580168 0.67888051
0.0093317768 0.0055990815 0.67988694
-0.00744526 0.014890522 0.67927849
0.022483062 0.011241555 0.68076009
-0.0037623076 0.0056434572 0.68167329
0.0018850871 -0 0.6821481
-0.0056620021 0.005662024 0.6824193
0.018892439 0.0056677163 0.68264985
0.026393807 0.01131165 0.68217039
-0.0057170563 -0.0038113296 0.68463445
-0.015246587 0.0019057989 0.68465114
-0.0076250653 0.032406539 0.6847046
0.026742237 0.0038203299 0.68517458
0 -0.013519943 0.68774146
0.0019257601 -0.011554539 0.68705773
-0.019320136 -0.0057960153 0.68781257
-0.013505948 -0.0038588345 0.68749964
-0.013505948 -0.0038588345 0.68749964
0.019302845 -0.0019302368 0.68760383
-0.0038874135 -0.017493337 0.68922406
0.0097350972 -0.011682123 0.68962395
-0.01944855 -0.0097242594 0.6893627
0.015600864 -0.0078004003 0.68999678
0.015600864 -0.0078004003 0.68999678
-0.013678263 -0.017586321 0.69047117
-0.019539231 -0.011723518 0.69045728
-0.0058945017 -0.023578018 0.69177437
-0.025555687 -0.013760746 0.69189358
0.0078946464 -0.017762929 0.69283992
-0.025589265 -0.015747219 0.69220543
-0.0079477206 -0.029803991 0.69444156
-0.021866044 -0.021866053 0.69454932
0.0099176764 -0.0178518 0.69403183
-0.013946614 -0.031877995 0.6950987
-0.016053217 -0.036119729 0.69682229
0.010005854 -0.024014056 0.69616061
-0.026337974 -0.036467969 0.69915754
-0.0040536374 -0.036482751 0.6992566
-0.026364129 -0.0040560067 0.69940037
0.0040755281 -0.034641981 0.7005778
-0.026474545 -0.0020365119 0.70042562
-0.032763682 -0.038906872 0.7017808
-0.022640852 -0.051456481 0.70305175
-0.012393092 -0.049572349 0.70392764
-0.03506339 -0.043313593 0.70357001
-0.033349328 -0.014590323 0.70619917
-0.03361186 -0.063022256 0.70817983
-0.034063786 -0.072385579 0.7115894
-0.042747073 -0.07053265 0.71259928
-0.010682844 -0.064097077 0.71250457
-0.040829472 -0.077361107 0.71399546
-0.049342081 -0.068649828 0.71355951
-0.043058652 -0.077505589 0.71447986
-0.025825966 -0.075325698 0.71438706
-0.024106914 -0.081086874 0.71913993
0.033314046 0.066628098 0.65566593
0.035178255 0.062817156 0.65680701
0.035178255 0.062817156 0.65680701
0.025250234 0.069017351 0.65779614
0.02838753 0.070133924 0.65616721
0.027434858 0.051440388 0.66157788
0.022757027 0.059170865 0.66063702
0.022646889 0.043551743 0.66488421
0.035014112 0.043767661 0.66592681
0.029502586 0.04512158 0.66408479
0.01744571 0.047103435 0.66518629
0.038383503 0.047107041 0.66520244
0.038383503 0.047107041 0.66520244
0.043448694 0.052138478 0.66438681
0.050309796 0.058983892 0.66400921
0.015680635 0.069691718 0.66491127
0.012321677 0.056327671 0.6670776
0.017194822 0.032611351 0.66932648
0.017704103 0.035408199 0.6683054
0.017704103 0.035408199 0.6683054
0.031000163 0.037198886 0.6684218
0.010630323 0.049608171 0.66846353
0.010630323 0.049608171 0.66846353
0.010801983 0.027004987 0.67191702
0.008948206 0.037582487 0.67062676
0.048258007 0.050045311 0.67034817
0.048258007 0.050045311 0.67034817
0.0054203579 0.046976447 0.67269629
0.0072047696 0.055836976 0.67202109
0.016417284 0.018241465 0.6747914
-0.0036627199 0.023807645 0.67566264
0.0072934595 0.063817769 0.67469752
0.0055333697 0.012911201 0.67724353
0.025718486 0.020207345 0.67634767
0.0093317768 0.0055990815 0.67988694
0.014869059 0.0092931688 0.67895472
0.022231411 0.014820963 0.67822862
-0.0037045358 0.01852268 0.67818648
0.0037564184 0.001878202 0.68131781
0 0.0074713528 0.68006521
0.028228663 0.011291474 0.68176466
-0.0093392665 0.013074964 0.68006778
0.033790518 0.022527009 0.68120211
0.033790518 0.022527009 0.68120211
-0.013291353 0.0037975311 0.68379915
-0.0056620021 0.033972025 0.6824193
-0.0056620021 0.033972025 0.6824193
-0.0018894436 0.047236115 0.68267393
-0.0038247872 -0.0076495409 0.68544424
-0.0057303039 -0.0057303011 0.68516755
-0.015269654 0.00095289946 0.68499923
0.015428229 -0.0038570166 0.68739188
-0.013649479 -0.0155994 0.68997473
-0.017545091 -0.009747237 0.68991786
0.013599554 -0.0077711642 0.6891138
0.019349724 -0.0038699806 0.68816972
-0.015599405 0.013649493 0.68997473
-0.0078029563 -0.019507349 0.69007295
-0.0078029563 -0.019507349 0.69007295
0.0039138221 -0.017612189 0.69081795
0.017577758 -0.0097654164 0.69035602
-0.017674761 0.0098193288 0.69165701
-0.011869826 -0.027696252 0.69340038
-0.0059182765 -0.025645852 0.69273102
0.0078946464 -0.017762929 0.69283992
-0.025812052 -0.02184096 0.69427407
-0.029921941 -0.019947946 0.69539112
-0.016053217 -0.036119729 0.69682229
-0.010049381 -0.036177754 0.69721144
-0.028127082 -0.028127074 0.697115
-0.024058985 -0.028068811 0.69661266
-0.024155581 2.9802322e-08 0.69758433
-0.014214966 -0.042644918 0.69972622
-0.026387978 -0.038567066 0.6996218
0.0040530134 -0.030397594 0.69921899
-0.024252564 0.0020210445 0.69855988
-0.024550555 -0.047055215 0.7015574
-0.016296007 -0.04481402 0.70048571
0 -0.034592122 0.70022368
-0.0020507176 -0.038963616 0.70214152
-0.026964348 -0.056002885 0.7049737
-0.035279058 -0.047730476 0.70510137
-0.037751842 -0.05662775 0.70776743
-0.0062803123 -0.050242484 0.70729816
-0.035879355 -0.065427065 0.70936382
-0.03361186 -0.063022256 0.70817983
-0.042331535 -0.059264153 0.71009135
-0.010624365 -0.059496433 0.71109277
-0.010624365 -0.059496433 0.71109277
-0.042521477 -0.038269341 0.71123773
-0.038121764 -0.023296654 0.71024811
-0.038635422 -0.077270806 0.71369278
-0.030119672 -0.077450603 0.71429551
-0.04959299 -0.071155161 0.71487635
-0.047372058 -0.04952535 0.71452129
-0.050061997 -0.052238613 0.71733773
0.033790287 0.069798067 0.65519941
0.026320484 0.058585361 0.65958279
0.026382541 0.046711192 0.66343278
0.018444931 0.054762267 0.66334611
0.042173497 0.054219097 0.66237813
0.045615353 0.057764739 0.66172457
0.021996714 0.037833333 0.66701877
0.029692948 0.038217157 0.66751957
0.012394872 0.041610762 0.66833985
0.012613751 0.025227487 0.67211425
-0.0024268306 0.03331098 0.67393756
0.049344495 0.047516942 0.67520559
0.0090350807 0.065958008 0.67272407
0.0022983421 0.01749609 0.67692006
0.042379387 0.036851645 0.67701721
0.00091953471 0.046187967 0.6776281
0.00091953471 0.046187967 0.6776281
0.01868495 0.0093424916 0.6801452
0.029991493 0.014057178 0.68087173
-0.0038041121 -0.0038040876 0.68419641
-0.017694551 -0.017694563 0.69192255
-0.010730618 -0.018534794 0.69009119
0.014909312 -0.0071314573 0.68933362
-0.029931558 -0.022948101 0.69546854
0.0072566788 -0.019130439 0.69346416
0.0072566788 -0.019130439 0.69346416
-0.032147951 -0.025115371 0.69713545
-0.030026328 -0.018015802 0.69623113
-0.01606101 0.024091482 0.69693995
-0.013302837 -0.04605481 0.70166498
-0.0054655946 -0.041683517 0.70204592
-0.034476202 -0.057459205 0.70680857
-0.020674612 -0.053753972 0.7041626
-0.013555292 -0.054229945 0.70637226
-0.017953396 -0.062319629 0.70958996
-0.013818859 -0.061665997 0.7112788
-0.041149173 -0.058030717 0.70931613
-0.046280816 -0.050488174 0.70853376
-0.042389989 -0.040270478 0.71044415
-0.033132538 -0.074816018 0.71262914
-0.026787426 -0.07394027 0.71329457
-0.042703427 -0.069394156 0.71233594
-0.018561756 -0.077521317 0.71818751
