# .PCD v0.7 - Point Cloud Data file format
VERSION 0.7
FIELDS x y z
SIZE 4 4 4
TYPE F F F
COUNT 1 1 1
WIDTH 1362
HEIGHT 1
VIEWPOINT 0 0 0 1 0 0 0
POINTS 1362
DATA ascii
-0.0053007277 0.033571303 0.66788274
-0.0053203232 0.031921953 0.66867125
-0.005340083 0.030260503 0.66946626
-0.0053599901 0.028586626 0.67026728
-0.0053800466 0.026900202 0.67107433
-0.0054002339 0.025201082 0.67188656
-0.0054205926 0.023489267 0.67270577
-0.0054411059 0.021764398 0.67353112
-0.0054617547 0.020026445 0.674362
-0.0054825814 0.018275291 0.67519999
-0.0055035674 0.016510725 0.67604434
-0.005524674 0.01473248 0.67689365
-0.005545943 0.012940556 0.6777494
-0.0055673765 0.011134773 0.67861181
-0.0055889762 0.0093149543 0.67948091
-0.005610744 0.007480979 0.68035686
-0.0056325975 0.0056326091 0.68123615
-0.0056546433 0.0037697852 0.68212318
-0.0056768628 0.0018922687 0.68301725
-0.0056992359 -0 0.68391746
-0.005721807 -0.0019072592 0.68482566
-0.0057445583 -0.0038297176 0.68574107
-0.0057674693 -0.0057674646 0.68666291
-0.0057905186 -0.007720679 0.68759036
-0.0058137528 -0.0096895993 0.68852532
-0.0058371741 -0.011674345 0.68946761
-0.005860785 -0.013675183 0.69041777
-0.0058845882 -0.015692234 0.69137549
-0.0059085856 -0.017725736 0.69234103
-0.0059327791 -0.019775927 0.69331455
-0.0059571709 -0.021842957 0.694296
-0.0059817415 -0.023926973 0.69528461
-0.0060065151 -0.026028216 0.69628143
-0.0060314946 -0.028146982 0.69728649
-0.0060567074 -0.030283511 0.69830102
-0.0060821068 -0.032437891 0.69932294
-0.0061077205 -0.03461042 0.70035362
-0.0061335759 -0.036801428 0.7013939
-0.0061596255 -0.039010972 0.70244211
-0.0061858976 -0.041239321 0.70349926
-0.0062123435 -0.043486416 0.70456338
-0.0062389909 -0.045752585 0.70563549
-0.0062777381 -0.04812932 0.70719457
-0.0063047647 -0.050438106 0.70828205
-0.0063319984 -0.052766651 0.70937788
-0.0063594682 -0.055115372 0.71048313
-0.0063871783 -0.057484597 0.7115981
-0.0064151571 -0.059874833 0.71272391
-0.0064433548 -0.062285721 0.71385849
-0.00647183 -0.064718306 0.71500432
-0.006500558 -0.067172438 0.71616012
-0.0065295412 -0.069648474 0.7173264
-0.0065587843 -0.072146624 0.71850306
-0.0065882914 -0.074667305 0.71969032
-0.0066180648 -0.077210754 0.72088826
-0.0066481079 -0.0797773 0.7220971
-0.0066784252 -0.082367271 0.72331703
-0.0067089908 -0.084980577 0.72454685
-0.0067398669 -0.087618262 0.72578925
-0.0067906026 -0.090541333 0.72783071
-0.004003094 0.092071176 0.69620603
-0.0039493479 0.088860333 0.69296217
-0.0039626407 0.087178111 0.69376445
-0.0032096079 0.069006562 0.64831489
-0.0032204327 0.067629099 0.64896822
-0.0032313308 0.066242307 0.64962596
-0.0032423027 0.064846039 0.65028816
-0.0032533493 0.063440353 0.6509549
-0.0032644719 0.062024981 0.65162617
-0.0032756703 0.060599893 0.65230209
-0.0032869461 0.059165061 0.65298259
-0.0032982994 0.057720244 0.65366793
-0.0033097428 0.056265593 0.65435857
-0.0033212544 0.054800719 0.65505338
-0.003332847 0.053325564 0.65575302
-0.0033445202 0.051840067 0.6564576
-0.0033562758 0.050344139 0.65716708
-0.0033681144 0.048837662 0.65788162
-0.0033800364 0.047320515 0.65860116
-0.0033920433 0.04579258 0.65932584
-0.003404136 0.044253796 0.6600557
-0.003416315 0.042703956 0.66079074
-0.0034285935 0.041143119 0.66153187
-0.0034409484 0.039570898 0.66227752
-0.0034533928 0.037987351 0.66302866
-0.0034659279 0.036392242 0.66378516
-0.0034785536 0.034785539 0.6645472
-0.003491272 0.033167094 0.66531485
-0.003504084 0.031536788 0.6660881
-0.00351699 0.029894441 0.66686702
-0.0035299917 0.028239936 0.66765177
-0.0035431019 0.026573271 0.66844308
-0.0035562979 0.024894089 0.66923952
-0.0035695923 0.02320233 0.67004186
-0.0035829861 0.021497935 0.67085028
-0.0035964814 0.019780666 0.67166477
-0.0036100785 0.018050402 0.67248541
-0.0036237785 0.016306996 0.67331231
-0.0036375832 0.014550358 0.67414546
-0.0036514935 0.012780249 0.67498505
-0.0036655238 0.01099658 0.67583191
-0.003679649 0.0091991425 0.67668444
-0.0036938833 0.0073877871 0.67754352
-0.0037082285 0.0055623651 0.67840928
-0.0037226854 0.0037227273 0.67928183
-0.003737255 0.0018686652 0.68016124
-0.0037519399 -0 0.68104756
-0.00376674 -0.0018833578 0.68194079
-0.0037816577 -0.0037816763 0.68284118
-0.0037966939 -0.005695045 0.68374866
-0.00381185 -0.0076236725 0.68466341
-0.0038271279 -0.009567827 0.68558556
-0.0038425284 -0.011527568 0.68651503
-0.0038580538 -0.013503164 0.68745202
-0.0038737198 -0.015494883 0.68839759
-0.0038894985 -0.017502725 0.68934995
-0.0039054062 -0.019527018 0.69031006
-0.0039214445 -0.021567941 0.69127798
-0.0039376155 -0.023625731 0.69225407
-0.0039539202 -0.02570048 0.69323808
-0.0039703604 -0.027792513 0.69423038
-0.0039869379 -0.029902071 0.69523096
-0.0040036542 -0.032029212 0.69623983
-0.0040205116 -0.034174323 0.69725728
-0.0040375115 -0.036337584 0.69828326
-0.0040546558 -0.038519233 0.69931805
-0.0040719463 -0.040719479 0.70036161
-0.0040893848 -0.04293856 0.70141417
-0.0041069901 -0.045176893 0.70247668
-0.0041247308 -0.04743439 0.70354742
-0.0041951942 -0.050342321 0.70780033
-0.0042132633 -0.05266577 0.70889086
-0.0042314888 -0.055009365 0.70999086
-0.0042498726 -0.057373255 0.7111004
-0.0042683985 -0.05975756 0.71221852
-0.0042871051 -0.062162995 0.71334755
-0.0043059764 -0.064589649 0.71448654
-0.0043250141 -0.067037702 0.71563554
-0.0043442026 -0.069507211 0.71679372
-0.0043635811 -0.071999073 0.71796334
-0.0043831333 -0.074513257 0.71914339
-0.004402861 -0.07705006 0.72033411
-0.004422748 -0.079609454 0.72153443
-0.0044428348 -0.082192421 0.72274673
-0.0044631055 -0.084798992 0.72397017
-0.0044835615 -0.087429434 0.72520477
-0.0045042466 -0.09008494 0.72645324
-0.0020098845 0.092454672 0.69721246
-0.0019673603 0.088531196 0.69207931
-0.0019738716 0.086850375 0.69286531
-0.0015986052 0.06874004 0.64756662
-0.0016039398 0.067365497 0.64821053
-0.0016093153 0.065981925 0.64885944
-0.0016147216 0.064588875 0.64951205
-0.0016201645 0.063186437 0.65016907
-0.0016256494 0.061774641 0.65083116
-0.0016311662 0.06035316 0.65149713
-0.0016367261 0.058922172 0.65216821
-0.0016423184 0.05748117 0.6528433
-0.0016479495 0.056030273 0.65352303
-0.0016536243 0.054569632 0.65420806
-0.0016593331 0.053098649 0.65489715
-0.001665087 0.051617682 0.65559173
-0.0016708754 0.050126255 0.65629041
-0.0016767039 0.048624426 0.65699399
-0.0016825792 0.047112226 0.65770316
-0.0016884899 0.045589238 0.65841663
-0.0016944481 0.044055641 0.65913588
-0.0017004426 0.042511076 0.65985954
-0.0017064798 0.040955514 0.66058826
-0.0017125659 0.039388984 0.66132295
-0.0017186896 0.03781119 0.66206211
-0.0017248632 0.03622213 0.66280735
-0.0017310753 0.034621507 0.66355717
-0.0017373322 0.03300932 0.66431248
-0.0017436408 0.031385541 0.66507399
-0.0017499892 0.02974984 0.66584027
-0.0017563902 0.028102219 0.66661298
-0.0017628318 0.026442498 0.66739053
-0.0017693209 0.024770528 0.66817385
-0.0017758644 0.02308625 0.66896373
-0.00178245 0.021389425 0.66975868
-0.001789091 0.019680023 0.6705603
-0.0017957753 0.017957747 0.67136717
-0.0018025098 0.016222596 0.67218006
-0.0018093012 0.014474422 0.67299992
-0.0018161377 0.012712955 0.67382514
-0.0018230261 0.010938168 0.67465663
-0.0018299735 0.0091498494 0.67549527
-0.0018369672 0.007347852 0.67633951
-0.0018440216 0.0055320561 0.67719102
-0.0018511234 0.0037022531 0.67804831
-0.0018582803 0.0018583238 0.67891216
-0.0018654994 -2.9802322e-08 0.67978364
-0.001872768 -0.0018727779 0.68066102
-0.0018800935 -0.003760159 0.68154526
-0.0018874836 -0.0056624413 0.68243736
-0.0018949248 -0.0075796843 0.6833356
-0.0019024323 -0.0095121861 0.68424183
-0.0019099918 -0.011459947 0.68515432
-0.001917612 -0.013423294 0.6860742
-0.0019253006 -0.015402406 0.6870023
-0.0019330436 -0.017397374 0.6879369
-0.0019408492 -0.019408524 0.68887919
-0.0019487257 -0.021435976 0.68982995
-0.0019566587 -0.023479879 0.69078755
-0.0019646641 -0.02554062 0.69175386
-0.0019727275 -0.0276182 0.69272721
-0.0019808577 -0.029712856 0.6937086
-0.0019890629 -0.031824976 0.69469905
-0.0019973284 -0.033954561 0.69569683
-0.0020056628 -0.036101937 0.69670284
-0.0020140752 -0.038267434 0.69771832
-0.0020225502 -0.04045102 0.69874132
-0.0020311051 -0.042653203 0.69977403
-0.0020397247 -0.044873953 0.70081443
-0.0020484175 -0.047113597 0.70186377
-0.0020955766 -0.050293833 0.70755643
-0.002104576 -0.052614421 0.70864272
-0.0021136531 -0.054954976 0.70973837
-0.0021228085 -0.057315826 0.71084362
-0.002132053 -0.059697509 0.71195948
-0.002141369 -0.062099665 0.71308404
-0.002150767 -0.064522982 0.71421844
-0.0021602572 -0.066967964 0.71536398
-0.0021698219 -0.069434285 0.71651852
-0.0021794715 -0.0719226 0.71768343
-0.0021892171 -0.074433357 0.71885979
-0.0021990407 -0.076966405 0.72004563
-0.002208953 -0.079522312 0.72124213
-0.0022189645 -0.082101673 0.72245067
-0.0022290575 -0.084704161 0.72366899
-0.0022392527 -0.087330878 0.72489965
-0.0022495314 -0.089981228 0.72614038
0 0.092597157 0.6975863
0 0.088626385 0.69233441
0 0.086944312 0.69312316
0 0.06868583 0.64741451
0 0.067312151 0.64805734
0 0.065929562 0.64870524
0 0.064537406 0.64935678
0 0.063135922 0.65001279
0 0.061724931 0.65067321
0 0.060304552 0.6513387
0 0.058874369 0.65200812
0 0.05743438 0.65268207
0 0.055984706 0.65336132
0 0.054524928 0.65404457
0 0.053055048 0.65473253
0 0.051574975 0.65542531
0 0.05008477 0.65612352
0 0.048584044 0.65682596
0 0.047072798 0.65753323
0 0.045550942 0.65824556
0 0.044018537 0.65896356
0 0.042475134 0.65968597
0 0.040920764 0.66041344
0 0.039355487 0.66114688
0 0.037778854 0.66188478
0 0.036190927 0.66262805
0 0.034591585 0.66337663
0 0.0329808 0.66413128
0 0.031358242 0.66489077
0 0.029723823 0.66565573
0 0.028077483 0.6664263
0 0.026419222 0.66720331
0 0.024748623 0.6679852
0 0.023065716 0.66877294
0 0.021370381 0.66956717
0 0.01966235 0.67036664
0 0.017941594 0.67117202
0 0.016207933 0.67198348
0 0.014461309 0.67280185
0 0.012701392 0.67362559
0 0.010928184 0.67445558
0 0.0091414452 0.6752919
0 0.0073411167 0.6761353
0 0.0055269599 0.67698449
0 0.0036988258 0.67784017
0 0.0018565357 0.67870331
0 -0 0.67957222
0 -0.0018709898 0.680448
0 -0.0037566125 0.68133056
0 -0.0056570768 0.68222094
0 -0.0075724423 0.68311745
0 -0.0095030665 0.68402207
0 -0.011449039 0.6849345
0 -0.013410449 0.68585348
0 -0.015387684 0.68678069
0 -0.017380863 0.68771535
0 -0.019390076 0.68865675
0 -0.021415621 0.68960661
0 -0.023457706 0.69056416
0 -0.02551648 0.69152963
0 -0.027592063 0.69250202
0 -0.029684901 0.69348347
0 -0.031795025 0.69447303
0 -0.033922762 0.69547087
0 -0.036068082 0.69647598
0 -0.038231552 0.69749045
0 -0.04041326 0.69851363
0 -0.042613268 0.69954431
0 -0.044832081 0.70058483
0 -0.047069848 0.70163417
0 -0.050287962 0.70752674
0 -0.052608192 0.7086128
0 -0.054948449 0.70970821
0 -0.057309002 0.71081316
0 -0.059690088 0.71192771
0 -0.062092006 0.71305197
0 -0.064514965 0.71418607
0 -0.066959262 0.71533024
0 -0.069425613 0.71648568
0 -0.071913451 0.71765023
0 -0.074423939 0.71882629
0 -0.07695663 0.72001183
0 -0.079512447 0.72120917
0 -0.08209151 0.72241741
0 -0.084693611 0.72363538
0 -0.087319911 0.72486579
0 -0.089969933 0.72610617
0.002001547 0.092071176 0.69620603
0.0019756486 0.088904202 0.69307983
0.0019822544 0.087219208 0.69387722
0.001601081 0.068846524 0.64786547
0.0016064579 0.067471266 0.64851451
0.0016118711 0.066086709 0.64916801
0.0016173208 0.064692795 0.64982581
0.0016228128 0.063289732 0.65048879
0.001628337 0.061876804 0.65115559
0.0016338987 0.060454279 0.65182698
0.0016394989 0.05902195 0.65250295
0.0016451373 0.057579815 0.65318358
0.0016508147 0.056127727 0.65386885
0.0016565314 0.054665536 0.65455896
0.0016622934 0.05319342 0.65525448
0.0016680901 0.051710814 0.65595424
0.0016739273 0.050217837 0.65665877
0.0016798056 0.04871437 0.65736842
0.0016857252 0.047200322 0.65808296
0.0016916867 0.045675546 0.65880257
0.0016976905 0.044139951 0.6595273
0.0017037429 0.042593569 0.66025794
0.0017098329 0.04103601 0.66099298
0.0017159664 0.039467216 0.66173339
0.0017221441 0.037887186 0.6624791
0.0017283665 0.036295712 0.66323024
0.0017346339 0.034692675 0.66398674
0.0017409471 0.033077985 0.66474885
0.0017473124 0.031451613 0.66551715
0.0017537184 0.0298132 0.66629046
0.0017601714 0.028162777 0.66706944
0.0017666721 0.026500106 0.66785413
0.0017732211 0.024825126 0.66864467
0.0017798188 0.023137659 0.66944104
0.0017864656 0.021437585 0.67024344
0.0017931688 0.019724876 0.67105252
0.001799916 0.017999172 0.67186701
0.0018067142 0.016260445 0.67268765
0.001813564 0.014508516 0.67351443
0.0018204658 0.012743264 0.67434752
0.0018274204 0.010964543 0.67518705
0.001834435 0.0091722012 0.67603385
0.001841497 0.0073660016 0.67688632
0.0018486136 0.0055458248 0.67774534
0.0018557853 0.0037115812 0.67861098
0.0018630128 0.001862973 0.67948347
0.0018703039 -0 0.68036354
0.0018776453 -0.0018776357 0.68124974
0.0018850445 -0.0037700832 0.68214297
0.0018925024 -0.0056775212 0.68304318
0.0019000192 -0.007600069 0.68395054
0.0019075964 -0.0095379651 0.68486518
0.0019152414 -0.011491448 0.68578792
0.0019229403 -0.013460577 0.68671739
0.0019307015 -0.01544559 0.68765426
0.0019385257 -0.017446727 0.68859875
0.0019464137 -0.019464135 0.68955082
0.0019543658 -0.021498024 0.69051075
0.001962391 -0.023548663 0.69147944
0.0019704746 -0.025616169 0.69245529
0.0019786253 -0.027700752 0.69343913
0.0019868433 -0.02980265 0.69443119
0.0019951302 -0.031922072 0.69543141
0.0020034944 -0.034059405 0.69644111
0.002011921 -0.03621459 0.69745827
0.0020204189 -0.038387954 0.69848406
0.0020289887 -0.040579766 0.6995185
0.0020376313 -0.042790264 0.70056176
0.0020463483 -0.045019656 0.70161396
0.0020551821 -0.047269166 0.70268035
0.0020968062 -0.050323337 0.70770478
0.002105816 -0.052645355 0.70879245
0.0021149127 -0.054987758 0.70989048
0.0021240884 -0.057350367 0.71099806
0.0021333348 -0.059733391 0.71211421
0.0021426713 -0.062137455 0.71324122
0.00215209 -0.064562678 0.71437818
0.0021615822 -0.067009002 0.71552396
0.0021711683 -0.069477409 0.71668112
0.0021808394 -0.071967691 0.71784854
0.0021905878 -0.074479997 0.71902525
0.0022004333 -0.077015162 0.72021371
0.0022103677 -0.079573214 0.7214129
0.0022203824 -0.082154155 0.72262186
0.0022304982 -0.084758937 0.72384286
0.0022407067 -0.087387562 0.72507519
0.002251019 -0.090040773 0.72631991
0.004003094 0.092071176 0.69620603
0.003971668 0.089362532 0.69430929
0.0039848741 0.087667227 0.69510633
0.0032239184 0.069314301 0.64917862
0.0032350493 0.067936063 0.64985043
0.003246268 0.066548496 0.65052754
0.0032575538 0.065151095 0.65120864
0.0032689183 0.063743919 0.65189457
0.0032803626 0.062326878 0.65258533
0.0032918872 0.060899884 0.65328091
0.0033035041 0.059463084 0.65398204
0.0033151919 0.058015883 0.65468746
0.0033269632 0.056558371 0.65539795
0.0033388182 0.055090517 0.65611345
0.0033507582 0.053612143 0.65683401
0.0033627949 0.052123338 0.65756053
0.003374907 0.050623626 0.65829158
0.0033871068 0.049113065 0.65902787
0.0033993949 0.047591537 0.65976954
0.0034117845 0.046059102 0.66051728
0.0034242526 0.044515282 0.66126984
0.0034368124 0.042960167 0.6620279
0.0034494647 0.041393578 0.66279155
0.0034622103 0.039815426 0.66356081
0.0034750628 0.03822571 0.6643365
0.0034879986 0.036624014 0.66511726
0.0035010313 0.035010338 0.66590387
0.0035141616 0.033384562 0.66669631
0.003527391 0.031746536 0.66749477
0.0035407329 0.030096203 0.66830003
0.003554163 0.028433323 0.66911066
0.0035676959 0.026757717 0.66992742
0.0035813323 0.025069356 0.67075044
0.0035950858 0.023368061 0.67158055
0.0036089325 0.021653593 0.67241627
0.0036229389 0.019926131 0.67326164
0.0036370545 0.018185258 0.67411363
0.0036512669 0.016430706 0.6749714
0.0036656046 0.014662445 0.67583668
0.003680055 0.012880176 0.67670888
0.00369462 0.011083871 0.67758799
0.0037093004 0.0092732906 0.67847395
0.0037240845 0.0074481964 0.67936623
0.0037389307 0.0056083798 0.68026233
0.0037539103 0.0037539303 0.68116641
0.0037689956 0.0018844903 0.68207693
0.0037842032 -0 0.68299478
0.0037995337 -0.001899749 0.68392003
0.0038150037 -0.0038149953 0.68485379
0.0038305852 -0.005745858 0.68579417
0.0038462945 -0.0076925457 0.68674237
0.0038621332 -0.0096553266 0.6876983
0.0038780579 -0.011634171 0.68865943
0.0038939782 -0.01362893 0.68962032
0.0039100298 -0.01564011 0.69058907
0.0039262143 -0.017667979 0.69156593
0.0039425176 -0.019712597 0.69254988
0.0039589726 -0.021774322 0.69354302
0.0039755655 -0.023853362 0.69454449
0.0039922982 -0.025949955 0.69555438
0.0040091719 -0.028064191 0.6965729
0.0040261894 -0.030196398 0.69760001
0.0040433519 -0.032346815 0.69863576
0.004060661 -0.034515619 0.69968045
0.0040781191 -0.03670308 0.7007342
0.004095728 -0.038909405 0.70179695
0.0041133715 -0.041133732 0.70286185
0.0041311332 -0.043376863 0.70393384
0.0041490318 -0.045639336 0.70501417
0.0041821152 -0.048094332 0.70701092
0.0042000716 -0.050400853 0.70809466
0.004218183 -0.052727282 0.70918775
0.0042364509 -0.055073857 0.71029037
0.004254878 -0.057440847 0.71140254
0.0042734658 -0.05982852 0.71252441
0.0042922539 -0.06223768 0.71365833
0.0043112077 -0.064668119 0.71480227
0.0043303482 -0.067120373 0.71595752
0.0043496597 -0.069594562 0.71712309
0.0043691248 -0.072090566 0.71829802
0.004388785 -0.074609339 0.71948457
0.0044086222 -0.077150881 0.72068179
0.00442862 -0.079715163 0.72188878
0.0044488194 -0.082303137 0.72310793
0.0044692047 -0.084914893 0.72433829
0.0044897771 -0.08755064 0.72557998
0.0045188912 -0.090377837 0.72733712
0.0059542647 0.089313984 0.69417906
0.0059738141 0.087615967 0.6949656
0.0048879059 0.070059955 0.65127206
0.004904435 0.068662107 0.65193713
0.0049210442 0.067254275 0.65260541
0.004937782 0.065837115 0.65327895
0.0049546342 0.064410269 0.65395701
0.0049715857 0.06297344 0.65463907
0.0049886703 0.061526954 0.65532649
0.0050058723 0.060070485 0.65601867
0.0050231768 0.058603734 0.65671492
0.0050406181 0.057126969 0.6574167
0.005058181 0.055640012 0.65812337
0.0050758496 0.054142416 0.65883434
0.0050936593 0.052634478 0.65955096
0.0051115947 0.05111596 0.6602726
0.0051296386 0.049586505 0.66099864
0.0051478287 0.04804641 0.66173053
0.0051661478 0.046495348 0.66246766
0.0051845801 0.044933051 0.66320932
0.0052031623 0.043359667 0.663957
0.0052218782 0.041775048 0.66471004
0.0052407109 0.040178776 0.66546786
0.0052596987 0.038571119 0.66623187
0.0052788244 0.036951751 0.66700143
0.0052980711 0.03532052 0.66777581
0.005317477 0.03367734 0.66855669
0.005337026 0.032022178 0.66934323
0.0053567193 0.030354768 0.67013562
0.0053765392 0.028674871 0.67093313
0.0053965258 0.026982635 0.67173737
0.0054166615 0.025277764 0.67254758
0.005436928 0.023560017 0.67336297
0.0054573668 0.021829456 0.6741854
0.0054779598 0.020085871 0.67501402
0.0054986081 0.018328696 0.67584479
0.0055194329 0.016558319 0.67668277
0.0055403956 0.014774352 0.67752624
0.005561539 0.012976944 0.67837697
0.005582823 0.011165679 0.67923337
0.0056042713 0.0093404353 0.68009639
0.0056258845 0.0075011849 0.68096602
0.0056476654 0.0056476593 0.68184245
0.0056695938 0.0037797391 0.68272477
0.0056917155 0.0018972456 0.68361485
0.0057139881 -0 0.68451107
0.0057364572 -0.0019121468 0.68541515
0.0057590827 -0.0038393736 0.68632555
0.005781909 -0.005781889 0.687244
0.0058048945 -0.0077398419 0.68816888
0.0058280863 -0.0097134709 0.68910199
0.0058514639 -0.011702925 0.69004261
0.0058750068 -0.013708353 0.69098991
0.0058987639 -0.015730023 0.69194585
0.00592269 -0.017768025 0.69290853
0.0059468346 -0.019822776 0.69388002
0.0059711528 -0.021894246 0.69485855
0.005995695 -0.023982793 0.69584608
0.0060204389 -0.026088566 0.69684172
0.0060453648 -0.028211683 0.69784462
0.0060705217 -0.030352563 0.69885683
0.0060958648 -0.032511264 0.69987655
0.0061214441 -0.034688175 0.7009058
0.0061472151 -0.036883295 0.7019428
0.0061732288 -0.03909713 0.70298946
0.0061994637 -0.041329771 0.70404512
0.006225897 -0.043581307 0.70510864
0.0062525822 -0.045852274 0.70618236
0.006288995 -0.048215598 0.7076475
0.0063161459 -0.050529122 0.70874
0.006343558 -0.052862972 0.70984304
0.0063711829 -0.055216908 0.71095455
0.0063990494 -0.057591438 0.71207583
0.0064271879 -0.059987098 0.71320808
0.0064555476 -0.062403619 0.71434915
0.0064842142 -0.064842135 0.71550256
0.0065131374 -0.067302376 0.71666628
0.006542291 -0.069784433 0.71783936
0.0065717348 -0.072289109 0.71902406
0.0066014458 -0.074816376 0.72021955
0.0066314256 -0.07736659 0.72142589
0.0066616796 -0.07994017 0.72264326
0.0066922111 -0.082537264 0.72387165
0.0067230235 -0.085158288 0.72511148
0.0067541203 -0.087803572 0.72636271
0.0079175066 0.089071959 0.69352984
0.0079433676 0.087377071 0.69431025
0.0065357019 0.070258796 0.65183014
0.006557737 0.068856239 0.65249515
0.0065799002 0.067443997 0.65316403
0.0066022351 0.066022336 0.65383798
0.0066247219 0.06459105 0.65451658
0.006647341 0.06314975 0.65519923
0.0066701365 0.061698765 0.65588713
0.0066930675 0.060237586 0.65657908
0.0067161787 0.058766544 0.65727651
0.0067394264 0.05728513 0.65797812
0.0067628599 0.055793583 0.65868527
0.0067864335 0.054291487 0.65939665
0.0068101948 0.052779019 0.66011375
0.0068341 0.051255763 0.66083515
0.0068581975 0.049721926 0.66156232
0.006882465 0.048177272 0.66229469
0.006906881 0.046621472 0.66303158
0.0069314949 0.045054734 0.66377431
0.0069562611 0.043476641 0.66452169
0.0069812289 0.041887373 0.66527516
0.0070063518 0.040286511 0.66603327
0.0070316815 0.038674235 0.6667977
0.0070571951 0.037050277 0.66756767
0.0070828688 0.035414368 0.66834241
0.0071087554 0.033766598 0.66912359
0.0071348068 0.032106638 0.66990978
0.0071610752 0.030434549 0.67070252
0.0071875378 0.028750151 0.6715011
0.0072141709 0.027053177 0.67230481
0.0072410279 0.025343627 0.67311531
0.00726806 0.023621202 0.67393106
0.0072954004 0.0218862 0.67475611
0.007322947 0.020138085 0.67558742
0.0073506758 0.018376708 0.67642421
0.0073786424 0.01660195 0.67726815
0.0074068233 0.014813662 0.67811859
0.0074352198 0.013011634 0.67897552
0.0074638068 0.011195719 0.67983824
0.0074926424 0.009365797 0.68070841
0.0075217024 0.0075216591 0.68158537
0.0075509599 0.0056632161 0.6824683
0.007580474 0.0037902296 0.68335897
0.0076102205 0.0019025505 0.68425667
0.0076401723 -0 0.68516052
0.00767039 -0.0019176006 0.68607241
0.007700847 -0.0038504303 0.68699157
0.0077315173 -0.0057986379 0.68791711
0.0077624633 -0.0077624619 0.688851
0.0077936579 -0.0097420812 0.68979239
0.0078250738 -0.011737645 0.69074041
0.0078567741 -0.013749361 0.691697
0.0078887027 -0.015777409 0.69266057
0.0079209227 -0.017822057 0.69363284
0.0079533746 -0.019883454 0.69461221
0.0079861255 -0.021961808 0.69560057
0.0080191474 -0.024057418 0.6965971
0.0080524106 -0.026170313 0.6976009
0.0080859847 -0.028300941 0.69861406
0.0081198066 -0.030449271 0.69963479
0.0081539461 -0.032615751 0.700665
0.0081883725 -0.034800559 0.70170391
0.0082230587 -0.037003756 0.70275062
0.0082580736 -0.039225817 0.70380735
0.008293353 -0.041466743 0.70487201
0.0083289705 -0.0437271 0.70594686
0.00836486 -0.046006739 0.70702994
0.0084141633 -0.048381418 0.70851773
0.0084507568 -0.050704539 0.70962209
0.0084877061 -0.053048164 0.71073705
0.0085249431 -0.055412143 0.71186084
0.0085625453 -0.057797164 0.71299553
0.0086004799 -0.060203373 0.71414036
0.0086387536 -0.062630981 0.71529543
0.0086774807 -0.06508112 0.7164641
0.0087165199 -0.067553014 0.71764219
0.0087559493 -0.070047587 0.71883208
0.0087956991 -0.072564512 0.72003162
0.0088358503 -0.075104743 0.72124326
0.0088763302 -0.077667892 0.72246492
0.0089172227 -0.080255002 0.72369897
0.0089584943 -0.082866102 0.72494441
0.0090001486 -0.085501373 0.72620142
0.0090422332 -0.088161767 0.72747141
0.0098623941 0.088761568 0.69269717
0.0098943384 0.087070227 0.69346845
0.0081907837 0.070440739 0.65234089
0.008218552 0.069035858 0.65301132
0.0082465094 0.06762138 0.65368629
0.0082746306 0.066197038 0.65436518
0.0083029717 0.064763159 0.65504938
0.0083315065 0.063319504 0.65573823
0.0083602108 0.061865598 0.65643126
0.0083891423 0.060401797 0.6571297
0.0084182741 0.058927953 0.65783298
0.008447581 0.057443529 0.65854055
0.0084771207 0.055948973 0.65925372
0.008506868 0.054443955 0.65997183
0.0085367952 0.05292815 0.66069436
0.0085669635 0.051401764 0.66142273
0.008597346 0.04986462 0.66215622
0.0086279446 0.048316479 0.66289496
0.0086587314 0.046757162 0.66363817
0.0086897695 0.045186818 0.66438752
0.0087209996 0.043605 0.66514146
0.0087524867 0.042011946 0.66590166
0.0087841703 0.040407181 0.66666657
0.0088161156 0.038790911 0.66743779
0.008848263 0.037162721 0.6682139
0.0088806767 0.035522699 0.66899645
0.0089133922 0.033870906 0.66978621
0.008946415 0.032207072 0.67058349
0.0089796502 0.03053081 0.67138582
0.0090131657 0.028842121 0.67219502
0.0090468992 0.027140677 0.6730094
0.0090808868 0.025426477 0.67382991
0.0091151632 0.023699433 0.67465746
0.0091496669 0.021959215 0.67549044
0.0091844657 0.020205826 0.67633051
0.0092194965 0.018438995 0.67717624
0.00925483 0.016658664 0.6780293
0.0092904009 0.014864624 0.67888802
0.0093262801 0.013056785 0.67975426
0.0093624042 0.01123485 0.68062639
0.0093988432 0.009398818 0.68150604
0.0094355317 0.0075484514 0.68239182
0.0094725434 0.0056835413 0.68328536
0.0095098102 0.0038039386 0.68418503
0.0095474087 0.0019094944 0.68509275
0.0095852688 -0 0.68600678
0.009623467 -0.0019246638 0.68692899
0.0096619334 -0.0038647652 0.68785763
0.0097007463 -0.0058204234 0.68879461
0.0097398348 -0.0077918768 0.68973839
0.0097792773 -0.0097792745 0.69069058
0.009819041 -0.011782825 0.69165051
0.0098590907 -0.013802737 0.69261742
0.0098995073 -0.015839219 0.69359314
0.0099402163 -0.01789239 0.69457597
0.0099813025 -0.019962639 0.69556791
0.01002273 -0.022050023 0.69656801
0.010064461 -0.024154693 0.69757551
0.010106583 -0.026277095 0.69859236
0.010149017 -0.028417259 0.69961685
0.010191851 -0.030575573 0.70065099
0.010235006 -0.032752007 0.70169282
0.01027857 -0.034947127 0.70274454
0.010322634 -0.037161499 0.70380843
0.010367122 -0.039395034 0.70488238
0.010411994 -0.041647971 0.70596564
0.010457299 -0.043920666 0.70705944
0.010520446 -0.04628998 0.70858401
0.010566614 -0.048606426 0.70969856
0.010613143 -0.050943077 0.71082187
0.010660083 -0.05330044 0.71195507
0.010707441 -0.055678695 0.71309841
0.010755268 -0.058078438 0.71425307
0.010803478 -0.06049946 0.71541691
0.010852121 -0.062942266 0.71659124
0.010901252 -0.065407485 0.71777743
0.010950782 -0.067894876 0.71897316
0.011000812 -0.070405155 0.72018099
0.01105135 -0.072938919 0.72140115
0.011102307 -0.07549569 0.72263134
0.011153734 -0.078076184 0.7238729
0.011205641 -0.080680639 0.72512603
0.011258032 -0.083309442 0.72639084
0.011310969 -0.085963368 0.72766882
0.011364352 -0.088641912 0.72895765
0.011817915 0.088634372 0.69235599
0.011858902 0.086965263 0.69318056
0.0098607726 0.070668906 0.65298128
0.0098944418 0.069261104 0.65365875
0.0099283094 0.067843437 0.65434009
0.0099624079 0.066416025 0.65502608
0.0099967755 0.064979047 0.65571749
0.010031348 0.063531876 0.65641308
0.010066194 0.06207487 0.65711409
0.010101249 0.060607493 0.65781933
0.010136583 0.059130073 0.65853024
0.010172131 0.057642102 0.65924537
0.010207963 0.05614379 0.65996623
0.010244015 0.05463475 0.66069162
0.010280357 0.053115159 0.66142273
0.010316921 0.051584601 0.66215837
0.010353783 0.050043315 0.66289997
0.010390873 0.048490763 0.66364622
0.010428266 0.046927214 0.66439843
0.010465929 0.04535234 0.66515619
0.010503977 0.043766588 0.66592157
0.010542374 0.042169511 0.6666941
0.010581017 0.040560603 0.66747153
0.010619982 0.038939893 0.66825545
0.010659196 0.037307203 0.66904438
0.010698702 0.035662353 0.66983914
0.01073854 0.034005374 0.67064071
0.010778637 0.032335907 0.67144728
0.010819073 0.030654073 0.67226088
0.010859773 0.028959394 0.67307973
0.010900823 0.027252048 0.67390555
0.010942143 0.025531679 0.67473686
0.010983818 0.023798257 0.67557526
0.011025771 0.022051573 0.67641926
0.011068045 0.020291418 0.67726982
0.011110688 0.018517822 0.67812765
0.011153617 0.016730428 0.67899132
0.011196921 0.014929265 0.67986256
0.011240521 0.013113976 0.68073976
0.011284504 0.0112845 0.68162465
0.01132879 0.0094406903 0.68251556
0.011373425 0.0075823069 0.68341357
0.011418456 0.0057092309 0.68431956
0.011463803 0.0038212836 0.6852318
0.011509554 0.0019182563 0.68615228
0.011555627 -0 0.68707919
0.011602073 -0.0019336939 0.68801361
0.011648936 -0.0038829744 0.6889565
0.011696135 -0.0058480501 0.689906
0.011743763 -0.0078291893 0.69086421
0.011791736 -0.0098264217 0.69182926
0.011840101 -0.011840105 0.69280231
0.0118891 -0.013870597 0.69378811
0.011938602 -0.015918165 0.69478405
0.011988469 -0.017982721 0.69578731
0.012038753 -0.020064563 0.69679892
0.012089511 -0.022164136 0.69782013
0.012140651 -0.024281323 0.69884896
0.012192224 -0.026416481 0.69988656
0.012244238 -0.028569877 0.70093292
0.012296746 -0.03074187 0.70198929
0.012349658 -0.032932401 0.70305389
0.012403026 -0.035141885 0.70412755
0.012456857 -0.037370563 0.70521057
0.01251121 -0.03961882 0.70630401
0.012565986 -0.041886628 0.70740604
0.012621245 -0.044174373 0.70851779
0.012699084 -0.046563298 0.71008378
0.012755414 -0.048895717 0.71121699
0.012812245 -0.051248968 0.71236038
0.01286964 -0.053623527 0.7135151
0.012927552 -0.056019396 0.71468019
0.012985988 -0.05843693 0.71585584
0.013044953 -0.060876459 0.71704215
0.0131048 -0.063339859 0.71824616
0.013165257 -0.065826297 0.71946251
0.013226273 -0.068335742 0.72068995
0.0132878 -0.070868254 0.72192782
0.013349961 -0.073424786 0.72317845
0.013412645 -0.076005012 0.72443956
0.013475983 -0.078609914 0.72571379
0.01353986 -0.081239134 0.72699887
0.013604407 -0.083893836 0.72829747
0.013669573 -0.086573929 0.72960848
0.011549911 0.070949435 0.65376902
0.011589658 0.069537967 0.65445435
0.011629718 0.068116903 0.65514523
0.011670017 0.066685826 0.65584016
0.011710635 0.065244973 0.65654063
0.011751498 0.063793838 0.65724528
0.011792687 0.062332749 0.65795553
0.011834125 0.06086123 0.65867007
0.011875855 0.05937925 0.65938973
0.011917923 0.057887048 0.66011512
0.011960247 0.056384027 0.66084498
0.012002914 0.054870486 0.66158074
0.012046095 0.053346992 0.66232538
0.012089629 0.051812679 0.66307616
0.012133437 0.050267071 0.66383153
0.012177562 0.048710227 0.66459244
0.012222053 0.047142208 0.66535968
0.012266827 0.045562506 0.66613185
0.012311932 0.043971181 0.66690958
0.012357412 0.042368293 0.66769385
0.012403185 0.040753335 0.6684832
0.012449299 0.039126396 0.66927838
0.012495801 0.037487388 0.6700803
0.012542608 0.035836011 0.67088747
0.012589765 0.034172207 0.67170066
0.012637326 0.032495975 0.67252088
0.012685201 0.030806929 0.6733464
0.012733439 0.029104978 0.67417824
0.012782093 0.027390212 0.67501724
0.012831073 0.025662124 0.67586184
0.01288043 0.023920804 0.67671299
0.012930215 0.022166073 0.67757154
0.012980339 0.020397693 0.67843586
0.013030853 0.018615514 0.67930692
0.013081761 0.016819417 0.68018484
0.013133119 0.015009284 0.68107045
0.013184831 0.013184845 0.68196219
0.013236953 0.011345953 0.68286103
0.013289487 0.0094924867 0.68376696
0.013342491 0.0076242387 0.68468094
0.013396228 0.0057412386 0.68560767
0.013450399 0.0038429797 0.68654174
0.013505062 0.0019293129 0.68748438
0.013560119 -0 0.68843377
0.013615679 -0.0019450784 0.68939191
0.013671696 -0.0039061904 0.69035792
0.013728123 -0.0058834851 0.69133091
0.013785072 -0.007877171 0.69231296
0.01384244 -0.0098874569 0.69330227
0.013900342 -0.011914581 0.69430077
0.013958732 -0.013958722 0.69530767
0.014017558 -0.01602003 0.69632202
0.014076938 -0.018098921 0.69734597
0.014136765 -0.020195395 0.69837773
0.014197162 -0.02230984 0.69941926
0.014258078 -0.024442405 0.70046967
0.014319459 -0.026593268 0.70152807
0.01438143 -0.028762877 0.70259678
0.01444394 -0.030951291 0.70367473
0.014506936 -0.03315869 0.70476103
0.014570544 -0.035385579 0.70585793
0.014634713 -0.037632108 0.70696455
0.014699942 -0.039899856 0.70808935
0.014765819 -0.042188048 0.7092253
0.014832225 -0.044496685 0.71037048
0.014928187 -0.04691714 0.71202534
0.014996001 -0.049272567 0.71319473
0.01506437 -0.051649243 0.71437371
0.015133364 -0.054047704 0.71556342
0.015202994 -0.056468248 0.71676409
0.015273333 -0.058911413 0.71797711
0.015344258 -0.061377048 0.71920025
0.015415846 -0.063865632 0.72043467
0.015488175 -0.066377878 0.72168183
0.015561115 -0.06891349 0.72293973
0.015634745 -0.071473122 0.72420949
0.015709711 -0.074060023 0.72550213
0.01578554 -0.076672614 0.7268098
0.015862105 -0.079310536 0.7281301
0.015939416 -0.081974119 0.72946328
0.016017485 -0.084663838 0.73080957
0.016096396 -0.087380469 0.73217034
0.013263318 0.071290314 0.65472591
0.013309491 0.069874853 0.65542263
0.013355941 0.068449199 0.65612352
0.013402717 0.067013592 0.6568293
0.013449868 0.065568119 0.6575408
0.013497488 0.064113081 0.65825927
0.013545584 0.062648356 0.65898502
0.01359407 0.06117332 0.65971661
0.013642905 0.059687734 0.66045344
0.013692045 0.05819121 0.66119492
0.013741586 0.056684047 0.66194248
0.013791441 0.055165797 0.66269469
0.013841706 0.053636611 0.66345316
0.013892292 0.052096128 0.6642164
0.013943295 0.050544441 0.66498601
0.013994628 0.04898119 0.66576058
0.014046387 0.047406554 0.66654152
0.014098482 0.045820087 0.66732764
0.014151014 0.044221938 0.66812021
0.014203941 0.042611808 0.66891885
0.014257213 0.040989488 0.66972262
0.014310937 0.039355069 0.6705333
0.014365016 0.037708193 0.67134929
0.014419558 0.036048889 0.67217219
0.014474463 0.034376889 0.67300069
0.014529841 0.032692164 0.67383629
0.014585643 0.030994505 0.67467833
0.014641823 0.029283643 0.67552602
0.014698491 0.027559698 0.67638099
0.014755544 0.025822192 0.67724192
0.014813482 0.024071902 0.67811608
0.014871931 0.022307873 0.67899805
0.014930899 0.020530015 0.67988777
0.014990279 0.018737853 0.68078381
0.015050191 0.016931474 0.68168777
0.015110585 0.015110582 0.68259907
0.015171406 0.013274968 0.68351674
0.015232778 0.011424601 0.68444282
0.015294589 0.0095590949 0.68537545
0.015356964 0.007678479 0.68631661
0.01541979 0.0057824254 0.68726456
0.015483191 0.003870815 0.68822128
0.015547057 0.0019433796 0.6891849
0.015611512 -0 0.69015741
0.015676443 -0.0019595325 0.69113714
0.015741976 -0.0039354861 0.69212604
0.015807997 -0.0059279799 0.69312215
0.015874639 -0.0079373419 0.6941278
0.015941782 -0.0099636018 0.69514084
0.016009621 -0.012007207 0.69616449
0.016078623 -0.014068753 0.6972056
0.016148288 -0.016148299 0.69825673
0.016218491 -0.018245816 0.69931608
0.016289309 -0.020361632 0.70038468
0.016360814 -0.022496134 0.70146358
0.016432883 -0.024649322 0.70255101
0.016505659 -0.026821673 0.70364904
0.016579011 -0.029013246 0.7047559
0.016653089 -0.031224549 0.70587361
0.016727762 -0.033455521 0.70700032
0.016803177 -0.035706729 0.70813829
0.016879205 -0.037978202 0.7092855
0.016955996 -0.040270478 0.71044415
0.017033417 -0.042583495 0.71161234
0.017149448 -0.045017302 0.71336311
0.017229466 -0.047381014 0.71457052
0.017310232 -0.049766928 0.71578914
0.01739176 -0.052175254 0.71701932
0.017474135 -0.054606676 0.71826226
0.017557219 -0.057060987 0.71951586
0.017641094 -0.059538692 0.72078151
0.017725775 -0.06204024 0.72205925
0.017811274 -0.064565897 0.72334927
0.017897682 -0.06711629 0.72465307
0.01798485 -0.0696913 0.72596836
0.018074177 -0.072296709 0.72731614
0.018164398 -0.074928135 0.72867751
0.018255606 -0.077586353 0.73005378
0.018347651 -0.080270976 0.73144257
0.018440628 -0.082982838 0.73284554
0.01853464 -0.085722715 0.73426402
0.017052062 0.085260302 0.68330526
0.017109141 0.083644718 0.68407077
0.015008507 0.071707308 0.65589648
0.015061869 0.070288718 0.65661216
0.01511556 0.068859816 0.6573323
0.015169687 0.06742084 0.65805829
0.015224203 0.065971553 0.65878946
0.015279059 0.064511597 0.65952522
0.015334365 0.06304127 0.660267
0.015390021 0.061560094 0.66101348
0.015446134 0.060068339 0.66176605
0.015502606 0.058565378 0.66252351
0.015559545 0.057051659 0.66328716
0.015616849 0.055526614 0.66405571
0.015674632 0.053990394 0.66483074
0.015732789 0.05244264 0.66561079
0.015791435 0.050883502 0.66639733
0.015850464 0.049312562 0.66718906
0.015909992 0.047729969 0.66798747
0.015969912 0.046135336 0.66879112
0.016030343 0.044528723 0.66960168
0.016091233 0.04290998 0.67041832
0.016152818 0.041279405 0.67124432
0.016215285 0.039637357 0.67208219
0.016278177 0.037982434 0.67292571
0.016341621 0.036314756 0.67377663
0.016405502 0.034633845 0.67463338
0.016469942 0.032939881 0.67549765
0.016534831 0.031232506 0.676368
0.016600294 0.029511631 0.67724597
0.016666215 0.027777016 0.67813015
0.016732663 0.026028603 0.67902136
0.016799705 0.024266243 0.67992055
0.016867224 0.022489607 0.68082613
0.01693535 0.020698756 0.68173987
0.017003965 0.018893301 0.68266016
0.017073205 0.017073184 0.6835888
0.017142942 0.015238166 0.68452418
0.01721332 0.013388127 0.68546808
0.017284211 0.0115228 0.68641889
0.017356491 0.0096425116 0.6873883
0.017429579 0.0077464879 0.68836868
0.017503219 0.0058344007 0.68935633
0.017577482 0.0039061308 0.69035238
0.017652381 0.00196141 0.6913569
0.017727919 -2.9802322e-08 0.69237006
0.017804177 -0.0019782484 0.69339287
0.017881023 -0.0039735734 0.69442356
0.017958535 -0.0059861839 0.69546312
0.018036721 -0.0080162883 0.69651181
0.018115591 -0.010064214 0.69756967
0.018195156 -0.012130082 0.69863677
0.018275423 -0.014214218 0.69971335
0.018356474 -0.016316861 0.70080042
0.018438928 -0.018438935 0.70190632
0.018522657 -0.020580739 0.70302927
0.018607229 -0.022742152 0.70416361
0.018692499 -0.024923295 0.70530725
0.018778631 -0.027124703 0.7064625
0.018865483 -0.029346317 0.70762742
0.018953223 -0.031588703 0.70880413
0.01904178 -0.033852041 0.70999187
0.019131089 -0.036136508 0.71118981
0.019221321 -0.038442641 0.71239996
0.019312326 -0.040770471 0.7136206
0.019457687 -0.043239325 0.71557027
0.019552562 -0.045622647 0.71684271
0.01964828 -0.048029155 0.71812654
0.019745028 -0.050459504 0.71942413
0.019842733 -0.052913934 0.7207346
0.01994141 -0.055392772 0.722058
0.020041073 -0.057896435 0.72339475
0.020143898 -0.060431659 0.72477388
0.020247877 -0.062993377 0.72616845
0.020353025 -0.065581948 0.72757876
0.020459179 -0.06819725 0.72900248
0.02056654 -0.070840299 0.73044246
0.020675223 -0.073511869 0.73190022
0.020785157 -0.076212257 0.73337466
0.020898787 -0.078951001 0.73489869
0.021014355 -0.081722498 0.73644871
0.021131305 -0.084525198 0.73801726
0.018940711 0.085233241 0.68323255
0.016948326 0.074572623 0.65918231
0.016796926 0.072226793 0.65735477
0.016857706 0.070802361 0.65808845
0.01691887 0.069367379 0.65882671
0.016980534 0.067922145 0.65957111
0.017042594 0.066466123 0.66032028
0.017105108 0.064999402 0.66107488
0.017168142 0.0635221 0.66183573
0.017231584 0.062033713 0.66260147
0.017295554 0.060534447 0.66337371
0.017359942 0.059023798 0.66415095
0.017425233 0.057503283 0.66493911
0.017491449 0.055972636 0.66573834
0.017558169 0.054430366 0.66654378
0.017625399 0.052876204 0.6673553
0.017693147 0.051310152 0.66817307
0.01776148 0.049732149 0.66899794
0.017830281 0.048141748 0.66982847
0.017899614 0.046539009 0.67066538
0.017969491 0.044923723 0.67150885
0.018039914 0.043295771 0.67235893
0.018110892 0.041655064 0.67321569
0.01818243 0.040001333 0.6740793
0.018254602 0.038334638 0.67495048
0.018327285 0.036654532 0.67582786
0.018400546 0.034961045 0.67671216
0.018474394 0.033253908 0.6776036
0.018549666 0.031534433 0.67851222
0.018625898 0.029801428 0.67943239
0.018702829 0.028054237 0.68036109
0.01878033 0.026292503 0.68129659
0.018858474 0.024515986 0.68223983
0.018937344 0.022724807 0.6831919
0.019016802 0.020918489 0.68415105
0.019097004 0.019097 0.68511915
0.019177811 0.017260045 0.68609458
0.01925938 0.015407503 0.68707919
0.019341644 0.013539135 0.68807226
0.019424541 0.011654705 0.68907291
0.019508226 0.0097541213 0.69008303
0.019594094 0.0078376532 0.69111955
0.019680953 0.0059043169 0.69216806
0.019768585 0.0039536953 0.69322586
0.019857002 0.0019856989 0.69429314
0.019946134 -0 0.69536906
0.020036148 -0.0020036101 0.6964556
0.02012698 -0.0040253997 0.69755208
0.020218555 -0.0060655773 0.69865745
0.020311052 -0.0081244111 0.69977397
0.020404398 -0.010202169 0.70090085
0.020499784 -0.012299895 0.70205224
0.020597335 -0.014418125 0.70322978
0.02069582 -0.016556621 0.70441854
0.02079534 -0.018715799 0.70561987
0.020895731 -0.020895749 0.70683169
0.020997098 -0.0230968 0.70805526
0.021099452 -0.025319338 0.70929086
0.0212029 -0.027563751 0.71053958
0.021307727 -0.029830784 0.71180493
0.021416899 -0.032125324 0.71312279
0.021527287 -0.034443676 0.71445537
0.021638727 -0.036785841 0.71580046
0.021751419 -0.039152563 0.71716076
0.02195278 -0.041710258 0.71959144
0.022073839 -0.04414767 0.72105277
0.022196241 -0.046612144 0.72253031
0.022319907 -0.049103767 0.72402304
0.022447679 -0.051629663 0.72556543
0.022581711 -0.05419606 0.72718328
0.02271921 -0.056798041 0.72884303
0.022858392 -0.059431821 0.73052317
0.023007011 -0.062118918 0.73231709
0.023162078 -0.064853787 0.73418891
0.023324793 -0.067641914 0.73615313
0.023513764 -0.070541292 0.7384342
0.023739452 -0.073592305 0.74115849
0.020692924 0.084652871 0.68167579
0.018643284 0.074573129 0.65918368
0.018641263 0.072870404 0.65916151
0.018711228 0.071442872 0.65992928
0.018781783 0.070004851 0.66070354
0.018852808 0.068555653 0.66148293
0.018924436 0.067095727 0.662269
0.018996544 0.065624416 0.66306031
0.019069208 0.064141899 0.66385764
0.019142492 0.062648147 0.66466188
0.019216277 0.061142683 0.66547155
0.019290699 0.059625775 0.66628826
0.019365633 0.058096915 0.6671105
0.01944115 0.056556076 0.66793925
0.019517329 0.055003375 0.6687752
0.019594107 0.053438485 0.66961777
0.019672615 0.051864207 0.6704793
0.01975218 0.050278276 0.67135239
0.019832393 0.048679501 0.67223263
0.019913187 0.047067553 0.67311919
0.019994715 0.045442551 0.67401391
0.020076914 0.043804199 0.67491591
0.02015979 0.042152315 0.67582536
0.020243356 0.040486723 0.67674237
0.020327615 0.038807303 0.67766702
0.020412503 0.037113667 0.67859852
0.020498179 0.035405934 0.67953879
0.020585423 0.033685267 0.6804961
0.020674814 0.031951964 0.68147707
0.020765061 0.03020373 0.68246746
0.020856019 0.028439999 0.68346566
0.02094778 0.02666083 0.68447256
0.021040432 0.024865955 0.6854893
0.021133825 0.023055077 0.68651414
0.021228051 0.021228045 0.68754816
0.021323204 0.019384772 0.68859231
0.021419799 0.017525285 0.68965232
0.02152013 0.015651017 0.69075334
0.021621324 0.013759017 0.69186378
0.021723472 0.011849165 0.69298476
0.021826677 0.0099212229 0.69411731
0.02193078 0.0079748631 0.69525969
0.022035968 0.0060098171 0.69641393
0.022142172 0.0040258765 0.69757944
0.022254169 0.0020231307 0.69880849
0.022367854 -0 0.70005602
0.022482704 -0.0020438433 0.70131636
0.022598742 -0.004108876 0.70258969
0.02271598 -0.006195277 0.70387626
0.022836717 -0.0083042681 0.70520121
0.022965547 -0.010438889 0.70661485
0.023095742 -0.01259765 0.70804363
0.023227418 -0.014781117 0.70948863
0.023361003 -0.016989797 0.71095449
0.023512999 -0.019237876 0.71262246
0.023666879 -0.02151534 0.71431112
0.023821965 -0.02382195 0.71601295
0.023961663 -0.026140004 0.71754599
0.024088979 -0.028468817 0.71894312
0.024210304 -0.030813098 0.72027451
0.024325866 -0.033171624 0.72154266
0.024442537 -0.0355528 0.7228229
0.024560004 -0.037956357 0.72411203
0.022025656 0.082596213 0.67615891
0.020497892 0.075158924 0.6607908
0.02057706 0.073734492 0.66158712
0.02065734 0.072300732 0.66239476
0.020739825 0.070861101 0.66322446
0.020823043 0.069410115 0.66406155
0.02090686 0.067947328 0.66490471
0.020991428 0.066472858 0.66575539
0.021076607 0.064986199 0.66661221
0.021162482 0.06348744 0.66747606
0.021249134 0.061976641 0.66834772
0.021336423 0.060453206 0.66922575
0.021424431 0.058917165 0.67011106
0.021514172 0.05737111 0.67101377
0.021606842 0.055817664 0.67194605
0.021700395 0.054251015 0.67288703
0.021794682 0.052670479 0.67383552
0.021889791 0.051076204 0.67479223
0.021985814 0.0494681 0.67575812
0.022082604 0.047845602 0.67673177
0.02218033 0.046209008 0.67771482
0.022280743 0.044561505 0.67872488
0.022385076 0.042904764 0.6797744
0.022490473 0.041232556 0.68083459
0.02259687 0.039544553 0.68190485
0.022704275 0.037840486 0.68298531
0.022812705 0.036120147 0.68407601
0.022924015 0.034386009 0.68519574
0.02304296 0.032644182 0.68639219
0.023163145 0.030884206 0.68760121
0.02328459 0.029105753 0.68882281
0.023407226 0.027308434 0.69005644
0.023541214 0.02550301 0.69140422
0.023682537 0.023682535 0.69282585
0.023825565 0.021840125 0.69426459
0.02396507 0.019970894 0.69566792
0.024087166 0.018065393 0.69689608
0.024207098 0.016138077 0.69810253
0.024317196 0.014185011 0.69921005
0.024424024 0.012212068 0.7002846
0.024531499 0.010221481 0.70136571
0.024639616 0.0082132518 0.70245326
0.024747161 0.0061868131 0.70353514
0.024852358 0.0041420758 0.7045933
0.024958348 0.0020798445 0.70565951
0.025063364 -0 0.70671588
0.025168633 -0.002097398 0.70777488
0.025274154 -0.0042123497 0.70883626
0.025380133 -0.0063450336 0.70990235
0.025486896 -0.0084956288 0.7109763
0.02559489 -0.010664552 0.71206266
0.02570424 -0.012852132 0.71316266
0.02581442 -0.015058428 0.71427095
0.025925659 -0.017283767 0.71538991
0.026037861 -0.019528389 0.71651864
0.026151041 -0.021792531 0.71765709
0.026265092 -0.024076313 0.71880436
0.02638026 -0.026380241 0.71996284
0.026496438 -0.028704464 0.7211315
0.026617894 -0.031054199 0.72235322
0.026743567 -0.033429444 0.72361743
0.02687043 -0.035827249 0.72489357
0.023860777 0.082595021 0.67615569
0.022595285 0.076476365 0.66440499
0.022694377 0.07506606 0.66532511
0.022794344 0.073643267 0.66625339
0.022895195 0.072207958 0.66718978
0.022998406 0.070764363 0.66814816
0.023108874 0.069326639 0.66917384
0.023220405 0.067875057 0.67020953
0.023333021 0.066409379 0.67125523
0.023446733 0.064929396 0.67231107
0.023565141 0.063444644 0.67341053
0.023695799 0.061973631 0.67462373
0.023827912 0.060486227 0.67585051
0.023961507 0.058982164 0.677091
0.024080107 0.057421774 0.6781922
0.024193944 0.055832237 0.67924923
0.024307955 0.054225445 0.68030787
0.024408381 0.052571893 0.68124044
0.024507239 0.050899655 0.68215835
0.024606811 0.049213678 0.68308294
0.024707193 0.047513813 0.68401504
0.024808399 0.045800179 0.68495476
0.024907861 0.04406774 0.68587828
0.025005432 0.042316884 0.68678427
0.025102125 0.040549576 0.68768215
0.025199566 0.03876856 0.68858683
0.025297768 0.036973685 0.68949872
0.025396736 0.035164714 0.69041771
0.025496084 0.03334102 0.69134021
0.025595507 0.031502187 0.69226336
0.025696116 0.029649407 0.69319761
0.025797721 0.027782142 0.69414103
0.025900237 0.025900245 0.69509292
0.026003569 0.024003297 0.69605243
0.026107732 0.02209118 0.69701964
0.026212731 0.020163655 0.69799459
0.026318474 0.018220514 0.6989764
0.026425177 0.016261697 0.69996727
0.026532751 0.014286876 0.70096612
0.026641423 0.012296051 0.70197523
0.026757592 0.010291398 0.70305383
0.026874777 0.0082691908 0.70414197
0.026992993 0.0062291622 0.70523965
0.027112253 0.004171133 0.70634699
0.027232574 0.002094835 0.70746422
0.027353965 -0 0.70859146
0.027481668 -0.0021139681 0.70977724
0.027621591 -0.0042494833 0.7110765
0.027762946 -0.0064068139 0.71238899
0.027905753 -0.0085863769 0.71371502
0.028095715 -0.010806054 0.7154789
0.025696505 0.082595885 0.67615807
0.024954922 0.078429759 0.66976404
0.025045482 0.076925397 0.67054486
0.025135532 0.075406581 0.67132127
0.025226139 0.07387656 0.67210257
0.025317492 0.07233569 0.67289019
0.02540951 0.070783645 0.67368364
0.025502203 0.069220275 0.67448282
0.02559557 0.067645431 0.67528784
0.025689343 0.066058338 0.67609638
0.02578352 0.064458817 0.67690837
0.025878485 0.062847733 0.67772722
0.025974249 0.061225027 0.67855287
0.026070727 0.05959025 0.67938471
0.026167922 0.057943225 0.68022275
0.026265845 0.05628401 0.68106699
0.026364401 0.054611981 0.68191683
0.026463801 0.052927613 0.68277389
0.026563955 0.05123049 0.68363744
0.026664872 0.049520463 0.68450761
0.026769625 0.047802925 0.68541074
0.026878504 0.04607746 0.68634951
0.02698827 0.044337869 0.68729597
0.027098941 0.042584032 0.68825018
0.027210521 0.0408158 0.68921226
0.027323022 0.039032906 0.69018221
0.027436351 0.037235081 0.69115937
0.027555069 0.035427988 0.69218296
0.027685644 0.033618301 0.69330883
0.027817464 0.031791359 0.69444543
