# .PCD v0.7 - Point Cloud Data file format
VERSION 0.7
FIELDS x y z
SIZE 4 4 4
TYPE F F F
COUNT 1 1 1
WIDTH 1336
HEIGHT 1
VIEWPOINT 0 0 0 1 0 0 0
POINTS 1336
DATA ascii
-0.015772371 0.078861862 0.69258457
-0.015764046 0.076849759 0.69245905
-0.015755668 0.074839443 0.69233263
-0.015747301 0.072831303 0.69220638
-0.015739005 0.070825517 0.69208115
-0.015730655 0.068821609 0.69195515
-0.015722375 0.066820085 0.69183022
-0.015714228 0.064821213 0.69170737
-0.015706398 0.06282559 0.69158912
-0.015698574 0.060831964 0.6914711
-0.015690697 0.058840156 0.69135225
-0.015682891 0.056850493 0.69123441
-0.015675031 0.054862589 0.69111586
-0.015667237 0.052876949 0.69099832
-0.015659455 0.050893217 0.69088084
-0.015651617 0.048911303 0.69076258
-0.015643848 0.046931565 0.69064534
-0.015636086 0.044953793 0.69052827
-0.015628275 0.04297775 0.69041038
-0.015620528 0.041003853 0.69029349
-0.015612729 0.039031833 0.69017583
-0.015604999 0.03706187 0.69005919
-0.015597276 0.035093904 0.68994266
-0.015589503 0.033127695 0.6898253
-0.015581795 0.031163603 0.68970901
-0.015574096 0.029201448 0.68959284
-0.015566343 0.027241111 0.68947595
-0.01555866 0.02528283 0.6893599
-0.015550923 0.023326367 0.6892432
-0.015543253 0.02137199 0.6891275
-0.015535593 0.019419461 0.68901193
-0.015527879 0.01746884 0.68889552
-0.015520232 0.015520245 0.68878019
-0.015512593 0.013573527 0.68866485
-0.015504901 0.011628687 0.6885488
-0.015497519 0.0096859634 0.68843746
-0.015490381 0.0077451766 0.68832976
-0.015483191 0.0058062077 0.68822122
-0.015476009 0.0038689971 0.68811285
-0.015468892 0.0019336045 0.68800545
-0.015461721 -0 0.68789732
-0.015454618 -0.0019318163 0.68779016
-0.01544746 -0.0038618743 0.68768209
-0.01544037 -0.0057901144 0.6875751
-0.015433226 -0.0077166259 0.68746734
-0.015426148 -0.0096413493 0.68736058
-0.015419018 -0.011564255 0.68725288
-0.015411953 -0.013485432 0.68714631
-0.015404836 -0.01540485 0.68703896
-0.015397783 -0.01732251 0.68693256
-0.015390679 -0.019238353 0.68682534
-0.015383641 -0.021152496 0.68671918
-0.015376549 -0.023064792 0.68661213
-0.015369523 -0.024975479 0.68650615
-0.015362445 -0.026884317 0.68639934
-0.015355374 -0.028791308 0.68629265
-0.015348367 -0.03069672 0.68618691
-0.015341308 -0.032600254 0.68608034
-0.015334315 -0.034502208 0.68597484
-0.015327268 -0.036402255 0.68586856
-0.015320288 -0.038300753 0.68576324
-0.015340838 -0.040269673 0.6860733
-0.015334315 -0.042169362 0.6859749
-0.015327739 -0.044067234 0.68587559
-0.015321227 -0.045963675 0.68577737
-0.01531466 -0.047858328 0.68567836
-0.01530816 -0.04975152 0.68558025
-0.015301606 -0.051642925 0.68548131
-0.015295116 -0.053532928 0.68538344
-0.015288631 -0.055421263 0.68528551
-0.015282094 -0.057307869 0.68518692
-0.015275621 -0.059193045 0.68508923
-0.015269095 -0.061076373 0.68499076
-0.015262633 -0.06295836 0.68489325
-0.015256175 -0.064838737 0.6847958
-0.015249839 -0.066718042 0.68470025
-0.015243626 -0.068596333 0.68460649
-0.015237417 -0.070473045 0.68451285
-0.015231213 -0.072348267 0.68441921
-0.015225015 -0.074221969 0.6843257
-0.015218764 -0.076093823 0.68423128
-0.015212574 -0.077964455 0.68413794
-0.01520639 -0.079833537 0.68404466
-0.015200212 -0.08170113 0.68395138
-0.015194039 -0.083567232 0.68385828
-0.015187812 -0.085431471 0.68376434
-0.015181649 -0.087294474 0.6836713
-0.013786862 0.090599388 0.69234389
-0.01377916 0.08858031 0.69221103
-0.013771521 0.086563855 0.69207925
-0.013763891 0.084549576 0.6919477
-0.013756268 0.082537621 0.69181621
-0.013748654 0.080527872 0.69168496
-0.013741049 0.078520268 0.69155383
-0.013733452 0.076514959 0.69142282
-0.01372581 0.074511528 0.69129103
-0.01371823 0.07251063 0.69116032
-0.013710658 0.070511997 0.69102973
-0.013703094 0.06851545 0.69089937
-0.01369554 0.066521198 0.69076902
-0.013687993 0.064529121 0.6906389
-0.013680453 0.06253922 0.6905089
-0.013672871 0.060551316 0.69037813
-0.013665348 0.058565795 0.69024837
-0.013657888 0.056582689 0.6901198
-0.013650756 0.05460301 0.68999678
-0.013643577 0.052625209 0.68987298
-0.013636459 0.050649703 0.68975025
-0.013629296 0.048676074 0.68962669
-0.013622192 0.04670471 0.68950421
-0.013615044 0.044735134 0.68938094
-0.013607902 0.042767704 0.6892578
-0.013600822 0.040802479 0.68913567
-0.013593696 0.038839102 0.68901283
-0.01358663 0.03687802 0.68889093
-0.013579518 0.034918785 0.68876833
-0.013572467 0.032961696 0.68864673
-0.013565371 0.031006575 0.68852437
-0.013558334 0.029053599 0.68840301
-0.013551253 0.0271025 0.68828094
-0.013544179 0.025153488 0.68815893
-0.013537163 0.023206592 0.68803787
-0.013530103 0.021261573 0.68791628
-0.013523103 0.01931873 0.68779546
-0.013516058 0.017377824 0.68767399
-0.013509021 0.015438884 0.68755263
-0.013502042 0.013502032 0.68743229
-0.013495019 0.011567175 0.68731123
-0.013488056 0.0096343458 0.68719113
-0.013481047 0.0077034831 0.68707025
-0.013474045 0.0057746172 0.68694949
-0.013467104 0.0038477778 0.68682981
-0.013460116 0.0019228756 0.68670934
-0.013453188 -0 0.68658984
-0.013446629 -0.0019209385 0.68647671
-0.013440026 -0.0038400292 0.68636286
-0.013433478 -0.0057572126 0.68624997
-0.013426887 -0.0076724887 0.68613631
-0.013420353 -0.0095859766 0.68602359
-0.013413826 -0.011497557 0.68591106
-0.013407253 -0.01340723 0.68579769
-0.013400738 -0.015315115 0.6856854
-0.013394179 -0.017221093 0.68557227
-0.013387677 -0.019125223 0.68546015
-0.013381182 -0.021027565 0.68534809
-0.013374642 -0.02292794 0.68523538
-0.013368159 -0.024826586 0.68512356
-0.013361681 -0.026723355 0.68501192
-0.013355159 -0.028618187 0.68489939
-0.013348695 -0.03051132 0.68478793
-0.013342187 -0.032402486 0.68467569
-0.013335735 -0.034291863 0.68456441
-0.013329289 -0.036179513 0.68445331
-0.013322799 -0.038065135 0.68434137
-0.013337462 -0.040012389 0.68459421
-0.013330964 -0.041897297 0.68448216
-0.013324472 -0.043780416 0.68437022
-0.013317937 -0.045661539 0.68425757
-0.013311761 -0.047541976 0.68415105
-0.013305591 -0.049420774 0.68404466
-0.013299428 -0.051297784 0.68393838
-0.01329327 -0.053173065 0.68383217
-0.013287118 -0.055046648 0.68372607
-0.013281021 -0.056918651 0.68362093
-0.01327488 -0.058788747 0.68351501
-0.013268845 -0.060657591 0.683411
-0.013262766 -0.062524438 0.6833061
-0.013256742 -0.064389884 0.68320227
-0.013250723 -0.066253632 0.68309844
-0.013244661 -0.068115383 0.68299395
-0.013238654 -0.069975734 0.6828903
-0.013232601 -0.071834117 0.68278593
-0.013226605 -0.07369107 0.68268257
-0.013220564 -0.075546086 0.68257844
-0.013214578 -0.077399656 0.68247521
-0.013208698 -0.079252228 0.68237382
-0.013202972 -0.081103966 0.682275
-0.013197251 -0.082954139 0.68217635
-0.013191535 -0.084802732 0.68207783
-0.013185873 -0.086649999 0.68198019
-0.013252479 -0.088980913 0.68312871
-0.011778505 0.090301841 0.69156313
-0.011771714 0.08828789 0.69142652
-0.011764933 0.086276203 0.69129014
-0.01175816 0.084266812 0.69115382
-0.011751348 0.082259476 0.69101679
-0.01174459 0.080254734 0.69088084
-0.01173784 0.078252286 0.690745
-0.011731097 0.076252133 0.6906094
-0.011724317 0.074254006 0.69047296
-0.011717591 0.072258472 0.69033766
-0.011710871 0.070265204 0.69020247
-0.01170416 0.06827426 0.69006741
-0.011697411 0.066285312 0.68993163
-0.011690714 0.064298928 0.68979692
-0.011684027 0.062314838 0.68966234
-0.011677346 0.060332924 0.68952799
-0.011670627 0.058353156 0.68939281
-0.011663962 0.056375831 0.68925869
-0.011657305 0.054400772 0.68912476
-0.011650609 0.052427739 0.68899006
-0.011643966 0.050457209 0.68885642
-0.011637512 0.04848963 0.68872654
-0.011631154 0.046524614 0.68859869
-0.011624805 0.044561774 0.6884709
-0.011618461 0.042601049 0.68834335
-0.01161208 0.040642291 0.6882149
-0.01160575 0.038685799 0.68808758
-0.011599426 0.036731511 0.68796039
-0.011593111 0.03477934 0.68783331
-0.011586803 0.032829255 0.68770641
-0.011580501 0.030881315 0.68757963
-0.011574161 0.028935403 0.68745208
-0.011567873 0.026991725 0.6873256
-0.011561591 0.025050104 0.68719918
-0.011555316 0.023110658 0.68707299
-0.011549049 0.021173269 0.68694687
-0.011542743 0.019237936 0.68681997
-0.01153649 0.017304748 0.68669415
-0.011530242 0.015373647 0.6865685
-0.011524001 0.013444662 0.68644291
-0.011517767 0.011517793 0.6863175
-0.01151154 0.0095929503 0.68619227
-0.01150532 0.0076702237 0.6860671
-0.011499062 0.0057495534 0.68594122
-0.011492856 0.0038309693 0.68581629
-0.011486654 0.0019144416 0.68569154
-0.011480461 2.9802322e-08 0.68556696
-0.011474275 -0.0019123554 0.68544251
-0.011468095 -0.0038227141 0.68531823
-0.01146192 -0.0057309568 0.68519396
-0.011455841 -0.0076372325 0.68507171
-0.011449943 -0.0095415711 0.68495297
-0.011444095 -0.011444122 0.68483531
-0.011438209 -0.013344556 0.68471688
-0.011432372 -0.015243173 0.68459946
-0.011426496 -0.017139733 0.68448126
-0.011420672 -0.019034475 0.68436414
-0.01141481 -0.020927161 0.68424618
-0.011408998 -0.022817999 0.68412924
-0.011403146 -0.024706811 0.68401152
-0.011397346 -0.026593804 0.68389481
-0.011391507 -0.028478771 0.68377733
-0.011385676 -0.030361772 0.68366003
-0.011379892 -0.032243013 0.68354368
-0.011374071 -0.034122199 0.68342656
-0.011368301 -0.035999596 0.68331039
-0.011362492 -0.037874967 0.68319356
-0.011373857 -0.039808482 0.68342227
-0.011368042 -0.041682839 0.68330526
-0.011362233 -0.04355526 0.68318844
-0.011356432 -0.045425743 0.68307167
-0.011350635 -0.047294289 0.68295503
-0.011344844 -0.049160957 0.68283856
-0.011339059 -0.051025748 0.68272215
-0.01133328 -0.052888632 0.68260592
-0.011327551 -0.054749817 0.68249065
-0.011322039 -0.056610197 0.68237984
-0.011316534 -0.058468759 0.68226898
-0.011311077 -0.060325712 0.68215919
-0.011305583 -0.062180728 0.68204862
-0.011300135 -0.064034104 0.68193913
-0.011294651 -0.065885454 0.6818288
-0.011289172 -0.067735016 0.68171847
-0.011283741 -0.069583058 0.68160927
-0.011278273 -0.071429044 0.68149924
-0.011272851 -0.07327351 0.68139023
-0.011267395 -0.075115949 0.68128037
-0.011261942 -0.076956615 0.6811707
-0.011256537 -0.078795761 0.68106192
-0.011251095 -0.080632821 0.68095249
-0.011245658 -0.082468152 0.68084306
-0.011240269 -0.084302008 0.68073469
-0.011234842 -0.086133808 0.6806255
-0.011269086 -0.088274494 0.68131441
-0.0097911805 0.09007889 0.69097793
-0.0097853215 0.088067919 0.69083643
-0.0097794682 0.086059332 0.69069517
-0.0097736232 0.084053189 0.69055402
-0.0097677847 0.082049429 0.69041312
-0.0097619537 0.080048025 0.69027233
-0.0097560911 0.078048766 0.69013077
-0.0097502731 0.076052159 0.68999034
-0.0097444635 0.074057937 0.68985009
-0.0097386595 0.072066098 0.6897099
-0.0097328629 0.070076585 0.68957001
-0.0097270729 0.068089485 0.68943024
-0.0097212903 0.0661048 0.68929064
-0.0097155143 0.064122409 0.68915117
-0.0097097456 0.062142372 0.68901193
-0.0097039454 0.060164481 0.68887186
-0.0096981898 0.058189154 0.68873292
-0.0096924407 0.056216151 0.68859416
-0.0096866991 0.054245561 0.68845552
-0.0096809641 0.052277207 0.68831706
-0.0096752355 0.050311208 0.68817878
-0.0096695144 0.048347563 0.68804061
-0.0096637998 0.046386272 0.68790263
-0.0096581662 0.044427544 0.68776667
-0.0096526882 0.042471886 0.68763447
-0.0096472166 0.040518314 0.68750238
-0.0096417516 0.038567007 0.68737042
-0.009636255 0.036617786 0.68723774
-0.0096308021 0.034670919 0.68710601
-0.0096253557 0.032726228 0.68697453
-0.0096199149 0.030783713 0.68684322
-0.0096144434 0.028843343 0.68671113
-0.0096090147 0.026905209 0.68658006
-0.0096035926 0.024969339 0.68644917
-0.0095981387 0.023035556 0.68631756
-0.0095927296 0.021104038 0.68618691
-0.0095873261 0.019174665 0.68605644
-0.0095819281 0.017247468 0.68592614
-0.0095764995 0.015322387 0.68579507
-0.0095711136 0.013399571 0.68566501
-0.0095657343 0.011478871 0.68553519
-0.0095603606 0.0095603764 0.68540543
-0.009554957 0.0076439679 0.68527502
-0.0095495954 0.0057297647 0.6851455
-0.0095442403 0.0038177073 0.68501627
-0.0095388908 0.0019077659 0.68488711
-0.0095335105 -0 0.68475723
-0.0095281741 -0.0019056201 0.68462837
-0.0095228422 -0.0038091242 0.68449962
-0.0095175169 -0.0057104826 0.68437105
-0.0095121609 -0.007609725 0.68424183
-0.0095068477 -0.0095068514 0.6841135
-0.0095015401 -0.011401832 0.68398541
-0.0094963461 -0.013294846 0.68385994
-0.0094912667 -0.015186042 0.68373734
-0.0094861565 -0.017075092 0.68361402
-0.0094810873 -0.018962145 0.68349159
-0.0094760237 -0.020847231 0.6833694
-0.0094709657 -0.022730291 0.68324727
-0.0094659133 -0.024611354 0.68312526
-0.0094608292 -0.026490331 0.68300259
-0.0094557879 -0.02836737 0.68288082
-0.0094507514 -0.030242413 0.68275928
-0.0094457204 -0.032115489 0.68263781
-0.009440694 -0.033986509 0.68251646
-0.0094356379 -0.035855412 0.68239439
-0.0094306227 -0.037722498 0.68227327
-0.0094392691 -0.039644927 0.682482
-0.0094342511 -0.041510701 0.68236089
-0.0094292015 -0.04337433 0.68223894
-0.0094241928 -0.045236081 0.68211806
-0.0094191898 -0.047095925 0.68199724
-0.0094141569 -0.048953623 0.68187582
-0.009409165 -0.050809503 0.68175524
-0.0094041778 -0.052663416 0.6816349
-0.0093992315 -0.054515541 0.68151546
-0.0093942555 -0.05636552 0.68139529
-0.0093893195 -0.05821377 0.68127614
-0.0093843527 -0.060059845 0.68115622
-0.0093794269 -0.061904222 0.68103731
-0.0093745068 -0.063746631 0.68091851
-0.0093697673 -0.065588385 0.68080413
-0.0093650324 -0.067428261 0.68068981
-0.0093603013 -0.06926623 0.68057561
-0.0093555767 -0.071102381 0.68046153
-0.0093508558 -0.072936684 0.68034756
-0.0093461396 -0.074769109 0.68023372
-0.009341429 -0.076599672 0.68011993
-0.0093367221 -0.078428462 0.68000633
-0.0093320208 -0.080255374 0.6798929
-0.0093273241 -0.082080439 0.67977941
-0.0093226312 -0.08390367 0.67966616
-0.0093179438 -0.085725114 0.67955303
-0.0093340399 -0.087739974 0.67994153
-0.0078193871 0.089922965 0.6905688
-0.0078145331 0.087913543 0.6904223
-0.0078096851 0.085906565 0.69027603
-0.0078048729 0.083902359 0.69013083
-0.0078000366 0.081900418 0.6899848
-0.0077952063 0.079900891 0.68983912
-0.007790382 0.077903777 0.68969351
-0.0077855634 0.075909227 0.68954808
-0.007780781 0.073917419 0.68940377
-0.0077759745 0.071927756 0.68925869
-0.007771174 0.069940597 0.68911386
-0.0077663795 0.067955822 0.68896914
-0.0077615902 0.06597352 0.68882459
-0.0077568078 0.063993633 0.68868029
-0.0077520604 0.062016487 0.68853706
-0.0077472893 0.060041487 0.68839312
-0.0077425246 0.058068901 0.68824923
-0.0077377651 0.056098789 0.68810564
-0.0077330116 0.054131061 0.68796217
-0.0077282935 0.052165955 0.68781984
-0.0077235512 0.050203055 0.68767667
-0.007718815 0.048242599 0.6875338
-0.0077140853 0.046284497 0.68739104
-0.0077093602 0.044328839 0.68724841
-0.0077047008 0.042375833 0.68710786
-0.0077001364 0.040425748 0.68697006
-0.007695606 0.038478047 0.68683338
-0.0076910816 0.036532611 0.68669683
-0.0076865624 0.034589559 0.68656039
-0.0076820482 0.032648712 0.68642426
-0.0076775393 0.030710191 0.68628818
-0.0076730358 0.028773904 0.68615228
-0.007668538 0.026839882 0.68601656
-0.0076640453 0.024908155 0.6858809
-0.0076595284 0.022978574 0.68574464
-0.0076550464 0.021051377 0.6856094
-0.0076505691 0.019126415 0.68547428
-0.0076460969 0.017203748 0.68533933
-0.0076416307 0.015283287 0.68520451
-0.0076371692 0.01336503 0.68506992
-0.0076327128 0.011449069 0.68493539
-0.0076282616 0.0095353127 0.6848011
-0.0076238159 0.0076237917 0.68466699
-0.0076193754 0.0057145059 0.68453294
-0.0076149111 0.0038074255 0.68439817
-0.0076104808 0.0019026101 0.68426448
-0.0076060556 -0 0.68413097
-0.007601636 -0.0019004047 0.68399763
-0.0075972211 -0.003798604 0.68386436
-0.0075928117 -0.005694598 0.68373132
-0.007588407 -0.0075883865 0.6835984
-0.0075840075 -0.0094799995 0.6834656
-0.007579613 -0.011369407 0.68333298
-0.0075752237 -0.013256639 0.68320054
-0.0075708106 -0.015141606 0.68306732
-0.0075666038 -0.017024845 0.68294042
-0.0075623719 -0.018905908 0.68281269
-0.0075581744 -0.020784974 0.68268603
-0.0075539807 -0.022661924 0.68255949
-0.0075497916 -0.024536818 0.68243307
-0.0075455792 -0.026409537 0.68230593
-0.0075413999 -0.028280228 0.68217981
-0.0075372248 -0.030148894 0.6820538
-0.0075330548 -0.032015502 0.68192792
-0.0075288611 -0.033879876 0.68180138
-0.0075246994 -0.035742283 0.68167579
-0.0075205434 -0.037602723 0.68155044
-0.0075268787 -0.039516121 0.6817416
-0.007522692 -0.041374803 0.68161523
-0.0075185089 -0.043231428 0.68148899
-0.0075143315 -0.045085996 0.68136293
-0.0075101871 -0.046938688 0.68123782
-0.007506018 -0.048789084 0.68111205
-0.0075018546 -0.050637513 0.6809864
-0.0074976953 -0.052483886 0.68086094
-0.0074935406 -0.054328173 0.68073553
-0.0074894466 -0.056170851 0.68061191
-0.0074853851 -0.058011711 0.68048942
-0.0074812993 -0.059850395 0.68036616
-0.0074772472 -0.061687291 0.68024379
-0.0074731712 -0.063521951 0.68012077
-0.007469127 -0.065354854 0.67999876
-0.0074650873 -0.067185819 0.67987692
-0.0074610244 -0.06901449 0.67975426
-0.0074569932 -0.070841432 0.6796326
-0.0074529392 -0.072666168 0.67951024
-0.0074489452 -0.074489459 0.67938972
-0.0074450378 -0.076311648 0.67927182
-0.0074411356 -0.078131914 0.67915404
-0.0074372087 -0.079950005 0.67903554
-0.0074333139 -0.081766456 0.678918
-0.0074294512 -0.083581328 0.67880142
-0.0074255643 -0.085393995 0.67868412
-0.0074321274 -0.087327495 0.67888218
-0.0058584753 0.089829981 0.69032478
-0.0058547282 0.087820917 0.69017398
-0.0058509624 0.085814118 0.69002247
-0.0058472245 0.08381021 0.68987203
-0.0058434689 0.081808597 0.68972093
-0.0058397404 0.079809785 0.6895709
-0.0058359941 0.077813268 0.68942022
-0.0058322754 0.075819612 0.68927056
-0.0058285389 0.073828191 0.68912017
-0.0058248295 0.071839601 0.68897092
-0.0058211028 0.069853276 0.68882102
-0.0058174031 0.067869723 0.68867213
-0.0058136848 0.065888435 0.68852258
-0.0058099949 0.063909918 0.6883741
-0.0058063096 0.061933964 0.68822575
-0.0058026062 0.059960246 0.68807673
-0.0057989294 0.057989299 0.6879288
-0.0057952353 0.056020617 0.68778014
-0.0057915682 0.054054648 0.68763268
-0.0057878839 0.052090973 0.68748438
-0.0057842261 0.05012992 0.68733722
-0.0057805511 0.048171282 0.68718928
-0.0057769027 0.046215266 0.68704253
-0.0057732365 0.044261485 0.68689501
-0.0057695969 0.042310387 0.68674862
-0.0057660285 0.040362209 0.68660498
-0.0057625095 0.038416743 0.68646336
-0.0057589938 0.036473632 0.68632197
-0.0057555051 0.034533054 0.68618155
-0.0057519986 0.032594681 0.68604052
-0.0057484964 0.030658662 0.68589956
-0.0057449983 0.028724998 0.68575877
-0.005741504 0.026793659 0.68561822
-0.0057380367 0.024864823 0.68547869
-0.0057345512 0.022938192 0.6853385
-0.0057310695 0.021013945 0.68519837
-0.0057275929 0.019091964 0.68505847
-0.00572412 0.017172396 0.6849187
-0.0057206731 0.015255123 0.68478
-0.0057172091 0.013340145 0.68464065
-0.0057137483 0.011427492 0.68450141
-0.0057102926 0.009517163 0.68436235
-0.0057068411 0.007609129 0.68422347
-0.0057034148 0.0057034194 0.68408561
-0.0056999712 0.0037999749 0.68394703
-0.0056965319 0.001898855 0.68380868
-0.0056930967 2.9802322e-08 0.6836704
-0.0056896657 -0.0018965304 0.68353236
-0.0056862608 -0.0037908256 0.68339533
-0.0056828372 -0.0056828558 0.6832577
-0.0056794188 -0.0075725317 0.68312007
-0.0056760046 -0.0094599724 0.68298268
-0.0056725931 -0.011345178 0.68284547
-0.0056691868 -0.013228059 0.68270838
-0.0056658061 -0.015108854 0.68257236
-0.0056624291 -0.016987294 0.68243647
-0.005659163 -0.018863887 0.6823051
-0.0056559006 -0.020738333 0.68217379
-0.0056526419 -0.022610545 0.68204272
-0.0056493869 -0.0244807 0.68191171
-0.0056461361 -0.02634865 0.68178093
-0.0056428886 -0.028214455 0.68165022
-0.0056396443 -0.030078113 0.68151975
-0.0056364052 -0.031939626 0.68138933
-0.0056331474 -0.033798933 0.68125826
-0.0056299148 -0.035656095 0.68112814
-0.0056266859 -0.03751123 0.68099827
-0.0056311185 -0.039417863 0.68117666
-0.0056278883 -0.04127121 0.68104666
-0.0056246407 -0.043122262 0.68091601
-0.0056213969 -0.044971198 0.68078548
-0.0056181569 -0.046817988 0.68065512
-0.0056149205 -0.048662663 0.68052495
-0.0056117089 -0.05050537 0.68039566
-0.00560848 -0.052345783 0.68026572
-0.0056052548 -0.054184109 0.68013591
-0.0056020333 -0.056020319 0.68000633
-0.0055988361 -0.057854652 0.6798777
-0.0055956845 -0.059687316 0.67975092
-0.0055925576 -0.061518133 0.67962503
-0.005589413 -0.063346684 0.67949855
-0.0055862931 -0.065173417 0.67937303
-0.0055831764 -0.066998094 0.67924762
-0.0055800425 -0.068820536 0.67912149
-0.0055769328 -0.0706411 0.67899632
-0.0055738264 -0.072459728 0.67887133
-0.0055707027 -0.074276015 0.67874569
-0.0055676037 -0.076090574 0.67862099
-0.0055645076 -0.077903122 0.67849642
-0.0055613946 -0.0797133 0.67837119
-0.0055583059 -0.081521824 0.67824692
-0.0055552204 -0.083328322 0.6781227
-0.0055521177 -0.085132435 0.67799789
-0.0055537401 -0.087008566 0.67806315
-0.0039042484 0.089797705 0.6902402
-0.0039016453 0.087787002 0.69008303
-0.0038990611 0.085779399 0.68992704
-0.00389648 0.083774328 0.68977129
-0.0038939025 0.08177194 0.68961573
-0.0038913286 0.079772294 0.68946034
-0.0038887579 0.07777518 0.68930525
-0.0038861905 0.07578072 0.68915027
-0.0038836265 0.073788911 0.68899548
-0.0038810661 0.071799725 0.68884099
-0.0038784943 0.069812894 0.68868577
-0.0038759403 0.067828953 0.68853158
-0.0038733899 0.065847605 0.68837768
-0.0038708427 0.06386891 0.68822396
-0.0038682991 0.061892807 0.68807042
-0.0038657587 0.059919298 0.68791711
-0.0038632217 0.057948351 0.68776399
-0.0038606881 0.055979997 0.6876111
-0.003858143 0.054013997 0.68745744
-0.0038556159 0.052050829 0.68730491
-0.003853092 0.050090194 0.68715262
-0.0038505718 0.048132181 0.68700045
-0.0038480544 0.046176672 0.68684858
-0.0038455408 0.044223756 0.68669683
-0.0038430304 0.042273343 0.68654537
-0.0038405671 0.040325999 0.6863966
-0.0038381366 0.038381398 0.68624997
-0.003835724 0.036439359 0.68610436
-0.0038332995 0.034499705 0.68595803
-0.003830893 0.032562613 0.68581277
-0.0038284746 0.030627817 0.68566686
-0.0038260743 0.028695583 0.6855219
-0.0038236622 0.026765645 0.68537641
-0.0038212675 0.024838239 0.6852318
-0.0038188617 0.022913188 0.68508661
-0.0038164731 0.02099058 0.68494248
-0.0038140728 0.019070387 0.68479759
-0.0038116905 0.017152637 0.68465376
-0.0038092963 0.015237182 0.68450928
-0.0038069198 0.013324231 0.68436587
-0.0038045316 0.011413574 0.68422174
-0.0038021607 0.0095053613 0.68407863
-0.0037997791 0.0075995624 0.68393487
-0.0037974142 0.0056961477 0.68379211
-0.003795038 0.0037950575 0.68364871
-0.0037926792 0.0018963814 0.68350637
-0.0037903087 -0 0.68336332
-0.003787956 -0.0018939674 0.68322134
-0.0037855916 -0.0037855804 0.68307865
-0.0037832446 -0.0056748688 0.68293691
-0.0037808863 -0.0075617731 0.68279457
-0.0037785447 -0.0094463527 0.68265331
-0.003776192 -0.011328548 0.68251127
-0.0037738569 -0.013208479 0.68237031
-0.0037715244 -0.015086055 0.68222952
-0.0037692087 -0.016961426 0.68208975
-0.0037669528 -0.01883477 0.68195367
-0.0037646994 -0.020705849 0.68181765
-0.0037624631 -0.022574753 0.68168271
-0.0037602151 -0.024441361 0.68154699
-0.0037579702 -0.026305765 0.68141145
-0.0037557276 -0.028167963 0.68127614
-0.0037534877 -0.030027926 0.6811409
-0.0037512647 -0.031885743 0.68100679
-0.0037490299 -0.033741266 0.6808719
-0.0037467983 -0.035594583 0.68073726
-0.0037445691 -0.037445694 0.68060267
-0.0037473596 -0.039347261 0.68077105
-0.0037451298 -0.041196436 0.68063647
-0.0037428883 -0.043043226 0.68050122
-0.0037406639 -0.04488796 0.68036699
-0.0037384278 -0.04673034 0.68023193
-0.0037362087 -0.048570722 0.68009806
-0.0037339781 -0.050408721 0.67996341
-0.0037317642 -0.052244693 0.67982978
-0.003729539 -0.054078311 0.67969549
-0.0037273301 -0.055909932 0.67956221
-0.0037251103 -0.057739198 0.67942822
-0.003722907 -0.059566498 0.67929524
-0.0037207336 -0.061392099 0.67916405
-0.0037185906 -0.063216031 0.67903471
-0.0037164362 -0.065037668 0.67890471
-0.0037142981 -0.066857338 0.67877561
-0.0037121626 -0.068674982 0.67864674
-0.0037100294 -0.070490599 0.67851806
-0.0037078848 -0.072303742 0.67838854
-0.0037057565 -0.074115142 0.67826015
-0.003703631 -0.075924441 0.67813182
-0.0037015076 -0.077731654 0.67800373
-0.003699373 -0.079536512 0.6778748
-0.0036972542 -0.081339568 0.67774695
-0.0036951383 -0.083140612 0.67761928
-0.0036930249 -0.084939584 0.67749166
-0.0036926975 -0.086778387 0.67747194
-0.0019527031 0.089824349 0.69031
-0.0019513628 0.087811351 0.69014823
-0.0019500244 0.085801065 0.68998671
-0.0019486878 0.083793551 0.68982536
-0.0019473605 0.081789136 0.68966514
-0.0019460275 0.079787135 0.68950421
-0.0019446963 0.077787876 0.68934357
-0.001943367 0.075791329 0.68918312
-0.0019420395 0.073797494 0.68902284
-0.0019407137 0.071806431 0.6888628
-0.0019393897 0.069818079 0.68870294
-0.0019380753 0.067832619 0.68854433
-0.001936755 0.065849662 0.68838495
-0.0019354364 0.063869417 0.68822575
-0.0019341197 0.061891824 0.68806684
-0.0019328047 0.059916914 0.68790811
-0.0019314917 0.057944745 0.68774962
-0.0019301802 0.055975258 0.68759125
-0.0019288781 0.054008603 0.68743414
-0.0019275702 0.052044392 0.68727624
-0.0019262641 0.050082862 0.68711859
-0.0019249599 0.048123986 0.68696117
-0.0019236574 0.046167791 0.68680394
-0.0019223567 0.044214219 0.68664688
-0.0019210577 0.042263329 0.68649006
-0.0019197901 0.040315598 0.68633705
-0.0019185386 0.038370758 0.68618602
-0.0019172889 0.036428481 0.68603516
-0.0019160407 0.034488708 0.68588448
-0.0019147942 0.032551527 0.68573403
-0.0019135494 0.03061679 0.68558371
-0.0019123059 0.028684586 0.68543369
-0.0019110643 0.026754916 0.68528378
-0.0019098242 0.024827719 0.68513405
-0.0019085786 0.022902966 0.68498373
-0.0019073416 0.020980775 0.68483448
-0.0019061066 0.019061089 0.68468535
-0.0019048729 0.017143875 0.6845364
-0.0019036409 0.015229106 0.68438774
-0.0019024104 0.0133169 0.68423915
-0.0019011816 0.011407107 0.68409085
-0.0018999544 0.0094997883 0.68394268
-0.0018987287 0.007594943 0.68379474
-0.0018975046 0.0056925118 0.68364698
-0.0018962821 0.0037925839 0.6834994
-0.0018950612 0.0018950701 0.68335205
-0.0018938346 -0 0.683204
-0.0018926169 -0.0018926263 0.68305695
-0.0018914007 -0.003782779 0.6829102
-0.001890186 -0.0056705773 0.68276358
-0.0018889727 -0.0075558722 0.68261713
-0.0018877613 -0.0094388127 0.68247086
-0.0018865513 -0.011319309 0.68232477
-0.0018853429 -0.013197392 0.68217897
-0.0018841359 -0.015073091 0.68203318
-0.0018829589 -0.016946644 0.68189114
-0.0018817905 -0.018817902 0.68175012
-0.0018806306 -0.020686954 0.68161011
-0.001879465 -0.022553593 0.68146944
-0.001878308 -0.024418026 0.68132979
-0.0018771522 -0.026280135 0.68119025
-0.001875991 -0.028139859 0.68105006
-0.0018748381 -0.029997408 0.68091094
-0.0018736798 -0.031852543 0.68077105
-0.0018725228 -0.033705413 0.68063146
-0.0018713743 -0.035556108 0.68049276
-0.0018702272 -0.037404567 0.6803543
-0.0018715492 -0.039302528 0.68051386
-0.0018703948 -0.041148692 0.6803745
-0.0018692419 -0.042992532 0.68023539
-0.0018680905 -0.044834167 0.68009639
-0.0018669403 -0.046673477 0.67995751
-0.0018657916 -0.048510551 0.67981893
-0.0018646445 -0.050345391 0.67968041
-0.0018634985 -0.052177966 0.67954212
-0.0018623542 -0.054008245 0.6794039
-0.001861211 -0.05583635 0.67926604
-0.0018600695 -0.057662159 0.67912817
-0.0018589292 -0.059485734 0.67899054
-0.0018577904 -0.061307073 0.67885303
-0.0018566668 -0.063126713 0.67871749
-0.001855565 -0.064944774 0.67858446
-0.0018544578 -0.06676048 0.67845082
-0.0018533587 -0.06857425 0.67831814
-0.001852261 -0.070385903 0.67818558
-0.0018511645 -0.072195411 0.67805326
-0.0018500695 -0.074002802 0.67792106
-0.0018489755 -0.075808004 0.67778897
-0.0018478761 -0.077610791 0.67765629
-0.001846785 -0.07941176 0.67752457
-0.001845695 -0.081210569 0.67739296
-0.0018446064 -0.083007276 0.67726159
-0.0018435189 -0.084801868 0.67713034
-0.0018430096 -0.086621419 0.67706889
0 0.089911044 0.69053745
0 0.08789432 0.6903708
0 0.085880011 0.69020343
0 0.083868712 0.69003624
0 0.081860214 0.68986928
0 0.079854846 0.68970352
0 0.077852011 0.68953717
0 0.075852007 0.68937087
0 0.073854834 0.68920493
0 0.07186079 0.68904012
0 0.06986925 0.6888746
0 0.067880511 0.68870932
0 0.065894544 0.68854427
0 0.063911706 0.68838036
0 0.061931342 0.68821585
0 0.059953809 0.68805146
0 0.057979017 0.68788737
0 0.056007236 0.68772441
0 0.054037958 0.68756074
0 0.052071482 0.6873973
0 0.050107777 0.6872341
0 0.048146963 0.68707204
0 0.046188712 0.68690932
0 0.044233233 0.68674678
0 0.042280495 0.68658447
0 0.040331095 0.68642598
0 0.038384736 0.68627042
0 0.036440909 0.68611413
0 0.034499705 0.68595803
0 0.032561123 0.68580222
0 0.030625105 0.68564647
0 0.028691709 0.68549103
0 0.026760966 0.68533581
0 0.024832845 0.68518162
0 0.022907227 0.68502676
0 0.020984232 0.68487215
0 0.019063771 0.68471777
0 0.017145872 0.68456358
0 0.015230566 0.68440956
0 0.013317853 0.68425578
0 0.011407673 0.68410218
0 0.0095000863 0.68394965
0 0.007594943 0.68379653
0 0.0056924224 0.68364346
0 0.0037924349 0.68349075
0 0.0018949807 0.68333817
0 2.9802322e-08 0.68318582
0 -0.0018924177 0.68303365
0 -0.0037823319 0.68288261
0 -0.0056697428 0.68273079
0 -0.0075546205 0.68257928
0 -0.0094369948 0.68242788
0 -0.011316925 0.68227673
0 -0.013194323 0.68212581
0 -0.015069395 0.68197763
0 -0.016942233 0.68183219
0 -0.018812656 0.68168688
0 -0.020680666 0.68154186
0 -0.022546381 0.68139702
0 -0.024409652 0.68125236
0 -0.026270568 0.68110776
0 -0.028129101 0.68096352
0 -0.029985249 0.68081933
0 -0.031839073 0.68067545
0 -0.033690423 0.68053085
0 -0.035539508 0.6803872
0 -0.037386239 0.68024379
0 -0.039282262 0.68039733
0 -0.041126698 0.68025392
0 -0.042968631 0.68010986
0 -0.044808418 0.67996681
0 -0.04664582 0.67982388
0 -0.048480779 0.67968041
0 -0.050313503 0.67953789
0 -0.052143782 0.67939478
0 -0.053971916 0.67925256
0 -0.055797726 0.67911065
0 -0.057621002 0.67896801
0 -0.059442192 0.67882645
0 -0.061261147 0.67868495
0 -0.063077509 0.67854291
0 -0.064891815 0.67840183
0 -0.066705108 0.67826509
0 -0.068516135 0.67812848
0 -0.070324987 0.67799211
0 -0.072131634 0.67785585
0 -0.073935807 0.67771888
0 -0.075738013 0.67758298
0 -0.077538073 0.67744732
0 -0.079335928 0.67731166
0 -0.081131563 0.67717624
0 -0.082924739 0.67704016
0 -0.084716037 0.67690516
0 -0.086529672 0.67683309
0.0019528861 0.089832753 0.69033211
0.0019517966 0.087830842 0.69020069
0.001950701 0.085830867 0.6900683
0.001949614 0.083833396 0.68993711
0.0019485208 0.081837893 0.68980521
0.0019474362 0.079844922 0.68967426
0.0019463454 0.077853829 0.68954259
0.0019452482 0.075864702 0.68941021
0.0019440542 0.073874056 0.68926597
0.0019428462 0.071885347 0.68912023
0.0019416326 0.069898784 0.68897367
0.0019404278 0.067914993 0.68882829
0.0019392244 0.065933645 0.68868303
0.0019380227 0.063954771 0.68853796
0.0019368149 0.061978072 0.68839216
0.0019356087 0.060003877 0.68824655
0.001934359 0.058030754 0.68809569
0.0019330661 0.056058913 0.68793964
0.0019317527 0.054089069 0.6877811
0.0019304333 0.052121699 0.68762183
0.0019291234 0.050157219 0.6874637
0.0019278079 0.048195213 0.68730491
0.0019264942 0.046235859 0.68714637
0.0019251821 0.044279188 0.686988
0.0019238497 0.042324692 0.68682712
0.0019225117 0.040372759 0.68666559
0.0019211683 0.038423389 0.68650341
0.0019198267 0.036476731 0.68634152
0.0019184944 0.034532905 0.68618071
0.0019171566 0.032591671 0.68601918
0.0019158205 0.030653149 0.68585789
0.0019144864 0.028717279 0.6856969
0.0019131615 0.026784241 0.68553698
0.0019118311 0.024853826 0.68537635
0.0019105026 0.022926033 0.68521595
0.0019091757 0.021000922 0.68505585
0.0019078582 0.019078583 0.68489677
0.001906535 0.017158836 0.68473709
0.0019052139 0.015241742 0.68457758
0.0019038944 0.013327241 0.68441832
0.0019025841 0.011415511 0.68426013
0.0019012684 0.0095063448 0.68410134
0.0018999544 0.0075998306 0.68394268
0.0018986423 0.0056959093 0.68378431
0.0018973391 0.0037946999 0.68362701
0.0018960306 0.0018960238 0.68346906
0.001894724 -0 0.68331128
0.0018934191 -0.0018934011 0.68315381
0.001892123 -0.0037842691 0.68299735
0.0018908216 -0.0056724846 0.68284029
0.0018895221 -0.0075580776 0.68268341
0.0018882244 -0.0094411075 0.68252677
0.0018869354 -0.011321604 0.6823712
0.0018856412 -0.013199478 0.68221498
0.0018843914 -0.015075088 0.68206406
0.0018831503 -0.016948342 0.68191433
0.0018819039 -0.018819034 0.68176383
0.0018806588 -0.020687252 0.6816135
0.0018794156 -0.022552997 0.68146348
0.0018781739 -0.024416238 0.68131351
0.001876934 -0.026277065 0.68116391
0.0018756957 -0.028135449 0.68101442
0.0018744658 -0.029991448 0.68086594
0.0018732309 -0.031844944 0.68071687
0.0018719974 -0.033695936 0.68056798
0.0018707655 -0.035544544 0.68041927
0.0018695353 -0.037390739 0.68027079
0.0018707725 -0.039286226 0.6804201
0.0018695422 -0.041129947 0.68027163
0.0018683135 -0.042971194 0.68012333
0.0018670866 -0.044810057 0.67997515
0.0018658611 -0.046646535 0.67982733
0.0018646374 -0.04848057 0.67967957
0.0018634154 -0.050312191 0.67953205
0.0018621878 -0.052141249 0.67938387
0.0018609758 -0.05396831 0.67923754
0.0018597583 -0.055792749 0.67909062
0.0018585494 -0.057615012 0.67894465
0.0018573352 -0.059434712 0.67879808
0.0018561295 -0.061252266 0.67865264
0.0018549253 -0.063067466 0.67850727
0.0018537157 -0.064880073 0.67836124
0.0018525147 -0.066690505 0.67821622
0.001851329 -0.068499178 0.67807311
0.0018501652 -0.070306271 0.67793268
0.0018490028 -0.0721111 0.67779231
0.0018478353 -0.07391341 0.67765141
0.0018466759 -0.075713694 0.67751145
0.001845518 -0.077511758 0.67737168
0.0018443547 -0.079307258 0.67723125
0.0018431997 -0.081100792 0.67709184
0.0018420462 -0.08289206 0.67695254
0.0018408872 -0.084680811 0.67681265
0.0018404335 -0.086500391 0.67675793
0.0038858736 0.091318041 0.68913114
0.0038837322 0.089325845 0.68900192
0.0038815932 0.087335855 0.68887275
0.0038795916 0.08535102 0.688752
0.0038778477 0.083373755 0.68864673
0.0038761203 0.081398517 0.68854249
0.0038743797 0.079424769 0.6884374
0.0038726553 0.077453077 0.68833339
0.0038709177 0.075482905 0.68822843
0.0038691815 0.073514432 0.6881237
0.0038674618 0.071548045 0.68801993
0.0038657289 0.069583148 0.68791533
0.0038640122 0.067620248 0.68781173
0.0038622825 0.065658808 0.6877073
0.0038605689 0.063699394 0.68760389
0.003858842 0.061741441 0.68749964
0.0038571318 0.059785545 0.68739641
0.003855512 0.057832688 0.68729866
0.0038539378 0.055882096 0.68720365
0.0038523802 0.053933322 0.68710965
0.0038507495 0.051985145 0.68701124
0.0038490018 0.050036997 0.68690574
0.0038472412 0.048090518 0.68679941
0.0038454814 0.046145797 0.68669325
0.0038436502 0.044202 0.68658268
0.0038417317 0.042259067 0.68646699
0.0038398304 0.040318221 0.68635213
0.0038379161 0.038379192 0.68623662
0.0038359447 0.036441505 0.68611765
0.0038339018 0.034505099 0.68599439
0.0038318026 0.032570332 0.68586767
0.0038296911 0.030637532 0.68574023
0.0038275963 0.028706998 0.68561375
0.0038254894 0.02677846 0.68548661
0.00382337 0.024851859 0.68535876
0.0038212237 0.022927344 0.68522918
0.0038190072 0.021004558 0.68509537
0.0038167641 0.019083798 0.68496001
0.0038144654 0.017165095 0.68482125
0.0038121259 0.015248537 0.68468004
0.0038098039 0.013334334 0.68453991
0.0038074702 0.011422396 0.68439907
0.0038051391 0.0095128715 0.68425834
0.0038027968 0.0076056123 0.68411702
0.0038004424 0.0057007074 0.68397492
0.0037979619 0.0037979782 0.68382525
0.0037954985 0.0018977523 0.68367654
0.0037930387 -0 0.68352801
0.0037905243 -0.0018953085 0.68337631
0.003787999 -0.0037879944 0.6832239
0.0037854484 -0.0056781769 0.68306994
0.0037828728 -0.0075657368 0.6829145
0.0037803005 -0.0094507635 0.68275923
0.0037777317 -0.011333227 0.68260419
0.0037751524 -0.013213038 0.68244857
0.0037725763 -0.015090287 0.68229306
0.0037699898 -0.016964942 0.68213695
0.0037674066 -0.018837035 0.68198097
0.0037648268 -0.020706534 0.68182528
0.003762251 -0.022573501 0.68166983
0.0037596924 -0.024437994 0.68151546
0.0037571236 -0.026299894 0.68136042
0.003754558 -0.028159171 0.68120551
0.0037520099 -0.030016065 0.68105179
0.0037494514 -0.031870335 0.6808973
0.0037468965 -0.033722043 0.68074316
0.0037443449 -0.035571277 0.68058914
0.0037418108 -0.037418127 0.68043619
0.0037442329 -0.039314449 0.6805824
0.0037416848 -0.041158557 0.68042856
0.0037391402 -0.043000102 0.68027502
0.0037365993 -0.044839203 0.68012166
0.003734062 -0.046675742 0.67996848
0.0037315139 -0.048509657 0.6798147
0.0037289832 -0.050341249 0.67966199
0.0037264558 -0.052170396 0.6795094
0.003723932 -0.05399701 0.67935717
0.0037214253 -0.055821359 0.67920583
0.0037189359 -0.057643503 0.67905557
0.0037164502 -0.059463173 0.67890555
0.0037139675 -0.061280489 0.6787557
0.0037114879 -0.063095301 0.67860603
0.0037090117 -0.06490767 0.67845654
0.003706539 -0.066717684 0.67830729
0.0037040694 -0.068525314 0.67815834
0.003701603 -0.070330441 0.67800945
0.0036991676 -0.07213375 0.67786247
0.0036967627 -0.073935241 0.67771727
0.0036943608 -0.075734392 0.67757231
0.003691962 -0.077531233 0.67742759
0.0036895527 -0.079325348 0.67728209
0.0036871736 -0.081117794 0.67713857
0.0036847841 -0.082907632 0.67699432
0.0036824113 -0.084695458 0.67685115
0.0036822758 -0.086533502 0.67684293
0.0058169295 0.091131896 0.68865311
0.0058132121 0.089135915 0.6885035
0.0058095227 0.087142825 0.68835503
0.0058058375 0.085152298 0.68820679
0.0058021345 0.083163917 0.68805778
0.0057984586 0.081178427 0.6879099
0.0057947882 0.07919547 0.6877622
0.0057910993 0.077214688 0.68761379
0.0057874373 0.075236678 0.68746644
0.0057837805 0.073261231 0.68731928
0.0057801055 0.071288019 0.6871714
0.005776458 0.06931746 0.68702465
0.0057728146 0.067349523 0.68687803
0.0057691536 0.065383732 0.68673074
0.00576552 0.063420713 0.68658453
0.0057622441 0.061463922 0.68645269
0.0057591046 0.059510767 0.68632638
0.0057559684 0.057559729 0.6862002
0.0057528364 0.055610776 0.6860742
0.0057497076 0.053663939 0.68594831
0.0057465816 0.051719278 0.68582249
0.0057434593 0.049776644 0.6856969
0.0057403408 0.047836185 0.68557131
0.0057372032 0.045897663 0.68544513
0.0057340912 0.043961406 0.6853199
0.0057309824 0.042027205 0.68519485
0.0057278769 0.040095091 0.68506992
0.0057247751 0.038165182 0.68494511
0.0057216766 0.036237299 0.68482035
0.0057185814 0.034311503 0.68469584
0.0057156198 0.032388538 0.68457675
0.0057130959 0.030469835 0.68447518
0.0057105748 0.02855292 0.68437374
0.0057080775 0.026637703 0.68427324
0.005705561 0.024724126 0.68417197
0.0057030679 0.022812277 0.68407166
0.0057005561 0.020902038 0.68397057
0.0056980676 0.018993556 0.68387043
0.0056955591 0.017086685 0.68376952
0.0056930752 0.015181541 0.68366957
0.0056905714 0.013278008 0.68356884
0.0056880917 0.011376172 0.68346906
0.0056855925 0.0094760358 0.6833685
0.0056831171 0.0075775087 0.6832689
0.0056807082 0.0056807101 0.68317199
0.0056784307 0.0037856102 0.68308032
0.0056761545 0.00189206 0.68298876
0.0056738802 -2.9802322e-08 0.68289721
0.0056713936 -0.0018904507 0.68279719
0.005668845 -0.0037792325 0.68269461
0.0056663197 -0.0056663156 0.68259299
0.0056637754 -0.0075516999 0.68249065
0.0056609986 -0.0094350278 0.68237889
0.0056582461 -0.011316448 0.68226814
0.005655475 -0.013196081 0.68215668
0.0056527271 -0.015073985 0.68204618
0.0056497911 -0.016949356 0.68192792
0.0056468369 -0.018822759 0.68180913
0.0056438856 -0.020694256 0.68169034
0.0056408527 -0.022563398 0.68156826
0.0056377593 -0.024430275 0.68144381
0.0056346697 -0.026295096 0.68131953
0.0056315837 -0.02815789 0.68119538
0.0056283954 -0.030018121 0.68106711
0.0056251469 -0.031875819 0.68093634
0.0056219236 -0.03373152 0.68080664
0.0056186826 -0.035584986 0.68067622
0.0056152986 -0.037435323 0.68054008
0.0056235027 -0.039364547 0.68087018
0.0056195874 -0.041210324 0.68071264
0.0056156768 -0.043053508 0.68055534
0.0056117717 -0.044894159 0.68039817
0.0056078723 -0.046732277 0.68024129
0.0056039575 -0.048567623 0.68008375
0.0056000687 -0.050400645 0.67992729
0.0055961856 -0.052231044 0.67977107
0.005592308 -0.054058999 0.67961502
0.0055884556 -0.05588454 0.67946005
0.0055845887 -0.057707429 0.67930442
0.005580748 -0.059527993 0.67914987
0.0055769118 -0.061346024 0.67899549
0.0055730813 -0.063161582 0.67884135
0.0055692564 -0.064974636 0.67868745
0.0055654361 -0.066785216 0.67853379
0.0055616214 -0.068593323 0.67838031
0.0055577913 -0.070398688 0.67822611
0.0055539869 -0.072201848 0.67807311
0.0055501875 -0.074002504 0.67792028
0.0055463938 -0.075800717 0.67776763
0.0055426257 -0.077596739 0.67761594
0.0055389032 -0.079390928 0.67746615
0.0055351863 -0.081182748 0.67731661
0.0055314736 -0.082972094 0.67716724
0.0055278069 -0.084759697 0.67701972
0.0055294973 -0.086628795 0.67708772
0.0077713248 0.091313064 0.68911839
0.0077649634 0.089297056 0.6889264
0.0077586118 0.087284416 0.68873477
0.0077523012 0.085275292 0.68854433
0.0077459705 0.083269179 0.68835324
0.0077396799 0.081266642 0.6881634
0.0077333692 0.079267055 0.68797302
0.0077270996 0.077270985 0.68778378
0.0077208099 0.075277895 0.687594
0.0077145603 0.073288321 0.68740541
0.0077090338 0.071308583 0.68723857
0.0077035143 0.069331616 0.68707204
0.0076980037 0.06735757 0.68690574
0.0076925005 0.065386295 0.68673968
0.0076870047 0.063417792 0.6865738
0.0076815179 0.06145218 0.68640822
0.0076760086 0.059489101 0.68624198
0.0076705366 0.057529032 0.68607682
0.0076650726 0.055571765 0.68591189
0.0076596159 0.053617328 0.68574733
0.0076541677 0.051665664 0.68558288
0.0076487269 0.049716741 0.68541873
0.0076432941 0.04777059 0.68525469
0.0076378686 0.04582721 0.68509096
0.0076324511 0.043886602 0.68492752
0.0076272157 0.041949689 0.68476951
0.0076224227 0.040017724 0.68462485
0.0076176645 0.038088351 0.68448126
0.0076129129 0.036161333 0.68433785
0.007608138 0.03423664 0.68419379
0.0076033976 0.03231445 0.6840508
0.0075986637 0.030394673 0.68390787
0.007593906 0.028477162 0.68376428
0.0075891837 0.026562154 0.68362176
0.0075844675 0.024649531 0.68347949
0.007579728 0.022739142 0.6833365
0.0075750235 0.020831347 0.68319446
0.0075702961 0.018925756 0.68305182
0.0075656027 0.01702261 0.6829102
0.0075608864 0.015121788 0.68276781
0.0075562047 0.01322338 0.68262661
0.0075515299 0.011327267 0.68248546
0.0075474004 0.0094342828 0.68236089
0.0075433613 0.007543385 0.68223894
0.0075393259 0.0056545138 0.68211722
0.0075352951 0.0037676692 0.68199557
0.007531269 0.0018828511 0.68187404
0.0075272471 2.9802322e-08 0.68175268
0.0075232293 -0.0018807948 0.68163145
0.0075192158 -0.003759563 0.68151033
0.0075152065 -0.005636394 0.68138933
0.0075112013 -0.0075111985 0.68126845
0.0075072008 -0.0093840063 0.68114781
0.0075032045 -0.011254817 0.68102711
0.0074992119 -0.013123661 0.68090665
0.007495224 -0.014990479 0.68078631
0.0074912403 -0.016855299 0.68066615
0.0074872887 -0.018718213 0.68054688
0.0074840696 -0.020581186 0.68044972
0.0074808239 -0.02244249 0.68035173
0.0074776099 -0.024302244 0.68025476
0.0074743708 -0.02616027 0.68015701
0.0074711619 -0.028016865 0.68006021
0.0074679288 -0.029871702 0.67996264
0.0074647255 -0.031725079 0.67986596
0.0074614976 -0.033576727 0.6797685
0.0074582994 -0.035426915 0.679672
0.007455105 -0.037275493 0.67957556
0.0075133443 -0.039445043 0.68133312
0.0075077922 -0.041292876 0.68116558
0.007502248 -0.043137938 0.68099827
0.0074967402 -0.044980437 0.68083203
0.0074913804 -0.046821147 0.68067032
0.0074860291 -0.048659176 0.68050879
0.0074806847 -0.050494611 0.68034756
0.0074753757 -0.052327603 0.68018734
0.0074700471 -0.054157853 0.68002653
0.0074647255 -0.055985451 0.67986596
0.0074594114 -0.057810426 0.67970562
0.0074541052 -0.059632838 0.6795454
0.0074488064 -0.061452627 0.67938554
0.0074435151 -0.063269883 0.67922586
0.0074382313 -0.065084517 0.67906642
0.0074329553 -0.066896588 0.67890722
0.0074276868 -0.068706095 0.67874819
0.0074224249 -0.07051304 0.6785894
0.0074171713 -0.072317421 0.6784308
0.0074119247 -0.074119255 0.67827249
0.007406686 -0.075918511 0.67811441
0.0074014543 -0.077715293 0.67795658
0.0073962305 -0.079509452 0.67779887
0.0073910137 -0.081301153 0.67764151
0.0073858043 -0.083090305 0.67748427
0.0073806019 -0.08487691 0.67732728
0.0073864856 -0.086791202 0.67750478
0.009784135 0.09001404 0.69080782
0.0097728213 0.087955385 0.69053471
0.0097615346 0.085901499 0.6902622
0.0097503113 0.083852708 0.68999124
0.0097390767 0.081808239 0.68972003
0.0097278673 0.079768509 0.68944943
0.0097167213 0.077733755 0.68918037
0.009705564 0.075703382 0.68891096
0.0096944692 0.073677987 0.6886431
0.0096849371 0.071668535 0.68841302
0.0096758343 0.069666058 0.6881932
0.0096667493 0.067667276 0.68797392
0.0096577192 0.065672487 0.68775588
0.0096486676 0.063681185 0.68753737
0.0096396338 0.061693668 0.68731928
0.0096306168 0.059709817 0.6871016
0.0096216165 0.057729691 0.68688428
0.0096126329 0.055753291 0.68666744
0.0096036661 0.053780526 0.68645096
0.0095947525 0.051811665 0.68623579
0.0095858928 0.049846649 0.6860218
0.0095781498 0.047890753 0.68583494
0.0095704552 0.045938194 0.68564916
0.0095627364 0.043988585 0.68546283
0.009555066 0.042042315 0.68527764
0.0095473723 0.040098965 0.68509191
0.0095397271 0.038158923 0.68490732
0.0095320577 0.036221832 0.68472219
0.0095244013 0.03428787 0.68453735
0.0095167924 0.032357097 0.68435359
0.0095091602 0.030429304 0.68416935
0.0095015755 0.028504699 0.68398625
0.0094939675 0.026583105 0.6838026
0.0094863726 0.024664581 0.68361914
0.0094788242 0.022749186 0.68343699
0.009471898 0.020838201 0.68326974
0.0094652325 0.018930495 0.68310887
0.0094585763 0.017025441 0.68294811
0.0094519295 0.015123099 0.68278772
0.0094452919 0.01322341 0.68262744
0.0094386637 0.011326402 0.6824674
0.0094320457 0.0094320476 0.68230766
0.0094254361 0.0075403452 0.6821481
0.0094188359 0.0056512952 0.68198872
0.0094122095 0.0037648976 0.68182874
0.0094056278 0.0018811524 0.68166983
0.0093990546 -0 0.68151116
0.0093924915 -0.0018785 0.68135273
0.0093859378 -0.0037543774 0.68119448
0.0093793925 -0.0056276023 0.68103647
0.0093728565 -0.0074982941 0.6808787
0.009366856 -0.0093668401 0.68073386
0.0093611078 -0.01123333 0.68059504
0.0093553318 -0.013097435 0.68045557
0.0093495976 -0.014959335 0.68031716
0.0093438709 -0.01681897 0.680179
0.0093381163 -0.018676192 0.68003994
0.0093324035 -0.020531267 0.67990208
0.0093266629 -0.022383988 0.67976344
0.0093209641 -0.024234474 0.67962587
0.0093152374 -0.026082665 0.67948771
0.0093095526 -0.02792865 0.67935038
0.0093038408 -0.029772282 0.67921251
0.00929817 -0.031613767 0.6790756
0.0092925057 -0.033452988 0.67893887
0.0092868134 -0.035289884 0.67880142
0.009281164 -0.037124664 0.67866504
0.0094177006 -0.039554328 0.6819613
0.0094105098 -0.041406214 0.68178773
0.009403294 -0.04325518 0.6816135
0.0093961246 -0.045101404 0.68144041
0.0093889665 -0.046944797 0.68126762
0.0093818186 -0.048785478 0.68109506
0.0093746819 -0.050623268 0.68092281
0.0093676271 -0.052458704 0.68075246
0.0093607223 -0.054292202 0.68058574
0.0093538277 -0.056122929 0.68041927
0.0093469778 -0.057951242 0.68025392
0.0093401037 -0.059776694 0.68008798
0.0093332389 -0.061599374 0.67992222
0.0093263844 -0.063419431 0.67975676
0.009319541 -0.065236747 0.67959154
0.0093127415 -0.067051739 0.67942739
0.0093059167 -0.068863779 0.67926264
0.0092991022 -0.070673227 0.67909813
0.009292298 -0.072479934 0.67893386
0.009285504 -0.074284047 0.67876983
0.0092787193 -0.076085508 0.67860603
0.0092719803 -0.077884644 0.67844331
0.0092652151 -0.079680875 0.67828
0.0092584603 -0.081474423 0.67811692
0.0092517147 -0.083265424 0.67795414
0.0092449803 -0.085053831 0.67779154
0.0092588374 -0.087033063 0.67812598
0.011991437 0.089935809 0.69584703
0.011979857 0.087852329 0.69561404
0.0119683 0.085772812 0.69538152
0.011956763 0.083697349 0.69514948
0.011945252 0.081625879 0.6949178
0.011933713 0.079558074 0.6946857
0.011922007 0.077493042 0.6944502
0.011909569 0.075427294 0.69419998
0.011897156 0.073365808 0.69395018
0.011884816 0.071308911 0.69370198
0.011872455 0.069256008 0.69345325
0.01186012 0.067207366 0.69320512
0.01184781 0.065162957 0.69295746
0.011834919 0.06311956 0.69269812
0.011818846 0.061064035 0.69237477
0.011801794 0.059009016 0.69203168
0.011784839 0.056960046 0.69169056
0.011767886 0.054916799 0.69134951
0.011740686 0.05283308 0.69080228
0.011674122 0.050587893 0.68946308
0.011628406 0.048451751 0.68854338
0.011609475 0.046437919 0.68816257
0.011590605 0.044430673 0.68778294
0.011571796 0.042429924 0.68740445
