# .PCD v0.7 - Point Cloud Data file format
VERSION 0.7
FIELDS x y z
SIZE 4 4 4
TYPE F F F
COUNT 1 1 1
WIDTH 220
HEIGHT 1
VIEWPOINT 0 0 0 1 0 0 0
POINTS 220
DATA ascii
0.0013612125 -0.021779388 0.61891079
0 -0.018983424 0.6182763
-0.013839186 -0.02629444 0.62165171
-0.0013917019 -0.023658931 0.6225912
-0.0097835474 -0.022362381 0.62330914
-0.0097835474 -0.022362381 0.62330914
-0.015680084 -0.024232864 0.62666643
-0.015680084 -0.024232864 0.62666643
0.0071005682 -0.019881576 0.62602079
-0.0071702073 -0.018642515 0.627702
0.023039419 -0.037439078 0.6284169
0.024765972 -0.040791005 0.63045192
-0.024714233 -0.037798256 0.63008451
0.018996539 -0.027764142 0.63098907
-0.020748792 -0.041497588 0.63349795
-0.020748792 -0.041497588 0.63349795
0.02536899 -0.04476881 0.63473374
-0.0014943305 -0.0089659691 0.63497961
0.020937948 -0.038884759 0.63512892
-0.005990041 -0.013477564 0.6353634
0.01054652 -0.015066445 0.63646615
-0.01974784 -0.053167269 0.63796526
-0.022737511 -0.02728501 0.63757527
-0.02901887 -0.038182735 0.63896036
0.0076347962 -0.012215674 0.63891822
-0.021447135 -0.050553977 0.63951927
-0.01716405 -0.056173235 0.64295101
-0.010921182 -0.01092118 0.64292699
0.012493777 -0.057783723 0.64311445
0.0047304053 -0.064648852 0.64493471
-0.017349467 -0.048893929 0.64498574
-0.018929556 -0.048901379 0.64501458
-0.025294589 -0.030037344 0.64543086
0.0015781545 -0.0031563342 0.64509803
0.0031787772 -0.060396776 0.6464541
0.020718982 -0.019125193 0.64698273
0.020718982 -0.019125193 0.64698273
-0.019038917 -0.015865743 0.64611465
0.014477317 -0.054692119 0.648772
-0.019291617 -0.046621412 0.64865661
0.020839659 -0.044885427 0.64810324
0.020839659 -0.044885427 0.64810324
-0.0064568655 -0.05972597 0.64945102
0.025809059 -0.029035211 0.64931226
-0.0016225129 -0.056787938 0.65045255
0 -0.056693435 0.65012664
-0.014603704 -0.051924258 0.65046716
-0.0065565342 -0.0032782853 0.65245885
0.0065732445 -0.0032866001 0.6529631
0.0083215851 -0.054922462 0.6554988
-0.020047693 -0.041766047 0.6562621
-0.015099595 -0.005033195 0.6571182
-0.0084619531 -0 0.65888751
-0.0017173858 -0.049804151 0.66190475
0.0017123079 -0.049656928 0.66129184
-0.013807759 -0.044875234 0.66294092
-0.010442485 -0.048731595 0.66468453
0.013937664 -0.045297384 0.66490102
0.013937664 -0.045297384 0.66490102
0.0034927099 0.0069854259 0.66540158
-0.015813839 -0.042170286 0.66669786
0 0.01053983 0.66664273
-0.0088291829 -0.047677577 0.66775322
0.0070488933 0.0052866638 0.66731709
0.0053258543 -0.047932684 0.66889369
0.017795781 -0.0053387284 0.66941202
-0.012552182 0.005379498 0.67105258
-0.0072328118 -0.045205086 0.67286736
-0.0072359489 0.0090449154 0.67296207
0 -0.041874051 0.67436516
0.0036644235 -0.043973118 0.67576545
0.018427992 2.9802322e-08 0.67704344
0.018648807 0.0018648803 0.67970896
-0.028012361 -0.011204928 0.68002397
0.0094182678 0.013185561 0.68197501
-0.0037935274 -0.037935287 0.68355757
0.016091745 0.01005733 0.69740361
0.012184555 0.02233839 0.69973218
0.0041269423 0.028888613 0.70368093
-0.027236221 0.00628528 0.70749807
-0.010513505 0.02943781 0.70841634
-0.0021019324 0.035732865 0.70832366
0.017313827 -0.0043284595 0.71584344
0.017313827 -0.0043284595 0.71584344
0.0043554148 0.037021071 0.71747047
0.019762792 0.026350379 0.71966237
-0.013209688 0.035225838 0.72035635
0.017680287 0.026520431 0.72137284
-0.015632583 0.035731614 0.72417217
0.009215177 0.043772072 0.73269045
-0.011552642 0.043900073 0.73350334
-0.027983228 0.023319364 0.73608744
-0.011778137 0.047112584 0.73894733
0.0047169174 0.049527645 0.7392891
0.0072619263 0.053254157 0.74679524
0.0097752586 0.053763926 0.74959242
0.00067995326 -0.01901105 0.61851472
-0.01101014 -0.024772823 0.62072814
-0.0068813376 -0.024772823 0.62072814
0.00068788213 -0.017857775 0.62041533
0.0041994476 -0.019597411 0.62357062
-0.0013895453 -0.016674519 0.6223309
-0.0013895453 -0.016674519 0.6223309
0.00071281224 -0.014231771 0.62639064
0.020259775 -0.028942525 0.62928158
0.024809457 -0.03940326 0.63076067
0.022005327 -0.030807465 0.63168311
-0.022023536 -0.029364705 0.63182968
0.011700599 -0.019013464 0.63114631
0.011700599 -0.019013464 0.63114631
0.011700599 -0.019013464 0.63114631
-0.0087450305 -0.017490089 0.63053435
-0.020899218 -0.040305644 0.63479501
-0.021240337 -0.024274677 0.6377362
0.016927818 -0.050783455 0.64035869
-0.021605428 -0.049383849 0.64088404
0.018585145 -0.02168265 0.64155006
-0.0078361258 -0.062688991 0.64377874
0.014792223 -0.060725957 0.64255363
-0.01716405 -0.056173235 0.64295101
-0.01716405 -0.056173235 0.64295101
0.021913217 -0.023478419 0.64353788
-0.015618879 -0.01405701 0.64313447
-0.023569874 -0.025141209 0.64427364
-0.00157343 -0.0031468868 0.64452773
0.0031737166 -0.066648021 0.64614868
-0.012744418 -0.0095582604 0.64689636
-0.004793304 -0.0047933161 0.64746559
0 -0.065705717 0.6480462
-0.0091201831 -0.059009708 0.64887238
-0.01298044 -0.055166841 0.65045762
0.021068892 -0.017827511 0.65023178
-0.013185028 -0.052740097 0.65354466
0.014728945 -0.052369565 0.65214688
0.019080505 -0.01327534 0.65490741
-0.011677798 -0.003336519 0.65597439
-0.011677798 -0.003336519 0.65597439
0.0083977021 -0.0537453 0.65733641
0.017037837 -0.011926472 0.66026282
0.027628956 -0.02244854 0.66304231
0.018922679 -0.0086011887 0.66224968
-0.017258506 -0.003451705 0.66292655
0.0087115858 -0.048784912 0.66491425
-0.013938246 -0.043557018 0.66490978
-0.0035013133 0.0087532699 0.66592085
-0.0088291829 -0.047677577 0.66775322
0.0087929694 -0.047482014 0.66687894
-0.0053014578 0.007068634 0.66791213
0.010775541 -0.03951031 0.67138505
-0.0072359489 0.0090449154 0.67296207
-0.01274303 0.0072817504 0.67434359
0.0018218047 0.014574468 0.67450917
-0.007380384 -0.042437226 0.67732072
-0.0055450825 -0.042512298 0.67771482
-0.025842208 -0.011075228 0.67741442
0.0093288543 -0.035449654 0.67981637
0.016800895 -0 0.67993653
0.0055811624 0.013022751 0.67916656
-0.0018704649 0.018704623 0.68038303
-0.0076913177 0.017305493 0.68670398
-0.019350173 0.0096750855 0.6881752
-0.0060150116 0.024060041 0.69662327
-0.0060150116 0.024060041 0.69662327
0.024626072 0.004104346 0.70231712
-0.012304761 0.024609506 0.70215064
-0.019372309 0.025829732 0.71442509
0.019762792 0.026350379 0.71966237
0.017934969 0.029144347 0.72521567
-0.0022618868 0.047499627 0.72763181
0.009215177 0.043772072 0.73269045
0.0074093575 0.056805074 0.75272739
-0.015585355 -0.024790585 0.62562692
-0.025252124 -0.038844656 0.6304298
0.0043586637 -0.015981764 0.62997699
-0.024011906 -0.049524561 0.63575375
0.028007509 -0.044222385 0.63253504
0.016694464 -0.028566673 0.63374209
-0.020780161 -0.025969818 0.63376844
0.019668303 -0.040849566 0.6372267
-0.02901887 -0.038182735 0.63896036
0.0098845521 -0.013682395 0.63820702
-0.0030091328 -0.0090273917 0.63621515
0.022425454 -0.026294634 0.64125943
-0.00316054 -0.060836814 0.64535338
0.018000951 -0.047117114 0.64632243
-0.010565938 -0.0089713736 0.64582831
-0.012873487 -0.056321502 0.64884388
0.0032889661 -0.056730449 0.65310454
0.0060686516 -0.0022029779 0.65439892
-0.021781094 -0.013403773 0.65684491
-0.015099595 -0.005033195 0.6571182
0.0017224009 -0.049942911 0.66249186
0.0017224009 -0.049942911 0.66249186
0 0.0086550713 0.66354996
0.010510553 -0.04291378 0.66605389
-0.008830742 0.0052984357 0.66779089
-0.012458243 -0.044493735 0.66943264
0.018796958 -0.0035812706 0.67074728
0.0095261643 0.0059581897 0.67020434
-0.013620043 0.0063590705 0.67384261
-0.013620043 0.0063590705 0.67384261
-0.024022568 -0.005543679 0.67765796
0.018769339 -0.026277065 0.68116391
0.015718918 0.0058946311 0.69177806
-0.017668866 0.013742447 0.69157797
0.0069586136 0.021860749 0.69449085
-0.020451687 0.016361356 0.70147163
-0.0041152998 0.030864775 0.70297825
0.027586797 0.0063661635 0.71075344
0.016988091 0.019111603 0.71092844
-0.021285521 0.021285534 0.71153688
0.005279501 0.031648114 0.70928216
0.0088503463 0.037613988 0.72168076
0.0088503463 0.037613988 0.72168076
-0.0072251544 0.052984446 0.74531567
0.0012210365 0.056113526 0.74909794
0.01480556 0.051819444 0.75246274
0.0012714177 0.0635048 0.76122624
0.010189829 0.061138988 0.7621032
-0.018165141 0.059685498 0.76784456
