# .PCD v0.7 - Point Cloud Data file format
VERSION 0.7
FIELDS x y z
SIZE 4 4 4
TYPE F F F
COUNT 1 1 1
WIDTH 1334
HEIGHT 1
VIEWPOINT 0 0 0 1 0 0 0
POINTS 1334
DATA ascii
-0.022283271 0.010128796 0.69912779
-0.022214917 0.0080781877 0.69837767
-0.022146981 0.0060400963 0.69763219
-0.022079725 0.0040145218 0.69689411
-0.022014638 0.0020013154 0.69617999
-0.021949846 -0 0.6954689
-0.021885432 -0.001989603 0.69476205
-0.021821398 -0.0039674938 0.69405937
-0.021757735 -0.0059339404 0.69336075
-0.021694444 -0.0078888535 0.69266623
-0.02163152 -0.0098324716 0.69197571
-0.021568961 -0.011764884 0.69128925
-0.02150676 -0.013686121 0.69060659
-0.021444919 -0.01559633 0.68992805
-0.021383433 -0.017495543 0.68925327
-0.021322297 -0.019383907 0.68858236
-0.02126151 -0.021261513 0.68791527
-0.021201149 -0.023128539 0.68725288
-0.02114105 -0.024984866 0.68659341
-0.021081291 -0.026830733 0.68593764
-0.021021869 -0.028666168 0.68528557
-0.02096278 -0.030491352 0.68463719
-0.02090434 -0.032306731 0.68399584
-0.020847173 -0.034113556 0.68336856
-0.020842832 -0.036001235 0.68332082
-0.020784743 -0.037790447 0.68268347
-0.020727135 -0.039569944 0.68205124
-0.020670233 -0.04134047 0.68142682
-0.020613797 -0.043101579 0.68080753
-0.020558281 -0.044854432 0.68019825
-0.020503065 -0.046597898 0.67959237
-0.020448146 -0.048331976 0.67898971
-0.020393519 -0.050056815 0.67839026
-0.020339107 -0.051772267 0.6777932
-0.020285061 -0.053478777 0.67720008
-0.020231299 -0.055176258 0.67661011
-0.020177823 -0.056864768 0.67602324
-0.020124629 -0.058544368 0.67543954
-0.020071715 -0.060215145 0.67485887
-0.020019006 -0.061876923 0.67428046
-0.01996679 -0.063530684 0.67370743
-0.019914845 -0.065175861 0.67313743
-0.019863099 -0.066812217 0.67256951
-0.019811692 -0.068440378 0.67200541
-0.019760549 -0.070060134 0.67144424
-0.0197096 -0.071671277 0.67088509
-0.019658983 -0.073274359 0.67032963
-0.019608626 -0.07486929 0.66977704
-0.019558458 -0.076455787 0.66922653
-0.019508611 -0.078034416 0.66867954
-0.01945902 -0.079605088 0.6681354
-0.019527093 -0.081658736 0.66888231
-0.022248549 0.088994205 0.7231617
-0.022174699 0.086481303 0.72227025
-0.022102408 0.083989173 0.72139764
-0.02203059 0.081513196 0.72053069
-0.021959236 0.079053283 0.71966934
-0.021888342 0.076609164 0.7188136
-0.021818001 0.074181199 0.71796447
-0.021748014 0.071768433 0.71711969
-0.021678476 0.069371164 0.71628028
-0.021609381 0.066989064 0.71544623
-0.021540726 0.064622164 0.71461749
-0.021472504 0.062270254 0.71379399
-0.021404713 0.059933215 0.71297574
-0.021337351 0.05761084 0.71216255
-0.021270409 0.055303067 0.71135449
-0.021203889 0.053009748 0.7105515
-0.021137781 0.050730675 0.70975351
-0.021072084 0.048465788 0.70896053
-0.021007324 0.0462161 0.70817876
-0.020943837 0.043982059 0.70741236
-0.020880733 0.041761458 0.70665061
-0.020818008 0.039554209 0.70589352
-0.020755658 0.037360191 0.70514089
-0.02069368 0.035179287 0.70439273
-0.020632073 0.033011317 0.70364904
-0.020570831 0.030856222 0.70290983
-0.020509953 0.028713942 0.7021749
-0.02044943 0.026584268 0.70144439
-0.020389266 0.02446714 0.70071816
-0.020329455 0.022362411 0.69999617
-0.020269994 0.02026999 0.69927841
-0.020210879 0.018189788 0.69856483
-0.020152107 0.016121656 0.69785541
-0.020093678 0.014065593 0.69715005
-0.020035585 0.012021363 0.69644886
-0.019977828 0.009988904 0.69575167
-0.019920403 0.0079681873 0.69505847
-0.019863307 0.0059590042 0.69436926
-0.019806616 0.0039613545 0.69368494
-0.019750169 0.0019750297 0.69300354
-0.019694354 -0 0.69232982
-0.01963947 -0.0019639432 0.69166732
-0.01958489 -0.0039169788 0.69100845
-0.019530538 -0.0058591664 0.69035238
-0.019476561 -0.0077906549 0.68970084
-0.019422881 -0.0097114742 0.68905282
-0.019369423 -0.011621654 0.68840754
-0.019316332 -0.013521403 0.68776667
-0.019263532 -0.015410811 0.68712926
-0.019210946 -0.017289877 0.68649459
-0.019158719 -0.019158751 0.68586415
-0.019106703 -0.021017343 0.68523622
-0.019055041 -0.02286607 0.68461263
-0.019003658 -0.024704754 0.68399239
-0.018952478 -0.026533455 0.68337458
-0.018901646 -0.028352439 0.68276095
-0.018851014 -0.030161619 0.68214977
-0.018800724 -0.031961203 0.68154269
-0.018764624 -0.033776283 0.68110698
-0.018740235 -0.035606444 0.68081254
-0.018690605 -0.037381202 0.68021345
-0.018641165 -0.039146453 0.67961669
-0.018592054 -0.040902525 0.67902386
-0.018543135 -0.04264918 0.67843336
-0.018494472 -0.044386715 0.6778459
-0.018446131 -0.046115339 0.67726249
-0.018397974 -0.047834754 0.6766811
-0.018350137 -0.049545348 0.67610365
-0.01830248 -0.051246941 0.67552835
-0.018255135 -0.052939892 0.67495692
-0.018207971 -0.054623902 0.67438757
-0.018161444 -0.056300521 0.67382598
-0.018115286 -0.057968915 0.67326874
-0.018069426 -0.059629112 0.67271519
-0.018023733 -0.061280668 0.67216361
-0.017978335 -0.062924176 0.6716156
-0.017933168 -0.0645594 0.6710704
-0.01788816 -0.06618619 0.6705271
-0.017843442 -0.067805082 0.66998732
-0.017798884 -0.069415629 0.66944945
-0.017754611 -0.071018413 0.66891503
-0.017710557 -0.072613284 0.66838324
-0.017666658 -0.074199945 0.66785336
-0.017623041 -0.075779051 0.66732681
-0.017579576 -0.077350155 0.66680217
-0.017536385 -0.078913733 0.66628075
-0.017572289 -0.080832526 0.66671419
-0.019794151 0.090173304 0.720083
-0.019732568 0.087700307 0.71925706
-0.019671284 0.085242212 0.71843505
-0.019610461 0.082799762 0.7176193
-0.019550014 0.080372274 0.71680856
-0.019489855 0.077959418 0.71600169
-0.019430149 0.075561702 0.7152009
-0.019370809 0.073178589 0.71440494
-0.019311747 0.070809752 0.71361279
-0.019253124 0.068455607 0.71282655
-0.019194774 0.066115379 0.71204394
-0.019136861 0.063789546 0.71126723
-0.019079294 0.061477721 0.71049511
-0.019021994 0.059179574 0.70972657
-0.018965114 0.056895375 0.70896369
-0.018908575 0.054624796 0.70820534
-0.018852293 0.052367508 0.70745051
-0.018796423 0.050123781 0.70670116
-0.018740807 0.047893167 0.70595521
-0.018685594 0.045675904 0.70521474
-0.018630708 0.043471664 0.7044785
-0.018576065 0.041280121 0.70374566
-0.018521819 0.03910166 0.70301807
-0.018467888 0.036935776 0.70229477
-0.018414572 0.034783095 0.70157963
-0.018361937 0.032643467 0.70087367
-0.018309528 0.030515909 0.70017076
-0.018257491 0.02840057 0.6994729
-0.018205676 0.026297122 0.69877785
-0.018154226 0.024205625 0.69808781
-0.018102994 0.02212587 0.69740069
-0.018052123 0.020057887 0.69671839
-0.018001463 0.018001467 0.69603896
-0.017951163 0.015956551 0.6953643
-0.017901069 0.013923019 0.69469237
-0.017851252 0.011900842 0.69402421
-0.017801784 0.0098899007 0.69336075
-0.017752519 0.0078900158 0.69269997
-0.017703595 0.0059011877 0.69204378
-0.017654872 0.0039233565 0.69139034
-0.017606484 0.001956284 0.6907413
-0.017558293 -0 0.69009501
-0.017510366 -0.001945585 0.68945217
-0.017462766 -0.00388062 0.68881375
-0.017415358 -0.0058051348 0.68817788
-0.017368272 -0.0077192485 0.68754637
-0.017321374 -0.0096229911 0.68691736
-0.017274795 -0.011516541 0.68629259
-0.0172284 -0.013399899 0.68567038
-0.017182255 -0.015273124 0.68505144
-0.017136419 -0.017136425 0.68443668
-0.017090762 -0.018989742 0.6838243
-0.017045414 -0.020833284 0.68321609
-0.017000243 -0.022667021 0.68261027
-0.016955372 -0.024491102 0.68200845
-0.016910866 -0.026305765 0.68141145
-0.016866844 -0.028111398 0.68082106
-0.016823051 -0.029907644 0.68023372
-0.016779486 -0.031694591 0.67964941
-0.016764119 -0.033528268 0.67944336
-0.01672297 -0.03530404 0.67889136
-0.01667992 -0.03706646 0.67831397
-0.016637091 -0.038819849 0.6777395
-0.016594483 -0.040564299 0.67716801
-0.016552152 -0.042299926 0.67660028
-0.016509976 -0.044026613 0.67603463
-0.016468015 -0.045744479 0.67547184
-0.016426265 -0.047453672 0.67491186
-0.016384788 -0.049154341 0.67435551
-0.016343461 -0.050846308 0.67380124
-0.016302399 -0.052529931 0.6732505
-0.016261486 -0.054204941 0.67270178
-0.016220776 -0.055871546 0.6721558
-0.016180327 -0.057530075 0.67161328
-0.016140023 -0.059180111 0.67107272
-0.016099976 -0.060822159 0.67053556
-0.016060071 -0.062455833 0.67000037
-0.016020363 -0.06408143 0.66946775
-0.015980909 -0.06569925 0.66893864
-0.01594159 -0.067308933 0.66841125
-0.015902519 -0.068910912 0.66788721
-0.015863586 -0.070504844 0.66736507
-0.015824841 -0.072090954 0.66684544
-0.015786342 -0.073669598 0.66632903
-0.01574803 -0.075240582 0.66581517
-0.015710121 -0.07680504 0.66530675
-0.015672397 -0.078361988 0.66480082
-0.015692877 -0.080208018 0.66507542
-0.017412566 0.089239419 0.7173332
-0.017359553 0.086797774 0.71653336
-0.017306939 0.084371328 0.71573943
-0.017254569 0.081959188 0.71494925
-0.017202588 0.079561949 0.71416485
-0.017150844 0.077178806 0.71338415
-0.017099485 0.074810237 0.71260923
-0.017048579 0.072456479 0.71184111
-0.016998263 0.070117861 0.71108192
-0.016948314 0.06779325 0.71032828
-0.016898587 0.06548202 0.70957792
-0.016849153 0.063184351 0.70883203
-0.016800005 0.060900003 0.70809042
-0.016751142 0.058629006 0.70735317
-0.016702633 0.056371391 0.70662123
-0.016654337 0.05412659 0.70589244
-0.016606318 0.051894784 0.70516789
-0.016558575 0.049675763 0.70444751
-0.016511174 0.047469616 0.70373231
-0.016463974 0.045275956 0.7030201
-0.016417045 0.043094754 0.70231199
-0.016370384 0.04092595 0.70160794
-0.016323986 0.038769484 0.70090783
-0.016277915 0.036625326 0.70021272
-0.01623204 0.034493059 0.69952047
-0.016186422 0.032372862 0.69883221
-0.016141059 0.030264467 0.69814771
-0.016096015 0.028168023 0.69746804
-0.016051158 0.026083171 0.69679123
-0.016006548 0.024009824 0.69611812
-0.015962187 0.02194801 0.69544876
-0.015918134 0.019897699 0.69478405
-0.015874261 0.017858535 0.69412202
-0.015830629 0.015830666 0.69346368
-0.0157873 0.013813853 0.69280988
-0.015744142 0.011808097 0.6921587
-0.015701221 0.0098132491 0.69151103
-0.015658535 0.0078292489 0.69086695
-0.01561614 0.0058560371 0.69022727
-0.015573913 0.0038934648 0.6895901
-0.015531915 0.0019415021 0.68895644
-0.015490201 2.9802322e-08 0.68832701
-0.015448653 -0.0019310415 0.68770003
-0.015407623 -0.0038519204 0.68708104
-0.015366809 -0.0057625473 0.68646514
-0.015326272 -0.007663101 0.68585348
-0.015285946 -0.0095537007 0.68524504
-0.015245775 -0.011434346 0.68463886
-0.015205871 -0.013305128 0.68403679
-0.015166176 -0.015166163 0.68343782
-0.015126687 -0.017017484 0.68284202
-0.015087347 -0.018859178 0.68224841
-0.015048269 -0.020691365 0.68165874
-0.015009391 -0.022514105 0.68107218
-0.014970657 -0.024327278 0.68048769
-0.01493218 -0.026131302 0.67990708
-0.0148939 -0.027926058 0.67932951
-0.014855758 -0.029711515 0.67875403
-0.014817868 -0.031487972 0.6781823
-0.014805045 -0.033311337 0.67798877
-0.014767357 -0.035072476 0.6774202
-0.014729916 -0.036824763 0.67685515
-0.014692664 -0.038568228 0.67629313
-0.0146556 -0.040302873 0.67573386
-0.014618669 -0.042028666 0.67517662
-0.014581977 -0.043745935 0.67462301
-0.014545469 -0.045454562 0.67407203
-0.014509142 -0.047154725 0.67352402
-0.014472998 -0.048846364 0.67297858
-0.01443698 -0.05052942 0.6724351
-0.014401194 -0.052204311 0.67189515
-0.014365584 -0.053870916 0.67135781
-0.014330149 -0.055529326 0.67082322
-0.01429489 -0.05717957 0.67029113
-0.014259752 -0.05882144 0.66976094
-0.014224838 -0.060455531 0.6692341
-0.014190094 -0.062081665 0.66870999
-0.014155619 -0.063700289 0.66818964
-0.014121362 -0.065311313 0.66767281
-0.014087268 -0.066914529 0.66715837
-0.014053341 -0.068510041 0.66664648
-0.014019576 -0.070097849 0.66613698
-0.013985972 -0.071678117 0.66562998
-0.013952578 -0.073251024 0.66512609
-0.013919295 -0.074816212 0.66462392
-0.01388617 -0.076373935 0.66412401
-0.013853203 -0.077924266 0.66362667
-0.013863183 -0.079713285 0.66377717
-0.015160417 0.090962499 0.71602994
-0.015115338 0.088532686 0.71525264
-0.015070463 0.08611691 0.71447879
-0.015025917 0.083715826 0.71371061
-0.014981633 0.081328899 0.71294695
-0.014937547 0.078955621 0.71218669
-0.014893781 0.076596588 0.71143204
-0.014850274 0.074251384 0.71068174
-0.014806954 0.071919501 0.70993471
-0.01476395 0.069601476 0.70919311
-0.014721196 0.067296892 0.70845586
-0.014678689 0.06500566 0.70772284
-0.014636363 0.062727273 0.70699298
-0.014594343 0.060462296 0.70626831
-0.014552564 0.058210254 0.70554793
-0.014510963 0.055970848 0.70483053
-0.014469659 0.053744465 0.70411825
-0.014428589 0.051530659 0.70341003
-0.014387752 0.04932943 0.7027058
-0.014347086 0.047140449 0.70200455
-0.014306707 0.044963926 0.70130825
-0.014266556 0.042799681 0.70061588
-0.014226573 0.040647358 0.69992638
-0.014186869 0.038507193 0.69924176
-0.014147387 0.036379009 0.69856083
-0.014108067 0.034262478 0.69788283
-0.014069021 0.032157779 0.69720954
-0.014030191 0.030064702 0.69653988
-0.013991575 0.027983189 0.69587398
-0.013953115 0.025912941 0.69521075
-0.013914921 0.023854136 0.69455218
-0.013876936 0.021806628 0.69389713
-0.013839322 0.019770473 0.69324845
-0.013801966 0.017745376 0.6926043
-0.01376481 0.015731245 0.69196355
-0.013727853 0.013727844 0.69132626
-0.013691097 0.01173526 0.69069237
-0.013654534 0.0097532868 0.69006193
-0.013618167 0.0077818036 0.68943477
-0.013581993 0.0058208406 0.688811
-0.013546011 0.0038703084 0.68819052
-0.013510219 0.0019300282 0.68757331
-0.013474616 -0 0.68695933
-0.013439199 -0.0019198954 0.68634862
-0.01340397 -0.0038297176 0.68574107
-0.013368923 -0.0057295263 0.68513674
-0.013334059 -0.0076194406 0.68453556
-0.013299378 -0.0094995201 0.68393743
-0.013264876 -0.011369854 0.68334252
-0.013230552 -0.013230532 0.68275064
-0.013196406 -0.015081614 0.68216181
-0.013162434 -0.0169231 0.68157595
-0.013128638 -0.018755168 0.6809932
-0.013095016 -0.020577878 0.68041337
-0.013061564 -0.02239123 0.67983651
-0.013028235 -0.024195284 0.6792618
-0.012995124 -0.025990218 0.67869079
-0.01296218 -0.027776092 0.67812276
-0.012929404 -0.029552907 0.67755753
-0.012896792 -0.031320781 0.67699516
-0.012884883 -0.033132553 0.67678982
-0.012852496 -0.034885377 0.67623127
-0.01282027 -0.036629349 0.67567551
-0.012788205 -0.038364649 0.67512268
-0.01275635 -0.040091366 0.6745733
-0.012724604 -0.04180941 0.67402589
-0.012693016 -0.043518901 0.67348111
-0.012661584 -0.045219958 0.67293912
-0.012630354 -0.04691276 0.67240059
-0.012599231 -0.048597008 0.67186391
-0.012568262 -0.050273031 0.6713298
-0.012537445 -0.051940858 0.67079842
-0.012506777 -0.05360049 0.67026961
-0.012476349 -0.055252433 0.66974485
-0.01244607 -0.056896299 0.66922271
-0.01241598 -0.058532476 0.66870385
-0.012385991 -0.060160547 0.66818666
-0.012356147 -0.061780751 0.6676721
-0.012326447 -0.063393146 0.66715991
-0.012296933 -0.06499806 0.66665089
-0.012267515 -0.066595078 0.66614366
-0.012238239 -0.06818448 0.6656388
-0.012209145 -0.069766566 0.66513711
-0.012180147 -0.071340859 0.66463703
-0.012151284 -0.072907701 0.66413927
-0.012122602 -0.074467406 0.66364473
-0.012094012 -0.076019511 0.66315168
-0.012065557 -0.077564299 0.66266102
-0.012070089 -0.079317734 0.66273916
-0.012914094 0.090398669 0.71440941
-0.012876154 0.087987036 0.71364617
-0.012838434 0.085589588 0.71288729
-0.012800937 0.083206087 0.71213287
-0.012763657 0.080836505 0.71138287
-0.012726593 0.078480661 0.71063721
-0.012689745 0.076138467 0.70989585
-0.012653109 0.073809803 0.70915878
-0.012616684 0.07149455 0.708426
-0.01258052 0.069192857 0.7076984
-0.012544511 0.066904068 0.70697397
-0.012508655 0.064628124 0.70625263
-0.012473055 0.062365294 0.70553648
-0.012437658 0.060115367 0.70482427
-0.012402463 0.057878166 0.70411623
-0.012367464 0.055653572 0.70341206
-0.012332662 0.053441525 0.70271194
-0.012298056 0.051241875 0.7020157
-0.012263644 0.049054563 0.70132339
-0.012229424 0.046879441 0.7006349
-0.012195542 0.044717014 0.69995326
-0.012161848 0.042566448 0.69927543
-0.012128339 0.040427804 0.69860125
-0.012095064 0.038301051 0.69793183
-0.012061923 0.036185801 0.69726503
-0.012028962 0.034082085 0.69660199
-0.011996228 0.031989932 0.69594342
-0.011963626 0.029909074 0.69528753
-0.0119312 0.027839452 0.69463515
-0.011898995 0.025781125 0.69398725
-0.011866918 0.023733884 0.69334185
-0.011835014 0.021697551 0.69270003
-0.011803325 0.019672245 0.6920625
-0.011771761 0.017657608 0.69142747
-0.011740365 0.015653819 0.69079578
-0.011709182 0.013660699 0.6901685
-0.011678118 0.0116781 0.68954349
-0.011647218 0.0097059906 0.68892187
-0.011616527 0.0077443421 0.68830442
-0.011585953 0.0057929456 0.6876893
-0.011555539 0.003851831 0.6870774
-0.011525328 0.0019209385 0.68646961
-0.011495233 -0 0.68586415
-0.011465335 -0.0019108653 0.68526262
-0.011435551 -0.003811866 0.68466341
-0.01140592 -0.0057029426 0.68406731
-0.011376485 -0.0075843334 0.68347514
-0.01134716 -0.0094559789 0.68288517
-0.011317985 -0.011317968 0.68229818
-0.011289002 -0.013170481 0.68171507
-0.011260126 -0.015013486 0.6811341
-0.011231396 -0.016847074 0.68055618
-0.011202854 -0.018671453 0.67998195
-0.011174416 -0.020486385 0.6794098
-0.011146121 -0.022292256 0.67884052
-0.011118011 -0.024089009 0.67827499
-0.011090001 -0.025876701 0.67771155
-0.011062132 -0.027655333 0.67715085
-0.011034443 -0.029425114 0.67659378
-0.011006853 -0.031186044 0.67603868
-0.010996168 -0.032988518 0.67582375
-0.010968809 -0.034734577 0.67527336
-0.010941585 -0.036471963 0.67472565
-0.010914495 -0.038200706 0.67418063
-0.01088754 -0.039920986 0.67363828
-0.010860717 -0.041632771 0.67309874
-0.010834026 -0.043336093 0.67256165
-0.010807428 -0.045030951 0.67202652
-0.010780998 -0.046717674 0.67149484
-0.010754696 -0.04839614 0.67096573
-0.010728561 -0.05006662 0.6704399
-0.010702515 -0.051728845 0.66991591
-0.010676634 -0.053383172 0.66939521
-0.010650877 -0.055029511 0.66887695
-0.010625206 -0.056667775 0.66836059
-0.010599696 -0.058298349 0.66784739
-0.010574308 -0.059921086 0.66733658
-0.010549005 -0.061535865 0.66682756
-0.010523859 -0.063143134 0.66632164
-0.010498834 -0.064742804 0.66581821
-0.010473926 -0.066334829 0.66531706
-0.0104491 -0.067919135 0.66481763
-0.010424428 -0.06949617 0.66432118
-0.010399872 -0.071065784 0.66382718
-0.010375395 -0.072627783 0.66333479
-0.01035107 -0.074182674 0.66284537
-0.010326858 -0.075730309 0.66235822
-0.010302759 -0.077270687 0.66187346
-0.01030389 -0.078996509 0.66189623
-0.010740401 0.09236747 0.71389413
-0.010709091 0.089956343 0.71313828
-0.010677919 0.087558955 0.71238565
-0.010646927 0.085175395 0.7116375
-0.01061616 0.082806081 0.7108947
-0.010585525 0.080449998 0.71015507
-0.010555067 0.078107506 0.70941979
-0.010524828 0.075778753 0.70868969
-0.010494805 0.073463649 0.7079649
-0.010464997 0.071161985 0.70724529
-0.010435358 0.068873376 0.70652974
-0.010405886 0.06659773 0.70581824
-0.010376581 0.06433481 0.70511073
-0.01034744 0.062084675 0.70440722
-0.010318462 0.059847087 0.70370764
-0.010289646 0.057622045 0.70301193
-0.01026099 0.055409342 0.70232016
-0.010232493 0.053208977 0.70163214
-0.010204156 0.051020771 0.700948
-0.010175973 0.048844695 0.70026767
-0.010147947 0.04668054 0.69959104
-0.010120073 0.044528335 0.6989181
-0.010092312 0.042387724 0.69824791
-0.010064744 0.040258974 0.6975823
-0.010037326 0.038141817 0.69692045
-0.010010057 0.036036223 0.69626206
-0.0099829352 0.033941954 0.6956073
-0.0099559603 0.03185907 0.69495606
-0.0099291308 0.029787391 0.69430834
-0.0099024456 0.027726829 0.69366407
-0.0098759038 0.025677383 0.69302332
-0.0098495027 0.023638815 0.69238597
-0.0098232431 0.021611154 0.69175196
-0.0097971233 0.019594252 0.6911214
-0.0097711422 0.017588019 0.69049418
-0.0097452989 0.015592486 0.68987024
-0.0097195907 0.013607442 0.68924958
-0.0096940184 0.01163283 0.68863225
-0.0096685803 0.0096685886 0.68801808
-0.0096432753 0.007714659 0.6874072
-0.0096181026 0.0057708621 0.68679947
-0.0095930602 0.0038372278 0.6861949
-0.0095681483 0.0019136369 0.68559343
-0.0095433667 2.9802322e-08 0.68499517
-0.0095187118 -0.0019037127 0.68439996
-0.0094941845 -0.0037976503 0.68380779
-0.0094697829 -0.0056818724 0.68321866
-0.0094455061 -0.0075563788 0.68263263
-0.0094213542 -0.0094213486 0.68204951
-0.0093973251 -0.011276782 0.68146944
-0.0093734181 -0.013122767 0.68089223
-0.0093496321 -0.014959425 0.680318
-0.0093259672 -0.016786724 0.67974669
-0.0093024224 -0.018604815 0.67917824
-0.009278995 -0.020413786 0.67861271
-0.0092556858 -0.022213638 0.67804992
-0.009232494 -0.024004489 0.67749006
-0.0092094168 -0.02578637 0.67693293
-0.009186456 -0.02755934 0.67637861
-0.0091636088 -0.029323518 0.67582697
-0.0091408743 -0.031078994 0.67527819
-0.0091316989 -0.032874107 0.67505664
-0.0091091227 -0.034614682 0.67451161
-0.0090866918 -0.036346734 0.67397004
-0.0090643698 -0.038070351 0.67343116
-0.0090421252 -0.039785355 0.67289412
-0.0090200221 -0.041492134 0.67236054
-0.0089979945 -0.04319039 0.67182875
-0.0089761056 -0.044880539 0.67130029
-0.0089543238 -0.046562493 0.67077446
-0.0089326156 -0.048236132 0.6702503
-0.0089110434 -0.049901873 0.66972959
-0.0088895448 -0.051559359 0.66921055
-0.0088681793 -0.053209066 0.66869473
-0.0088469172 -0.054850906 0.66818142
-0.0088257259 -0.05648464 0.66766983
-0.0088046668 -0.058110803 0.66716141
-0.0087836767 -0.05972898 0.66665465
-0.0087628178 -0.061339706 0.66615105
-0.0087420568 -0.062942833 0.66564983
-0.0087213647 -0.064538091 0.66515028
-0.0087008001 -0.066126093 0.66465378
-0.0086803017 -0.067706347 0.66415894
-0.0086599309 -0.069279447 0.66366708
-0.0086396541 -0.070845157 0.66317761
-0.0086194426 -0.072403327 0.66268969
-0.0085993558 -0.073954448 0.66220474
-0.0085794199 -0.075498864 0.66172343
-0.0085595772 -0.077036157 0.66124433
-0.0085586403 -0.078739509 0.6612218
-0.008560311 0.092023343 0.71292818
-0.0085355956 0.089623779 0.71218228
-0.0085110227 0.087237984 0.71144074
-0.0084865903 0.084865928 0.71070343
-0.0084622977 0.082507432 0.70997036
-0.0084381439 0.080162376 0.70924145
-0.0084141279 0.077830672 0.70851672
-0.0083902478 0.07551223 0.70779604
-0.0083665038 0.073206902 0.70707953
-0.0083428929 0.070914596 0.70636702
-0.0083194152 0.068635166 0.70565844
-0.0082960688 0.06636858 0.70495391
-0.0082728192 0.064114392 0.70425236
-0.0082497336 0.061872989 0.70355564
-0.0082267765 0.059644133 0.70286286
-0.008203947 0.057427645 0.70217395
-0.0081812432 0.055223435 0.70148879
-0.0081586652 0.053031325 0.70080745
-0.0081362119 0.050851345 0.70012981
-0.0081138806 0.048683286 0.69945598
-0.0080916733 0.046527117 0.69878578
-0.008069586 0.044382751 0.69811922
-0.0080476189 0.042250037 0.6974563
-0.0080257719 0.040128857 0.69679701
-0.0080040423 0.03801921 0.6961413
-0.007982431 0.035920948 0.69548905
-0.0079609351 0.03383401 0.69484037
-0.0079395548 0.031758219 0.69419521
-0.0079182899 0.029693604 0.69355345
-0.0078971377 0.027639985 0.69291514
-0.0078760982 0.025597334 0.69228023
-0.0078551713 0.023565501 0.69164872
-0.0078343544 0.021544516 0.69102049
-0.0078136483 0.019534111 0.69039559
-0.0077930512 0.017534375 0.68977404
-0.0077725626 0.0155451 0.68915576
-0.0077521806 0.013566315 0.68854064
-0.0077319057 0.011597842 0.68792886
-0.007711737 0.0096397102 0.68732017
-0.0076916725 0.0076916516 0.68671465
-0.0076717129 0.0057537854 0.68611234
-0.0076518557 0.0038259625 0.68551308
-0.0076321019 0.0019080043 0.68491697
-0.0076124496 2.9802322e-08 0.68432391
-0.0075928983 -0.0018982291 0.68373394
-0.0075734179 -0.0037867129 0.683146
-0.0075540664 -0.0056655407 0.68256205
-0.0075348131 -0.0075348318 0.68198103
-0.0075156577 -0.0093945563 0.68140292
-0.0074965996 -0.011244923 0.68082786
-0.0074776383 -0.013085872 0.68025565
-0.0074587725 -0.014917552 0.67968631
-0.0074400008 -0.016740024 0.67911983
-0.0074213245 -0.018553317 0.6785562
-0.0074027409 -0.020357519 0.67799532
-0.0073842504 -0.022152722 0.67743737
-0.0073658526 -0.023939013 0.67688215
-0.0073475456 -0.025716424 0.67632973
-0.0073293294 -0.027484983 0.67578
-0.007311204 -0.02924484 0.67523301
-0.0072931675 -0.030995935 0.6746887
-0.0072856536 -0.032785416 0.67446196
-0.0072677429 -0.034521788 0.67392147
-0.0072499202 -0.036249578 0.67338365
-0.0072321841 -0.037968963 0.67284834
-0.0072145611 -0.039680094 0.67231661
-0.0071969973 -0.0413827 0.67178655
-0.0071795196 -0.043077081 0.67125905
-0.0071621258 -0.044763267 0.67073423
-0.0071448172 -0.046441317 0.67021179
-0.0071275905 -0.0481112 0.66969204
-0.0071104732 -0.049773306 0.66917539
-0.0070934123 -0.051427215 0.66866058
-0.0070764329 -0.053073257 0.66814816
-0.007059535 -0.054711401 0.66763824
-0.0070427172 -0.056341738 0.66713071
-0.0070259799 -0.057964325 0.66662562
-0.0070093214 -0.059579223 0.66612291
-0.0069927666 -0.061186731 0.66562331
-0.006976265 -0.062786371 0.66512537
-0.0069598411 -0.0643785 0.66462976
-0.0069434945 -0.065963194 0.66413641
-0.0069272732 -0.067540884 0.66364688
-0.0069111502 -0.069111496 0.66316032
-0.0068950793 -0.070674568 0.66267532
-0.0068791062 -0.072230607 0.6621933
-0.0068631829 -0.07377921 0.66171277
-0.0068473341 -0.075320661 0.6612345
-0.0068315808 -0.076855302 0.66075915
-0.0068297158 -0.078541741 0.66070282
-0.0064009051 0.0917463 0.71215045
-0.0063824519 0.089354366 0.71140802
-0.0063641057 0.086976141 0.71066976
-0.0063458649 0.084611535 0.70993578
-0.0063277278 0.082260489 0.70920599
-0.0063096676 0.079922497 0.7084794
-0.0062917103 0.077597767 0.70775676
-0.0062738284 0.075285941 0.70703733
-0.0062559959 0.072986603 0.70631975
-0.0062382645 0.070700318 0.70560628
-0.0062206336 0.068426996 0.70489693
-0.0062031015 0.066166401 0.70419151
-0.0061856941 0.063918829 0.70349103
-0.006168358 0.061683595 0.70279348
-0.0061511197 0.059460819 0.7020998
-0.0061339769 0.05725047 0.70141006
-0.0061169295 0.05505237 0.70072418
-0.0060999766 0.052866489 0.70004201
-0.0060831173 0.050692648 0.69936371
-0.0060663512 0.048530817 0.69868904
-0.0060496773 0.046380877 0.69801813
-0.0060330941 0.04424271 0.69735092
-0.0060166027 0.042116195 0.69668734
-0.0060002003 0.040001363 0.69602728
-0.0059838872 0.037897974 0.69537097
-0.0059676631 0.03580597 0.69471818
-0.0059515261 0.033725351 0.69406885
-0.0059354766 0.031655878 0.69342303
-0.0059195133 0.02959758 0.69278073
-0.0059036356 0.02755028 0.69214189
-0.0058878427 0.025514007 0.69150645
-0.0058721341 0.023488551 0.6908744
-0.0058565098 0.021473885 0.69024563
-0.0058409679 0.019469887 0.68962032
-0.0058255079 0.017476529 0.68899822
-0.0058101295 0.015493691 0.68837953
-0.0057948329 0.013521314 0.68776399
-0.0057796161 0.011559248 0.68715173
-0.0057644569 0.0096074641 0.68654174
-0.0057493546 0.007665813 0.68593413
-0.0057343319 0.0057343245 0.68532962
-0.0057193656 0.0038129091 0.68472743
-0.0057044988 0.0019015372 0.68412924
-0.0056897085 -0 0.68353415
-0.0056749955 -0.0018916428 0.68294209
-0.0056603369 -0.0037735403 0.6823523
-0.0056457748 -0.0056457818 0.68176639
-0.005631288 -0.0075083971 0.68118346
-0.0056168744 -0.0093614757 0.6806035
-0.0056025144 -0.011205047 0.6800257
-0.0055882479 -0.013039261 0.67945164
-0.0055740331 -0.014864087 0.67887968
-0.00555987 -0.016679555 0.6783098
-0.0055457791 -0.018485934 0.67774284
-0.005531759 -0.020283103 0.67717874
-0.0055178097 -0.022071242 0.67661738
-0.0055039306 -0.023850352 0.67605901
-0.0054901214 -0.02562055 0.67550331
-0.0054763812 -0.027381897 0.67495048
-0.0054627093 -0.029134482 0.67440033
-0.0054491055 -0.030878246 0.67385304
-0.0054530646 -0.03271839 0.6740123
-0.0054397257 -0.034451604 0.67347562
-0.0054264716 -0.036176443 0.67294228
-0.0054132622 -0.037892818 0.67241073
-0.0054001366 -0.039600998 0.67188263
-0.0053870743 -0.041300923 0.67135704
-0.0053740563 -0.042992443 0.67083323
-0.0053611198 -0.044676006 0.67031276
-0.0053482265 -0.046351284 0.66979396
-0.0053354139 -0.048018694 0.66927838
-0.0053226436 -0.049678028 0.66876453
-0.0053099534 -0.051329523 0.6682539
-0.0052973232 -0.052973211 0.66774571
-0.0052847345 -0.054608911 0.66723919
-0.0052722241 -0.056237042 0.66673577
-0.0052597541 -0.057857335 0.66623408
-0.0052473615 -0.059470087 0.66573542
-0.0052350089 -0.061075091 0.66523844
-0.0052227322 -0.062672764 0.66474444
-0.0052105132 -0.064263016 0.66425276
-0.0051983334 -0.065845534 0.66376269
-0.0051862281 -0.067420974 0.6632756
-0.0051741614 -0.068988815 0.66279012
-0.0051621683 -0.070549622 0.66230756
-0.0051502306 -0.072103217 0.66182721
-0.0051383483 -0.07364966 0.66134912
-0.0051265205 -0.075188965 0.66087317
-0.0051147467 -0.076721221 0.66039944
-0.0051128305 -0.078396738 0.66032231
-0.0042291996 0.093042403 0.7098527
-0.0042169034 0.090663403 0.7091105
-0.0042046774 0.088298261 0.70837265
-0.0041925227 0.085946709 0.7076391
-0.0041804384 0.083608776 0.70690966
-0.0041684229 0.081284255 0.70618451
-0.0041564768 0.078973055 0.70546347
-0.0041445983 0.076675087 0.70474654
-0.0041327882 0.074390203 0.70403373
-0.0041210451 0.072118312 0.70332497
-0.0041093682 0.069859266 0.70262027
-0.0040977574 0.067613006 0.70191944
-0.004086229 0.065379649 0.70122367
-0.0040747486 0.063158602 0.70053077
-0.0040633325 0.060950011 0.69984168
-0.0040519796 0.058753699 0.69915658
-0.0040406906 0.056569666 0.69847512
-0.0040294644 0.054397762 0.6977976
-0.0040182997 0.052237898 0.69712377
-0.0040071975 0.050089955 0.69645363
-0.0039961562 0.047953844 0.69578725
-0.0039851754 0.045829535 0.69512451
-0.0039742552 0.043716848 0.6944654
-0.0039633941 0.041615665 0.69380993
-0.0039525926 0.039525956 0.69315803
-0.0039418498 0.037447602 0.69250959
-0.0039311652 0.035380483 0.69186473
-0.0039205384 0.033324569 0.69122332
-0.0039099688 0.031279773 0.69058543
-0.003899456 0.029245913 0.68995094
-0.0038889998 0.027222991 0.68931985
-0.003878599 0.025210887 0.68869209
-0.0038682541 0.023209512 0.68806773
-0.0038579646 0.021218836 0.68744671
-0.0038477292 0.019238681 0.68682891
-0.003837548 0.017268986 0.68621445
-0.0038274205 0.015309662 0.6856032
-0.0038173464 0.013360709 0.68499517
-0.0038073251 0.011421978 0.68439031
-0.0037973567 0.0094933808 0.68378866
-0.0037874398 0.0075749159 0.68319011
-0.003777575 0.0056663752 0.68259478
-0.0037677612 0.0037677586 0.68200237
-0.0037579983 0.0018789768 0.68141317
-0.003748286 2.9802322e-08 0.68082696
-0.0037386236 -0.0018692911 0.68024385
-0.0037290109 -0.0037289858 0.6796636
-0.0037194476 -0.0055791736 0.67908645
-0.003709933 -0.0074198842 0.67851222
-0.0037004673 -0.0092511773 0.67794085
-0.0036910498 -0.011073142 0.67737246
-0.0036816797 -0.012885869 0.67680693
-0.0036723574 -0.014689416 0.67624426
-0.0036630954 -0.016483933 0.67568529
-0.0036538532 -0.018269271 0.67512751
-0.0036446843 -0.020045787 0.67457408
-0.0036355481 -0.021813303 0.67402267
-0.0036264574 -0.023571938 0.67347395
-0.0036174122 -0.025321901 0.67292809
-0.0036084121 -0.027063072 0.67238486
-0.0035994565 -0.02879563 0.67184436
-0.0035905454 -0.030519605 0.67130649
-0.0036305229 -0.0326747 0.67371935
-0.0036216804 -0.034405977 0.67318571
-0.0036128676 -0.03612867 0.67265379
-0.0036040975 -0.037843019 0.67212439
-0.0035953829 -0.039549202 0.67159849
-0.0035866976 -0.04124701 0.67107427
-0.0035780543 -0.042936593 0.67055255
-0.0035694649 -0.044618309 0.67003423
-0.0035609042 -0.046291769 0.66951752
-0.0035523968 -0.047957331 0.66900402
-0.0035439178 -0.049614847 0.66849226
-0.0035354788 -0.051264435 0.667983
-0.0035270925 -0.052906364 0.66747677
-0.0035187339 -0.054540366 0.66697228
-0.0035104267 -0.056166828 0.66647094
-0.0035021463 -0.057785422 0.66597116
-0.0034939048 -0.059396386 0.66547382
-0.0034857146 -0.061000019 0.6649794
-0.0034775506 -0.062595904 0.66448665
-0.0034694243 -0.064184338 0.66399622
-0.0034613484 -0.065765619 0.66350877
-0.0034532975 -0.067339286 0.66302288
-0.0034452963 -0.06890589 0.6625399
-0.00343732 -0.070465058 0.66205847
-0.0034293807 -0.072016984 0.66157937
-0.0034214896 -0.073562026 0.66110313
-0.003413623 -0.075099707 0.66062832
-0.0034058045 -0.076630592 0.66015643
-0.0034042981 -0.078298852 0.66006553
-0.0021004502 0.092419803 0.70814466
-0.0020944187 0.090059996 0.70741665
-0.0020884217 0.087713718 0.70669276
-0.0020824594 0.085380822 0.70597303
-0.0020765306 0.083061248 0.70525736
-0.0020706356 0.080754757 0.70454574
-0.0020647824 0.078461736 0.70383924
-0.0020589537 0.076181293 0.70313561
-0.0020531579 0.073913693 0.70243597
-0.0020473949 0.07165879 0.70174038
-0.002041664 0.069416553 0.70104855
-0.0020359731 0.06718713 0.70036161
-0.0020303058 0.064969808 0.69967753
-0.0020246699 0.062764794 0.6989972
-0.0020190652 0.060571939 0.69832063
-0.0020134917 0.058391243 0.69764793
-0.0020079487 0.056222528 0.69697881
-0.0020024441 0.054065973 0.69631433
-0.0019969617 0.05192104 0.69565248
-0.001991509 0.04978776 0.69499433
-0.0019860864 0.047666073 0.69433975
-0.0019806928 0.045555919 0.69368875
-0.0019753368 0.043457389 0.69304216
-0.0019700015 0.041370034 0.69239813
-0.0019646951 0.039293915 0.69175756
-0.001959417 0.037228912 0.69112051
-0.0019541674 0.035175055 0.69048679
-0.0019489534 0.033132225 0.68985742
-0.0019437596 0.031100154 0.68923044
-0.0019385933 0.029078901 0.68860686
-0.0019334545 0.027068347 0.68798655
-0.0019283429 0.025068492 0.68736947
-0.0019232581 0.023079067 0.68675572
-0.0019182075 0.021100312 0.68614602
-0.0019131762 0.01913175 0.68553877
-0.001908171 0.017173558 0.6849345
-0.001903192 0.01522553 0.68433356
-0.0018982389 0.013287663 0.68373567
-0.0018933186 0.01135993 0.68314165
-0.0018884167 0.009442091 0.68255001
-0.0018835401 0.0075341761 0.6819613
-0.0018786887 0.0056360662 0.68137568
-0.0018738622 0.0037477612 0.68079311
-0.0018690674 0.0018690825 0.68021429
-0.0018642901 -0 0.67963767
-0.0018595372 -0.0018595159 0.67906392
-0.0018548084 -0.0037096441 0.67849308
-0.0018501037 -0.0055502951 0.67792517
-0.0018454228 -0.0073817074 0.67736018
-0.0018407721 -0.0092038512 0.67679882
-0.0018361381 -0.011016816 0.67623943
-0.0018315276 -0.012820691 0.6756829
-0.00182694 -0.014615506 0.67512912
-0.0018223753 -0.01640138 0.67457807
-0.00181784 -0.018178374 0.6740306
-0.0018133207 -0.019946545 0.6734851
-0.0018088238 -0.021705925 0.67294228
-0.0018043492 -0.023456544 0.67240214
-0.0017998966 -0.025198579 0.67186469
-0.0017954725 -0.026932091 0.67133057
-0.0017910635 -0.028656989 0.67079842
-0.0017866761 -0.030373514 0.67026877
-0.0018139584 -0.032651246 0.67356205
-0.0018095435 -0.0343813 0.67302912
-0.0018051433 -0.036102831 0.67249799
-0.0018007712 -0.037816137 0.67197025
-0.0017964136 -0.039521098 0.6714443
-0.0017920835 -0.041217893 0.67092156
-0.0017877741 -0.042906582 0.67040133
-0.0017834791 -0.044587016 0.66988289
-0.0017792112 -0.046259493 0.66936767
-0.0017749573 -0.047923833 0.66885412
-0.0017707298 -0.049580455 0.66834396
-0.0017665225 -0.051229149 0.66783607
-0.0017623351 -0.052870035 0.66733056
-0.0017581615 -0.054502994 0.66682673
-0.0017540134 -0.056128442 0.66632611
-0.0017498852 -0.057746232 0.66582775
-0.0017457762 -0.059356391 0.66533172
-0.0017416804 -0.060958773 0.66483736
-0.0017376099 -0.062553972 0.66434604
-0.0017335581 -0.064141661 0.66385692
-0.0017295255 -0.065721959 0.66337013
-0.0017255056 -0.067294687 0.66288483
-0.0017215102 -0.068860412 0.66240263
-0.0017175332 -0.070418879 0.66192257
-0.0017135745 -0.071970135 0.66144466
-0.0017096284 -0.073514029 0.6609683
-0.0017057061 -0.075051069 0.66049486
-0.0017018017 -0.076581061 0.66002357
-0.0017009975 -0.078245893 0.65992653
0 0.09233883 0.70792246
0 0.089981258 0.70719564
0 0.087636918 0.70647198
0 0.085305929 0.70575249
0 0.08298856 0.70503807
0 0.080684006 0.70432663
0 0.078392506 0.7036193
0 0.076114237 0.70291698
0 0.073848546 0.70221758
0 0.071595818 0.70152313
0 0.069355458 0.70083153
0 0.067127585 0.70014381
0 0.064912379 0.69946092
0 0.062709212 0.69878083
0 0.060518265 0.6981045
0 0.058339626 0.69743288
0 0.056172758 0.69676399
0 0.054017782 0.69609874
0 0.051874816 0.69543815
0 0.049743414 0.69478023
0 0.047623545 0.69412583
0 0.045515388 0.69347596
0 0.043418527 0.69282866
0 0.04133305 0.69218582
0 0.039258778 0.69154543
0 0.037195563 0.69090855
0 0.035143584 0.69027603
0 0.033102453 0.68964589
0 0.03107211 0.6890192
0 0.029052794 0.68839669
0 0.027043998 0.68777657
0 0.025045902 0.68715978
0 0.023058355 0.6865471
0 0.021081179 0.68593681
0 0.019114554 0.68533051
0 0.017158031 0.6847266
0 0.015211761 0.68412572
0 0.013275683 0.6835289
0 0.011349648 0.68293518
0 0.0094335675 0.68234456
0 0.0075274408 0.68175781
0 0.0056310594 0.68117321
0 0.0037443936 0.6805917
0 0.0018673837 0.68001306
0 -0 0.67943823
0 -0.0018579066 0.67886549
0 -0.003706336 0.67829573
0 -0.0055454373 0.67772883
0 -0.0073752403 0.67716563
0 -0.0091958046 0.67660439
0 -0.01100722 0.67604601
0 -0.012809515 0.67549044
0 -0.0146029 0.67493844
0 -0.016387254 0.67438841
0 -0.018162698 0.673841
0 -0.01992932 0.67329651
0 -0.021687299 0.67275536
0 -0.023436487 0.67221612
0 -0.025177091 0.67167962
0 -0.026909202 0.67114645
0 -0.0286327 0.67061508
0 -0.030347824 0.67008644
0 -0.032647461 0.67353666
0 -0.034377217 0.67300308
0 -0.03609857 0.67247206
0 -0.037811667 0.67194438
0 -0.039516419 0.67141861
0 -0.041212887 0.67089516
0 -0.042901248 0.67037439
0 -0.044581592 0.66985685
0 -0.046253741 0.66934097
0 -0.047917873 0.66882759
0 -0.049574286 0.66831744
0 -0.051222831 0.66780972
0 -0.052863538 0.66730434
0 -0.054496288 0.66680062
0 -0.056121528 0.66630012
0 -0.057739139 0.66580194
0 -0.05934912 0.66530597
0 -0.060951412 0.66481173
0 -0.062546313 0.66432047
0 -0.064133883 0.66383153
0 -0.065714046 0.66334486
0 -0.067286596 0.66285974
0 -0.068852141 0.6623776
0 -0.07041043 0.6618976
0 -0.071961507 0.66141987
0 -0.073505223 0.66094363
0 -0.075042143 0.66047031
0 -0.076571956 0.65999913
0 -0.078236312 0.65990138
0.0021077232 0.09273985 0.70902264
0.0021015794 0.090367943 0.70828098
0.00209548 0.088010132 0.70754474
0.0020894161 0.08566609 0.70681274
0.002083387 0.083335519 0.70608497
0.0020773928 0.081018329 0.70536143
0.0020714328 0.07871446 0.70464206
0.002065507 0.076423764 0.70392668
0.002059615 0.074146152 0.70321536
0.0020537565 0.071881473 0.70250827
0.0020479395 0.069629937 0.70180607
0.0020421804 0.067391962 0.70111096
0.0020364621 0.065166771 0.70042062
0.0020307673 0.0629538 0.69973326
0.0020251044 0.060753137 0.69904959
0.0020194729 0.058564752 0.69836986
0.0020138726 0.056388438 0.69769382
0.0020083112 0.054224402 0.69702256
0.0020027726 0.052072108 0.69635391
0.0019972646 0.049931645 0.69568908
0.0019917865 0.047802895 0.69502783
0.0019863385 0.045685798 0.69437021
0.0019809282 0.043580443 0.69371712
0.0019755394 0.041486323 0.6930666
0.0019701798 0.039403588 0.69241965
0.0019648492 0.037332147 0.69177628
0.0019595553 0.035272032 0.69113714
0.0019542819 0.033222795 0.69050062
0.0019490368 0.031184584 0.68986744
0.0019438199 0.029157311 0.68923771
0.0019386308 0.027140826 0.68861139
0.001933477 0.025135189 0.68798923
0.0019283429 0.023140103 0.68736953
0.0019232359 0.021155596 0.68675303
0.001918156 0.01918155 0.68613988
0.0019131103 0.017218024 0.68553078
0.0019080837 0.01526466 0.68492401
0.0019030834 0.013321608 0.68432045
0.0018981092 0.011388689 0.68371999
0.001893161 0.0094658136 0.68312269
0.0018882457 0.0075529814 0.68252939
0.0018833488 0.0056500137 0.68193823
0.0018784772 0.0037569702 0.68135017
0.0018736307 0.0018736124 0.68076515
0.0018688091 2.9802322e-08 0.68018311
0.0018640192 -0.0018640459 0.67960495
0.001859247 -0.0037184954 0.67902887
0.001854499 -0.0055634975 0.67845571
0.0018497753 -0.0073990822 0.67788559
0.0018450824 -0.0092253983 0.67731905
0.0018404066 -0.011042446 0.67675465
0.0018357543 -0.012850285 0.67619306
0.0018311254 -0.014649004 0.67563432
0.0018265198 -0.016438663 0.67507839
0.001821944 -0.018219411 0.67452604
0.0018173844 -0.019991219 0.67397571
0.0018128478 -0.021754116 0.673428
0.0018083334 -0.02350831 0.67288309
0.0018038483 -0.025253862 0.67234164
0.0017993788 -0.026990682 0.67180216
0.0017949314 -0.028718919 0.67126536
0.0017905058 -0.030438602 0.67073113
0.0018146294 -0.032663316 0.67364311
0.0018101981 -0.034393787 0.67310816
0.0018057948 -0.036115885 0.67257667
0.0018014129 -0.037829638 0.67204773
0.0017970523 -0.039535165 0.67152131
0.0017927063 -0.041232228 0.67099673
0.0017883875 -0.042921305 0.67047542
0.0017840897 -0.044602245 0.66995656
0.0017798124 -0.046275079 0.66944027
0.0017755491 -0.047939837 0.6689257
0.0017713128 -0.049596727 0.66841429
0.0017670963 -0.051245809 0.66790539
0.0017629064 -0.052887142 0.66739953
0.0017587299 -0.054520637 0.66689539
0.0017545794 -0.056146562 0.66639435
0.0017504422 -0.05776456 0.66589493
0.0017463245 -0.059375048 0.66539794
0.0017422322 -0.060978115 0.664904
0.0017381532 -0.062573522 0.66441154
0.001734099 -0.064161658 0.66392219
0.0017300578 -0.065742165 0.66343433
0.0017260413 -0.067315593 0.66294956
0.0017220374 -0.068881482 0.66246617
0.0017180522 -0.070440143 0.66198516
0.0017140912 -0.071991831 0.66150701
0.0017101425 -0.073536128 0.66103041
0.0017062179 -0.075073555 0.66055661
0.0017023054 -0.076603755 0.66008437
0.0017015354 -0.078270614 0.65999144
0.0042579011 0.091544896 0.71158499
0.0042454735 0.089154929 0.71083486
0.0042331177 0.086778909 0.71008915
0.0042208335 0.084416687 0.70934778
0.0042086388 0.082068443 0.70861173
0.0041964962 0.079733461 0.70787883
0.0041844235 0.07741183 0.70715022
0.0041724206 0.075103551 0.70642573
0.0041604857 0.072808534 0.7057054
0.0041486192 0.07052651 0.70498925
0.0041368199 0.06825754 0.70427704
0.0041251048 0.066001683 0.70357007
0.004113439 0.063758314 0.7028659
0.0041018389 0.06152761 0.70216584
0.004090304 0.059309363 0.70146966
0.0040788339 0.057103693 0.70077735
0.0040674279 0.054910302 0.70008892
0.0040561021 0.052729368 0.69940531
0.0040448229 0.050560296 0.69872457
0.0040336056 0.048403263 0.69804758
0.0040223701 0.046257228 0.69736946
0.0040111644 0.044122815 0.69669312
0.0040000216 0.042000204 0.6960206
0.0039889403 0.039889425 0.69535172
0.0039779199 0.037790239 0.69468665
0.0039669606 0.035702646 0.69402516
0.0039560618 0.033626527 0.69336736
0.0039452221 0.031561822 0.69271314
0.0039344416 0.029508322 0.6920625
0.0039237202 0.027466089 0.69141543
0.003913057 0.025434852 0.69077182
0.0039024516 0.023414731 0.69013172
0.0038919034 0.021405488 0.68949509
0.0038813369 0.019406676 0.68885738
0.0038708278 0.017418742 0.68822306
0.0038603903 0.015441567 0.6875931
0.0038499939 0.013474971 0.68696558
0.0038396535 0.011518955 0.68634152
0.0038293684 0.0095734298 0.68572074
0.0038191385 0.0076382458 0.6851033
0.0038089629 0.0057134628 0.68448913
0.0037988413 0.0037988424 0.6838783
0.0037887876 0.0018943846 0.68327153
0.0037787729 5.9604645e-08 0.68266702
0.0037687968 -0.0018844008 0.68206489
0.003758817 -0.0037588179 0.68146259
0.0037489035 -0.0056233704 0.68086427
0.0037390287 -0.0074780583 0.68026823
0.0037292053 -0.0093229711 0.67967534
0.0037194476 -0.011158347 0.67908645
0.003709727 -0.012984037 0.67849976
0.0037000568 -0.014800221 0.67791611
0.0036904505 -0.016607016 0.67733634
0.0036808806 -0.018404394 0.67675877
0.0036713737 -0.020192534 0.67618495
0.0036619024 -0.021971434 0.67561328
0.0036524797 -0.023741126 0.6750446
0.0036431185 -0.025501817 0.67447954
0.0036337923 -0.027253419 0.6739167
0.0036245268 -0.028996229 0.67335749
0.0036152953 -0.030730009 0.67280024
0.0036332249 -0.032699019 0.67388248
0.0036243428 -0.034431249 0.67334634
0.0036155041 -0.036155045 0.67281294
0.0036067085 -0.037870407 0.67228198
0.0035979424 -0.039577365 0.67175299
0.003589232 -0.041276157 0.67122722
0.0035805635 -0.042966753 0.67070401
0.0035719364 -0.044649184 0.67018336
0.0035633515 -0.046323568 0.66966522
0.0035548073 -0.047989905 0.66914952
0.0035462913 -0.049648076 0.66863555
0.0035378288 -0.051298499 0.66812479
0.0035294064 -0.052941114 0.66761649
0.0035210366 -0.054576039 0.66711128
0.0035127061 -0.056203306 0.66660845
0.0035044153 -0.057822853 0.66610813
0.003496151 -0.059434593 0.66560924
0.0034879381 -0.061038911 0.66511363
0.0034797634 -0.06263572 0.66462022
0.0034716269 -0.064225107 0.6641292
0.0034635286 -0.06580703 0.66364038
0.0034554559 -0.067381397 0.66315311
0.0034474328 -0.068948671 0.66266894
0.0034394464 -0.070508644 0.66218686
0.0034314974 -0.072061449 0.6617071
0.0034235849 -0.073607087 0.66122955
0.003415697 -0.075145289 0.66075349
0.0034078574 -0.076676801 0.66028035
0.0034065002 -0.078349471 0.66019839
0.0064140605 0.09193489 0.71267986
0.0063955327 0.089537442 0.71193433
0.0063771103 0.087153852 0.71119303
0.0063587949 0.084783942 0.71045607
0.0063405843 0.082427591 0.70972329
0.006322477 0.080084711 0.70899475
0.0063044997 0.077755511 0.70827144
0.0062865978 0.075439185 0.70755112
0.0062687979 0.073135942 0.70683491
0.0062510981 0.070845783 0.70612276
0.0062334985 0.068568468 0.70541453
0.0062160222 0.066304207 0.70471138
0.006198619 0.064052403 0.70401108
0.0061813127 0.061813146 0.70331478
0.0061641028 0.059586316 0.70262223
0.0061469884 0.057371914 0.70193362
0.0061299689 0.055169702 0.70124882
0.0061130682 0.052979916 0.7005688
0.0060962355 0.050801963 0.69989157
0.0060794959 0.04863596 0.69921798
0.0060628476 0.046481848 0.69854802
0.00604629 0.044339448 0.69788188
0.0060298466 0.04220894 0.69722021
0.0060134693 0.040089786 0.69656122
0.0059971795 0.037982166 0.6959058
0.0059809792 0.0358859 0.69525391
0.005964865 0.0338009 0.69460553
0.0059488607 0.031727225 0.69396162
0.0059329197 0.029664636 0.69332016
0.0059170634 0.027612984 0.69268215
0.005901291 0.02557227 0.69204754
0.0058856038 0.023542434 0.69141632
0.0058699986 0.021523356 0.69078839
0.0058544995 0.019515008 0.6901648
0.0058390591 0.017517179 0.68954349
0.0058236998 0.015529871 0.6889255
0.0058084209 0.013552964 0.6883108
0.0057932222 0.011586457 0.6876992
0.0057781255 0.009630233 0.68709171
0.0057630842 0.0076841116 0.68648648
0.0057481215 0.0057481229 0.68588448
0.0057332367 0.0038221478 0.68528557
0.0057184282 0.0019061565 0.6846897
0.005703697 -2.9802322e-08 0.68409699
0.0056890622 -0.0018963516 0.6835081
0.0056744809 -0.0037829578 0.68292141
0.0056599742 -0.0056599975 0.6823377
0.0056455415 -0.0075273812 0.68175697
0.0056311819 -0.0093853176 0.68117917
0.0056169168 -0.011233807 0.68060517
0.0056027025 -0.013072968 0.68003327
0.0055885394 -0.014902771 0.67946339
0.0055744681 -0.016723394 0.67889714
0.0055604675 -0.018534869 0.67833382
0.0055465167 -0.020337224 0.67777258
0.0055326563 -0.022130609 0.67721486
0.0055188648 -0.023915082 0.67665994
0.0055051218 -0.025690585 0.67610687
0.0054914667 -0.027457327 0.67555749
0.0054778797 -0.029215366 0.6750108
0.0054643401 -0.030964583 0.67446595
0.0054589543 -0.032753706 0.67424929
0.005445587 -0.034488708 0.67371142
0.0054322649 -0.036215097 0.67317539
0.0054190275 -0.037933141 0.67264271
0.0054058544 -0.0396429 0.67211264
0.0053927256 -0.041344255 0.67158449
0.0053796801 -0.043037415 0.67105955
0.0053666974 -0.044722497 0.67053711
0.0053537581 -0.046399236 0.67001653
0.0053408998 -0.048068076 0.66949916
0.0053281034 -0.04972893 0.66898423
0.0053153494 -0.051381707 0.6684711
0.0053026751 -0.053026736 0.66796112
0.0052900612 -0.054663986 0.66745353
0.0052774884 -0.056293219 0.66694772
0.0052649933 -0.057914913 0.6664449
0.0052525578 -0.059529006 0.66594458
0.0052401805 -0.061135441 0.66544652
0.0052278433 -0.062734097 0.66495007
0.0052155824 -0.064325511 0.66445673
0.0052033789 -0.065909445 0.6639657
0.0051912325 -0.067486033 0.663477
0.0051791421 -0.069055215 0.66299051
0.0051670903 -0.070616916 0.66250557
0.0051551126 -0.072171584 0.66202366
0.0051431898 -0.073719054 0.66154397
0.0051313224 -0.075259373 0.66106635
0.0051195091 -0.076792628 0.66059107
0.0051178862 -0.078474209 0.66052574
0.0085807163 0.092242718 0.71354395
0.0085557736 0.089835614 0.7127912
0.0085309744 0.087442458 0.71204287
0.0085063195 0.085063219 0.71129882
0.0084818425 0.082697958 0.7105602
0.0084574698 0.080345988 0.70982468
0.0084332377 0.07800743 0.70909333
0.0084091434 0.075682253 0.70836627
0.0083852215 0.073370695 0.70764434
0.0083614001 0.071071923 0.70692545
0.0083377138 0.068786174 0.70621067
0.0083141616 0.0665133 0.70549995
0.008290777 0.064253569 0.70479423
0.0082674883 0.062006176 0.70409149
0.0082443301 0.059771419 0.70339257
0.0082213022 0.057549089 0.70269769
0.0081984019 0.055339247 0.70200658
0.0081756627 0.053141803 0.70132041
0.0081530157 0.050956368 0.70063692
0.0081304936 0.048782974 0.69995725
0.0081080962 0.046621561 0.69928133
0.0080858544 0.044472218 0.69861019
0.008063701 0.042334408 0.6979416
0.0080416696 0.040208369 0.69727677
0.0080197575 0.038093835 0.69661558
0.007997998 0.035990983 0.69595885
0.0079763224 0.033899367 0.69530481
