# .PCD v0.7 - Point Cloud Data file format
VERSION 0.7
FIELDS x y z
SIZE 4 4 4
TYPE F F F
COUNT 1 1 1
WIDTH 1322
HEIGHT 1
VIEWPOINT 0 0 0 1 0 0 0
POINTS 1322
DATA ascii
-0.027344357 -0.024465978 0.62832195
-0.02690153 -0.025485665 0.62550861
-0.026835846 -0.026835829 0.62509125
-0.026993267 -0.028413951 0.62609136
-0.028589943 -0.031599402 0.63623536
-0.030495677 -0.035310775 0.64834285
-0.030379612 -0.036775321 0.64760548
-0.030379128 -0.038373649 0.64760244
-0.031394169 -0.041308135 0.65405118
-0.031261411 -0.04277876 0.65320772
-0.031120395 -0.044223726 0.6523118
-0.030971965 -0.045642853 0.6513688
-0.030795189 -0.04700315 0.65024573
-0.030583283 -0.048289388 0.64889944
-0.030360112 -0.049534887 0.64748156
-0.030114682 -0.05071947 0.6459223
-0.029856393 -0.051855832 0.64428139
-0.029590614 -0.052951619 0.64259279
-0.029597709 -0.054522082 0.64263791
-0.029789224 -0.056442723 0.64385462
-0.032933619 -0.016466796 0.67545569
-0.029491264 -0.016384006 0.65237069
-0.028623452 -0.017492115 0.64655107
-0.027953777 -0.018635839 0.6420601
-0.027385065 -0.019778103 0.6382463
-0.026876755 -0.020904154 0.63483745
-0.026408328 -0.022006959 0.63169611
-0.025980132 -0.023093462 0.62882459
-0.025577508 -0.024156511 0.6261245
-0.025238343 -0.025238365 0.62384999
-0.025385309 -0.026795566 0.62483561
-0.025534073 -0.028371185 0.62583321
-0.025684513 -0.029965252 0.62684208
-0.030597463 -0.037396908 0.65978909
-0.030468903 -0.038932472 0.6589269
-0.030329769 -0.040439665 0.65799385
-0.030182995 -0.041920811 0.6570096
-0.030016216 -0.043356717 0.65589112
-0.029810658 -0.044716001 0.65451264
-0.029591942 -0.046031922 0.65304589
-0.029346453 -0.047280401 0.65139961
-0.029091651 -0.048486084 0.64969087
-0.028825361 -0.049643725 0.64790511
-0.028535392 -0.050729573 0.64596057
-0.028247658 -0.051787376 0.64403093
-0.028002882 -0.052894324 0.64238942
-0.027993482 -0.054431766 0.64232635
-0.028316218 -0.056632429 0.64449072
-0.028357767 -0.058290973 0.64476931
-0.032503612 -0.011471868 0.68539405
-0.031802777 -0.01309526 0.68041766
-0.028317127 -0.013325691 0.6556673
-0.02754128 -0.014580667 0.65015829
-0.026918111 -0.015834183 0.64573342
-0.026372712 -0.017064691 0.64186072
-0.025888782 -0.018274426 0.63842452
-0.025442902 -0.019456327 0.63525856
-0.025022492 -0.020606756 0.63227332
-0.024638496 -0.021739811 0.62954676
-0.024267493 -0.022839993 0.62691236
-0.023923567 -0.023923546 0.62447023
-0.023800798 -0.025200814 0.62359852
-0.02393912 -0.026755512 0.62458074
-0.024079194 -0.028328449 0.6255753
-0.02422085 -0.029919863 0.62658113
-0.029346144 -0.037977338 0.662974
-0.029188145 -0.039489836 0.66185206
-0.028991964 -0.040929824 0.66045904
-0.028773071 -0.042313337 0.65890479
-0.028532842 -0.043638468 0.65719903
-0.028281912 -0.044918329 0.65541726
-0.028015507 -0.046143204 0.65352559
-0.027728651 -0.047301799 0.65148872
-0.027441233 -0.048425704 0.64944792
-0.027194621 -0.04959017 0.64769679
-0.026995169 -0.05081445 0.64628059
-0.026879409 -0.052177668 0.64545858
-0.027308555 -0.054617077 0.64850581
-0.027128791 -0.055853397 0.64722937
-0.02694907 -0.057068601 0.64595324
-0.026745284 -0.058210328 0.64450622
-0.02691232 -0.060156971 0.64569229
-0.031227285 -0.0078068376 0.6901896
-0.028172454 -0.0088039041 0.66714269
-0.027140947 -0.010177851 0.65936053
-0.026437107 -0.011566222 0.65405053
-0.025851227 -0.012925595 0.64963043
-0.025335016 -0.014250934 0.6457358
-0.024864549 -0.015540361 0.6421864
-0.02443791 -0.016801089 0.63896775
-0.024037644 -0.018028229 0.63594794
-0.023661183 -0.019224703 0.63310772
-0.02330759 -0.020394176 0.63044012
-0.022970602 -0.02153492 0.62789774
-0.022649819 -0.022649825 0.62547761
-0.022345044 -0.023741603 0.62317824
-0.022367455 -0.025163382 0.62334734
-0.022907635 -0.027202815 0.62742269
-0.028307633 -0.035384536 0.66816252
-0.028122479 -0.036910743 0.66676569
-0.027904281 -0.038368404 0.66511941
-0.027669825 -0.039775342 0.66335064
-0.027423298 -0.041134924 0.66149068
-0.027157243 -0.042433172 0.65948349
-0.026874002 -0.043670237 0.65734661
-0.026587242 -0.044865966 0.6551832
-0.026339345 -0.046093881 0.65331292
-0.026140332 -0.047379345 0.65181148
-0.02603619 -0.048817843 0.65102583
-0.026433704 -0.051215291 0.65402484
-0.026254691 -0.052509367 0.65267432
-0.026074775 -0.053779215 0.65131688
-0.025865009 -0.054963171 0.64973438
-0.025600994 -0.056002155 0.64774251
-0.025330607 -0.056993872 0.6457026
-0.025122739 -0.058096305 0.64413434
-0.02528668 -0.060055882 0.6453712
-0.02995849 -0.0039944351 0.69568521
-0.026794881 -0.0053589642 0.67022645
-0.025939563 -0.0069172084 0.66334343
-0.025288092 -0.0084293485 0.65810078
-0.024740018 -0.0098959804 0.65369022
-0.024253542 -0.011318326 0.64977539
-0.023807781 -0.012697488 0.64618814
-0.023391154 -0.014034688 0.64283538
-0.023011131 -0.015340745 0.63977718
-0.022646742 -0.016607583 0.63684481
-0.02230756 -0.017846048 0.63411534
-0.021979742 -0.019049108 0.63147724
-0.021673681 -0.020228803 0.62901425
-0.021376086 -0.021376103 0.6266194
-0.021093901 -0.022500157 0.62434852
-0.020822419 -0.02359876 0.62216383
-0.020938426 -0.0251261 0.6230973
-0.026980979 -0.034175903 0.67172408
-0.026752856 -0.035670459 0.66988832
-0.026511036 -0.037115425 0.66794223
-0.026245981 -0.03849411 0.66580927
-0.025966939 -0.039815933 0.66356373
-0.025681544 -0.041090488 0.66126704
-0.025432913 -0.042388171 0.65926623
-0.025234783 -0.043740302 0.65767181
-0.025142387 -0.045256287 0.65692824
-0.025507679 -0.047614336 0.65986788
-0.025329657 -0.04897067 0.65843529
-0.025149211 -0.050298423 0.65698314
-0.024934817 -0.051531971 0.65525782
-0.024663761 -0.05261603 0.65307653
-0.024402658 -0.053685814 0.65097535
-0.024177363 -0.05480203 0.64916235
-0.023977775 -0.055948138 0.64755613
-0.023802042 -0.057124883 0.64614201
-0.023658289 -0.05835712 0.64498514
-0.023666568 -0.059955329 0.64505172
-0.023821762 -0.061936572 0.64630067
-0.028648404 2.9802322e-08 0.70160997
-0.02546373 -0.0018188357 0.67415106
-0.024713166 -0.0035304725 0.66767961
-0.024114667 -0.0051674545 0.66251922
-0.023594905 -0.0067414045 0.65803772
-0.023126362 -0.0082594156 0.65399784
-0.022705019 -0.0097306967 0.65036494
-0.022310687 -0.011155367 0.64696491
-0.021940399 -0.01253733 0.64377224
-0.021595173 -0.013882607 0.64079559
-0.021264903 -0.01518923 0.63794798
-0.020954231 -0.016464025 0.63526928
-0.020656282 -0.017705351 0.63270032
-0.020370774 -0.018915713 0.63023865
-0.020099623 -0.02009964 0.62790072
-0.019835653 -0.021252483 0.62562472
-0.019565674 -0.022360772 0.62329686
-0.019401854 -0.023559391 0.62188441
-0.019513514 -0.025088787 0.6228472
-0.025276568 -0.034303904 0.67253733
-0.025002485 -0.035717845 0.67017418
-0.024719097 -0.037078649 0.66773075
-0.024470408 -0.038453519 0.66558647
-0.024273768 -0.039878339 0.66389096
-0.024702011 -0.042346299 0.66758341
-0.024525667 -0.043795794 0.66606295
-0.02434903 -0.04521963 0.66453993
-0.024168663 -0.046610981 0.66298479
-0.023947807 -0.04789561 0.66108048
-0.02367329 -0.049037546 0.65871358
-0.023421975 -0.050189942 0.65654671
-0.023205806 -0.05138427 0.65468282
-0.023014743 -0.052605152 0.65303546
-0.022849139 -0.053858697 0.65160757
-0.022721516 -0.055180818 0.65050715
-0.022656698 -0.056641757 0.64994836
-0.022545787 -0.057974905 0.64899206
-0.022408107 -0.059221387 0.64780486
-0.02225936 -0.060418278 0.6465224
-0.022196164 -0.06183216 0.6459775
-0.027904438 0.0064394772 0.7137028
-0.025137337 0.0038672984 0.68800908
-0.024122078 0.0018555522 0.67858195
-0.023446478 -0 0.67230868
-0.022889799 -0.0017607808 0.66713971
-0.022402987 -0.0034466088 0.66261941
-0.021962076 -0.0050681233 0.65852535
-0.021553604 -0.0066318512 0.65473258
-0.021181684 -0.0081467927 0.65127909
-0.020827714 -0.0096127689 0.64799231
-0.020497067 -0.011036873 0.64492214
-0.020181196 -0.012419194 0.64198917
-0.019883784 -0.013765693 0.63922751
-0.01959566 -0.015073627 0.63655221
-0.01932558 -0.016352415 0.63404441
-0.019062901 -0.017596513 0.63160527
-0.018799003 -0.018799007 0.62915492
-0.0185194 -0.019943982 0.6265586
-0.018091118 -0.020874351 0.62258184
-0.017887345 -0.022015214 0.62068975
-0.01798955 -0.023524821 0.62163877
-0.018092928 -0.025051773 0.62259871
-0.023446564 -0.034268051 0.67230952
-0.023252031 -0.035772324 0.6705032
-0.023656759 -0.038214773 0.67426127
-0.023482537 -0.039739639 0.67264354
-0.023307938 -0.041237116 0.6710223
-0.023127114 -0.042696178 0.66934323
-0.022900596 -0.044039607 0.66724002
-0.022624914 -0.04524982 0.66468012
-0.02238849 -0.046499163 0.66248482
-0.022181515 -0.047775567 0.66056299
-0.021999365 -0.049075514 0.65887165
-0.021843193 -0.05040738 0.65742153
-0.021743961 -0.051851004 0.6565001
-0.021663649 -0.053325921 0.65575439
-0.021542396 -0.05468455 0.65462846
-0.021403532 -0.055978477 0.65333909
-0.021250676 -0.057213366 0.65191972
-0.021089111 -0.058400586 0.65041947
-0.020924328 -0.059553862 0.64888942
-0.020762099 -0.060689226 0.64738309
-0.020602368 -0.061807111 0.64589989
-0.020711396 -0.063727364 0.64691222
-0.026383271 0.010993034 0.71999317
-0.023563202 0.0078544021 0.69162542
-0.022741163 0.0056853294 0.6833564
-0.022132339 0.0036887228 0.67723203
-0.021615321 0.0018012822 0.67203128
-0.021156218 2.9802322e-08 0.66741306
-0.020743765 -0.0017286837 0.66326416
-0.020360267 -0.0033933818 0.65940642
-0.020000879 -0.0050002038 0.65579122
-0.019668506 -0.0065561533 0.65244788
-0.019349121 -0.0080621243 0.64923501
-0.01905245 -0.0095262229 0.64625078
-0.018765323 -0.010946453 0.64336252
-0.01849464 -0.012329757 0.6406396
-0.018234145 -0.0136756 0.6380192
-0.017977117 -0.014980912 0.63543373
-0.0177128 -0.016236752 0.63277495
-0.017340597 -0.0173406 0.62903082
-0.016833251 -0.018236011 0.62392735
-0.016544061 -0.019301414 0.62101829
-0.016394224 -0.020492792 0.61951113
-0.016487319 -0.021983087 0.62044752
-0.016581342 -0.02349022 0.62139332
-0.016676487 -0.025014728 0.62235045
-0.016772732 -0.02655682 0.62331855
-0.022200422 -0.037000686 0.67791694
-0.022018226 -0.038531899 0.67608416
-0.02178614 -0.039941251 0.67374957
-0.02151926 -0.041245222 0.67106497
-0.021293141 -0.042586267 0.66879034
-0.021095268 -0.043948472 0.66679996
-0.020922378 -0.045331776 0.66506076
-0.020782033 -0.046759576 0.66364902
-0.020705281 -0.048312277 0.66287696
-0.020608772 -0.049804538 0.66190618
-0.020479156 -0.051197857 0.66060233
-0.020336337 -0.052535534 0.65916574
-0.020180836 -0.053815573 0.65760148
-0.020019284 -0.055053025 0.65597636
-0.019858457 -0.056265622 0.65435857
-0.019700194 -0.057458878 0.65276653
-0.019544432 -0.058633298 0.6511997
-0.019389048 -0.059782907 0.64963669
-0.019233836 -0.06090714 0.64807534
-0.019081088 -0.062013566 0.64653885
-0.01908588 -0.063619569 0.64658707
-0.024840666 0.015807748 0.72719193
-0.022032527 0.012017757 0.69637626
-0.02132841 0.0096947253 0.68864942
-0.020771487 0.0075532794 0.68253797
-0.02029179 0.0055340827 0.67727393
-0.019862309 0.003611356 0.67256093
-0.019468037 0.0017698407 0.66823429
-0.019109925 2.9802322e-08 0.66430449
-0.018771727 -0.0017065108 0.66059315
-0.018454567 -0.0033553541 0.65711272
-0.018155428 -0.0049514771 0.65383011
-0.017871169 -0.006498605 0.6507107
-0.017600289 -0.0080001354 0.64773816
-0.017343014 -0.0094598532 0.64491498
-0.017093102 -0.01087743 0.64217246
-0.016834004 -0.012242913 0.6393292
-0.016523352 -0.013519108 0.63592023
-0.015992168 -0.014538318 0.63009113
-0.015699852 -0.015699834 0.62688333
-0.015454484 -0.016859412 0.62419075
-0.015249171 -0.018021733 0.62193775
-0.015049365 -0.019153744 0.61974514
-0.015006282 -0.020463079 0.61927235
-0.015490716 -0.022531927 0.62458837
-0.015380805 -0.023770362 0.62338221
-0.015264268 -0.024977922 0.62210345
-0.015352232 -0.02651751 0.62306869
-0.020344671 -0.036990315 0.67785424
-0.020129265 -0.038428575 0.67549038
-0.019941108 -0.039882183 0.67342561
-0.019780505 -0.041359246 0.67166328
-0.019660458 -0.042895555 0.6703459
-0.019593548 -0.044530779 0.66961163
-0.01948113 -0.046046317 0.668378
-0.019348478 -0.047491729 0.66692227
-0.019201461 -0.048876464 0.66530895
-0.019045714 -0.05021143 0.66359985
-0.018886967 -0.051509887 0.66185778
-0.01873084 -0.052786916 0.66014451
-0.018577276 -0.054042965 0.65845931
-0.018425712 -0.055277139 0.65679616
-0.018272784 -0.056479484 0.65511793
-0.018122429 -0.057662249 0.65346795
-0.017974529 -0.058825746 0.65184498
-0.017829025 -0.059970364 0.65024829
-0.017683243 -0.061087549 0.6486485
-0.017538652 -0.062182501 0.64706182
-0.017465854 -0.063512206 0.64626288
-0.023845006 0.023845017 0.74243259
-0.021483475 0.019335151 0.71392637
-0.020477718 0.016382188 0.70178586
-0.019853141 0.01389721 0.69424653
-0.019344112 0.011606455 0.68810201
-0.018902788 0.0094514191 0.68277478
-0.018505825 0.0074023604 0.67798299
-0.018140176 0.0054420829 0.6735692
-0.017798187 0.003559649 0.66944104
-0.017484542 0.0017484725 0.66565502
-0.017184475 -0 0.6620329
-0.016904579 -0.0016904771 0.65865427
-0.016634982 -0.0033269823 0.65539998
-0.016382372 -0.0049147308 0.65235066
-0.016137268 -0.0064549148 0.64939201
-0.015887477 -0.0079437196 0.64637673
-0.015597505 -0.0093584657 0.64287645
-0.015087583 -0.010561317 0.63672119
-0.014793967 -0.011835188 0.63317686
-0.014554446 -0.013099015 0.63028562
-0.014352426 -0.014352411 0.62784696
-0.01415782 -0.015573591 0.62549794
-0.013987632 -0.016785145 0.6234436
-0.013821831 -0.017968357 0.6214422
-0.013668274 -0.019135565 0.61958855
-0.013622317 -0.020433456 0.61903381
-0.014198961 -0.02271834 0.6259945
-0.01405624 -0.023895621 0.62427175
-0.013906769 -0.025032163 0.62246746
-0.013935895 -0.026478171 0.62281901
-0.018568734 -0.037137449 0.67874235
-0.018477261 -0.038802236 0.67763817
-0.018395811 -0.040470779 0.67665499
-0.018276541 -0.042036057 0.67521524
-0.018142017 -0.043540835 0.67359149
-0.017993852 -0.044984609 0.67180294
-0.017839689 -0.046383142 0.66994202
-0.017686518 -0.047753602 0.66809309
-0.017535955 -0.049100667 0.66627562
-0.017387873 -0.050424784 0.66448814
-0.017239181 -0.05171755 0.6626932
-0.017092021 -0.052985281 0.66091692
-0.01694735 -0.054231495 0.65917051
-0.016805051 -0.055456638 0.65745282
-0.0166634 -0.056655586 0.655743
-0.016522212 -0.057827711 0.65403867
-0.016383445 -0.05898039 0.65236354
-0.016246939 -0.060113654 0.65071583
-0.016112741 -0.061228439 0.64909589
-0.015974671 -0.062301233 0.64742923
-0.015851339 -0.063405335 0.64594048
-0.019619517 0.023979425 0.71774077
-0.018866509 0.020962805 0.70764124
-0.018322192 0.0183222 0.70034057
-0.017860599 0.015876114 0.69414955
-0.017452141 0.013573885 0.68867123
-0.01708078 0.011387169 0.68369049
-0.016744236 0.0093024075 0.67917657
-0.016429083 0.0073018074 0.67494971
-0.016132565 0.0053775311 0.67097265
-0.015856324 0.003523618 0.66726768
-0.015591598 0.001732409 0.66371709
-0.015343561 2.9802322e-08 0.66039032
-0.015104811 -0.001678288 0.65718818
-0.014865817 -0.003303498 0.6539827
-0.014596556 -0.0048654974 0.65037131
-0.014111923 -0.0062719584 0.64387119
-0.013819389 -0.0076774061 0.63994765
-0.013587307 -0.0090581775 0.63683492
-0.013390029 -0.010414451 0.63418901
-0.013201919 -0.011735052 0.631666
-0.013037792 -0.013037771 0.62946463
-0.012877806 -0.014308661 0.62731886
-0.012731123 -0.01556024 0.62535155
-0.012592248 -0.016789645 0.6234889
-0.01245675 -0.017993063 0.62167156
-0.012335682 -0.019188851 0.62004781
-0.012242354 -0.020403892 0.61879599
-0.012311534 -0.021887183 0.61972392
-0.012605007 -0.023809463 0.62366009
-0.012452167 -0.024904341 0.62161011
-0.012523749 -0.026439041 0.62257016
-0.016991904 -0.037759751 0.6824984
-0.016853968 -0.039325923 0.68064833
-0.016707396 -0.040840298 0.67868245
-0.016558176 -0.042315334 0.67668116
-0.016411599 -0.043764234 0.67471516
-0.016267594 -0.045187742 0.67278373
-0.01612442 -0.046581626 0.67086345
-0.015981417 -0.047944248 0.66894543
-0.015840873 -0.04928267 0.66706043
-0.015702836 -0.050598055 0.66520905
-0.01556616 -0.051887184 0.66337591
-0.015429305 -0.053145349 0.66154039
-0.015294887 -0.054381818 0.65973747
-0.01516274 -0.055596709 0.65796506
-0.015032908 -0.056790948 0.65622377
-0.014899657 -0.057943135 0.65443659
-0.014767683 -0.059070751 0.65266651
-0.014628943 -0.060141221 0.65080565
-0.01449134 -0.061185628 0.64896011
-0.014344047 -0.062157527 0.64698458
-0.014242202 -0.063298672 0.64561856
-0.014335874 -0.065307856 0.6468749
-0.017828489 0.028971285 0.72360909
-0.017204732 0.025807083 0.71419722
-0.016715886 0.022984385 0.7068212
-0.016298793 0.020373523 0.70052779
-0.015928207 0.017919242 0.69493598
-0.015590231 0.01559025 0.68983638
-0.015276379 0.013366878 0.68510067
-0.014988147 0.011241138 0.68075162
-0.014715728 0.0091973245 0.67664111
-0.014459404 0.0072296858 0.67277348
-0.014216703 0.005331248 0.66911137
-0.013986265 0.0034965873 0.66563439
-0.01375982 0.0017199814 0.66221756
-0.013512661 2.9802322e-08 0.65848821
-0.013064621 -0.0016330779 0.6517278
-0.012767997 -0.0031920075 0.64725214
-0.012545229 -0.0047044456 0.6438908
-0.012354495 -0.0061772764 0.64101285
-0.012174546 -0.0076090395 0.63829762
-0.012017704 -0.0090132654 0.63593102
-0.011864851 -0.010381728 0.63362467
-0.011726101 -0.011726111 0.63153112
-0.011593646 -0.013042808 0.62953252
-0.011466712 -0.014333367 0.62761724
-0.011351309 -0.015608042 0.62587595
-0.011238204 -0.016857326 0.62416935
-0.011133305 -0.018091619 0.62258655
-0.011035638 -0.019312352 0.62111282
-0.010939669 -0.020511866 0.61966473
-0.010927693 -0.021855354 0.61948407
-0.010989676 -0.02335304 0.62041932
-0.011052397 -0.024867892 0.62136573
-0.011115775 -0.02639997 0.62232202
-0.015193866 -0.037984639 0.68385565
-0.01505506 -0.039519548 0.68176126
-0.01491849 -0.041025817 0.67970055
-0.014780826 -0.042494863 0.67762339
-0.01464568 -0.043937027 0.6755842
-0.014512983 -0.045353055 0.67358196
-0.014382358 -0.046742678 0.67161095
-0.014250969 -0.048097014 0.6696285
-0.014121958 -0.049426854 0.66768181
-0.013995312 -0.05073297 0.66577089
-0.013870869 -0.052015752 0.66389316
-0.013743616 -0.053256512 0.66197306
-0.013617286 -0.054469138 0.66006696
-0.013484302 -0.055622756 0.65806031
-0.013352021 -0.056746066 0.65606433
-0.013210963 -0.057797968 0.65393597
-0.01306445 -0.058790013 0.65172529
-0.012911272 -0.05971463 0.649414
-0.01276067 -0.06061317 0.64714158
-0.012621693 -0.061530739 0.64504457
-0.01263851 -0.063192531 0.6452983
-0.012721454 -0.065197438 0.64654982
-0.012805575 -0.067229271 0.6478191
-0.015991012 0.034266442 0.73035306
-0.015457893 0.030915797 0.7211597
-0.015030623 0.027914047 0.71379173
-0.01465725 0.025126725 0.70735317
-0.014321157 0.022504658 0.70155746
-0.014017388 0.020024836 0.69631916
-0.013735444 0.017659873 0.69145715
-0.0134699 0.015394181 0.68687809
-0.013224658 0.013224661 0.68264896
-0.012990063 0.011134356 0.67860353
-0.012770395 0.0091217458 0.67481548
-0.012557672 0.0071758032 0.67114723
-0.012334086 0.0052860379 0.66729164
-0.01195988 0.0034170747 0.66083866
-0.011630335 0.0016614497 0.6551559
-0.011419244 -2.9802322e-08 0.65151572
-0.01123716 -0.0016053021 0.64837587
-0.011067327 -0.0031621158 0.64544719
-0.010919275 -0.0046797097 0.64289409
-0.010775131 -0.0061572194 0.6404084
-0.010645636 -0.0076040328 0.63817537
-0.010520892 -0.0090179145 0.63602424
-0.010403578 -0.010403544 0.6340012
-0.010295051 -0.011765778 0.63212967
-0.010188764 -0.013099849 0.63029695
-0.010093398 -0.014419138 0.62865233
-0.010001685 -0.01571691 0.62707078
-0.0099138115 -0.016995072 0.62555552
-0.0098350579 -0.018265098 0.62419742
-0.0097638285 -0.019527614 0.62296909
-0.0096948585 -0.020774722 0.6217798
-0.009623602 -0.021996796 0.62055099
-0.0096019683 -0.023319036 0.62017792
-0.0096566351 -0.024831325 0.62112069
-0.013478971 -0.036585778 0.68703449
-0.013350527 -0.03814435 0.68481952
-0.013224557 -0.039673686 0.68264723
-0.013100942 -0.041174382 0.68051559
-0.01297678 -0.042638004 0.67837447
-0.012854571 -0.044072777 0.67626703
-0.012734689 -0.045481026 0.67419976
-0.012616976 -0.046863049 0.67216986
-0.012496917 -0.048202366 0.6700995
-0.012377588 -0.04951033 0.66804183
-0.012251766 -0.050757319 0.6658721
-0.012125833 -0.051967829 0.66370046
-0.011992929 -0.053111553 0.66140854
-0.011852226 -0.054181606 0.65898222
-0.011707973 -0.055194736 0.65649474
-0.01156654 -0.056180328 0.65405577
-0.011440056 -0.057200283 0.65187466
-0.011319234 -0.058213219 0.64979112
-0.011206169 -0.059232593 0.64784139
-0.011099031 -0.060251877 0.64599383
-0.010993924 -0.061251864 0.64418137
-0.011040117 -0.06308639 0.64497793
-0.011239757 -0.065832853 0.64842057
-0.01118584 -0.067115024 0.6474908
-0.01502331 0.045069933 0.75684357
-0.014189811 0.040204465 0.74007487
-0.013629545 0.036345482 0.72880322
-0.013255356 0.033138394 0.72127509
-0.012927218 0.030163527 0.71467346
-0.012630963 0.027367085 0.70871323
-0.012358249 0.024716496 0.70322669
-0.012107161 0.022196472 0.69817519
-0.011872877 0.019788116 0.69346178
-0.011650654 0.017475933 0.68899101
-0.01144392 0.01525858 0.68483186
-0.01124511 0.01311928 0.68083203
-0.011042845 0.011042863 0.67676276
-0.010753502 0.0089612901 0.67094165
-0.010398359 0.0069322288 0.66379678
-0.010198739 0.0050993562 0.65978068
-0.01002793 0.0033426583 0.65634429
-0.0098704342 0.0016450584 0.65317577
-0.00973312 -0 0.65041322
-0.0095995739 -0.0015999377 0.64772642
-0.0094808582 -0.0031602681 0.64533806
-0.0093654804 -0.0046827197 0.64301687
-0.0092589846 -0.006172657 0.64087433
-0.009158737 -0.0076322854 0.63885748
-0.0090617584 -0.0090617537 0.63690645
-0.0089755524 -0.010471463 0.63517207
-0.0088909697 -0.011854619 0.63347042
-0.0088130087 -0.013219506 0.63190198
-0.0087426621 -0.0145711 0.63048673
-0.0086798491 -0.015913039 0.62922299
-0.0086135808 -0.017227143 0.62788975
-0.0085456641 -0.018515646 0.62652338
-0.0084686205 -0.019760102 0.62497342
-0.0083929775 -0.020982444 0.62345159
-0.0083103618 -0.022160947 0.62178952
-0.0082286345 -0.023314446 0.6201452
-0.0082650166 -0.024795055 0.62087727
-0.011594543 -0.036716044 0.68786216
-0.011480768 -0.038269252 0.68557322
-0.011369247 -0.039792359 0.68332958
-0.01125983 -0.041285992 0.6811282
-0.011148522 -0.042735964 0.67888886
-0.01103777 -0.044151068 0.67666066
-0.010920848 -0.045503527 0.67430842
-0.010803033 -0.04681316 0.67193818
-0.010680014 -0.048060089 0.66946328
-0.010547337 -0.04922092 0.66679394
-0.010413906 -0.050333887 0.66410947
-0.010284301 -0.051421523 0.66150206
-0.010170477 -0.052547455 0.65921205
-0.010059145 -0.05364877 0.65697229
-0.0099579478 -0.054768711 0.65493631
-0.0098592835 -0.055869311 0.65295136
-0.0097634131 -0.056953222 0.65102261
-0.0096712261 -0.058027387 0.64916801
-0.0095803672 -0.059078917 0.64734
-0.0094907191 -0.060107902 0.64553642
-0.0094022918 -0.061114892 0.64375746
-0.0094471453 -0.06298098 0.64465988
-0.0096541205 -0.06596981 0.64882386
-0.0095716007 -0.067001194 0.64716363
-0.01270301 0.050812066 0.76127565
-0.012155135 0.046189517 0.74804878
-0.011762576 0.042345315 0.73857158
-0.01137753 0.038683623 0.72927582
-0.011094675 0.035503 0.7224471
-0.010839896 0.032519668 0.7162962
-0.010605584 0.02969566 0.71063936
-0.010386532 0.027004987 0.705351
-0.010182641 0.024438351 0.70042861
-0.0099910283 0.021980256 0.69580269
-0.0098093394 0.01961869 0.69141638
-0.0096281702 0.017330736 0.68704253
-0.0094048139 0.015047699 0.68165028
-0.0090583637 0.012681723 0.67328614
-0.0088712927 0.010645568 0.66876984
-0.0087149851 0.0087150037 0.66499627
-0.0085725114 0.0068579912 0.66155666
-0.0084482934 0.0050689578 0.65855777
-0.0083282338 0.0033313036 0.65565932
-0.0082214689 0.0016443133 0.65308172
-0.0081174336 2.9802322e-08 0.65057009
-0.0080231959 -0.0016046464 0.64829504
-0.007932907 -0.0031731725 0.6461153
-0.0078482945 -0.0047089458 0.64407253
-0.007770726 -0.0062165558 0.64219987
-0.0076950304 -0.0076950192 0.6403724
-0.0076279989 -0.0091536045 0.63875407
-0.007567707 -0.010594785 0.63729846
-0.0075100949 -0.012016177 0.63590771
-0.0074502467 -0.013410419 0.63446283
-0.0073827077 -0.014765441 0.63283229
-0.0073137511 -0.016090244 0.63116753
-0.0072412677 -0.017379016 0.62941754
-0.0071668187 -0.018633723 0.62762022
-0.0070934412 -0.019861639 0.62584877
-0.0070196013 -0.021058798 0.62406611
-0.0069473018 -0.02223134 0.62232065
-0.0068764579 -0.023379982 0.6206103
-0.0068774405 -0.024758786 0.62063408
-0.0096854614 -0.036804765 0.68842566
-0.0095852315 -0.038340926 0.68600595
-0.0094791828 -0.039812595 0.68344569
-0.0093717324 -0.041235626 0.68085158
-0.0092607215 -0.04259932 0.67817158
-0.0091387704 -0.043866098 0.67522734
-0.0090184286 -0.045092165 0.67232209
-0.0089051761 -0.046306938 0.66958785
-0.0088028079 -0.047535151 0.66711646
-0.0087050088 -0.048748046 0.6647554
-0.0086145755 -0.049964547 0.66257215
-0.0085260021 -0.051156014 0.66043377
-0.008441139 -0.052335054 0.65838504
-0.0083584515 -0.053494066 0.65638882
-0.0082766293 -0.05462575 0.6544134
-0.008196258 -0.055734545 0.65247309
-0.0081168022 -0.056817591 0.65055484
-0.0080392845 -0.05788286 0.64868343
-0.0079667829 -0.058954179 0.64693308
-0.0079005659 -0.060044304 0.64533442
-0.0078406204 -0.061156839 0.64388722
-0.0078594638 -0.062875718 0.64434218
-0.0079108085 -0.064868599 0.64558172
-0.0079628276 -0.066887751 0.64683759
-0.010423328 0.057328314 0.76914966
-0.010015539 0.052581578 0.75684357
-0.0097010592 0.048505306 0.74735326
-0.0094325896 0.044804841 0.73925149
-0.0091553191 0.041198909 0.73088413
-0.0089420034 0.038003564 0.72444671
-0.0087451991 0.034980804 0.71850759
-0.0085640112 0.032115072 0.71303976
-0.0083927456 0.029374599 0.70787144
-0.0082326308 0.026756078 0.70303953
-0.0080760336 0.024228096 0.69831371
-0.0078949267 0.021711051 0.69284838
-0.0075910259 0.018977582 0.68367743
-0.0074222051 0.01669997 0.67858279
-0.007284381 0.014568776 0.67442358
-0.007160204 0.012530357 0.67067623
-0.0070519731 0.010577947 0.66741002
-0.0069483398 0.0086854398 0.66428262
-0.0068555195 0.0068555474 0.6614815
-0.006765123 0.0050738454 0.65875357
-0.0066848625 0.0033424497 0.65633148
-0.00660655 0.0016516149 0.65396821
-0.006535531 -2.9802322e-08 0.65182501
-0.0064683217 -0.001617074 0.64979678
-0.0064051645 -0.0032025874 0.64789087
-0.0063489028 -0.0047616959 0.64619303
-0.0062989495 -0.0062989295 0.64468551
-0.0062469272 -0.0078086257 0.64311564
-0.0061917719 -0.0092876256 0.64145118
-0.0061311503 -0.010729492 0.63962179
-0.0060699373 -0.012139887 0.63777453
-0.0060045971 -0.013510346 0.63580263
-0.0059406138 -0.014851511 0.63387179
-0.0058759088 -0.01615873 0.63191915
-0.0058125979 -0.017437786 0.63000858
-0.005750637 -0.018689543 0.62813872
-0.0056899991 -0.019915015 0.62630886
-0.0056306105 -0.021114796 0.62451667
-0.005572449 -0.022289813 0.62276149
-0.0055155833 -0.023441225 0.62104535
-0.005493918 -0.024722606 0.62039161
-0.0077201254 -0.036670595 0.68757331
-0.0076135499 -0.038067728 0.68435717
-0.0075090597 -0.039422542 0.68120378
-0.0074139014 -0.040776461 0.67833221
-0.0073252521 -0.042120188 0.67565691
-0.0072429669 -0.043457776 0.67317379
-0.0071647409 -0.044779599 0.67081308
-0.0070887138 -0.046076655 0.66851878
-0.0070158821 -0.047357172 0.66632086
-0.0069441455 -0.048608989 0.66415608
-0.0068735536 -0.049833298 0.66202575
-0.0068038977 -0.051029235 0.65992367
-0.0067354576 -0.052199811 0.65785837
-0.0066706701 -0.05336535 0.65590322
-0.0066117882 -0.05454728 0.65412629
-0.0065585538 -0.055747718 0.65251976
-0.0065098307 -0.056961015 0.65104949
-0.0064633293 -0.058169961 0.64964616
-0.0064190514 -0.059376225 0.64830989
-0.006379745 -0.060607567 0.64712375
-0.0063485201 -0.061898068 0.64618146
-0.0063075447 -0.063075438 0.64494491
-0.0063180178 -0.064759687 0.64526099
-0.0063594738 -0.066774458 0.64651203
-0.0077530141 0.059439778 0.76655519
-0.0075126318 0.055092633 0.75688291
-0.0073048281 0.051133811 0.74852151
-0.0071195387 0.047463596 0.7410661
-0.0069508115 0.044021845 0.73427695
-0.0067703268 0.040621966 0.72701484
-0.006626186 0.037548393 0.72121501
-0.0064931624 0.034630179 0.71586257
-0.0063650776 0.031825393 0.71070886
-0.0062225414 0.029038519 0.7049737
-0.005977287 0.025901556 0.69510537
-0.0058339532 0.023335785 0.68933803
-0.0057195616 0.020971745 0.6847353
-0.0056177154 0.018725723 0.68063736
-0.0055289268 0.016586781 0.67706478
-0.0054447968 0.014519453 0.67367959
-0.0053688283 0.012527287 0.67062289
-0.0052961642 0.010592312 0.66769916
-0.0052306671 0.0087177753 0.66506374
-0.0051667881 0.0068890452 0.66249341
-0.0051107588 0.0051107705 0.66023898
-0.0050559663 0.0033706427 0.65803427
-0.005006507 0.0016688108 0.65604424
-0.0049630054 -0 0.65429384
-0.0049219797 -0.0016406476 0.65264308
-0.0048788185 -0.0032525361 0.65090644
-0.0048296233 -0.0048296154 0.64892697
-0.0047803591 -0.0063737929 0.6469447
-0.004726979 -0.0078783035 0.64479685
-0.0046741664 -0.0093483329 0.64267182
-0.004621055 -0.01078248 0.64053482
-0.0045688869 -0.012183666 0.63843572
-0.00451787 -0.013553619 0.636383
-0.0044679795 -0.014893264 0.63437557
-0.0044191787 -0.016203672 0.63241196
-0.0043714331 -0.017485738 0.63049078
-0.0043248571 -0.018741012 0.62861675
-0.0042803981 -0.019975215 0.62682784
-0.004236856 -0.021184295 0.62507582
-0.0041941907 -0.022369027 0.62335914
-0.004152365 -0.023530066 0.62167615
-0.0041144411 -0.024686635 0.62015021
-0.0041378736 -0.026206493 0.62109309
-0.0056589074 -0.037726015 0.68229473
-0.0055952678 -0.039166868 0.67973405
-0.005534288 -0.040584743 0.67728049
-0.0054750824 -0.041975647 0.67489827
-0.0054165833 -0.043332666 0.67254442
-0.0053591481 -0.044659555 0.67023343
-0.0053025628 -0.045955539 0.66795653
-0.0052481135 -0.047233045 0.6657657
-0.0051984773 -0.048519105 0.66376847
-0.0051539619 -0.049821645 0.66197729
-0.0051135444 -0.051135451 0.6603511
-0.0050751287 -0.052442998 0.65880537
-0.0050385706 -0.053744763 0.65733433
-0.0050062896 -0.055069208 0.65603542
-0.0049807415 -0.05644843 0.65500748
-0.0049462104 -0.05770579 0.6536181
-0.004905012 -0.058860123 0.65196037
-0.0048602256 -0.059942782 0.65015829
-0.004813964 -0.060976908 0.64829689
-0.0047685751 -0.061991483 0.64647055
-0.0047240336 -0.062987089 0.64467835
-0.0047305692 -0.064651102 0.64494133
-0.0051796981 0.062156409 0.76722038
-0.005036274 0.057917178 0.75856394
-0.0049071144 0.053978264 0.75076848
-0.0047891536 0.050286084 0.74364895
-0.0046810405 0.046810418 0.73712373
-0.0045643593 0.043361425 0.73008138
-0.0044698035 0.040228277 0.72437441
-0.0043703844 0.037148297 0.71837395
-0.0041940864 0.033552706 0.70773345
-0.0040854784 0.030641079 0.70117837
-0.0040007094 0.028004944 0.69606209
-0.0039261216 0.025519788 0.69156033
-0.0038611202 0.023166716 0.68763715
-0.0038001686 0.020900905 0.68395835
-0.0037446951 0.018723488 0.68061024
-0.0036926158 0.016616762 0.67746699
-0.0036448834 0.014579535 0.67458612
-0.0035997415 0.012599081 0.67186153
-0.0035589917 0.01067698 0.66940212
-0.0035200086 0.0088000298 0.66704923
-0.0034857146 0.0069714487 0.6649794
-0.003455444 0.0051831901 0.6631524
-0.0034243348 0.0034243166 0.66127479
-0.0033902507 0.0016951263 0.65921772
-0.0033539247 -0 0.65702522
-0.0033159172 -0.0016579628 0.65473127
-0.0032769574 -0.003276974 0.65237975
-0.0032380433 -0.0048570633 0.65003109
-0.003199633 -0.0063992441 0.64771289
-0.0031621235 -0.0079053044 0.64544898
-0.0031254932 -0.0093764961 0.64323813
-0.003089692 -0.010813951 0.64107734
-0.0030547297 -0.012218922 0.63896716
-0.0030206409 -0.013592869 0.63690972
-0.0029881343 -0.014940649 0.63494778
-0.0029563112 -0.01625967 0.63302702
-0.0029251669 -0.017551005 0.63114738
-0.002894664 -0.018815279 0.62930632
-0.0028647988 -0.020053595 0.62750381
-0.0028355434 -0.02126658 0.62573814
-0.002806911 -0.022455275 0.62401003
-0.002779546 -0.023626149 0.62235838
-0.0027527395 -0.024774641 0.62074047
-0.0027545427 -0.026168168 0.62084925
-0.0037616426 -0.037616462 0.68163323
-0.0037198623 -0.039058536 0.67911148
-0.0036793379 -0.040472686 0.6766656
-0.0036418857 -0.04188168 0.67440522
-0.0036083991 -0.043300807 0.67238402
-0.0035784764 -0.044730932 0.670578
-0.0035501411 -0.046151847 0.66886783
-0.003523181 -0.047562897 0.66724074
-0.003499513 -0.04899317 0.66581225
-0.0034808405 -0.0504722 0.66468519
-0.0034549069 -0.051823616 0.66312003
-0.0034242761 -0.053076237 0.66127127
-0.0033909976 -0.054255962 0.65926278
-0.003357233 -0.055394351 0.65722489
-0.0033241343 -0.056510299 0.65522718
-0.0032916814 -0.057604402 0.65326846
-0.0032596653 -0.058673948 0.65133613
-0.003227995 -0.059717894 0.64942467
-0.0031969345 -0.060741723 0.64754999
-0.0031664658 -0.061746091 0.64571106
-0.003136425 -0.062728494 0.64389789
-0.0031484442 -0.064543098 0.6446234
-0.0026080459 0.065201133 0.76941693
-0.002540705 0.060976923 0.76128817
-0.0024789998 0.057017028 0.75383967
-0.00242172 0.05327785 0.74692535
-0.002368652 0.049741685 0.74051952
-0.0023187194 0.04637441 0.73449206
-0.0022132522 0.042051792 0.72176111
-0.0021512478 0.038722485 0.71427649
-0.0021039033 0.035766363 0.70856154
-0.0020627396 0.033003837 0.7035926
-0.0020268844 0.030403256 0.69926453
-0.0019936119 0.02791056 0.69524819
-0.0019631071 0.025520384 0.69156593
-0.0019350023 0.023220032 0.68817335
-0.0019088115 0.020996898 0.68501186
-0.0018848174 0.018848211 0.6821155
-0.0018624929 0.016762435 0.67942071
-0.0018419375 0.01473549 0.67693949
-0.0018240097 0.01276806 0.67477536
-0.0018074975 0.010845006 0.67278218
-0.0017896733 0.0089483559 0.67063057
-0.0017696839 0.007078737 0.66821766
-0.0017492794 0.0052478313 0.66575468
-0.0017276504 0.0034553111 0.66314375
-0.0017061539 0.0017061532 0.66054893
-0.0016848454 -0 0.65797675
-0.0016640569 -0.0016640425 0.65546739
-0.0016437753 -0.003287524 0.65301913
-0.0016239875 -0.0048719645 0.65063053
-0.001604701 -0.0064187646 0.64830244
-0.0015858975 -0.0079295039 0.64603269
-0.0015679866 -0.0094079077 0.64387059
-0.0015504707 -0.010853291 0.6417563
-0.0015333467 -0.012266785 0.63968921
-0.0015165966 -0.013649344 0.6376673
-0.0015002042 -0.015002042 0.6356886
-0.0014841843 -0.01632607 0.63375485
-0.0014686366 -0.017623603 0.63187802
-0.0014536772 -0.018897772 0.6300723
-0.0014390195 -0.020146281 0.62830293
-0.0014246583 -0.021369874 0.62656939
-0.0014105773 -0.022569269 0.6248697
-0.0013967718 -0.02374512 0.62320316
-0.0013832338 -0.024898231 0.62156904
-0.0013753899 -0.026132435 0.62062216
-0.0018828172 -0.037656337 0.6818741
-0.0018670657 -0.039208412 0.67997271
-0.0018520964 -0.040746123 0.67816573
-0.0018390198 -0.042297453 0.67658722
-0.0018286293 -0.043887109 0.67533302
-0.0018139519 -0.045348763 0.67356133
-0.0017968845 -0.046718955 0.67150104
-0.0017782879 -0.048013777 0.66925627
-0.0017597256 -0.049272329 0.66701561
-0.001741547 -0.050504893 0.66482127
-0.0017237401 -0.051712185 0.66267174
-0.0017060898 -0.052888751 0.66054118
-0.0016887464 -0.054039896 0.65844762
-0.0016717517 -0.055167824 0.65639621
-0.0016551012 -0.05627346 0.65438634
-0.0016385538 -0.057349384 0.65238887
-0.0016223129 -0.058403268 0.65042841
-0.0016063961 -0.059436649 0.64850706
-0.0015907834 -0.060449779 0.64662248
-0.0015749008 -0.061421111 0.6447053
-0.001561454 -0.062458158 0.64308214
-0.0015715866 -0.06443505 0.64430523
0 0.068513453 0.77268648
0 0.06424576 0.76480389
0 0.060236454 0.75756371
0 0.05643484 0.75078446
0 0.052822769 0.74442846
0 0.047710329 0.72884303
0 0.044375151 0.7224257
0 0.041288584 0.71691215
0 0.038399875 0.71211314
0 0.035646141 0.707708
0 0.033009708 0.70363677
0 0.030489862 0.69996125
0 0.028052777 0.69647408
0 0.025716454 0.6933862
0 0.023443669 0.69042325
0 0.021255583 0.68785042
0 0.01913628 0.68559343
0 0.017052144 0.6833061
0 0.014985979 0.68071854
0 0.012956381 0.67802268
0 0.010962576 0.67514759
0 0.009016037 0.67226392
0 0.0071176589 0.66939211
0 0.0052687228 0.6665951
0 0.0034673512 0.66387069
0 0.0017116964 0.66121751
0 -2.9802322e-08 0.65863287
0 -0.0016694367 0.65611678
0 -0.0032992065 0.65372235
0 -0.0048906803 0.65138423
0 -0.0064452291 0.64909971
0 -0.0079640746 0.64686823
0 -0.0094485879 0.64468914
0 -0.010900378 0.64256823
0 -0.012321502 0.64051533
0 -0.013713688 0.63853031
0 -0.015076518 0.63658726
0 -0.016410768 0.63468486
0 -0.017717451 0.63282174
0 -0.018997371 0.63099676
0 -0.020251393 0.6292094
0 -0.02148208 0.62747216
0 -0.022689998 0.62578082
0 -0.023875505 0.62412888
0 -0.025039136 0.62251413
0 -0.036597937 0.6871115
0 -0.038190782 0.68509978
0 -0.039696127 0.68277645
0 -0.041130513 0.68027496
0 -0.042528659 0.6778006
0 -0.043896258 0.67537904
0 -0.04523319 0.67300308
0 -0.046535671 0.67064989
0 -0.047810346 0.66834694
0 -0.049058378 0.66609323
0 -0.050276339 0.66386998
0 -0.051464885 0.66167659
0 -0.052628934 0.65952939
0 -0.053768933 0.65742558
0 -0.054870278 0.65530777
0 -0.05458644 0.64839697
0 -0.055529088 0.64611095
0 -0.056509659 0.64407903
0 -0.057478756 0.64211953
0 -0.058484241 0.64037871
0 -0.060407341 0.64156741
0 -0.062354803 0.64277029
0.0026053572 0.067739308 0.76909238
0.0025457724 0.06364432 0.76189983
0.0024902269 0.059765458 0.7551949
0.0024377184 0.056067526 0.74885666
0.0023881879 0.052540153 0.74287772
0.0022515659 0.047282934 0.72638601
0.0022113156 0.044226319 0.72152728
0.0021738473 0.041303128 0.71700454
0.002140682 0.038532287 0.71300107
0.002109207 0.035856545 0.70920169
0.002081281 0.033300549 0.70583075
0.0020551146 0.030826688 0.70267218
0.0020324583 0.028454423 0.69993734
0.0020120747 0.026156992 0.6974768
0.001989577 0.023874938 0.69476104
0.0019646334 0.021610945 0.69175011
0.001938676 0.019386798 0.68861687
0.0019119553 0.017207593 0.68539131
0.0018852362 0.015081882 0.6821661
0.001859247 0.013014734 0.67902887
0.0018339778 0.011003882 0.6759786
0.0018094191 0.0090471208 0.6730141
0.0017855094 0.0071420372 0.67012799
0.0017622731 0.0052868426 0.66732311
0.0017401782 0.003480345 0.66465598
0.0017186364 0.0017186403 0.66205573
0.0016976157 -0 0.6595183
0.0016771255 -0.0016771257 0.65704489
0.0016572118 -0.0033144355 0.65464109
0.0016377601 -0.0049133003 0.65229303
0.0016190688 -0.0064762831 0.65003681
0.0016009068 -0.0080045462 0.64784449
0.0015831528 -0.0094988942 0.64570135
0.0015657833 -0.01096046 0.6436047
0.0015487911 -0.012390316 0.64155352
0.0015321915 -0.013789713 0.63954979
0.001516059 -0.01516062 0.63760245
0.0015003301 -0.016503632 0.6357038
0.0014850079 -0.01782012 0.63385427
0.0014700561 -0.019110709 0.63204938
0.002034789 -0.028487056 0.70021868
0.0020157711 -0.030236572 0.69792295
0.0019939456 -0.031903118 0.69528842
0.0019707386 -0.033502579 0.69248712
0.001947967 -0.035063416 0.68973839
0.0019257157 -0.036588579 0.68705237
0.001903793 -0.038075864 0.6844061
0.0018822224 -0.039526671 0.68180227
0.0018611419 -0.040945113 0.67925763
0.0018405012 -0.042331517 0.6767661
0.001820042 -0.043680996 0.67429644
0.0018000262 -0.045000672 0.67188025
0.0017804457 -0.04629159 0.66951668
0.0017609395 -0.047545344 0.66716212
0.0016998765 -0.047596544 0.65979117
0.0016782843 -0.048670232 0.65718478
0.0016594047 -0.049782127 0.6549058
0.0016412789 -0.050879627 0.65271783
0.0016236502 -0.051956803 0.65058982
0.0016072061 -0.053037792 0.64860487
0.0015919271 -0.054125518 0.64676046
0.0015775524 -0.055214331 0.64502537
0.0015641681 -0.056310058 0.64340979
0.0015516343 -0.057410449 0.64189672
0.0015398066 -0.058512628 0.64046896
0.0015463594 -0.060308024 0.64126003
0.0015562964 -0.062251851 0.64245951
0.0051736459 0.067257375 0.76685512
0.0050626695 0.063283354 0.76015705
0.0049572871 0.059487492 0.7537967
0.004857711 0.055863678 0.74778676
0.0047632805 0.052396089 0.74208736
0.004521668 0.047477514 0.72750479
0.0044536507 0.044536501 0.72339952
0.0043914425 0.041718721 0.7196449
0.0043360521 0.039024442 0.71630192
0.00428874 0.03645429 0.71344626
0.0042405976 0.033924818 0.71054065
0.0041862791 0.031397104 0.70726222
0.0041290196 0.028903127 0.70380628
0.0040692473 0.026450098 0.70019877
0.0040088668 0.024053186 0.69655442
0.0039501586 0.021725863 0.69301105
0.0038932513 0.019466251 0.68957639
0.0038379598 0.017270833 0.68623924
0.0037842176 0.015136868 0.68299562
0.0037320703 0.013062239 0.67984831
0.0036825601 0.011047691 0.67686009
0.0036343599 0.0090858936 0.67395097
0.0035874306 0.0071748793 0.6711185
0.0035419108 0.0053128898 0.6683712
0.0034975195 0.0034975111 0.66569191
0.0034542391 0.0017271042 0.66307968
0.0034129363 -0 0.66058689
0.0033726094 -0.0016863346 0.65815294
0.0033332242 -0.0033332109 0.65577579
0.0032947485 -0.0049421191 0.65345359
0.003257331 -0.0065146387 0.65119523
0.003220899 -0.0080522299 0.64899635
0.0031853239 -0.0095559657 0.64684922
0.0031507737 -0.011027694 0.64476395
0.0031171299 -0.012468517 0.6427334
0.0043125823 -0.019406617 0.71488523
0.0042690174 -0.021345109 0.7122559
0.0042191078 -0.023205101 0.7092436
0.0041669649 -0.025001764 0.70609647
0.0041160951 -0.026754618 0.70302629
0.0040664361 -0.028465062 0.70002908
0.0040173321 -0.030129969 0.69706535
0.0039693522 -0.031754822 0.69416952
0.0039224899 -0.03334114 0.6913411
0.0038763005 -0.034886688 0.68855333
0.003830937 -0.036393881 0.68581545
0.0037866372 -0.037866384 0.68314171
0.0037429584 -0.039301038 0.68050539
0.0036146552 -0.039761215 0.67276162
0.0035625522 -0.040969342 0.669617
0.0035199465 -0.042239368 0.66704553
0.0034791827 -0.043489784 0.66458511
0.0034397065 -0.044716179 0.6622026
0.0034031288 -0.045942217 0.6599949
0.0033692368 -0.047169268 0.65794933
0.0033374818 -0.048393488 0.6560328
0.0033077409 -0.049616128 0.65423775
0.0032801905 -0.050842971 0.6525749
0.0032541745 -0.052066803 0.65100473
0.0032288283 -0.053275675 0.64947498
0.0032050335 -0.054485559 0.6480388
0.0031837833 -0.055716231 0.64675629
0.0031599968 -0.056879938 0.64532059
0.0031340087 -0.057979167 0.6437521
0.0031066402 -0.059026167 0.64210021
0.0030876421 -0.060209021 0.64095366
0.0031074602 -0.062149227 0.64214975
0.0077314898 0.06700623 0.76568902
0.0075720539 0.063100427 0.75927389
0.007421189 0.059369534 0.75320351
0.0072776992 0.055795699 0.74742991
0.0071408418 0.052366227 0.74192321
0.0070104771 0.049073339 0.73667771
0.0068062446 0.04537496 0.72846007
0.0067189005 0.042553037 0.72494555
0.006622707 0.039736241 0.72107506
0.0065219095 0.036957502 0.71701932
0.0064191902 0.034235686 0.71288621
0.0063190442 0.03159523 0.70885658
0.006222052 0.029036224 0.70495397
0.0061279922 0.026554644 0.70116925
0.0060367342 0.024146944 0.69749731
0.0059483424 0.021810591 0.69394076
0.0058645867 0.019548595 0.69057065
0.0057831788 0.017349571 0.68729508
0.0057043904 0.015211731 0.68412489
0.0056276987 0.01313132 0.68103898
0.0055530416 0.011106074 0.67803502
0.0054807798 0.0091346502 0.67512751
0.0054115062 0.0072153211 0.67234015
0.0053439806 0.0053439736 0.66962314
0.0052781003 0.0035187304 0.66697228
0.0052143144 0.001738131 0.6644057
0.0051521221 -2.9802322e-08 0.66190332
0.0050913957 -0.0016970932 0.65945989
0.0050324388 -0.0033549666 0.65708762
0.0049752272 -0.0049751997 0.65478563
0.0068793288 -0.0091724098 0.73140067
0.0068038688 -0.011339784 0.72836447
0.0067177881 -0.013435543 0.72490084
0.0066297268 -0.015469342 0.72135752
0.0065439162 -0.017450482 0.71790475
0.0064599654 -0.019379914 0.71452689
0.0063773002 -0.021257669 0.71120071
0.0062967506 -0.023088068 0.70795959
0.0062179533 -0.024871796 0.70478904
0.0061401995 -0.026607543 0.70166051
0.0060643903 -0.028300464 0.69861013
0.005990407 -0.029952019 0.69563329
0.0059151044 -0.031547219 0.69260335
0.0056932047 -0.032261461 0.68367481
0.005620555 -0.033723325 0.68075156
0.0055513168 -0.035158336 0.6779657
0.004402821 -0.029352158 0.6317538
0.0043462324 -0.030423611 0.62947679
0.0042922338 -0.031476378 0.62730408
0.0042424719 -0.032525629 0.62530184
0.0042227441 -0.033781946 0.62450802
0.0042456039 -0.035380036 0.62542784
0.0051745716 -0.044846267 0.66280663
0.0051326202 -0.04619357 0.66111863
0.0050949212 -0.047552615 0.65960175
0.0050570224 -0.048884541 0.65807676
0.0050135134 -0.050135136 0.65632612
0.00496767 -0.051332563 0.65448153
0.0049195923 -0.052475631 0.652547
0.0048689595 -0.053558558 0.65050972
0.0048163272 -0.05458504 0.64839196
0.0047648209 -0.055589572 0.64631951
0.0047144047 -0.05657284 0.64429086
0.004664754 -0.057531938 0.6422931
0.0046154996 -0.058462977 0.64031124
0.0046238732 -0.060110345 0.64064825
0.010296986 0.066930413 0.76533699
0.01009261 0.063078821 0.75916934
0.0098980991 0.059388608 0.75329953
0.0097126402 0.055847675 0.74770284
0.009535457 0.052444994 0.74235582
0.0093664192 0.049173713 0.73725462
0.009203312 0.046016604 0.73233241
0.00902519 0.042869657 0.72695708
0.0088769607 0.039946318 0.72248387
0.0087335212 0.037117451 0.71815526
0.0085946452 0.034378588 0.71396428
0.0084604369 0.031726658 0.70991421
0.0083335135 0.029167265 0.70608395
0.0082109142 0.026685506 0.70238417
0.0080919014 0.02427572 0.6987927
0.0079762591 0.021934748 0.69530284
0.0078638755 0.019659728 0.69191134
0.0077559361 0.017450839 0.68865401
0.0076519731 0.01530394 0.6855166
0.0075509311 0.013214111 0.68246746
0.0074532167 0.011179864 0.67951858
0.0073579997 0.0091975331 0.67664516
0.0072652102 0.0072652102 0.67384511
0.0071749128 0.0053811967 0.67112011
0.0070876847 0.0035438538 0.66848773
0.0097939139 0.0024484694 0.75015545
0.0096764825 -0 0.7466116
0.0095438231 -0.0023859739 0.74260831
0.0094106356 -0.0047053397 0.73858899
0.0092811137 -0.006960839 0.73468035
0.0091538532 -0.0091538429 0.73083985
0.0090295058 -0.011286885 0.72708738
0.0089084515 -0.013362646 0.72343421
0.0087892488 -0.015381157 0.71983701
0.0086728558 -0.017345697 0.71632451
0.0085594691 -0.019258797 0.71290278
0.0084453365 -0.021113336 0.70945847
0.0081219813 -0.02233544 0.69970036
0.0080108987 -0.024032682 0.69634813
0.0079054665 -0.025692791 0.69316649
0.0062641921 -0.021924675 0.64363664
0.0061783534 -0.023168832 0.64104629
0.0060976208 -0.024390459 0.63860989
0.0060231374 -0.025598288 0.6363622
0.0059514069 -0.026781321 0.63419747
0.0058725807 -0.027894765 0.63181871
0.0057834224 -0.028917134 0.62912816
0.005711155 -0.02998355 0.62694728
0.0056406558 -0.031023622 0.62481976
0.0055981199 -0.03218919 0.62353611
0.0056195124 -0.033717096 0.62418175
0.0056523005 -0.035326868 0.62517118
0.0069423625 -0.045125365 0.6641022
0.006862171 -0.046319634 0.66168225
0.0067838109 -0.047486663 0.65931755
0.0067072199 -0.048627347 0.6570062
0.0066316589 -0.049737424 0.65472591
0.0062863664 -0.048719347 0.64430583
0.006204478 -0.049635857 0.64183462
0.0061290287 -0.050564483 0.63955772
0.0060630417 -0.051535845 0.63756639
0.0060025267 -0.052522108 0.63574016
0.0060399505 -0.054359555 0.63686955
0.0061353985 -0.056752414 0.63974988
0.0061162366 -0.058104277 0.63917172
0.0061550778 -0.060012028 0.64034384
0.012887741 0.067016274 0.76573551
0.012639793 0.063198954 0.75974953
0.012403417 0.059536368 0.75404292
0.012177084 0.056014597 0.74857873
0.011960864 0.052627772 0.74335873
0.011752795 0.049361736 0.73833549
0.011554883 0.046219528 0.73355746
0.011331871 0.043061107 0.72817343
0.011150802 0.040142864 0.72380209
0.010975379 0.037316322 0.719567
0.010805391 0.03457725 0.71546316
0.010640588 0.031921744 0.71148443
0.01048078 0.029346198 0.70762634
0.010328387 0.02685383 0.70394725
0.010181731 0.024436146 0.70040667
0.010039743 0.022087455 0.69697875
0.0099016624 0.019803345 0.69364518
0.0097673275 0.017581195 0.69040203
0.0096366266 0.015418619 0.68724668
0.0095105693 0.013314813 0.68420339
0.013131538 0.015757859 0.77162123
0.012959441 0.01295945 0.76746649
0.012766144 0.010212898 0.76279992
0.012575685 0.0075454116 0.75820184
0.01239064 0.0049562752 0.75373435
0.012208519 0.0024417043 0.74933767
0.012031731 -0 0.74506962
0.011859035 -0.002371788 0.74090034
0.011689697 -0.004675895 0.73681211
0.011525074 -0.0069150329 0.7328378
0.011361256 -0.0090889931 0.72888291
0.010916092 -0.010916084 0.71813571
0.010755361 -0.012906432 0.71425533
0.008542479 -0.011959463 0.66083163
0.0083932234 -0.013429165 0.65722829
0.0082703093 -0.014886558 0.65426087
0.0081560705 -0.016312122 0.65150291
0.0080505377 -0.017711163 0.64895505
0.0079462361 -0.019070953 0.64643705
0.0078125373 -0.020312577 0.64320928
0.0077071441 -0.021580011 0.64066482
0.0076045576 -0.022813708 0.63818824
0.0075046662 -0.02401495 0.63577658
0.007407343 -0.025184959 0.63342702
0.007312533 -0.026325136 0.63113809
0.0072201192 -0.027436435 0.62890697
0.0071393512 -0.02855739 0.62695706
0.0070775477 -0.029725701 0.62546504
0.0070171012 -0.030875236 0.62400568
0.0069735218 -0.032078207 0.62295365
0.0070139137 -0.03366679 0.62392879
