# .PCD v0.7 - Point Cloud Data file format
VERSION 0.7
FIELDS x y z
SIZE 4 4 4
TYPE F F F
COUNT 1 1 1
WIDTH 1314
HEIGHT 1
VIEWPOINT 0 0 0 1 0 0 0
POINTS 1314
DATA ascii
-0.046629433 2.9802322e-08 0.63049388
-0.04780658 -0.0014939904 0.63493437
-0.047865603 -0.0029916167 0.63515699
-0.047884643 -0.0044891834 0.63522875
-0.050895032 -0.006361872 0.64658463
-0.050562661 -0.007900387 0.64533085
-0.050666664 -0.0094999671 0.6457231
-0.052666556 -0.011520803 0.6532672
-0.05278445 -0.013196111 0.65371192
-0.052589059 -0.014790684 0.65297484
-0.052234955 -0.016323447 0.6516391
-0.051982276 -0.017868906 0.65068591
-0.051914856 -0.019468069 0.65043163
-0.052099995 -0.021165639 0.65112996
-0.052704353 -0.023058146 0.65340972
-0.052760445 -0.024731457 0.65362132
-0.052605476 -0.026302725 0.65303671
-0.052412782 -0.02784431 0.65230989
-0.052088302 -0.029299647 0.65108585
-0.051473252 -0.030562222 0.6487658
-0.050572082 -0.031607538 0.64536637
-0.050578792 -0.033192337 0.6453917
-0.051043168 -0.035092175 0.64714342
-0.0506965 -0.036438107 0.6458357
-0.050169278 -0.037626982 0.64384687
-0.050328553 -0.039319187 0.64444774
-0.044699207 0.0028838217 0.62865186
-0.044829685 0.0014460981 0.62915993
-0.044960797 -0 0.62967044
-0.046913963 -0.0015133321 0.63727587
-0.046829972 -0.00302127 0.63694882
-0.049910922 -0.0048300922 0.64894575
-0.049705561 -0.006413579 0.64814603
-0.049483716 -0.0079812407 0.64728224
-0.051469367 -0.0099618137 0.6550141
-0.051676851 -0.01166895 0.65582204
-0.051638663 -0.013326079 0.65567333
-0.051334292 -0.014903486 0.65448809
-0.051016867 -0.016457051 0.65325212
-0.050865628 -0.018049091 0.65266323
-0.050898679 -0.019702703 0.65279192
-0.051394165 -0.021552414 0.65472132
-0.051707342 -0.023351669 0.65594077
-0.051597439 -0.024966478 0.65551281
-0.051417332 -0.026537985 0.6548115
-0.051176943 -0.028064817 0.65387547
-0.050699536 -0.029438436 0.65201646
-0.049716555 -0.030471385 0.64818883
-0.049422387 -0.031885415 0.64704341
-0.050105363 -0.033942342 0.64970285
-0.049773507 -0.035323113 0.64841062
-0.049406648 -0.036656559 0.64698213
-0.048427746 -0.037492454 0.64317036
-0.048509534 -0.039120585 0.64348882
-0.048663091 -0.040814191 0.64408678
-0.042932652 0.0042932928 0.62734556
-0.043056909 0.0028704703 0.62784553
-0.043182008 0.0014394522 0.62834889
-0.043307591 -0 0.62885422
-0.043434154 -0.0014477968 0.62936348
-0.045870233 -0.0030580163 0.63916546
-0.048798021 -0.0048798025 0.65094596
-0.048479665 -0.0064639747 0.64966506
-0.048550382 -0.008091718 0.64994955
-0.050481107 -0.010096222 0.65771824
-0.050595794 -0.011805683 0.65817964
-0.050400261 -0.013440073 0.65739292
-0.05005138 -0.015015423 0.65598917
-0.049812205 -0.016604096 0.65502679
-0.049771577 -0.018249571 0.65486324
-0.049978551 -0.019991428 0.65569609
-0.05056528 -0.021911591 0.65805686
-0.050559148 -0.02359423 0.65803224
-0.050392475 -0.025196224 0.65736157
-0.050194308 -0.026770324 0.65656424
-0.049831059 -0.028237581 0.65510261
-0.049072567 -0.029443532 0.65205067
-0.048401814 -0.03065449 0.64935178
-0.049067914 -0.032711923 0.65203202
-0.048822299 -0.034175634 0.65104371
-0.048475437 -0.035548657 0.64964807
-0.047574066 -0.036473453 0.64602113
-0.047154561 -0.03772366 0.64433324
-0.047046233 -0.039205194 0.64389729
-0.046855908 -0.040608406 0.64313155
-0.047004096 -0.042303681 0.64372778
-0.041192297 0.0056817234 0.62605828
-0.041310627 0.0042735338 0.62655079
-0.041995827 0.0028962493 0.62940294
-0.042027697 0.0014492571 0.62953556
-0.041733004 -0 0.62830895
-0.041791059 -0.0014410317 0.62855059
-0.041912977 -0.0028905272 0.629058
-0.047581322 -0.0049221814 0.65265214
-0.047338702 -0.0065294802 0.65164226
-0.049236029 -0.0084889531 0.65953982
-0.049440872 -0.01022917 0.66039246
-0.049401984 -0.011924624 0.66023058
-0.049098421 -0.013544381 0.65896702
-0.048795938 -0.015143543 0.65770793
-0.04865833 -0.016778737 0.65713513
-0.048723847 -0.018481463 0.65740788
-0.0492693 -0.020387322 0.65967834
-0.049463622 -0.022173315 0.66048712
-0.049337484 -0.023818105 0.65996212
-0.049154308 -0.0254246 0.6591996
-0.048880428 -0.026968509 0.65805966
-0.048341732 -0.028338253 0.65581739
-0.04742891 -0.029438645 0.65201777
-0.047347814 -0.031020969 0.65168023
-0.047842056 -0.032994509 0.65373743
-0.047506392 -0.034401178 0.65234029
-0.046830099 -0.035526246 0.64952523
-0.046181902 -0.036627024 0.64682722
-0.046021804 -0.03808701 0.64616084
-0.045847747 -0.039523929 0.64543629
-0.045502122 -0.040794998 0.64399767
-0.045208666 -0.042090833 0.64277619
-0.045351092 -0.043787241 0.64336896
-0.039705258 0.0056721866 0.62577105
-0.03970357 0.0042539537 0.62576383
-0.041075408 0.002933979 0.63167793
-0.04096048 0.001462847 0.63118249
-0.040461507 -0 0.62903136
-0.040163178 -0.001434356 0.62774515
-0.046603356 -0.0033288002 0.65550947
-0.0462998 -0.004960686 0.65420079
-0.046338085 -0.0066197217 0.65436578
-0.048195485 -0.0086063147 0.66237324
-0.048306663 -0.010351419 0.66285253
-0.048111904 -0.012027979 0.66201293
-0.047769215 -0.013648331 0.66053557
-0.04755405 -0.015285194 0.65960801
-0.047529206 -0.016974717 0.6595009
-0.04779692 -0.018777341 0.66065502
-0.048290674 -0.020695984 0.66278362
-0.048246939 -0.02240032 0.66259503
-0.048080698 -0.024040371 0.66187841
-0.047869269 -0.025644243 0.66096687
-0.047451135 -0.027114958 0.65916431
-0.046530765 -0.028250813 0.65519649
-0.046179689 -0.029686958 0.65368301
-0.046825476 -0.031774461 0.65646702
-0.046507135 -0.033219367 0.65509462
-0.046147138 -0.034610331 0.65354264
-0.045220234 -0.03553018 0.64954662
-0.044968691 -0.036938548 0.64846224
-0.044846196 -0.038439572 0.6479342
-0.044550147 -0.039776921 0.64665788
-0.044100836 -0.040950745 0.64472079
-0.043626234 -0.042068154 0.6426748
-0.043567352 -0.043567389 0.64242095
-0.039367087 0.0072902143 0.63059896
-0.03849877 0.0057035685 0.62671691
-0.038111158 0.0042345822 0.62498403
-0.038219947 0.0028311014 0.6254704
-0.038329467 0.0014196038 0.62595999
-0.038439512 -0 0.62645197
-0.038550187 -0.0014277697 0.62694675
-0.045350179 -0.003359288 0.65734798
-0.045099173 -0.0050109923 0.6562258
-0.046899345 -0.0069480836 0.66427392
-0.047100954 -0.0087224245 0.66517526
-0.047061574 -0.010458142 0.66499919
-0.0467599 -0.012122929 0.66365051
-0.046473097 -0.013769776 0.66236824
-0.046349056 -0.015449703 0.66181374
-0.046452004 -0.017204434 0.662274
-0.047007862 -0.01915136 0.6647591
-0.047110643 -0.020938069 0.66521859
-0.046971574 -0.022615939 0.66459686
-0.046789862 -0.024261415 0.66378444
-0.046473421 -0.025818586 0.66236973
-0.045850091 -0.02717039 0.65958297
-0.045095712 -0.028393596 0.6562103
-0.045691453 -0.030460954 0.65887374
-0.045476738 -0.032002121 0.65791374
-0.045142271 -0.033438712 0.65641844
-0.044271398 -0.034433275 0.65252501
-0.04390309 -0.03577289 0.65087837
-0.043797053 -0.037308574 0.65040427
-0.043556441 -0.038716823 0.64932859
-0.043141663 -0.03994599 0.64747417
-0.042681519 -0.041100681 0.64541698
-0.042195342 -0.04219535 0.64324343
-0.041801441 -0.043349594 0.64148235
-0.041932486 -0.045038581 0.64206827
-0.037904076 0.0072892308 0.6305759
-0.03733569 0.0057439506 0.62793702
-0.037010666 0.0042704344 0.62642801
-0.036783688 0.0028294921 0.6253742
-0.036741506 0.0014131367 0.6251784
-0.036846403 2.9802322e-08 0.62566537
-0.03744315 -0.001440078 0.62843591
-0.044017933 -0.0033859611 0.65896082
-0.044023298 -0.0050795674 0.65898567
-0.045802642 -0.0070465803 0.6672467
-0.045909975 -0.0088288486 0.66774499
-0.045716856 -0.010550022 0.66684836
-0.045381632 -0.012218118 0.66529202
-0.045190096 -0.013904631 0.66440284
-0.045180526 -0.015639424 0.66435838
-0.045515794 -0.017506093 0.66591495
-0.045907866 -0.019422561 0.66773522
-0.045828622 -0.021151692 0.66736734
-0.045660533 -0.022830248 0.66658688
-0.045429964 -0.024462283 0.6655165
-0.044962067 -0.025939614 0.66334414
-0.044061616 -0.027114838 0.65916359
-0.04392549 -0.028720498 0.65853161
-0.04441407 -0.030748188 0.66079992
-0.044091634 -0.032220781 0.65930295
-0.043405361 -0.033388734 0.65611678
-0.042844143 -0.034604877 0.65351117
-0.042708132 -0.03613764 0.65287971
-0.042517606 -0.037611693 0.65199518
-0.042154305 -0.038911641 0.65030849
-0.041703504 -0.040099502 0.64821553
-0.041226935 -0.041226923 0.64600295
-0.040728848 -0.042295337 0.64369047
-0.040181503 -0.043272406 0.64114934
-0.040178027 -0.044813961 0.64113319
-0.03661757 0.0073235333 0.63140321
-0.036171686 0.005787462 0.62925029
-0.035925996 0.0043111444 0.62806398
-0.035645995 0.002851665 0.62671202
-0.035167869 0.0014067292 0.62440336
-0.035268012 2.9802322e-08 0.62488699
-0.043010674 -0.0017204285 0.66227186
-0.042755611 -0.0034204125 0.66104031
-0.044452298 -0.0053342581 0.66923261
-0.044649843 -0.0071439743 0.67018646
-0.044610035 -0.0089220107 0.66999424
-0.044311684 -0.01063481 0.66855371
-0.044041004 -0.012331486 0.6672467
-0.043930724 -0.014057845 0.66671425
-0.04406862 -0.0158647 0.66738009
-0.044602878 -0.01784116 0.66995966
-0.044646975 -0.019644648 0.67017257
-0.044496574 -0.021358341 0.66944635
-0.044310898 -0.023041666 0.6685499
-0.043958515 -0.024616748 0.66684842
-0.043140613 -0.02588436 0.66289926
-0.04270773 -0.027332962 0.66080904
-0.043309845 -0.029450685 0.66371638
-0.043007422 -0.030965328 0.66225612
-0.042656612 -0.032418996 0.66056222
-0.0417917 -0.033433348 0.65638608
-0.041576121 -0.034923911 0.6553452
-0.041440725 -0.036467791 0.6546914
-0.041131407 -0.037840843 0.65319788
-0.040691074 -0.039063424 0.65107179
-0.040229645 -0.040229648 0.64884382
-0.039746962 -0.041336864 0.64651322
-0.03922978 -0.042368144 0.64401609
-0.038322039 -0.042920709 0.63963312
-0.038440865 -0.044591397 0.64020681
-0.038560547 -0.046272665 0.64078474
-0.036036558 0.0090091228 0.63584781
-0.035371449 0.0073690414 0.63250256
-0.035028894 0.0058381259 0.63077968
-0.034808464 0.0043510795 0.62967092
-0.034444831 0.0028704107 0.62784207
-0.033794504 0.0014081001 0.62457114
-0.033703826 -0 0.62411511
-0.041631363 -0.0017346144 0.66398746
-0.041602805 -0.003466934 0.66384387
-0.043294858 -0.0054118633 0.67235422
-0.04339781 -0.0072329938 0.67287207
-0.04320731 -0.0090015233 0.67191392
-0.042881299 -0.010720313 0.6702742
-0.042712916 -0.012457937 0.66942734
-0.042717777 -0.014239252 0.66945171
-0.043115318 -0.016168237 0.67145121
-0.043408006 -0.018086702 0.67292333
-0.043296728 -0.019844353 0.67236364
-0.043127552 -0.021563739 0.67151272
-0.042863239 -0.023217589 0.67018336
-0.04232138 -0.024687469 0.667458
-0.041557163 -0.025973231 0.66361427
-0.042065948 -0.028043956 0.66617334
-0.041888691 -0.029671133 0.66528177
-0.041569393 -0.031177044 0.66367579
-0.040746093 -0.032257318 0.65953493
-0.040419277 -0.033682734 0.65789115
-0.040316418 -0.03527689 0.65737385
-0.040063277 -0.036724687 0.65610069
-0.039648328 -0.037996292 0.65401363
-0.039202433 -0.039202392 0.65177089
-0.038735442 -0.040349394 0.64942217
-0.038243726 -0.041430682 0.64694905
-0.036675565 -0.041260004 0.63906175
-0.036608033 -0.04270938 0.63872212
-0.036820292 -0.044491172 0.6397897
-0.036874559 -0.046093196 0.64006269
-0.036949217 -0.047726095 0.64043814
-0.034631062 0.0090341866 0.63635182
-0.034161266 0.0074263513 0.63388616
-0.033889454 0.0058938265 0.63245958
-0.033648074 0.0043888986 0.6311928
-0.033152461 0.0028828084 0.62859172
-0.032489989 0.0014126003 0.62511486
-0.032153755 2.9802322e-08 0.62335014
-0.032244749 -0.0014019608 0.6238277
-0.041886717 -0.0036422908 0.67443156
-0.04207908 -0.0054886043 0.67544115
-0.042039268 -0.0073111653 0.67523217
-0.041745864 -0.0090751946 0.67369235
-0.041492101 -0.010824054 0.67236054
-0.041402239 -0.01260069 0.67188895
-0.041564934 -0.014457375 0.67274278
-0.04207477 -0.016464055 0.67541856
-0.042057395 -0.018285841 0.6753273
-0.041904561 -0.020041287 0.6745252
-0.041706983 -0.021760136 0.67348826
-0.041299868 -0.023343414 0.67135161
-0.040451072 -0.024622411 0.66689688
-0.040258482 -0.026255518 0.6658861
-0.040733848 -0.028336585 0.66838098
-0.040427625 -0.029881269 0.66677386
-0.03975188 -0.031110168 0.66322732
-0.039265908 -0.032437027 0.66067684
-0.039153557 -0.034046561 0.66008717
-0.038949355 -0.035562456 0.65901542
-0.038573883 -0.036896765 0.65704489
-0.038143665 -0.038143665 0.65478694
-0.037688095 -0.039326698 0.65239596
-0.037206918 -0.040442318 0.64987063
-0.036577549 -0.041348547 0.64656752
-0.034927774 -0.041002184 0.63790905
-0.034910716 -0.042500019 0.63781947
-0.035790361 -0.045126975 0.64243615
-0.035614476 -0.046453655 0.64151299
-0.035253469 -0.047515512 0.63961834
-0.035343766 -0.049173892 0.64009225
-0.034211278 0.010885417 0.64231008
-0.033319883 0.0090872347 0.6374191
-0.032949563 0.0074885488 0.63538718
-0.032731377 0.0059511364 0.63419008
-0.032427073 0.0044218898 0.63252044
-0.03181443 0.002892226 0.62915891
-0.031216452 0.0014189184 0.62587792
-0.030700013 -0 0.62304425
-0.030703779 -0.0013956428 0.62306494
-0.040663641 -0.0036966801 0.67771316
-0.040761963 -0.0055584311 0.6782527
-0.040575203 -0.0073772967 0.67722791
-0.040265899 -0.0091513395 0.67553079
-0.040114321 -0.010940224 0.67469913
-0.040132456 -0.012769401 0.67479861
-0.040585376 -0.014758319 0.67728376
-0.040761814 -0.016675293 0.67825186
-0.04064082 -0.018473059 0.67758799
-0.040474057 -0.020237029 0.67667294
-0.040174343 -0.02191326 0.6750285
-0.039506488 -0.023344755 0.67136407
-0.038979091 -0.02480489 0.66847032
-0.039528336 -0.026951134 0.67148393
-0.039248433 -0.028544337 0.66994816
-0.03891075 -0.030067384 0.66809535
-0.038113851 -0.031184047 0.66372287
-0.037934043 -0.032761216 0.6627363
-0.037784174 -0.034349263 0.66191399
-0.037466399 -0.035763353 0.66017038
-0.037045643 -0.037045628 0.65786177
-0.036602803 -0.03826651 0.65543199
-0.036138125 -0.039423406 0.65288234
-0.03560131 -0.040456057 0.64993697
-0.033979479 -0.040157527 0.64103818
-0.033303853 -0.040872872 0.63733113
-0.033230159 -0.042292923 0.63692677
-0.033331688 -0.043937236 0.63748384
-0.034211174 -0.046651572 0.64230943
-0.033536714 -0.047256291 0.63860881
-0.03364012 -0.048931092 0.63917625
-0.032581389 0.010860473 0.64187992
-0.032041114 0.0091546178 0.63877434
-0.031748451 0.0075591505 0.63709211
-0.031541169 0.0060078204 0.63590062
-0.031104485 0.0044434965 0.63339043
-0.030467736 0.0029017031 0.62973034
-0.029931463 0.0014253259 0.62664777
-0.029464632 -0 0.62396437
-0.02917956 -0.0013894737 0.62232572
-0.029390048 -0.0027990341 0.62353563
-0.039339025 -0.0056198239 0.68072367
-0.039053764 -0.0074387789 0.67908394
-0.038817443 -0.0092422366 0.67772555
-0.038753733 -0.011072516 0.67735934
-0.038940873 -0.012980282 0.67843503
-0.039386652 -0.015004426 0.68099743
-0.039336521 -0.016858488 0.68070924
-0.039184254 -0.018659145 0.67983401
-0.038970046 -0.020412862 0.6786027
-0.038510572 -0.022006035 0.67596161
-0.037748672 -0.02336821 0.6715821
-0.03793196 -0.025287956 0.67263561
-0.038030807 -0.027164847 0.67320383
-0.037729967 -0.028746665 0.67147458
-0.036961909 -0.029921532 0.66705966
-0.03668306 -0.031442642 0.66545677
-0.036578979 -0.033095241 0.66485858
-0.036314137 -0.03458491 0.66333622
-0.035909925 -0.035909891 0.66101277
-0.035483554 -0.037173241 0.65856189
-0.035035849 -0.038372606 0.65598845
-0.034549475 -0.039485097 0.6531927
-0.032991815 -0.039275974 0.64423913
-0.032269701 -0.039952964 0.64008826
-0.031976856 -0.041113079 0.63840497
-0.031802453 -0.042403221 0.63740242
-0.031661775 -0.043723404 0.63659382
-0.031758334 -0.045369029 0.63714886
-0.031855579 -0.047024906 0.63770783
-0.031168291 0.010908902 0.64271522
-0.030761484 0.0092284381 0.64025992
-0.030544126 0.0076360703 0.63894802
-0.030273391 0.0060546696 0.63731396
-0.029724596 0.0044586957 0.63400173
-0.029141953 0.0029142201 0.63048518
-0.028642576 0.0014321208 0.62747115
-0.028215682 -0 0.62489462
-0.027866978 -0.001393348 0.62279004
-0.037992883 -0.0037992895 0.68390524
-0.037811149 -0.00567168 0.6828084
-0.037520666 -0.0075041056 0.68105513
-0.037384838 -0.0093461871 0.68023539
-0.037429586 -0.011228889 0.68050545
-0.037899498 -0.013264835 0.68334168
-0.037983079 -0.015193224 0.68384606
-0.037853338 -0.017033994 0.68306303
-0.037684988 -0.018842489 0.68204701
-0.037345495 -0.020539999 0.67999792
-0.036564033 -0.021938413 0.67528141
-0.036329612 -0.023614228 0.67386651
-0.036772694 -0.025740892 0.67654073
-0.036486045 -0.027364552 0.67481071
-0.035831276 -0.028664976 0.67085874
-0.035420485 -0.030107409 0.66837949
-0.03532172 -0.031789541 0.66778338
-0.035110056 -0.033354521 0.66650581
-0.034738325 -0.034738302 0.66426224
-0.034328982 -0.036045432 0.66179168
-0.033898488 -0.037288338 0.6591934
-0.033443078 -0.038459539 0.65644479
-0.031999297 -0.03839916 0.64773077
-0.031239808 -0.039049715 0.64314681
-0.030881854 -0.040146381 0.64098632
-0.030693645 -0.041436404 0.63985044
-0.030556157 -0.042778611 0.63902062
-0.030008044 -0.043511659 0.63571244
-0.0300992 -0.04514882 0.63626266
-0.030740693 -0.047648072 0.64013439
-0.030437388 0.012815744 0.64797252
-0.029802203 0.010979772 0.64393711
-0.029498523 0.0093153417 0.64200771
-0.029301321 0.0077108741 0.64075488
-0.02893056 0.0060906112 0.63839936
-0.028333299 0.0044736862 0.63460487
-0.027812663 0.0029276609 0.63129717
-0.027362932 0.0014401376 0.6284399
-0.026958669 -0 0.62587154
-0.027202193 -0.0014316738 0.6274187
-0.036498975 -0.003842026 0.68648303
-0.03622596 -0.0057198703 0.68474847
-0.036007799 -0.0075805783 0.68336242
-0.035968289 -0.009465307 0.68311143
-0.036211472 -0.011435211 0.68465638
-0.036559191 -0.013469189 0.68686551
-0.036479648 -0.015359849 0.68636018
-0.036328953 -0.017208457 0.68540281
-0.036083512 -0.018991321 0.68384343
-0.035561562 -0.020588279 0.68052745
-0.034969911 -0.022086263 0.67676854
-0.035454933 -0.024258643 0.67984998
-0.035200257 -0.025937051 0.67823195
-0.034879714 -0.027536631 0.6761955
-0.034158468 -0.028765023 0.67161328
-0.034013525 -0.030433148 0.67069244
-0.033853885 -0.032072127 0.66967827
-0.033529241 -0.033529192 0.66761565
-0.033137143 -0.034881175 0.6651246
-0.032721188 -0.036165535 0.66248196
-0.032281421 -0.03737846 0.65968806
-0.031043975 -0.037579536 0.65182626
-0.030211819 -0.038162321 0.64653945
-0.029757056 -0.039154023 0.64365029
-0.029558873 -0.040448964 0.64239115
-0.029439056 -0.041834444 0.64162993
-0.028900392 -0.042590052 0.63820767
-0.028370248 -0.04330194 0.63483959
-0.028456016 -0.044930547 0.63538444
-0.028888326 0.012839258 0.64832729
-0.028467476 0.011070698 0.64550507
-0.028231898 0.0094106495 0.64392525
-0.028000271 0.0077778995 0.64237189
-0.027515413 0.0061145723 0.63912034
-0.026952762 0.0044921339 0.63534713
-0.026473999 0.0029415488 0.63213652
-0.026068943 0.0014483035 0.62942016
-0.025718177 -0 0.62706786
-0.035080206 -0.0019488633 0.68985099
-0.034904823 -0.0038782954 0.68867487
-0.034634754 -0.0057724714 0.68686378
-0.034514502 -0.0076698959 0.68605733
-0.034589395 -0.0096081793 0.68655962
-0.03503013 -0.011676699 0.68951517
-0.03506054 -0.013634652 0.68971908
-0.034925666 -0.01552251 0.68881464
-0.03474807 -0.017374009 0.68762368
-0.03436923 -0.01909399 0.68508309
-0.0336456 -0.020561188 0.68023038
-0.033693809 -0.022462547 0.68055362
-0.033871464 -0.0244627 0.68174499
-0.033593021 -0.026127905 0.67987764
-0.032889243 -0.027407676 0.67515808
-0.032660607 -0.029031634 0.67362487
-0.032549888 -0.030741543 0.67288232
-0.032279123 -0.032279104 0.67106652
-0.031899441 -0.033671588 0.66852027
-0.031499475 -0.0349994 0.66583806
-0.031078178 -0.036257863 0.66301274
-0.030561332 -0.037352771 0.65954679
-0.029138241 -0.03723222 0.65000331
-0.028603271 -0.038137674 0.64641571
-0.02839254 -0.039434105 0.64500254
-0.026509689 -0.038291752 0.63237584
-0.026588652 -0.039882958 0.63290536
-0.02666817 -0.041483849 0.63343865
-0.026748084 -0.043094099 0.63397455
-0.027454164 0.012919575 0.64953971
-0.027127407 0.011170119 0.64721954
-0.026937632 0.0095074177 0.645872
-0.026631236 0.0078327358 0.64369643
-0.026076721 0.0061357021 0.63975906
-0.025576167 0.0045134127 0.63620478
-0.025147215 0.0029585063 0.63315892
-0.024765177 0.0014567673 0.63044631
-0.024977379 -0 0.631953
-0.033510342 -0.0019711852 0.69254243
-0.033251625 -0.003911972 0.69070536
-0.033052642 -0.0058327913 0.68929243
-0.033035312 -0.0077730119 0.68916941
-0.033326011 -0.0098017752 0.69123352
-0.033575289 -0.011850089 0.69300354
-0.023618663 -0.0097253025 0.62230527
-0.023659064 -0.011133641 0.62259209
-0.03305804 -0.017501295 0.68933076
-0.032378279 -0.019046068 0.68450409
-0.032093152 -0.020766139 0.6824795
-0.032497156 -0.022939175 0.68534815
-0.032234106 -0.02464959 0.68348032
-0.031629175 -0.026047528 0.67918497
-0.031282768 -0.027602434 0.67672521
-0.031190772 -0.029356033 0.676072
-0.03097474 -0.030974746 0.67453808
-0.030619059 -0.032420158 0.67201251
-0.030237557 -0.03379491 0.66930354
-0.029835276 -0.035100281 0.6664471
-0.029392587 -0.036308467 0.66330373
-0.028018646 -0.036259413 0.65354788
-0.027424779 -0.0371041 0.64933109
-0.027201578 -0.0384022 0.64774621
-0.025369294 -0.037307769 0.63473582
-0.024918476 -0.038110554 0.6315347
-0.02499235 -0.039693713 0.63205928
-0.025066735 -0.041286379 0.63258749
-0.025141491 -0.042888403 0.63311833
-0.026527952 0.014921993 0.65473592
-0.02604034 0.013020158 0.65105712
-0.025790686 0.011283427 0.64917362
-0.025597719 0.0095991492 0.64771777
-0.025176466 0.0078676343 0.64453965
-0.024639104 0.0061597526 0.64048564
-0.024188051 0.0045352578 0.63708264
-0.023805061 0.0029756427 0.63419324
-0.023459142 0.0014662147 0.63158345
-0.032012459 -0 0.69611323
-0.03184412 -0.0019902885 0.69484323
-0.031596903 -0.0039495826 0.6929782
-0.031492125 -0.0059047639 0.69218761
-0.031592917 -0.0078982115 0.69294804
-0.032000046 -0.0099999905 0.69601965
-0.022058079 -0.0082717836 0.62101328
-0.022106014 -0.0096713603 0.62137491
-0.022167776 -0.011083901 0.62184089
-0.031219613 -0.017561048 0.69013172
-0.03063694 -0.019148082 0.68573582
-0.031054432 -0.021349907 0.68888551
-0.03082818 -0.023121119 0.68717861
-0.030525498 -0.02480197 0.68489504
-0.029894022 -0.02615726 0.68013096
-0.029781369 -0.027920038 0.679281
-0.029615346 -0.029615313 0.67802846
-0.029296182 -0.031127214 0.67562056
-0.028933546 -0.032550246 0.6728847
-0.028550729 -0.033903986 0.66999656
-0.028140076 -0.035175085 0.66689837
-0.026861828 -0.035256147 0.65725482
-0.026226996 -0.036062121 0.65246534
-0.025976377 -0.037341028 0.65057456
-0.025834795 -0.038752198 0.64950645
-0.023796076 -0.037181377 0.63412547
-0.02362564 -0.03839165 0.63283962
-0.023415573 -0.039513767 0.63125479
-0.023480471 -0.041090816 0.63174438
-0.024974059 0.014984459 0.65557361
-0.024624513 0.013133049 0.65276068
-0.024440404 0.011405498 0.65127909
-0.02419303 0.0096772313 0.64928836
-0.023687035 0.0078957081 0.64521646
-0.023211891 0.0061898828 0.64139277
-0.022807779 0.0045615733 0.6381408
-0.022451431 0.0029935241 0.6352731
-0.02263274 0.0015088618 0.63673216
-0.030361449 -0 0.698928
-0.030119229 -0.0020079315 0.69697875
-0.029947611 -0.0039930046 0.69559765
-0.029942594 -0.0059885383 0.6955573
-0.030270468 -0.0080721378 0.69819582
-0.020817222 -0.0069390535 0.62212199
-0.020665271 -0.0082661211 0.6208992
-0.020632323 -0.0096284151 0.62063396
-0.020689767 -0.011034518 0.62109625
-0.020747475 -0.01244849 0.62156069
-0.029156165 -0.019437432 0.68922865
-0.029373771 -0.021540731 0.69097972
-0.029122565 -0.023298055 0.68895829
-0.028493797 -0.024694622 0.68389833
-0.028314071 -0.026426464 0.68245196
-0.028196635 -0.028196603 0.68150693
-0.027928658 -0.02979055 0.67935044
-0.0275854 -0.031263471 0.67658806
-0.027220529 -0.032664627 0.67365181
-0.026834445 -0.033990294 0.67054486
-0.025680223 -0.034240305 0.66125637
-0.025024271 -0.035033941 0.65597767
-0.024716634 -0.036251068 0.65350205
-0.021591004 -0.033106208 0.62834889
-0.022643803 -0.036230057 0.63682115
-0.022467697 -0.037446201 0.63540399
-0.022301462 -0.038655847 0.63406622
-0.02184476 -0.039320558 0.63039094
-0.021909101 -0.040896952 0.63090873
-0.02407803 0.017198622 0.66220331
-0.023467878 0.015086532 0.65694249
-0.023215344 0.013265938 0.65476501
-0.023049124 0.011524588 0.65333188
-0.022696044 0.009726882 0.65028757
-0.022190047 0.0079250336 0.64592475
-0.021771828 0.0062205195 0.64231884
-0.021414025 0.0045887232 0.63923371
-0.021092471 0.0030132532 0.6364612
-0.028776919 0.0020555258 0.70271802
-0.028616106 -0 0.7013315
-0.028394671 -0.0020281971 0.69942224
-0.028305406 -0.0040435791 0.69865251
-0.028426589 -0.0060913861 0.69969743
-0.028775265 -0.0082215071 0.70270377
-0.019606857 -0.0070024729 0.62365198
-0.019471316 -0.0083448589 0.62248337
-0.01933769 -0.0096687973 0.62133116
-0.01922486 -0.010985643 0.62035835
-0.019278243 -0.012393177 0.62081861
-0.019331926 -0.013808489 0.62128145
-0.027633658 -0.021712124 0.6928606
-0.02709087 -0.023220718 0.68818057
-0.026808862 -0.024893939 0.68574905
-0.019549783 -0.019549787 0.62315989
-0.0196051 -0.021005452 0.62363684
-0.019660564 -0.022469193 0.62411505
-0.025838301 -0.031375051 0.67738068
-0.025473362 -0.032751441 0.67423409
-0.024989553 -0.033914357 0.6700626
-0.023805387 -0.034007698 0.6598525
-0.023420956 -0.035131454 0.65653789
-0.020000571 -0.03142947 0.6270467
-0.020058356 -0.032953024 0.62754494
-0.020116534 -0.034485489 0.62804657
-0.020174993 -0.036026776 0.62855059
-0.020233853 -0.037577122 0.62905806
-0.020293053 -0.039136589 0.62956852
-0.022348799 0.01719138 0.66211629
-0.02198457 0.015220106 0.6587342
-0.02179474 0.013412148 0.65697163
-0.021589015 0.011624843 0.65506136
-0.021152202 0.0097625852 0.65100533
-0.020708559 0.0079648495 0.64688593
-0.020334123 0.00625664 0.64340913
-0.020007202 0.0046170652 0.64037353
-0.020158181 0.0031012595 0.64177543
-0.027038885 0.0020799041 0.70566583
-0.026815834 2.9802322e-08 0.70359468
-0.026671246 -0.0020515919 0.70225203
-0.026676716 -0.0041041076 0.70230287
-0.027024057 -0.006236285 0.70552808
-0.018518608 -0.0056980252 0.62655133
-0.018382695 -0.0070702434 0.6252892
-0.018254446 -0.0084251165 0.62409842
-0.018129794 -0.0097621679 0.62294096
-0.018030589 -0.011095762 0.62201977
-0.017932516 -0.012414783 0.62110913
-0.017871471 -0.013747275 0.62054235
-0.017921152 -0.015164077 0.62100363
-0.017971111 -0.016588748 0.62146753
-0.018021399 -0.018021405 0.62193447
-0.018071918 -0.019462049 0.6224035
-0.018122772 -0.020910889 0.62287575
-0.018173862 -0.022367865 0.62335014
-0.018225292 -0.023833066 0.6238277
-0.018276963 -0.025306582 0.62430751
-0.022530792 -0.032929629 0.6638062
-0.022087438 -0.033980668 0.65968943
-0.018851796 -0.030452907 0.62964511
-0.018684737 -0.031620294 0.62809384
-0.018539933 -0.032801419 0.62674928
-0.018593406 -0.034326315 0.62724584
-0.018647242 -0.035860062 0.62774569
-0.018701337 -0.03740266 0.62824798
-0.020755526 0.017296284 0.66338241
-0.020489706 0.01536727 0.66070843
-0.020337783 0.013558537 0.65918028
-0.020055994 0.011699319 0.65634567
-0.019598018 0.0097990334 0.65173876
-0.019212849 0.0080053806 0.64786428
-0.018884961 0.0062949955 0.64456594
-0.018592512 0.0046481192 0.64162415
-0.025359444 0.0042265952 0.70969421
-0.025208576 0.0021007359 0.70817661
-0.025014602 2.9802322e-08 0.70622534
-0.02494725 -0.0020789504 0.70554793
-0.025096046 -0.0041826963 0.70704472
-0.017394802 -0.0043486953 0.62957615
-0.017257016 -0.0057523251 0.62819016
-0.01713459 -0.0071393847 0.62695861
-0.017013887 -0.0085069239 0.6257444
-0.016911767 -0.0098651946 0.62471718
-0.016818257 -0.01121217 0.62377656
-0.016727313 -0.012545466 0.62286168
-0.016659645 -0.013883054 0.62218106
-0.016592568 -0.015209854 0.62150627
-0.016524391 -0.016524404 0.62082046
-0.016561037 -0.017941087 0.62118906
-0.016607255 -0.019375116 0.62165397
-0.016952783 -0.021190971 0.62512976
-0.016907528 -0.022543371 0.6246745
-0.016759904 -0.023743182 0.62318957
-0.016794829 -0.025192231 0.62354088
-0.016842365 -0.026667058 0.62401903
-0.016890215 -0.02815035 0.62450033
-0.01693834 -0.029642105 0.62498444
-0.016986644 -0.031142145 0.62547034
-0.01703532 -0.032651037 0.62595999
-0.017084276 -0.034168512 0.62645245
-0.017370597 -0.036188722 0.6293326
-0.019582115 0.019582152 0.66948617
-0.019181987 0.017438173 0.66509527
-0.018989205 0.015536606 0.66297972
-0.01882392 0.013690114 0.66116595
-0.018458651 0.011746436 0.6571576
-0.018053534 0.0098473728 0.65271199
-0.017714204 0.0080519319 0.64898831
-0.017421296 0.0063350201 0.64577395
-0.017542677 0.0047843754 0.64710593
-0.023527773 0.0042777658 0.71278459
-0.023327043 0.0021206439 0.7105819
-0.023208713 -2.9802322e-08 0.70928329
-0.023232026 -0.0021120012 0.70953918
-0.023545386 -0.0042809546 0.71297789
-0.016095476 -0.0043896437 0.63122481
-0.015976291 -0.0058095455 0.62991691
-0.015861832 -0.0072099268 0.62866086
-0.015756259 -0.0085943043 0.62750232
-0.015667764 -0.009970367 0.62653124
-0.015580214 -0.011331081 0.62557054
-0.015509923 -0.012689948 0.62479913
-0.015446503 -0.014042258 0.62410319
-0.015383385 -0.015383393 0.62341052
-0.01529073 -0.016680807 0.62239373
-0.015133364 -0.01788488 0.62066686
-0.015155617 -0.019288987 0.62091112
-0.01573891 -0.021462142 0.62731194
-0.015621827 -0.022722661 0.62602717
-0.015393022 -0.023789227 0.62351632
-0.015326028 -0.025078923 0.6227811
-0.015369209 -0.026546806 0.62325495
-0.015412721 -0.028023124 0.62373245
-0.015475602 -0.029544324 0.62442249
-0.015602916 -0.031205833 0.62581962
-0.015789118 -0.033013612 0.62786293
-0.016102586 -0.035132915 0.63130283
-0.017870909 0.019657999 0.6703189
-0.017601404 0.017601371 0.66706568
-0.0174616 0.01571545 0.66537809
-0.017243519 0.01379481 0.66274559
-0.016844938 0.011791468 0.65793431
-0.016498076 0.0098988712 0.65374732
-0.016205423 0.008102715 0.65021467
-0.015946517 0.0063786507 0.64708942
-0.021744234 0.0065232515 0.7170741
-0.021606583 0.0043213069 0.7154125
-0.021441219 0.0021441281 0.71341634
-0.021396203 -0 0.71287298
-0.021571279 -0.0021570921 0.71498632
-0.014895969 -0.0029791892 0.63440818
-0.014777583 -0.0044332743 0.63297915
-0.014669874 -0.0058679283 0.63167894
-0.014563723 -0.0072818696 0.63039762
-0.014479142 -0.0086874962 0.62937665
-0.014396902 -0.010077864 0.62838393
-0.014323666 -0.011458933 0.62749982
-0.01426417 -0.012837768 0.6267817
-0.014205169 -0.014205188 0.62606949
-0.014133863 -0.015547246 0.62520874
-0.014003369 -0.016804039 0.62363356
-0.013823014 -0.017969906 0.6214565
-0.013716835 -0.019203573 0.62017477
-0.013754881 -0.020632297 0.62063402
-0.013793179 -0.022069067 0.62109625
-0.013831651 -0.023513764 0.62156069
-0.013870376 -0.024966657 0.62202817
-0.014166117 -0.02691564 0.62559807
-0.014258927 -0.028517842 0.62671834
-0.014368169 -0.030173153 0.6280371
-0.014535083 -0.031977177 0.63005191
-0.014805699 -0.034053117 0.63331848
-0.016199186 0.019799024 0.67186624
-0.016014269 0.017793626 0.66938603
-0.01588513 0.015885144 0.66765404
-0.015590842 0.013858527 0.66370696
-0.015232597 0.011847556 0.65890205
-0.014934791 0.0099565387 0.65490776
-0.014680496 0.0081558526 0.65149713
-0.014773835 0.0065661371 0.652749
-0.01981183 0.0066039264 0.72032005
-0.019636801 0.0043637156 0.71797252
-0.019543821 0.0021715164 0.71672547
-0.019584959 -2.9802322e-08 0.71727723
-0.019852092 -0.0022057593 0.72086006
-0.013537068 -0.0030082464 0.63616109
-0.013435812 -0.0044786334 0.63480306
-0.013336889 -0.0059275031 0.63347626
-0.013250516 -0.007361412 0.63231778
-0.013174034 -0.0087826848 0.63129199
-0.013099574 -0.01018855 0.63029331
-0.01304391 -0.011594594 0.6295467
-0.012989093 -0.012989074 0.62881148
-0.012931019 -0.014367789 0.62803257
-0.012827587 -0.015678167 0.62664533
-0.012668019 -0.016890675 0.62450516
-0.012520999 -0.018085867 0.62253326
-0.012418516 -0.019317716 0.62115878
-0.012346505 -0.02057752 0.62019295
-0.012358839 -0.021971256 0.62035835
-0.012393157 -0.023409307 0.62081861
-0.012914849 -0.025829703 0.62781572
-0.013009431 -0.02746433 0.62908429
-0.01310514 -0.029122531 0.63036793
-0.013248995 -0.030914336 0.6322974
-0.013478843 -0.032948256 0.63538015
-0.014806961 0.022210449 0.67801768
-0.014536224 0.019987345 0.67393255
-0.014404355 0.018005461 0.67194283
-0.014244934 0.016025543 0.66953743
-0.013913199 0.013913184 0.66453189
-0.01361284 0.011911243 0.65999979
-0.013361693 0.01002124 0.6562103
-0.013141179 0.008213222 0.65288299
-0.017913541 0.00895679 0.72489238
-0.017794015 0.0066727698 0.72308886
-0.017657669 0.0044144094 0.72103155
-0.017631536 0.0022039413 0.72063726
-0.017817458 -0 0.72344255
-0.012255468 -0.0015319288 0.63951862
-0.012157463 -0.0030393898 0.63803989
-0.012066321 -0.0045248568 0.63666463
-0.011979867 -0.005989939 0.63536018
-0.011909507 -0.007443428 0.63429856
-0.011840004 -0.0088800192 0.63324976
-0.011783783 -0.010310769 0.63240147
-0.011733457 -0.011733443 0.6316421
-0.011683558 -0.013143986 0.63088918
-0.011604436 -0.014505535 0.6296953
-0.011469997 -0.01577124 0.62766683
-0.011325486 -0.016988218 0.62548631
-0.011222576 -0.018236667 0.62393349
-0.011148809 -0.019510388 0.6228205
-0.011108371 -0.020828187 0.62221032
-0.011114171 -0.022228301 0.62229776
-0.011234734 -0.023873776 0.62411696
-0.011725139 -0.026381552 0.63151664
-0.01180857 -0.028045356 0.63277549
-0.011929526 -0.02982381 0.63460058
-0.012128619 -0.031837612 0.63760471
-0.012651253 -0.034790933 0.64549053
-0.013032841 0.022341996 0.6793412
-0.012852354 0.020196527 0.67622888
-0.012750498 0.018215001 0.67447239
-0.012531389 0.016111761 0.67069399
-0.012229692 0.013976783 0.6654914
-0.011980744 0.011980772 0.66119838
-0.011770532 0.01008904 0.65757346
-0.011837765 0.0084555745 0.65873289
-0.015872456 0.0090699792 0.72830868
-0.015727203 0.0067402124 0.72580385
-0.0156583 0.0044737756 0.72461563
-0.015709499 0.0022442341 0.72549856
-0.015913345 -0 0.7290138
-0.010832316 -0.0015474558 0.64139456
-0.010749667 -0.0030713081 0.63996929
-0.010668269 -0.0045720935 0.6385656
-0.010601235 -0.0060578585 0.63740969
-0.010538271 -0.0075273514 0.63632387
-0.01048185 -0.0089844465 0.63535094
-0.010436344 -0.010436326 0.63456625
-0.010391448 -0.011875957 0.63379204
-0.010332437 -0.013284564 0.63277441
-0.010226516 -0.014609307 0.63094789
-0.010089821 -0.015855402 0.62859064
-0.0099861156 -0.01711902 0.62680233
-0.0099129137 -0.018409669 0.62554002
-0.0098701734 -0.019740343 0.62480295
-0.0098635033 -0.021136045 0.62468791
-0.0099398643 -0.022719681 0.62600476
-0.010404536 -0.025268167 0.63401771
-0.010475956 -0.02693817 0.63524932
-0.010579652 -0.028716207 0.63703752
-0.010747457 -0.030707031 0.6399312
-0.011121622 -0.033364832 0.6463834
-0.011542388 0.0250085 0.68681288
-0.011268071 0.022536129 0.68129402
-0.011148812 0.020439506 0.67889476
-0.011035944 0.018393278 0.67662394
-0.010784832 0.016177237 0.67157197
-0.010540672 0.014054239 0.66665983
-0.010338096 0.012061149 0.6625843
-0.010161733 0.010161728 0.65903616
-0.013847696 0.011539757 0.73319197
-0.013750212 0.0091668069 0.73123085
-0.013644659 0.0068223178 0.72910732
-0.013633569 0.0045445263 0.72888416
-0.013811638 0.0023019016 0.73246664
-0.0094608106 2.9802322e-08 0.64493477
-0.0093843043 -0.0015640557 0.6433956
-0.0093119424 -0.0031039715 0.64193976
-0.0092468355 -0.0046234131 0.64062989
-0.0091909822 -0.0061272979 0.63950622
-0.0091367448 -0.0076139569 0.63841504
-0.0090956921 -0.0090956986 0.6375891
-0.0090557178 -0.010565013 0.63678491
-0.0090117082 -0.012015581 0.63589948
-0.0089301905 -0.01339528 0.63425946
-0.0088098543 -0.014683127 0.63183856
-0.0087110288 -0.01597023 0.62985033
-0.0086421203 -0.017284214 0.62846392
-0.0085981619 -0.018629372 0.62757963
-0.0085840262 -0.020029396 0.62729526
-0.0086272685 -0.021568179 0.62816513
-0.0090460582 -0.024122804 0.63659054
-0.0091058454 -0.02579987 0.63779336
-0.0091935154 -0.027580559 0.63955712
-0.0093306964 -0.029547155 0.642317
-0.0096088843 -0.032029599 0.64791375
-0.0096429028 0.025071561 0.6873982
-0.0094854366 0.02276507 0.68359661
-0.0094049554 0.020690918 0.68165368
-0.0092604477 0.018520921 0.6781649
-0.0090266289 0.016247928 0.67252004
-0.0088355448 0.014136851 0.66790682
-0.0086752754 0.01214543 0.66403759
-0.0087188724 0.010462642 0.66509014
-0.011688823 0.011688828 0.73679113
-0.011580021 0.0092640519 0.7341643
-0.01153166 0.0069190264 0.73299688
-0.011584042 0.0046336651 0.73426139
-0.0080375019 0.0016075373 0.64864039
-0.0079675447 -0 0.6469515
-0.0079049347 -0.0015809834 0.64543986
-0.0078445049 -0.0031377971 0.64398098
-0.0077956421 -0.0046773851 0.6428014
-0.0077480078 -0.0061984062 0.64165139
-0.0077092107 -0.007709235 0.64071476
-0.0076747532 -0.0092096925 0.63988286
-0.0076406724 -0.010696948 0.63906008
-0.0075811446 -0.012129843 0.63762295
-0.0074841911 -0.013471544 0.63528228
-0.0073909741 -0.014781952 0.63303179
-0.0073270961 -0.016119599 0.63148969
-0.0072839819 -0.017481565 0.63044882
-0.0072660851 -0.018891811 0.63001668
-0.0072857002 -0.020399928 0.6304903
-0.0076464876 -0.022939444 0.63920045
-0.0076965932 -0.024629116 0.64041013
-0.0077685546 -0.026413083 0.64214742
-0.0078769838 -0.028357118 0.64476514
-0.0080938507 -0.030756652 0.65000075
-0.0077728946 0.025261879 0.68916577
-0.0076783053 0.02303493 0.68631124
-0.007606403 0.020917624 0.6841414
-0.0074394201 0.018598586 0.6791023
-0.0072626532 0.016340971 0.67376786
-0.0071170977 0.014234215 0.6693753
-0.0069914958 0.012235105 0.66558504
-0.0095242485 0.014286399 0.74201751
-0.0094534848 0.011816859 0.73988211
-0.0093808183 0.0093808174 0.73768914
-0.0093798069 0.007034868 0.73765862
-0.0095119374 0.004755944 0.74164605
-0.0064975731 0.0016244054 0.65067959
-0.0064443704 -0 0.64907402
-0.0063931951 -0.0015982985 0.64752966
-0.0063496884 -0.0031748414 0.64621675
-0.0063101701 -0.0047326088 0.64502412
-0.0062745414 -0.0062745512 0.64394897
-0.0062460112 -0.007807523 0.64308798
-0.0062183002 -0.0093274415 0.64225173
-0.0061782198 -0.010811895 0.64104223
-0.006105992 -0.012211978 0.63886255
-0.0060235364 -0.013552964 0.63637424
-0.0059655095 -0.014913768 0.63462311
-0.0059254705 -0.016295046 0.6334148
-0.005905922 -0.017717749 0.6328249
-0.0059157503 -0.019226193 0.63312149
-0.0062029017 -0.021710157 0.64178705
-0.0062477859 -0.023429185 0.64314151
-0.0063031148 -0.025212467 0.64481127
-0.0063879103 -0.027148604 0.64737016
-0.00654699 -0.029461473 0.65217084
-0.0060134209 0.028062612 0.69655931
-0.0058895987 0.025521606 0.69157708
-0.0058330237 0.023332119 0.68930066
-0.00575255 0.021092683 0.68606263
-0.0056037898 0.018679321 0.68007702
-0.0054799998 0.016440004 0.67509609
-0.005376366 0.014336973 0.67092621
-0.0053994572 0.012598753 0.67185527
-0.0072376262 0.014475256 0.74581748
-0.0071693547 0.011948913 0.74307048
-0.0071406038 0.0095207989 0.74191362
-0.0071934732 0.0071935058 0.74404091
-0.0049706968 0.0033137798 0.65460336
-0.0049270852 0.0016423464 0.65284848
-0.0048872055 -0 0.65124387
-0.0048502693 -0.0016167462 0.64975768
-0.0048195287 -0.0032129884 0.64852077
-0.0047898013 -0.0047897995 0.64732462
-0.0047669848 -0.0063559413 0.64640659
-0.0047450294 -0.0079083741 0.64552319
-0.0047199191 -0.009439826 0.64451277
-0.0046712575 -0.010899574 0.64255476
-0.0046050497 -0.012280136 0.63989079
-0.0045548016 -0.013664395 0.637869
-0.0045203324 -0.015067786 0.636482
-0.0045015169 -0.016505539 0.63572496
-0.0045041912 -0.018016756 0.63583261
-0.0045787538 -0.019841284 0.63883275
-0.0047565014 -0.022197008 0.64598477
-0.0047954475 -0.02397722 0.64755177
-0.0048583853 -0.025911391 0.65008426
-0.0049687885 -0.028156459 0.65452647
-0.0040318505 0.028222978 0.69794166
-0.0039714319 0.025814295 0.69429505
-0.0039361287 0.023616761 0.6921643
-0.0038534927 0.02119422 0.68717676
-0.0037572647 0.018786341 0.68136895
-0.003678648 0.016553909 0.676624
-0.0036114333 0.014445722 0.67256719
-0.0049179178 0.017212719 0.7514205
-0.0048793596 0.014638096 0.74909329
-0.0048432755 0.012108207 0.74691546
-0.0048469589 0.0096939504 0.74713773
-0.0049175555 0.0073763132 0.75139862
-0.0033498942 0.0033498704 0.65678191
-0.0033220926 0.0016610622 0.65510392
-0.003295128 -2.9802322e-08 0.65347648
-0.0032731309 -0.0016365647 0.65214884
-0.0032521863 -0.0032521784 0.65088475
-0.0032349343 -0.0048524141 0.64984345
-0.0032197693 -0.0064395368 0.64892828
-0.003204623 -0.0080115497 0.64801401
-0.0031762649 -0.0095287859 0.64630246
-0.0031314688 -0.010960162 0.64359879
-0.003093627 -0.01237449 0.6413148
-0.0030677367 -0.013804793 0.63975221
-0.0030519906 -0.015259981 0.63880187
-0.0030490984 -0.016770065 0.63862729
-0.0030766872 -0.018460125 0.64029241
-0.0032195519 -0.020927101 0.64891511
-0.0032450785 -0.022715539 0.65045571
-0.0032851654 -0.024638742 0.65287519
-0.0033553306 -0.026842624 0.65711004
-0.0020962877 0.031444341 0.70764226
-0.0020345824 0.028484166 0.7001937
-0.0020117834 0.026153207 0.69744164
-0.0019873169 0.023847818 0.69448829
-0.0019353764 0.02128917 0.68821853
-0.0018903788 0.018903762 0.68278682
-0.0018530772 0.016677737 0.67828417
-0.0018595855 0.014876693 0.67906976
-0.0024922614 0.017445832 0.75544047
-0.0024684088 0.014810473 0.75256121
-0.0024599866 0.012299925 0.75154459
-0.0024846992 0.0099387765 0.75452769
-0.001709494 0.0051285028 0.66095209
-0.0016943102 0.0033886433 0.65911925
-0.0016801665 0.0016801953 0.65741199
-0.0016677621 -0 0.6559146
-0.0016568659 -0.0016568601 0.65459937
-0.0016469839 -0.0032939315 0.65340644
-0.0016391228 -0.0049173534 0.65245759
-0.0016315121 -0.006526053 0.65153885
-0.0016195667 -0.0080978274 0.65009689
-0.0015982171 -0.0095892847 0.64751977
-0.001576767 -0.01103735 0.64493054
-0.0015623268 -0.012498617 0.64318746
-0.0015529779 -0.013976812 0.64205897
-0.0015498176 -0.015498191 0.64167744
-0.0015593763 -0.017153144 0.64283127
-0.0016348063 -0.019617677 0.65193647
-0.0016473418 -0.021415442 0.65344965
-0.001666379 -0.023329318 0.65574765
-0.0016996282 -0.025494426 0.65976119
0 0.031417966 0.70743036
0 0.028800011 0.70291698
0 0.026498169 0.70064491
0 0.023983479 0.69585276
0 0.021407396 0.68951607
0 0.019035757 0.68437988
0 0.016807735 0.6800282
0 0.020337015 0.76145947
0 0.017647505 0.75891769
0 0.015019238 0.75676191
0 0.012541324 0.75737238
0 0.01017195 0.76156408
0 0.0051867664 0.66329801
0 0.0034284294 0.66152048
0 0.0017002523 0.65984136
0 -2.9802322e-08 0.65846002
0 -0.0016779304 0.65714127
0 -0.0033388436 0.65611678
0 -0.0049843788 0.65515387
0 -0.0066058636 0.65394717
0 -0.0081603527 0.65160632
0 -0.009650141 0.64874393
0 -0.011143059 0.64675319
0 -0.01264742 0.64543331
0 -0.01418677 0.64487535
0 -0.015809894 0.64543998
0 -0.018266827 0.65505272
0 -0.020074934 0.65653658
0 -0.021986932 0.65875632
0 -0.0241189 0.66255569
0.0021115481 0.031673223 0.70948428
0.0020838815 0.029174358 0.70614469
0.0020609808 0.026792735 0.70338035
0.0020078761 0.024094522 0.69696999
0.0019586962 0.021545678 0.69103348
0.0019183178 0.019183189 0.68615937
0.0019234652 0.017311186 0.68678069
0.0025774287 0.020619422 0.76572108
0.0025523955 0.01786676 0.76269931
0.0025454098 0.015272468 0.76185608
0.0025781062 0.012890518 0.76580292
0.001765575 0.0070623159 0.66772163
0.0017496464 0.0052489638 0.6657989
0.0017345799 0.0034691691 0.66398025
0.0017220968 0.0017220974 0.66247338
0.0017105343 2.9802322e-08 0.66107762
0.0017008934 -0.0017009079 0.65991396
0.0016925107 -0.0033850372 0.65890205
0.0016837965 -0.0050514042 0.65785015
0.0016666955 -0.0066667795 0.65578586
0.0016416342 -0.0082081556 0.65276074
0.0016225392 -0.0097352564 0.65045571
0.0016099055 -0.011269331 0.64893073
0.0016037239 -0.01282981 0.64818454
0.0016066746 -0.014460087 0.64854074
0.0016867821 -0.016867816 0.65821058
0.0016992935 -0.018692225 0.65972078
0.0017174861 -0.020609856 0.66191685
0.0017477029 -0.022720128 0.66556436
0.004371759 0.034974068 0.71845698
0.0042698919 0.032024205 0.7123087
0.0042261812 0.029583305 0.70967048
0.0041521303 0.026988864 0.70520121
0.0040372997 0.024223775 0.6982705
0.0039449423 0.021697193 0.69269627
0.0038674471 0.019337237 0.68801904
0.0052622273 0.023680031 0.77220142
0.0052161464 0.020864606 0.76942027
0.0051809317 0.018133283 0.76729476
0.0051983716 0.015595138 0.76834738
0.0036081127 0.0090202987 0.6723668
0.0035731865 0.0071463883 0.67025876
0.0035417478 0.0053126216 0.66836131
0.0035133476 0.003513366 0.6666472
0.0034891786 0.0017445982 0.66518843
0.0034672606 -0 0.66386563
0.0034497143 -0.001724869 0.66280663
0.0034329097 -0.0034328997 0.6617924
0.0034037426 -0.0051056445 0.66003197
0.0033540037 -0.0067079961 0.65702999
0.0033101696 -0.0082754195 0.65438432
0.0032807391 -0.0098421872 0.65260804
0.0032642055 -0.01142472 0.65161014
0.0032664214 -0.013065666 0.65174389
0.0034257881 -0.015416026 0.66136253
0.0034534167 -0.017267078 0.66303003
0.0034889837 -0.019189417 0.66517675
0.0035467187 -0.021280289 0.66866136
0.0036882337 -0.023973525 0.67720252
0.0065934714 0.035165191 0.7198987
0.0064858114 0.032429069 0.71556681
0.0064186961 0.029953897 0.71286631
0.0062580304 0.027118146 0.70640165
0.0060964092 0.024385631 0.69989848
0.0059649595 0.021871537 0.69460934
0.0059756455 0.019918799 0.69503927
0.0080058267 0.024017483 0.77672756
0.0079268953 0.0211384 0.77355158
0.0079109371 0.018458873 0.77290952
0.0080243153 0.01604864 0.77747148
0.0054763812 0.0091272891 0.67495048
0.0054261773 0.0072349012 0.67293048
0.0053791981 0.0053792298 0.67104012
0.0053402539 0.0035601556 0.66947317
0.0053039491 0.001767993 0.66801238
0.0052753738 -0 0.66686255
0.0052492148 -0.001749754 0.66580999
0.0052130288 -0.0034753382 0.66435397
0.0051429607 -0.0051429272 0.66153467
0.0050682747 -0.0067577064 0.65852952
0.0050188773 -0.0083647966 0.65654194
0.0049882722 -0.009976536 0.65531051
0.0049819318 -0.011624515 0.6550554
0.0050447513 -0.013452679 0.65758306
0.0052666194 -0.01579985 0.66651028
0.0053170817 -0.01772359 0.66854078
0.0053993599 -0.019797623 0.6718514
0.0055836542 -0.022334605 0.67926681
0.0088785356 0.035514176 0.72253144
0.0087722605 0.032895982 0.71932429
0.0086375605 0.030231476 0.71525943
0.008387154 0.027258247 0.7077027
0.0081861624 0.024558485 0.70163721
0.0080192443 0.022052944 0.69660002
0.010906233 0.027265579 0.78372264
0.010805195 0.024311662 0.78067356
0.010736163 0.021472305 0.77859032
0.01079587 0.018892765 0.78039211
0.007466285 0.011199445 0.67991304
0.0073929518 0.0092411935 0.67769998
0.0073257079 0.0073257089 0.67567068
0.0072682183 0.005451113 0.67393583
0.007216902 0.0036084652 0.67238724
0.007173575 0.0017934144 0.67107975
0.0071365116 2.9802322e-08 0.66996121
0.0070960275 -0.0017739832 0.6687395
0.0070133251 -0.0035066605 0.66624373
0.0069031888 -0.0051773787 0.66292012
0.0068275025 -0.0068274736 0.66063601
0.0067793531 -0.0084741712 0.65918303
0.0067624487 -0.010143638 0.65867287
0.0068131853 -0.011923075 0.66020399
0.0071414006 -0.014282793 0.67010874
0.0072051333 -0.01621151 0.672032
0.0073127528 -0.018281847 0.67527974
0.0075346143 -0.020720154 0.68197501
0.011467071 0.038988054 0.7314375
0.011233466 0.035947084 0.72579777
0.011118145 0.033354431 0.72301376
0.010852404 0.030386716 0.71659815
0.010556537 0.027447015 0.70945525
0.010318164 0.024763614 0.70370042
0.010326724 0.022718817 0.70390707
0.013832462 0.02766493 0.78854305
0.013693755 0.024648756 0.78519446
0.013676912 0.02188307 0.78478771
0.013886592 0.019441247 0.78984994
0.0094477534 0.01133731 0.68268687
0.0093596717 0.0093596578 0.68056035
0.0092785135 0.0074228048 0.67860109
0.0092105698 0.005526334 0.67696077
0.0091497004 0.003659904 0.67549121
0.009100276 0.0018200576 0.67429805
0.0090536438 2.9802322e-08 0.67317218
0.0089645274 -0.0017929375 0.67102075
0.0088208402 -0.0035283267 0.66755188
0.0087109488 -0.0052265525 0.66489881
0.0086409375 -0.0069127679 0.6632086
0.0086109275 -0.008610934 0.66248417
0.0086455951 -0.010374695 0.66332102
0.0090809194 -0.012713313 0.67383075
0.0091595156 -0.014655203 0.6757282
0.0092885382 -0.016719341 0.67884308
0.0095402002 -0.0190804 0.6849187
0.013871818 0.039303511 0.73367733
0.013674553 0.036465466 0.72970879
0.013489788 0.033724457 0.72599149
0.01308903 0.030541092 0.71792889
0.012758395 0.027643204 0.71127701
0.012488363 0.02497673 0.70584428
0.016975129 0.031121045 0.79611111
0.016808616 0.028014332 0.79276121
0.016707681 0.025061518 0.79073054
0.016857317 0.022476435 0.79374099
0.011601803 0.01353547 0.68800819
0.011485687 0.011485696 0.6856721
0.011379331 0.0094827712 0.68353236
0.011290446 0.0075269938 0.6817441
0.011209505 0.005604744 0.68011576
0.011145046 0.0037150085 0.67881888
0.011087584 0.0018479526 0.67766285
0.010998948 -0 0.67587966
