# .PCD v0.7 - Point Cloud Data file format
VERSION 0.7
FIELDS x y z
SIZE 4 4 4
TYPE F F F
COUNT 1 1 1
WIDTH 1334
HEIGHT 1
VIEWPOINT 0 0 0 1 0 0 0
POINTS 1334
DATA ascii
-0.054817516 0.03445673 0.64365673
-0.055065379 0.033039242 0.64451158
-0.055336114 0.031620651 0.64544535
-0.055632841 0.03020069 0.6464687
-0.055959582 0.028779238 0.64759558
-0.056321505 0.027356148 0.64884382
-0.056725409 0.025931627 0.65023685
-0.057181228 0.024506241 0.65180898
-0.057701983 0.023080796 0.65360498
-0.058307927 0.021657228 0.65569478
-0.059026629 0.020237714 0.6581735
-0.059483148 0.018694729 0.65974796
-0.059707854 0.017059416 0.66052294
-0.060012311 0.015431762 0.66157299
-0.060656674 0.013864398 0.66379529
-0.064392574 0.060604781 0.68321174
-0.064480677 0.05879119 0.68352461
-0.064168878 0.056619614 0.68241757
-0.064310543 0.054853112 0.68292052
-0.065385751 0.053847104 0.6867379
-0.065565929 0.052067071 0.68737757
-0.065719426 0.050256014 0.68792254
-0.065829284 0.048403889 0.68831259
-0.052966136 0.037387878 0.64264435
-0.053151976 0.035955727 0.64330411
-0.05335518 0.034523934 0.64402556
-0.053577829 0.033092171 0.64481604
-0.053826343 0.031662554 0.64569831
-0.054100223 0.030232459 0.6466707
-0.054400545 0.028800309 0.64773691
-0.054731503 0.027365714 0.64891195
-0.055098616 0.025928766 0.65021527
-0.055508874 0.024489224 0.65167189
-0.055972576 0.023047537 0.65331817
-0.056503523 0.021604329 0.65520322
-0.057122789 0.020160973 0.6574018
-0.057814658 0.018704772 0.65985811
-0.058144651 0.017101407 0.6610297
-0.05836207 0.015448779 0.66180158
-0.058749847 0.013823509 0.66317832
-0.062390275 0.064280897 0.68281531
-0.062255017 0.062254995 0.68232054
-0.062581338 0.060684949 0.68351418
-0.062861048 0.059051275 0.68453729
-0.062867746 0.05715248 0.68456185
-0.06259653 0.055009067 0.68356967
-0.062789097 0.053275615 0.68427408
-0.063823484 0.052219212 0.68805778
-0.051777307 0.040794253 0.64399409
-0.051394228 0.038935035 0.64259279
-0.051542945 0.037485808 0.64313686
-0.051708069 0.036038965 0.64374077
-0.051896263 0.034597516 0.64442921
-0.052102268 0.033156008 0.64518279
-0.052327488 0.031713635 0.64600658
-0.052574243 0.03027004 0.64690924
-0.052848354 0.028826386 0.64791191
-0.053151846 0.027381271 0.64902204
-0.053486556 0.025932908 0.65024638
-0.053858157 0.024481028 0.65160561
-0.054274186 0.023025393 0.65312743
-0.0547451 0.021566272 0.65485001
-0.055286396 0.02010417 0.65683001
-0.055941984 0.018647343 0.65922803
-0.056525316 0.017128885 0.66136181
-0.056786977 0.015487373 0.66231894
-0.057035901 0.013826936 0.66322947
-0.057488661 0.012194574 0.66488564
-0.060024284 0.065651566 0.68102205
-0.05913597 0.062831968 0.67767113
-0.059462536 0.061320752 0.67890298
-0.060738117 0.060738146 0.68371475
-0.061053555 0.059145629 0.68490463
-0.061290067 0.057459444 0.68579686
-0.061194256 0.055457294 0.68543541
-0.061027724 0.053399235 0.68480724
-0.049880452 0.042086631 0.64275742
-0.049869422 0.04051891 0.64271581
-0.049985562 0.039051235 0.64315391
-0.050122008 0.037591517 0.64366865
-0.050273247 0.036133885 0.64423907
-0.050439853 0.034677416 0.64486754
-0.050625652 0.033223122 0.64556849
-0.050833791 0.031771123 0.6463536
-0.051061559 0.030317783 0.6472128
-0.051310938 0.028862417 0.64815348
-0.051584858 0.027404457 0.64918685
-0.051887266 0.025943637 0.6503275
-0.052224558 0.024480283 0.65159982
-0.052600116 0.023012549 0.65301651
-0.053021293 0.021539897 0.65460533
-0.053504813 0.020064294 0.65642923
-0.054068711 0.018586099 0.6585564
-0.054741211 0.017106622 0.66109324
-0.055198856 0.015524685 0.6628195
-0.055411089 0.013852775 0.66362005
-0.055694029 0.0121831 0.6646874
-0.056293406 0.010555029 0.66694838
-0.057695612 0.067001373 0.67925841
-0.057546847 0.064972252 0.67867911
-0.05757739 0.063149393 0.67879808
-0.057617601 0.061334878 0.67895466
-0.057982024 0.059852451 0.68037367
-0.059202518 0.059202522 0.68512619
-0.059507094 0.057587504 0.6863122
-0.049037397 0.045873702 0.64554429
-0.048221339 0.043554753 0.64236665
-0.048384093 0.04214099 0.64300042
-0.048479665 0.040660381 0.64337254
-0.048582766 0.039179653 0.64377403
-0.048699759 0.037703067 0.64422959
-0.048835296 0.03623265 0.64475739
-0.048988614 0.034766108 0.64535433
-0.049157374 0.033300132 0.64601147
-0.04934283 0.031834126 0.64673358
-0.049549796 0.030369222 0.6475395
-0.049779419 0.02890417 0.64843363
-0.050031181 0.027436435 0.649414
-0.050308011 0.025965422 0.65049195
-0.050613511 0.024490416 0.65168154
-0.05095268 0.02301091 0.6530022
-0.051332418 0.021526486 0.65448087
-0.051762216 0.020037025 0.65615439
-0.052254841 0.018542051 0.65807265
-0.052830063 0.017041922 0.66031253
-0.053482927 0.015527308 0.66285467
-0.05381358 0.013887376 0.66414225
-0.054017853 0.012197584 0.66493762
-0.054374799 0.010524184 0.66632754
-0.055402324 0.068329543 0.67751968
-0.054049782 0.064859748 0.67207748
-0.055742197 0.065032601 0.67888719
-0.056001522 0.063468367 0.67993069
-0.055983771 0.061582178 0.67985922
-0.056091715 0.059831172 0.68029356
-0.056549206 0.058434218 0.68213439
-0.047628406 0.047628433 0.64623982
-0.046348955 0.044803977 0.6410917
-0.046683807 0.043571532 0.64243901
-0.046951905 0.042256683 0.64351779
-0.047086075 0.040807962 0.64405763
-0.047175903 0.039313227 0.64441907
-0.047281552 0.037825257 0.64484423
-0.047400847 0.036340654 0.64532417
-0.047534291 0.034858495 0.64586115
-0.047688931 0.033382237 0.64648342
-0.047859531 0.031906337 0.64716977
-0.048046879 0.030429691 0.64792359
-0.048252605 0.028951555 0.64875138
-0.048481073 0.027472645 0.64967066
-0.048734806 0.025991946 0.65069163
-0.04901376 0.024506897 0.65181404
-0.049322005 0.02301693 0.65305436
-0.049664535 0.0215213 0.65443259
-0.050048709 0.020019501 0.65597838
-0.050484166 0.018510848 0.65773052
-0.050984342 0.016994774 0.65974307
-0.051586911 0.015476078 0.66216761
-0.052155282 0.013908088 0.66445458
-0.052407846 0.012228489 0.66547078
-0.052637376 0.010527432 0.66639435
-0.053054299 0.0088424087 0.66807193
-0.053144842 0.069638103 0.67580998
-0.051856752 0.06616208 0.67044842
-0.051956836 0.064498127 0.670865
-0.053771503 0.064896643 0.6784184
-0.054229692 0.063579649 0.68032563
-0.054431286 0.061939061 0.68116474
-0.046252415 0.051037163 0.64712071
-0.045990154 0.049161881 0.64602906
-0.044699095 0.046240449 0.6406551
-0.044854265 0.044854283 0.64130098
-0.045100186 0.043545008 0.64232463
-0.045428328 0.042295337 0.64369053
-0.045659475 0.040936083 0.64465261
-0.0457698 0.039456725 0.6451118
-0.045857746 0.037951231 0.64547789
-0.045965534 0.036455423 0.64592659
-0.046087001 0.034962565 0.64643216
-0.046222504 0.033471465 0.6469962
-0.046373624 0.031981796 0.64762521
-0.046545733 0.030495495 0.64834166
-0.046734773 0.029007822 0.64912856
-0.046942212 0.027517825 0.64999193
-0.047169887 0.026024789 0.65093958
-0.047421157 0.024528205 0.65198553
-0.047701925 0.023028523 0.65315419
-0.048012391 0.02152279 0.65444648
-0.048357848 0.020010173 0.65588439
-0.048745781 0.018489808 0.65749919
-0.049186628 0.016960889 0.65933418
-0.049707111 0.015426338 0.66150063
-0.050328292 0.01388365 0.66408628
-0.050781477 0.012257606 0.66597265
-0.050983097 0.010548234 0.66681188
-0.051243804 0.0088351667 0.66789705
-0.05179641 0.0071443319 0.67019725
-0.050921354 0.070926189 0.67412472
-0.049696509 0.067445278 0.66884434
-0.049666557 0.065630823 0.66871518
-0.049991947 0.064275324 0.67011797
-0.050530888 0.063163608 0.67244148
-0.0522677 0.06346792 0.67992902
-0.044361264 0.052282929 0.64584357
-0.04342879 0.049632937 0.64182365
-0.043307431 0.047947526 0.64130044
-0.043317609 0.046411753 0.64134431
-0.043408606 0.044958919 0.64173663
-0.04357589 0.043575883 0.64245778
-0.043836586 0.042270988 0.64358163
-0.044155598 0.041001648 0.64495695
-0.0443388 0.039588213 0.64574671
-0.044438936 0.038090527 0.64617842
-0.044528767 0.036577195 0.64656568
-0.044634454 0.035069942 0.64702129
-0.044757798 0.033568352 0.64755303
-0.044894911 0.032067806 0.64814419
-0.045046624 0.030567348 0.64879823
-0.045216002 0.029067427 0.64952838
-0.04540636 0.027568161 0.65034914
-0.045615107 0.026065797 0.65124899
-0.045844376 0.024559498 0.65223742
-0.046096887 0.02304846 0.65332603
-0.046376277 0.02153185 0.65453047
-0.046686914 0.020008683 0.65586972
-0.047035187 0.018478096 0.65737116
-0.047429927 0.016939253 0.65907288
-0.047883011 0.015390992 0.66102612
-0.048412323 0.013832062 0.66330808
-0.049022671 0.012255669 0.66593939
-0.0493499 0.010574996 0.66735005
-0.049540114 0.008846432 0.66817009
-0.049865611 0.0071236789 0.66957337
-0.048731487 0.072194785 0.67246497
-0.047567971 0.068709314 0.66726315
-0.046983179 0.066124499 0.66464871
-0.047882229 0.065616399 0.66866815
-0.048184853 0.064246505 0.67002112
-0.043421067 0.056286573 0.6487233
-0.043163996 0.054354668 0.64757401
-0.043042559 0.052607566 0.64703113
-0.042719852 0.050630957 0.6455884
-0.042053618 0.048283786 0.64260983
-0.041974958 0.046638846 0.64225817
-0.042000145 0.045111299 0.6423707
-0.042103026 0.043662399 0.64283067
-0.042281579 0.042281568 0.64362895
-0.042555943 0.040979803 0.64485556
-0.042843815 0.039670229 0.64614254
-0.043002967 0.038224846 0.64685416
-0.043092947 0.036708802 0.64725637
-0.043184966 0.035187781 0.64766777
-0.043289859 0.033669889 0.64813673
-0.043412831 0.03215766 0.64868653
-0.043551385 0.030647278 0.649306
-0.043704532 0.02913636 0.64999062
-0.043873146 0.027623832 0.65074456
-0.044061024 0.026110232 0.65158445
-0.044270676 0.024594843 0.65252173
-0.044501081 0.023074627 0.65355182
-0.044754945 0.021548688 0.65468681
-0.045036029 0.020016015 0.65594345
-0.045348961 0.018475503 0.65734255
-0.045700263 0.01692602 0.65891308
-0.046098851 0.015366316 0.66069508
-0.046557501 0.01379481 0.66274559
-0.047104731 0.012212336 0.66519213
-0.047652535 0.010589451 0.66764128
-0.047893774 0.0088692307 0.66871977
-0.048103362 0.0071264505 0.66965675
-0.048483495 0.0053870678 0.67135632
-0.044418011 0.066627026 0.66081828
-0.044374075 0.064854443 0.66061425
-0.042620126 0.06065172 0.65247118
-0.042315554 0.0585908 0.65105712
-0.042076591 0.056641579 0.64994764
-0.041888002 0.054776639 0.64907211
-0.04176214 0.053005785 0.64848781
-0.041644096 0.051254243 0.64793974
-0.040972315 0.048851639 0.64482081
-0.040686179 0.046945602 0.6434924
-0.040628742 0.045316696 0.64322573
-0.040668115 0.04379642 0.64340854
-0.04078209 0.04235065 0.64393771
-0.040971022 0.040971041 0.64481485
-0.041258316 0.039671481 0.64614868
-0.041514926 0.038321465 0.64734006
-0.041650761 0.036844879 0.64797068
-0.041731864 0.03531161 0.6483472
-0.041825648 0.033782244 0.64878267
-0.041932289 0.03225559 0.64927769
-0.042052105 0.030730397 0.64983404
-0.042191762 0.029209673 0.65048242
-0.042345718 0.027687579 0.6511972
-0.042515382 0.02616334 0.65198487
-0.042702243 0.024635911 0.65285242
-0.042908866 0.023104787 0.65381169
-0.0431398 0.021569908 0.65488386
-0.043394502 0.020028234 0.65606636
-0.043676704 0.018478602 0.65737653
-0.043991141 0.016919672 0.65883642
-0.044344731 0.015350103 0.660478
-0.044746641 0.013768196 0.66234398
-0.045217738 0.01217401 0.66453117
-0.045785718 0.010565966 0.66716814
-0.046224646 0.0088893473 0.66920596
-0.04641778 0.0071412027 0.6701026
-0.046655495 0.0053833425 0.67120624
-0.047159839 0.0036276877 0.67354774
-0.042687763 0.064885408 0.66071272
-0.042921681 0.063524097 0.66184211
-0.041142501 0.059245229 0.65325147
-0.040858541 0.057201952 0.65188038
-0.040641233 0.055272102 0.65083116
-0.040462315 0.053410262 0.64996725
-0.040347077 0.051644266 0.64941084
-0.040231068 0.049886554 0.64885068
-0.039504949 0.047405928 0.64534473
-0.03930584 0.045594811 0.64438331
-0.039268449 0.043980658 0.64420277
-0.039321281 0.042466998 0.64445782
-0.0394454 0.041023225 0.64505714
-0.039645176 0.039645195 0.64602178
-0.039941013 0.0383434 0.64745021
-0.040169444 0.036955923 0.64855313
-0.040276274 0.035443127 0.64906895
-0.040355276 0.033898383 0.64945042
-0.040450539 0.032360435 0.64991045
-0.040558614 0.030824542 0.65043223
-0.040679697 0.029289395 0.65101689
-0.040815484 0.027754515 0.65167248
-0.04097015 0.026220918 0.65241933
-0.041140471 0.02468428 0.65324169
-0.041327909 0.023143619 0.65414667
-0.041534293 0.021597832 0.65514326
-0.041762121 0.020045817 0.65624326
-0.04201531 0.018486738 0.65746582
-0.042297889 0.016919136 0.65883023
-0.042613309 0.015340805 0.66035312
-0.042970337 0.013750494 0.66207707
-0.043382242 0.012147039 0.66406596
-0.043864023 0.010527372 0.66639215
-0.04442846 0.0088856816 0.66911751
-0.044747435 0.0071595907 0.67065763
-0.044922598 0.0053907633 0.67150337
-0.045216184 0.0036173165 0.67292094
-0.04122759 0.063559204 0.66195667
-0.041454878 0.062182307 0.66309983
-0.039661165 0.057839155 0.65407819
-0.039389398 0.05580163 0.65271127
-0.039192837 0.053890139 0.65172267
-0.039030042 0.052040011 0.65090388
-0.03891835 0.050269514 0.65034211
-0.038794007 0.048492521 0.64971668
-0.038075298 0.046007663 0.64610195
-0.037912298 0.044231027 0.64528209
-0.037899017 0.042636395 0.64521527
-0.037966117 0.041129977 0.64555275
-0.038101878 0.039689451 0.64623559
-0.038319267 0.03831926 0.64732897
-0.038605686 0.036997139 0.6487695
-0.038793631 0.035560817 0.64971483
-0.038886212 0.03402546 0.65018046
-0.038964946 0.032470793 0.65057647
-0.039059367 0.030922025 0.65105134
-0.039168421 0.029376328 0.65159988
-0.039290424 0.02783072 0.65221351
-0.039425869 0.02628392 0.65289474
-0.039577246 0.024735749 0.65365607
-0.039747808 0.023186237 0.6545139
-0.039935373 0.021631628 0.65545732
-0.040142026 0.02007103 0.65649676
-0.04037036 0.0185031 0.65764511
-0.040623415 0.016926408 0.65891796
-0.04090571 0.015339673 0.66033775
-0.04122306 0.013741046 0.6619339
-0.041583788 0.012128621 0.66374826
-0.041999009 0.010499775 0.66583663
-0.042490147 0.0088521242 0.66830683
-0.043010466 0.0071684122 0.67092383
-0.043238893 0.0054048896 0.67207277
-0.043427471 0.0036189556 0.67302126
-0.043769851 0.0018237233 0.67474324
-0.041920587 0.06743744 0.67460936
-0.039749686 0.062216878 0.66321576
-0.039970163 0.060824126 0.66437292
-0.038170356 0.05642575 0.65492702
-0.037907705 0.054389328 0.65354854
-0.037731096 0.05249548 0.65262163
-0.037584089 0.050656855 0.65185016
-0.037475899 0.04888159 0.65128231
-0.037330508 0.047068894 0.65051925
-0.036634255 0.044598222 0.64686513
-0.036517892 0.042868823 0.64625442
-0.036523685 0.041287631 0.64628482
-0.036601283 0.039784014 0.6466921
-0.03674655 0.038344234 0.6474545
-0.036975123 0.036975175 0.6486541
-0.037245572 0.035626203 0.65007347
-0.037396982 0.034145087 0.65086818
-0.037480049 0.032591343 0.65130413
-0.037560295 0.031028062 0.65172523
-0.037652459 0.029467165 0.65220892
-0.037761677 0.027910799 0.6527822
-0.03788412 0.026354194 0.65342474
-0.038020041 0.024795651 0.65413821
-0.03817023 0.023234069 0.65492642
-0.038337186 0.021668851 0.65580261
-0.038524561 0.020099759 0.65678596
-0.038730968 0.018523514 0.65786928
-0.038958982 0.016938686 0.65906596
-0.039211988 0.015343845 0.66039383
-0.039494589 0.013737261 0.66187698
-0.039812528 0.012116849 0.66354561
-0.040174577 0.010480314 0.6654458
-0.040594902 0.0088249743 0.66765177
-0.041107349 0.0071491003 0.67034125
-0.041526239 0.0054164827 0.67253965
-0.041708644 0.0036268532 0.67349702
-0.041922573 0.00182271 0.67461973
-0.042376891 -0 0.67700416
-0.040205158 0.065790266 0.67519754
-0.038253851 0.060858428 0.66449106
-0.038467336 0.059449524 0.66566241
-0.036666811 0.055000246 0.65578318
-0.036423191 0.052979201 0.65444648
-0.036256082 0.051088125 0.65352958
-0.036124013 0.04926002 0.65280497
-0.036019519 0.047480285 0.65223157
-0.035825979 0.045596719 0.65116966
-0.035187751 0.043184966 0.64766777
-0.035114117 0.041498482 0.64726377
-0.035132833 0.039923698 0.64736652
-0.03522006 0.038421929 0.64784503
-0.035373989 0.03698191 0.64868963
-0.035612367 0.035612345 0.64999759
-0.035853516 0.034223825 0.65132082
-0.035983846 0.032712579 0.65203583
-0.036057748 0.031140774 0.65244138
-0.036139075 0.029568315 0.65288758
-0.036232095 0.027997583 0.65339792
-0.036337946 0.026427597 0.65397871
-0.03646059 0.024859458 0.6546517
-0.03659635 0.023288578 0.65539658
-0.036746617 0.021713912 0.65622103
-0.036912475 0.020134091 0.65713108
-0.037095577 0.018547773 0.65813577
-0.037300467 0.01695478 0.65925997
-0.037527706 0.015352249 0.66050678
-0.037780024 0.013738215 0.66189122
-0.038062058 0.01211068 0.66343868
-0.038380027 0.010467321 0.66518331
-0.038746942 0.0088061094 0.66719651
-0.039179426 0.0071235299 0.66956949
-0.039693821 0.005412817 0.67239189
-0.0399996 0.0036363006 0.6740697
-0.040158663 0.0018253922 0.67494243
-0.040419511 2.9802322e-08 0.67637366
-0.038531046 0.064218402 0.67607927
-0.036739491 0.059482962 0.66578126
-0.036945794 0.058057666 0.66696703
-0.035150357 0.053562462 0.65664667
-0.034928352 0.051560909 0.65537053
-0.034767475 0.049667835 0.65444577
-0.034649733 0.047849655 0.65376902
-0.034549475 0.046065986 0.6531927
-0.034072109 0.043807 0.65044874
-0.033750247 0.041786015 0.64859861
-0.033695482 0.040113688 0.64828384
-0.033726193 0.038544208 0.64846039
-0.03382216 0.037043333 0.64901203
-0.033983618 0.035601914 0.64994001
-0.034231167 0.034231216 0.65136302
-0.034443691 0.032803506 0.65258467
-0.034549698 0.031259298 0.65319401
-0.034618907 0.029673338 0.65359181
-0.034700997 0.028091282 0.65406364
-0.034794647 0.026510209 0.65460193
-0.034900278 0.024928749 0.65520918
-0.035019267 0.023346186 0.65589315
-0.035154708 0.02176246 0.65667164
-0.035304364 0.020173937 0.65753192
-0.035469655 0.018579394 0.65848202
-0.035652105 0.016977221 0.65953076
-0.035854049 0.015366018 0.66069162
-0.036078475 0.013744235 0.66198158
-0.036329202 0.012109727 0.66342282
-0.036611483 0.010460436 0.66504538
-0.036932807 0.0087935627 0.66689241
-0.037303213 0.0071054101 0.66902155
-0.037738096 0.0053911805 0.67152131
-0.038221575 0.0036401749 0.67430037
-0.03843591 0.00183025 0.67553246
-0.038602956 2.9802322e-08 0.67649263
-0.038909294 -0.0018528104 0.67825347
-0.036857478 0.062657684 0.6770525
-0.0352064 0.058090568 0.66708738
-0.033880584 0.054208964 0.65908539
-0.033620831 0.052112311 0.65751755
-0.033419739 0.050129592 0.65630388
-0.033264987 0.048234254 0.65536988
-0.03316104 0.046425462 0.65474248
-0.03306495 0.04463768 0.65416253
-0.032499578 0.042249441 0.65075022
-0.032298706 0.040373385 0.64953786
-0.03226174 0.038714081 0.64931476
-0.032303501 0.037149042 0.64956677
-0.032407172 0.035647899 0.6501925
-0.032578614 0.034207553 0.65122724
-0.0328287 0.032828718 0.65273666
-0.033013135 0.031362474 0.65384978
-0.033096552 0.029786885 0.65435332
-0.033163674 0.028189152 0.65475839
-0.033245757 0.026596636 0.65525383
-0.033339683 0.025004804 0.65582073
-0.033445202 0.023411661 0.6564576
-0.033562984 0.021815956 0.65716851
-0.033694524 0.020216703 0.65796238
-0.03384323 0.018613815 0.65885985
-0.034007348 0.017003685 0.65985042
-0.034188595 0.015384883 0.66094434
-0.034389265 0.013755739 0.66215551
-0.034612402 0.012114346 0.66350222
-0.034862 0.010458618 0.66500872
-0.035143346 0.0087858438 0.6667068
-0.035463918 0.0070928037 0.66864157
-0.035834353 0.0053751469 0.67087734
-0.036287196 0.0036287308 0.67361051
-0.036679555 0.0018339753 0.6759786
-0.036848791 -0 0.67700005
-0.037038088 -0.0018519163 0.67814261
-0.037440505 -0.0037440658 0.68057138
-0.035178114 0.061098844 0.67809129
-0.033654347 0.056681007 0.66841054
-0.032316316 0.052726626 0.65990973
-0.032078166 0.050649762 0.65839672
-0.031896923 0.048684746 0.65724528
-0.031752039 0.046792448 0.65632474
-0.031657826 0.04498744 0.65572619
-0.031564385 0.0431934 0.65513259
-0.030981049 0.04076454 0.65142649
-0.030833142 0.038947135 0.65048683
-0.030813957 0.037301123 0.65036494
-0.030869085 0.035743177 0.65071517
-0.030982967 0.034244329 0.65143871
-0.031166816 0.032807201 0.65260673
-0.031406511 0.031406492 0.65412956
-0.03155202 0.029891402 0.65505403
-0.031626232 0.028297156 0.65552551
-0.031694133 0.026689798 0.65595686
-0.031773049 0.025083989 0.65645826
-0.03186677 0.023480773 0.65705371
-0.031971905 0.021875501 0.65772164
-0.032088995 0.020266771 0.6584655
-0.032218952 0.018653095 0.65929115
-0.03236296 0.01703313 0.66020608
-0.03252539 0.015406758 0.66123807
-0.032704756 0.013770431 0.6623776
-0.032903519 0.012122333 0.66364032
-0.033124674 0.010460436 0.66504538
-0.033372231 0.0087821782 0.66661823
-0.033651724 0.0070845485 0.66839385
-0.033971105 0.0053638518 0.67042297
-0.034352008 0.0036160052 0.67284286
-0.034809344 0.001832068 0.67574847
-0.035099279 -0 0.67759049
-0.035241228 -0.0018548071 0.67849225
-0.03546869 -0.0037335157 0.67993736
-0.031901248 0.056713283 0.66853243
-0.032082725 0.055253595 0.66974944
-0.030741485 0.051235795 0.66075492
-0.030521976 0.049174309 0.6592828
-0.030359931 0.047226578 0.65819615
-0.030228991 0.045343518 0.657318
-0.030139664 0.043535084 0.65671897
-0.03003764 0.04171893 0.65603477
-0.029470712 0.039294332 0.65223289
-0.029358216 0.037513286 0.65147853
-0.029360516 0.035885096 0.65149391
-0.02942363 0.034327567 0.65191716
-0.029544085 0.032826781 0.65272492
-0.02973507 0.031387031 0.65400571
-0.029953323 0.029953331 0.65546936
-0.030073045 0.028402328 0.65627223
-0.030138656 0.026789904 0.65671223
-0.030206889 0.025172412 0.65716982
-0.030285507 0.023555428 0.65769702
-0.030375801 0.021938086 0.65830255
-0.03048004 0.020320058 0.65900159
-0.030596113 0.018697649 0.65978003
-0.030724706 0.01706928 0.66064239
-0.03086728 0.015433669 0.6615985
-0.031025076 0.013788939 0.66265666
-0.031200264 0.012133449 0.66383153
-0.031396367 0.010465473 0.66514659
-0.031614799 0.0087819099 0.66661149
-0.031859607 0.0070799291 0.66825318
-0.032139856 0.0053566396 0.67013258
-0.032463536 0.0036070645 0.6723032
-0.032844026 0.0018246472 0.67485482
-0.033276521 -0 0.67775524
-0.033477642 -0.0018598735 0.67910397
-0.033622615 -0.0037358403 0.68007618
-0.03389135 -0.0056485236 0.68187833
-0.030317742 0.055285305 0.66987294
-0.0304913 0.053808182 0.67110527
-0.029159529 0.049742728 0.66164887
-0.028952194 0.047685981 0.66017675
-0.028808447 0.045754582 0.65915596
-0.028691741 0.043881506 0.65832728
-0.028606441 0.042068303 0.65772164
-0.02848354 0.040212065 0.65684897
-0.027948037 0.037812084 0.65304649
-0.027877234 0.036076427 0.65254378
-0.027890123 0.034452528 0.65263528
-0.027960345 0.032894522 0.65313399
-0.028086275 0.031390578 0.65402812
-0.028282948 0.029946685 0.65542459
-0.028474769 0.028474778 0.65678668
-0.028574919 0.026894033 0.65749782
-0.02863331 0.02526468 0.65791237
-0.028701615 0.023636609 0.65839744
-0.028779887 0.022008181 0.65895319
-0.028868772 0.020377964 0.65958428
-0.028969353 0.018744916 0.66029853
-0.029083757 0.017108083 0.66111088
-0.029210698 0.015464485 0.66201222
-0.029351106 0.013812304 0.66300923
-0.02950668 0.012149841 0.66411388
-0.029679334 0.010475069 0.66533983
-0.029871739 0.0087858438 0.66670603
-0.030087287 0.0070793629 0.66823655
-0.030330606 0.0053524971 0.66996431
-0.030608263 0.0036009848 0.67193586
-0.030929575 0.001819402 0.67421728
-0.031318821 -0 0.67698121
-0.03167747 -0.0018633604 0.67952788
-0.031830862 -0.0037448108 0.68061703
-0.031994652 -0.0056461394 0.68178004
-0.03234319 -0.007610172 0.68425494
-0.030325687 0.058755994 0.68338758
-0.028714372 0.053839445 0.67123115
-0.028879793 0.05234465 0.67247915
-0.0275655 0.048239619 0.66256356
-0.027372759 0.046191514 0.66110945
-0.027242171 0.044268519 0.66012424
-0.027139015 0.042404741 0.65934598
-0.02705802 0.040587038 0.65873492
-0.026880138 0.038640201 0.65739292
-0.026428817 0.036339611 0.65398794
-0.026380135 0.034623951 0.65362066
-0.026402583 0.033003241 0.65379
-0.026478905 0.031443715 0.65436578
-0.026609158 0.0299353 0.65534854
-0.02681064 0.028486311 0.65686864
-0.026976693 0.026976675 0.65812135
-0.027054457 0.025363535 0.65870804
-0.027110066 0.023721308 0.65912753
-0.027177988 0.02208209 0.65964001
-0.027255619 0.020441711 0.66022569
-0.027343404 0.01879862 0.66088796
-0.027441721 0.017151088 0.6616298
-0.027551653 0.015497804 0.66245908
-0.027676329 0.013838172 0.6633997
-0.027814217 0.012168735 0.66443998
-0.027966863 0.010487586 0.6655916
-0.028136512 0.0087926984 0.66687155
-0.028325461 0.0070813894 0.66829705
-0.028537499 0.0053507686 0.66989672
-0.028777022 0.0035971105 0.67170382
-0.029050929 0.0018156767 0.67377031
-0.0293753 -0 0.67621744
-0.029768635 -0.0018605292 0.67918497
-0.030038605 -0.0037548244 0.68122172
-0.030162759 -0.0056554973 0.68215835
-0.030356159 -0.0075890422 0.68361747
-0.028503429 0.057006866 0.68397582
-0.02709054 0.052375048 0.67260575
-0.027247606 0.050862193 0.67386973
-0.025957327 0.046723187 0.66348636
-0.025783885 0.044692069 0.6620906
-0.025661083 0.042768478 0.66110235
-0.025570685 0.040913135 0.66037488
-0.025495376 0.039092928 0.65976882
-0.025090696 0.036799699 0.6565122
-0.024900401 0.034860551 0.6549809
-0.024866659 0.03315556 0.65470934
-0.024897592 0.031536937 0.65495825
-0.024978882 0.029974639 0.65561247
-0.025117058 0.028466016 0.65672445
-0.025315387 0.02700308 0.65832043
-0.02545232 0.025452346 0.6594224
-0.025515657 0.023814619 0.65993208
-0.025570597 0.022161216 0.66037416
-0.025635667 0.020508558 0.66089779
-0.02571225 0.018855661 0.6615141
-0.025798509 0.01719901 0.66220832
-0.025894996 0.015536994 0.66298479
-0.026002472 0.013867974 0.66384971
-0.026122024 0.012190282 0.66481173
-0.026255989 0.010502428 0.66588986
-0.026405266 0.0088017583 0.66709107
-0.026571007 0.0070855916 0.6684249
-0.026755812 0.0053511858 0.6699121
-0.026963338 0.0035951436 0.6715821
-0.027198333 0.0018132329 0.67347324
-0.027473517 -2.9802322e-08 0.67568773
-0.02779719 -0.0018531382 0.67829239
-0.02817155 -0.0037561953 0.68130505
-0.028356323 -0.0056712329 0.68279195
-0.028478768 -0.007594347 0.68377733
-0.028708071 -0.0095693767 0.68562263
-0.026701564 0.055310369 0.68482387
-0.02544597 0.050891966 0.673998
-0.025594449 0.049360722 0.67527819
-0.024334902 0.045193404 0.6644181
-0.024180509 0.043179482 0.66308689
-0.02406529 0.041254789 0.66209346
-0.023986513 0.039406419 0.66141421
-0.023915268 0.037581116 0.66079992
-0.023481645 0.035222501 0.65706116
-0.023356687 0.03336668 0.65598375
-0.023336533 0.031671047 0.65580994
-0.023377655 0.030056953 0.65616453
-0.023466699 0.028495312 0.65693223
-0.023611689 0.026984811 0.65818244
-0.023797058 0.02549687 0.65978074
-0.023902943 0.023902953 0.66069365
-0.023958374 0.022247076 0.66117162
-0.024012823 0.020582438 0.66164112
-0.024076043 0.018916875 0.66218615
-0.024149332 0.017249525 0.66281807
-0.024233712 0.015578836 0.66354561
-0.024327975 0.013901711 0.66435838
-0.024432851 0.012216419 0.66526264
-0.024549391 0.010521203 0.66626745
-0.024678776 0.0088138878 0.66738307
-0.024822719 0.0070922375 0.66862416
-0.024983402 0.00535357 0.67000961
-0.025163794 0.0035948455 0.67156494
-0.025367826 0.001812011 0.67332417
-0.025600903 -2.9802322e-08 0.6753338
-0.025870841 -0.0018479228 0.67766124
-0.026195126 -0.0037421584 0.68045729
-0.026512379 -0.0056812167 0.68319273
-0.026647018 -0.0076134503 0.68435365
-0.026784364 -0.0095658302 0.68553782
-0.027076839 -0.011604339 0.68805963
-0.024904715 0.053640932 0.68584907
-0.023780348 0.049389988 0.67540884
-0.022878448 0.045756906 0.66703427
-0.022697862 0.043649763 0.66535747
-0.02256174 0.041652471 0.66409349
-0.022456197 0.039730221 0.66311353
-0.022386333 0.037884533 0.6624648
-0.022316212 0.036049277 0.66181368
-0.021895692 0.033685684 0.65790892
-0.02179737 0.031857699 0.65699601
-0.02179715 0.030180633 0.65699399
-0.021844586 0.028566003 0.65743446
-0.021936895 0.026999265 0.65829158
-0.022084439 0.025482029 0.65966159
-0.022247061 0.023958385 0.66117162
-0.022334296 0.022334307 0.66198158
-0.022382095 0.0206604 0.66242552
-0.022435751 0.018984109 0.66292363
-0.022497674 0.01730594 0.66349864
-0.022568237 0.015624166 0.66415387
-0.022648703 0.013937682 0.66490102
-0.022740077 0.012244672 0.66574949
-0.022841811 0.010542363 0.6666941
-0.022954743 0.0088287592 0.66774273
-0.023080174 0.0071016252 0.6689074
-0.023219742 0.005358398 0.67020339
-0.023375615 0.0035962462 0.67165077
-0.023550807 0.0018115938 0.6732775
-0.023749093 -2.9802322e-08 0.67511863
-0.023975991 -0.0018443167 0.67722547
-0.024242276 -0.0037295818 0.67969799
-0.024568891 -0.0056697428 0.68273079
-0.024809156 -0.0076335967 0.68496174
-0.024915207 -0.0095827579 0.68594646
-0.025073964 -0.011572599 0.68742073
-0.023098364 0.051971346 0.68694949
-0.022093086 0.047868371 0.67683721
-0.021207854 0.044183046 0.66793245
-0.021046096 0.042092174 0.6663053
-0.020927189 0.040110439 0.66510916
-0.020833375 0.038194537 0.66416556
-0.020769741 0.036347032 0.66352534
-0.020694006 0.034490049 0.66276354
-0.020297015 0.032136947 0.65877014
-0.020232519 0.030348808 0.65812135
-0.020240363 0.028673857 0.65820026
-0.020292075 0.027056128 0.65872043
-0.020386398 0.025483012 0.65966922
-0.020534765 0.023957223 0.66116172
-0.020674268 0.022397101 0.66256499
-0.020742977 0.020742983 0.66325617
-0.020786639 0.019054413 0.66369539
-0.020839015 0.017365873 0.66422224
-0.020899292 0.015674502 0.66482854
-0.02096775 0.013978511 0.66551721
-0.021044768 0.012276113 0.66629195
-0.021131052 0.010565519 0.66715986
-0.021228999 0.0088454187 0.66814512
-0.021337787 0.0071126223 0.66923952
-0.021458503 0.0053646564 0.67045379
-0.021592934 0.003598839 0.6718061
-0.021743145 0.0018119216 0.67331707
-0.021912079 2.9802322e-08 0.6750164
-0.022103578 -0.0018419325 0.67694271
-0.022325814 -0.003720969 0.67917824
-0.022590322 -0.0056475699 0.68183899
-0.022901108 -0.0076337159 0.68496531
-0.02306376 -0.0096099079 0.68660146
-0.023163237 -0.0115816 0.68760204
-0.02335115 -0.013621479 0.68949234
-0.020263998 0.047896713 0.67696893
-0.02038385 0.046326935 0.67828417
-0.019523837 0.042597443 0.66884661
-0.019379474 0.040520728 0.66726243
-0.019276781 0.038553566 0.66613555
-0.019195568 0.036646098 0.66524428
-0.019136569 0.034793764 0.66459686
-0.019042157 0.032891035 0.66356081
-0.018689053 0.0305821 0.65968591
-0.018650234 0.028823107 0.65925992
-0.018664908 0.027148962 0.65942097
-0.018719755 0.025526911 0.66002285
-0.018814784 0.023946077 0.6610657
-0.018962905 0.022410691 0.66269112
-0.019079387 0.020813912 0.6639694
-0.019131048 0.019131064 0.66453624
-0.019172298 0.017429382 0.66498893
-0.01922225 0.015727282 0.66553712
-0.019280361 0.014022112 0.66617477
-0.019346233 0.01231122 0.66689765
-0.01942016 0.010592848 0.66770887
-0.019502874 0.008864969 0.66861659
-0.019595083 0.0071254969 0.66962844
-0.01969789 0.0053721666 0.67075658
-0.01981326 0.0036024153 0.67202264
-0.019941758 0.0018128455 0.67343277
-0.020085413 -0 0.67500919
-0.020247674 -0.001840651 0.67678976
-0.020434404 -0.0037153065 0.67883885
-0.020650998 -0.0056321025 0.68121576
-0.02090863 -0.0076031387 0.68404287
-0.021175945 -0.0096254349 0.68697637
-0.021288894 -0.011612117 0.68821579
-0.021398813 -0.013617396 0.68942201
-0.021633137 -0.015733212 0.69199342
-0.018541899 0.046354771 0.67841846
-0.018652283 0.044765443 0.67975092
-0.01782939 0.041007638 0.66981769
-0.017699406 0.038938731 0.66824865
-0.017610202 0.036981434 0.66717184
-0.017540749 0.035081506 0.6663335
-0.017487293 0.033225864 0.66568822
-0.017284023 0.03111124 0.66323453
-0.017077086 0.029031098 0.66073656
-0.017050143 0.027280211 0.66041142
-0.017070444 0.025605679 0.66065645
-0.017127182 0.023978055 0.66134131
-0.017226243 0.022394121 0.6625371
-0.017366327 0.020839572 0.66422808
-0.017456301 0.019201934 0.66531408
-0.017499218 0.017499238 0.66583216
-0.017539151 0.015785217 0.66631424
-0.017585816 0.014068663 0.66687751
-0.017640624 0.012348443 0.66753912
-0.017703351 0.010622025 0.66829628
-0.01777372 0.0088868737 0.6691457
-0.017852291 0.0071409345 0.67009413
-0.017939854 0.0053819418 0.67115116
-0.018037377 0.0036074817 0.67232835
-0.018146163 0.0018146336 0.67364144
-0.018267998 -0 0.67511219
-0.018405013 -0.001840502 0.67676604
-0.018560398 -0.0037120581 0.6786418
-0.018738482 -0.0056215525 0.68079144
-0.018945444 -0.0075781941 0.68328965
-0.019202245 -0.0096010864 0.68638951
-0.019404203 -0.011642516 0.68882734
-0.019489989 -0.013642997 0.68986291
-0.019613294 -0.015690655 0.69135135
-0.016797137 0.044792384 0.6798861
-0.016897792 0.043183267 0.68123615
-0.016120149 0.039404809 0.67080617
-0.016006013 0.037347376 0.66927534
-0.015927155 0.035393685 0.66821766
-0.015868729 0.033500642 0.66743404
-0.015821062 0.031642139 0.66679466
-0.015552022 0.02937603 0.66318625
-0.015448466 0.027463943 0.66179734
-0.015431948 0.025719941 0.66157579
-0.015458011 0.024045825 0.66192532
-0.015518793 0.022416025 0.66274059
-0.015618691 0.020824909 0.6640805
-0.015743241 0.01924175 0.66575098
-0.015811063 0.017567873 0.66666061
-0.015847061 0.015847087 0.6671434
-0.015885243 0.014120221 0.66765553
-0.015929634 0.012389719 0.66825092
-0.015980452 0.010653675 0.6689325
-0.016038736 0.0089103878 0.66971421
-0.016104871 0.0071577132 0.67060125
-0.016178759 0.0053929389 0.67159224
-0.016261075 0.0036135912 0.67269623
-0.016352719 0.001816988 0.67392546
-0.016454957 2.9802322e-08 0.67529672
-0.016569449 -0.0018410385 0.67683232
-0.016698413 -0.0037107468 0.67856199
-0.016844761 -0.0056149364 0.68052489
-0.017012959 -0.007561326 0.68278074
-0.017215688 -0.0095642507 0.68549985
-0.017457755 -0.011638522 0.68874657
-0.017591491 -0.013682246 0.69054019
-0.017667269 -0.015704215 0.69155657
-0.017811712 -0.017811686 0.6934939
-0.015835263 0.047505796 0.69353366
-0.01502934 0.043209374 0.68137318
-0.015120003 0.041580021 0.68274117
-0.014395134 0.037787229 0.67180371
-0.01429826 0.035745651 0.67034203
-0.014228073 0.033791691 0.66928297
-0.014179235 0.031903297 0.66854608
-0.014136023 0.030039072 0.66789401
-0.013872695 0.027745396 0.66392076
-0.013803045 0.025880724 0.66286981
-0.013799047 0.024148345 0.66280949
-0.013829512 0.022472948 0.66326916
-0.013889832 0.020834744 0.66417933
-0.013987097 0.019232273 0.66564691
-0.014090492 0.017613113 0.667207
-0.014143864 0.015911877 0.66801238
-0.014174315 0.014174312 0.66847181
-0.014210244 0.012433976 0.66901392
-0.014251832 0.010688901 0.66964144
-0.014299384 0.0089371204 0.67035896
-0.014353067 0.0071765482 0.67116898
-0.014413379 0.0054050088 0.67207903
-0.014481846 0.0036204457 0.67311215
-0.014558164 0.0018197894 0.67426366
-0.014643108 -0 0.67554533
-0.014737942 -0.0018422306 0.67697632
-0.01484419 -0.003711015 0.67857945
-0.014963942 -0.0056115091 0.68038642
-0.015101179 -0.0075505972 0.68245715
-0.015262051 -0.0095387995 0.68488449
-0.015452172 -0.01158911 0.6877532
-0.015659822 -0.013702333 0.69088638
-0.015747551 -0.015747517 0.69221008
-0.015829064 -0.017807692 0.69344002
-0.016002838 -0.020003527 0.69606209
-0.013900233 0.045672208 0.69429886
-0.013238103 0.041605473 0.68288082
-0.013531776 0.040595353 0.68794507
-0.012654128 0.036154658 0.67281055
-0.012573495 0.03412807 0.6714201
-0.012512944 0.032176167 0.67037594
-0.01247204 0.030289233 0.66967052
-0.012430477 0.028412551 0.66895378
-0.012191551 0.026124805 0.66483366
-0.012144542 0.024289101 0.66402304
-0.01214825 0.022561044 0.664087
-0.012179764 0.020879626 0.66463047
-0.012238196 0.019231468 0.66563809
-0.012331047 0.017615765 0.66723919
-0.012414747 0.015961826 0.66868258
-0.012453548 0.014232635 0.6693517
-0.012480484 0.012480497 0.6698162
-0.012513748 0.010726064 0.67038977
-0.012552092 0.0089657903 0.67105097
-0.012595743 0.0071975589 0.67180377
-0.01264499 0.0054192841 0.67265296
-0.012700195 0.0036286116 0.67360497
-0.012761973 0.0018231571 0.67467022
-0.012831026 2.9802322e-08 0.67586106
-0.012908199 -0.0018440187 0.67719185
-0.012994787 -0.0037127733 0.67868495
-0.013092373 -0.0056110322 0.68036783
-0.013203271 -0.0075447261 0.68228018
-0.013330456 -0.0095217526 0.6844734
-0.013478504 -0.01155296 0.68702638
-0.013660712 -0.013660729 0.69016844
-0.013814431 -0.015787929 0.6928193
-0.013877925 -0.017843038 0.69391418
-0.013965076 -0.019950092 0.69541705
-0.011967774 0.043881834 0.69537097
-0.011422845 0.039979935 0.68440783
-0.010986511 0.036621749 0.67562944
-0.010896905 0.034506887 0.67382669
-0.010831407 0.032494247 0.67250907
-0.010781307 0.030547023 0.6715011
-0.010746766 0.028658062 0.67080611
-0.010702935 0.02675733 0.66992438
-0.010495639 0.02448985 0.6657539
-0.010469543 0.022684008 0.6652289
-0.010477033 0.020954102 0.66537958
-0.010508352 0.019265324 0.6660096
-0.010563444 0.017605752 0.66711801
-0.01064997 0.015974969 0.66885877
-0.01071382 0.014285117 0.67014337
-0.010741882 0.012532204 0.67070788
-0.01076646 0.010766476 0.67120236
-0.010795496 0.0089962482 0.67178655
-0.010829884 0.0072199404 0.67247832
-0.010869131 0.0054345727 0.67326796
-0.010913305 0.0036377609 0.67415667
-0.01096284 0.0018271506 0.67515326
-0.011018163 2.9802322e-08 0.67626625
-0.011079974 -0.0018466711 0.67750973
-0.011149102 -0.0037163794 0.67890054
-0.011226691 -0.0056133568 0.68046153
-0.011314231 -0.007542789 0.68222266
-0.011413725 -0.009511441 0.68422431
-0.01152816 -0.011528134 0.6865266
-0.011665095 -0.01360926 0.68928146
-0.011831841 -0.0157758 0.69263619
-0.011930203 -0.017895341 0.69461513
-0.01198153 -0.019969255 0.69564772
-0.012080317 -0.022147268 0.69763517
-0.010021525 0.042090416 0.69653893
-0.0095831389 0.038332582 0.68595535
-0.0091960113 0.034944892 0.67660922
-0.0091232741 0.032843828 0.67485321
-0.0090717003 0.030843794 0.67360812
-0.0090319077 0.028902113 0.67264748
-0.0090034027 0.027010202 0.67195928
-0.0089505119 0.025061458 0.67068237
-0.0087910229 0.022856653 0.66683197
-0.0087751122 0.021060258 0.66644788
-0.0087850345 0.019327074 0.66668743
-0.0088148424 0.017629653 0.66740704
-0.0088681793 0.01596272 0.66869473
-0.0089424495 0.014307916 0.67048776
-0.0089866817 0.012581348 0.67155564
-0.0090084262 0.010810137 0.67208064
-0.0090302452 0.0090302527 0.6726073
-0.0090557737 0.0072446167 0.67322361
-0.0090852072 0.0054511428 0.67393422
-0.0091190841 0.0036476552 0.67475206
-0.0091576045 0.0018315315 0.67568207
-0.0092007127 2.9802322e-08 0.67672276
-0.0092488769 -0.0018497705 0.67788559
-0.0093026292 -0.0037210286 0.67918324
-0.0093627889 -0.0056176782 0.68063569
-0.0094303386 -0.0075442791 0.68226647
-0.0095066307 -0.0095066428 0.68410832
-0.0095934281 -0.01151213 0.68620384
-0.0096957469 -0.013574064 0.68867397
-0.009817346 -0.015707731 0.69160962
-0.0099541787 -0.017917514 0.69491303
-0.010013383 -0.020026803 0.69634241
-0.010065312 -0.022143662 0.69759601
-0.01017618 -0.024422824 0.70027262
-0.0076768324 0.038384199 0.68626684
-0.0077185174 0.036662966 0.6875248
-0.0073896218 0.033253312 0.67759949
-0.0073332773 0.031166464 0.67589915
-0.0072941771 0.029176682 0.67471921
-0.007264208 0.027240813 0.67381477
-0.0072416305 0.025345683 0.67313349
-0.0071317051 0.023178071 0.66981614
-0.0070701088 0.021210372 0.66795731
-0.0070610042 0.019417793 0.66768259
-0.007072357 0.017680913 0.6680252
-0.0071011139 0.015977502 0.66889298
-0.0071487725 0.014297545 0.67033118
-0.0072060926 0.012610674 0.67206103
-0.0072366297 0.01085493 0.67298257
-0.0072528361 0.0090660453 0.67347163
-0.0072713341 0.0072713792 0.67402977
-0.0072929012 0.0054696798 0.67468071
-0.0073176725 0.0036588609 0.67542821
-0.0073457654 0.0018364489 0.67627603
-0.0073774457 2.9802322e-08 0.67723203
-0.0074133249 -0.001853317 0.67831481
-0.0074535226 -0.0037267208 0.67952782
-0.007498397 -0.0056237876 0.6808821
-0.0075486242 -0.0075486004 0.68239784
-0.0076050446 -0.0095062852 0.68410045
-0.007669243 -0.011503845 0.68603784
-0.0077434829 -0.013551116 0.68827814
-0.0078299716 -0.015659928 0.69088823
-0.0079354625 -0.01785478 0.69407171
-0.0080303121 -0.020075768 0.69693398
-0.0080691958 -0.022190273 0.69810748
-0.008119477 -0.024358422 0.69962478
-0.0057924846 0.036685765 0.68766952
-0.0058284029 0.034970433 0.68911481
-0.0055684918 0.031554788 0.6786567
-0.0055273389 0.029479146 0.67700082
-0.0054986281 0.027493149 0.67584562
-0.0054774801 0.025561571 0.67499471
-0.0054605827 0.023662537 0.6743148
-0.0053617517 0.021446973 0.67033815
-0.0053308285 0.01954639 0.66909391
-0.0053277444 0.017759174 0.66896975
-0.0053396653 0.016019017 0.66944945
-0.0053637442 0.014303356 0.67041826
-0.0054028775 0.01260671 0.6719929
-0.0054429607 0.010885894 0.6736058
-0.0054625301 0.0091042221 0.67439318
-0.0054746233 0.0072994828 0.67487973
-0.0054893182 0.0054893196 0.67547107
-0.0055063535 0.0036709011 0.67615646
-0.005525874 0.0018419325 0.67694199
-0.0055479724 -0 0.67783111
-0.0055728536 -0.0018575788 0.67883223
-0.0056007584 -0.0037338138 0.67995501
-0.0056320271 -0.0056320131 0.6812132
-0.0056670895 -0.0075561404 0.68262398
-0.0057065375 -0.0095109046 0.68421125
-0.0057511171 -0.011502236 0.68600506
-0.0058018877 -0.013537735 0.68804789
-0.0058603277 -0.015627533 0.69039935
-0.0059296382 -0.017788917 0.69318819
-0.0060151559 -0.020050526 0.69662905
-0.0060699326 -0.022256404 0.69883317
-0.0060963845 -0.024385542 0.69989753
-0.0061466866 -0.026635647 0.70192146
-0.0038880329 0.034992337 0.68926144
-0.0039123227 0.033254713 0.69072753
-0.0037300813 0.029840648 0.67972827
-0.0037034526 0.027775913 0.67812103
-0.0036846891 0.025792837 0.6769886
-0.0036714142 0.02386421 0.67618734
-0.0036599068 0.021959424 0.67549282
-0.0035899016 0.019744456 0.67126763
-0.0035734801 0.017867416 0.67027652
-0.0035742712 0.016084224 0.67032427
-0.0035836918 0.014334768 0.67089289
-0.0036014644 0.01260516 0.67196554
-0.0036299962 0.010890007 0.67368758
-0.0036545203 0.0091362894 0.6751678
-0.0036652149 0.0073304474 0.6758132
-0.0036736515 0.0055104792 0.67632246
-0.0036837396 0.0036837459 0.67693126
-0.003695698 0.0018478632 0.67765301
-0.0037093416 -0 0.67847651
-0.0037247636 -0.0018623769 0.67940736
-0.0037421186 -0.0037420988 0.68045473
-0.0037615721 -0.0056423545 0.68162894
-0.003783359 -0.0075667202 0.68294382
-0.0038077887 -0.0095194578 0.68441832
-0.0038352683 -0.011505783 0.68607682
-0.0038663712 -0.013532311 0.68795407
-0.0039018127 -0.015607238 0.6900931
-0.0039431858 -0.017744333 0.69259024
-0.0039929673 -0.019964814 0.69559485
-0.0040504383 -0.022277415 0.69906354
-0.0040763086 -0.024457842 0.70062494
-0.0040974384 -0.026633322 0.70190024
-0.0041426942 -0.028998852 0.70463163
-0.0020654728 0.037178516 0.70392257
-0.0019573935 0.033275723 0.69087619
-0.001969699 0.031515181 0.69236165
-0.0018740025 0.028110027 0.68081003
-0.001861308 0.026058346 0.67927766
-0.0018520622 0.024076819 0.67816162
-0.0018457017 0.02214843 0.67739385
-0.0018391551 0.020230711 0.67660356
-0.0018030553 0.018030584 0.67224592
-0.0017973363 0.016176015 0.67155564
-0.0017984927 0.014387965 0.67169517
-0.0018039653 0.012627751 0.67235577
-0.0018137348 0.010882407 0.67353511
-0.0018292175 0.0091460943 0.67540401
-0.0018397839 0.0073591173 0.67667949
-0.0018445314 0.0055336058 0.67725259
-0.0018490165 0.0036980212 0.67779398
-0.0018543203 0.0018543303 0.67843425
-0.0018604567 -0 0.6791749
-0.0018675606 -0.0018675625 0.68003243
-0.0018756323 -0.0037512779 0.68100679
-0.0018846967 -0.0056540668 0.68210089
-0.0018948602 -0.0075794458 0.68332779
-0.0019062299 -0.0095311403 0.68470025
-0.0019189874 -0.011513919 0.6862402
-0.0019333423 -0.013533413 0.68797302
-0.0019495989 -0.015596747 0.68993533
-0.0019684439 -0.017715991 0.69221008
-0.0019905583 -0.019905567 0.69487959
-0.0020172989 -0.022190273 0.69810748
-0.0020428642 -0.024514347 0.70119339
-0.0020532759 -0.026692569 0.70245022
-0.0020659759 -0.028923661 0.70398331
0 0.035211325 0.70462024
0 0.031535178 0.69251245
0 0.030293792 0.69838363
0 0.026362717 0.68190229
0 0.024322927 0.68044722
0 0.022344947 0.67937046
0 0.020413935 0.67861432
0 0.018473566 0.67759287
0 0.016306072 0.67329961
0 0.014464468 0.67284995
0 0.012669951 0.67308289
0 0.010897487 0.67383868
0 0.0091388226 0.67522818
0 0.007373333 0.67710817
0 0.0055565834 0.6781773
0 0.0037131906 0.67870992
0 0.0018613935 0.679286
0 -0 0.67996091
0 -0.0018734336 0.68074143
0 -0.0037615895 0.68163055
0 -0.0056673586 0.68263519
0 -0.0075941682 0.68377215
0 -0.0095456839 0.68505144
0 -0.011526048 0.68648392
0 -0.013540208 0.68809116
0 -0.015595466 0.68991518
0 -0.017700404 0.69200093
0 -0.019866139 0.69440353
0 -0.022110045 0.69722706
0 -0.024470538 0.70075226
0 -0.026772559 0.70319295
0 -0.028960943 0.70430499
0 -0.031285197 0.70636177
0.0020802775 0.033284456 0.70570964
0.0019846919 0.029770374 0.69417143
0.0019083383 0.026716709 0.68495476
0.0018921946 0.024598539 0.68300605
0.001880786 0.022569478 0.68162888
0.0018721935 0.02059415 0.68059164
0.0018661465 0.018661469 0.67986178
0.001851781 0.016666025 0.67812765
0.0018216853 0.014573485 0.67449474
0.0018189106 0.012732387 0.67415988
0.0018216853 0.010930121 0.6744948
0.0018293445 0.0091467202 0.67541939
0.0018421547 0.007368654 0.67696559
0.0018570181 0.0055710673 0.67875981
0.0018646027 0.0037291944 0.6796754
0.0018688439 0.0018688142 0.68018734
0.0018738973 2.9802322e-08 0.68079734
0.0018797967 -0.0018798113 0.68150949
0.0018865869 -0.0037731528 0.68232906
0.0018943078 -0.0056829154 0.68326116
0.0019030328 -0.007612139 0.68431431
0.0019128543 -0.0095642507 0.68549985
0.0019238867 -0.011543334 0.68683159
0.0019362903 -0.013554037 0.68832886
0.0019502752 -0.015602201 0.69001698
0.0019661309 -0.017695159 0.69193089
0.0019842274 -0.019842267 0.69411534
0.0020051405 -0.02205649 0.69663978
0.0020306271 -0.024367511 0.69971633
0.0020606157 -0.026787966 0.70333624
0.0020749117 -0.029048771 0.70506191
0.0020856624 -0.031284928 0.70635962
0.0021087714 -0.033740312 0.70914912
0.0041812942 0.031359702 0.70696133
0.0039972733 0.027980924 0.69585472
0.003834357 0.024923325 0.68602186
0.003802869 0.022817224 0.68412137
0.0037813431 0.020797402 0.68282217
0.0037651386 0.01882568 0.68184412
0.003753192 0.016889393 0.68112308
0.0036899606 0.014759839 0.67730671
0.0036633769 0.012821823 0.67570227
0.003660121 0.010980368 0.67550576
0.0036684263 0.0091710985 0.67600703
0.003685544 0.0073710978 0.67704016
0.0037135675 0.0055703223 0.67873156
0.0037411952 0.0037412047 0.68039906
0.0037539103 0.0018769801 0.68116641
0.003762576 2.9802322e-08 0.6816895
0.0037731738 -0.0018866062 0.68232912
0.0037855916 -0.0037855804 0.68307865
0.0037998511 -0.0056997538 0.68393922
0.0038160363 -0.0076320767 0.68491614
0.0038342837 -0.0095856786 0.68601739
0.0038548287 -0.011564493 0.68725741
0.003877878 -0.013572544 0.68864858
0.0039038064 -0.015615225 0.69021344
0.0039330497 -0.017698765 0.69197851
0.0039662374 -0.019831181 0.69398153
0.0040042633 -0.022023499 0.69627666
0.00404952 -0.024297118 0.69900811
0.0041037565 -0.02667442 0.70228153
0.0041587567 -0.029111266 0.70560104
0.0041811196 -0.031358391 0.70695078
0.0042067636 -0.033654094 0.7084986
0.0060398676 0.028186053 0.69762343
0.0060383123 0.026166022 0.69756085
0.0057783034 0.023113221 0.68709886
0.0057336744 0.021023482 0.68530321
0.0057022232 0.019007415 0.68403769
0.0056792251 0.01703766 0.68311232
0.0056612119 0.015096545 0.68238753
0.0055548707 0.012961358 0.67810869
0.0055254265 0.01105088 0.67692393
0.005525915 0.0092098713 0.67694354
0.0055407435 0.0073876679 0.67754018
0.0055691735 0.00556916 0.67868418
0.0056152777 0.0037435591 0.68053925
0.0056524714 0.0018841624 0.6820358
0.0056683952 -0 0.68267655
0.0056822565 -0.0018940866 0.68323421
0.0056987596 -0.0037991703 0.68389833
0.0057179932 -0.0057180226 0.68467224
0.0057403627 -0.0076538026 0.68557227
0.0057657631 -0.00960958 0.68659431
0.0057944078 -0.011588842 0.68774688
0.005826571 -0.013595343 0.68904102
0.0058626854 -0.015633792 0.69049418
0.0059033101 -0.017709911 0.69212878
0.0059491438 -0.019830465 0.693973
0.006001736 -0.022006363 0.69608915
0.0060627987 -0.024251193 0.69854611
0.0061343028 -0.026581973 0.70142323
0.0062236511 -0.029043704 0.70501828
0.0062903129 -0.031451523 0.70770055
0.0063194693 -0.033703804 0.70887369
0.0063714264 -0.036104739 0.71096432
0.0080563007 0.02618295 0.69771832
0.0081084576 0.024325371 0.6992923
0.0077426438 0.021292269 0.68825287
0.0076845554 0.019211411 0.68649989
0.0076437322 0.017198414 0.68526793
0.0076147956 0.015229613 0.68439472
0.0075897304 0.013282061 0.68363827
0.0074409693 0.011161447 0.67914903
0.0074119796 0.0092649758 0.67827421
0.0074161547 0.0074161589 0.67840016
0.0074391714 0.005579412 0.67909479
0.0074808523 0.0037404299 0.68035257
0.0075474004 0.0018868744 0.68236089
0.0075892988 2.9802322e-08 0.68362528
