# .PCD v0.7 - Point Cloud Data file format
VERSION 0.7
FIELDS x y z
SIZE 4 4 4
TYPE F F F
COUNT 1 1 1
WIDTH 1343
HEIGHT 1
VIEWPOINT 0 0 0 1 0 0 0
POINTS 1343
DATA ascii
-0.011614101 0.087105781 0.68825555
-0.011610013 0.085140139 0.68817335
-0.011606513 0.08318004 0.68810296
-0.011603686 0.081225812 0.6880461
-0.011601041 0.07927379 0.68799287
-0.011598397 0.077322662 0.6879397
-0.011595709 0.0753721 0.68788558
-0.011593067 0.07342279 0.68783242
-0.011590829 0.071476787 0.68778741
-0.011589218 0.069535345 0.68775499
-0.011587653 0.067594677 0.68772346
-0.011586042 0.065654248 0.68769109
-0.011584567 0.06371513 0.68766141
-0.011583092 0.061776459 0.68763173
-0.011581618 0.059838384 0.68760204
-0.011580769 0.057903826 0.687585
-0.011580323 0.055971533 0.687576
-0.01157983 0.05403918 0.68756616
-0.011579339 0.052107036 0.68755627
-0.011578849 0.050175011 0.68754637
-0.011578357 0.048243135 0.68753648
-0.01157791 0.046311617 0.68752748
-0.011577687 0.044381112 0.68752301
-0.011384812 0.041744322 0.68364263
-0.011392242 0.039872855 0.68379217
-0.01139964 0.037998825 0.68394095
-0.011407047 0.036122322 0.68408996
-0.011414506 0.034243494 0.68424004
-0.011421933 0.032362163 0.68438947
-0.011429412 0.030478477 0.68453991
-0.011438731 0.028596848 0.68472743
-0.011448459 0.026713073 0.68492317
-0.011458203 0.02482608 0.68511915
-0.011467919 0.022935838 0.68531466
-0.011477696 0.021042466 0.68551135
-0.011487446 0.019145757 0.68570751
-0.0114973 0.017245948 0.68590575
-0.011507392 0.015343189 0.68610877
-0.011517459 0.013437033 0.6863113
-0.011527231 0.01152724 0.68650794
-0.011536268 0.0096135437 0.68668973
-0.011544741 0.0076964498 0.6868602
-0.011553227 0.005776614 0.68703091
-0.011560299 0.0038534403 0.68717325
-0.011567248 0.0019278526 0.68731302
-0.011574161 -0 0.68745208
-0.011581037 -0.0019301772 0.68759042
-0.011586758 -0.003862232 0.68770552
-0.011591769 -0.0057958961 0.68780625
-0.011596291 -0.0077308714 0.68789726
-0.011600682 -0.0096672177 0.68798566
-0.011604763 -0.011604756 0.68806773
-0.011608263 -0.01354298 0.68813819
-0.011611541 -0.015482068 0.68820411
-0.011614866 -0.017422289 0.68827093
-0.011618146 -0.019363582 0.68833697
-0.011621429 -0.021305948 0.68840307
-0.011624714 -0.023249447 0.68846911
-0.011628002 -0.025193989 0.68853527
-0.011631289 -0.027139693 0.68860137
-0.01163458 -0.029086441 0.6886676
-0.011637872 -0.031034291 0.68873388
-0.011641844 -0.03298521 0.68881369
-0.011645818 -0.034937441 0.68889368
-0.01164975 -0.036890894 0.68897277
-0.011653729 -0.038845778 0.68905288
-0.011657711 -0.040801972 0.68913299
-0.011661697 -0.042759538 0.68921316
-0.011665684 -0.044718444 0.68929338
-0.011669675 -0.046678662 0.68937361
-0.011673667 -0.048640311 0.68945396
-0.011678027 -0.05060479 0.6895417
-0.011682662 -0.052571982 0.68963492
-0.011687301 -0.054540724 0.68972826
-0.011691944 -0.056511074 0.68982166
-0.011696591 -0.058482975 0.68991512
-0.01170124 -0.060456395 0.69000864
-0.011705894 -0.062431455 0.69010234
-0.011710597 -0.064408273 0.69019699
-0.011715259 -0.066386461 0.69029075
-0.011719923 -0.06836623 0.69038463
-0.011725187 -0.070351154 0.69049048
-0.011730502 -0.072338074 0.69059741
-0.011735821 -0.074326843 0.69070446
-0.0117411 -0.076317161 0.69081062
-0.011746429 -0.078309536 0.69091785
-0.011751716 -0.080303401 0.69102412
-0.011757054 -0.082299381 0.69113159
-0.011762352 -0.084296867 0.69123822
-0.0117677 -0.086296439 0.69134569
-0.0096580917 0.092717707 0.68776488
-0.009594054 0.090184122 0.68621886
-0.0095928395 0.088254154 0.68618959
-0.009591626 0.086324632 0.68616027
-0.0095904134 0.084395647 0.686131
-0.0095892362 0.082467437 0.68610257
-0.0095880236 0.080539405 0.6860733
-0.0095875459 0.078617871 0.68606174
-0.0095871417 0.076697111 0.68605196
-0.0095867747 0.074776858 0.68604314
-0.0095864441 0.072856992 0.68603516
-0.0095861135 0.070937246 0.68602723
-0.0095857456 0.06901738 0.68601829
-0.009585415 0.067097962 0.6860103
-0.0095855258 0.065181583 0.68601298
-0.00958593 0.063267142 0.68602276
-0.0095863333 0.061352551 0.68603247
-0.0095867375 0.059437782 0.68604219
-0.0095871054 0.057522595 0.68605113
-0.0095875096 0.055607557 0.68606085
-0.0095879128 0.053692311 0.68607062
-0.0095883543 0.051777124 0.68608129
-0.0095892362 0.049864024 0.68610257
-0.0095903389 0.047951728 0.68612921
-0.0095914425 0.046038926 0.68615586
-0.0095925452 0.044125706 0.6861825
-0.0095068114 0.041830003 0.68411267
-0.0095148738 0.0399625 0.68430728
-0.0095230592 0.038092256 0.68450493
-0.0095313676 0.036219239 0.6847055
-0.0095396908 0.034342885 0.68490636
-0.009547445 0.032461315 0.68509364
-0.0095544094 0.030574143 0.68526173
-0.0095613832 0.028684169 0.68543011
-0.0095680756 0.026790649 0.6855917
-0.0095737875 0.024891883 0.68572962
-0.0095794694 0.022990763 0.68586677
-0.0095851216 0.021087259 0.68600321
-0.0095903026 0.019180626 0.68612826
-0.0095949369 0.017270893 0.6862402
-0.0095988391 0.01535815 0.68633443
-0.0096025597 0.013443589 0.68642426
-0.0096060997 0.01152733 0.68650973
-0.0096090147 0.009608984 0.68658006
-0.0096118208 0.007689476 0.68664777
-0.009614517 0.0057687461 0.68671286
-0.009617215 0.0038468838 0.68677807
-0.0096199512 0.0019240081 0.68684411
-0.0096226521 2.9802322e-08 0.68690932
-0.0096253557 -0.001925081 0.68697453
-0.0096280593 -0.0038512349 0.68703985
-0.0096307648 -0.0057784617 0.68710518
-0.0096334722 -0.0077067614 0.68717051
-0.0096363667 -0.0096363425 0.68724036
-0.0096396338 -0.011567563 0.68731922
-0.0096429028 -0.013500065 0.6873982
-0.0096461754 -0.015433878 0.68747723
-0.0096494127 -0.017368942 0.68755531
-0.0096526882 -0.019305378 0.68763441
-0.0096559674 -0.021243125 0.68771362
-0.0096592475 -0.023182213 0.68779278
-0.0096625313 -0.025122613 0.68787205
-0.0096658161 -0.027064264 0.68795133
-0.0096695516 -0.029008627 0.68804157
-0.0096733654 -0.030954748 0.6881336
-0.009677182 -0.03290239 0.68822575
-0.0096810013 -0.034851611 0.68831795
-0.0096848244 -0.036802351 0.68841028
-0.0096886493 -0.038754582 0.68850255
-0.0096924789 -0.040708423 0.68859506
-0.0096963104 -0.042663783 0.68868756
-0.0097001446 -0.044620663 0.68878013
-0.0097040962 -0.046579659 0.68887556
-0.0097084641 -0.048542321 0.68898094
-0.0097128358 -0.050506771 0.68908656
-0.0097171739 -0.05247274 0.68919134
-0.0097215539 -0.054440707 0.68929702
-0.0097259386 -0.056410432 0.68940288
-0.0097302888 -0.058381706 0.68950784
-0.0097346809 -0.060355037 0.68961388
-0.0097390385 -0.062329829 0.68971908
-0.0097434381 -0.064306676 0.6898253
-0.0097480696 -0.066286892 0.68993711
-0.0097530102 -0.068271071 0.69005638
-0.0097579174 -0.070257008 0.69017488
-0.0097628301 -0.072244942 0.69029349
-0.0097677466 -0.074234873 0.69041222
-0.0097726695 -0.076226771 0.69053102
-0.0097775953 -0.078220755 0.69064999
-0.0097825285 -0.080216706 0.69076896
-0.0097874645 -0.082214698 0.69088817
-0.009792407 -0.084214702 0.69100755
-0.0097977761 -0.086220399 0.69113714
-0.0076487269 0.091784686 0.68541867
-0.0076190275 0.089523613 0.68452239
-0.0076187379 0.08761549 0.68451369
-0.0076190564 0.0857144 0.68452334
-0.0076193754 0.083813161 0.68453288
-0.0076197237 0.081912041 0.68454343
-0.0076200427 0.080010444 0.68455303
-0.0076203621 0.078108728 0.68456268
-0.0076206811 0.076206833 0.68457234
-0.0076210294 0.074305028 0.68458283
-0.0076214354 0.07240364 0.68459505
-0.0076223067 0.070506334 0.68462133
-0.0076232064 0.06860888 0.68464851
-0.0076240776 0.066710711 0.6846748
-0.0076249493 0.064812094 0.68470114
-0.007625821 0.062913001 0.68472743
-0.0076266928 0.06101355 0.68475378
-0.0076275645 0.059113622 0.68478
-0.0076284367 0.057213277 0.68480635
-0.0076296576 0.055315048 0.68484318
-0.0076309964 0.053416967 0.68488359
-0.0076323929 0.051518679 0.68492579
-0.0076338192 0.049619853 0.68496877
-0.0076352172 0.047720134 0.68501097
-0.0076366155 0.04581967 0.68505323
-0.0076380144 0.04391858 0.68509543
-0.0076206522 0.041913599 0.68457139
-0.00762431 0.040027618 0.68468183
-0.0076279426 0.038139701 0.68479145
-0.0076309089 0.036246836 0.68488091
-0.0076338775 0.034352452 0.68497056
-0.0076362663 0.032454163 0.68504262
-0.0076385392 0.030554146 0.68511122
-0.0076406971 0.028652608 0.68517637
-0.007642827 0.026749909 0.68524063
-0.0076449579 0.024846137 0.68530494
-0.0076470901 0.022941262 0.68536931
-0.0076492238 0.021035403 0.68543369
-0.0076513877 0.019128442 0.68549895
-0.0076535242 0.017220438 0.68556345
-0.0076556611 0.015311331 0.68562794
-0.0076577994 0.013401121 0.68569249
-0.0076602316 0.011490345 0.68576586
-0.0076628127 0.0095784962 0.68584377
-0.0076653957 0.0076654255 0.68592167
-0.0076679797 0.005750984 0.68599969
-0.0076705664 0.0038352609 0.68607771
-0.0076731243 0.0019183159 0.68615496
-0.0076757139 2.9802322e-08 0.68623304
-0.0076783053 -0.0019195378 0.68631124
-0.0076808985 -0.0038404465 0.68638957
-0.0076835523 -0.0057626665 0.68646967
-0.0076865624 -0.0076865554 0.68656051
-0.0076895743 -0.0096119642 0.68665135
-0.007692589 -0.011538893 0.68674237
-0.007695606 -0.013467282 0.68683332
-0.0076986253 -0.015397251 0.68692458
-0.007701647 -0.017328709 0.68701565
-0.007704671 -0.019261628 0.68710691
-0.0077076983 -0.021196157 0.68719828
-0.0077107269 -0.023132205 0.68728971
-0.0077139363 -0.02507025 0.68738651
-0.0077173868 -0.027010828 0.68749064
-0.0077208402 -0.028953135 0.68759489
-0.0077242665 -0.030897051 0.68769836
-0.0077277259 -0.032842815 0.68780267
-0.007731189 -0.034790367 0.68790722
-0.0077346247 -0.036739498 0.68801093
-0.0077380943 -0.038690478 0.6881156
-0.007741536 -0.040643066 0.68821943
-0.0077450108 -0.042597562 0.68832433
-0.0077487594 -0.044555336 0.6884374
-0.0077526313 -0.046515793 0.68855423
-0.007756507 -0.048478186 0.68867123
-0.0077603869 -0.050442547 0.68878829
-0.0077642705 -0.052408814 0.68890554
-0.0077681579 -0.054377109 0.68902284
-0.0077720489 -0.05634734 0.6891402
-0.0077759442 -0.058319598 0.68925786
-0.0077798436 -0.060293823 0.68937546
-0.0077837468 -0.062269956 0.68949324
-0.0077880174 -0.064251155 0.68962216
-0.0077923229 -0.066234738 0.6897521
-0.0077966638 -0.068220764 0.68988305
-0.0078009791 -0.070208818 0.69001329
-0.007805299 -0.072199047 0.6901437
-0.0078096543 -0.074191719 0.69027513
-0.0078139836 -0.076186359 0.69040579
-0.007818318 -0.078183144 0.69053656
-0.0078226579 -0.080182225 0.69066751
-0.0078271236 -0.082184792 0.69080228
-0.0078318715 -0.084192604 0.69094557
-0.007836625 -0.086202845 0.69108897
-0.0056938096 0.091100931 0.68369913
-0.0056810523 0.089003175 0.68318582
-0.0056816973 0.087119341 0.6832118
-0.0056823427 0.085235149 0.68323773
-0.0056829881 0.083350509 0.68326372
-0.0056836335 0.081465423 0.68328971
-0.0056842789 0.07957992 0.68331569
-0.0056850542 0.077695727 0.68334687
-0.0056860666 0.075814217 0.68338758
-0.0056870794 0.073932022 0.68342829
-0.0056880703 0.072048903 0.68346822
-0.0056890836 0.070165366 0.68350893
-0.0056901188 0.068281412 0.68355066
-0.0056911544 0.066396803 0.68359226
-0.00569219 0.064511478 0.68363392
-0.0056932261 0.062625498 0.68367565
-0.0056943707 0.060739934 0.68372172
-0.0056956676 0.058855236 0.68377388
-0.0056969859 0.056969881 0.68382692
-0.0056982837 0.055083394 0.68387914
-0.0056996034 0.053196281 0.6839323
-0.0057009459 0.051308513 0.68398625
-0.0057023531 0.049420416 0.68404293
-0.0057039349 0.047532767 0.68410653
-0.0057055396 0.045644313 0.68417108
-0.0057071447 0.043754756 0.68423569
-0.0057007289 0.041805357 0.6839776
-0.0057023102 0.039916188 0.68404114
-0.0057039135 0.038026094 0.68410563
-0.0057054958 0.036134779 0.68416935
-0.00570708 0.034242481 0.68423307
-0.0057089897 0.032350928 0.68430996
-0.0057109008 0.030458182 0.68438685
-0.0057128137 0.028564066 0.68446374
-0.0057147276 0.026668727 0.68454081
-0.0057166424 0.024772108 0.68461788
-0.0057185376 0.022874177 0.68469411
-0.0057204552 0.020974994 0.68477124
-0.0057223747 0.019074589 0.68484849
-0.005724295 0.017172903 0.68492579
-0.0057263477 0.015270263 0.68500835
-0.0057285763 0.013366669 0.68509805
-0.0057308073 0.011461645 0.68518776
-0.0057330397 0.0095550716 0.68527764
-0.0057352739 0.0076470077 0.68536758
-0.00573751 0.0057375133 0.68545747
-0.005739748 0.0038265288 0.68554747
-0.0057419874 0.0019139946 0.68563771
-0.0057442286 5.9604645e-08 0.68572783
-0.0057464712 -0.0019154847 0.68581808
-0.0057489141 -0.0038326085 0.68591636
-0.0057514696 -0.0057514906 0.68601918
-0.0057540052 -0.0076720119 0.68612123
-0.0057565644 -0.0095942616 0.68622422
-0.005759127 -0.01151824 0.68632728
-0.005761669 -0.013443887 0.68642962
-0.0057642357 -0.015371293 0.68653286
-0.0057668039 -0.017300427 0.68663621
-0.0057693534 -0.019231141 0.68673873
-0.0057719261 -0.021163702 0.68684232
-0.0057747466 -0.023099005 0.68695581
-0.0057776137 -0.025036305 0.6870712
-0.0057804841 -0.026975572 0.68718666
-0.0057833572 -0.028916746 0.68730217
-0.0057862327 -0.030859888 0.68741798
-0.0057891114 -0.032804936 0.6875338
-0.0057919933 -0.034751952 0.68764973
-0.0057948772 -0.036700875 0.68776572
-0.0057977648 -0.038651764 0.68788201
-0.0058006546 -0.040604591 0.68799824
-0.0058038398 -0.042561531 0.68812639
-0.0058070505 -0.044520706 0.68825555
-0.0058102421 -0.046481937 0.68838406
-0.0058134375 -0.048445314 0.68851262
-0.0058166366 -0.050410867 0.68864131
-0.0058198613 -0.052378744 0.68877107
-0.0058230674 -0.054348618 0.68889999
-0.0058262767 -0.056320667 0.68902922
-0.0058295121 -0.058295131 0.68915939
-0.0058327969 -0.060272217 0.6892916
-0.005836335 -0.06225419 0.68943387
-0.005839854 -0.064238369 0.68957555
-0.0058434005 -0.066225231 0.68971819
-0.0058469283 -0.068214178 0.68986017
-0.0058504608 -0.07020551 0.69000226
-0.0058540199 -0.072199553 0.69014549
-0.0058575603 -0.074195772 0.69028795
-0.0058611059 -0.076194376 0.69043058
-0.0058646551 -0.078195393 0.69057345
-0.0058684153 -0.080201656 0.69072473
-0.0058722952 -0.08221212 0.69088089
-0.0058761803 -0.084225252 0.69103718
-0.0058800704 -0.086241037 0.6911937
-0.0037748958 0.09059751 0.68243307
-0.0037695495 0.088584453 0.68211037
-0.0037702171 0.086714983 0.6821506
-0.0037708846 0.084844917 0.68219095
-0.0037715954 0.08297509 0.68223381
-0.0037724625 0.081107974 0.68228614
-0.0037733444 0.079240233 0.68233943
-0.0037742266 0.077371657 0.68239266
-0.0037751095 0.075502217 0.68244588
-0.0037759929 0.073631853 0.68249923
-0.0037768618 0.071760386 0.68255174
-0.0037777461 0.069888294 0.68260503
-0.0037787305 0.068017125 0.68266445
-0.0037797722 0.066146046 0.68272734
-0.0037808288 0.064274102 0.68279111
-0.0037818863 0.062401146 0.68285495
-0.0037829301 0.060526848 0.68291795
-0.0037839885 0.058651835 0.68298185
-0.0037850905 0.056776375 0.68304837
-0.003786179 0.054899633 0.68311399
-0.0037873108 0.053022355 0.68318236
-0.0037885727 0.051145732 0.68325853
-0.0037898496 0.049268067 0.68333554
-0.0037911132 0.047388941 0.68341184
-0.0037923916 0.045508713 0.68348902
-0.0037936568 0.043627083 0.68356538
-0.0037897204 0.041686922 0.68332779
-0.0037909837 0.039805293 0.68340409
-0.003792248 0.037922502 0.68348038
-0.0037936568 0.03603974 0.68356538
-0.0037951244 0.034156114 0.68365395
-0.0037965928 0.032271028 0.68374258
-0.0037980627 0.030384511 0.68383133
-0.0037995337 0.028496504 0.68392003
-0.0038010059 0.026607037 0.6840089
-0.0038024788 0.024716139 0.68409783
-0.0038039389 0.022823632 0.68418592
-0.0038054287 0.020929843 0.68427587
-0.0038069054 0.019034535 0.68436497
-0.0038085568 0.017138511 0.68446469
-0.0038102246 0.015240878 0.68456531
-0.003811908 0.013341725 0.68466693
-0.0038135932 0.011440784 0.68476862
-0.0038152651 0.0095381737 0.68486953
-0.0038169532 0.0076339245 0.68497145
-0.003818643 0.0057279468 0.68507344
-0.0038203339 0.0038203299 0.68517542
-0.0038220119 0.0019109845 0.68527675
-0.0038237059 2.9802322e-08 0.68537903
-0.0038255916 -0.0019128025 0.68549281
-0.0038274792 -0.0038274825 0.68560672
-0.0038293684 -0.00574404 0.6857208
-0.0038312599 -0.0076625049 0.68583488
-0.0038331528 -0.0095828772 0.68594915
-0.0038350478 -0.011505127 0.68606353
-0.0038369447 -0.013429314 0.68617797
-0.0038388434 -0.015355378 0.68629265
-0.003840744 -0.01728335 0.68640733
-0.0038426612 -0.019213319 0.68652308
-0.0038447725 -0.021146268 0.68665051
-0.0038468712 -0.023081243 0.68677717
-0.003848972 -0.025018305 0.68690395
-0.0038510757 -0.026957512 0.68703091
-0.0038531958 -0.028898954 0.68715888
-0.0038553039 -0.030842423 0.68728608
-0.003857414 -0.032788038 0.68741351
-0.0038595265 -0.034735769 0.68754095
-0.0038616566 -0.036685765 0.68766952
-0.0038638331 -0.038638294 0.68780088
-0.003866147 -0.040594548 0.6879406
-0.0038684786 -0.042553276 0.68808126
-0.0038708129 -0.044514328 0.68822211
-0.0038731352 -0.046477616 0.68836236
-0.00387546 -0.048443228 0.68850261
-0.0038778025 -0.050411463 0.68864405
-0.0038801334 -0.052381784 0.68878466
-0.0038824666 -0.054354548 0.6889255
-0.0038848177 -0.056329846 0.68906742
-0.0038872773 -0.058309138 0.6892159
-0.0038898161 -0.060292155 0.68936908
-0.0038923728 -0.062277973 0.6895234
-0.003894933 -0.064266413 0.68967789
-0.003897497 -0.066257447 0.68983269
-0.0039000639 -0.068251103 0.6899876
-0.0039026495 -0.07024768 0.69014364
-0.0039052234 -0.072246611 0.69029903
-0.0039078007 -0.074248195 0.69045454
-0.0039103813 -0.076252431 0.69061029
-0.0039131795 -0.078263581 0.69077921
-0.0039159665 -0.080277324 0.69094735
-0.0039187577 -0.082293928 0.69111592
-0.0039215679 -0.084313706 0.69128555
-0.0039243666 -0.086336061 0.69145441
-0.0039271852 -0.088361666 0.69162452
-0.0018792603 0.090204477 0.6814447
-0.0018775748 0.088246018 0.68124127
-0.0018780894 0.086392105 0.68130338
-0.0018786252 0.084538132 0.68136811
-0.0018791684 0.082683384 0.68143362
-0.0018797121 0.080827624 0.68149924
-0.0018802559 0.07897079 0.68156493
-0.0018807933 0.077112526 0.68162978
-0.0018813377 0.075253516 0.68169546
-0.0018818825 0.073393404 0.68176126
-0.001882463 0.07153362 0.6818313
-0.0018830865 0.069674194 0.68190658
-0.0018837175 0.067813843 0.68198276
-0.0018843417 0.065951914 0.6820581
-0.0018849736 0.064089119 0.68213439
-0.0018856128 0.062225252 0.68221152
-0.0018862598 0.060360312 0.6822896
-0.0018869069 0.058494151 0.68236774
-0.0018875548 0.056626648 0.68244594
-0.00188826 0.054759532 0.68253106
-0.0018889942 0.05289185 0.68261975
-0.001889722 0.05102253 0.68270749
-0.0018904574 0.049151868 0.6827963
-0.0018911861 0.047279656 0.68288428
-0.0018919155 0.045405984 0.68297231
-0.0018926526 0.043531001 0.68306124
-0.0018910074 0.041602194 0.6828627
-0.0018915721 0.039723039 0.68293089
-0.001892395 0.037847906 0.68303019
-0.0018932256 0.035971284 0.68313038
-0.0018940569 0.034093052 0.68323088
-0.0018948889 0.032213122 0.68333125
-0.0018957146 0.030331433 0.68343097
-0.001896548 0.028448254 0.68353152
-0.0018973823 0.026563346 0.68363219
-0.0018982101 0.02467671 0.68373215
-0.0018990458 0.022788554 0.683833
-0.0018998968 0.020898879 0.6839357
-0.0019008277 0.019008279 0.68404812
-0.0019017596 0.017115831 0.68416065
-0.0019026926 0.015221536 0.68427324
-0.0019036264 0.013325393 0.68438596
-0.0019045611 0.011427343 0.68449879
-0.0019054968 0.0095274746 0.68461174
-0.0019064335 0.0076257586 0.68472481
-0.0019073709 0.0057221055 0.68483794
-0.0019083093 0.0038166046 0.68495125
-0.0019092704 0.001909256 0.6850673
-0.0019103056 -0 0.68519217
-0.0019113417 -0.0019113123 0.68531728
-0.0019123791 -0.0038247406 0.68544251
-0.0019134248 -0.0057402551 0.68556875
-0.0019144645 -0.0076578557 0.68569422
-0.0019155052 -0.0095775425 0.68581986
-0.0019165471 -0.011499286 0.68594563
-0.0019175975 -0.013423175 0.68607241
-0.0019186415 -0.01534912 0.68619847
-0.0019197236 -0.017277479 0.68632907
-0.0019208658 -0.01920867 0.68646699
-0.0019220171 -0.021142155 0.68660587
-0.001923162 -0.023077935 0.68674415
-0.0019243159 -0.025016099 0.68688333
-0.0019254637 -0.026956499 0.68702191
-0.0019266203 -0.028899282 0.68716156
-0.0019277708 -0.030844331 0.68730044
-0.0019289227 -0.032791704 0.6874395
-0.0019300835 -0.034741491 0.68757963
-0.0019312903 -0.036694527 0.68772525
-0.0019325509 -0.038651019 0.68787742
-0.0019338132 -0.040610105 0.68802983
-0.0019350771 -0.042571694 0.68818235
-0.0019363428 -0.044535905 0.68833524
-0.00193761 -0.04650265 0.68848813
-0.0019388788 -0.048471957 0.68864131
-0.0019401493 -0.050443888 0.68879473
-0.0019414215 -0.052418381 0.68894821
-0.0019426954 -0.054395467 0.68910199
-0.0019440692 -0.056378007 0.68926781
-0.0019454448 -0.058363318 0.68943387
-0.0019468301 -0.060351759 0.68960106
-0.0019482097 -0.062342703 0.6897676
-0.0019495989 -0.064336777 0.68993533
-0.0019509824 -0.066333383 0.69010234
-0.001952368 -0.068332881 0.69026959
-0.001953763 -0.070335448 0.69043803
-0.0019551525 -0.072340637 0.69060576
-0.0019566128 -0.074351281 0.69078195
-0.0019581211 -0.076366752 0.69096404
-0.0019596242 -0.078384936 0.69114548
-0.0019611372 -0.080406606 0.69132817
-0.0019626527 -0.082431436 0.69151109
-0.0019641705 -0.084459335 0.69169432
-0.001965683 -0.086490035 0.69187683
-0.0019672054 -0.088524237 0.69206059
0 0.089907676 0.68069828
0 0.087986827 0.68057561
0 0.08614409 0.68065262
0 0.084300101 0.68072957
0 0.08245489 0.68080664
0 0.080608368 0.68088377
0 0.078760654 0.68096095
0 0.076911628 0.68103814
0 0.075061589 0.68111628
0 0.073213369 0.68120384
0 0.07136336 0.68129063
0 0.06951201 0.68137741
0 0.067659497 0.68146509
0 0.065805763 0.68155384
0 0.063950568 0.68164253
0 0.062094152 0.68173218
0 0.060236126 0.68182105
0 0.058377236 0.68191254
0 0.056518763 0.68201184
0 0.054658651 0.6821112
0 0.05279699 0.68221068
0 0.050933629 0.68231022
0 0.049068481 0.68240899
0 0.047201872 0.68250871
0 0.045333654 0.68260854
0 0.043463796 0.68270838
0 0.041574657 0.68271184
0 0.039669186 0.68262142
0 0.037798584 0.68273252
0 0.035926163 0.68284369
0 0.034051925 0.68295509
0 0.032175809 0.68306649
0 0.030297935 0.68317801
0 0.028418183 0.68328971
0 0.026536554 0.68340147
0 0.024653137 0.68351334
0 0.022768229 0.6836288
0 0.02088213 0.68375218
0 0.018993974 0.68387568
0 0.017103881 0.68400019
0 0.015211642 0.68412399
0 0.013317347 0.68424791
0 0.011421084 0.68437195
0 0.0095227063 0.68449616
0 0.0076223016 0.68462139
0 0.0057198405 0.68474579
0 0.0038153827 0.68487477
0 0.0019088387 0.68501186
0 -0 0.68514818
0 -0.0019110441 0.68528557
0 -0.0038244426 0.68542308
0 -0.0057400763 0.68555987
0 -0.0076579452 0.68569773
0 -0.0095781684 0.68583488
0 -0.011500597 0.68597221
0 -0.01342541 0.68611056
0 -0.015352815 0.68625438
0 -0.017283171 0.68640471
0 -0.019215941 0.68655515
0 -0.021151185 0.68670481
0 -0.023089051 0.68685573
0 -0.025029391 0.68700677
0 -0.026972234 0.68715793
0 -0.02891767 0.68730938
0 -0.03086561 0.68746102
0 -0.032816112 0.68761289
0 -0.034770727 0.68777567
0 -0.036728263 0.68793964
0 -0.03868866 0.68810469
0 -0.040651709 0.68826914
0 -0.042617649 0.68843472
0 -0.044586301 0.68859965
0 -0.046557784 0.68876565
0 -0.04853195 0.68893099
0 -0.050508916 0.68909657
0 -0.052490056 0.68926877
0 -0.054475814 0.68944854
0 -0.056464672 0.6896286
0 -0.058456302 0.68980789
0 -0.060451239 0.68998855
0 -0.062449217 0.69016945
0 -0.064450264 0.69035053
0 -0.066454142 0.69053102
0 -0.068461359 0.69071275
0 -0.070472509 0.69089746
0 -0.072490215 0.69109368
0 -0.074510932 0.69128919
0 -0.076535344 0.691486
0 -0.078562796 0.69168216
0 -0.080593944 0.69187963
0 -0.082628131 0.69207644
0 -0.084665731 0.69227374
0 -0.086707011 0.6924721
0.0018687882 0.089701831 0.68018061
0.0018678812 0.0877904 0.68007112
0.0018686136 0.085956275 0.68015951
0.0018693396 0.084120303 0.68024719
0.0018700733 0.082283229 0.68033576
0.0018708005 0.080444425 0.68042356
0.0018715352 0.078604519 0.68051219
0.0018723125 0.076764822 0.68060607
0.0018731186 0.074924767 0.68070334
0.0018739324 0.073083341 0.68080157
0.0018747469 0.071240425 0.68089986
0.0018755761 0.069396347 0.68099999
0.0018764061 0.0675506 0.68110019
0.0018772368 0.065703303 0.68120044
0.0018780682 0.063854307 0.68130082
0.0018788934 0.062003493 0.68140042
0.0018797686 0.06015262 0.68150604
0.0018806801 0.058301121 0.68161607
0.0018815994 0.056447983 0.68172705
0.0018825127 0.054592848 0.68183732
0.0018834268 0.052735955 0.68194759
0.0018843488 0.050877422 0.68205899
0.0018852648 0.049016863 0.6821695
0.0018861814 0.047154546 0.68228018
0.0018871063 0.04529056 0.68239182
0.0018880533 0.043425262 0.68250608
0.0018889015 0.041555852 0.68260849
0.0018876117 0.039639831 0.6824528
0.0018886235 0.037772477 0.68257499
0.0018896363 0.035903066 0.68269718
0.0018906501 0.034031689 0.6828196
0.0018916724 0.032158434 0.68294293
0.0018926885 0.030283004 0.68306565
0.0018937057 0.028405547 0.68318844
0.001894724 0.026526123 0.68331134
0.0018957864 0.024645209 0.68343961
0.0018969004 0.022762805 0.68357402
0.0018980228 0.020878255 0.6837095
0.0018991467 0.01899147 0.68384516
0.0019002646 0.01710242 0.68398011
0.0019013912 0.015211165 0.68411613
0.0019025117 0.013317585 0.68425143
0.0019036409 0.011421829 0.68438774
0.0019047641 0.009523809 0.68452328
0.001905896 0.0076235831 0.68465996
0.0019070728 0.0057212114 0.68480194
0.0019082947 0.0038166046 0.68494952
0.0019095255 0.001909554 0.68509805
0.0019107579 2.9802322e-08 0.68524677
0.0019119919 -0.0019119978 0.68539578
0.0019132273 -0.0038264394 0.68554485
0.0019144571 -0.0057433248 0.68569332
0.0019157032 -0.0076628029 0.68584371
0.0019169435 -0.0095847249 0.68599343
0.0019181855 -0.01150915 0.6861434
0.0019195026 -0.013436526 0.68630242
0.0019208437 -0.015366733 0.68646425
0.0019221943 -0.017299742 0.68662727
0.0019235391 -0.019235373 0.68678957
0.0019248932 -0.021173805 0.68695301
0.001926242 -0.02311489 0.68711591
0.0019275999 -0.025058776 0.68727982
0.0019289524 -0.027005315 0.68744308
0.0019303143 -0.028954744 0.68760753
0.0019317004 -0.030907214 0.68777478
0.0019331707 -0.032863885 0.68795222
0.001934643 -0.034823596 0.68813002
0.0019361104 -0.036786109 0.68830711
0.0019375875 -0.038751751 0.68848544
0.0019390667 -0.040720373 0.68866396
0.0019405481 -0.042692065 0.68884283
0.0019420319 -0.044666737 0.68902194
0.0019435105 -0.046644241 0.6892004
0.0019450063 -0.048625141 0.689381
0.0019466028 -0.050611675 0.68957365
0.0019482021 -0.052601457 0.68976671
0.0019498116 -0.054594725 0.68996096
0.0019514161 -0.056591064 0.69015467
0.0019530308 -0.058590889 0.69034958
0.0019546407 -0.060593843 0.69054395
0.0019562608 -0.062600344 0.69073951
0.0019578761 -0.064609915 0.69093442
0.0019595169 -0.066623569 0.69113255
0.0019612603 -0.068644136 0.69134301
0.001963007 -0.07066825 0.69155383
0.0019647568 -0.072696 0.69176507
0.0019665172 -0.074727625 0.6919775
0.0019682732 -0.076762676 0.69218951
0.0019700325 -0.078801304 0.69240189
0.0019717948 -0.080843538 0.69261456
0.001973568 -0.082889825 0.69282866
0.0019754146 -0.084942803 0.69305158
0.0019773117 -0.087001711 0.69328052
0.0037319732 0.089567363 0.67984247
0.0037298447 0.087651342 0.67971396
0.003731472 0.085823923 0.67981219
0.0037331143 0.083995074 0.67991132
0.0037347586 0.082164705 0.6800105
0.0037364042 0.080332696 0.68010986
0.0037381905 0.078501999 0.68021768
0.0037399929 0.076669872 0.68032646
0.0037418108 0.074836254 0.68043619
0.0037436443 0.073001087 0.68054682
0.003745466 0.071163863 0.68065679
0.0037473033 0.069325119 0.68076766
0.0037491426 0.067484528 0.6808787
0.0037509834 0.065642208 0.68098974
0.0037528123 0.063797802 0.68110019
0.0037547692 0.061953723 0.68121827
0.0037567709 0.060108334 0.68133909
0.0037587888 0.058261216 0.68146086
0.0037607944 0.056411952 0.68158197
0.0037628028 0.054560632 0.68170315
0.0037648268 0.052707583 0.68182534
0.0037668392 0.050852358 0.68194675
0.0037688538 0.048995107 0.68206835
0.0037708988 0.047136217 0.68219179
0.0037729889 0.045275867 0.68231791
0.0037752094 0.043414921 0.68245196
0.0037774181 0.04155156 0.68258524
0.0037747107 0.039634436 0.68242192
0.0037769333 0.037769318 0.68255603
0.003779144 0.035901874 0.68268943
0.0037813717 0.034032345 0.68282396
0.0037836023 0.03216064 0.68295854
0.0037858209 0.03028661 0.68309242
0.0037880566 0.028410465 0.6832273
0.0037903665 0.02653259 0.68336678
0.0037927942 0.024653137 0.68351334
0.0037952249 0.022771358 0.68366003
0.0037976592 0.020887107 0.68380696
0.0038000962 0.0190005 0.68395406
0.0038025223 0.017111361 0.68410045
0.0038049659 0.015219867 0.68424791
0.0038074122 0.013325989 0.68439555
0.0038098618 0.011429578 0.68454343
0.0038123147 0.0095307827 0.68469149
0.0038149017 0.007629782 0.68484759
0.0038175648 0.0057263672 0.68500835
0.0038202172 0.0038201809 0.68516845
0.0038228731 0.0019114316 0.68532878
0.0038255476 -0 0.68549019
0.0038282112 -0.0019141138 0.68565094
0.003830893 -0.0038309097 0.68581283
0.0038335642 -0.0057503581 0.685974
0.0038362534 -0.0076724887 0.68613631
0.003838961 -0.0095974207 0.6862998
0.0038418646 -0.011525601 0.68647498
0.0038447725 -0.013456702 0.6866504
0.0038476847 -0.015390724 0.68682629
0.0038505865 -0.017327666 0.68700141
0.0038535078 -0.019267559 0.68717766
0.0038564331 -0.021210402 0.68735421
0.003859363 -0.023156166 0.68753105
0.0038622974 -0.02510488 0.6877082
0.0038652213 -0.027056575 0.68788463
0.003868344 -0.029012591 0.68807316
0.0038715168 -0.030972093 0.68826467
0.0038746798 -0.032934755 0.68845552
0.0038778628 -0.034900784 0.68864763
0.0038810363 -0.036869824 0.6888392
0.0038842147 -0.038842142 0.689031
0.0038874135 -0.040817827 0.68922406
0.0038906024 -0.042796642 0.68941659
0.0038938115 -0.044778854 0.6896103
0.0038972236 -0.046766669 0.68981618
0.0039006721 -0.048758388 0.69002432
0.0039041264 -0.050753653 0.69023275
0.0039076023 -0.052752614 0.69044262
0.0039110691 -0.054754972 0.69065177
0.0039145416 -0.056760848 0.6908614
0.003918021 -0.058770329 0.69107139
0.0039215214 -0.060783595 0.69128269
0.0039250748 -0.062801212 0.69149709
0.0039288346 -0.064825773 0.69172406
0.0039326022 -0.066854239 0.69195145
0.0039363764 -0.068886548 0.69217926
0.0039401581 -0.070922822 0.69240749
0.0039439471 -0.072963029 0.69263619
0.0039477278 -0.075006813 0.69286436
0.0039515314 -0.077054888 0.69309396
0.0039553735 -0.079107493 0.69332588
0.0039594737 -0.081169218 0.69357336
0.0039635827 -0.083235234 0.69382125
0.0039677001 -0.085305512 0.6940698
0.0039718258 -0.087380171 0.69431883
0.0055938084 0.089500934 0.6796754
0.0055893296 0.087566167 0.67949516
0.0055920575 0.085744858 0.67960495
0.0055947881 0.08392182 0.67971486
0.005597542 0.082097262 0.6798256
0.0056005078 0.080273926 0.67994499
0.0056034974 0.078448951 0.68006521
0.0056065111 0.076622337 0.68018651
0.0056095072 0.074793398 0.68030703
0.0056125275 0.07296285 0.68042862
0.005615551 0.071130306 0.68055028
0.0056185564 0.069295526 0.68067122
0.0056215865 0.067459047 0.68079305
0.0056246198 0.065620571 0.68091518
0.0056278673 0.063782483 0.68104583
0.00563114 0.061942548 0.6811775
0.0056344368 0.060100645 0.68131018
0.0056377174 0.058256388 0.68144214
0.0056410222 0.056410223 0.68157512
0.0056443317 0.054561883 0.68170828
0.0056476225 0.052711159 0.68184066
0.0056509399 0.050858468 0.68197417
0.005654281 0.04900378 0.68210864
0.0056577339 0.04714781 0.68224758
0.00566134 0.045290709 0.68239266
0.0056649512 0.043431282 0.68253791
0.0056685451 0.041569322 0.68268251
0.005664737 0.039653182 0.68252933
0.0056683519 0.037789017 0.68267483
0.0056719719 0.035922527 0.68282044
0.0056755962 0.034053594 0.68296629
0.0056792037 0.032182187 0.68311143
0.0056828372 0.030308485 0.68325764
0.0056866482 0.028433233 0.683411
0.0056905928 0.026556104 0.68356973
0.0056945225 0.024676263 0.6837278
0.0056984778 0.022793919 0.683887
0.0057024183 0.020908862 0.68404555
0.0057063852 0.019021302 0.68420511
0.0057103359 0.017130971 0.68436408
0.0057143145 0.015238166 0.68452418
0.0057182759 0.013342649 0.68468362
0.0057222438 0.011444509 0.68484318
0.0057265442 0.0095442235 0.68501621
0.0057308511 0.0076411366 0.6851896
0.0057351645 0.0057351589 0.68536311
0.005739463 0.0038263202 0.68553603
0.005743789 0.0019146204 0.68571013
0.0057481215 2.9802322e-08 0.68588448
0.0057524615 -0.0019174814 0.68605912
0.0057568075 -0.0038378239 0.686234
0.0057611386 -0.0057611167 0.68640822
0.005765697 -0.0076875985 0.68659163
0.0057703955 -0.0096172988 0.68678069
0.0057750801 -0.011550158 0.6869691
0.005779794 -0.013486177 0.68715888
0.0057844939 -0.015425295 0.68734789
0.0057892231 -0.017367631 0.68753827
0.0057939379 -0.019313127 0.68772805
0.0057986607 -0.021261752 0.68791801
0.0058034132 -0.023213625 0.68810922
0.0058083762 -0.025169641 0.68830895
0.0058134822 -0.027129531 0.68851435
0.005818598 -0.029092997 0.68872023
0.0058237454 -0.03105998 0.68892729
0.0058288784 -0.033030301 0.68913394
0.0058340207 -0.035004109 0.68934077
0.0058391728 -0.036981434 0.68954808
0.005844356 -0.038962364 0.68975663
0.0058495258 -0.040946662 0.68996465
0.00585507 -0.042937189 0.69018781
0.0058606486 -0.04493162 0.69041216
0.005866237 -0.046929896 0.69063711
0.0058718361 -0.048931956 0.69086236
0.0058774231 -0.050937653 0.69108713
0.0058830427 -0.052947372 0.69131327
0.0058886739 -0.054960966 0.69153988
0.0058943164 -0.056978375 0.69176692
0.0059002708 -0.059002697 0.69200647
0.0059063532 -0.061032325 0.69225121
0.0059124487 -0.063066095 0.69249648
0.0059185568 -0.065104157 0.69274223
0.0059247003 -0.067146569 0.69298941
0.0059308331 -0.069193065 0.69323623
0.0059369793 -0.071243733 0.69348353
0.0059431377 -0.073298693 0.69373137
0.0059497333 -0.075363308 0.69399673
0.0059563913 -0.077433109 0.69426459
0.0059630638 -0.07950753 0.69453311
0.0059697512 -0.081586599 0.69480211
0.0059764306 -0.08367002 0.69507092
0.0059831482 -0.085758448 0.69534123
0.0059898808 -0.087851584 0.69561207
0.0074583828 0.089500636 0.67967451
0.0074496935 0.087533921 0.67941236
0.0074536614 0.085717112 0.67953205
0.0074577718 0.083899945 0.67965609
0.007462109 0.082083195 0.67978698
0.0074664797 0.080264658 0.67991889
0.0074708275 0.078443706 0.68005008
0.007475208 0.076620877 0.68018228
0.0074795661 0.074795663 0.68031383
0.0074839294 0.072968334 0.68044543
0.0074883257 0.071139097 0.68057811
0.0074926987 0.069307446 0.68071008
0.0074971053 0.067473948 0.68084311
0.0075018546 0.065641195 0.6809864
0.0075066094 0.063806206 0.68112993
0.0075113703 0.061968803 0.68127358
0.0075161373 0.060129106 0.68141747
0.0075209108 0.058287054 0.68156147
0.0075256899 0.056442708 0.68170571
0.007530476 0.054595947 0.68185014
0.0075352951 0.052747101 0.68199557
0.0075401217 0.05089581 0.68214124
0.0075451811 0.049043685 0.68229389
0.0075503616 0.047189772 0.68245018
0.0075555779 0.045333505 0.68260765
0.0075607728 0.043474466 0.68276441
0.0075660031 0.041613042 0.68292224
0.0075611724 0.039696187 0.68277645
0.0075663743 0.037831873 0.68293345
0.007571613 0.035965204 0.68309152
0.0075768298 0.034095764 0.683249
0.0075820829 0.032223821 0.68340749
0.0075876592 0.030350655 0.68357581
0.00759333 0.028475016 0.68374693
0.0075990097 0.026596516 0.68391836
0.0076046688 0.024715185 0.68408906
0.0076103653 0.022831082 0.68426102
0.0076160706 0.020944208 0.68443322
0.0076217842 0.019054472 0.6846056
0.0076275058 0.017161876 0.68477827
0.0076332372 0.015266508 0.68495119
0.0076391515 0.013368547 0.6851297
0.0076453085 0.011467993 0.68531549
0.0076514757 0.0095643401 0.68550164
0.0076576821 0.0076577067 0.68568891
0.0076638693 0.0057479143 0.68587565
0.0076700957 0.0038350523 0.68606353
0.0076763029 0.0019190907 0.68625081
0.00768252 2.9802322e-08 0.68643844
0.0076887771 -0.00192222 0.68662727
0.0076951915 -0.003847599 0.68682086
0.0077019138 -0.0057764053 0.68702376
0.0077086478 -0.0077086687 0.68722689
0.0077154227 -0.0096442699 0.68743145
0.0077221808 -0.011583298 0.68763536
0.0077289497 -0.013525695 0.68783963
0.0077357311 -0.015471458 0.68804425
0.0077425539 -0.017420739 0.68825018
0.0077493596 -0.019373387 0.68845552
0.007756507 -0.021330386 0.68867123
0.0077638486 -0.023291528 0.68889278
0.007771174 -0.025256306 0.68911386
0.007778543 -0.027224869 0.68933624
0.0077859266 -0.029197186 0.68955904
0.0077933241 -0.031173289 0.68978232
0.007800736 -0.033153117 0.69000596
0.0078081614 -0.035136729 0.69023001
0.0078157848 -0.037124991 0.69046009
0.0078237895 -0.039118975 0.6907016
0.007831811 -0.041117013 0.69094372
0.007839879 -0.043119341 0.6911872
0.0078479331 -0.045125633 0.69143027
0.0078560039 -0.047136009 0.69167376
0.0078640906 -0.049150556 0.69191784
0.007872195 -0.051169276 0.69216245
0.0078806262 -0.053194225 0.69241691
0.0078893872 -0.05522573 0.69268119
0.0078981668 -0.057261705 0.6929462
0.007906965 -0.059302241 0.69321173
0.0079157529 -0.061347067 0.69347692
0.0079245912 -0.063396722 0.69374359
0.0079334499 -0.065450966 0.69401091
0.0079424223 -0.067510575 0.6942817
0.0079520158 -0.069580138 0.6945712
0.0079616634 -0.071654975 0.69486237
0.0079713035 -0.073734552 0.69515336
0.007980966 -0.075819135 0.69544488
0.0079906527 -0.077908874 0.69573718
0.0080003953 -0.080003947 0.69603121
0.0080098398 -0.082100868 0.69631624
0.0080183763 -0.084192961 0.69657385
0.0080268988 -0.086289167 0.69683099
0.0080354381 -0.088389844 0.69708878
0.0093297241 0.089565396 0.67983735
0.0093141282 0.087552845 0.67946088
0.0093198186 0.085742354 0.67959821
0.0093257241 0.083931535 0.67974085
0.0093316026 0.082118094 0.67988276
0.009337524 0.080302685 0.6800257
0.0093434518 0.078485012 0.68016881
0.0093493527 0.076664686 0.68031126
0.0093552964 0.074842393 0.68045473
0.0093612475 0.073017687 0.68059844
0.0093672061 0.071190774 0.68074226
0.0093732774 0.069362283 0.68088889
0.0093797091 0.06753394 0.6810441
0.0093861129 0.065702796 0.68119878
0.0093925623 0.063869447 0.68135446
0.0093989847 0.062033266 0.68150949
0.0094054509 0.06019488 0.6816656
0.009411891 0.058353692 0.68182111
0.0094183749 0.05651024 0.68197763
0.009424868 0.054664284 0.68213439
0.0094313696 0.052815646 0.68229133
0.0094383443 0.050967067 0.68245971
0.0094453637 0.049115926 0.68262917
0.0094523579 0.047261804 0.68279803
0.0094593987 0.04540512 0.68296802
0.0094664497 0.043545663 0.68313825
0.0094734766 0.041683286 0.68330783
0.0094677759 0.039764673 0.68317026
0.0094748391 0.037899375 0.68334079
0.0094819134 0.036031276 0.68351156
0.0094891069 0.034160823 0.68368518
0.0094967065 0.03228879 0.68386871
0.0095043555 0.030413955 0.68405336
0.0095119802 0.028535932 0.68423742
0.0095196171 0.026654959 0.68442184
0.0095273023 0.024770975 0.68460733
0.0095349643 0.022883922 0.68479228
0.0095426748 0.020993859 0.68497849
0.009550361 0.019100755 0.68516403
0.0095581328 0.017204642 0.68535167
0.0095664291 0.015306294 0.68555194
0.0095747402 0.013404638 0.68575257
0.0095831016 0.011499763 0.68595445
0.0095914425 0.0095914602 0.68615592
0.0095997965 0.0076798201 0.68635756
0.0096081663 0.0057648718 0.68655956
0.0096165864 0.0038466156 0.68676287
0.009624985 0.0019249916 0.68696564
0.0096336212 -0 0.68717408
0.0096426429 -0.0019285083 0.68739194
0.0096517205 -0.0038606822 0.6876111
0.009660814 -0.0057964623 0.68783063
0.009669926 -0.0077359378 0.68805057
0.0096790539 -0.0096790493 0.68827099
0.0096881995 -0.011625856 0.68849176
0.0096973628 -0.013576299 0.68871295
0.0097065046 -0.015530407 0.68893367
0.0097164195 -0.017489523 0.68917304
0.0097263167 -0.019452631 0.68941206
0.0097362343 -0.021419704 0.68965137
0.0097461715 -0.0233908 0.68989128
0.0097561292 -0.025365949 0.69013166
0.0097661074 -0.027345091 0.69037259
0.0097761061 -0.029328316 0.69061393
0.0097862016 -0.031315863 0.69085777
0.0097970087 -0.033309847 0.69111866
0.00980784 -0.035308242 0.69138014
0.0098186554 -0.037310898 0.69164121
0.0098295342 -0.039318115 0.69190389
0.0098404381 -0.041329861 0.6921671
0.0098513644 -0.043346018 0.69243091
0.0098623168 -0.045366645 0.69269532
0.0098738773 -0.047394603 0.69297439
0.0098857768 -0.04942885 0.69326162
0.0098976661 -0.051467836 0.69354874
0.0099095842 -0.053511739 0.69383645
0.0099215312 -0.055560589 0.69412488
0.0099335071 -0.057614326 0.69441402
0.0099455519 -0.05967328 0.69470477
0.0099567529 -0.061731845 0.6949752
0.0099672657 -0.0637905 0.69522905
0.0099777998 -0.065853447 0.69548333
0.0099883564 -0.067920834 0.69573814
0.0099965781 -0.069976002 0.69593662
0.010004133 -0.07202974 0.69611907
0.0100117 -0.074086577 0.6963017
0.010019277 -0.076146513 0.69648468
0.010026545 -0.078207076 0.69666016
0.010031611 -0.080252886 0.69678247
0.010036683 -0.082300782 0.69690484
0.010041757 -0.084350735 0.69702733
0.010046799 -0.086402476 0.6971491
0.010051804 -0.088455871 0.69726992
0.011212561 0.08970046 0.68017727
0.011186616 0.087628454 0.67965525
0.011194249 0.085822582 0.67980886
0.011201893 0.084014237 0.67996264
0.011209505 0.082203001 0.68011576
0.011217169 0.080389768 0.68026996
0.011224844 0.078573912 0.68042433
0.011232531 0.076755583 0.68057901
0.011240226 0.07493484 0.6807338
0.011247933 0.073111564 0.68088889
0.01125603 0.071288198 0.68105173
0.01126435 0.069463491 0.68121916
0.01127264 0.067635834 0.68138587
0.011280986 0.065805763 0.68155384
0.011289341 0.06397295 0.68172199
0.011297668 0.062137187 0.68188941
0.01130605 0.06029892 0.6820581
0.011314444 0.058457971 0.68222696
0.01132285 0.05661422 0.68239611
0.011331569 0.054769218 0.68257153
0.011340601 0.052922845 0.68275321
0.011349647 0.051073432 0.68293518
0.011358709 0.049221098 0.68311751
0.011367828 0.047365963 0.68330091
0.011376915 0.045507669 0.68348384
0.011386021 0.043646425 0.68366694
0.011395183 0.04178232 0.6838513
0.011388613 0.039860189 0.6837191
0.011397778 0.037992597 0.68390352
0.01140748 0.036123723 0.68409866
0.011417327 0.034251988 0.68429685
0.011427237 0.032377213 0.68449616
0.011437118 0.030498981 0.68469501
0.011447018 0.028617561 0.68489414
0.011456934 0.026732862 0.68509364
0.011466912 0.024844974 0.68529433
0.011476863 0.022953719 0.68549454
0.01148683 0.021059215 0.68569511
0.011497565 0.019162595 0.68591106
0.011508319 0.017262518 0.68612742
0.011519093 0.015358776 0.68634421
0.011529888 0.013451517 0.68656135
0.011540703 0.011540711 0.6867789
0.011551537 0.0096262693 0.68699694
0.011562347 0.0077082217 0.68721443
0.011573224 0.0057866275 0.68743318
0.011584657 0.0038615465 0.68766326
0.011596381 0.0019327402 0.68789905
0.011608128 -0 0.68813545
0.011619899 -0.0019366443 0.68837225
0.011631695 -0.0038772225 0.6886096
0.011643514 -0.0058217645 0.68884736
0.011655359 -0.0077702403 0.6890856
0.011667226 -0.0097226799 0.68932438
0.011679754 -0.011679769 0.68957639
0.011692535 -0.013641268 0.68983352
0.011705393 -0.015607208 0.69009221
0.011718277 -0.01757741 0.69035149
0.01173119 -0.019551963 0.69061124
0.01174413 -0.021530867 0.6908716
0.0117571 -0.023514181 0.69113249
0.01177033 -0.025502354 0.69139868
0.011784376 -0.027496845 0.69168127
0.011798502 -0.029496253 0.69196546
0.011812614 -0.03150034 0.69224936
0.011826761 -0.033509165 0.69253397
0.01184094 -0.035522819 0.69281924
0.011855155 -0.0375413 0.69310522
0.01186931 -0.039564401 0.69339001
0.011882182 -0.041587621 0.69364893
0.011894659 -0.043613732 0.69389993
0.011907112 -0.045643926 0.69415057
0.011918505 -0.04767403 0.69437975
0.011927596 -0.049698323 0.69456261
0.01193656 -0.05172509 0.69474298
0.011945536 -0.053754896 0.69492364
0.011954574 -0.05578801 0.69510537
0.01196191 -0.05781588 0.69525301
0.011967871 -0.059839368 0.69537294
0.011973885 -0.061865032 0.69549388
0.011979905 -0.063892812 0.69561499
0.01198574 -0.065921575 0.69573241
0.011991437 -0.067951471 0.69584703
0.011997236 -0.06998387 0.69596368
0.01200304 -0.072018236 0.69608045
0.01200885 -0.074054569 0.69619733
0.012014616 -0.076092571 0.69631338
0.012020437 -0.078132838 0.69643044
0.01202824 -0.080188274 0.69658744
0.012036582 -0.082249999 0.69675529
0.012044888 -0.084314197 0.69692236
0.012053206 -0.086381331 0.69708973
0.012061583 -0.088451624 0.69725823
0.013112517 0.089914411 0.6807152
0.01307063 0.087759972 0.67999285
0.013080197 0.08595559 0.68015784
0.013089828 0.084148914 0.68032396
0.013099472 0.082339555 0.68049026
0.013109131 0.080527514 0.68065679
0.013118804 0.078712851 0.68082356
0.013128442 0.076895148 0.6809898
0.01313834 0.075076252 0.68116045
0.013148747 0.073257327 0.68133998
0.013159172 0.071435541 0.68151969
0.013169611 0.069610804 0.68169975
0.013180069 0.067783237 0.68188006
0.013190541 0.065952718 0.68206072
0.013201081 0.064119577 0.68224239
0.013211587 0.062283188 0.68242365
0.013222161 0.060444206 0.68260592
0.013232902 0.05860287 0.68279111
0.01324421 0.056760937 0.68298614
0.013255588 0.054915994 0.68318236
0.013266936 0.053067744 0.68337804
0.013278353 0.051216543 0.68357491
0.01328979 0.049362063 0.68377215
0.013301247 0.047504455 0.68396974
0.013312723 0.045643657 0.68416762
0.013324219 0.043779582 0.68436587
0.01333609 0.04191339 0.68457055
0.013329036 0.039987117 0.6844489
0.013341425 0.038118362 0.68466258
0.013353836 0.036246121 0.68487656
0.01336627 0.034370422 0.68509096
0.013378727 0.032491177 0.68530583
0.013391157 0.030608386 0.68552017
0.013403662 0.028722137 0.68573576
0.013416189 0.026832372 0.68595183
0.013428997 0.024939567 0.68617272
0.013442501 0.023044288 0.68640554
0.013456032 0.021145165 0.68663889
0.01346959 0.019242287 0.68687272
0.013483174 0.017335534 0.68710697
0.013496788 0.015424907 0.68734169
0.013510428 0.013510436 0.68757689
0.013524096 0.01159206 0.68781257
0.013538052 0.009670049 0.68805331
0.013552826 0.0077444911 0.688308
0.01356763 0.0058147013 0.68856335
0.013582467 0.0038807094 0.68881917
0.013597338 0.0019425154 0.68907559
0.01361224 2.9802322e-08 0.6893326
0.013627174 -0.0019467175 0.6895901
0.013642143 -0.0038977563 0.68984824
0.013658049 -0.0058534443 0.69012254
0.013674259 -0.0078138411 0.69040203
0.01369056 -0.0097789764 0.69068319
0.013706848 -0.011748701 0.69096404
0.013723174 -0.013723165 0.69124556
0.01373954 -0.015702337 0.69152772
0.013755945 -0.017686218 0.69181067
0.013772063 -0.019674391 0.69208866
0.013786428 -0.021664381 0.69233632
0.013800823 -0.023658544 0.69258457
0.013814595 -0.025655687 0.6928221
0.013826265 -0.027652502 0.69302332
0.013836808 -0.029650301 0.69320512
0.013847146 -0.031650633 0.6933834
0.013857501 -0.033653915 0.69356197
0.013866827 -0.035657585 0.69372284
0.013874792 -0.037660182 0.69386017
0.013881721 -0.039662063 0.69397962
0.013888657 -0.041665941 0.69409919
0.013895433 -0.04367134 0.69421613
0.013901778 -0.045677274 0.69432545
0.013908456 -0.04768613 0.6944406
0.013915143 -0.049696922 0.694556
0.013921835 -0.051709682 0.69467133
0.013928534 -0.053724319 0.69478685
0.013935184 -0.055740714 0.69490159
0.01394245 -0.05776158 0.69502687
0.013952003 -0.059794277 0.69519162
0.013961569 -0.061829776 0.69535661
0.013971204 -0.063868344 0.69552273
0.013980797 -0.065909475 0.69568813
0.013990401 -0.067953378 0.69585377
0.014001307 -0.07000652 0.69604182
0.014014304 -0.072073579 0.69626594
0.01402727 -0.074144125 0.69648945
0.014040259 -0.076218516 0.69671351
0.014053271 -0.07829684 0.69693792
0.014066987 -0.080382794 0.69717443
0.014084352 -0.08249405 0.69747388
0.014101819 -0.084610909 0.69777513
0.014119327 -0.086732998 0.69807702
0.014136823 -0.088859975 0.69837868
0.015034591 0.090207577 0.68145239
0.014970042 0.087949008 0.68047839
0.014981864 0.086145729 0.68065679
0.014993705 0.084339589 0.68083543
0.015005565 0.082530618 0.68101442
0.015017443 0.080718756 0.68119365
0.015029453 0.078904629 0.68137485
0.015042217 0.077091366 0.68156743
0.015055004 0.075275034 0.68176037
0.015067868 0.07345587 0.6819545
0.015080697 0.071633339 0.6821481
0.015093548 0.069807678 0.68234193
0.01510648 0.067979187 0.68253708
0.015119432 0.066147536 0.68273252
0.015132406 0.064312726 0.68292832
0.015145689 0.062475979 0.68312871
0.015159571 0.060638279 0.68333822
0.015173535 0.058797479 0.68354887
0.015187467 0.056952983 0.68375909
0.01520154 0.055105597 0.68397141
0.015215639 0.053254724 0.68418419
0.015229764 0.051400483 0.68439728
0.015243916 0.049542725 0.68461084
0.015258037 0.047681391 0.68482387
0.015272997 0.045818955 0.68504965
0.015288281 0.043953806 0.68528026
0.015303595 0.042084873 0.68551135
0.0152957 0.040151238 0.6853922
0.015311029 0.038277596 0.68562353
0.015326388 0.036400169 0.68585527
0.015341779 0.034518987 0.68608749
0.0153572 0.03263405 0.68632019
0.015372653 0.030745298 0.68655336
0.015389142 0.028854638 0.68680215
0.015405843 0.026960224 0.68705416
0.015422582 0.025061697 0.6873067
0.015439358 0.023159057 0.68755978
0.015456168 0.021252245 0.68781352
0.015473017 0.01934123 0.68806773
0.015489902 0.017426133 0.68832254
0.015507245 0.015507281 0.68858415
0.015525529 0.013584852 0.68886006
