# .PCD v0.7 - Point Cloud Data file format
VERSION 0.7
FIELDS x y z
SIZE 4 4 4
TYPE F F F
COUNT 1 1 1
WIDTH 263
HEIGHT 1
VIEWPOINT 0 0 0 1 0 0 0
POINTS 263
DATA ascii
0.034627374 -0.062329262 0.66359264
0.048396602 -0.055310398 0.66324031
0.046790671 -0.05372262 0.66378808
0.03293464 -0.052002072 0.66383809
0.057427276 -0.053946823 0.66466111
0.045179736 -0.052130461 0.66435474
0.038392339 -0.052353173 0.6652509
0.045522962 -0.047273844 0.66594821
0.031527702 -0.047291577 0.66602743
0.029825443 -0.045615375 0.66637731
0.054662805 -0.047609538 0.667449
0.036995485 -0.044042259 0.66725272
0.040581875 -0.042346299 0.66758341
0.042357806 -0.042357832 0.66764128
0.030276626 -0.062334239 0.669581
0.049923182 -0.041008294 0.6698215
0.031984288 -0.039091915 0.66908932
0.023099028 -0.037313849 0.66908246
0.017815869 -0.035631746 0.66965449
0.017815869 -0.035631746 0.66965449
0.033949755 -0.073260009 0.67028731
0.035766348 -0.033978015 0.6704669
0.035766348 -0.033978015 0.6704669
0.032456752 -0.028850436 0.67225772
0.014504358 -0.025382608 0.67345178
0.021830738 -0.054576844 0.67419821
0.038186848 -0.027276307 0.67410076
0.040119875 -0.027354449 0.67472959
0.0072865291 -0.025502861 0.67448837
0.014590587 -0.023709714 0.67475289
0.063921198 -0.045657992 0.67505419
0.058651604 -0.040322959 0.67584401
0.068041481 -0.044135004 0.67657989
0.012857308 -0.036735147 0.67631423
0.02389821 -0.016544908 0.6765033
0.048004005 -0.029540926 0.67746699
0.040592264 -0.02398631 0.67732155
0.012916054 -0.014761209 0.67732728
0.0018486067 -0.01109165 0.67774451
0.061226156 -0.037106752 0.67855704
0.0074566044 -0.033554733 0.67962086
0.0074612466 -0.00746122 0.67976093
0.059776664 -0.033624351 0.68008798
0.035480075 -0.016806334 0.68000966
0.018734973 -0.0056205094 0.68074906
0.047087088 -0.02448526 0.6819545
0.0037603567 -0.0018801987 0.68155551
0.050889682 -0.026387244 0.68211377
0.02656164 -0.0056917965 0.68361747
-0.013251175 0.003786087 0.68310624
-0.015200269 0.0057001114 0.68395227
-0.0038090642 -0.019045323 0.68449533
0.0095227333 0.0057136118 0.68449706
-0.017163852 0.0076283813 0.68480456
0.0038101231 0.0076202452 0.68455923
-0.0038191529 -0.021005362 0.68510419
0.049812861 -0.01915881 0.68586504
-0.011545274 0.0115453 0.68687087
-0.011545274 0.0115453 0.68687087
0.0019255304 -0.036585063 0.68702996
-0.0096526882 -0.013513744 0.68763447
-0.0019271248 0.01541701 0.68722248
0.019386534 0.005815953 0.68861413
0.011637286 0.01163733 0.68872201
0.0038908294 0.017508745 0.68943024
-0.027224479 0.019446045 0.6893326
0.011715029 0.013667524 0.69028616
-0.017610753 0.025437772 0.69079864
0.029463483 0.0019642711 0.69170171
-0.019593019 0.025470972 0.69110656
-0.0039278786 0.025531203 0.69166636
0.027576545 0.0039395094 0.69236815
-0.019787427 -0.0039574802 0.69345331
-0.025764309 0.0099093616 0.69383073
-0.017794961 0.033612728 0.69326925
-0.019829538 0.035693169 0.69396162
0.019909147 0.011945486 0.69492263
-0.023867805 0.037790686 0.69468951
0.021914363 0.011953294 0.69507951
0.0020001149 0.028001636 0.69603312
-0.030202374 0.010067463 0.69764781
-0.012087809 0.04029268 0.69778585
-0.020201985 -0.010100991 0.69845748
-0.016190808 0.044524759 0.69889838
-0.034389053 0.048549265 0.69878179
-0.036525495 0.020291954 0.6995433
-0.0040544914 0.036490411 0.6993081
-0.028411716 0.050735235 0.69956917
-0.042754218 0.046826065 0.70035464
-0.042954162 0.055226773 0.70150393
-0.042954162 0.055226773 0.70150393
-0.036827337 0.057286978 0.70156753
-0.045108948 0.036907345 0.70210397
-0.049479026 0.057725549 0.70345819
-0.006212729 0.043489099 0.70457888
-0.016559877 0.051749587 0.70446718
-0.051695291 0.05789873 0.70420486
-0.049599394 0.061999261 0.70406365
-0.051849142 0.064292938 0.70494771
-0.051849142 0.064292938 0.70494771
-0.026984034 0.060195178 0.70515645
-0.052028783 0.068677992 0.70581508
-0.0062598833 0.045905828 0.70647615
-0.0041746306 0.045920938 0.70655918
-0.054189496 0.047936827 0.70618451
-0.037594888 0.06892398 0.70671487
-0.05214221 0.070913434 0.70636278
-0.054473586 0.043997884 0.70750344
-0.058585361 0.060677677 0.707165
-0.058907561 0.052596033 0.70855409
-0.058907561 0.052596033 0.70855409
-0.060960397 0.071470827 0.70834172
-0.046435632 0.0780963 0.70938325
-0.053255714 0.034083664 0.71173924
-0.053255714 0.034083664 0.71173924
-0.023824956 -0.012995422 0.7160458
-0.070427805 0.055021733 0.72026634
0.046455041 -0.060219496 0.66228759
0.039727181 -0.056999892 0.66309774
0.039727181 -0.056999892 0.66309774
0.048512235 -0.053709954 0.66373873
0.029721024 -0.055945456 0.66563582
0.029582318 -0.053074658 0.66465104
0.046902761 -0.052114189 0.66428918
0.038459543 -0.050696701 0.66561967
0.035198476 -0.066877097 0.66703951
0.026350385 -0.05094406 0.6666494
0.054415237 -0.049149215 0.66648501
0.033400841 -0.047464341 0.6667999
0.049374439 -0.044964239 0.66745585
0.055567127 -0.043019742 0.67097038
0.02855246 -0.037475139 0.67000961
0.044856228 -0.035884976 0.67118299
0.025411723 -0.061714172 0.67370272
0.025322253 -0.059688151 0.67293119
0.047038261 -0.034374088 0.67298329
0.019841187 -0.030663639 0.67232913
0.019841187 -0.030663639 0.67232913
0.030831147 -0.025390327 0.67351842
0.030831147 -0.025390327 0.67351842
0.020044304 -0.051021844 0.6745581
0.041858986 -0.029119313 0.67428607
0.042094626 -0.027453035 0.67552274
0.0072865291 -0.025502861 0.67448837
0.018430909 -0.053449631 0.67707872
0.064410433 -0.042326838 0.67674154
0.040592264 -0.02398631 0.67732155
0.0018410364 -0.018410355 0.67683065
0.016541634 -0.01654166 0.67645925
0.029559361 -0.016627163 0.67760611
0.027795438 -0.072268158 0.67827833
0 -0.018657744 0.6798172
0.033464458 -0.016732216 0.67901552
0.011124644 -0.011124641 0.6784085
0.00092879171 -0.0092765093 0.67855281
0.016717941 -0.0092877448 0.67882395
0.011292187 -0.047050774 0.68177921
0.0056325132 -0.033795089 0.68123275
0.05619194 -0.030903935 0.68069685
0.047087088 -0.02448526 0.6819545
0.024294246 -0.0093439519 0.68018061
0.0037603567 -0.0018801987 0.68155551
0.020753551 -0.0037733614 0.6823411
0.018908432 -0.0018908679 0.68284285
-0.015200269 0.0057001114 0.68395227
-0.0057393527 -0.017218083 0.68553168
-0.0095827356 -0.0076661706 0.68594563
-0.019147282 0.0095736384 0.68572605
-0.0038309812 0.011492968 0.68581808
0.023101065 0.0009662807 0.68697673
0.015455752 0.0077278614 0.6878072
-0.011567382 0.013495296 0.6873157
0.0019440239 -0.038880497 0.68926239
0.033111829 -0.0038955212 0.6897127
0.027238982 -0 0.68945765
-0.017451195 0.017451167 0.68865854
-0.017451195 0.017451167 0.68865854
-0.02723157 0.023341358 0.68939376
-0.0078275837 -0.02348277 0.69081616
-0.013696878 -0.011740178 0.69079214
-0.01765155 -0.0039225817 0.69134581
-0.019622518 0.00097987056 0.69146264
-0.023544906 0.025506943 0.69144142
-0.0097753424 0.025415897 0.69059557
-0.013718391 0.027436793 0.69116312
0.0059334589 0.021756023 0.69334185
0 0.025692552 0.69316459
-0.033434473 0.027534276 0.69200367
0.01190749 0.017861247 0.69415808
-0.025934935 0.039899915 0.69541514
-0.021944771 0.039899588 0.69541323
-0.038148116 0.030116946 0.69696027
-0.012019331 0.038061231 0.69640815
-0.020132082 0.044290572 0.6976136
-0.034472957 0.050695509 0.69937754
-0.038911488 0.020479709 0.70181018
-0.042952053 0.032725364 0.70149183
-0.044956412 0.049043357 0.70126694
-0.030649221 0.055168629 0.70124382
-0.047376215 0.039136887 0.703242
-0.041048676 0.059520602 0.70234859
-0.05409351 0.04993245 0.7057389
-0.022898095 0.058286071 0.70587468
-0.03723985 0.064135283 0.7043339
-0.049893264 0.068603247 0.70554161
-0.058689911 0.056593865 0.70761573
-0.056260586 0.058344334 0.7061258
-0.037594888 0.06892398 0.70671487
-0.043998078 0.073330104 0.70750451
-0.060982686 0.060982734 0.70843446
0.038328424 -0.057953022 0.66214383
0.04604125 -0.052122325 0.66432196
0.02293946 -0.044997394 0.66760087
0.050129861 -0.046388756 0.66691995
0.027008941 -0.061220258 0.67194909
0.029861836 -0.061963674 0.66984653
0.021982104 -0.046345484 0.66976374
0.026019821 -0.033644982 0.67121434
0.034176089 -0.034396522 0.67030877
0.06940598 -0.047488272 0.67507279
0.02257379 -0.029797487 0.6725958
0.017981049 -0.026151979 0.67383474
0.036628138 -0.0238083 0.6756683
0.030611649 -0.076999314 0.67857742
0.011164827 -0.041869655 0.67921686
0.0092305522 -0.031383842 0.67744321
0.010442878 -0.017199676 0.67705989
-0.0018559168 -0.013920754 0.67862689
0.01384523 -0.013844684 0.67743993
0 -0.0074433386 0.6792208
0.00062529754 -0.021966457 0.68188238
0.03695792 -0.014214173 0.68338203
0.03695792 -0.014214173 0.68338203
0.03313271 -0.011358783 0.68311882
0.0066101616 0.0018923482 0.68257058
0.028862407 -0.0038483143 0.68686461
0.0023936452 0.010529451 0.685655
-0.022151722 0.014445394 0.68709499
-0.017626334 -0.0029391199 0.69100761
0.011637286 0.01163733 0.68872201
-0.014608588 0.022400163 0.68971211
-0.0029280579 0.02245795 0.69030666
-0.011848279 -0.018763691 0.69296688
0.023037858 0.0072417757 0.69295621
0.02288375 0.010946006 0.69479537
-0.031806923 0.021867275 0.69456261
-0.0040116473 -0.034099013 0.69672227
-0.030046586 0.013018727 0.69639421
0.0091114901 0.025306769 0.69894809
-0.04054163 0.041555285 0.69928825
-0.016732078 0.041497141 0.69696617
-0.029364558 0.049618214 0.69905657
-0.046117034 0.0420148 0.7019977
-0.03361132 0.053983815 0.70049292
-0.038102254 0.061788067 0.70321393
-0.045584574 0.030042112 0.70471358
-0.0093351826 0.046673596 0.70499504
-0.0093351826 0.046673596 0.70499504
-0.053983301 0.061250627 0.70522726
-0.053917743 0.038055047 0.70980072
-0.038945496 0.082218289 0.71577221
-0.063019939 0.045635134 0.71691442
-0.021867011 0.067787766 0.71855605
