# .PCD v0.7 - Point Cloud Data file format
VERSION 0.7
FIELDS x y z
SIZE 4 4 4
TYPE F F F
COUNT 1 1 1
WIDTH 247
HEIGHT 1
VIEWPOINT 0 0 0 1 0 0 0
POINTS 247
DATA ascii
-0.013044364 0.050728083 0.62955284
-0.01459631 0.048167855 0.63079101
-0.0087833572 0.046844572 0.63130546
-0.0029250814 0.048263848 0.6311422
0.0059711332 0.050754637 0.63479286
-0.02101546 0.04653421 0.63579726
-0.0030525213 0.039682806 0.63883388
-0.018236469 0.042551756 0.63804269
0.012178767 0.057849169 0.63836133
-0.029170416 0.052199692 0.63992321
0.012321751 0.064689219 0.64051878
-0.01878411 0.037568212 0.64355147
-0.0047210474 0.033047378 0.64455819
0.0031496927 0.036221474 0.64469874
0.0015782242 0.034720927 0.64510643
-0.033286124 0.063402146 0.64593077
-0.033286124 0.063402146 0.64593077
-0.015869085 0.033325046 0.64615476
-0.012896921 0.029018074 0.64919746
-0.030704085 0.063024193 0.64966691
-0.030704085 0.063024193 0.64966691
-0.0016208204 0.027553946 0.65024829
0.0064856345 0.032428205 0.65031928
0.0098822284 0.070822626 0.653413
0.0098822284 0.070822626 0.653413
0.0082295556 0.07242009 0.65327698
-0.001654007 0.023156106 0.6542542
-0.0083761374 0.020102769 0.65681577
-0.023387723 0.030069917 0.65625137
-0.023387723 0.030069917 0.65625137
-0.010263557 0.011974156 0.66108477
0.0034266093 0.073672116 0.66141212
-0.0034363638 0.012027264 0.66200089
-0.0034363638 0.012027264 0.66200089
-0.024076456 0.025796205 0.66218972
0.013776868 0.027553767 0.66247487
0.013776868 0.027553767 0.66247487
0.0051735016 0.072429031 0.6627636
-0.012103708 0.013832837 0.66331887
-0.025961189 0.067499101 0.66351742
-0.0034552291 0.081197858 0.66313946
-0.017473308 0.015726 0.66551942
-0.0017482771 0.078672469 0.66563362
-0.021044694 0.071902692 0.66629118
-0.0017590452 0.077398002 0.66693348
-0.015851356 0.077495545 0.66720104
-0.017752972 0.07456249 0.66889524
-0.017905507 0.01074329 0.67073649
0 0.073241919 0.67023414
-0.01251518 0.075091094 0.67041445
-0.017944679 0.071778715 0.67120939
0.020014711 0.027292788 0.67423332
0.010981728 0.016472608 0.67553329
-0.012852401 0.0018360913 0.67622966
-0.009176448 0.067905724 0.67613697
0.0018470166 -0.0018470287 0.67755258
-0.016587332 0.0036861002 0.67707211
-0.0056328941 -0.011265785 0.68124807
0.016915122 0.0075178444 0.68146861
-0.017246347 -0.0038325191 0.68591106
0.0077492092 -0.01162383 0.68845099
-0.015491941 -0.0077459514 0.6883533
-0.031060575 0.021354139 0.68893182
-0.031060575 0.021354139 0.68893182
-0.01799535 -0.011996895 0.69595695
0.018271344 -0.014210999 0.69965857
0.018271344 -0.014210999 0.69965857
0.018271344 -0.014210999 0.69965857
-0.0081468765 -0.024440616 0.70045167
0.010290111 -0.02675426 0.7030232
0.024825947 -0.004137665 0.7043277
-0.029148484 0.0041640699 0.70592171
0 -0.042390019 0.71044415
0 -0.042390019 0.71044415
-0.012933455 -0.034489244 0.71479893
0.023807848 -0.023807824 0.71585804
0.010795506 0.01727283 0.71522444
-0.0065158228 -0.041266888 0.7167744
0.0087836944 -0.046114415 0.71966934
0.028600354 -0.019800246 0.72016466
0.0066286442 -0.048610032 0.72131389
0.011074098 0.011074126 0.72195023
0.020083528 -0.037935555 0.72396421
-0.0090404768 -0.049722642 0.72741842
0.0022672061 -0.061214566 0.72827393
0.029563697 -0.029563665 0.72910976
0.030331563 -0.037331164 0.73623979
0.030331563 -0.037331164 0.73623979
-0.007035383 -0.060973316 0.73767984
0.030599385 -0.040014595 0.73872662
0.0071289721 -0.073666036 0.7414456
-0.007118728 -0.064068586 0.74103343
0.026142916 -0.054662436 0.74148238
-0.0023906068 -0.069327593 0.74316972
-0.012043721 -0.062627345 0.74535906
0.012107838 -0.075068593 0.746907
-0.0073895874 -0.073895842 0.75193197
0.015446829 -0.02831915 0.76536411
-0.0087288087 0.048008442 0.63020796
0.0029338631 0.051342577 0.6316722
0.0014604661 0.054037243 0.63089174
-0.013330067 0.045171663 0.63338476
0.0074047996 0.054795533 0.63336557
-0.025472235 0.050944477 0.63546681
-0.016595596 0.042995051 0.63671291
-0.0015109773 0.042307347 0.636989
-0.022656586 0.046823621 0.63692403
0.0060736211 0.047070563 0.63788563
0.0060736211 0.047070563 0.63788563
-0.010690352 0.038940907 0.63894641
0.012337424 0.054745331 0.6407553
0.012337424 0.054745331 0.6407553
-0.030778797 0.058479726 0.64036441
-0.0070287175 0.034363016 0.6431427
-0.018642446 0.038838446 0.64212644
0.0031496927 0.036221474 0.64469874
-0.023584912 0.040880531 0.64439464
-0.023584912 0.040880531 0.64439464
0.012635398 0.048962176 0.64525133
0.012635398 0.048962176 0.64525133
0.01418067 0.055147082 0.64479327
-0.0048163426 0.02889806 0.64839256
-0.0032145053 0.028930545 0.64861047
-0.020965332 0.033867061 0.64927018
-0.017665081 0.03211835 0.64844918
0.006526154 0.030999243 0.65154207
0.013063768 0.040824294 0.65171498
-0.011509566 0.024663389 0.65307325
-0.01308987 0.026179731 0.65210879
-0.024652986 0.034514189 0.65298986
0.01485694 0.042920053 0.65386361
-0.0033262223 0.021620482 0.65535319
0.0088577103 0.029334545 0.65503728
0.015019972 0.040053248 0.65605026
-0.030304972 0.06902796 0.65782756
-0.025244035 0.075732082 0.65774626
-0.015247864 0.020330489 0.65910679
0.006781972 0.02204141 0.65926206
0.013611128 0.030625015 0.65997398
0.0033965909 0.081518203 0.65960038
-0.0051314449 0.01539436 0.6610713
-0.0068454603 0.080434173 0.66117799
-0.0051585138 0.013756007 0.66216052
0.0051735016 0.072429031 0.6627636
0.013946696 0.024406731 0.66503727
0.013946696 0.024406731 0.66503727
-0.020931056 0.073258728 0.66514814
-0.0017568895 0.0087844133 0.66667324
-0.012306092 0.010548085 0.66680884
-0.01056653 0.077487916 0.66718006
0.014176022 0.019492 0.66849756
-0.019605344 0.069509864 0.66974103
0.00088399468 0.074406534 0.66844702
-0.017905507 0.01074329 0.67073649
-0.0017917369 0.073461235 0.67087966
0.0036211428 0.0036211312 0.67315322
-0.0018021722 0.0720869 0.67213941
-0.018241227 0.0072965026 0.67478895
0.012751658 0.014573336 0.67449236
-0.010986753 0.06958279 0.67563426
-0.010986753 0.06958279 0.67563426
-0.0056328941 -0.011265785 0.68124807
0.0018902145 -0.0075608492 0.68276703
0.024897372 0.019151807 0.68578094
0.0095876195 -0.0076701045 0.68606353
0.025383655 0.01366812 0.69029623
0 -0.021653384 0.69221568
0 -0.021653384 0.69221568
-0.017798688 -0.0098881423 0.6933192
-0.015975567 -0.01397863 0.69565058
0.016120324 -0.010075212 0.69783479
0.0081296675 -0.024388999 0.69993234
0.0081296675 -0.024388999 0.69993234
0.0020620595 -0.032992929 0.70351052
0.020605903 -0.014424145 0.70333314
0.0042439247 -0.038195312 0.7107414
0.010621569 0.021243125 0.7110253
0.0087224077 0.021806031 0.71781987
0.0087836944 -0.046114415 0.71966934
0.021888055 -0.032832056 0.71881008
0 -0.055707842 0.72357905
0.0044333679 -0.053200394 0.72217536
0.011117206 -0.048915714 0.72299105
-0.0067253425 -0.049319208 0.72520483
-0.013568623 -0.045228779 0.72757751
0.024909582 -0.038496614 0.72794813
0.013624411 0.0022707582 0.72869992
0.0068553253 -0.059412837 0.73043489
0.011426221 -0.057131112 0.73045135
0.0069073434 -0.062166095 0.73252797
-0.0046018255 -0.057522833 0.73234272
0.0094672134 -0.068637282 0.74029636
-0.007118728 -0.064068586 0.74103343
0.0047718436 -0.076349497 0.74260414
-0.0096054291 -0.064836651 0.74446738
0.0170976 -0.075717896 0.74943542
0.017090091 -0.019531548 0.74930596
0.032312322 -0.057167947 0.75463194
-0.0098261777 0.040815622 0.63707501
-0.025861694 0.045767382 0.64189434
-0.010231216 0.033053279 0.64459229
-0.0023652518 0.033124357 0.64500093
-0.017860748 0.030301671 0.65055662
0.0054305024 0.030404579 0.65122187
-0.013603495 0.018704802 0.65985882
-0.01486061 0.017715912 0.66157579
0.0034268878 0.073670745 0.66142893
-0.006161904 0.0035211444 0.66711879
-0.010429897 0.0086916089 0.66443127
0.0058441102 0.01284652 0.66611779
-0.029553736 0.034769118 0.66444796
-0.0035224273 0.074849442 0.6671952
-0.025910631 0.022337452 0.67025757
0.015919272 0.024763316 0.66811198
0.015919272 0.024763316 0.66811198
-0.02238645 0.067157634 0.67078346
-0.0063383169 -0.0027196929 0.67316091
0 0.067800283 0.67579299
-0.017210793 0.069753557 0.6733067
-0.013549658 0.072269425 0.67269015
0.0023218053 -0.0027856827 0.67849302
0.017605698 0.013900295 0.67823827
-0.0025021764 -0.010637403 0.68115044
0.017202538 0.0028638542 0.68532348
0.017202538 0.0028638542 0.68532348
0.02530143 0.014593825 0.68953276
0.017813807 -0.0069311261 0.69352198
-0.0088721234 -0.025253326 0.70173085
0.0093593094 -0.030155167 0.70559978
-0.014756488 -0.027404904 0.70906442
-0.02760108 -0.0021231472 0.710886
0.006397495 -0.038384944 0.71201324
0.017065587 -0.023465157 0.71209776
0.017065587 -0.023465157 0.71209776
0.021719128 -0.030406773 0.71677101
0.0044333679 -0.053200394 0.72217536
-0.014549697 -0.041401923 0.72475624
0.013624411 0.0022707582 0.72869992
0.0047237305 -0.073217809 0.73970026
0.025816632 -0.05046466 0.73790187
0.029376794 -0.041122943 0.73826694
0.0071289721 -0.073666036 0.7414456
0.026142916 -0.054662436 0.74148238
-0.024049932 -0.036074877 0.74490625
0.025751302 -0.066207901 0.75059783
0.017233124 -0.022156864 0.75177246
-0.015154429 -0.068194926 0.75948149
