# .PCD v0.7 - Point Cloud Data file format
VERSION 0.7
FIELDS x y z
SIZE 4 4 4
TYPE F F F
COUNT 1 1 1
WIDTH 1336
HEIGHT 1
VIEWPOINT 0 0 0 1 0 0 0
POINTS 1336
DATA ascii
-0.030533751 -0.065429449 0.71786577
-0.030594025 -0.067743927 0.71838546
-0.030654542 -0.070067525 0.7189073
-0.030715296 -0.072400361 0.7194311
-0.030776426 -0.074742734 0.71995813
-0.030837666 -0.077094167 0.72048616
-0.030899148 -0.079454958 0.72101635
-0.03096088 -0.081825167 0.72154856
-0.031022992 -0.08420527 0.72208411
-0.025777375 0.041640371 0.69395208
-0.02558383 0.039359748 0.69215494
-0.025630808 0.037460446 0.69259119
-0.025677957 0.035554081 0.69302899
-0.025725283 0.033640742 0.69346845
-0.025772883 0.031720489 0.69391036
-0.025820557 0.029792964 0.69435304
-0.02586841 0.027858287 0.6947974
-0.025916439 0.025916457 0.69524336
-0.025964646 0.023967355 0.69569099
-0.026013035 0.022011012 0.69614029
-0.026061602 0.020047396 0.69659126
-0.026110353 0.01807642 0.69704401
-0.026159285 0.016098052 0.69749832
-0.026208507 0.014112264 0.69795537
-0.026257807 0.012119025 0.69841313
-0.026307298 0.010118216 0.69887269
-0.026356973 0.0081098676 0.69933391
-0.026406834 0.0060939193 0.69979686
-0.026456885 0.0040703118 0.70026165
-0.026507128 0.0020390153 0.70072818
-0.026557559 2.9802322e-08 0.70119649
-0.026608292 -0.0020467639 0.70166755
-0.026659112 -0.0041014254 0.70213938
-0.026710125 -0.0061638653 0.70261312
-0.026761334 -0.0082342327 0.70308858
-0.026812738 -0.010312587 0.70356596
-0.026864344 -0.012398958 0.70404512
-0.026916146 -0.014493287 0.70452607
-0.026968261 -0.01659587 0.70501006
-0.027020466 -0.018706471 0.70549476
-0.027072873 -0.020825267 0.70598137
-0.027125482 -0.022952318 0.70646989
-0.027178297 -0.025087684 0.70696026
-0.027231319 -0.027231336 0.70745265
-0.027284548 -0.029383361 0.7079469
-0.027338101 -0.031543911 0.70844412
-0.027391747 -0.033712924 0.70894229
-0.027445605 -0.03589043 0.70944238
-0.027499676 -0.03807652 0.70994449
-0.027553961 -0.040271163 0.7104485
-0.027608458 -0.042474568 0.71095455
-0.027663175 -0.044686675 0.71146262
-0.027718225 -0.046907753 0.71197373
-0.027773377 -0.049137503 0.71248585
-0.027828749 -0.051376164 0.713
-0.02788434 -0.053623736 0.71351624
-0.027940154 -0.055880338 0.7140345
-0.027996194 -0.05814594 0.71455485
-0.02805258 -0.06042096 0.71507835
-0.028109193 -0.06270507 0.71560401
-0.02816591 -0.064998269 0.71613073
-0.028222982 -0.067300975 0.71666068
-0.028280165 -0.069612712 0.71719158
-0.028337451 -0.071933538 0.71772355
-0.028394973 -0.074263781 0.71825767
-0.02845273 -0.076603502 0.71879399
-0.02851072 -0.07895276 0.71933246
-0.028568948 -0.081311643 0.71987307
-0.028627414 -0.083680123 0.72041595
-0.023664989 0.055218279 0.6926493
-0.023672827 0.053263873 0.69272816
-0.023693845 0.051336646 0.69293964
-0.023714805 0.049405873 0.6931504
-0.023735901 0.047471792 0.69336265
-0.023757031 0.045534313 0.69357514
-0.0237782 0.043593347 0.69378811
-0.023683378 0.041445911 0.69283432
-0.023506099 0.039176852 0.69105107
-0.023548139 0.037284553 0.6914739
-0.023590233 0.03538537 0.69189739
-0.023632575 0.033479512 0.69232327
-0.023675065 0.031566739 0.69275069
-0.023717616 0.029647052 0.69317871
-0.023760414 0.027720481 0.69360924
-0.023802804 0.0257864 0.69403565
-0.023845151 0.023845166 0.69446164
-0.023887653 0.021897048 0.69488913
-0.023930302 0.019941956 0.69531816
-0.023973204 0.01797992 0.6957497
-0.024016162 0.016010761 0.69618183
-0.024059273 0.014034599 0.69661558
-0.024102541 0.012051314 0.69705075
-0.024145769 0.010060728 0.69748557
-0.024188474 0.0080628395 0.6979152
-0.024231227 0.0060577989 0.69834524
-0.024274135 0.0040456951 0.69877684
-0.024317196 0.0020264089 0.69921005
-0.024360508 2.9802322e-08 0.69964564
-0.024403576 -0.0020336211 0.7000789
-0.024446895 -0.0040745139 0.70051473
-0.024490371 -0.0061225891 0.70095205
-0.024533901 -0.0081779361 0.70138991
-0.024577688 -0.010240704 0.70183039
-0.02462163 -0.012310803 0.70227236
-0.024665629 -0.014388293 0.70271498
-0.024709275 -0.016472876 0.70315403
-0.024752466 -0.018564373 0.70358849
-0.02479591 -0.020663232 0.70402551
-0.024839301 -0.022769362 0.70446199
-0.024882535 -0.024882525 0.70489693
-0.024925917 -0.02700308 0.70533323
-0.024969351 -0.029130906 0.70577019
-0.025013037 -0.031266272 0.7062096
-0.025056878 -0.033409148 0.70665061
-0.025100769 -0.035559416 0.70709217
-0.02514492 -0.037717402 0.70753634
-0.025189225 -0.039882928 0.70798194
-0.02523358 -0.042055964 0.70842814
-0.025278196 -0.044236839 0.70887697
-0.025322972 -0.046425432 0.70932734
-0.025367908 -0.048621804 0.70977938
-0.025412897 -0.050825804 0.7102319
-0.02545815 -0.053037792 0.7106871
-0.025503568 -0.055257708 0.71114403
-0.025549147 -0.057485551 0.71160245
-0.02559489 -0.05972138 0.7120626
-0.025640685 -0.061964989 0.71252328
-0.025686756 -0.064216852 0.71298671
-0.025732994 -0.066476911 0.71345186
-0.025779396 -0.068745047 0.71391863
-0.025825966 -0.071021408 0.71438706
-0.025872594 -0.073305696 0.71485615
-0.025919504 -0.075598568 0.71532804
-0.025966581 -0.077899754 0.7158016
-0.026013834 -0.080209345 0.71627694
-0.026061933 -0.082529485 0.71676075
-0.026110783 -0.084860027 0.71725214
-0.02030669 0.086764961 0.67743742
-0.020338206 0.085050702 0.67778325
-0.020369893 0.083331376 0.67813098
-0.020401606 0.081606448 0.67847896
-0.020433495 0.079876393 0.6788289
-0.020465404 0.078140616 0.67917907
-0.020497797 0.076400876 0.67953455
-0.020530751 0.074657261 0.67989618
-0.020563813 0.072908074 0.68025893
-0.020596979 0.071153224 0.68062294
-0.020630253 0.069392681 0.68098807
-0.020663636 0.067626446 0.68135446
-0.020697128 0.06585449 0.68172193
-0.020730803 0.064077049 0.68209153
-0.020764513 0.06229353 0.68246138
-0.020798331 0.060504258 0.68283248
-0.020832259 0.058709085 0.68320483
-0.020866299 0.056908101 0.68357837
-0.020900451 0.055101186 0.68395317
-0.020934714 0.05328837 0.68432915
-0.020969089 0.051469564 0.68470639
-0.021003578 0.049644798 0.68508482
-0.02103818 0.047814012 0.68546456
-0.021072976 0.045977443 0.68584645
-0.021107808 0.044134527 0.68622863
-0.021142757 0.042285532 0.68661213
-0.021177817 0.040430397 0.68699694
-0.021149093 0.038452893 0.68668163
-0.02118491 0.036592096 0.68707478
-0.02122085 0.03472504 0.68746912
-0.021256911 0.032851607 0.68786484
-0.021293094 0.030971766 0.68826199
-0.021329485 0.029085636 0.68866128
-0.021365916 0.02719301 0.68906105
-0.021402473 0.025293857 0.68946218
-0.021439156 0.023388147 0.68986475
-0.021475963 0.021475971 0.69026864
-0.021512898 0.019557208 0.69067395
-0.021549959 0.017631769 0.69108063
-0.021587148 0.015699774 0.6914888
-0.021624466 0.013761014 0.69189829
-0.021661913 0.011815608 0.69230926
-0.021699492 0.0098634064 0.69272161
-0.021737199 0.0079044402 0.69313538
-0.021775039 0.0059386492 0.69355065
-0.021813009 0.0039659739 0.69396734
-0.021851113 0.0019864738 0.69438547
-0.021889351 2.9802322e-08 0.69480503
-0.02192772 -0.0019934177 0.69522607
-0.021966316 -0.0039938688 0.69564956
-0.022004956 -0.0060013533 0.69607365
-0.022043735 -0.0080159307 0.69649923
-0.022082649 -0.010037571 0.69692624
-0.022121701 -0.012066394 0.69735479
-0.022160893 -0.01410237 0.69778478
-0.022200851 -0.016146064 0.69822335
-0.02224095 -0.018197149 0.69866347
-0.022281287 -0.020255715 0.69910598
-0.022321679 -0.022321671 0.69954926
-0.022362219 -0.024395168 0.69999421
-0.022402907 -0.026476175 0.70044065
-0.02244374 -0.028564781 0.70088875
-0.022484817 -0.030661106 0.70133954
-0.022525951 -0.032765001 0.70179087
-0.022567235 -0.034876674 0.70224392
-0.022608673 -0.036996007 0.70269871
-0.022650264 -0.039123178 0.7031551
-0.022692097 -0.041258365 0.70361423
-0.022733998 -0.043401241 0.70407391
-0.022776049 -0.045552075 0.70453537
-0.022818256 -0.047710896 0.70499861
-0.022860715 -0.049877912 0.70546448
-0.022903239 -0.052052826 0.70593119
-0.02294592 -0.054235816 0.70639956
-0.022988761 -0.056426972 0.7068696
-0.023031859 -0.058626562 0.70734262
-0.023075022 -0.06083414 0.70781624
-0.023118343 -0.063050032 0.70829171
-0.02316183 -0.065274268 0.7087689
-0.02320558 -0.067507148 0.70924896
-0.023249397 -0.069748163 0.70972979
-0.02329338 -0.071997732 0.71021247
-0.023337528 -0.074255764 0.71069694
-0.023381943 -0.076522708 0.71118426
-0.02342643 -0.078797996 0.71167254
-0.023471087 -0.081081897 0.71216255
-0.02351601 -0.083374918 0.71265554
-0.02356101 -0.085676402 0.71314931
-0.018282417 0.087755591 0.67528623
-0.018176816 0.085431039 0.67401147
-0.018206313 0.083749086 0.67436755
-0.018235976 0.082061917 0.67472559
-0.018265732 0.080369264 0.67508483
-0.018295519 0.07867074 0.67544436
-0.01832547 0.076966971 0.67580593
-0.01835552 0.075257629 0.67616868
-0.018385671 0.073542655 0.67653263
-0.018415852 0.071821779 0.67689693
-0.018446198 0.070095569 0.67726326
-0.018476646 0.068363577 0.67763078
-0.018507127 0.066625625 0.67799872
-0.018537777 0.064882249 0.67836869
-0.018568527 0.063133001 0.67873991
-0.018599382 0.061377972 0.67911232
-0.018630268 0.059616864 0.67948514
-0.018661326 0.057850093 0.67986006
-0.01869249 0.05607751 0.68023622
-0.018723687 0.054298699 0.68061274
-0.018755058 0.052514166 0.68099147
-0.018786535 0.050723672 0.68137145
-0.01881847 0.048928052 0.68175697
-0.018850587 0.047126472 0.68214464
-0.018882815 0.045318723 0.68253368
-0.01891515 0.043504834 0.68292403
-0.018947598 0.041684687 0.68331569
-0.018980157 0.039858341 0.68370867
-0.018969579 0.037939161 0.68358099
-0.019002214 0.036104232 0.68397498
-0.019034961 0.034262925 0.68437022
-0.019067893 0.03241542 0.68476772
-0.019100867 0.030561447 0.68516576
-0.019133955 0.028700918 0.68556523
-0.019167159 0.026834041 0.68596601
-0.01920055 0.024960756 0.68636906
-0.019233987 0.023080766 0.6867727
-0.019267539 0.021194279 0.68717766
-0.019301282 0.019301325 0.687585
-0.019335069 0.017401546 0.68799281
-0.019368974 0.015495181 0.68840212
-0.019402998 0.01358211 0.68881279
-0.019437218 0.011662334 0.68922591
-0.019471481 0.0097357631 0.68963951
-0.019505868 0.0078023672 0.6900546
-0.019540453 0.0058621466 0.69047201
-0.019575082 0.0039150417 0.69089007
-0.019609837 0.0019609928 0.69130957
-0.019644713 -0 0.69173062
-0.019679869 -0.0019679666 0.692155
-0.019715384 -0.0039430559 0.69258362
-0.019751105 -0.0059253275 0.69301486
-0.019786878 -0.0079147518 0.6934467
-0.01982286 -0.0099113882 0.69388103
-0.019858971 -0.011915386 0.69431692
-0.019895136 -0.013926625 0.69475353
-0.019931514 -0.015945226 0.69519258
-0.019967943 -0.017971158 0.69563234
-0.020004585 -0.02000457 0.69607466
-0.020041365 -0.022045493 0.69651866
-0.020078197 -0.024093837 0.69696325
-0.020115247 -0.026149809 0.6974104
-0.020152351 -0.028213263 0.69785827
-0.020189676 -0.030284524 0.69830889
-0.020227138 -0.032363415 0.69876105
-0.020264657 -0.034449935 0.69921398
-0.020302398 -0.036544323 0.69966954
-0.020340199 -0.03864634 0.70012581
-0.020378223 -0.040756434 0.70058483
-0.020416388 -0.042874426 0.70104551
-0.020454613 -0.045000106 0.70150697
-0.020493068 -0.047134042 0.70197111
-0.02053158 -0.049275815 0.70243609
-0.020570323 -0.051425785 0.70290375
-0.020609127 -0.053583771 0.70337212
-0.020648165 -0.055750042 0.7038433
-0.020687349 -0.057924598 0.70431638
-0.020726599 -0.060107142 0.70479012
-0.020766081 -0.062298238 0.70526671
-0.020805715 -0.064497679 0.7057451
-0.020845415 -0.066705316 0.70622432
-0.020885352 -0.068921655 0.70670646
-0.020925354 -0.07114619 0.70718926
-0.0209656 -0.073379606 0.70767516
-0.021005912 -0.075621277 0.70816171
-0.021046467 -0.077871919 0.70865124
-0.021087181 -0.080131322 0.70914268
-0.021127962 -0.08239904 0.70963502
-0.021169171 -0.084676683 0.71013242
-0.021210808 -0.086964339 0.71063501
-0.016227731 0.086547911 0.67224908
-0.016185038 0.08452186 0.67167652
-0.016211724 0.082859963 0.67203438
-0.016238499 0.081192523 0.67239344
-0.016265361 0.07951954 0.67275381
-0.016292313 0.077841073 0.67311525
-0.016319295 0.076156735 0.67347717
-0.016346427 0.074467033 0.67384106
-0.016373647 0.072771788 0.67420614
-0.016400961 0.07107082 0.67457247
-0.016428363 0.06936425 0.67493999
-0.016455859 0.067651868 0.67530882
-0.016483447 0.065933794 0.67567885
-0.016511127 0.064209938 0.67605007
-0.016538899 0.062480271 0.67642254
-0.016566766 0.060744822 0.67679632
-0.016594727 0.059003472 0.67717135
-0.016622782 0.057256252 0.67754763
-0.016650934 0.05550313 0.67792517
-0.016679177 0.053744018 0.67830402
-0.016707521 0.051979005 0.67868412
-0.01673596 0.050207913 0.67906559
-0.016764494 0.0484308 0.67944831
-0.016793126 0.046647578 0.67983234
-0.016821858 0.044858307 0.68021762
-0.016850686 0.043062866 0.68060434
-0.016879741 0.041261584 0.68099403
-0.016909087 0.03945452 0.6813876
-0.016905976 0.037568837 0.68134594
-0.016935477 0.035752684 0.6817416
-0.016965017 0.033930033 0.68213779
-0.016994661 0.032101035 0.68253535
-0.017024472 0.030265749 0.68293524
-0.017054323 0.028423876 0.68333554
-0.017084345 0.026575685 0.68373823
-0.017114406 0.024720818 0.6841414
-0.017144639 0.022859514 0.68454695
-0.017174914 0.020991564 0.68495297
-0.017205296 0.019117028 0.68536049
-0.017235851 0.017235875 0.68577027
-0.01726645 0.015347958 0.68618071
-0.017297223 0.013453394 0.68659341
-0.017328039 0.011552036 0.68700671
-0.017359033 0.0096438825 0.68742239
-0.01739007 0.0077289045 0.68783873
-0.017421219 0.0058070719 0.6882565
-0.017452545 0.0038783252 0.68867666
-0.01748392 0.0019426644 0.68909746
-0.017515473 2.9802322e-08 0.68952066
-0.017547073 -0.0019496679 0.68994451
-0.017578857 -0.003906399 0.69037074
-0.017610686 -0.005870223 0.69079763
-0.017642699 -0.0078411996 0.69122708
-0.017674761 -0.009819299 0.69165707
-0.017706938 -0.01180464 0.6920886
-0.017739302 -0.013797224 0.6925227
-0.017771715 -0.015797079 0.69295746
-0.017804317 -0.017804325 0.69339478
-0.017836969 -0.019818872 0.6938327
-0.017870096 -0.021841198 0.69427693
-0.017903345 -0.023871124 0.69472289
-0.017936718 -0.025908589 0.69517052
-0.017970216 -0.027953625 0.69561982
-0.01800384 -0.030006379 0.69607079
-0.018037589 -0.032066822 0.69652343
-0.018071465 -0.034134984 0.69697785
-0.018105468 -0.036210924 0.69743383
-0.018139528 -0.038294554 0.69789064
-0.018173788 -0.0403862 0.69835019
-0.018208178 -0.042485714 0.69881141
-0.0182427 -0.044593245 0.69927448
-0.018277351 -0.046708763 0.69973916
-0.018312134 -0.048832357 0.70020568
-0.018347051 -0.050964028 0.700674
-0.0183821 -0.053103805 0.7011441
-0.018417284 -0.055251867 0.70161605
-0.018452602 -0.057408094 0.70208973
-0.018488057 -0.059572637 0.70256531
-0.018523648 -0.061745524 0.70304263
-0.018559376 -0.063926756 0.70352179
-0.018595243 -0.066116452 0.70400292
-0.018631248 -0.068314582 0.70448577
-0.018667392 -0.070521265 0.7049706
-0.018703679 -0.072736531 0.70545721
-0.018740106 -0.074960411 0.70594579
-0.018776676 -0.077192992 0.70643628
-0.018813387 -0.079434276 0.70692867
-0.018850243 -0.081684411 0.70742303
-0.018887242 -0.083943307 0.70791924
-0.018924389 -0.086211085 0.70841742
-0.018961681 -0.088487864 0.70891762
-0.014285809 0.085714877 0.67015415
-0.0142688 0.083829194 0.6698975
-0.014292338 0.082180947 0.67025262
-0.014316004 0.080527484 0.67060971
-0.01433975 0.078868657 0.67096806
-0.01436378 0.07720533 0.67133063
-0.014387942 0.075536728 0.67169517
-0.014412135 0.073862195 0.67206025
-0.014436459 0.072182328 0.67242724
-0.014460815 0.07049644 0.67279476
-0.014485253 0.06880495 0.67316353
-0.014509826 0.067107946 0.67353433
-0.01453443 0.065404922 0.67390555
-0.014559118 0.063696146 0.67427802
-0.014583942 0.061981767 0.67465258
-0.014608799 0.060261309 0.67502767
-0.014633793 0.058535188 0.67540479
-0.01465882 0.056802899 0.67578244
-0.014683932 0.055064768 0.67616135
-0.014709185 0.053320825 0.6765424
-0.01473447 0.051570684 0.67692387
-0.014759842 0.049814463 0.67730677
-0.014785357 0.04805243 0.6776917
-0.014810905 0.04628408 0.67807722
-0.014836597 0.044509798 0.67846489
-0.014862323 0.042729169 0.67885309
-0.014888139 0.040942371 0.67924261
-0.014914098 0.039149493 0.67963427
-0.014913321 0.037283301 0.67962259
-0.014939369 0.035481006 0.68001556
-0.014965508 0.033672422 0.68041003
-0.01499174 0.031857461 0.6808058
-0.015018007 0.030036002 0.68120211
-0.015044423 0.028208286 0.68160075
-0.015070931 0.026374102 0.6820007
-0.015097534 0.02453348 0.68240213
-0.015124287 0.022686392 0.68280584
-0.015151309 0.020833045 0.68321353
-0.015178425 0.018973023 0.68362266
-0.015205697 0.017106384 0.68403417
-0.01523301 0.01523298 0.68444633
-0.015260421 0.013352871 0.68485993
-0.015287931 0.011465967 0.68527496
-0.015315599 0.0095722377 0.68569249
-0.015343308 0.007671684 0.6861105
-0.015371117 0.0057641864 0.68653023
-0.015399028 0.003849715 0.68695134
-0.01542704 0.0019283891 0.687374
-0.015455213 -0 0.6877991
-0.015483432 -0.0019354224 0.68822485
-0.015511752 -0.003877908 0.68865216
-0.015540175 -0.0058275461 0.68908107
-0.015568704 -0.0077843368 0.68951154
-0.015597398 -0.0097483695 0.68994451
-0.015626138 -0.011719614 0.69037813
-0.015654983 -0.013698101 0.69081336
-0.015683934 -0.015683919 0.69125021
-0.015713055 -0.017677158 0.69168967
-0.015742224 -0.019677788 0.69212973
-0.015771499 -0.021685809 0.69257152
-0.015800884 -0.02370134 0.69301492
-0.015830379 -0.025724381 0.69345987
-0.015860047 -0.027755052 0.69390756
-0.015889764 -0.029793292 0.69435591
-0.01591959 -0.031839192 0.69480604
-0.015949531 -0.033892751 0.69525778
-0.015979648 -0.035954177 0.69571221
-0.016009813 -0.038023293 0.69616735
-0.016040094 -0.040100217 0.69662428
-0.016070489 -0.042185009 0.69708288
-0.016101066 -0.044277936 0.69754422
-0.016131692 -0.046378613 0.69800639
-0.016162436 -0.048487335 0.69847029
-0.016193297 -0.050604075 0.69893593
-0.016224276 -0.052728891 0.69940335
-0.016255442 -0.054862112 0.69987357
-0.01628679 -0.057003766 0.70034659
-0.016318463 -0.059154421 0.7008245
-0.016350189 -0.061313212 0.70130324
-0.01638204 -0.063480407 0.70178384
-0.016414084 -0.065656364 0.70226735
-0.016446184 -0.067840517 0.7027517
-0.016478412 -0.070033282 0.70323795
-0.016510833 -0.072234899 0.70372713
-0.016543314 -0.07444489 0.70421726
-0.016575923 -0.076663613 0.70470929
-0.01660873 -0.078891456 0.70520425
-0.016641596 -0.081127793 0.70570028
-0.016674664 -0.083373308 0.70619917
-0.016707793 -0.085627407 0.70669901
-0.016741054 -0.087890536 0.70720088
-0.012407184 0.085077852 0.66855216
-0.012404326 0.083286226 0.66850287
-0.012425054 0.081650347 0.66886032
-0.012445893 0.080009311 0.66921967
-0.012466758 0.078362465 0.66957951
-0.012487737 0.076710403 0.66994119
-0.012508743 0.07505244 0.67030346
-0.012529865 0.073389232 0.67066771
-0.012551012 0.071720064 0.67103237
-0.012572277 0.070045561 0.67139906
-0.012593568 0.068365067 0.67176622
-0.012614978 0.06667918 0.67213547
-0.012636414 0.064987242 0.67250508
-0.012657968 0.063289881 0.67287678
-0.012679553 0.06158641 0.67324895
-0.012701209 0.059877127 0.67362243
-0.012722985 0.058162212 0.673998
-0.01274479 0.056441218 0.67437398
-0.012766717 0.054714501 0.67475212
-0.012788674 0.052981645 0.67513072
-0.012810751 0.051243007 0.67551142
-0.01283286 0.049498171 0.67589259
-0.012855091 0.047747493 0.67627597
-0.012877351 0.045990556 0.67665988
-0.012899736 0.04422766 0.67704594
-0.012922153 0.042458504 0.67743248
-0.012944886 0.040683955 0.6778245
-0.012967699 0.038903117 0.67821789
-0.012969668 0.037056208 0.67825186
-0.012992568 0.035265565 0.67864674
-0.0130156 0.033468693 0.67904389
-0.013038662 0.031665355 0.67944163
-0.013061808 0.029855549 0.67984074
-0.013085085 0.028039485 0.68024212
-0.013108394 0.026216775 0.68064409
-0.013131789 0.024387628 0.6810475
-0.013155316 0.022551984 0.68145323
-0.013178878 0.020709664 0.68185949
-0.013202524 0.018860757 0.68226731
-0.013226306 0.017005235 0.68267739
-0.013250123 0.015143007 0.68308812
-0.013274025 0.013274014 0.68350029
-0.013298064 0.011398345 0.68391484
-0.013322141 0.0095158517 0.68432999
-0.013346305 0.0076264441 0.68474674
-0.013370557 0.0057302415 0.68516487
-0.013394947 0.0038271248 0.6855855
-0.013419377 0.001917094 0.68600672
-0.013443895 -0 0.68642962
-0.013468553 -0.0019240975 0.68685484
-0.013493251 -0.0038551986 0.68728071
-0.013518092 -0.0057934523 0.68770909
-0.013542973 -0.0077388287 0.68813813
-0.013567945 -0.0096913874 0.68856877
-0.013593063 -0.011651188 0.68900192
-0.01361822 -0.013618231 0.68943572
-0.013643524 -0.015592605 0.68987209
-0.013668869 -0.017574251 0.69030911
-0.013694307 -0.019563287 0.69074786
-0.013719895 -0.021559834 0.69118905
-0.013745632 -0.023563921 0.69163287
-0.01377163 -0.025575906 0.69208115
-0.01379767 -0.027595341 0.69253027
-0.013823809 -0.029622406 0.692981
-0.013850103 -0.031657368 0.69343442
-0.013876441 -0.03369993 0.6938886
-0.013902881 -0.03575024 0.69434446
-0.013929475 -0.037808567 0.69480306
-0.013956117 -0.039874613 0.69526255
-0.013982917 -0.041948736 0.69572467
-0.014009764 -0.044030666 0.69618762
-0.014036714 -0.046120644 0.69665235
-0.014063824 -0.048218817 0.69711989
-0.014090983 -0.050324917 0.69758821
-0.014118246 -0.052439183 0.69805837
-0.014145673 -0.054561853 0.69853127
-0.014173148 -0.05669257 0.69900513
-0.014200789 -0.058831841 0.69948179
-0.01422848 -0.060979187 0.69995928
-0.014256278 -0.063134909 0.70043862
-0.014284244 -0.065299392 0.70092094
-0.014312263 -0.0674721 0.70140404
-0.014340448 -0.069653571 0.70189005
-0.014368687 -0.071843445 0.70237708
-0.014397036 -0.074041903 0.70286596
-0.014425558 -0.076249391 0.70335776
-0.014454133 -0.078465313 0.70385057
-0.014482821 -0.080689996 0.70434523
-0.014511685 -0.082923949 0.70484298
-0.014540602 -0.085166395 0.70534164
-0.014569696 -0.087418169 0.70584333
-0.010572633 0.084581077 0.66730285
-0.010575687 0.082842886 0.6673643
-0.010593412 0.081216156 0.66772091
-0.010611236 0.079584271 0.6680795
-0.010629118 0.077946872 0.66843927
-0.010647024 0.076303691 0.66879952
-0.010665027 0.074655175 0.66916174
-0.010683092 0.073001146 0.66952515
-0.010701219 0.071341455 0.66988981
-0.010719368 0.069675893 0.67025495
-0.010737618 0.068004936 0.67062211
-0.010755891 0.066328019 0.67098975
-0.010774265 0.064645618 0.67135942
-0.01079278 0.062957883 0.67173189
-0.010811436 0.061264843 0.67210722
-0.010830157 0.059565842 0.67248386
-0.010848904 0.057860821 0.67286098
-0.010867755 0.056150049 0.67324024
-0.010886671 0.054433376 0.67362082
-0.010905614 0.052710444 0.67400193
-0.010924663 0.05098179 0.67438513
-0.010943779 0.049246997 0.67476976
-0.010962921 0.047505975 0.67515486
-0.010982171 0.045759052 0.67554212
-0.011001488 0.04400596 0.6759308
-0.011020874 0.042246699 0.67632079
-0.011040286 0.040481061 0.67671132
-0.011059809 0.038709342 0.67710406
-0.011062254 0.036874235 0.67715329
-0.011081855 0.035092533 0.67754763
-0.011101565 0.033304721 0.67794418
-0.011121306 0.031510383 0.67834127
-0.011141158 0.029709786 0.67874068
-0.011161039 0.027902633 0.67914069
-0.011180991 0.026088983 0.67954206
-0.011201057 0.024268955 0.67994577
-0.011221153 0.022442311 0.68035007
-0.011241363 0.02060914 0.68075669
-0.011261604 0.018769324 0.68116391
-0.011281918 0.016922891 0.68157256
-0.011302348 0.015069813 0.68198359
-0.011322809 0.013209909 0.68239522
-0.011343387 0.01134339 0.68280929
-0.011363997 0.0094700158 0.6832239
-0.011384682 0.007589817 0.68364
-0.011405487 0.005702734 0.68405861
-0.011426323 0.0038087666 0.68447781
-0.01144728 0.0019078553 0.68489945
-0.011468357 -0 0.68532348
-0.011489601 -0.0019149482 0.68575084
-0.011510966 -0.0038369894 0.68618071
-0.011532367 -0.0057661831 0.68661124
-0.011553849 -0.0077025592 0.68704343
-0.011575456 -0.0096462071 0.68747807
-0.011597097 -0.011597127 0.68791354
-0.011618866 -0.013555348 0.68835145
-0.011640671 -0.015520871 0.68879014
-0.011662558 -0.017493844 0.6892305
-0.011684572 -0.019474268 0.6896733
-0.011706625 -0.021462142 0.690117
-0.011728807 -0.023457587 0.69056326
-0.011751027 -0.025460571 0.69101036
-0.01177333 -0.027471125 0.69145906
-0.011795766 -0.029489428 0.69191039
-0.011818241 -0.03151527 0.69236261
-0.011840848 -0.03354907 0.69281733
-0.011863494 -0.0355905 0.69327301
-0.011886229 -0.037639737 0.69373035
-0.011909097 -0.039696991 0.6941905
-0.011932006 -0.041761994 0.69465131
-0.01195505 -0.043835163 0.69511497
-0.011978137 -0.0459162 0.69557947
-0.012001312 -0.048005223 0.6960457
-0.012024626 -0.050102621 0.69651467
-0.012047982 -0.052207917 0.69698459
-0.012071478 -0.054321647 0.69745731
-0.012095015 -0.056443393 0.69793087
-0.012118646 -0.058573455 0.69840622
-0.012142418 -0.060712069 0.69888449
-0.012166235 -0.062858909 0.69936371
-0.012190194 -0.065014362 0.69984567
-0.012214199 -0.0671781 0.70032865
-0.012238298 -0.069350332 0.70081347
-0.012262543 -0.071531475 0.70130122
-0.012286933 -0.073721617 0.70179194
-0.012311522 -0.075921029 0.7022866
-0.012336261 -0.078129619 0.7027843
-0.012361048 -0.080346823 0.70328301
-0.012385986 -0.082573265 0.70378476
-0.012410973 -0.08480832 0.70428741
-0.012436061 -0.087052405 0.70479214
-0.012461304 -0.089305997 0.70529997
-0.0087686842 0.084179372 0.66629273
-0.0087744351 0.082479715 0.66643155
-0.0087892013 0.080860674 0.66678798
-0.0088041089 0.079236984 0.66714787
-0.0088191302 0.077608317 0.66751057
-0.0088341711 0.075973868 0.66787368
-0.0088492958 0.074334085 0.66823882
-0.00886444 0.072688431 0.66860449
-0.0088796681 0.071037322 0.66897207
-0.0088949166 0.069380373 0.66934019
-0.0089102509 0.06771791 0.6697104
-0.0089256037 0.066049457 0.67008108
-0.0089410432 0.06437552 0.67045385
-0.0089565041 0.062695533 0.67082703
-0.0089720497 0.061009943 0.67120242
-0.0089876177 0.059318304 0.67157823
-0.0090032723 0.057620972 0.67195618
-0.0090189492 0.055917531 0.67233455
-0.0090347128 0.054208279 0.67271519
-0.0090504987 0.052492917 0.6730963
-0.009066374 0.050771683 0.67347956
-0.0090823043 0.04904449 0.67386413
-0.0090982905 0.047311097 0.67425007
-0.0091143334 0.045571655 0.67463744
-0.0091303997 0.043825954 0.67502522
-0.0091465553 0.042074203 0.67541534
-0.0091627687 0.040316194 0.67580676
-0.0091790408 0.038551956 0.67619962
-0.0091817016 0.036726803 0.67626381
-0.0091980398 0.034952551 0.67665827
-0.0092144366 0.033171982 0.67705411
-0.0092309266 0.031385154 0.67745221
-0.0092474408 0.029591829 0.6778509
-0.0092640482 0.027792096 0.67825186
-0.0092806816 0.025985897 0.67865336
-0.0092973746 0.0241732 0.67905641
-0.0093141627 0.022354007 0.67946172
-0.0093309768 0.020528167 0.67986763
-0.0093478858 0.018695801 0.68027586
-0.0093648564 0.01685673 0.68068552
-0.00938203 0.015011251 0.68110019
-0.0093992315 0.013158917 0.68151546
-0.0094164964 0.011299789 0.68193221
-0.009433859 0.0094339252 0.68235141
-0.0094512515 0.0075609982 0.68277127
-0.0094687436 0.0056812465 0.68319362
-0.0094862645 0.0037945211 0.68361658
-0.0095038861 0.0019007623 0.68404204
-0.0095215375 2.9802322e-08 0.68446815
-0.009539254 -0.0019078553 0.68489593
-0.0095570739 -0.0038228631 0.6853261
-0.0095749237 -0.0057449639 0.68575704
-0.0095928768 -0.0076743066 0.68619049
-0.0096108606 -0.0096108615 0.68662459
-0.0096289115 -0.011554718 0.68706042
-0.0096470676 -0.013505906 0.68749869
-0.0096652564 -0.015464425 0.68793786
-0.0096835494 -0.017430425 0.68837953
-0.009701876 -0.019403726 0.68882191
-0.0097202705 -0.021384627 0.68926603
-0.0097387731 -0.023373008 0.68971264
-0.0097573092 -0.025369018 0.69016021
-0.0097759524 -0.027372628 0.69061029
-0.0097946301 -0.029383868 0.6910612
-0.0098134177 -0.031402916 0.69151485
-0.0098322388 -0.033429593 0.69196916
-0.0098511316 -0.035464078 0.69242531
-0.0098701371 -0.037506521 0.69288415
-0.0098891761 -0.039556682 0.69334376
-0.0099083288 -0.04161495 0.69380611
-0.0099275159 -0.043681055 0.69426936
-0.0099467775 -0.045755178 0.69473439
-0.0099661537 -0.047837555 0.69520217
-0.0099855652 -0.049927831 0.69567078
-0.010005093 -0.05202651 0.69614226
-0.010024778 -0.054133803 0.69661742
-0.01004462 -0.056249857 0.69709647
-0.010064501 -0.058374107 0.69757652
-0.010084502 -0.060506999 0.69805932
-0.010104542 -0.062648147 0.69854313
-0.010124702 -0.064798117 0.69902986
-0.010144901 -0.066956311 0.69951755
-0.010165223 -0.069123507 0.70000815
-0.010185585 -0.071299076 0.70049971
-0.010206071 -0.073483706 0.70099425
-0.010226596 -0.075676799 0.70148981
-0.010247247 -0.077879071 0.70198834
-0.010267939 -0.080089927 0.70248783
-0.010288757 -0.082310051 0.70299053
-0.010309617 -0.084538877 0.70349413
-0.010330562 -0.086776704 0.7039997
-0.010351636 -0.089024067 0.70450854
-0.0069885179 0.083862215 0.6654951
-0.0069950391 0.082191736 0.66569191
-0.0070069656 0.080580115 0.66605181
-0.0070189331 0.078963012 0.66641295
-0.0070309653 0.077340603 0.66677606
-0.0070430143 0.075712413 0.66713965
-0.0070551052 0.074078649 0.66750455
-0.0070672375 0.072439194 0.6678707
-0.0070794369 0.070794374 0.66823888
-0.0070916531 0.069143653 0.66860747
-0.0071039111 0.06748715 0.66897738
-0.0071162372 0.065825194 0.66934931
-0.0071285809 0.064157218 0.6697219
-0.0071409675 0.06248349 0.67009568
-0.007153397 0.06080389 0.67047077
-0.0071658958 0.059118629 0.67084801
-0.0071784379 0.057427496 0.6712265
-0.0071910243 0.055730432 0.6716063
-0.0072036549 0.054027408 0.67198747
-0.0072163302 0.052318394 0.67236996
-0.0072290497 0.05060336 0.67275381
-0.0072418144 0.048882276 0.67313898
-0.0072545977 0.047154874 0.6735248
-0.0072674528 0.0454216 0.6739127
-0.007280353 0.043682098 0.67430198
-0.0072933002 0.041936487 0.67469269
-0.0073062927 0.040184617 0.67508483
-0.0073193316 0.038426518 0.67547828
-0.007321849 0.036609262 0.67555428
-0.0073349704 0.03484109 0.67595023
-0.0073481123 0.033066541 0.67634678
-0.0073613008 0.031285524 0.67674482
-0.0073745642 0.029498249 0.67714506
-0.0073879305 0.027704746 0.67754847
-0.0074013723 0.025904804 0.67795408
-0.0074148905 0.024098426 0.67836201
-0.007428431 0.022285283 0.67877066
-0.0074420478 0.020465642 0.67918158
-0.007455688 0.018639207 0.67959321
-0.0074694059 0.016806215 0.68000716
-0.0074831462 0.014966279 0.68042177
-0.0074969651 0.013119668 0.68083888
-0.0075108064 0.011266202 0.68125653
-0.0075247283 0.0094058812 0.68167669
-0.0075386725 0.0075387061 0.68209755
-0.0075526978 0.0056645274 0.68252075
-0.0075667468 0.003783375 0.68294466
-0.0075808764 0.0018952489 0.68337107
-0.0075950297 2.9802322e-08 0.68379819
-0.0076092659 -0.0019022822 0.68422782
-0.0076235258 -0.0038117766 0.68465817
-0.0076378393 -0.0057283938 0.68509012
-0.0076522361 -0.0076522529 0.68552458
-0.0076666581 -0.0095833242 0.68595982
-0.0076811635 -0.011521727 0.68639755
-0.0076956954 -0.013467461 0.686836
-0.0077103106 -0.015420616 0.68727708
-0.0077249529 -0.017381102 0.68771899
-0.0077396799 -0.019349188 0.6881634
-0.0077544334 -0.021324694 0.68860865
-0.0077692736 -0.0233078 0.68905652
-0.0077841403 -0.025298446 0.6895051
-0.0077990945 -0.027296841 0.68995643
-0.0078140758 -0.029302776 0.69040847
-0.0078291455 -0.031316549 0.69086325
-0.0078442423 -0.03333801 0.69131887
-0.0078594275 -0.035367399 0.69177711
-0.0078746732 -0.037404686 0.6922372
-0.0078900708 -0.039450347 0.69270182
-0.0079055596 -0.041504204 0.69316936
-0.0079211099 -0.043566108 0.69363856
-0.00793669 -0.045635939 0.69410872
-0.0079523632 -0.047714174 0.69458175
-0.0079680663 -0.049800426 0.69505554
-0.0079838634 -0.051895112 0.69553232
-0.0079997238 -0.053998113 0.69601095
-0.008015614 -0.056109309 0.69649053
-0.0080316011 -0.058229089 0.69697297
-0.0080476515 -0.060357362 0.69745725
-0.0080637336 -0.06249392 0.69794261
-0.0080799125 -0.06463933 0.6984309
-0.0080961566 -0.066793293 0.69892108
-0.0081124343 -0.06895569 0.69941229
-0.0081288097 -0.071127087 0.69990641
-0.0081452178 -0.073306948 0.7004016
-0.0081617264 -0.075495988 0.70089984
-0.0081783021 -0.07769385 0.70140004
-0.0081949104 -0.079900384 0.7019012
-0.0082116211 -0.082116216 0.70240551
-0.0082283998 -0.084341139 0.70291191
-0.0082452139 -0.086574733 0.70341927
-0.0082621304 -0.088817865 0.70392978
-0.0052260598 0.083616972 0.66487837
-0.0052316701 0.081962883 0.66510403
-0.0052406564 0.080356747 0.66546565
-0.0052496553 0.078744829 0.66582775
-0.0052586854 0.077127367 0.6661911
-0.0052677463 0.075504363 0.6665557
-0.0052768388 0.073875755 0.66692156
-0.0052859816 0.072241753 0.66728938
-0.0052951369 0.070601851 0.66765773
-0.005304324 0.068956226 0.6680274
-0.0053135431 0.067304909 0.66839838
-0.0053228135 0.065648049 0.66877139
-0.0053320969 0.063985169 0.66914493
-0.0053414321 0.062316716 0.66952056
-0.0053507998 0.060642391 0.6698975
-0.005360201 0.058962226 0.67027575
-0.0053696344 0.0572761 0.67065531
-0.0053791017 0.055584073 0.67103624
-0.0053886021 0.053885996 0.67141855
-0.0053981361 0.052181959 0.67180216
-0.0054077045 0.050471902 0.67218709
-0.0054173064 0.048755795 0.67257351
-0.0054269619 0.047033638 0.67296207
-0.0054366328 0.045305252 0.67335117
-0.0054463376 0.043570697 0.67374158
-0.0054560774 0.041829944 0.67413354
-0.0054658521 0.040082902 0.67452687
-0.0054756617 0.038329601 0.67492151
-0.0054787393 0.036524951 0.67504537
-0.0054877531 0.034755766 0.67540807
-0.005497742 0.032986462 0.67580998
-0.0055077476 0.031210601 0.67621255
-0.0055178097 0.029428333 0.67661744
-0.0055278884 0.027639449 0.67702299
-0.0055380245 0.025844127 0.67743075
-0.0055481978 0.024042189 0.67784017
-0.0055583878 0.022233576 0.67825019
-0.0055686361 0.020418346 0.67866254
-0.0055789226 0.018596411 0.67907643
-0.0055892258 0.01676771 0.67949098
-0.0055995882 0.014932245 0.67990798
-0.0056099892 0.013089955 0.68032646
-0.0056204079 0.01124081 0.68074566
-0.0056308862 0.0093848109 0.6811673
-0.0056413827 0.0075218379 0.6815896
-0.0056519397 0.0056519508 0.68201435
-0.0056625362 0.0037750304 0.68244076
-0.0056731515 0.0018910468 0.68286788
-0.0056838272 -0 0.68329751
-0.0056945439 -0.0018981695 0.68372869
-0.0057052793 -0.0038034916 0.68416059
-0.0057160766 -0.0057160556 0.68459511
-0.0057269153 -0.0076359212 0.68503124
-0.0057377731 -0.0095629394 0.68546808
-0.0057486943 -0.011497408 0.68590754
-0.0057596574 -0.013439208 0.68634862
-0.0057706395 -0.01538837 0.68679053
-0.0057816859 -0.017345071 0.687235
-0.0057927528 -0.019309133 0.6876803
-0.0058038849 -0.021280915 0.68812823
-0.0058150589 -0.023260236 0.68857783
-0.0058262539 -0.025247067 0.68902826
-0.0058376053 -0.027242154 0.68948507
-0.0058489786 -0.0292449 0.68994266
-0.005860419 -0.031255543 0.69040298
-0.005871905 -0.033274114 0.69086516
-0.0058834353 -0.035300612 0.69132906
-0.0058950107 -0.037335068 0.69179481
-0.0059066322 -0.03937754 0.69226247
-0.0059182998 -0.041428089 0.69273186
-0.005930013 -0.043486744 0.69320321
-0.0059417733 -0.045553625 0.69367641
-0.0059535801 -0.047628641 0.6941514
-0.0059654335 -0.049711913 0.69462842
-0.0059773345 -0.051803559 0.69510728
-0.0059892833 -0.05390352 0.69558805
-0.0060012802 -0.056011945 0.69607079
-0.0060133003 -0.058128566 0.69655442
-0.0060253935 -0.060253918 0.69704103
-0.0060375356 -0.062387884 0.69752961
-0.0060497262 -0.064530432 0.6980201
-0.0060619661 -0.066681623 0.69851255
-0.0060742553 -0.068841547 0.69900709
-0.0060865958 -0.071010262 0.69950366
-0.0060989857 -0.073187828 0.70000213
-0.0061114253 -0.075374246 0.70050275
-0.0061239172 -0.077569634 0.70100534
-0.0061364593 -0.079773962 0.70150995
-0.0061490536 -0.081987381 0.70201671
-0.0061616991 -0.084209859 0.70252556
-0.0061743716 -0.086441219 0.70303547
-0.0061871214 -0.088682085 0.70354849
-0.0034763184 0.083431631 0.66441226
-0.0034803078 0.081787258 0.66465306
-0.0034863097 0.080185115 0.66501534
-0.0034923321 0.078577489 0.66537881
-0.0034983754 0.076964259 0.66574359
-0.0035044397 0.075345427 0.66610956
-0.0035105373 0.07372129 0.66647762
-0.003516644 0.072091192 0.66684616
-0.0035227719 0.070455432 0.667216
-0.0035289212 0.06881395 0.66758716
-0.0035350916 0.067166746 0.66795957
-0.0035412966 0.065513998 0.66833413
-0.003547536 0.063855648 0.66871065
-0.0035537847 0.062191218 0.66908777
-0.0035600553 0.060520947 0.66946626
-0.0035663608 0.058844954 0.66984683
-0.0035726761 0.057162821 0.670228
-0.0035790137 0.055474728 0.67061049
-0.003585374 0.053780615 0.6709944
-0.0035917696 0.052080691 0.6713804
-0.0035981755 0.050374478 0.671767
-0.0036046037 0.048662156 0.67215502
-0.0036110685 0.046943903 0.67254519
-0.003617543 0.045219302 0.67293596
-0.0036240411 0.043488503 0.6733281
-0.0036305755 0.041751593 0.67372257
-0.0036371469 0.040008634 0.67411917
-0.0036437686 0.038259536 0.67451882
-0.0036478064 0.036478072 0.67476249
-0.0036521063 0.034694999 0.67502201
-0.0036587962 0.032929152 0.67542583
-0.0036655103 0.031156868 0.67583108
-0.0036722494 0.029377997 0.67623776
-0.0036790133 0.027592599 0.67664599
-0.003685802 0.025800586 0.67705578
-0.0036926158 0.024001986 0.67746699
-0.0036994549 0.02219671 0.67787981
-0.0037063195 0.020384759 0.67829412
-0.0037131957 0.018566012 0.67870915
-0.003720111 0.016740531 0.6791265
-0.0037270526 0.014908195 0.67954546
-0.0037340201 0.013069063 0.67996597
-0.0037410136 0.011223048 0.68038803
-0.0037480332 0.0093700588 0.68081176
-0.0037550793 0.0075101554 0.68123704
-0.003762152 0.0056432188 0.68166387
-0.0037692511 0.0037692785 0.68209237
-0.0037763775 0.0018881857 0.68252248
-0.0037835306 -0 0.68295419
-0.0037907108 -0.0018953383 0.68338758
-0.0037979186 -0.0037979186 0.68382263
-0.0038051538 -0.0057077408 0.6842593
-0.0038124162 -0.0076248348 0.68469763
-0.0038197068 -0.0095492899 0.68513763
-0.0038270107 -0.011481017 0.68557847
-0.003834357 -0.013420284 0.68602186
-0.0038417317 -0.015366942 0.68646693
-0.003849135 -0.01732114 0.68691379
-0.0038565369 -0.019282669 0.68736053
-0.0038639677 -0.021251798 0.68780899
-0.0038714118 -0.023228467 0.68825829
-0.0038787946 -0.025212109 0.68870389
-0.0038862056 -0.027203441 0.68915117
-0.0038936601 -0.029202461 0.68960112
-0.003901128 -0.031209022 0.69005179
-0.0039086249 -0.033223301 0.69050431
-0.0039161504 -0.035245329 0.6909585
-0.0039237048 -0.037275165 0.69141448
-0.0039312886 -0.039312899 0.69187224
-0.0039389017 -0.041358471 0.69233167
-0.0039465292 -0.043411821 0.69279206
-0.0039541386 -0.045472592 0.69325125
-0.0039616995 -0.047540396 0.6937077
-0.0039691953 -0.049614936 0.69416004
-0.0039765923 -0.051695704 0.69460654
-0.0039840173 -0.053784251 0.69505465
-0.0039914385 -0.055880129 0.69550252
-0.0039988868 -0.057983845 0.69595206
-0.004006363 -0.060095429 0.69640326
-0.0040138518 -0.062214673 0.69685525
-0.0040213843 -0.064342141 0.69730991
-0.0040289448 -0.066477567 0.69776624
-0.0040365341 -0.068621099 0.69822431
-0.0040441523 -0.070772707 0.6986841
-0.004051799 -0.072932392 0.69914567
-0.0040592775 -0.075096637 0.699597
-0.0040664035 -0.077261627 0.70002705
-0.0040734708 -0.079432696 0.7004537
-0.0040805801 -0.081611603 0.70088273
-0.004087714 -0.08379814 0.70131332
-0.0040948568 -0.085992008 0.70174444
-0.0041020405 -0.088193834 0.702178
-0.0041092499 -0.090403512 0.70261306
-0.0017354343 0.083300829 0.66408336
-0.0017374529 0.0816603 0.66432709
-0.0017404688 0.080061585 0.66469109
-0.0017434949 0.078457266 0.66505635
-0.0017465317 0.076847374 0.66542292
-0.0017495853 0.075232208 0.66579151
-0.0017526435 0.073610991 0.6661607
-0.0017557122 0.071984172 0.66653115
-0.0017587979 0.070351958 0.66690356
-0.0017618884 0.068713665 0.66727662
-0.001765002 0.067070067 0.66765255
-0.0017681204 0.065420479 0.66802895
-0.0017712563 0.063765228 0.6684075
-0.0017744032 0.062104136 0.6687873
-0.0017775615 0.060437083 0.66916859
-0.0017807245 0.058763921 0.66955042
-0.0017839053 0.057085007 0.66993433
-0.0017870973 0.055400014 0.67031962
-0.0017902944 0.053708851 0.67070562
-0.0017935095 0.052011788 0.6710937
-0.0017967361 0.050308615 0.67148316
-0.0017999678 0.048599154 0.67187321
-0.0018032242 0.046883821 0.67226636
-0.0018065056 0.045162648 0.67266244
-0.0018097921 0.043435007 0.67305911
-0.0018130974 0.041701287 0.6734581
-0.0018164081 0.03996098 0.67385775
-0.0018197376 0.038214475 0.67425966
-0.0018222161 0.036444336 0.67455882
-0.001823684 0.034649998 0.67473602
-0.0018269534 0.032885164 0.67513072
-0.0018302345 0.031113982 0.67552674
-0.0018335277 0.029336452 0.67592424
-0.0018368325 0.027552485 0.67632324
-0.0018401425 0.025761992 0.67672276
-0.0018434713 0.023965091 0.67712462
-0.0018467645 0.022161156 0.67752212
-0.0018500558 0.020350605 0.67791939
-0.0018533656 0.018533647 0.67831898
-0.0018566805 0.016710162 0.67871904
-0.0018600142 0.014880121 0.67912149
-0.0018632766 0.013042957 0.67951524
-0.0018665364 0.011199206 0.67990881
-0.0018698077 0.0093490183 0.68030363
-0.0018730905 0.0074923635 0.68069994
-0.001876378 0.0056291223 0.68109679
-0.0018796838 0.0037593544 0.68149585
-0.0018829944 0.0018830001 0.68189543
-0.0018863095 -2.9802322e-08 0.68229562
-0.0018896363 -0.0018896163 0.68269718
-0.0018929748 -0.003785938 0.68310022
-0.0018961958 -0.0056885481 0.68348897
-0.0018994279 -0.0075976849 0.68387914
-0.0019026636 -0.0095133483 0.68426973
-0.0019059178 -0.011435509 0.68466258
-0.0019091321 -0.013363928 0.68505061
-0.0019122475 -0.015297979 0.68542659
-0.0019153806 -0.017238438 0.68580484
-0.0019185238 -0.019185245 0.68618423
-0.0019216627 -0.02113831 0.68656313
-0.0019247526 -0.023097038 0.68693614
-0.0019278525 -0.025062084 0.68731028
-0.0019309549 -0.027033329 0.68768477
-0.0019341197 -0.029011786 0.68806684
-0.0019372947 -0.03099671 0.6884501
-0.0019404804 -0.032988161 0.68883467
-0.0019436689 -0.034986019 0.68921953
-0.0019468756 -0.036990613 0.68960655
-0.0019500927 -0.039001852 0.68999493
-0.0019533129 -0.041019589 0.69038367
-0.0019565516 -0.04304412 0.69077456
-0.001959801 -0.045075387 0.69116676
-0.0019630531 -0.047113299 0.69155943
-0.0019663242 -0.049158096 0.6919542
-0.0019697766 -0.051214188 0.69237101
-0.0019733501 -0.053280443 0.69280237
-0.0019769443 -0.055354446 0.69323623
-0.0019805441 -0.057435751 0.69367075
-0.0019841569 -0.059524685 0.69410682
-0.0019877905 -0.061621517 0.69454551
-0.0019914298 -0.06372577 0.69498473
-0.0019950906 -0.065837979 0.69542664
-0.0019987563 -0.067957729 0.69586921
-0.0020024441 -0.070085555 0.69631433
-0.0020061373 -0.072220922 0.69676012
-0.0020098439 -0.074364245 0.69720757
-0.0020135727 -0.076515764 0.69765764
-0.0020173071 -0.078674972 0.69810843
-0.0020211858 -0.080847412 0.69857663
-0.0020251616 -0.083031625 0.69905651
-0.0020291449 -0.085224062 0.69953734
-0.0020331522 -0.08742556 0.70002115
-0.002037175 -0.08963567 0.70050669
0 0.083221763 0.66388446
0 0.081579566 0.66411966
0 0.079983413 0.66448593
0 0.078381896 0.66485417
0 0.076774508 0.665223
0 0.075161725 0.66559386
0 0.073543042 0.66596526
0 0.071918845 0.66633868
0 0.070288658 0.6667127
0 0.068652987 0.66708887
0 0.067011207 0.66746551
0 0.065363884 0.6678443
0 0.06371069 0.66822445
0 0.062052429 0.66860896
0 0.060388148 0.6689949
0 0.058717906 0.66938221
0 0.057041675 0.66977096
0 0.055359095 0.67016029
0 0.053670645 0.67055184
0 0.051975965 0.67094481
0 0.050275236 0.67133921
0 0.048568219 0.67173505
0 0.046854824 0.67213154
0 0.04513526 0.67253023
0 0.043409437 0.67293048
0 0.041677207 0.6733321
0 0.039938658 0.67373526
0 0.038193673 0.67413986
0 0.03642863 0.6744644
0 0.034445494 0.67343676
0 0.032682091 0.67376864
0 0.030913949 0.67410636
0 0.029140294 0.67444438
0 0.027361244 0.67478418
0 0.025576681 0.675125
0 0.023786515 0.67546618
0 0.021990895 0.6758092
0 0.020189703 0.67615324
0 0.018382788 0.67649752
0 0.0165703 0.67684376
0 0.014752209 0.67719102
0 0.012928277 0.67753863
0 0.011098772 0.67788804
0 0.0092645884 0.67826509
0 0.0074243248 0.67864674
0 0.0055777729 0.67902976
0 0.0037248731 0.67941487
0 0.0018656552 0.67980045
0 2.9802322e-08 0.68018818
0 -0.0018720627 0.68057638
0 -0.0037505925 0.68096691
0 -0.0056356192 0.68135786
0 -0.0075271726 0.68175095
0 -0.0094252825 0.68214464
0 -0.011329979 0.68254054
0 -0.01324141 0.6829378
0 -0.015159428 0.6833356
0 -0.017084152 0.68373561
0 -0.019017309 0.68415719
0 -0.020957768 0.68458194
0 -0.022905409 0.68500835
0 -0.024860263 0.68543631
0 -0.026822418 0.68586588
0 -0.028791875 0.68629706
0 -0.030768692 0.68672985
0 -0.032752842 0.68716335
0 -0.034744442 0.68759936
0 -0.036743551 0.68803704
0 -0.038750231 0.68847632
0 -0.040764451 0.68891734
0 -0.0427863 0.68935996
0 -0.044815809 0.68980432
0 -0.046852976 0.69025022
0 -0.048897743 0.69069707
0 -0.050953209 0.69115937
0 -0.053018242 0.69163013
0 -0.0550915 0.69210261
0 -0.057173014 0.69257712
0 -0.05926317 0.69305444
0 -0.061361402 0.69353265
0 -0.063468099 0.69401288
0 -0.065583259 0.69449496
0 -0.067707002 0.69497901
0 -0.069839299 0.69546509
0 -0.071980238 0.69595307
0 -0.074129909 0.69644308
0 -0.076288253 0.696935
0 -0.078455448 0.69742894
0 -0.080631495 0.69792497
0 -0.082816422 0.69842297
0 -0.085012406 0.69892901
0 -0.087222844 0.69945204
0 -0.089442328 0.69997621
0.00173318 0.083192617 0.66381127
0.0017349708 0.081543654 0.66402739
0.0017380323 0.079949468 0.664397
0.0017411046 0.07834968 0.66476786
0.0017441878 0.076744258 0.66514003
0.0017472819 0.075133145 0.66551352
0.001750387 0.073516279 0.66588831
0.0017535032 0.071893632 0.66626447
0.0017566306 0.070265234 0.66664207
0.001759769 0.068630993 0.6670208
0.0017629251 0.066991121 0.66740179
0.0017661172 0.06534636 0.66778708
0.0017693148 0.063695371 0.66817307
0.0017725239 0.062038332 0.6685605
0.0017757509 0.060375541 0.66895008
0.0017789834 0.058706462 0.66934019
0.0017822341 0.057031482 0.66973257
0.0017854903 0.055350214 0.67012566
0.0017887647 0.053662956 0.6705209
0.001792045 0.05196932 0.67091686
0.0017953436 0.050269634 0.67131507
0.0017986478 0.04856348 0.67171395
0.0018019644 0.046851099 0.67211425
0.0018052998 0.045132488 0.67251694
0.0018086408 0.043407381 0.67292017
0.0018120009 0.041675985 0.67332578
0.0018153669 0.039938062 0.6737321
0.001818752 0.038193762 0.67414075
0.0018217053 0.036434114 0.67449713
0.0017987513 0.03417626 0.67172647
0.0018018995 0.032434195 0.67210644
0.0018050587 0.030685991 0.6724878
0.001808229 0.028931677 0.67287046
0.0018114039 0.027171046 0.67325377
0.0018145966 0.025404334 0.67363912
0.0018178006 0.023631454 0.67402583
0.0018210156 0.021852225 0.67441398
0.0018242423 0.020066649 0.6748035
0.0018274804 0.018274814 0.67519432
0.0018307301 0.016476572 0.67558658
0.0018339914 0.014671952 0.67598021
0.0018372574 0.012860805 0.6763745
0.001840542 0.011043251 0.67677099
0.0018438383 0.0092191994 0.67716891
0.0018471531 0.0073886216 0.67756903
0.0018506169 0.0055518746 0.6779871
0.0018541005 0.0037082136 0.67840767
0.0018575904 0.0018576086 0.67882895
0.0018610933 2.9802322e-08 0.67925173
0.0018646095 -0.0018645823 0.67967623
0.0018681393 -0.0037362874 0.68010223
0.0018716822 -0.0056150556 0.68052995
0.0018752387 -0.0075009465 0.68095922
0.0018788087 -0.0093940496 0.68139017
0.0018823923 -0.011294335 0.68182278
0.0018859894 -0.013201952 0.682257
0.0018896005 -0.015116781 0.68269289
0.0018932256 -0.017039031 0.6831305
0.0018968643 -0.018968642 0.68356973
0.0019005174 -0.020905703 0.68401062
0.0019041842 -0.022850186 0.68445331
0.0019078654 -0.024802238 0.68489766
0.0019116703 -0.02676338 0.68535697
0.0019155345 -0.028732985 0.68582338
0.0019194069 -0.030710518 0.68629086
0.0019233025 -0.032696098 0.68676102
0.0019272065 -0.034689695 0.68723238
0.0019311263 -0.036691397 0.68770546
0.0019350696 -0.038701385 0.68818152
0.0019390216 -0.04071945 0.68865854
0.0019429971 -0.042745948 0.68913841
0.0019469815 -0.044780582 0.68961942
0.0019509824 -0.046823591 0.69010234
0.0019550072 -0.048875153 0.69058812
0.0019590412 -0.05093509 0.69107515
0.0019630995 -0.053003699 0.69156504
0.0019671668 -0.055080682 0.69205594
0.0019712588 -0.057166457 0.69254994
0.0019754537 -0.059263617 0.69305629
0.0019797527 -0.06137237 0.69357526
0.0019840701 -0.063490242 0.69409633
0.0019884068 -0.065617412 0.69461983
0.0019927623 -0.067753911 0.69514561
0.0019971449 -0.069900066 0.69567466
0.0020015389 -0.072055399 0.69620508
0.0020059522 -0.07422024 0.69673783
0.002010385 -0.076394618 0.6972729
0.0020148377 -0.078578651 0.69781029
0.0020193178 -0.080772728 0.69835114
0.0020238101 -0.082976222 0.69889349
0.0020283223 -0.085189521 0.6994381
0.0020328546 -0.087412715 0.69998515
0.0020374737 -0.089648813 0.70054269
0.0034672127 0.083213121 0.66386271
0.0034703026 0.081552118 0.66404921
0.0034764754 0.079958946 0.6644218
0.0034826819 0.078360349 0.66479635
0.0034889106 0.07675606 0.66517234
0.0034951498 0.075145692 0.66554892
0.0035014234 0.073529899 0.66592753
0.0035077196 0.071908265 0.66630751
