# .PCD v0.7 - Point Cloud Data file format
VERSION 0.7
FIELDS x y z
SIZE 4 4 4
TYPE F F F
COUNT 1 1 1
WIDTH 1333
HEIGHT 1
VIEWPOINT 0 0 0 1 0 0 0
POINTS 1333
DATA ascii
-0.055324003 0.033529729 0.65696752
-0.055369079 0.031879187 0.65713245
-0.055575196 0.03031373 0.65788639
-0.055884991 0.028789222 0.65901959
-0.056106213 0.027203053 0.65982878
-0.05608144 0.025491565 0.65973818
-0.05585191 0.023694724 0.65889859
-0.054045908 0.021290809 0.65229243
-0.054479584 0.019810766 0.65387875
-0.048867051 0.016289026 0.63334864
-0.048711207 0.014760971 0.63277864
-0.048747014 0.013294637 0.6329096
-0.048102293 0.011661172 0.63055122
-0.047852758 0.010150582 0.62963849
-0.052942228 0.052942187 0.65430707
-0.0528819 0.051229358 0.65407944
-0.0531759 0.049852431 0.65518856
-0.053280659 0.048285604 0.65558368
-0.052879978 0.046269953 0.65407223
-0.053045008 0.044756711 0.6546948
-0.053434998 0.043415934 0.65616584
-0.054442655 0.042533368 0.65996695
-0.054632876 0.040974647 0.66068453
-0.054799668 0.039387256 0.66131371
-0.054928634 0.037763417 0.66180021
-0.054865956 0.036005795 0.66156375
-0.054273065 0.033920646 0.65932727
-0.054151367 0.032152385 0.65886819
-0.054250814 0.030516088 0.65924329
-0.054483972 0.028944612 0.66012281
-0.054791041 0.027395517 0.66128117
-0.054944463 0.025755227 0.66185993
-0.054844156 0.023994297 0.6614815
-0.052838098 0.021465451 0.65391427
-0.047337055 0.017751396 0.63316321
-0.047087867 0.016186446 0.63222319
-0.047519974 0.014849961 0.6338532
-0.047727633 0.013423383 0.63463652
-0.046355519 0.011588871 0.62946063
-0.046338886 0.010136664 0.62939787
-0.047112525 0.0088335872 0.63231623
-0.051228154 0.054533213 0.65407485
-0.051111512 0.052760273 0.65362072
-0.051444788 0.051444769 0.65491843
-0.051761702 0.050091952 0.65615249
-0.052044094 0.048686415 0.65725207
-0.052085165 0.047044665 0.65741193
-0.051728383 0.04505378 0.65602267
-0.051920578 0.043546289 0.65677112
-0.052424036 0.042277455 0.65873146
-0.053285599 0.041253358 0.66208631
-0.053468727 0.039670378 0.66279942
-0.053628452 0.038058907 0.66342139
-0.053736955 0.036402464 0.66384387
-0.053545143 0.034545243 0.66309702
-0.053014781 0.032492936 0.66103178
-0.05298128 0.030763328 0.66090131
-0.053108808 0.029124171 0.66139793
-0.053368468 0.027545005 0.66240901
-0.053647928 0.025958687 0.66349721
-0.053743098 0.024271071 0.66386783
-0.053579364 0.022468746 0.66323024
-0.045569059 0.017639667 0.63203895
-0.045330547 0.016084999 0.63111019
-0.045094647 0.014546663 0.63019162
-0.044861194 0.013024211 0.62928259
-0.044712607 0.011538744 0.62870401
-0.045029454 0.010167956 0.62993777
-0.045536954 0.0088136494 0.63191396
-0.049518231 0.056120664 0.65384388
-0.049227223 0.054149956 0.65267301
-0.048939936 0.052202612 0.65151697
-0.049980387 0.051646382 0.65570349
-0.050307352 0.050307363 0.65701908
-0.050618142 0.048930854 0.65826958
-0.050877891 0.047486037 0.65931475
-0.050863929 0.045777559 0.65925854
-0.050558127 0.043817073 0.65802813
-0.050779615 0.042316377 0.65891933
-0.051890608 0.041512489 0.66338962
-0.052104589 0.039946884 0.66425061
-0.052280623 0.038339108 0.66495889
-0.052433107 0.036703199 0.66557246
-0.052521717 0.03501448 0.66592896
-0.052151296 0.033029169 0.66443855
-0.051785883 0.031071514 0.66296828
-0.051787671 0.029346317 0.66297543
-0.051942505 0.027702659 0.66359842
-0.052228052 0.026114017 0.66474736
-0.052473612 0.024487674 0.66573548
-0.052492328 0.022746712 0.6658107
-0.043823447 0.017529368 0.63092983
-0.043595497 0.015985012 0.63001269
-0.043370027 0.014456689 0.62910545
-0.043335974 0.013000786 0.62896842
-0.043552361 0.011613965 0.62983906
-0.0437911 0.010217905 0.63079971
-0.044157341 0.0088314712 0.63227332
-0.044739854 0.0074566305 0.63461721
-0.047531605 0.055726737 0.65244526
-0.047254372 0.053772241 0.65129125
-0.047223769 0.052109003 0.65116388
-0.047593649 0.050875962 0.65270352
-0.048825331 0.050508976 0.6578303
-0.049145818 0.049145818 0.65916431
-0.049450137 0.04774496 0.66043103
-0.049683794 0.046257347 0.66140354
-0.049564827 0.044437438 0.6609084
-0.049380634 0.042569518 0.66014171
-0.049620423 0.041065186 0.66113979
-0.050706588 0.040215582 0.66566092
-0.050898507 0.038612664 0.6664598
-0.051067427 0.036979854 0.6671629
-0.051212694 0.03531912 0.66776752
-0.051243626 0.033573419 0.66789627
-0.050732471 0.031489134 0.66576868
-0.050533533 0.029623091 0.6649406
-0.050569635 0.027900517 0.66509086
-0.050767083 0.026258826 0.66591275
-0.051061317 0.024650306 0.66713744
-0.051250864 0.022974521 0.66792643
-0.051194452 0.021183938 0.66769159
-0.041881766 0.015886217 0.62892812
-0.041666497 0.014367759 0.62803209
-0.042078763 0.013058931 0.62974817
-0.04237318 0.011689156 0.63097358
-0.042583335 0.010278732 0.63184839
-0.042854231 0.0088663995 0.63297594
-0.043261677 0.0074589252 0.63467193
-0.044069864 0.0060786307 0.63803595
-0.045839876 0.057299852 0.65221804
-0.045779064 0.055588901 0.65195584
-0.045934264 0.054136783 0.65262496
-0.045867644 0.052420169 0.65233773
-0.046076417 0.051013201 0.65323776
-0.046461485 0.04978016 0.65489781
-0.047645587 0.049347252 0.66000259
-0.047959395 0.047959387 0.6613555
-0.048257072 0.046533585 0.66263878
-0.048464913 0.045003146 0.66353476
-0.04817709 0.043015301 0.66229391
-0.048179738 0.041296929 0.66230541
-0.048447311 0.039796025 0.66345894
-0.049478702 0.038876146 0.66790533
-0.049664274 0.037248194 0.66870534
-0.049827125 0.035590798 0.66940743
-0.049962882 0.03390336 0.66999269
-0.049937595 0.032102734 0.66988367
-0.04939758 0.029991359 0.66755563
-0.049261581 0.028149486 0.6669693
-0.049354248 0.026439786 0.66736883
-0.049577277 0.024788648 0.66833031
-0.049865611 0.023151904 0.66957331
-0.049992837 0.021425515 0.67012179
-0.040189214 0.015788645 0.62785745
-0.040163752 0.014344215 0.62774771
-0.040702369 0.013082922 0.63006973
-0.041134138 0.011752635 0.63193113
-0.041387253 0.0103468 0.63302231
-0.041591827 0.0089125633 0.63390422
-0.041902822 0.0074826777 0.63524497
-0.042402372 0.006057471 0.6373986
-0.043895099 0.056901067 0.65084267
-0.044268496 0.055745512 0.65251201
-0.044603635 0.05451557 0.65401036
-0.044738349 0.053023249 0.6546126
-0.044678275 0.051297277 0.65434408
-0.044906091 0.049895644 0.65536255
-0.045308053 0.048664212 0.65715963
-0.046440348 0.048160374 0.66222185
-0.046747278 0.046747297 0.66359401
-0.047038142 0.045295984 0.66489446
-0.047209255 0.043712288 0.66565943
-0.046875417 0.041667014 0.66416699
-0.046960477 0.040003389 0.6645472
-0.047266237 0.038513213 0.66591418
-0.048223209 0.037506938 0.6701926
-0.048401333 0.03585282 0.67098892
-0.048556685 0.034169495 0.67168349
-0.048672669 0.032448471 0.67220199
-0.048560876 0.030575335 0.67170227
-0.048044506 0.028470814 0.66939372
-0.04799382 0.026663214 0.66916704
-0.04811278 0.024947345 0.66969895
-0.048359923 0.023284435 0.67080379
-0.038714793 0.017206579 0.62768269
-0.038517106 0.015692145 0.62679893
-0.038782477 0.014363885 0.6279853
-0.039271303 0.013090432 0.63017076
-0.039793231 0.011790574 0.63250411
-0.040165666 0.010413349 0.63416922
-0.04037562 0.0089723766 0.63510787
-0.04060559 0.0075195432 0.63613605
-0.04096102 0.0060683191 0.63772506
-0.041562755 0.0046180785 0.64041525
-0.042221066 0.058459938 0.65061843
-0.042242866 0.056865394 0.6507197
-0.042671289 0.055800915 0.65270877
-0.043081798 0.054680735 0.65461457
-0.043399714 0.05341503 0.65609056
-0.043518327 0.051887244 0.65664124
-0.043469757 0.050157428 0.65641576
-0.043713246 0.048757076 0.65754622
-0.044152539 0.04754892 0.65958571
-0.045208469 0.046947241 0.66448814
-0.045507833 0.045507848 0.665878
-0.045787975 0.044026881 0.66717863
-0.045921963 0.042389512 0.66780066
-0.045581501 0.040322125 0.66621995
-0.045714445 0.038681448 0.66683722
-0.046080884 0.037219167 0.66853851
-0.046940498 0.036108106 0.67252946
-0.04711134 0.034427524 0.67332262
-0.047259204 0.032717913 0.67400908
-0.047355887 0.03096348 0.67445797
-0.047112364 0.028992236 0.67332733
-0.046703737 0.026944488 0.67143023
-0.037435286 0.020157486 0.62839937
-0.037243448 0.018621743 0.62750876
-0.03705357 0.017101616 0.62662727
-0.037008032 0.015657276 0.62641579
-0.037414398 0.014390141 0.62830245
-0.037861053 0.01310575 0.6303761
-0.038358498 0.011802584 0.63268566
-0.038851429 0.010459989 0.63497418
-0.039140031 0.0090322793 0.63631409
-0.03933958 0.0075653195 0.63724053
-0.03959943 0.0060921907 0.63844693
-0.039998658 0.0046152472 0.64030039
-0.040955544 0.0031504333 0.64474303
-0.040550988 0.06001547 0.65039545
-0.040317036 0.058056563 0.64926577
-0.040085644 0.056119919 0.64814854
-0.041047588 0.055824727 0.65279329
-0.041467652 0.0547373 0.65482146
-0.041869752 0.053593278 0.65676296
-0.042169269 0.052289933 0.6582092
-0.042273156 0.050727814 0.65871078
-0.042235762 0.048993498 0.65853024
-0.04249417 0.047593504 0.65977794
-0.043639988 0.047131181 0.66531038
-0.043947548 0.045705467 0.66679543
-0.044239439 0.044239432 0.66820484
-0.044507183 0.042726904 0.66949761
-0.044604786 0.041036427 0.66996884
-0.044273257 0.038960457 0.66836816
-0.044440456 0.037330002 0.66917539
-0.044976547 0.035981268 0.6717639
-0.045629848 0.034678668 0.67491829
-0.045793217 0.032971114 0.6757071
-0.045933627 0.03123486 0.6763851
-0.046000686 0.029440463 0.67670888
-0.035959147 0.021575481 0.62822402
-0.035775062 0.020034045 0.62733519
-0.03559275 0.018508226 0.62645489
-0.035412382 0.016997963 0.62558401
-0.03568067 0.015699506 0.62687939
-0.036051381 0.014420569 0.62866938
-0.036461737 0.013126254 0.63065076
-0.036913864 0.011812449 0.63283384
-0.037419163 0.010477364 0.63527358
-0.037841622 0.0090819895 0.63731343
-0.038085185 0.0076170564 0.63848948
-0.038278766 0.0061246157 0.63942415
-0.038581006 0.0046297312 0.64088351
-0.039067563 0.0031253695 0.64323282
-0.038884576 0.061567217 0.65017229
-0.038737193 0.059719831 0.64943099
-0.03871958 0.058079392 0.64934236
-0.038219869 0.055737317 0.64682901
-0.038418565 0.054426312 0.64782834
-0.039826769 0.054761827 0.6549111
-0.040237926 0.053650588 0.65697908
-0.040631253 0.052482009 0.65895736
-0.040912677 0.051140875 0.66037279
-0.040998023 0.049539268 0.66080207
-0.040975779 0.047805101 0.66069019
-0.041247558 0.046403497 0.6620571
-0.042358853 0.045888782 0.66764647
-0.042658594 0.044436038 0.66915405
-0.042942788 0.042942762 0.67058349
-0.043198138 0.041398227 0.67186785
-0.043238271 0.039635092 0.67206967
-0.042951699 0.037582725 0.67062831
-0.043143976 0.035953343 0.67159534
-0.044107296 0.034918278 0.67644048
-0.04428998 0.03321749 0.67735934
-0.044445872 0.031482488 0.67814338
-0.044579025 0.029719353 0.6788131
-0.044589285 0.02786833 0.67886472
-0.034343075 0.020033479 0.62733024
-0.033962045 0.018396109 0.62541384
-0.034043115 0.017021567 0.62582159
-0.034361061 0.015748858 0.62742066
-0.034704044 0.014460057 0.62914574
-0.035077192 0.01315394 0.63102257
-0.035487369 0.011829108 0.63308561
-0.035943795 0.010483623 0.63538122
-0.036441617 0.0091104209 0.63788509
-0.036800545 0.0076667964 0.63969034
-0.037002042 0.0061669648 0.64070386
-0.037220985 0.0046526492 0.64180499
-0.037562344 0.0031301677 0.6435219
-0.038174186 0.0015905797 0.64659929
-0.037222203 0.063115925 0.64995086
-0.037007943 0.061143577 0.6488263
-0.037321184 0.060038418 0.65047032
-0.036586504 0.057265848 0.64661449
-0.036411706 0.055409133 0.64569712
-0.036773205 0.05436039 0.64759439
-0.037212212 0.053391457 0.64989841
-0.038579706 0.053676099 0.65707541
-0.038981415 0.052540153 0.65918368
-0.039363954 0.051344305 0.66119134
-0.039629228 0.049967319 0.66258359
-0.039690048 0.048318356 0.66290283
-0.039692514 0.046595544 0.66291577
-0.039972801 0.045186639 0.66438681
-0.041048992 0.044618517 0.67003495
-0.041340668 0.043138117 0.67156571
-0.041617088 0.041617095 0.67301649
-0.041854419 0.040034652 0.67426211
-0.041830078 0.03819266 0.67413425
-0.04161077 0.036183298 0.67298329
-0.041824605 0.034550756 0.67410558
-0.042749178 0.033455878 0.678958
-0.042918969 0.031722695 0.67984909
-0.043067217 0.029959828 0.68062723
-0.043186978 0.02816546 0.6812557
-0.032514591 0.019791484 0.62524396
-0.032478899 0.018357635 0.62505662
-0.032748964 0.017086416 0.62647396
-0.033038061 0.015800834 0.62799126
-0.033356853 0.014503002 0.62966436
-0.033701383 0.013187498 0.63147259
-0.034077309 0.01185298 0.6334455
-0.034491666 0.010497481 0.63562024
-0.034954403 0.0091185272 0.63804877
-0.035422966 0.0077006817 0.64050788
-0.035704974 0.0062095821 0.64198798
-0.035892386 0.004681617 0.64297163
-0.036138546 0.0031424761 0.64426351
-0.036531337 0.0015883148 0.64632499
-0.035358876 0.062681645 0.64860672
-0.035156623 0.060725063 0.647497
-0.034956668 0.058790803 0.64639986
-0.034758978 0.056878328 0.64531517
-0.034929603 0.055569828 0.64625138
-0.035196751 0.05439496 0.64771718
-0.035550375 0.053325564 0.64965749
-0.035979725 0.052334189 0.65201324
-0.037305269 0.052566528 0.65928626
-0.037697222 0.051405311 0.66143692
-0.038067456 0.050179809 0.66346836
-0.03831777 0.048768103 0.66484171
-0.038355019 0.047072083 0.6650461
-0.038384441 0.045363426 0.66520762
-0.038668815 0.043941826 0.66676784
-0.03970943 0.043319345 0.6724776
-0.039992772 0.041810632 0.67403221
-0.040261038 0.04026103 0.67550409
-0.040473312 0.038633645 0.67666888
-0.040341303 0.036673933 0.67594457
-0.040247053 0.034758806 0.67542738
-0.04048403 0.033123314 0.67672765
-0.041351955 0.031953812 0.68148983
-0.041513991 0.030192018 0.68237895
-0.031070102 0.021184176 0.62507486
-0.030970536 0.019708544 0.62452859
-0.031200526 0.01843667 0.62579048
-0.031453628 0.017156512 0.62717927
-0.031723663 0.015861869 0.62866086
-0.03201317 0.014551491 0.63024932
-0.032326136 0.013224334 0.63196653
-0.03267163 0.011880606 0.63386226
-0.033049576 0.010515779 0.63593596
-0.033467274 0.0091274381 0.63822782
-0.033935376 0.0077126026 0.64079618
-0.034342881 0.0062441826 0.64303213
-0.034574363 0.0047146976 0.64430225
-0.034755357 0.0031596124 0.64529526
-0.035045143 0.0015929341 0.6468854
-0.035512988 -0 0.64945233
-0.033330575 0.06031245 0.64618635
-0.033142291 0.058393538 0.64510405
-0.033137586 0.056807309 0.64507699
-0.033460703 0.055767834 0.64693433
-0.033695482 0.054554582 0.64828384
-0.033955835 0.053359151 0.64978039
-0.034301121 0.052268356 0.65176517
-0.034720261 0.051253706 0.65417439
-0.036002699 0.051432461 0.66154599
-0.03638342 0.050243765 0.6637345
-0.036741935 0.048989266 0.66579527
-0.036977518 0.047542542 0.66714942
-0.03699236 0.04580006 0.66723472
-0.03704714 0.044103742 0.66754961
-0.037334759 0.042668313 0.6692028
-0.038339142 0.041990459 0.67497623
-0.038613882 0.0404526 0.6765554
-0.038873736 0.038873762 0.67804909
-0.039061457 0.037201375 0.67912817
-0.038816869 0.03512004 0.67772222
-0.029930696 0.025654882 0.62664342
-0.029778691 0.024106592 0.62576962
-0.029628471 0.022574037 0.62490618
-0.029508736 0.021077693 0.62421787
-0.029709565 0.019806385 0.62537229
-0.029925581 0.018525332 0.62661397
-0.030154798 0.017231315 0.62793154
-0.030402502 0.015925139 0.62935543
-0.030671848 0.014605641 0.6309036
-0.030961325 0.013269156 0.63256752
-0.03127446 0.011914104 0.63436747
-0.031615954 0.010538667 0.63633049
-0.031992823 0.0091408193 0.63849676
-0.032412942 0.007717371 0.64091164
-0.03288104 0.0062630475 0.64360231
-0.033221822 0.00474599 0.64556122
-0.033412613 0.0031821728 0.64665782
-0.03361829 0.0016009212 0.64784014
-0.033941466 2.9802322e-08 0.64969778
-0.034552198 -0.0016453266 0.65320837
-0.03135236 0.058001876 0.64382619
-0.031348925 0.056428075 0.64380538
-0.03188866 0.055805176 0.64706302
-0.032206502 0.054751068 0.64898133
-0.032434899 0.05351758 0.65035987
-0.032688115 0.052301019 0.65188813
-0.033024684 0.05118826 0.65391958
-0.033432912 0.050149381 0.6563834
-0.034671046 0.050273031 0.66385615
-0.035040226 0.049056321 0.66608441
-0.035386544 0.047771841 0.66817462
-0.035606254 0.046288162 0.66950065
-0.035601441 0.044501811 0.66947162
-0.035679884 0.042815864 0.66994512
-0.035973474 0.041369498 0.67171705
-0.036937062 0.040630788 0.67753279
-0.03720291 0.039063066 0.67913735
-0.037454098 0.037454098 0.68065339
-0.028476872 0.027053028 0.62647104
-0.028332476 0.025499225 0.62559956
-0.028189613 0.023961186 0.62473726
-0.028086601 0.022469252 0.62411559
-0.028260702 0.021195531 0.62516636
-0.028444251 0.019910991 0.62627423
-0.028640198 0.01861614 0.62745684
-0.028854661 0.017312765 0.62875122
-0.029082585 0.015995413 0.63012683
-0.02932599 0.014663011 0.63159591
-0.029592657 0.013316691 0.63320541
-0.029881252 0.01195249 0.63494724
-0.030194288 0.010567993 0.63683659
-0.030536575 0.0091609359 0.63890249
-0.030915054 0.0077287853 0.64118671
-0.031338815 0.006267786 0.64374441
-0.031777479 0.0047666132 0.64639199
-0.03204849 0.0032048523 0.64802766
-0.03222185 0.0016110837 0.64907396
-0.032451626 -0 0.65046084
-0.032831393 -0.0016415417 0.65275288
-0.029586194 0.057615221 0.64256477
-0.029422201 0.05574733 0.64152288
-0.030079808 0.055410177 0.64570081
-0.030613421 0.054781944 0.64909095
-0.030925216 0.053712249 0.65107179
-0.031147107 0.052458316 0.6524815
-0.031392615 0.051219523 0.65404129
-0.031719938 0.050084114 0.65612084
-0.032116532 0.049019963 0.6586405
-0.033309441 0.049087614 0.66621923
-0.033666383 0.047841758 0.66848695
-0.034000266 0.0465267 0.67060816
-0.034200866 0.045001149 0.67188269
-0.034180943 0.043175906 0.67175609
-0.034286592 0.04150483 0.6724273
-0.034580547 0.040040642 0.67429483
-0.035502069 0.039239168 0.68014944
-0.035758726 0.03764078 0.68177998
-0.026889052 0.026889086 0.62542927
-0.026753679 0.025345594 0.62456918
-0.026700029 0.023889482 0.62422842
-0.026846835 0.022607893 0.62516105
-0.027001778 0.021317214 0.62614542
-0.027171951 0.020021439 0.62722659
-0.027353643 0.01871568 0.62838089
-0.02754624 0.017397612 0.62960452
-0.027756795 0.01606974 0.63094223
-0.027982861 0.014727831 0.63237846
-0.028224785 0.01336965 0.63391542
-0.028485004 0.011993676 0.63556868
-0.028771993 0.010600179 0.63739192
-0.029083941 0.0091843903 0.63937384
-0.029426208 0.007743746 0.64154828
-0.029805569 0.0062748492 0.64395845
-0.030231804 0.0047734678 0.64666641
-0.030618152 0.0032229722 0.64912093
-0.030834343 0.0016228557 0.65049446
-0.031001054 -0 0.65155363
-0.031273857 -0.0016459525 0.65328676
-0.031715915 -0.003338486 0.65609527
-0.027843418 0.057233691 0.64132005
-0.027714897 0.055429846 0.64045811
-0.028042726 0.054527551 0.64265656
-0.0287851 0.054371864 0.6476351
-0.029311018 0.053736866 0.65116203
-0.029614903 0.052648723 0.65319985
-0.029830996 0.051375598 0.65464908
-0.030068627 0.050114363 0.65624261
-0.030386152 0.048955441 0.65837193
-0.030770263 0.047864854 0.66094792
-0.031915944 0.047873914 0.66863102
-0.032261085 0.046599329 0.67094553
-0.032582033 0.04525283 0.67309785
-0.032763973 0.043685347 0.67431802
-0.03273325 0.041825831 0.67411196
-0.032862242 0.040164977 0.67497694
-0.033163425 0.038690656 0.67699683
-0.025448646 0.028276294 0.62526035
-0.025320437 0.02672711 0.62440056
-0.025340885 0.025340885 0.62453771
-0.025462748 0.02404815 0.62535489
-0.025593862 0.022750109 0.62623417
-0.025738537 0.021448791 0.62720436
-0.025891405 0.020137757 0.62822956
-0.026056647 0.018818706 0.62933767
-0.026236009 0.017490685 0.63054049
-0.026426382 0.016149431 0.63181716
-0.026630951 0.014795005 0.63318902
-0.026854638 0.013427347 0.63468909
-0.027094336 0.012041926 0.63629657
-0.027352795 0.010637164 0.63802981
-0.027633267 0.009211123 0.6399107
-0.027942326 0.0077617764 0.64198339
-0.028283495 0.0062852204 0.64427125
-0.028662624 0.0047771037 0.64681369
-0.029089866 0.0032322407 0.64967889
-0.029408738 0.0016338229 0.65181732
-0.029585818 2.9802322e-08 0.65300477
-0.029775474 -0.0016541779 0.65427661
-0.030075856 -0.0033417642 0.65629107
-0.030705327 -0.0051175356 0.66051245
-0.026185093 0.055450797 0.64052856
-0.026359798 0.054270208 0.64176905
-0.026735447 0.05347091 0.64443642
-0.027463825 0.053312153 0.64960837
-0.027980581 0.052669346 0.65327764
-0.025318474 0.046168953 0.63437498
-0.028485734 0.050268978 0.65686452
-0.028715085 0.048984528 0.6584931
-0.029022133 0.047801167 0.66067332
-0.029393196 0.046683311 0.66330808
-0.024633503 0.037674785 0.62951124
-0.024506535 0.036039025 0.62860972
-0.024380662 0.034419775 0.62771595
-0.024256213 0.032817215 0.62683225
-0.02413296 0.031230897 0.62595713
-0.024011021 0.029660672 0.6250912
-0.02391294 0.028132856 0.62439483
-0.024005055 0.026829183 0.62504894
-0.024103621 0.025521487 0.62574875
-0.024214713 0.024214715 0.62653756
-0.024334418 0.022902966 0.62738758
-0.024461361 0.021583557 0.62828898
-0.024603363 0.020261586 0.6292972
-0.024753792 0.018929362 0.63036537
-0.024913659 0.017586142 0.63150054
-0.025090175 0.016234845 0.63275385
-0.025277844 0.014869332 0.63408649
-0.025478108 0.013488412 0.63550854
-0.025696622 0.012092531 0.63706005
-0.025933538 0.0106785 0.63874233
-0.026189446 0.0092433691 0.64055943
-0.026467739 0.0077846348 0.64253545
-0.026772978 0.0062995255 0.64470285
-0.027111497 0.0047843456 0.64710659
-0.02749161 0.0032343268 0.64980561
-0.027893782 0.0016408563 0.65266132
-0.028148454 -0 0.65446967
-0.028305441 -0.0016649961 0.65558434
-0.028515529 -0.003354758 0.65707612
-0.028874848 -0.0050955415 0.65962744
-0.024907559 0.054485261 0.64251095
-0.025077647 0.053290009 0.64379418
-0.025403267 0.052394271 0.64625072
-0.023776781 0.047553599 0.63397992
-0.023773674 0.046061516 0.63395643
-0.02408907 0.045166999 0.63633591
-0.027110433 0.049137652 0.65913033
-0.027330987 0.047829241 0.66079432
-0.023160862 0.039083958 0.62933314
-0.023041606 0.037442625 0.62843341
-0.022991119 0.03592363 0.62805253
-0.022806548 0.034209847 0.62665999
-0.022690775 0.032618016 0.6257866
-0.022576176 0.031042278 0.62492198
-0.022619102 0.029687554 0.62524587
-0.022689169 0.028361499 0.62577444
-0.022767955 0.027036965 0.62636888
-0.022858121 0.025715381 0.62704909
-0.022954661 0.024389356 0.62777752
-0.023061721 0.023061752 0.6285851
-0.0231789 0.021730244 0.62946922
-0.023303382 0.020390481 0.63040835
-0.023440322 0.019045264 0.63144153
-0.023587773 0.017690837 0.63255394
-0.023744412 0.016324282 0.63373572
-0.023915142 0.014946967 0.63502371
-0.024099512 0.013556004 0.63641471
-0.02429655 0.012148261 0.63790131
-0.024508085 0.010722309 0.63949716
-0.024740987 0.0092778802 0.64125425
-0.024993485 0.0078104436 0.64315921
-0.025268722 0.0063171685 0.64523572
-0.025571391 0.0047946572 0.64751923
-0.025907952 0.0032384992 0.65005833
-0.026287192 0.0016429424 0.65291947
-0.026644582 -0 0.65561581
-0.026841924 -0.0016776323 0.65710461
-0.026993066 -0.0033741295 0.65824485
-0.027242912 -0.0051080585 0.66012985
-0.027673556 -0.0069184303 0.66337883
-0.023604566 0.053503692 0.64455283
-0.022267453 0.048988432 0.63379252
-0.022149822 0.047252983 0.63284594
-0.022033364 0.045535654 0.63190871
-0.021918122 0.043836266 0.63098133
-0.021804143 0.04215467 0.63006413
-0.021691281 0.040490419 0.62915593
-0.021579582 0.038843274 0.62825698
-0.021677937 0.037575096 0.62904853
-0.02179357 0.036322623 0.62997901
-0.021251401 0.034002244 0.62561595
-0.021151504 0.032432318 0.62481213
-0.021298682 0.031238079 0.62599647
-0.021390097 0.029946148 0.62673211
-0.021452092 0.028602779 0.627231
-0.02152049 0.02725929 0.62778145
-0.021596098 0.025915354 0.62838989
-0.02168395 0.024575144 0.62909687
-0.02177814 0.023230016 0.62985486
-0.021880932 0.021880955 0.63068211
-0.021995267 0.020528913 0.63160217
-0.022116795 0.0191679 0.63258016
-0.022248378 0.017798692 0.63363904
-0.022392418 0.016421109 0.63479817
-0.022545582 0.015030384 0.63603079
-0.022709785 0.01362589 0.63735211
-0.022890208 0.012208134 0.63880408
-0.023083316 0.010772228 0.64035809
-0.023291126 0.0093164444 0.64203042
-0.023515819 0.007838577 0.64383864
-0.023763683 0.006336987 0.64583325
-0.02403475 0.0048069954 0.64801466
-0.024333669 0.0032445192 0.65042019
-0.02466692 0.0016444921 0.65310198
-0.025043728 -2.9802322e-08 0.65613431
-0.025337266 -0.0016891658 0.6584965
-0.025497541 -0.0033996403 0.65978622
-0.025667928 -0.0051335692 0.66115743
-0.025939923 -0.0069172978 0.66334629
-0.02090246 0.049270093 0.63482296
-0.020574136 0.047026575 0.63199204
-0.020435967 0.045251042 0.63080078
-0.020329745 0.043563724 0.6298849
-0.020224681 0.041893989 0.62897897
-0.020120637 0.040241271 0.62808192
-0.020017717 0.03860563 0.62719452
-0.020278368 0.037659854 0.62944192
-0.019814949 0.035383821 0.6254462
-0.019715069 0.033797264 0.62458503
-0.019801505 0.032531053 0.62533027
-0.019977471 0.03139317 0.62684751
-0.020115552 0.030173361 0.62803805
-0.020198496 0.028854996 0.62875324
-0.020257667 0.027492553 0.6292634
-0.020324083 0.026130974 0.62983608
-0.020396812 0.024767578 0.63046312
-0.020481497 0.023407429 0.63119334
-0.020573048 0.022042543 0.63198268
-0.020671338 0.020671338 0.63283014
-0.02078234 0.019297898 0.63378721
-0.020900525 0.017914742 0.63480622
-0.021026436 0.016520768 0.63589191
-0.021166464 0.015118897 0.63709927
-0.021315632 0.013702929 0.63838542
-0.021474948 0.012271404 0.63975906
-0.021648698 0.010824382 0.64125705
-0.021837119 0.0093587637 0.64288175
-0.022040287 0.0078715086 0.64463353
-0.02226042 0.0063601434 0.64653152
-0.022500597 0.0048215687 0.64860237
-0.022764862 0.0032521188 0.65088087
-0.023058683 0.0016470551 0.65341431
-0.023389598 2.9802322e-08 0.65626752
-0.023747522 -0.0016962588 0.65935361
-0.023979697 -0.0034256279 0.66135544
-0.024117822 -0.0051681101 0.6625464
-0.02430434 -0.0069440901 0.66415459
-0.024633907 -0.0087977946 0.66699618
-0.019664854 0.048405766 0.63719469
-0.019340001 0.046118468 0.63417828
-0.019150959 0.04419452 0.63242292
-0.019039854 0.042473525 0.63139129
-0.018569255 0.039995313 0.62702155
-0.018474797 0.038370728 0.62614447
-0.018381344 0.036762714 0.62527674
-0.018288782 0.035170734 0.62441725
-0.018328464 0.03383714 0.62478572
-0.018450899 0.032643914 0.62592262
-0.018607661 0.031489909 0.62737817
-0.018775018 0.030328929 0.62893212
-0.018903954 0.029083014 0.6301294
-0.018978469 0.027737767 0.63082129
-0.019034728 0.026355803 0.63134366
-0.019098889 0.024975479 0.63193947
-0.019169303 0.023593009 0.63259327
-0.019249858 0.022211373 0.63334125
-0.019338334 0.020825893 0.63416278
-0.019433318 0.01943329 0.63504475
-0.019539094 0.018036097 0.63602698
-0.019653387 0.016629785 0.63708818
-0.019775396 0.015211821 0.63822114
-0.019908858 0.013783038 0.63946038
-0.02005334 0.012340516 0.64080197
-0.020207968 0.010881215 0.64223772
-0.020373864 0.0094033182 0.6437782
-0.02055666 0.0079064667 0.64547551
-0.020754216 0.0063859224 0.6473099
-0.020968847 0.0048389733 0.64930284
-0.021203432 0.0032620728 0.65148109
-0.021462219 0.0016509295 0.65388399
-0.021750867 -0 0.65656424
-0.022077018 -0.0016981959 0.65959269
-0.022396199 -0.0034455657 0.66255641
-0.022570664 -0.0052086115 0.6641764
-0.022703171 -0.006985575 0.6654067
-0.022924324 -0.0088170469 0.66746032
-0.023328919 -0.010767162 0.67121708
-0.018406251 0.047549516 0.63975048
-0.018075015 0.045187563 0.63641846
-0.017896207 0.04324919 0.63461989
-0.017786944 0.041502863 0.63352078
-0.01713283 0.038548857 0.62694085
-0.016989624 0.036810845 0.62550032
-0.016991403 0.035398781 0.6255182
-0.017038511 0.034077048 0.62599206
-0.017119395 0.032812178 0.62680578
-0.017235568 0.031598538 0.62797433
-0.017384881 0.030423552 0.62947631
-0.017543053 0.029238403 0.6310674
-0.017661585 0.027964145 0.63225979
-0.017729172 0.026593775 0.63293964
-0.01778236 0.025191665 0.63347465
-0.01784398 0.023791999 0.63409448
-0.017911691 0.022389621 0.63477558
-0.017987888 0.020985872 0.63554209
-0.018072894 0.019578993 0.63639718
-0.018164255 0.018164217 0.63731623
-0.018264374 0.016742349 0.63832331
-0.018374315 0.015311927 0.63942921
-0.018491792 0.013868868 0.64061099
-0.018618226 0.012412161 0.64188278
-0.01875741 0.010941833 0.64328295
-0.018906606 0.0094533265 0.64478368
-0.019066909 0.0079445541 0.64639622
-0.019240368 0.00641343 0.64814109
-0.019431464 0.0048578382 0.6500634
-0.019639365 0.0032732189 0.65215468
-0.019867195 0.0016556382 0.65444648
-0.020119166 -0 0.65698111
-0.020400943 -0.0017000735 0.65981561
-0.0207205 -0.0034534037 0.66303003
-0.020980425 -0.0052450895 0.66564465
-0.021119829 -0.0070399344 0.66704696
-0.021267122 -0.0088613033 0.66852868
-0.021505233 -0.010752589 0.67092383
-0.017116385 0.046681076 0.64242798
-0.016778376 0.044233888 0.63871878
-0.016610015 0.042280048 0.63687122
-0.016503433 0.040508419 0.6357016
-0.015903171 0.037589312 0.62911451
-0.015760047 0.035818279 0.62754393
-0.015761087 0.034387797 0.62755537
-0.015805304 0.033047467 0.62804055
-0.015881192 0.031762362 0.62887335
-0.015990775 0.03052783 0.63007587
-0.01613199 0.029330879 0.63162547
-0.016280584 0.028121024 0.63325614
-0.016387323 0.026815623 0.63442749
-0.016449474 0.025421917 0.63510948
-0.016499426 0.023999155 0.63565767
-0.016558196 0.022579372 0.63630259
-0.016622808 0.021156311 0.63701159
-0.016694454 0.019729823 0.63779783
-0.016775561 0.018300623 0.63868785
-0.016862834 0.016862839 0.63964558
-0.016956972 0.01541543 0.64067864
-0.017061997 0.013959825 0.64183116
-0.017174387 0.012490481 0.64306444
-0.017294731 0.011005729 0.6443851
-0.01742648 0.0095053315 0.64583087
-0.017569389 0.0079860985 0.64739907
-0.017723273 0.0064448118 0.64908779
-0.017889699 0.0048790276 0.65091407
-0.018070724 0.0032856166 0.65290058
-0.018270418 0.0016609728 0.65509194
-0.018490091 -0 0.65750253
-0.01873371 -0.0017030537 0.66017598
-0.019006845 -0.0034557879 0.66317332
-0.019311275 -0.005266726 0.66651404
-0.019513454 -0.0070957839 0.66873264
-0.019629607 -0.0089225769 0.67000729
-0.019787973 -0.010793447 0.67174518
-0.020076694 -0.012776047 0.67491353
-0.015454424 0.043272406 0.64114928
-0.015291291 0.041286469 0.63918018
-0.015188294 0.039489567 0.63793683
-0.014642056 0.03660515 0.63134319
-0.014500667 0.034801602 0.62963647
-0.014501087 0.033352494 0.62964153
-0.014542263 0.031992972 0.63013858
-0.014612935 0.030687183 0.63099164
-0.014715433 0.029430866 0.63222891
-0.014847921 0.028211057 0.63382816
-0.014986046 0.026974887 0.63549554
-0.015081581 0.0256387 0.63664871
-0.015138206 0.024221122 0.63733226
-0.015184745 0.02277714 0.63789403
-0.015240384 0.021336555 0.6385656
-0.01530158 0.019892067 0.63930434
-0.015368365 0.018442035 0.64011049
-0.015445122 0.016989619 0.64103705
-0.015527803 0.015527844 0.64203507
-0.015616685 0.014055014 0.64310801
-0.015715126 0.01257208 0.64429623
-0.015821716 0.011075228 0.64558291
-0.015936052 0.0095616281 0.64696312
-0.016059166 0.0080295801 0.64844918
-0.016194984 0.0064780116 0.65008867
-0.016341388 0.0049024522 0.65185595
-0.016500145 0.003300041 0.65377229
-0.016673064 0.0016673207 0.65585959
-0.016862819 2.9802322e-08 0.65815014
-0.017072717 -0.0017072558 0.66068387
-0.017307518 -0.0034615099 0.66351819
-0.017573709 -0.0052721202 0.66673136
-0.017843569 -0.0071374178 0.66998887
-0.017990295 -0.0089951456 0.67175996
-0.018100476 -0.010860264 0.67308998
-0.018286292 -0.012800395 0.67533302
-0.018645402 -0.014916301 0.67966783
-0.014097433 0.042292327 0.64367688
-0.013938687 0.040267318 0.64154774
-0.013840242 0.038445115 0.64022738
-0.013367968 0.035647899 0.63389307
-0.013210478 0.03376013 0.6317808
-0.013210323 0.032291919 0.63177872
-0.013248293 0.030912697 0.63228798
-0.013313822 0.029586256 0.63316685
-0.013408408 0.028306663 0.63443547
-0.013531494 0.027063012 0.63608634
-0.013657814 0.025798112 0.63778055
-0.013743178 0.024432331 0.63892549
-0.013794286 0.022990465 0.63961101
-0.013837223 0.021524578 0.64018685
-0.013889333 0.020062357 0.64088583
-0.013946717 0.018595636 0.64165545
-0.014009411 0.017122626 0.64249629
-0.014080286 0.015644759 0.64344692
-0.014157842 0.014157861 0.64448714
-0.014241346 0.012658983 0.64560711
-0.014332315 0.01114738 0.64682722
-0.01443245 0.0096216202 0.64817023
-0.014539955 0.0080777705 0.64961213
-0.014655652 0.0065135956 0.65116394
-0.014781644 0.004927218 0.65285373
-0.01491965 0.0033154786 0.65470469
-0.01506948 0.0016743541 0.65671426
-0.015233112 -0 0.65890896
-0.015412987 -0.0017125905 0.66132152
-0.015612463 -0.0034694076 0.66399693
-0.015836306 -0.0052787662 0.66699916
-0.016090889 -0.0071514845 0.67041373
-0.016306944 -0.0090594292 0.67331147
-0.016420996 -0.010947317 0.67484117
-0.016540661 -0.012864947 0.6764462
-0.016741745 -0.014881551 0.67914319
-0.012703165 0.041285276 0.64627385
-0.012550972 0.039221793 0.64397746
-0.012458121 0.037374377 0.64257646
-0.012385343 0.035607845 0.64147836
-0.01188825 0.032692701 0.63397777
-0.011887649 0.031205088 0.63396871
-0.011922241 0.02980563 0.63449061
-0.011982305 0.028457969 0.63539696
-0.012068502 0.027154118 0.63669759
-0.01218151 0.025885701 0.6384027
-0.012294956 0.024589926 0.64011449
-0.012370837 0.023195326 0.64125943
-0.012416386 0.021728694 0.64194667
-0.012456221 0.02024138 0.64254779
-0.012503729 0.018755615 0.64326465
-0.012556918 0.017265767 0.64406717
-0.01261505 0.015768796 0.64494431
-0.012679705 0.014264673 0.64591992
-0.012751604 0.012751609 0.64700478
-0.01282905 0.011225432 0.64817333
-0.01291248 0.0096843541 0.64943218
-0.013004983 0.0081281066 0.65082794
-0.013104869 0.0065524578 0.65233511
-0.013212533 0.0049546957 0.65395963
-0.01332899 0.0033322573 0.65571684
-0.013456197 0.0016820729 0.65763628
-0.013595917 -0 0.6597445
-0.013748808 -0.0017186105 0.66205144
-0.013917263 -0.0034793317 0.66459322
-0.014104543 -0.0052891672 0.66741902
-0.014315235 -0.007157594 0.67059815
-0.014553559 -0.0090959668 0.67419422
-0.014716431 -0.01103732 0.67665172
-0.014807399 -0.0129565 0.67802435
-0.014934185 -0.014934182 0.67993736
-0.015166636 -0.017062455 0.6834448
-0.011270099 0.040250331 0.6489439
-0.01112671 0.038148731 0.64647114
-0.011040535 0.036276042 0.64498508
-0.010975596 0.034494758 0.64386529
-0.01053282 0.031598479 0.63622987
-0.01053187 0.030091077 0.63621348
-0.010562901 0.028670728 0.63674867
-0.01061711 0.027301133 0.63768345
-0.010694459 0.025972277 0.63901722
-0.010796588 0.024677932 0.64077842
-0.010896956 0.023350626 0.64250922
-0.010963331 0.021926641 0.64365381
-0.011003284 0.020434648 0.64434278
-0.011039665 0.01892513 0.64497012
-0.011082316 0.017415076 0.64570558
-0.011130776 0.015901119 0.6465413
-0.011183876 0.014379263 0.64745694
-0.011241957 0.01284796 0.64845854
-0.011307539 0.011307538 0.64958948
-0.011378289 0.00975281 0.65080953
-0.011454573 0.00818187 0.65212494
-0.011537813 0.0065930486 0.65356034
-0.011629139 0.004983902 0.65513521
-0.01172777 0.0033507943 0.65683615
-0.011834606 0.0016906559 0.65867841
-0.01195082 2.9802322e-08 0.66068244
-0.012077914 -0.0017254055 0.6628741
-0.012218174 -0.0034909248 0.6652928
-0.012373433 -0.0053028762 0.66797018
-0.012547281 -0.0071699023 0.67096806
-0.012745393 -0.0091038346 0.67438436
-0.012952114 -0.011101842 0.67794913
-0.013065902 -0.013065875 0.67991126
-0.013149636 -0.015028119 0.68135524
-0.013292009 -0.017089665 0.68381041
-0.013608432 -0.019440591 0.68926692
-0.0097965151 0.03918606 0.65168858
-0.0096644079 0.037046909 0.6490308
-0.0095861489 0.035149246 0.64745629
-0.0095293699 0.033352792 0.64631402
-0.0091440082 0.030480027 0.63856113
-0.0091417255 0.028948814 0.63851523
-0.009169003 0.027506977 0.63906401
-0.0092169419 0.026114672 0.64002848
-0.0092849573 0.024759889 0.64139682
-0.0093753962 0.023438483 0.64321637
-0.0094623612 0.022078872 0.64496595
-0.0095192473 0.020625025 0.64611036
-0.0095535684 0.019107133 0.64680088
-0.0095861182 0.017574579 0.64745569
-0.0096236384 0.016039371 0.64821059
-0.0096669281 0.01450038 0.64908153
-0.0097144125 0.012952536 0.65003681
-0.0097662397 0.011393964 0.65107948
-0.0098241484 0.009824127 0.65224451
-0.0098874355 0.0082395375 0.65351778
-0.0099558337 0.0066372454 0.65489382
-0.010029706 0.0050148666 0.65638
-0.010111013 0.0033703446 0.65801579
-0.010199536 0.0016999245 0.65979671
-0.010295551 2.9802322e-08 0.66172844
-0.010400197 -0.0017333627 0.66383368
-0.010514866 -0.0035049915 0.66614068
-0.010641363 -0.0053206682 0.66868562
-0.01078212 -0.0071880519 0.67151743
-0.010940508 -0.0091170669 0.67470396
-0.011121265 -0.011121273 0.67834049
-0.011281154 -0.013161331 0.68155724
-0.011364211 -0.015152246 0.68322825
-0.011450861 -0.01717627 0.68497145
-0.011601983 -0.019336641 0.68801177
-0.0082807103 0.038091302 0.65451193
-0.0081625907 0.035915405 0.65166026
-0.0080935368 0.033992857 0.64999318
-0.0080452049 0.032180846 0.6488263
-0.0077191773 0.029332876 0.64095533
-0.0077158916 0.027777225 0.640876
-0.0077392114 0.026313335 0.64143902
-0.0077804411 0.024897397 0.64243436
-0.0078386059 0.023515821 0.64383864
-0.0079164905 0.022166193 0.64571893
-0.0079897586 0.020773381 0.64748776
-0.0080371145 0.019289106 0.64863098
-0.0080657732 0.01774475 0.64932287
-0.0080940863 0.016188174 0.65000647
-0.0081262141 0.014627218 0.65078211
-0.0081638154 0.013062119 0.65168983
-0.0082051028 0.011487156 0.6526866
-0.0082502086 0.0099002719 0.65377557
-0.0082998034 0.0082998276 0.65497291
-0.0083548781 0.0066839159 0.65630257
-0.0084144799 0.005048722 0.65774143
-0.0084789013 0.0033915639 0.65929669
-0.0085487263 0.0017097592 0.66098243
-0.0086258911 -0 0.66284537
-0.0087097967 -0.0017419457 0.66487104
-0.0088014454 -0.0035205483 0.66708362
-0.0089020384 -0.005341202 0.66951215
-0.0090132309 -0.0072105825 0.67219657
-0.0091373017 -0.0091372728 0.67519188
-0.0092772748 -0.011132747 0.67857116
-0.0094372761 -0.013212174 0.6824339
-0.0095505062 -0.015280813 0.68516755
-0.0096123377 -0.017302215 0.68666029
-0.0097001074 -0.019400179 0.68877923
-0.0098673729 -0.02170819 0.69281733
-0.006720847 0.036964655 0.65741742
-0.006619595 0.034752876 0.65436184
-0.0065611121 0.032805562 0.65259701
-0.0065216459 0.030977815 0.65140599
-0.0062567508 0.028155386 0.64341211
-0.006252978 0.026575178 0.64329821
-0.0062721227 0.025088489 0.64387602
-0.0063061733 0.023648143 0.64490354
-0.0063541834 0.022239625 0.64635241
-0.006418434 0.020859927 0.64829123
-0.0064776377 0.019432902 0.65007794
-0.006515468 0.017917544 0.65121955
-0.0065384344 0.016346127 0.65191269
-0.0065620802 0.014764696 0.65262616
-0.0065888683 0.013177782 0.65343457
-0.0066198143 0.011584669 0.65436852
-0.0066543026 0.0099814832 0.65540928
-0.0066919932 0.0083650351 0.65654665
-0.0067330333 0.0067330599 0.65778518
-0.0067788023 0.0050840974 0.65916634
-0.0068286443 0.0034143329 0.66067052
-0.006882607 0.0017206669 0.66229898
-0.006941183 -0 0.66406667
-0.0070049055 -0.0017512143 0.66598964
-0.0070752068 -0.0035375953 0.66811115
-0.0071522212 -0.0053641796 0.67043531
-0.0072369436 -0.0072369576 0.67299199
-0.007330806 -0.0091634989 0.67582458
-0.0074358 -0.011153728 0.67899305
-0.007555692 -0.013222456 0.68261111
-0.0076849386 -0.015369862 0.68651146
-0.007757409 -0.017454177 0.68869841
-0.0078094718 -0.01952368 0.69026953
-0.0078987889 -0.021721631 0.69296503
-0.0051149908 0.035804927 0.66040927
-0.0050336877 0.033557922 0.65713787
-0.0049873111 0.031586319 0.65527177
-0.0049568759 0.029741257 0.65404719
-0.0047552511 0.026946396 0.64593446
-0.0047515179 0.025341451 0.64578426
-0.0047662579 0.023831308 0.64637733
-0.0047926307 0.0223656 0.64743853
-0.0048299339 0.020929754 0.64893949
-0.0048795324 0.019518137 0.65093517
-0.0049243369 0.018055946 0.65273792
-0.0049526729 0.016508907 0.65387809
-0.004969907 0.014909714 0.65457153
-0.0049884384 0.013302535 0.65531719
-0.0050094305 0.011688709 0.65616179
-0.0050332826 0.010066569 0.65712154
-0.0050602783 0.0084338188 0.65820777
-0.0050898078 0.006786406 0.65939599
-0.0051220073 0.0051220059 0.66069162
-0.0051573263 0.0034382343 0.66211271
-0.0051964256 0.0017321408 0.66368592
-0.0052387905 -0 0.66539055
-0.0052848645 -0.0017615855 0.66724443
-0.0053350534 -0.0035566986 0.6692639
-0.0053899568 -0.0053899884 0.67147303
-0.0054503521 -0.0072671175 0.67390311
-0.0055172215 -0.0091953874 0.67659378
-0.0055918703 -0.011183739 0.67959738
-0.0056761545 -0.01324439 0.68298876
-0.0057726372 -0.015393674 0.68687093
-0.0058615408 -0.017584622 0.69044811
-0.0059070741 -0.019690245 0.69228023
-0.0059542647 -0.021832287 0.694179
-0.0060395026 -0.024158031 0.69760871
-0.0034610368 0.034610391 0.66349
-0.0034030941 0.03232941 0.65999281
-0.0033703942 0.030333579 0.65801919
-0.0033495019 0.028470755 0.65675825
-0.0032130911 0.025704741 0.64852512
-0.0032099683 0.024074763 0.64833665
-0.0032200594 0.02254042 0.64894569
-0.0032382214 0.021048427 0.65004182
-0.003264003 0.01958403 0.65159792
-0.0032980277 0.018139124 0.65365148
-0.0033281913 0.016640961 0.65547204
-0.0033470371 0.015061677 0.65660948
-0.0033585399 0.013434172 0.65730369
-0.0033714389 0.011800021 0.65808225
-0.0033860523 0.010158151 0.65896428
-0.0034024115 0.0085060596 0.65995157
-0.0034211974 0.0068423748 0.66108549
-0.0034417652 0.0051626563 0.66232681
-0.003464224 0.0034641922 0.66368234
-0.0034886918 0.0017443597 0.66515911
-0.0035157173 -0 0.66679025
-0.0035453115 -0.0017726421 0.66857636
-0.0035775169 -0.0035774708 0.67052013
-0.0036126587 -0.0054189861 0.67264116
-0.0036511871 -0.0073023736 0.67496657
-0.0036936379 -0.0092341006 0.67752868
-0.0037407477 -0.011222243 0.680372
-0.0037934554 -0.013277084 0.68355322
-0.0038531367 -0.015412539 0.68715531
-0.0039216904 -0.017647594 0.69129288
-0.0039725355 -0.019862652 0.69436163
-0.003999542 -0.021997511 0.69599164
-0.0040385053 -0.024231046 0.69834334
-0.0041169417 -0.026760131 0.70307738
-0.0017569328 0.03338173 0.66667849
-0.0017258745 0.031065762 0.66292936
-0.0017085951 0.029046118 0.66084355
-0.0016978288 0.027165264 0.65954399
-0.0016285967 0.024428964 0.65118694
-0.0016267012 0.022773802 0.65095812
-0.0016318845 0.021214515 0.65158379
-0.001641268 0.019695193 0.65271652
-0.0016546305 0.018200964 0.65432954
-0.0016721316 0.016721308 0.65644205
-0.0016873737 0.015186369 0.65828198
-0.0016966659 0.013573319 0.65940356
-0.0017025314 0.01191774 0.66011167
-0.0017092662 0.010255575 0.66092461
-0.0017169027 0.0085844994 0.6618464
-0.0017254401 0.006901741 0.66287696
-0.0017351212 0.0052053928 0.66404557
-0.0017458736 0.0034917891 0.66534346
-0.0017576179 0.0017576218 0.66676116
-0.001770429 -0 0.6683076
-0.0017844015 -0.0017843843 0.66999418
-0.0017998513 -0.0035997033 0.67185915
-0.0018167445 -0.0054502189 0.6738984
-0.001835202 -0.0073408186 0.67612642
-0.0018554755 -0.0092773438 0.67857361
-0.0018778638 -0.011267185 0.68127614
-0.0019027505 -0.013319254 0.68428022
-0.0019306717 -0.015445352 0.68765068
-0.0019623679 -0.017661303 0.6914767
-0.0019977191 -0.019977182 0.69574398
-0.0020180473 -0.022198498 0.69819778
-0.0020322686 -0.024387211 0.6999144
-0.0020568464 -0.026738971 0.70288122
0 0.032138735 0.67012489
0 0.029765338 0.66595042
0 0.027722359 0.66374671
0 0.025823236 0.66240758
0 0.023117661 0.6539228
0 0.021437168 0.65365148
0 0.019852102 0.65429449
0 0.018304437 0.65546536
0 0.016778946 0.65713787
0 0.015263051 0.65931058
0 0.013690591 0.66117227
0 0.012042999 0.66227186
0 0.010358632 0.66299772
0 0.0086673796 0.66384673
0 0.0069658756 0.66481102
0 0.005251199 0.66588908
0 0.003520757 0.66709185
0 0.0017715991 0.66844839
0 2.9802322e-08 0.66993201
0 -0.0017972887 0.67155242
0 -0.0036239028 0.67332101
0 -0.0054838657 0.67525238
0 -0.0073824525 0.67738396
0 -0.0093250275 0.67972487
0 -0.011318177 0.68230164
0 -0.013369709 0.6851508
0 -0.015490144 0.68832612
0 -0.017694473 0.69192159
0 -0.020004809 0.69607759
0 -0.022368222 0.70005995
0 -0.024602264 0.70207757
0 -0.026875913 0.70415235
0 -0.029392958 0.70802975
0.001815156 0.030857652 0.67370665
0.0017766715 0.028426766 0.66906112
0.0017575006 0.026362479 0.66674703
0.0017459466 0.024443239 0.66535234
0.0016745715 0.021769434 0.65673661
0.0016719472 0.02006337 0.65641987
0.0016774234 0.018451691 0.65708083
0.0016874535 0.016874552 0.65829158
0.0017018307 0.015316486 0.66002709
0.0017203441 0.013762772 0.66226178
0.00173594 0.012151569 0.6641444
0.0017448508 0.010469079 0.66522002
0.0017510365 0.0087551773 0.66596675
0.0017583837 0.0070335567 0.66685361
0.0017667346 0.0053002238 0.66786164
0.0017760786 0.0035521388 0.6689896
0.0017864528 0.0017864406 0.67024183
0.0017980856 -0 0.67164606
0.0018109515 -0.0018109679 0.67319912
0.0018250141 -0.0036500394 0.6748966
0.0018403862 -0.0055211186 0.67675215
0.0018571973 -0.0074287951 0.67878151
0.0018756393 -0.0093781948 0.68100762
0.00189593 -0.011375546 0.6834569
0.0019183767 -0.013428658 0.68616652
0.0019433821 -0.015547037 0.6891849
0.001971453 -0.017743081 0.69257331
0.0020033501 -0.020033479 0.69642365
0.0020401154 -0.022441238 0.70086163
0.0020687692 -0.024825186 0.70432043
0.0020835432 -0.027086049 0.7061038
0.0021052312 -0.029473245 0.70872188
0.0021511184 -0.032266766 0.71426088
0.0036065916 0.027049452 0.67227495
0.0035662719 0.024963945 0.66984147
0.0035420866 0.023023576 0.66838169
0.0033970869 0.020382524 0.6596303
0.0033910435 0.01865074 0.65926552
0.0034023188 0.017011613 0.65994608
0.0034230694 0.015403807 0.66119844
0.0034529043 0.013811648 0.66299915
0.0034910042 0.012218505 0.6652987
0.0035225363 0.010567635 0.66720182
0.0035399438 0.0088498592 0.66825241
0.0035526745 0.0071053505 0.66902077
0.0035680395 0.0053520799 0.6699481
0.0035854897 0.0035855174 0.67100137
0.0036050584 0.0018025339 0.67218244
0.0036267862 2.9802322e-08 0.6734938
0.003650761 -0.0018253922 0.67494082
0.0036776883 -0.003677696 0.676566
0.0037071845 -0.0055607557 0.67834628
0.0037394336 -0.0074788332 0.68029273
0.0037747822 -0.009436965 0.68242621
0.0038135787 -0.011440724 0.68476778
0.0038563588 -0.013497233 0.68734974
0.0039037915 -0.015615165 0.69021261
0.0039567184 -0.017805219 0.69340706
0.0040163002 -0.02008149 0.69700307
0.0040841778 -0.022462994 0.70109987
0.0041610738 -0.024966449 0.70574093
0.0042068162 -0.027344316 0.70850176
0.0042379578 -0.029665738 0.71038133
0.0042922539 -0.032191902 0.71365833
0.0054933764 0.025635779 0.67563432
0.0054285913 0.023523897 0.67302758
0.0053906147 0.021562457 0.67149949
0.0051696352 0.01895535 0.66260791
0.0051593296 0.017197788 0.6621933
0.0051767309 0.015530199 0.66289347
0.0052089402 0.013890475 0.66418952
0.00525539 0.012262583 0.66605848
0.0053142393 0.010628492 0.66842639
0.0053620581 0.0089367926 0.67035049
0.0053874999 0.0071833134 0.6713742
0.0054073539 0.0054073632 0.67217302
0.0054312428 0.0036208332 0.67313427
0.0054586171 0.0018195212 0.67423576
0.0054893382 -0 0.6754719
0.0055234744 -0.0018411875 0.67684537
0.0055611883 -0.0037074387 0.67836285
0.0056028487 -0.0056028366 0.68003917
0.0056492174 -0.0075322986 0.68190485
0.0056999926 -0.0094999969 0.68394792
0.0057557258 -0.011511445 0.68619049
0.0058169747 -0.013572931 0.6886549
0.0058846576 -0.015692413 0.69137824
0.0059598205 -0.017879456 0.69440258
0.0060438556 -0.020146191 0.69778389
0.0061387178 -0.022508621 0.70160079
0.0062491726 -0.024996698 0.70604527
0.0063595762 -0.027558148 0.71048748
0.0064150202 -0.029936761 0.71271849
0.006471551 -0.032357782 0.714993
0.0065806662 -0.035096884 0.71938348
0.0074393097 0.02417776 0.67909896
0.0073468713 0.022040606 0.67630941
0.0072938581 0.020058125 0.67470956
0.0069944281 0.017486095 0.66567343
0.0069789407 0.015702605 0.66520607
0.0070028221 0.014005661 0.66592681
0.0070472807 0.012332737 0.66726846
0.0071115843 0.010667384 0.669209
0.0071924194 0.0089905262 0.67164838
0.0072564385 0.0072564483 0.67358035
0.0072898199 0.0054673553 0.67458773
0.0073175924 0.0036588311 0.67542583
0.0073504057 0.0018376112 0.67641604
0.0073885848 -0 0.6775682
0.0074314647 -0.001857847 0.67886221
0.0074791471 -0.0037395954 0.68030119
0.0075318925 -0.005648911 0.68189287
0.0075900182 -0.0075899959 0.68364698
0.0076540504 -0.0095675588 0.6855793
0.0077251014 -0.01158765 0.68772346
0.0078032296 -0.013655633 0.69008124
0.0078892 -0.015778363 0.69267559
0.0079843737 -0.01796484 0.69554776
0.008090266 -0.020225644 0.69874328
0.0082092639 -0.022575438 0.7023344
0.008346024 -0.025038064 0.70646143
0.008504224 -0.027638733 0.71123552
0.008633648 -0.030217737 0.7151413
0.0086986003 -0.032619715 0.7171014
0.008795429 -0.035181701 0.72002345
0.0090383133 -0.038412839 0.72735322
0.0094484668 0.022676319 0.68270409
0.0093240552 0.020512909 0.67970055
0.0092542823 0.018508583 0.67801601
0.0088738101 0.015972883 0.66883063
0.0088521447 0.014163464 0.6683076
0.0088828849 0.012436062 0.66904968
0.0089404359 0.010728538 0.67043912
0.0090239588 0.0090239644 0.67245555
