# .PCD v0.7 - Point Cloud Data file format
VERSION 0.7
FIELDS x y z
SIZE 4 4 4
TYPE F F F
COUNT 1 1 1
WIDTH 1341
HEIGHT 1
VIEWPOINT 0 0 0 1 0 0 0
POINTS 1341
DATA ascii
-0.043672089 -0.0077067912 0.76469713
-0.044464484 -0.010462195 0.77032369
-0.046241622 -0.013600498 0.78294253
-0.044216938 -0.0027635694 0.78818905
-0.03785238 -0.0047315359 0.74017209
-0.038609795 -0.0072393417 0.74588633
-0.040037315 -0.010009348 0.75665611
-0.042202786 -0.013188362 0.77299333
-0.04363896 -0.016364604 0.7838285
-0.040560432 0.0027040541 0.78100306
-0.033323631 -0 0.7227658
-0.032929171 -0.0021952689 0.71959144
-0.033596307 -0.0044794977 0.72496009
-0.034757275 -0.0069514811 0.73430288
-0.036491465 -0.0097310543 0.74825859
-0.037772812 -0.012590915 0.75857002
-0.038473554 -0.015389442 0.76420915
-0.039349381 -0.018362999 0.77125728
-0.04044982 -0.021573216 0.78011292
-0.034386728 0.0049124062 0.75108683
-0.028753771 0.002053827 0.70251846
-0.028687237 -2.9802322e-08 0.70194483
-0.02925488 -0.0020896196 0.70683908
-0.03020487 -0.0043149889 0.71503007
-0.031603556 -0.0067721903 0.72708982
-0.032733448 -0.0093524158 0.73683196
-0.033316482 -0.011898756 0.74185902
-0.033968359 -0.014557898 0.74747968
-0.034803245 -0.017401576 0.75467813
-0.035831325 -0.02047503 0.76354247
-0.037092272 -0.023845047 0.77441454
-0.029467938 0.0068002939 0.72822058
-0.024876522 0.0038271546 0.68558729
-0.024974996 0.0019211173 0.68650168
-0.025458863 -0 0.69099456
-0.026239378 -0.0020183921 0.69824195
-0.027370196 -0.0042108297 0.70874214
-0.028359693 -0.0065445602 0.71793002
-0.028860619 -0.008880198 0.72258139
-0.029365236 -0.011294305 0.72726697
-0.029992411 -0.013842672 0.73309052
-0.030757822 -0.016561896 0.74019778
-0.031701151 -0.019508362 0.74895698
-0.032856159 -0.022746563 0.75968164
-0.034277476 -0.026367277 0.77287924
-0.027328694 0.011386991 0.72950333
-0.025302805 0.0084342659 0.70912445
-0.021566642 0.0053916574 0.67154157
-0.021698983 0.0036165118 0.67287278
-0.022111554 0.0018426478 0.67702293
-0.022754177 -0 0.6834873
-0.023666481 -0.0019722283 0.69266438
-0.024513571 -0.0040856004 0.70118535
-0.024965199 -0.0062412918 0.70572841
-0.025356339 -0.0084520876 0.70966297
-0.025839861 -0.010766596 0.71452689
-0.026426468 -0.013213217 0.72042769
-0.02713234 -0.015827179 0.72752815
-0.027980881 -0.018653899 0.73606384
-0.029017523 -0.021763146 0.74649161
-0.030310847 -0.025259078 0.75950152
-0.031963643 -0.029300034 0.77612734
-0.022776803 0.012423724 0.70454365
-0.021736512 0.0098801851 0.69312787
-0.018911757 0.0068770349 0.66212982
-0.018889947 0.0051518083 0.66189051
-0.019137768 0.0034796 0.66460997
-0.019666992 0.0017879307 0.67041755
-0.020403573 2.9802322e-08 0.67850053
-0.021117851 -0.001919806 0.68633884
-0.021530738 -0.0039146543 0.69086975
-0.021833604 -0.0059546232 0.6941933
-0.022206225 -0.0080749691 0.6982823
-0.022656044 -0.010298193 0.70321852
-0.023193553 -0.012651056 0.70911694
-0.023834966 -0.015167683 0.71615565
-0.024602711 -0.017892867 0.72458059
-0.025530286 -0.020888418 0.73475957
-0.026679981 -0.024254531 0.74737597
-0.028161107 -0.028161108 0.76362938
-0.030208606 -0.032954812 0.786098
-0.019265756 0.013486028 0.6871562
-0.018603114 0.011161894 0.67915738
-0.017245065 0.0086225271 0.66276431
-0.017225118 0.0068900585 0.66252345
-0.017205216 0.0051615536 0.6622833
-0.01718542 0.003437072 0.66204429
-0.017507669 0.001750797 0.66593415
-0.018107811 -2.9802322e-08 0.67317855
-0.018479923 -0.0018479526 0.6776703
-0.018718293 -0.0037436485 0.68054771
-0.019008711 -0.005702585 0.68405336
-0.019355711 -0.0077423155 0.68824202
-0.019766085 -0.0098830462 0.6931957
-0.020249732 -0.012149841 0.6990338
-0.020820692 -0.014574468 0.70592588
-0.021498891 -0.017199099 0.71411252
-0.022330267 -0.020097196 0.72414809
-0.02335386 -0.023353815 0.73650396
-0.024679096 -0.027147025 0.75250095
-0.026533397 -0.031840086 0.77488434
-0.016272943 0.014464825 0.6728555
-0.015816394 0.012301654 0.66673207
-0.015565998 0.010377347 0.66337377
-0.01554059 0.0086336732 0.66303295
-0.015518633 0.0068971813 0.66273844
-0.015504794 0.0051682591 0.66255283
-0.015494124 0.0034431219 0.66240972
-0.015478361 0.0017198324 0.66219831
-0.015749628 -0 0.66583657
-0.015944298 -0.0017715693 0.66844761
-0.01616871 -0.0035930574 0.67145741
-0.016435379 -0.0054784119 0.67503411
-0.016748905 -0.0074439645 0.67923921
-0.017115902 -0.0095088184 0.68416148
-0.017546048 -0.011697382 0.68993074
-0.018052557 -0.014040858 0.69672418
-0.018654324 -0.016581625 0.7047953
-0.019378476 -0.019378483 0.71450782
-0.02028116 -0.022534579 0.72661483
-0.02144742 -0.026213497 0.74225712
-0.023126097 -0.030834794 0.764772
-0.014414936 0.018018663 0.67210251
-0.013883426 0.015618861 0.66408265
-0.013510518 0.013510525 0.65845591
-0.013317992 0.011653244 0.6555509
-0.013216023 0.009912014 0.65401232
-0.013175827 0.0082348585 0.65340579
-0.013182249 0.0065911412 0.6535027
-0.013226591 0.0049599707 0.65417171
-0.013303828 0.003325969 0.65533715
-0.013410531 0.001676321 0.65694726
-0.013553564 -2.9802322e-08 0.65910542
-0.013723543 -0.0017154515 0.66167021
-0.013827552 -0.0034568608 0.6632396
-0.014065192 -0.0052744448 0.66682529
-0.014343449 -0.0071717501 0.67102385
-0.014668382 -0.0091677308 0.67592669
-0.015045609 -0.011284173 0.68161863
-0.015486427 -0.013550609 0.68827003
-0.016008085 -0.016008109 0.69614124
-0.016644917 -0.018725544 0.70575035
-0.017431293 -0.021789104 0.71761578
-0.018463507 -0.025387317 0.73319077
-0.019954588 -0.029931903 0.7556895
-0.021402407 -0.034778923 0.77753526
-0.012117443 0.019041717 0.66355574
-0.011498985 0.0164271 0.65289086
-0.011236439 0.014446855 0.64836335
-0.011099102 0.012684703 0.64599508
-0.011024444 0.011024475 0.64470768
-0.01099527 0.0094245374 0.64420456
-0.011001072 0.0078578889 0.64430463
-0.011035491 0.0063059926 0.64489818
-0.011094251 0.0047546923 0.6459114
-0.011176203 0.0031932294 0.64732462
-0.011285024 0.0016121566 0.64920115
-0.011414405 2.9802322e-08 0.65143228
-0.011570247 -0.0016528666 0.65411967
-0.011754219 -0.0033583045 0.65729219
-0.011966621 -0.0051285326 0.66095489
-0.012123651 -0.0069278181 0.66366279
-0.012403361 -0.008859545 0.66848624
-0.012727655 -0.010909438 0.67407846
-0.013107071 -0.013107032 0.68062127
-0.013556498 -0.015493125 0.68837136
-0.014097902 -0.018125862 0.69770753
-0.014774974 -0.021107107 0.70938325
-0.015664604 -0.024615794 0.72472429
-0.017006282 -0.029153645 0.74786073
-0.017938968 -0.033315182 0.76394439
-0.01879262 -0.037585229 0.77866507
-0.0097239148 0.019447833 0.65022796
-0.0093580075 0.017156363 0.64286643
-0.0091840932 0.01530683 0.63936764
-0.0090834731 0.013625205 0.63734329
-0.0090291081 0.012038827 0.63624954
-0.0090080854 0.010509461 0.63582659
-0.0090128994 0.0090129077 0.63592345
-0.0090389773 0.0075324774 0.63644814
-0.0090831984 0.0060554743 0.63733774
-0.0091447327 0.0045723915 0.63857567
-0.0092260633 0.0030753314 0.64021194
-0.0093257697 0.0015543103 0.64221787
-0.0094430745 2.9802322e-08 0.64457786
-0.0095800916 -0.0015966594 0.64733446
-0.0097370977 -0.0032457113 0.6504932
-0.0099167647 -0.0049583614 0.65410781
-0.010123628 -0.0067490637 0.65826958
-0.010304315 -0.0085869133 0.66190469
-0.010562961 -0.010562927 0.6671083
-0.010881778 -0.012695432 0.67352247
-0.011257718 -0.015010267 0.68108571
-0.011716538 -0.017574787 0.6903165
-0.012289901 -0.020483166 0.70185161
-0.013054369 -0.023933023 0.71723157
-0.014200082 -0.028400153 0.74028152
-0.014753827 -0.031966627 0.75142199
-0.015605085 -0.036411822 0.76854795
-0.007664619 0.019928008 0.63963819
-0.0074370913 0.017849028 0.63414514
-0.007314072 0.016090959 0.63117522
-0.0072423583 0.014484733 0.62944388
-0.0072037573 0.012966782 0.62851202
-0.0071890601 0.011502475 0.6281572
-0.0071929665 0.010070175 0.62825149
-0.0072122305 0.0086547136 0.62871653
-0.0072446647 0.0072447062 0.62949955
-0.0072912206 0.0058329999 0.63062352
-0.0073515764 0.0044109821 0.63208067
-0.0074245776 0.0029698312 0.63384306
-0.0075102756 0.0015020669 0.635912
-0.0076095541 -2.9802322e-08 0.63830882
-0.007724158 -0.0015448332 0.64107561
-0.0078561567 -0.0031424761 0.64426231
-0.0080067115 -0.0048040152 0.64789706
-0.0081782266 -0.0065425932 0.65203774
-0.008374623 -0.0083746314 0.65677923
-0.0085862223 -0.010303438 0.66188765
-0.0087984428 -0.012317806 0.66701114
-0.0091080945 -0.014572978 0.67448682
-0.0094826324 -0.017068744 0.6835289
-0.0099525545 -0.01990512 0.69487387
-0.010586869 -0.023291111 0.71018755
-0.011479383 -0.027550548 0.73173475
-0.011816465 -0.030722827 0.73987263
-0.0062274518 0.023352981 0.64252788
-0.005827067 0.020394742 0.63044524
-0.0056863772 0.018480718 0.62619954
-0.0056028212 0.01680845 0.62367803
-0.005553816 0.015273005 0.62219918
-0.0055275564 0.01381889 0.62140667
-0.005517758 0.012414962 0.62111098
-0.005520802 0.011041641 0.62120289
-0.0055344962 0.0096853673 0.62161613
-0.0055573629 0.0083360374 0.62230617
-0.0055913641 0.0069892108 0.62333226
-0.0056345263 0.0056345463 0.6246348
-0.0056858771 0.0042644441 0.6261844
-0.0057461127 0.0028730631 0.62800217
-0.0058170576 0.0014542937 0.63014317
-0.0058985595 2.9802322e-08 0.63260269
-0.005990597 -0.0014976561 0.63538015
-0.0060950588 -0.0030475259 0.63853264
-0.0062130881 -0.0046598017 0.64209437
-0.0063491846 -0.0063491464 0.64620149
-0.0065045208 -0.0081306398 0.65088922
-0.0066835233 -0.010025263 0.65629107
-0.006875278 -0.012031734 0.66207778
-0.0070813904 -0.014162809 0.66829777
-0.0073753255 -0.01659447 0.67716807
-0.0077517605 -0.019379407 0.688528
-0.0082641086 -0.022726268 0.70398945
-0.0088792844 -0.026637882 0.72255403
-0.0091063725 -0.029595703 0.72940707
-0.0043554008 0.023228824 0.62984574
-0.0041728886 0.020864457 0.62250197
-0.0040840488 0.019058883 0.61892736
-0.0040415814 0.017513514 0.61721861
-0.0040303175 0.016121268 0.61676538
-0.0040218406 0.014746755 0.61642432
-0.0040159551 0.013386488 0.61618751
-0.0040124878 0.012037516 0.61604792
-0.0040112976 0.010696799 0.61600006
-0.0040122624 0.0093619823 0.61603892
-0.004026901 0.0080538094 0.61662787
-0.0040557333 0.0067595541 0.61778802
-0.0040896563 0.0054528713 0.61915296
-0.0041303476 0.0041303337 0.62079024
-0.0041780807 0.0027853847 0.62271088
-0.0042316485 0.0014105141 0.62486631
-0.0042921356 2.9802322e-08 0.62730008
-0.0043617156 -0.0014538765 0.63009977
-0.0044401726 -0.0029601157 0.63325667
-0.0045284466 -0.0045284033 0.63680851
-0.0046286215 -0.0061715245 0.64083928
-0.0047428403 -0.0079047382 0.64543509
-0.0048745088 -0.0097490549 0.65073305
-0.0050285952 -0.011733383 0.65693295
-0.0051685669 -0.013782859 0.66256499
-0.0053881379 -0.016164422 0.67139983
-0.0056646727 -0.018882245 0.68252683
-0.0060530682 -0.022194594 0.69815451
-0.0064364756 -0.025745869 0.71358168
-0.0065957312 -0.0285815 0.71998972
-0.0027520051 0.023392051 0.62069613
-0.0027029242 0.021623403 0.61773384
-0.0026891311 0.020168513 0.61690134
-0.0026776975 0.018743932 0.61621124
-0.0026684366 0.017344803 0.61565232
-0.0026636636 0.015982002 0.61536425
-0.0026605052 0.014632791 0.61517358
-0.0026573613 0.013286799 0.61498392
-0.0026542321 0.011944026 0.61479497
-0.0026511028 0.010604382 0.61460614
-0.0026518547 0.0092814565 0.6146515
-0.0026544009 0.0079632401 0.61480516
-0.0026585122 0.0066462755 0.61505336
-0.002664004 0.0053279996 0.61538482
-0.002672249 0.0040083826 0.6158824
-0.0027036034 0.0027036071 0.61777484
-0.0027402567 0.0013701022 0.61998707
-0.002781284 -0 0.62246329
-0.0028268767 -0.0014134347 0.62521505
-0.0028780636 -0.0028780699 0.62830442
-0.0029367472 -0.0044051111 0.63184631
-0.0030029383 -0.0060058832 0.63584125
-0.0030782018 -0.0076954961 0.64038384
-0.0031648737 -0.0094946027 0.64561498
-0.0032660272 -0.011431068 0.65172005
-0.0033862931 -0.013545126 0.65897876
-0.0035013377 -0.015755981 0.66592228
-0.0036876628 -0.018438309 0.67716807
-0.0039514378 -0.021732897 0.69308829
-0.0041456628 -0.024873942 0.70481074
-0.0042514796 -0.027634621 0.71119738
-0.001355482 0.024398685 0.61821908
-0.0013460848 0.022883445 0.61708474
-0.0013407896 0.021452636 0.61644554
-0.0013391963 0.020087957 0.6162532
-0.0014964622 0.020950466 0.63523686
-0.0013360103 0.017368138 0.61586863
-0.0013344283 0.016013145 0.61567765
-0.0013328465 0.014661312 0.61548674
-0.0013312683 0.013312727 0.61529624
-0.0013296941 0.011967242 0.61510623
-0.001328127 0.010625005 0.61491704
-0.0013265566 0.0092858672 0.6147275
-0.0013249968 0.0079499781 0.61453921
-0.0013234373 0.0066172183 0.61435091
-0.0013218849 0.005287528 0.61416358
-0.0013249196 0.0039747655 0.61452991
-0.0013291184 0.0026582479 0.61503673
-0.001333845 0.0013338625 0.61560726
-0.0013528835 -2.9802322e-08 0.61790544
-0.0013759383 -0.0013759136 0.62068832
-0.0014015096 -0.0028030276 0.62377512
-0.0014301271 -0.0042904019 0.62722957
-0.0014624638 -0.0058498681 0.63113296
-0.0014995701 -0.0074978471 0.63561207
-0.0015422746 -0.0092536509 0.64076692
-0.0015920184 -0.011144102 0.64677155
-0.0016515612 -0.013212472 0.65395898
-0.0017236747 -0.015513062 0.66266388
-0.0018014713 -0.018014699 0.67205477
-0.0019350696 -0.021285743 0.68818152
-0.002004016 -0.024048179 0.69650406
-0.0020590725 -0.026767939 0.70314991
0 0.027306914 0.6194098
0 0.025702864 0.61789304
0 0.02423963 0.61715251
0 0.022865534 0.6169576
0 0.022463202 0.62406993
0 0.021726459 0.62943888
0 0.026590586 0.68386692
0 0.0253371 0.6898638
0 0.023856729 0.69457787
0 0.014689982 0.61580104
0 0.013338655 0.61560982
0 0.011990577 0.61541903
0 0.010645628 0.61522871
0 0.016938746 0.74669635
0 0.01455003 0.74732208
0 0.012311488 0.75182366
0 0.010489196 0.77113783
0 0.0039686561 0.61428416
0 0.0026426613 0.61409652
0 0.0013242662 0.61445284
0 2.9802322e-08 0.6151275
0 -0.0013405085 0.61640698
0 -0.0027320683 0.6194917
0 -0.0041837096 0.62293679
0 -0.0057064891 0.62680769
0 -0.0073154867 0.63120931
0 -0.0090308487 0.63628399
0 -0.010880888 0.64223194
0 -0.012907296 0.64935428
0 -0.015176207 0.65814602
0 -0.017632574 0.66744226
0 -0.020779729 0.68262833
0 -0.023280054 0.68877739
0 -0.025998384 0.69600421
0.0013661891 0.02869001 0.61951154
0.0013525435 0.027050853 0.61786437
0.001350922 0.025667518 0.61766863
0.0013493008 0.024287403 0.61747295
0.0013629552 0.023170233 0.61912119
0.0014033651 0.022453845 0.62399912
0.0018385131 0.027577698 0.67652607
0.0018841927 0.026378721 0.6820401
0.0019206596 0.024968624 0.68644208
0.001965706 0.023588479 0.69187963
0.0020289719 0.022318691 0.69951653
0.0022035344 0.022035331 0.72058809
0.0022703437 0.020433098 0.7286526
0.0023305889 0.01864475 0.73592484
0.0023485068 0.016439557 0.73808783
0.0023644883 0.014186919 0.74001694
0.002517554 0.012587786 0.7584936
0.0025728038 0.010291189 0.76516283
0.0026183911 0.0078551769 0.77066571
0.0013483773 0.0026967525 0.61736143
0.0013223286 0.001322329 0.6142171
0.0013208102 -0 0.61403382
0.0013272744 -0.0013272762 0.6148141
0.0013342077 -0.0026683807 0.61565101
0.0013607497 -0.0040822625 0.618855
0.0013926044 -0.0055704117 0.6227001
0.0014287143 -0.0071435869 0.62705898
0.0014702462 -0.0088214874 0.63207239
0.0015188571 -0.010631979 0.63794017
0.0015770055 -0.012616038 0.64495933
0.0016501723 -0.01485154 0.65379131
0.0017304586 -0.017304569 0.66348273
0.001838736 -0.020226121 0.67655301
0.0018799593 -0.022559524 0.6815291
0.001943986 -0.025271803 0.6892578
0.0027393866 0.030133247 0.61993456
0.0027137136 0.028493971 0.61838502
0.0028257191 0.028257161 0.6251452
0.0027071943 0.025718361 0.61799157
0.0027039321 0.024335384 0.61779463
0.0027220324 0.023137271 0.61888713
0.0035629454 0.028503597 0.66964066
0.003647102 0.027353257 0.67472005
0.0037153598 0.026007533 0.67883974
0.003798452 0.024689972 0.68385476
0.0039160429 0.02349627 0.69095206
0.0040557403 0.022306532 0.6993835
0.0043749125 0.021874547 0.7186473
0.0044938303 0.020222247 0.72582453
0.0045481371 0.018192559 0.72910231
0.004553311 0.015936583 0.72941452
0.0046690069 0.014007032 0.73639739
0.0049457476 0.012364358 0.75310016
0.0050434568 0.010086924 0.75899744
0.0050358679 0.0075538158 0.75853944
0.0026529091 0.0026529133 0.61471516
0.0026497832 0.001324892 0.61452651
0.0026466716 -0 0.6143387
0.0026435603 -0.0013217628 0.61415088
0.0026521427 -0.0026521385 0.61466891
0.0026677679 -0.0040016472 0.61561197
0.0027210035 -0.0054419935 0.61882502
0.0027918289 -0.0069795549 0.62309968
0.0028739062 -0.0086217225 0.62805355
0.0029698659 -0.010394543 0.63384521
0.0030865662 -0.012346268 0.64088869
0.0032329799 -0.014548391 0.6497255
0.003433605 -0.017168015 0.6618343
0.0035777981 -0.019677907 0.67053711
0.0036470352 -0.021882176 0.674716
0.0037897204 -0.024633169 0.68332779
0.0041287686 0.031653881 0.6207267
0.0040836041 0.029946446 0.61890948
0.0041249902 0.028874934 0.62057471
0.0042150128 0.028100103 0.62419695
0.0047964435 0.030377477 0.64759189
0.0040639252 0.024383575 0.61811769
0.0051835952 0.029373705 0.66316968
0.0053000725 0.028267086 0.66785634
0.0053961184 0.026980609 0.67172098
0.0055123591 0.025724322 0.67639816
0.0056751454 0.02459231 0.68294817
0.0058563496 0.0234254 0.69023919
0.006330316 0.023211151 0.70931017
0.0065015708 0.021671921 0.71620089
0.0066023166 0.019806951 0.7202546
0.0065947454 0.017586023 0.71994996
0.0067243786 0.015690207 0.72516596
0.0071412497 0.014282495 0.74193954
0.0072817947 0.01213634 0.74759471
0.0073673907 0.0098232329 0.75103879
0.0072682551 0.00726825 0.74704993
0.0039871009 0.0026580393 0.61502647
0.0039823935 0.0013274252 0.61483705
0.0078040026 -0 0.76860678
0.0077683409 -0.0025894344 0.7671718
0.0039683492 -0.0026455522 0.61427194
0.003978868 -0.0039788783 0.61469525
0.0040050149 -0.0053399801 0.61574727
0.0040973364 -0.006828934 0.61946201
0.0042188275 -0.0084376335 0.62435043
0.0043619694 -0.01017791 0.63011003
0.0045350543 -0.012093484 0.63707441
0.0047534741 -0.014260411 0.64586294
0.0050601251 -0.016867071 0.65820163
0.0052187196 -0.019135296 0.66458297
0.0053130542 -0.021252215 0.66837871
0.005558203 -0.024085522 0.67824268
0.0054622805 0.031408101 0.61943686
0.0054556695 0.03000617 0.6192373
0.0054679215 0.02870658 0.61960709
0.0062327264 0.031163633 0.64268714
0.0065017529 0.030883342 0.65080565
0.0067095589 0.030193031 0.65707678
0.006853078 0.029125571 0.66140783
0.0069734212 0.027893692 0.66503954
0.0071184393 0.026694149 0.66941583
0.0073190103 0.025616527 0.67546856
0.007541684 0.024510473 0.68218839
0.0081521524 0.024456441 0.70061088
0.0083698975 0.023017228 0.70718193
0.0085212411 0.021303117 0.71174914
0.0085123973 0.01915288 0.71148223
0.0086396849 0.017279357 0.71532351
0.0091752969 0.016056776 0.73148704
0.0093561728 0.014034241 0.73694539
0.00950778 0.011884689 0.74152058
0.0093821818 0.0093821585 0.73773026
0.0094763571 0.0071072578 0.74057233
0.0099424506 0.004971236 0.75463796
0.010045651 0.0025114417 0.7577523
0.010107136 -0 0.75960773
0.0098794838 -0.0024698675 0.75273776
0.0098364642 -0.0049181879 0.75143945
0.0052951355 -0.0039713383 0.61439276
0.005311972 -0.0053119659 0.61490083
0.0053504985 -0.006688118 0.61606348
0.0055084336 -0.0082626641 0.62082964
0.0056972387 -0.0099701285 0.62652731
0.0059257518 -0.011851519 0.63342333
0.0062224176 -0.014000446 0.64237601
0.0066438541 -0.016609639 0.65509397
0.0069545209 -0.019124925 0.66446912
0.0069464105 -0.020839244 0.66422439
0.0073219296 -0.02379626 0.67555666
0.0068734353 0.032992512 0.62053734
0.0068415371 0.031471074 0.61976719
0.0068332213 0.030066162 0.6195665
0.007597791 0.031910747 0.63802481
0.0079125343 0.031650126 0.64562339
0.0081488984 0.030965835 0.6513297
0.0083149197 0.029933721 0.65533781
0.0084565468 0.028752267 0.65875703
0.0086264871 0.027604759 0.66285974
0.0088585708 0.026575714 0.66846275
0.0091190506 0.025533378 0.67475128
0.0098536154 0.025619447 0.69248521
0.010109972 0.024263948 0.69867426
0.010311317 0.022684872 0.70353514
0.010331587 0.020663172 0.70402449
0.010421057 0.01875791 0.70618451
0.011066309 0.017706096 0.72176224
0.011281589 0.015794188 0.72695959
0.011483652 0.013780385 0.73183781
0.01151208 0.01151213 0.73252416
0.011425124 0.0091401041 0.73042482
0.011998609 0.0071991682 0.74426997
0.012129793 0.0048519373 0.747437
0.012237063 0.0024473667 0.75002682
0.012190077 2.9802322e-08 0.74889243
0.011927334 -0.0023854673 0.74254918
0.011968473 -0.0047873557 0.74354243
0.012161397 -0.0072968304 0.7482
0.0066239494 -0.0052991509 0.61451423
0.0066571035 -0.0066570938 0.6153146
0.0067456495 -0.0080947876 0.61745238
0.0069798646 -0.0097717941 0.62310672
0.0072690826 -0.011630505 0.6300891
0.0076399725 -0.013751924 0.63904315
0.0081936279 -0.016387254 0.65240955
0.0087098572 -0.019161671 0.66487247
0.0086997114 -0.020879298 0.66462749
0.0083464039 0.034776688 0.62251461
0.0082363328 0.032945335 0.62030011
0.008515317 0.032642066 0.62591279
0.0088968454 0.032621771 0.63358861
0.0092470357 0.032364637 0.64063388
0.0095087858 0.031695962 0.64589989
0.0096933972 0.030695766 0.64961398
0.0098537179 0.029561132 0.65283936
0.010045211 0.028461456 0.65669191
0.010303467 0.027475953 0.66188765
0.010598536 0.026496321 0.66782403
0.011446277 0.026707977 0.68487918
0.011736602 0.025429338 0.69072008
0.01198775 0.023975492 0.69577283
0.012063474 0.022116393 0.69729626
0.012091265 0.020152092 0.69785535
0.012356317 0.018534482 0.70318782
0.013074609 0.017432839 0.71763873
0.01330877 0.015526921 0.7223497
0.013457921 0.013457924 0.72535038
0.013262148 0.011051774 0.72141182
0.01344936 0.0089662373 0.72517812
0.014071953 0.0070360303 0.73770374
0.014205926 0.004735291 0.74039912
0.014285286 0.0023809075 0.74199569
0.013976502 -2.9802322e-08 0.73578346
0.013895253 -0.0023158491 0.7341488
0.014020889 -0.00467363 0.73667645
0.0081008738 -0.0040504038 0.61757493
0.0079641743 -0.0053094327 0.61482471
0.0079547837 -0.0066289902 0.61463583
0.0080187162 -0.0080187023 0.61592203
0.0082203429 -0.0095903873 0.61997843
0.0085648019 -0.011419713 0.62690842
0.009017501 -0.013526261 0.63601601
0.0097122751 -0.016187102 0.64999378
0.010471953 -0.019198567 0.66527736
0.01045973 -0.020919472 0.66503143
0.0096672438 0.034525871 0.62130356
0.0097184228 0.033320338 0.62218606
0.010130972 0.033287495 0.6293003
0.010511136 0.03303501 0.63585597
0.010794225 0.032382697 0.64073765
0.010995408 0.031415462 0.64420688
0.011172139 0.030324399 0.64725459
0.011382282 0.029268712 0.65087843
0.011662207 0.028322488 0.65570545
0.011987755 0.027400613 0.66131932
0.012940295 0.027729183 0.67774534
0.013260608 0.026521206 0.6832689
0.013553979 0.025171697 0.68832791
0.013685371 0.023460656 0.69059372
0.013669509 0.02148068 0.69032013
0.013916469 0.019880682 0.69457889
0.014746297 0.018959522 0.70888877
0.015009562 0.0171538 0.71342856
0.015233873 0.015233874 0.71729672
0.015058606 0.012907386 0.71427429
0.015139055 0.010813624 0.71566153
0.015883036 0.0090760291 0.72849107
0.01604243 0.0068753362 0.73123968
0.016174819 0.0046213865 0.73352271
0.016121512 0.0023030639 0.73260343
0.015764721 2.9802322e-08 0.72645086
0.015791019 -0.002255857 0.72690427
0.016013896 -0.0045754015 0.7307477
0.0093206391 -0.0039945543 0.61532658
0.009309615 -0.005319804 0.6151365
0.0092986161 -0.0066418648 0.61494684
0.0093200197 -0.0079886019 0.61531591
0.0094156023 -0.0094155967 0.61696416
0.0098154889 -0.011217713 0.62386
0.010356113 -0.013315022 0.63318276
0.011233123 -0.016047299 0.64830619
0.012240848 -0.019235611 0.66568381
0.012226491 -0.020959705 0.66543621
0.011039563 0.034498662 0.62117207
0.011305142 0.03391543 0.62517941
0.011711965 0.033671886 0.63131785
0.012010816 0.033029735 0.63582712
0.012227205 0.032096416 0.63909221
0.012418312 0.031045794 0.64197576
0.012644618 0.030030966 0.64539051
0.012942206 0.029119968 0.64988077
0.013294769 0.028251439 0.65520048
0.014343346 0.028686672 0.6710223
0.014691317 0.027546227 0.67627275
0.015023079 0.026290417 0.68127871
0.015204947 0.024708033 0.6840229
0.015169854 0.022754788 0.68349338
0.015389438 0.021160513 0.68680656
0.016307758 0.020384699 0.70066303
0.016597159 0.018671811 0.70502973
0.01686875 0.01686877 0.70912772
0.01694057 0.01482296 0.7102114
0.016748199 0.012561172 0.70730871
0.01704916 0.010655731 0.71184993
0.017760223 0.0088800788 0.722579
0.017915705 0.0067183971 0.7249251
0.01800718 0.0045017898 0.72630531
0.017643504 0.0022054315 0.7208178
0.017507227 -0 0.71876162
0.017634256 -0.0022042394 0.72067827
0.017922362 -0.0044806004 0.72502553
0.01067295 -0.0040023625 0.61564028
0.010660301 -0.0053301156 0.61544943
0.010647682 -0.0066548288 0.61525905
0.010635094 -0.0079762936 0.61506909
0.010713112 -0.0093739331 0.61624628
0.011036215 -0.011036217 0.62112159
0.011662214 -0.013119966 0.63056713
0.012777941 -0.015972406 0.64740217
0.012599788 0.036399364 0.62358999
0.012444668 0.034568518 0.62150949
0.012854133 0.034277678 0.6270014
0.013164829 0.033643484 0.63116848
0.01339429 0.032741606 0.63424611
0.013598056 0.031728774 0.6369791
0.013838287 0.030751765 0.64020115
0.014152058 0.02987659 0.64440954
0.014526587 0.029053181 0.64943284
0.015663128 0.029585898 0.66467643
0.016036564 0.028509468 0.66968507
0.016396899 0.027328163 0.67451799
0.016630456 0.025869578 0.67765057
0.016606782 0.023987561 0.677333
0.016769988 0.022359997 0.67952198
0.017211873 0.021036744 0.68544865
0.018082567 0.020091772 0.69712669
0.018379474 0.01837948 0.70110893
0.01857576 0.016511768 0.70374155
0.018301267 0.014234304 0.70006001
0.018481456 0.012320966 0.70247668
0.019363729 0.010757625 0.71430999
0.019545007 0.0086866617 0.71674144
0.019695804 0.0065652728 0.71876389
0.019633204 0.004362911 0.71792436
0.01919944 0.0021332502 0.71210659
0.019209022 -0 0.71223509
0.019433588 -0.0021592975 0.71524698
0.01970149 -0.00437814 0.71884018
0.01964948 -0.0065497756 0.71814263
0.019398177 -0.0086213648 0.71477205
0.01839727 -0.010220706 0.70134753
0.011987763 -0.0079918206 0.61538136
0.012019888 -0.0093488097 0.61581224
0.012218039 -0.010860473 0.61846989
0.012947265 -0.012947261 0.62825048
0.014436013 -0.016039997 0.64821804
0.013941293 0.036247373 0.62288421
0.013941797 0.034854501 0.62289029
0.01426104 0.034226537 0.62674391
0.014501634 0.033353776 0.62964815
0.014716472 0.03237623 0.63224149
0.01496874 0.031434357 0.63528663
0.0152962 0.030592442 0.63923943
0.015688812 0.02980876 0.64397866
0.016907779 0.030434042 0.65869284
0.017301774 0.029413015 0.66344881
0.017689081 0.028302521 0.66812402
0.017967682 0.026951522 0.67148703
0.018000714 0.025201023 0.67188573
0.01807628 0.023499161 0.67279792
0.01842453 0.022109449 0.67700171
0.019476485 0.021424115 0.68969989
0.019793611 0.01979363 0.69352788
0.020068292 0.018061489 0.69684362
0.019902101 0.015921682 0.69483751
0.019900914 0.013930649 0.69482321
0.020851495 0.012510926 0.7062977
0.02107315 0.010536611 0.70897335
0.02124431 0.0084977448 0.71103942
0.021343721 0.0064031482 0.71223944
0.02093998 0.004188031 0.70736581
0.020754367 0.0020754337 0.70512533
0.02086854 -2.9802322e-08 0.70650351
0.021172127 -0.0021172166 0.71016812
0.021350825 -0.0042701364 0.71232522
0.021193558 -0.0063580871 0.71042681
0.019772571 -0.0079090595 0.69327402
0.020062739 -0.010031402 0.69677663
0.014814379 -0.0088886321 0.63342327
0.013329921 -0.0093309581 0.61550432
0.013462587 -0.010770082 0.61710572
0.014206379 -0.012785733 0.62608409
0.015290773 0.036141843 0.6223942
0.015303656 0.034781039 0.62253559
0.01555371 0.033935368 0.62527966
0.015778255 0.032990932 0.62774378
0.016040826 0.032081664 0.63062507
0.016379666 0.031270295 0.63434345
0.016787332 0.030522406 0.63881707
0.018083429 0.031235039 0.65303999
0.018495681 0.030265659 0.65756392
0.018901039 0.029210687 0.66201222
0.019228494 0.027968735 0.66560566
0.01933434 0.026365012 0.66676712
0.019328093 0.024599373 0.66669858
0.019648036 0.02322042 0.67020953
0.020781919 0.022671193 0.68265241
0.021120526 0.021120518 0.68636817
0.021438319 0.019489378 0.68985558
0.021544812 0.017627567 0.69102424
0.021255352 0.015458435 0.68784773
0.021521814 0.013695717 0.69077182
0.022501731 0.012273669 0.70152509
0.02269865 0.010317594 0.70368606
0.02286252 0.0083136261 0.70548433
0.022792555 0.0062161684 0.7047165
0.022300154 0.0040545762 0.6993131
0.022281647 0.0020256341 0.69910991
0.022489686 -0 0.70139295
0.022816081 -0.002074182 0.70497465
0.022860905 -0.0041565299 0.70546663
0.022638617 -0.0061741769 0.70302725
0.021214304 -0.0077142715 0.6873973
0.021696668 -0.0098620951 0.69269061
0.015696675 -0.0085618198 0.62684852
0.014691563 -0.0093491673 0.61581868
0.014788394 -0.010755181 0.61688131
0.015466643 -0.012654513 0.6243242
0.016714789 0.036215335 0.62273574
0.016694155 0.034779489 0.62252808
0.016787598 0.033575207 0.6234681
0.017059036 0.032696486 0.62619859
0.017407158 0.031913102 0.62970042
0.017827503 0.031198144 0.63392872
0.018286902 0.030478209 0.63854992
0.019624088 0.031071514 0.65200096
0.020045483 0.030068219 0.65623987
0.020412041 0.028917104 0.65992719
0.020574311 0.027432442 0.66155952
0.020528868 0.025661081 0.66110241
0.02080825 0.024276316 0.66391277
0.022011284 0.023845553 0.67601436
0.022366066 0.022366077 0.67958313
0.022704877 0.020812839 0.68299133
0.022937065 0.019114226 0.68532699
0.022606568 0.016954958 0.68200243
0.022759957 0.015173316 0.68354541
0.023847047 0.01391077 0.69448066
0.024063999 0.012032032 0.69666302
0.024247766 0.010103256 0.6985116
0.024351912 0.0081173182 0.69955921
0.023919243 0.005979836 0.69520688
0.023684965 0.0039474964 0.69285029
0.023775751 0.001981318 0.69376349
0.024081852 -2.9802322e-08 0.69684273
0.024340855 -0.0020284057 0.69944805
0.024251977 -0.0040419698 0.69855398
0.02396067 -0.0059901476 0.6956237
0.022675721 -0.0075585842 0.68269801
0.023157874 -0.0096490979 0.68754822
0.016595274 -0.0082976222 0.62153345
0.016058493 -0.009367466 0.61613387
0.016121531 -0.010747671 0.616768
0.016715299 -0.012536466 0.62274086
0.01814466 0.036289334 0.623079
0.018122166 0.034850299 0.62287021
0.018099725 0.033414871 0.62266177
0.018382903 0.032523602 0.62529117
0.018813955 0.031839013 0.62929368
0.019263824 0.031118512 0.63347095
0.020692287 0.031834334 0.64673483
0.021128019 0.030879438 0.65078086
0.021529207 0.029809684 0.65450597
0.02174258 0.028432608 0.65648723
0.021686254 0.026690781 0.65596426
0.021902252 0.025271803 0.65796989
0.022364859 0.024085253 0.66226542
0.023540752 0.023540765 0.67318404
0.023894524 0.02205649 0.67646897
0.024204386 0.020480633 0.6793462
0.024129685 0.018561274 0.67865258
0.02395992 0.016587615 0.67707622
0.024315771 0.014963567 0.68038046
0.025345277 0.013647467 0.68993992
0.025553176 0.011793792 0.69187033
0.025724063 0.0098938942 0.69345707
0.025650213 0.0078923702 0.69277138
0.025107451 0.0057940185 0.68773156
0.025056291 0.003854841 0.68725652
0.025238384 0.0019414425 0.68894732
0.025614759 -0 0.69244212
0.025745748 -0.0019804537 0.69365847
0.025557391 -0.00393188 0.69190949
0.023859376 -0.0055060089 0.67614269
0.02412843 -0.0074240863 0.6786409
0.024635423 -0.0094751418 0.6833486
0.017473107 -0.0080645084 0.6168434
0.017430872 -0.009385854 0.6164512
0.017463163 -0.010746568 0.61675096
0.017997015 -0.012459487 0.6217081
0.019580331 0.036363482 0.62342328
0.01955606 0.034921557 0.62321401
0.019531796 0.033483088 0.62300479
0.019750644 0.032447487 0.62489176
0.020207061 0.031753957 0.6288271
0.021705044 0.032557547 0.641743
0.022153415 0.031647742 0.6456089
0.022581691 0.030646592 0.64930153
0.022840945 0.02936694 0.65153694
0.022813644 0.027702302 0.6513015
0.022947041 0.026225209 0.65245163
0.023346024 0.025013626 0.65589178
0.024645781 0.024645776 0.66709858
0.025016503 0.023229599 0.670295
0.025364704 0.021741211 0.67329723
0.025501551 0.020036966 0.67447722
0.025133638 0.017952591 0.67130494
0.025369391 0.016308904 0.67333764
0.026552577 0.015172899 0.68353939
0.026778629 0.013389289 0.6854884
0.026971437 0.011559188 0.68715084
0.027077781 0.009670645 0.68806767
0.026625041 0.0076071322 0.68416411
0.026341699 0.0056446493 0.68172109
0.026403058 0.0037718713 0.68225014
0.026702479 0.0019073188 0.6848318
0.027034413 -0 0.68769377
0.027029719 -0.0019307137 0.6876533
0.026782213 -0.0038260221 0.68551928
0.025090607 -0.0053765774 0.67093396
0.025601091 -0.0073145926 0.67533541
0.018853607 -0.0067334473 0.61715734
0.018831052 -0.0080704689 0.61696285
0.018808553 -0.0094043016 0.61676884
0.018816534 -0.01075229 0.61683774
0.019336728 -0.012430727 0.62132287
0.021021998 0.036438137 0.62376988
0.020995827 0.034993052 0.6235593
0.020969782 0.033551663 0.62334967
0.021103628 0.032358944 0.62442678
0.022666438 0.033244133 0.6370033
0.023126205 0.032376707 0.64070326
0.023572171 0.031429589 0.64429212
0.023877615 0.030245006 0.64675009
0.023919543 0.028703481 0.64708757
0.023957646 0.027152002 0.64739418
0.024322785 0.025944322 0.65033257
0.025688576 0.025688559 0.66132361
0.026071662 0.024333566 0.66440642
0.026438007 0.022912949 0.66735452
0.026698042 0.02135843 0.66944712
0.026347147 0.019321263 0.66662335
0.02643875 0.017625839 0.66736054
0.026922328 0.016153365 0.67125213
0.027933961 0.014898121 0.67939305
0.028149152 0.013136297 0.68112481
0.028323686 0.011329442 0.68252933
0.02824736 0.0094157755 0.68191516
0.027660936 0.0073762536 0.67719597
0.027574351 0.0055148602 0.67649919
0.027746117 0.0036994815 0.67788148
0.028116252 0.0018743873 0.68086004
0.028345831 2.9802322e-08 0.68270755
0.028216245 -0.0018810928 0.68166471
0.027897721 -0.0037197173 0.67910147
0.026356863 -0.0052713454 0.66670156
0.026911998 -0.0071765184 0.67116892
0.027436357 -0.0091454387 0.67538863
0.020215854 -0.0080863237 0.61728251
0.020191651 -0.0094227493 0.61708772
0.020185951 -0.010765821 0.61704195
0.020846305 -0.012507766 0.62235606
0.022574011 0.036682785 0.62490571
0.022441439 0.035064787 0.62390548
0.022413544 0.033620328 0.62369502
0.023580339 0.033896744 0.63249779
0.024049994 0.033068746 0.63604116
0.024512138 0.032172173 0.63952774
0.024855591 0.031069517 0.64211893
0.024976017 0.029659033 0.64302742
0.024932848 0.028049469 0.64270175
0.025254533 0.026832938 0.64512867
0.026676279 0.026676267 0.65585494
0.02707074 0.025378883 0.65883088
0.027448779 0.024017692 0.66168296
0.027783135 0.022573799 0.66420549
0.027765118 0.020823866 0.66406953
0.027467992 0.018884271 0.66182792
0.027774075 0.01735881 0.66413713
0.029021231 0.016324401 0.6735462
0.02925379 0.01462689 0.67530072
0.029452678 0.012885541 0.6768012
0.029559469 0.011084795 0.67760688
0.02909337 0.0090916753 0.6740905
0.028761411 0.0071903467 0.67158604
0.028799796 0.0053999722 0.6718756
0.029075406 0.0036344528 0.6739549
0.029455712 0.0018409789 0.67682409
0.02954714 -2.9802322e-08 0.6775139
0.029332032 -0.0018332303 0.67589104
0.027400961 -0.0034251213 0.66132218
0.027639255 -0.0051823854 0.66312003
0.028156405 -0.0070390999 0.66702157
0.027325111 -0.0085391104 0.66074991
0.021606237 -0.0081023276 0.61760437
0.02158026 -0.0094413459 0.61740839
0.021576595 -0.010788292 0.61738074
0.023957526 0.03523168 0.62471139
0.024447158 0.034513623 0.62818813
0.024925265 0.033722401 0.63158298
0.025396032 0.032865465 0.63492572
0.025783939 0.031850755 0.63768011
0.025953952 0.030534059 0.63888729
0.02587634 0.028920621 0.63833618
0.026136898 0.027674377 0.64018631
0.026613072 0.026613057 0.64356744
0.028016154 0.026368141 0.65353024
0.028407061 0.025065064 0.65630591
0.028774725 0.02369684 0.65891659
0.028940668 0.022131085 0.66009486
0.028511707 0.020125896 0.65704894
0.028711108 0.018577754 0.65846485
0.03003788 0.01766932 0.66788578
0.030300571 0.016041458 0.66975099
0.030520184 0.014362484 0.67131037
0.030695966 0.012639523 0.67255855
0.03061796 0.010806382 0.67200464
0.029993713 0.0088216662 0.66757214
0.029869851 0.0070282221 0.66669261
0.030027809 0.0052990317 0.66781414
0.030385321 0.0035747588 0.67035276
0.030696409 0.0018056631 0.67256171
0.030645754 -2.9802322e-08 0.67220205
0.030380111 -0.0017870665 0.67031586
0.028458478 -0.0033480823 0.65667105
0.02892925 -0.0051051378 0.66001379
0.028959392 -0.0068139732 0.66022778
0.02817736 -0.0082874596 0.65467489
0.023002006 -0.0081183314 0.6179266
0.022974357 -0.009460032 0.61773032
0.022994418 -0.010820895 0.61787271
0.025350586 0.035209149 0.62460274
0.025758486 0.034344643 0.62733817
0.026236927 0.03352496 0.63054663
0.026656173 0.03257978 0.63335818
0.026879163 0.031359017 0.6348536
0.026805563 0.029783994 0.63435996
0.026987573 0.028486878 0.6355806
0.027414156 0.027414143 0.63844132
0.02890826 0.027302265 0.64846098
0.029308824 0.026052296 0.65114725
0.029692721 0.024743944 0.65372175
0.029974658 0.023313612 0.65561247
0.029644636 0.021409988 0.65339923
0.029630592 0.019753724 0.65330511
0.030009614 0.018339187 0.65584689
0.031283278 0.017379612 0.66438824
0.031519759 0.015759856 0.66597414
0.031722479 0.014098883 0.6673336
0.031828195 0.01237765 0.66804254
0.031354178 0.010451406 0.66486365
0.030974288 0.0086039901 0.66231608
0.030996462 0.0068881214 0.6624648
0.03123424 0.0052057207 0.6640594
0.03165102 0.0035167634 0.66685438
0.031838208 0.0017687976 0.66810966
0.031666487 -0 0.66695815
0.031329636 -0.0017405152 0.66469908
0.029559696 -0.0032843947 0.65282965
0.03017875 -0.0050297678 0.65698105
0.029810855 -0.006624639 0.65451396
0.028955754 -0.0080432594 0.64877951
0.027771387 -0.009257108 0.64083695
0.02437398 -0.0094787776 0.61805344
0.024446558 -0.010865122 0.61854017
0.026814198 0.035281837 0.62495369
0.027037947 0.034153163 0.62637526
0.027488098 0.033275068 0.62923515
0.027749663 0.032131195 0.63089693
0.027727084 0.030645758 0.6307534
0.02781486 0.029278815 0.63131112
0.028208455 0.028208435 0.63381171
0.029756032 0.028189927 0.64364374
0.03016571 0.026990384 0.64624655
0.030559001 0.025733888 0.64874518
0.030910237 0.024402797 0.65097666
0.030935884 0.022794873 0.65113956
0.030540448 0.020896107 0.64862728
0.030808162 0.019457787 0.65032816
0.032218296 0.018652737 0.65928698
0.032471292 0.017090142 0.66089433
0.032691821 0.015485585 0.6622954
0.032869391 0.013839751 0.66342354
0.032790598 0.012080759 0.66292298
0.032133032 0.010147274 0.65874529
0.031981263 0.008416146 0.65778106
0.032112624 0.0067605376 0.65861565
0.032452226 0.0051240027 0.66077316
0.03281901 0.0034546256 0.66310346
0.032867573 0.0017298758 0.66341197
0.032629099 2.9802322e-08 0.66189688
0.030498514 -0.0016051531 0.64836085
0.030700317 -0.0032316148 0.649643
0.031235015 -0.0049318671 0.65303999
0.030601989 -0.0064425468 0.64901829
0.029677354 -0.0078098476 0.64314389
0.028339466 -0.0089492798 0.63464403
0.025779091 -0.0094975531 0.61837745
0.025941657 -0.010922819 0.61941028
0.028271321 0.033925593 0.62523043
0.028577385 0.032863975 0.6270777
0.028625861 0.031488448 0.62737024
0.028616283 0.030047089 0.62731242
0.028968424 0.028968453 0.62943786
0.029604826 0.028124601 0.63327885
0.030980805 0.027882725 0.64158362
0.031383138 0.026675671 0.64401191
0.03176396 0.025411189 0.64631033
0.031951278 0.023963451 0.64744091
0.03148127 0.02203688 0.64460421
0.031635031 0.020562798 0.64553225
0.03211163 0.019266993 0.64840877
0.033363804 0.018350065 0.65596628
0.033601977 0.016801 0.65740383
0.033806644 0.015213013 0.65863907
0.033910319 0.01356414 0.6592648
0.033432689 0.011701465 0.65638202
0.033005949 0.0099017918 0.65380645
0.03301074 0.0082527101 0.6538353
0.033220265 0.0066440403 0.65509999
0.033631451 0.0050446987 0.65758169
0.03389883 0.003389895 0.65919548
0.033812128 0.0016905963 0.65867221
0.033533629 -0 0.6569913
0.03140983 -0.001570493 0.64417303
0.031836417 -0.0031836331 0.64674771
0.032096799 -0.0048145056 0.64831924
0.031326257 -0.0062652528 0.64366865
0.030319158 -0.0075798035 0.63759017
0.028812623 -0.0086437762 0.62849748
0.027189855 -0.009516418 0.61870319
0.027490115 -0.010996044 0.62051547
0.029722085 0.033968091 0.62544429
0.029684804 0.03251192 0.62522995
0.029647533 0.031059295 0.62501574
0.02969059 0.029690593 0.62526321
0.030173849 0.028736979 0.62804109
0.031750754 0.028726876 0.63710529
0.032161251 0.027566791 0.63946486
0.032555345 0.026354343 0.64173019
0.032849483 0.025028169 0.64342099
0.032616079 0.02329722 0.64207935
0.032437157 0.021624744 0.64105082
0.032758947 0.020279378 0.64290053
0.034213558 0.019550592 0.65126181
0.034467649 0.018054485 0.65272236
0.034689996 0.01651904 0.65400046
0.034867965 0.014943421 0.65502346
0.034788888 0.013252914 0.65456891
0.034102187 0.01136741 0.65062165
0.033929959 0.0096942782 0.64963168
0.034024995 0.0081011653 0.65017796
0.034343276 0.00654158 0.65200746
0.034753218 0.0049647093 0.65436387
0.034891933 0.0033230484 0.6551612
0.034696758 0.001652211 0.65403926
0.034347765 -0 0.65203327
0.032376491 -0.0015417337 0.64070213
0.033011097 -0.0031439066 0.64434993
0.032823827 -0.0046890676 0.64327347
0.032006465 -0.0060964823 0.6385752
0.030905228 -0.0073583424 0.63224506
0.029205998 -0.0083445609 0.62247771
0.028656952 -0.0095523298 0.61932176
0.03116272 0.032579213 0.62558305
0.031123601 0.031123638 0.62536842
0.031084491 0.02967155 0.6251539
0.032483339 0.029530287 0.63282913
0.032901306 0.028414756 0.63512242
0.033303447 0.027248293 0.63732892
0.033665948 0.026014596 0.63931787
0.033724323 0.024526805 0.63963819
0.033251241 0.022671312 0.63704246
0.033487231 0.021310061 0.63833731
0.034150567 0.020179898 0.64197695
0.035283733 0.019245684 0.64819443
0.035521813 0.017760903 0.64950073
0.035727259 0.016239643 0.65062797
0.035828076 0.014656931 0.65118116
0.035365123 0.01286003 0.64864105
0.034883443 0.011099279 0.64599812
0.034864441 0.0095084906 0.64589387
0.035055969 0.0079672635 0.64694476
0.035445977 0.0064447224 0.64908463
0.035791148 0.0048806071 0.65097857
0.035792775 0.0032538772 0.65098751
0.035532933 0.0016151369 0.64956176
0.033230461 -0 0.63692844
0.033389717 -0.0015177131 0.63780224
0.034012444 -0.0030920208 0.64121902
0.033509351 -0.0045694411 0.63845861
0.032614905 -0.0059299767 0.633551
0.031421125 -0.0071411431 0.62700087
0.030064696 -0.0081994534 0.61955839
0.030309148 -0.0096438229 0.62089962
0.0326057 0.031188041 0.62572211
0.033182479 0.030297041 0.62874919
0.033607394 0.0292238 0.6309793
0.034017172 0.028101146 0.63312989
0.034405768 0.026926279 0.63516939
0.034606069 0.025578409 0.63622057
0.034135025 0.023746103 0.63374841
0.034208994 0.022310168 0.63413668
0.034587346 0.021053165 0.63612235
0.036058266 0.020380735 0.64384216
0.036311984 0.018945396 0.64517379
0.036534701 0.017473131 0.64634258
0.036711853 0.015961677 0.64727241
0.036633205 0.014334738 0.64685959
0.03592062 0.012494117 0.64311981
0.035728361 0.010873884 0.64211071
0.035792701 0.0093372464 0.64244843
0.036080085 0.0078434646 0.64395672
0.036514763 0.0063503981 0.64623797
0.036731072 0.0047910511 0.6473732
0.036607921 0.0031833053 0.64672685
0.03632012 0.0015791655 0.64521646
0.034020491 2.9802322e-08 0.63314736
0.034407206 -0.0014959574 0.63517696
0.034862068 -0.0030314624 0.63756418
0.034136035 -0.0044524968 0.63375372
0.03318353 -0.0057710111 0.62875473
0.031868827 -0.0069279969 0.62185478
0.031534195 -0.0082263052 0.62009853
0.034094047 0.031252861 0.62607777
0.034278572 0.029993743 0.62700582
0.034693617 0.028911352 0.62909335
0.035092872 0.027781874 0.63110149
0.035394277 0.026545733 0.63261735
0.035275336 0.024986714 0.63201916
0.03492295 0.023281962 0.63024676
0.035211723 0.022007346 0.6316992
0.036788817 0.021460176 0.63963139
0.037060969 0.020074695 0.64100021
0.037297748 0.018648893 0.64219105
0.037502751 0.017188787 0.64322221
0.037599981 0.015666664 0.64371121
0.037159711 0.01393488 0.64149684
0.036631372 0.012210459 0.63883948
0.036576144 0.010668039 0.63856173
0.036748178 0.0091870427 0.63942695
0.03711389 0.0077320337 0.64126641
0.037499707 0.006249994 0.64320689
0.037592329 0.0046990812 0.6436727
0.037379596 0.0031149685 0.6426028
0.037022695 0.0015426278 0.64080769
0.034873866 -0 0.62999994
0.035462637 -0.0014776289 0.63296121
0.03551371 -0.0029594898 0.63321811
0.034715082 -0.004339397 0.62920129
0.033693142 -0.0056155324 0.62406129
0.03296975 -0.0068686903 0.62042296
0.033353902 -0.0083384812 0.6223551
0.035543598 0.029856622 0.6262176
0.035743065 0.028594494 0.6271807
0.036111537 0.02744478 0.62895983
0.036191467 0.026057869 0.62934577
0.03567731 0.024260581 0.62686324
0.035864402 0.022953242 0.62776655
0.036320191 0.021792144 0.62996727
0.037768729 0.0211505 0.63696146
0.038020939 0.01977089 0.6381793
0.038242955 0.018356621 0.63925129
0.038418554 0.016904145 0.64009911
0.038340479 0.015336186 0.63972211
0.037618231 0.013542593 0.63623482
0.037393101 0.011965811 0.63514781
0.037439659 0.010483116 0.63537258
0.037680782 0.0090434253 0.63653684
0.038117681 0.0076235533 0.63864636
0.038413949 0.0061462522 0.64007688
0.038377415 0.0046052933 0.63990045
0.038110599 0.0030488372 0.63861215
0.035662055 0.0014264882 0.62678957
0.035771273 2.9802322e-08 0.62731689
0.036448352 -0.0014579296 0.63058615
0.036099449 -0.0028879344 0.62890148
0.035265226 -0.0042318106 0.62487352
0.034454737 -0.0055127442 0.62096012
0.034707114 -0.0069414377 0.62217867
0.036995508 0.028458089 0.62635767
0.036969017 0.027015835 0.62623465
0.036902111 0.025547624 0.62592405
0.03685559 0.02409789 0.62570798
0.03682648 0.022662461 0.62557292
0.038446583 0.022180736 0.63309461
0.038710736 0.020844251 0.63432097
0.038945291 0.019472629 0.63540995
0.039148979 0.018068761 0.63635558
0.039242271 0.016602516 0.63678873
0.038825225 0.014932811 0.63485253
0.038253151 0.0132415 0.63219655
0.038161363 0.011741966 0.63177037
0.038313087 0.01031509 0.63247478
0.038652882 0.0089198947 0.63405234
0.039078068 0.007515043 0.63602638
0.039253995 0.006039083 0.63684314
0.039094392 0.0045109093 0.6361022
0.038800213 0.002984643 0.63473636
0.036349349 0.0013980865 0.62335771
0.036693528 -0 0.62495565
0.037265856 -0.0014333129 0.62761277
0.036657546 -0.0028198063 0.62478852
0.035949472 -0.0041480064 0.62150121
0.036146346 -0.0055609643 0.62241518
0.038449794 0.02705726 0.62649792
0.038401157 0.025600791 0.62628049
0.03835265 0.024147958 0.62606364
0.038304254 0.02269882 0.62584728
0.039359286 0.021866262 0.63056409
0.039608892 0.020537972 0.63168001
0.039829247 0.019177079 0.63266516
0.04000273 0.017779022 0.63344073
0.03992565 0.016266018 0.63309616
0.039204065 0.014520049 0.62987012
0.03893875 0.012979597 0.62868392
0.038967051 0.011545807 0.62881047
0.039187577 0.010159761 0.62979639
0.039598558 0.0087996721 0.63163376
0.039955642 0.0073991716 0.63323027
0.040000126 0.0059259534 0.63342911
0.039771441 0.0044190586 0.63240671
0.039409693 0.0029192567 0.63078946
0.037592992 0.0013923049 0.62266743
0.03762807 2.9802322e-08 0.62282419
0.037930857 -0.0014048517 0.62417793
0.037453961 -0.0027743578 0.62204581
0.037720736 -0.00419119 0.62323844
0.039855942 0.024198234 0.62642068
0.03998128 0.022846431 0.62696105
0.040245667 0.021560192 0.62810087
0.040477876 0.020238966 0.62910187
0.040679559 0.018886954 0.62997139
0.040768459 0.017472208 0.63035464
0.0403658 0.015857995 0.62861872
0.039762165 0.014200777 0.62601638
0.039639428 0.012741238 0.62548733
0.039764535 0.011361301 0.62602663
0.040077236 0.010019332 0.62737471
0.040517211 0.0086822808 0.62927151
0.040757786 0.007278204 0.63030863
0.040685702 0.0058122277 0.62999785
0.040414121 0.0043300986 0.6288271
0.039876245 0.0028482974 0.62650824
0.039064791 0.0013951659 0.62301004
0.039016377 -0 0.6228013
0.038968086 -0.0013917089 0.6225931
0.04126082 0.021341801 0.62634349
0.041306395 0.019940972 0.62653321
0.041477125 0.018593192 0.62724388
0.041401148 0.017131507 0.62692761
0.041053031 0.015571862 0.62547857
0.041001409 0.01413843 0.62526375
0.040950034 0.012708634 0.62504983
0.04089867 0.011282384 0.62483603
0.040969804 0.0098892748 0.62513214
0.0413648 0.0085582435 0.62677628
0.041500967 0.007155329 0.62734312
0.041320387 0.0056993961 0.62659144
0.041021924 0.0042436719 0.6253491
0.040593185 0.0027995408 0.62356454
0.040542711 0.0013980269 0.62335443
0.040882193 -0 0.62476748
0.042664319 0.018487871 0.62626588
0.042610545 0.017044246 0.62604952
0.042556785 0.015604168 0.62583321
0.042503163 0.014167756 0.62561738
0.042449676 0.01273492 0.62540221
0.042396322 0.01130572 0.62518752
0.042343106 0.0098800361 0.62497342
0.042290017 0.0084579885 0.62475979
0.042237066 0.0070395172 0.62454677
0.042184364 0.0056245625 0.62433469
0.042131674 0.0042131841 0.62412268
