# .PCD v0.7 - Point Cloud Data file format
VERSION 0.7
FIELDS x y z
SIZE 4 4 4
TYPE F F F
COUNT 1 1 1
WIDTH 1345
HEIGHT 1
VIEWPOINT 0 0 0 1 0 0 0
POINTS 1345
DATA ascii
-0.023198048 0.018980235 0.70916629
-0.022910673 0.0166623 0.70601273
-0.022685366 0.014436126 0.70354033
-0.022504305 0.01227507 0.7015534
-0.022360492 0.010163873 0.69997519
-0.022249673 0.0080907941 0.69875914
-0.022105798 0.0060288906 0.69718027
-0.021697011 0.0039449632 0.69269437
-0.02149542 0.0019541681 0.69048214
-0.021455953 -0 0.69004911
-0.021587234 -0.0019624829 0.6914897
-0.022112815 -0.0040205121 0.69725728
-0.022263262 -0.006071806 0.69890827
-0.022389965 -0.0081418157 0.70029861
-0.022569457 -0.010258853 0.70226836
-0.022807194 -0.012440294 0.7048772
-0.02314109 -0.014726132 0.70854121
-0.023653353 -0.017202467 0.71416271
-0.024960304 -0.020422071 0.72850472
-0.025874261 -0.023522079 0.73853427
-0.023436995 0.032811791 0.73750746
-0.023067044 0.029987186 0.73304176
-0.022350017 0.026820034 0.72438651
-0.021628438 0.023791283 0.71567625
-0.021177055 0.021177053 0.71022755
-0.020848107 0.018763274 0.70625687
-0.020587673 0.016470164 0.70311314
-0.020385031 0.014269531 0.70066702
-0.020221416 0.012132853 0.69869202
-0.020091096 0.010045558 0.69711888
-0.019989721 0.0079959333 0.6958952
-0.019880749 0.0059642196 0.69457984
-0.019521318 0.003904283 0.6902411
-0.019315438 0.0019315779 0.68775588
-0.019266499 -0 0.68716514
-0.019350396 -0.0019350052 0.68817782
-0.019787347 -0.0039574802 0.69345236
-0.019972168 -0.0059916377 0.6956833
-0.020078762 -0.0080315173 0.69696999
-0.020223867 -0.010111928 0.69872159
-0.020423472 -0.012254089 0.70113105
-0.020695906 -0.014487118 0.70441961
-0.021094114 -0.016875267 0.70922643
-0.021832567 -0.019649327 0.7181403
-0.023124931 -0.023124933 0.73374057
-0.020835742 0.032411158 0.73405308
-0.02051043 0.029626161 0.7296899
-0.019890146 0.026520222 0.72137046
-0.01924506 0.023521751 0.71271843
-0.018842986 0.020936698 0.70732564
-0.018551348 0.018551379 0.70341414
-0.01831951 0.016284019 0.70030463
-0.018137116 0.014106661 0.69785833
-0.017990893 0.011993945 0.6958971
-0.017873855 0.0099299252 0.69432741
-0.017782172 0.0079031885 0.69309771
-0.01769636 0.0058988035 0.6919468
-0.017407414 0.0038683116 0.68807131
-0.017195048 0.0019105971 0.68522298
-0.01713003 -0 0.68435097
-0.017175307 -0.0019083619 0.68495828
-0.017476795 -0.0038837194 0.68900192
-0.017740769 -0.0059135854 0.69254237
-0.017829413 -0.0079241395 0.69373131
-0.017949158 -0.0099717379 0.69533741
-0.018111439 -0.012074292 0.69751394
-0.018329725 -0.014256448 0.70044172
-0.018642819 -0.016571403 0.70464098
-0.019163735 -0.019163698 0.71162766
-0.020498386 -0.022776008 0.72952843
-0.018297246 0.032020152 0.73068208
-0.018014718 0.029273927 0.72641897
-0.017484669 0.026226997 0.71842122
-0.01691501 0.02325815 0.70982575
-0.016562343 0.020702958 0.70450437
-0.016305832 0.018344015 0.70063394
-0.016102361 0.016102374 0.69756377
-0.01593994 0.013947457 0.69511306
-0.01581087 0.011858165 0.69316554
-0.015707076 0.0098169148 0.69159943
-0.015625224 0.0078126192 0.6903643
-0.01555491 0.0058331192 0.6893034
-0.015334315 0.0038335919 0.6859749
-0.015120174 0.0018900335 0.68274367
-0.015044591 -0 0.68160331
-0.015071045 -0.0018838644 0.68200243
-0.015246587 -0.0038116574 0.68465114
-0.015565979 -0.0058372617 0.68947047
-0.015639324 -0.0078196824 0.69057715
-0.015738139 -0.0098363459 0.6920681
-0.015868157 -0.01190111 0.69402993
-0.016046718 -0.014040858 0.69672418
-0.016293753 -0.016293734 0.70045167
-0.016673483 -0.018757641 0.70618129
-0.017919635 -0.022399515 0.72498429
-0.018195277 -0.025018483 0.72914344
-0.015819263 0.031638533 0.72739136
-0.015577586 0.02892983 0.72322375
-0.015131796 0.025940239 0.71553636
-0.014636609 0.023000389 0.70699716
-0.014332878 0.020475537 0.70175958
-0.014109942 0.018141329 0.6979152
-0.013934187 0.015924782 0.69488436
-0.013792671 0.013792694 0.69244409
-0.013679652 0.011725426 0.69049507
-0.013589054 0.0097064972 0.68893278
-0.013517153 0.0077241063 0.68769288
-0.013459807 0.0057685077 0.68670398
-0.013298873 0.0037997067 0.68392879
-0.013089437 0.0018699169 0.68031716
-0.013014196 -2.9802322e-08 0.67901969
-0.013022035 -0.0018602908 0.67915487
-0.013140114 -0.0037543178 0.68119109
-0.013440901 -0.0057604015 0.686378
-0.013508395 -0.0077190697 0.6875419
-0.013586419 -0.0097045898 0.6888873
-0.013692274 -0.011736214 0.69071269
-0.013831671 -0.013831645 0.69311649
-0.014024462 -0.016027957 0.69644111
-0.014311209 -0.018400103 0.70138592
-0.014902401 -0.02128914 0.71158063
-0.015634816 -0.024568975 0.72421068
-0.013399715 0.031266004 0.72417939
-0.013197144 0.028593808 0.72010398
-0.012829821 0.025659651 0.71271396
-0.012409742 0.022751212 0.70426267
-0.012151904 0.020253152 0.6990754
-0.011962053 0.017943084 0.69525576
-0.011813311 0.015751094 0.69226336
-0.01169322 0.013642102 0.68984735
-0.011596112 0.011596113 0.68789375
-0.011518165 0.0095984638 0.68632549
-0.011456323 0.0076375604 0.6850813
-0.011408693 0.0057043433 0.68412316
-0.011299795 0.0037666261 0.68193221
-0.011104522 0.001850754 0.67800361
-0.011031442 -0 0.6765334
-0.011023747 -0.0018372834 0.67637861
-0.011096396 -0.003698796 0.67784017
-0.011361804 -0.0056809187 0.68317974
-0.011432806 -0.0076218843 0.68460828
-0.011493252 -0.0095777512 0.68582428
-0.011575901 -0.011575878 0.68748713
-0.011685981 -0.013633639 0.68970174
-0.011835014 -0.015780032 0.69269997
-0.012048659 -0.018072963 0.69699818
-0.012420421 -0.020700693 0.70447743
-0.013204806 -0.024208844 0.72025818
-0.011036433 0.030902028 0.72104096
-0.010871314 0.028265417 0.71705467
-0.010577112 0.025385112 0.709952
-0.010230779 0.022507757 0.70159078
-0.010017753 0.020035535 0.69644785
-0.0098606059 0.017749101 0.69265401
-0.0097381668 0.015581071 0.68969804
-0.0096391141 0.01349473 0.6873067
-0.0095587894 0.011470526 0.68536752
-0.0094938958 0.0094939172 0.68380082
-0.009442226 0.0075538158 0.68255341
-0.0094023403 0.0056414008 0.6815905
-0.009328506 0.0037314296 0.67980796
-0.0091642123 0.0018328428 0.67584157
-0.00909214 -0 0.67410159
-0.0090773283 -0.0018154681 0.67374396
-0.0091250716 -0.0036500394 0.6748966
-0.00933035 -0.0055981874 0.67985249
-0.0094088465 -0.0075270832 0.68174756
-0.0094555374 -0.0094555318 0.6828748
-0.0095176976 -0.011421233 0.68437546
-0.0096019339 -0.013442695 0.68640912
-0.0097127985 -0.015540481 0.68908566
-0.0098698642 -0.01776576 0.69287753
-0.010121548 -0.020243108 0.69895375
-0.010844641 -0.023858219 0.71641076
-0.011041012 -0.026498407 0.72115153
-0.0087275421 0.030546397 0.71797484
-0.0085983369 0.027944595 0.71407568
-0.0083721029 0.025116295 0.70724845
-0.0080979262 0.022269309 0.69897449
-0.0079290178 0.019822538 0.69387722
-0.007804112 0.01755926 0.69010782
-0.0077073714 0.015414745 0.68718845
-0.0076289014 0.013350576 0.68482041
-0.0075651165 0.011347711 0.68289548
-0.0075134006 0.0093917549 0.68133485
-0.0074719992 0.0074719787 0.68008542
-0.0074397796 0.0055798292 0.67911315
-0.0073909317 0.0036954582 0.67763901
-0.0072610984 0.0018153191 0.67372096
-0.0071948757 -0 0.67172253
-0.007178979 -0.0017947257 0.67124277
-0.0072050807 -0.0036025643 0.67203051
-0.0073372563 -0.0055029392 0.67601919
-0.0074346117 -0.0074345767 0.67895716
-0.0074691544 -0.009336412 0.67999959
-0.0075154039 -0.011273086 0.68139529
-0.0075756544 -0.013257414 0.68321347
-0.0076580918 -0.015316188 0.68570137
-0.0077698771 -0.017482191 0.6890747
-0.0079383273 -0.019845784 0.69415814
-0.008497363 -0.023367763 0.71102858
-0.0086472631 -0.025941789 0.71555221
-0.0064711883 0.030198872 0.7149784
-0.0063764332 0.027631253 0.71116585
-0.006213835 0.024855345 0.70462334
-0.0060097855 0.022035867 0.69641304
-0.0058841961 0.019613981 0.6913597
-0.0057911435 0.017373443 0.68761551
-0.0057194745 0.015251935 0.68473178
-0.0056612119 0.013209522 0.68238747
-0.0056137028 0.011227399 0.68047589
-0.0055750688 0.0092917979 0.67892134
-0.0055439766 0.0073919892 0.6776703
-0.0055195955 0.0055195689 0.67668927
-0.0054885154 0.0036590099 0.67543876
-0.0053941403 0.0017980337 0.67164141
-0.0053405957 -0 0.66948694
-0.0053234929 -0.0017744899 0.66879874
-0.005335357 -0.0035569072 0.66927612
-0.0054057762 -0.0054057539 0.6721096
-0.0055080103 -0.0073439777 0.67622316
-0.0055321669 -0.0092202723 0.67719507
-0.0055644047 -0.011128813 0.67849231
-0.0056065531 -0.013081968 0.68018818
-0.0056618317 -0.015098214 0.68241245
-0.0057371375 -0.017211378 0.68544245
-0.0058456305 -0.019485444 0.68980801
-0.0060514086 -0.022188514 0.69808781
-0.0063875313 -0.025550097 0.71161234
-0.0042656148 0.029859334 0.71205056
-0.0042038118 0.027324796 0.70832044
-0.0041007129 0.024604261 0.70209783
-0.0039649648 0.021807343 0.6939047
-0.0038819697 0.019409806 0.68889552
-0.0038203339 0.017191499 0.68517548
-0.0037731309 0.015092522 0.68232656
-0.003734661 0.013071328 0.68000466
-0.0037032196 0.01110965 0.67810702
-0.0036775665 0.009193927 0.67655873
-0.0036568306 0.0073136985 0.67530715
-0.0036404284 0.0054606497 0.67431724
-0.0036227948 0.0036228001 0.67325294
-0.0035656239 0.0017828345 0.66980231
-0.0035247074 -2.9802322e-08 0.66733283
-0.0035094048 -0.0017546713 0.66640925
-0.0035148282 -0.0035148263 0.6667366
-0.0035491213 -0.0053236783 0.66880631
-0.003626484 -0.0072529912 0.67347562
-0.0036435565 -0.0091088712 0.67450601
-0.0036627064 -0.010988116 0.6756618
-0.0036888861 -0.012911081 0.67724192
-0.0037227268 -0.014890879 0.67928433
-0.0037682436 -0.016957104 0.68203157
-0.0038321842 -0.019160897 0.68589067
-0.0039376928 -0.021657348 0.69225872
-0.0041991905 -0.025195152 0.70804143
-0.0021090826 0.029527158 0.70918673
-0.0020788598 0.027025193 0.70553857
-0.0020298446 0.024358124 0.69962186
-0.0019621293 0.021583438 0.69144785
-0.0019209913 0.019209921 0.68648207
-0.0018904431 0.017014027 0.68279457
-0.0018670517 0.014936417 0.67997098
-0.0018479991 0.012935996 0.67767119
-0.0018323928 0.010994375 0.67578727
-0.0018196119 0.0090980828 0.67424452
-0.0018092424 0.0072369874 0.67299283
-0.0018009786 0.0054029524 0.67199528
-0.0017931624 0.0035863221 0.6710518
-0.0017680455 0.0017680526 0.66801989
-0.001744863 -0 0.66522157
-0.0017359279 -0.0017358959 0.66414291
-0.0017368739 -0.0034737289 0.66425717
-0.0017496893 -0.005249083 0.66580415
-0.0017898014 -0.0071592033 0.67064607
-0.0018001038 -0.00900051 0.67188966
-0.0018089807 -0.010853887 0.67296124
-0.0018206579 -0.012744576 0.67437077
-0.0018364413 -0.014691502 0.67627597
-0.0018567907 -0.016711116 0.6787324
-0.0018853074 -0.018853039 0.68217468
-0.0019291756 -0.021220922 0.68747002
-0.0020679568 -0.0248155 0.70422244
-0.0020951992 -0.027237564 0.70751083
0 0.029202342 0.70638585
0 0.026731998 0.70281589
0 0.024116993 0.69719589
0 0.021364182 0.68904185
0 0.019013971 0.68411702
0 0.016841382 0.68047923
0 0.014783442 0.67766285
0 0.012803495 0.67538631
0 0.010881454 0.6735152
0 0.0090042353 0.67197883
0 0.0071618557 0.67072648
0 0.0053464174 0.6697219
0 0.0035498738 0.6688512
0 0.001753509 0.66626894
0 2.9802322e-08 0.6631524
0 -0.0017179251 0.66197377
0 -0.0034335554 0.6618343
0 -0.0051804781 0.66304445
0 -0.0070621669 0.66771793
0 -0.0088946819 0.66933489
0 -0.010723025 0.67032886
0 -0.012586266 0.67164052
0 -0.014497399 0.67334718
0 -0.016480416 0.67563832
0 -0.018565655 0.67870498
0 -0.020834863 0.68323338
0 -0.023677945 0.69277978
0 -0.026806891 0.70351154
0.0020631817 0.02888459 0.703646
0.0020342348 0.026445061 0.7001518
0.0019900438 0.023880512 0.69481742
0.0019226596 0.021149278 0.68668348
0.001882208 0.018822044 0.68180054
0.0018524599 0.016672164 0.67820954
0.0018292041 0.014633626 0.6754024
0.001810519 0.012673616 0.6731469
0.001795131 0.010770828 0.67128938
0.0017824564 0.0089122951 0.66975945
0.0017720781 0.0070883036 0.66850662
0.0017637017 0.0052911043 0.66749561
0.0017568649 0.0035137236 0.66667032
0.0017395793 0.0017395914 0.66458374
0.001711687 5.9604645e-08 0.66121686
0.0017020797 -0.0017020404 0.66005707
0.0017036212 -0.0034072399 0.66024315
0.0017055549 -0.0051166415 0.66047657
0.0017382859 -0.00695315 0.66442758
0.0017582725 -0.0087913275 0.6668402
0.0017658866 -0.010595322 0.6677593
0.0017760029 -0.012432009 0.66898048
0.0017890973 -0.014312774 0.67056108
0.0018062185 -0.016255975 0.67262781
0.0018291841 -0.018291831 0.67540002
0.0018617859 -0.02047962 0.67933542
0.0019185313 -0.023022354 0.68618512
0.0020341356 -0.02644375 0.70013982
0.0040819617 0.028573722 0.70096612
0.0040252665 0.026164204 0.69754422
0.0039414461 0.023648679 0.69248527
0.0038070211 0.020938605 0.68437201
0.0037267888 0.018633932 0.67952955
0.0036680766 0.016506344 0.67598593
0.0036217065 0.014486849 0.67318726
0.0035846934 0.01254645 0.67095333
0.0035541379 0.010662436 0.66910911
0.0035288837 0.0088222027 0.6675849
0.0035081254 0.0070162416 0.66633201
0.003491272 0.0052369535 0.66531479
0.0034779978 0.0034780204 0.66451365
0.0034496908 0.0017248392 0.6628052
0.0034227066 -0 0.66117656
0.0034258235 -0.0017129481 0.66136467
0.0034289341 -0.0034289062 0.66155243
0.0034320387 -0.0051480532 0.66173983
0.0034351842 -0.006870389 0.66192961
0.003475968 -0.0086899102 0.66439116
0.0034902615 -0.010470748 0.66525382
0.0035089864 -0.012281418 0.66638398
0.0035334316 -0.014133722 0.66785938
0.0035647729 -0.016041487 0.66975099
0.0036066305 -0.018033147 0.67227733
0.0036642621 -0.020153403 0.67575568
0.0037558123 -0.022534877 0.68128121
0.0040137065 -0.026089102 0.69684654
0.0040717968 -0.028502554 0.70035261
0.0060577337 0.02826944 0.69834232
0.00597448 0.025889426 0.69499236
0.0058552986 0.023421168 0.69019699
0.0056542177 0.020732135 0.68210608
0.0055348799 0.018449634 0.67730427
0.0054479386 0.016343832 0.67380607
0.0053787162 0.014343262 0.67102075
0.0053235875 0.012421727 0.6688025
0.0052780821 0.010556161 0.66697156
0.0052403635 0.0087339282 0.66545391
0.0052092294 0.0069456697 0.66420114
0.0051838104 0.005183816 0.66317838
0.0051642992 0.0034428835 0.66239327
0.0051564761 0.0017188191 0.6620785
0.0051509375 -0 0.6618557
0.0051451116 -0.0017150342 0.66162121
0.0051438948 -0.003429234 0.66157228
0.0051473519 -0.0051473677 0.66171139
0.0051557319 -0.0068742931 0.66204858
0.0051691364 -0.0086152256 0.66258788
0.0051868735 -0.010373741 0.66330159
0.005201071 -0.012135834 0.66387284
0.005234662 -0.01395911 0.66522443
0.0052785645 -0.015835673 0.666991
0.0053348257 -0.017782748 0.66925478
0.0054128133 -0.019846946 0.67239273
0.0055277664 -0.022111028 0.67701805
0.0059173899 -0.025642037 0.69269532
0.0059997928 -0.027999014 0.69601089
0.0079918653 0.027971506 0.69577378
0.0078831408 0.025620222 0.69249272
0.0077327122 0.023198128 0.68795311
0.0074653379 0.020529687 0.67988443
0.0073075197 0.018268824 0.67512184
0.0071930657 0.01618439 0.67166787
0.0071018194 0.014203608 0.66891432
0.0070282496 0.012299448 0.6666941
0.006968007 0.010452002 0.66487616
0.0069179344 0.0086474419 0.66336501
0.0068925619 0.0068925917 0.66259938
0.0068595842 0.0051446855 0.66160417
0.0068328171 0.003416419 0.6607964
0.0068118409 0.0017029643 0.6601634
0.0067974045 -0 0.65972775
0.0067888731 -0.0016972125 0.65947032
0.0067862957 -0.0033931434 0.65939248
0.0067897253 -0.0050923228 0.65949607
0.0067994827 -0.0067994893 0.65979052
0.0068159006 -0.0085198581 0.66028595
0.0068403832 -0.010260612 0.66102475
0.0068726097 -0.012027055 0.66199726
0.0069146124 -0.013829201 0.66326481
0.006970434 -0.015683472 0.66494942
0.0070190066 -0.017547518 0.66641521
0.007111711 -0.019557178 0.66921282
0.0072458517 -0.021737546 0.67326081
0.0074980324 -0.024368614 0.68087107
0.0078911902 -0.027619183 0.69273567
0.0098856594 0.027679831 0.69325888
0.0097525166 0.025356531 0.69004452
0.0095747029 0.022979319 0.68575168
0.0092414292 0.020331144 0.67770576
0.0090457872 0.018091559 0.67298251
0.0089045102 0.016028136 0.66957182
0.0087917028 0.014066756 0.66684842
0.0087001044 0.01218012 0.66463703
0.0086478665 0.010377437 0.66337591
0.008584572 0.0085845888 0.66184783
0.0085325446 0.0068260431 0.66059172
0.0084902383 0.0050941408 0.65957046
0.0084564323 0.0033825934 0.65875423
0.0084292796 0.0016858876 0.6580987
0.0084106894 -0 0.65764987
0.0083993096 -0.0016798973 0.65737522
0.0083951382 -0.0033580363 0.65727448
0.0083981818 -0.0050388873 0.65734792
0.0084087392 -0.00672701 0.65760285
0.0084271776 -0.0084271729 0.65804797
0.0084551182 -0.010146141 0.65872252
0.0084925443 -0.011889547 0.65962613
0.0085415458 -0.013666451 0.6608091
0.0086043235 -0.01548776 0.66232467
0.0086879283 -0.017375857 0.66434306
0.0087944847 -0.019347847 0.66691554
0.0089121228 -0.021389037 0.66975558
0.009156364 -0.023806542 0.67565215
0.0097369542 -0.027263463 0.68966877
0.01174041 0.027394265 0.69079673
0.011583807 0.025098264 0.68764615
0.011382266 0.022764534 0.68359143
0.010983496 0.020136446 0.67556882
0.010750614 0.017917663 0.6708836
0.01058318 0.015874773 0.66751504
0.010455578 0.013940781 0.66494793
0.010369482 0.012097716 0.66321582
0.010278034 0.010278046 0.66137594
0.010202448 0.0085020661 0.65985531
0.01014011 0.0067600906 0.65860116
0.010089164 0.0050445795 0.6575762
0.010048203 0.0033493936 0.65675211
0.010015318 0.0016692281 0.65609062
0.0099924169 -0 0.65562987
0.0099778706 -0.0016629696 0.65533721
0.0099716736 -0.0033238828 0.65521246
0.0099738268 -0.004986912 0.65525585
0.0099846739 -0.0066564381 0.65547407
0.010004604 -0.0083371699 0.65587503
0.010034198 -0.010034174 0.65647042
0.010075857 -0.011755168 0.65730852
0.010130665 -0.013507515 0.65841115
0.010201131 -0.015301704 0.65982878
0.010291069 -0.017151773 0.66163826
0.010412352 -0.019089341 0.6640783
0.010578481 -0.021156967 0.66742051
0.010774536 -0.023344815 0.67136484
0.011522939 -0.026886851 0.68642157
0.011656716 -0.029141784 0.68911296
0.013557231 0.027114481 0.68838406
0.013378217 0.024845272 0.68529701
0.013156304 0.022553682 0.68147022
0.01269251 0.019945383 0.6734724
0.012423995 0.017748594 0.66884202
0.012256612 0.015758485 0.66595566
0.012111828 0.013842076 0.66345888
0.011983244 0.011983246 0.66124159
0.011877265 0.010180563 0.65941399
0.011789511 0.0084210634 0.65790081
0.011716864 0.0066953301 0.65664804
0.011657315 0.0049960017 0.65562111
0.011609057 0.0033168495 0.65478891
0.011570437 0.0016529262 0.65412295
0.011543059 -0 0.65365082
0.011525055 -0.0016464293 0.6533404
0.011516453 -0.0032904148 0.65319204
0.011517324 -0.0049359798 0.65320706
0.0115279 -0.0065873563 0.65338945
0.011548692 -0.0082490444 0.65374798
0.011579772 -0.0099255145 0.654284
0.011624044 -0.011624038 0.65504742
0.011683253 -0.013352305 0.65606838
0.01176006 -0.015120089 0.65739292
0.011857923 -0.016939908 0.65908051
0.011985172 -0.018833846 0.66127479
0.012157653 -0.020841718 0.66424918
0.012419017 -0.023063898 0.66875625
0.012870537 -0.025741071 0.6765424
0.013405354 -0.028725743 0.68576503
0.015337312 0.026840299 0.68602008
0.015136755 0.024597228 0.68299389
0.014897835 0.022346765 0.67938888
0.0143694 0.019757926 0.67141545
0.014092279 0.017615348 0.66723394
0.013890893 0.015627235 0.6641953
0.013712354 0.013712376 0.66150135
0.013566748 0.011870891 0.65930438
0.013446434 0.010084838 0.65748894
0.013346634 0.0083416402 0.65598309
0.013263756 0.0066318512 0.65473253
0.013195504 0.004948318 0.65370268
0.013139885 0.0032849908 0.6528635
0.013095437 0.0016368926 0.65219283
0.013063512 2.9802322e-08 0.65171111
0.01304172 -0.001630187 0.65138227
0.013030427 -0.0032576025 0.65121192
0.013029579 -0.0048860908 0.65119904
0.013039426 -0.0065196753 0.65134764
0.013060528 -0.0081628263 0.65166605
0.013093209 -0.0098199248 0.65215921
0.013140101 -0.011497587 0.65286672
0.013202162 -0.013202161 0.65380317
0.013282462 -0.014942765 0.65501481
0.013386985 -0.016733706 0.65659189
0.013520283 -0.018590391 0.65860325
0.013699682 -0.020549536 0.6613102
0.0139572 -0.022680432 0.66519582
0.014408087 -0.025214165 0.67199922
0.015127432 -0.028363943 0.68285322
0.017081752 0.026571631 0.68370342
0.016860528 0.0243541 0.6807363
0.016607702 0.022143602 0.67734534
0.016015122 0.019574046 0.66939747
0.015740873 0.017489851 0.66571921
0.015481819 0.0154818 0.66224474
0.015283156 0.013585031 0.65958017
0.015120839 0.011760682 0.65740311
0.01498643 0.0099909604 0.65560037
0.014874656 0.0082636774 0.65410125
0.014781595 0.0065695941 0.65285307
0.014704609 0.0049015284 0.65182054
0.014641548 0.0032536983 0.65097475
0.014591212 0.0016212761 0.65029961
0.014554569 -0 0.64980811
0.014528837 -0.0016143024 0.64946306
0.014514508 -0.0032254457 0.64927083
0.014511561 -0.0048371851 0.64923131
0.014520264 -0.0064534545 0.64934802
0.014541129 -0.0080783963 0.64962786
0.014574921 -0.0097166002 0.6500811
0.014624145 -0.011374354 0.65074134
0.014688876 -0.013056785 0.65160954
0.014772624 -0.014772624 0.65273279
0.014879324 -0.0165326 0.65416384
0.01501947 -0.018357098 0.65604353
0.015199794 -0.020266354 0.65846211
0.015454722 -0.022323459 0.66188127
0.015882442 -0.024706006 0.66761792
0.01680585 -0.028009742 0.68000293
0.016999409 -0.030221164 0.68259907
0.018791685 0.026308388 0.68143368
0.01855056 0.024115771 0.678523
0.01828656 0.021943867 0.67533624
0.017726369 0.019499034 0.66857409
0.017329637 0.017329633 0.66378516
0.017043408 0.015339047 0.66033006
0.016825056 0.01346004 0.65769428
0.016646327 0.01165241 0.65553689
0.016497968 0.0098988116 0.65374601
0.016374331 0.0081871748 0.65225363
0.016271137 0.0065084696 0.65100789
0.016185503 0.0048556626 0.64997423
0.016115025 0.003223002 0.64912349
0.016058598 0.0016058683 0.64844233
0.016017165 -0 0.64794219
0.015987225 -0.0015987456 0.6475808
0.01596952 -0.0031938553 0.64736706
0.015964171 -0.0047892332 0.64730251
0.015971253 -0.0063884854 0.64738798
0.015991876 -0.0079959333 0.64763695
0.016026245 -0.0096157491 0.6480518
0.01607676 -0.011253744 0.64866161
0.016143622 -0.012914926 0.64946872
0.016230391 -0.01460737 0.65051615
0.016340856 -0.016340882 0.65184951
0.016481502 -0.018129647 0.65354723
0.016668176 -0.020001799 0.65580058
0.016920356 -0.021996439 0.65884471
0.017309375 -0.024233133 0.6635406
0.018385604 -0.027578443 0.67653179
0.018606089 -0.029769719 0.67919338
0.020467993 0.02605018 0.6792075
0.020207902 0.023882061 0.67635334
0.019934246 0.021746457 0.67335033
0.019323207 0.0193232 0.66664493
0.018889494 0.017172277 0.6618855
0.01857765 0.0151999 0.65846348
0.018338842 0.013337314 0.65584284
0.018143995 0.011546165 0.65370464
0.01798187 0.0098083019 0.65192556
0.017846541 0.0081120729 0.65044045
0.017733267 0.0064484477 0.64919746
0.01763887 0.0048106313 0.64816153
0.017560979 0.0031929016 0.6473068
0.017499562 0.0015908778 0.64663279
0.017452009 2.9802322e-08 0.64611101
0.017417712 -0.0015834272 0.64573467
0.017396847 -0.0031630695 0.64550567
0.017389646 -0.0047426224 0.64542663
0.017395748 -0.0063256919 0.64549357
0.017415563 -0.0079161823 0.64571106
0.01744974 -0.0095180273 0.64608616
0.017498894 -0.011135697 0.64662552
0.017567089 -0.012776077 0.64737386
0.017656071 -0.014445871 0.6483503
0.017769678 -0.016154259 0.64959699
0.017913572 -0.01791355 0.65117604
0.018099187 -0.019744545 0.65321296
0.018348686 -0.021684825 0.65595084
0.018712055 -0.023815364 0.6599384
0.019565757 -0.026680589 0.66930664
0.020279679 -0.029497713 0.67714095
0.022111718 0.025797009 0.6770246
0.021833356 0.023652792 0.67422456
0.021661876 0.021661907 0.67249954
0.020891512 0.019150585 0.66475034
0.020421343 0.017017812 0.66002077
0.020084642 0.015063465 0.65663385
0.019825343 0.013216883 0.6540255
0.0196146 0.011441857 0.65190554
0.019438889 0.0097194314 0.65013808
0.01929199 0.008038342 0.64866036
0.019168625 0.0063895583 0.64741939
0.019065518 0.0047663748 0.64638221
0.018981379 0.0031635463 0.64553583
0.01891423 0.0015761852 0.64486039
0.018860284 -0 0.64431769
0.018822445 -0.001568526 0.64393711
0.018798519 -0.0031330884 0.64369643
0.018788578 -0.0046971142 0.64359641
0.018792635 -0.0062642097 0.64363724
0.018811122 -0.007837981 0.64382321
0.018844657 -0.0094223022 0.64416051
0.018893875 -0.011021435 0.64465564
0.018962376 -0.012641579 0.64534467
0.019051483 -0.014288604 0.64624107
0.019166423 -0.015972018 0.64739728
0.019313211 -0.017703772 0.64887387
0.019499492 -0.019499481 0.65074766
0.01974684 -0.021392405 0.65323585
0.020095734 -0.02344498 0.65674537
0.020718785 -0.025898457 0.6630128
0.022275867 -0.029701144 0.67867583
0.022297872 -0.031588614 0.6788972
0.023723887 0.025548816 0.67488456
0.023620078 0.023620069 0.67392069
0.023499843 0.021692187 0.67280424
0.022432037 0.01898095 0.66288918
0.021925876 0.016866058 0.6581893
0.021564823 0.014929503 0.65483671
0.021285169 0.013098568 0.65224004
0.021058934 0.011339426 0.65013933
0.020869814 0.0096322298 0.64838326
0.020711396 0.0079659522 0.64691222
0.020578122 0.006331712 0.64567482
0.020467464 0.0047232807 0.64464724
0.020376546 0.0031348765 0.643803
0.020303022 0.0015617907 0.64312029
0.020243941 -0 0.64257169
0.020201566 -0.0015539825 0.6421783
0.020173872 -0.0031036437 0.6419211
0.020160867 -0.0046525002 0.6418004
0.020162554 -0.00620386 0.64181602
0.02017938 -0.0077612698 0.6419723
0.020211797 -0.0093285143 0.64227331
0.020260841 -0.010909677 0.64272869
0.020329673 -0.012510538 0.64336777
0.020419916 -0.014136881 0.64420575
0.02053505 -0.015796185 0.64527482
0.020680578 -0.01749891 0.64662611
0.020869011 -0.019263685 0.64837581
0.021110533 -0.021110564 0.65061843
0.02144658 -0.023096323 0.6537388
0.02198457 -0.025366783 0.65873426
0.02429969 -0.029907286 0.68023115
0.025585009 0.025584996 0.67519671
0.025609888 0.023780644 0.67541128
0.025129491 0.021539569 0.67126918
0.023945596 0.018814415 0.66106141
0.02340382 0.016717017 0.65639013
0.023018904 0.014797866 0.65307128
0.022719083 0.012982309 0.65048623
0.022477854 0.011238933 0.64840627
0.022275781 0.0095467567 0.64666402
0.022106225 0.0078950822 0.64520204
0.021963786 0.0062754154 0.64397389
0.021844815 0.0046810508 0.64294809
0.021746619 0.0031066835 0.64210141
0.021666642 0.0015476644 0.64141184
0.021602364 -2.9802322e-08 0.6408577
0.021555236 -0.0015396476 0.64045125
0.021523643 -0.003074795 0.64017886
0.021507386 -0.0046086907 0.64003873
0.021506462 -0.0061447322 0.64003074
0.021521198 -0.007686168 0.64015782
0.021552185 -0.0092366636 0.64042503
0.0216005 -0.010800213 0.64084154
0.021669256 -0.012382418 0.64143437
0.021759588 -0.013988316 0.64221323
0.02187565 -0.015625447 0.64321399
0.022022065 -0.01730305 0.64447635
0.022206368 -0.019033998 0.64606547
0.022448391 -0.020844966 0.64815229
0.022770928 -0.022770941 0.65093321
0.023258278 -0.024919569 0.65513521
0.027626928 0.023943365 0.67692226
0.026757337 0.021405905 0.66992432
0.025432739 0.018650681 0.6592648
0.024855787 0.016570538 0.65462184
0.024448046 0.014668822 0.6513406
0.024128942 0.012868762 0.6487726
0.023871843 0.011140198 0.64670372
0.02365732 0.0094629228 0.64497733
0.023476832 0.0078255832 0.64352489
0.023325004 0.0062200129 0.64230305
0.023197755 0.0046395957 0.64127904
0.023092337 0.0030789673 0.64043069
0.023005769 0.0015337169 0.63973403
0.022936169 -0 0.63917392
0.022884276 -0.0015256107 0.63875633
0.022848537 -0.003046453 0.63846874
0.02282887 -0.0045657754 0.63831049
0.022824982 -0.0060866773 0.6382792
0.022837205 -0.0076124072 0.63837755
0.022866359 -0.0091465116 0.63861215
0.022913758 -0.010693043 0.63899362
0.022982379 -0.012257278 0.6395458
0.02307239 -0.013843417 0.64027011
0.023188153 -0.015458763 0.64120179
0.023334501 -0.017111957 0.64237952
0.023519281 -0.018815428 0.64386648
0.023754133 -0.020586878 0.64575636
0.024068277 -0.022463709 0.64828444
0.024517126 -0.024517119 0.65189654
0.025407083 -0.027100891 0.65905833
0.028365104 0.021273792 0.66859609
0.026894495 0.018489957 0.65750122
0.026283307 0.01642707 0.65289015
0.025852481 0.014542013 0.64963984
0.025515238 0.012757629 0.64709556
0.025241554 0.011043191 0.64503074
0.025014725 0.0093805194 0.64331943
0.024823606 0.0077573657 0.64187759
0.024662405 0.0061656237 0.64066136
0.024526933 0.0045987964 0.63963932
0.024414213 0.0030517876 0.63878894
0.024321277 0.0015200973 0.63808781
0.024246145 -0 0.63752097
0.024189297 -0.0015118122 0.63709211
0.024149528 -0.0030186772 0.63679206
0.024126021 -0.0045236349 0.63661468
0.024118824 -0.0060296953 0.63656044
0.024129003 -0.0075403154 0.63663721
0.024157545 -0.0090590715 0.6368525
0.02420436 -0.010589391 0.63720572
0.024270181 -0.012135088 0.63770229
0.024359094 -0.013702005 0.63837314
0.024473472 -0.015295953 0.63923597
0.024619481 -0.016925871 0.64033753
0.024803149 -0.018602341 0.64172322
0.02503561 -0.020341456 0.64347702
0.025339345 -0.022171944 0.64576852
0.025760641 -0.02415058 0.64894694
0.026465951 -0.026465952 0.65426809
0.028331652 0.018332243 0.65577042
0.027687224 0.016286612 0.65119457
0.027232843 0.01441741 0.64796817
0.026877794 0.012648404 0.64544713
0.026587615 0.010947853 0.64338672
0.026348695 0.0092995763 0.64169019
0.026147019 0.0076902807 0.64025819
0.025976621 0.0061121285 0.63904828
0.025832882 0.004558742 0.63802761
0.025712935 0.0030250549 0.63717592
0.025613599 0.0015066862 0.63647056
0.025532791 2.9802322e-08 0.6358968
0.025471242 -0.001498282 0.63545978
0.025427004 -0.0029913783 0.6351456
0.025399445 -0.0044822395 0.63494992
0.025390649 -0.005974263 0.63488752
0.025399217 -0.0074703693 0.63494831
0.025425486 -0.0089737177 0.63513482
0.025470328 -0.010487765 0.63545322
0.02553509 -0.012016505 0.63591307
0.02562301 -0.013565093 0.63653737
0.025736352 -0.015139043 0.63734215
0.025879409 -0.016745508 0.638358
0.026059626 -0.018395036 0.63963765
0.026289735 -0.020103902 0.64127153
0.026583379 -0.02189219 0.64335656
0.026985491 -0.023810714 0.64621186
0.027599454 -0.025975972 0.65057141
0.029744498 0.018177181 0.65406895
0.029067334 0.016148537 0.64952779
0.028589742 0.014294833 0.64632499
0.028217213 0.012540996 0.64382678
0.027912192 0.010854751 0.64178121
0.027659828 0.0092199445 0.64008886
0.027447823 0.0076243877 0.63866717
0.027268158 0.0060596168 0.6374622
0.027116358 0.004519403 0.63644427
0.02698919 0.0029987991 0.63559139
0.026883334 0.0014935136 0.63488156
0.02679687 -0 0.63430172
0.026730539 -0.0014849901 0.63385689
0.026681839 -0.0029646456 0.63353026
0.026652388 -0.0044420362 0.63333279
0.026640484 -0.0059201121 0.63325298
0.026646079 -0.0074017048 0.63329053
0.02666983 -0.0088899434 0.63344979
0.026712544 -0.010388225 0.63373625
0.02677552 -0.011900216 0.63415849
0.026861927 -0.013430983 0.63473797
0.026974076 -0.014985621 0.63549012
0.027116114 -0.016570956 0.6364426
0.027293859 -0.018195897 0.63763463
0.027516169 -0.019872785 0.63912547
0.027805854 -0.02162677 0.6410681
0.028185161 -0.023487657 0.64361179
0.028747248 -0.025553137 0.64738125
0.030154398 -0.028479159 0.65681779
0.031133542 0.018024683 0.65239531
0.030424239 0.016012788 0.64788896
0.029923776 0.014174432 0.64470947
0.029534081 0.012435406 0.64223361
0.029215056 0.010763466 0.64020681
0.028948884 0.009141773 0.63851571
0.028726438 0.0075596273 0.63710254
0.028537763 0.0060079694 0.63590384
0.028377868 0.0044807196 0.63488799
0.028243652 0.0029730201 0.63403529
0.028131077 0.0014805794 0.63332009
0.02803923 2.9802322e-08 0.63273656
0.027968207 -0.0014719963 0.63228536
0.027916795 -0.002938658 0.63195872
0.027883308 -0.0044026077 0.63174593
0.027867777 -0.005866915 0.63164735
0.027870227 -0.0073342621 0.63166285
0.027891157 -0.008807689 0.63179582
0.027931394 -0.010290504 0.63205147
0.02799217 -0.011786163 0.63243759
0.028076576 -0.013299406 0.63297379
0.02818696 -0.014835238 0.6336751
0.028327391 -0.016400069 0.63456732
0.028503368 -0.018002123 0.63568532
0.028722964 -0.019652545 0.63708049
0.028999835 -0.021368295 0.63883948
0.029368304 -0.023185521 0.64118046
0.029884739 -0.025166094 0.64446145
0.030815853 -0.027572095 0.65037704
0.032499578 0.017874777 0.65075022
0.031758517 0.015879244 0.64627755
0.031235516 0.014055997 0.64312094
0.030828958 0.012331605 0.64066708
0.030496189 0.010673672 0.6386587
0.030217994 0.0090653896 0.6369797
0.029984035 0.0074960291 0.63556755
0.029786265 0.0059572458 0.6343739
0.029618496 0.0044427812 0.63336134
0.029476639 0.0029476583 0.63250518
0.029357392 0.0014678836 0.63178545
0.029262105 -0 0.63121039
0.029186234 -0.0014593005 0.63075244
0.029130245 -0.002913028 0.63041455
0.029092645 -0.0043638945 0.63018757
0.029073205 -0.0058146417 0.63007027
0.029072277 -0.0072680712 0.63006461
0.029090023 -0.0087270141 0.63017178
0.029127447 -0.0101946 0.63039756
0.029185893 -0.011674345 0.63075036
0.029268438 -0.013170809 0.63124859
0.029376525 -0.014688253 0.63190091
0.029514283 -0.016232818 0.63273239
0.029687472 -0.017812461 0.63377768
0.02990447 -0.019437909 0.63508737
0.030175896 -0.021123141 0.6367256
0.030526608 -0.022894979 0.63884228
0.031004706 -0.024803787 0.64172786
0.031785753 -0.027017891 0.64644194
0.033846565 0.017729193 0.64915228
0.033070732 0.015747964 0.64469272
0.032525517 0.01393953 0.64155871
0.032102298 0.012229472 0.63912606
0.031756222 0.010585427 0.63713676
0.031466078 0.0089903474 0.63546896
0.03122149 0.0074337125 0.63406301
0.031014327 0.0059075058 0.63287228
0.030838197 0.0044054687 0.63185984
0.030688778 0.0029227436 0.63100094
0.030565403 0.0014555156 0.63029176
0.030464292 -0 0.62971056
0.030383512 -0.0014468431 0.62924623
0.030322749 -0.0028878748 0.62889695
0.030280806 -0.0043258369 0.62865585
0.030257436 -0.0057633221 0.6285215
0.030252732 -0.0072030127 0.6284945
0.030267198 -0.0086477697 0.62857765
0.030302286 -0.010100782 0.62877929
0.03036016 -0.011565745 0.62911201
0.03044055 -0.013045937 0.62957412
0.030546656 -0.014546007 0.63018399
0.03068134 -0.016071171 0.63095814
0.030849608 -0.017628342 0.6319254
0.031060811 -0.019228101 0.63313943
0.031327795 -0.02088517 0.63467407
0.031665117 -0.022617936 0.63661307
0.032120939 -0.024473071 0.63923317
0.03280108 -0.026553273 0.64314276
0.035173021 0.017586529 0.647587
0.034361426 0.015618831 0.64313388
0.033794314 0.01382497 0.64002222
0.033354815 0.012129009 0.63761079
0.032995488 0.010498554 0.63563919
0.032693658 0.0089164674 0.63398308
0.032438539 0.0073724091 0.63258332
0.032222141 0.0058586001 0.63139594
0.032037862 0.004368782 0.6303848
0.031882897 0.0028984547 0.62953454
0.031753313 0.0014433265 0.62882358
0.031646416 -0 0.62823701
0.031560488 -0.0014345348 0.62776554
0.031494841 -0.0028631687 0.62740541
0.031448413 -0.0042884052 0.62715065
0.031420857 -0.0057128668 0.62699938
0.03141243 -0.0071391761 0.62695312
0.031425253 -0.0085705221 0.62702358
0.031459197 -0.010009736 0.62720978
0.031514317 -0.011459738 0.62751222
0.031592194 -0.012924075 0.62793952
0.031695712 -0.014407128 0.62850749
0.03182786 -0.015913934 0.62923259
0.031993445 -0.017450958 0.63014114
0.032198954 -0.019026667 0.63126874
0.032454513 -0.02065289 0.63267094
0.032784995 -0.022353381 0.63448423
0.03321011 -0.024152786 0.6368168
0.033827648 -0.026139557 0.64020514
0.035088487 -0.028708786 0.64712316
0.036478188 0.017446101 0.64604604
0.035631128 0.015491784 0.64160043
0.035043385 0.013712645 0.63851577
0.034586933 0.012030244 0.6361202
0.034214586 0.01041317 0.634166
0.033901531 0.008843869 0.63252306
0.033636272 0.0073122382 0.63113087
0.033411082 0.0058106482 0.62994897
0.033219643 0.0043330193 0.62894422
0.033057611 0.002874583 0.62809384
0.03292153 0.0014313757 0.62737966
0.03280881 -0 0.62678808
0.032717586 -0.0014224946 0.62630934
0.032646954 -0.00283885 0.62593865
0.032596003 -0.0042516291 0.62567121
0.032564182 -0.0056633055 0.6255042
0.032554142 -0.0070769489 0.62545151
0.032564826 -0.008495152 0.62550759
0.032595541 -0.0099203885 0.62566876
0.032647602 -0.011355698 0.62594199
0.032722611 -0.012804478 0.62633568
0.032823034 -0.014270872 0.62686276
0.03295226 -0.015759766 0.62754095
0.03311459 -0.017277151 0.62839293
0.033316389 -0.018831015 0.62945199
0.03356652 -0.020431787 0.63076472
0.033879276 -0.022095174 0.63240618
0.034293298 -0.023856193 0.63457912
0.034862384 -0.025767833 0.63756579
0.035827357 -0.0280388 0.64263028
0.037762795 0.017307967 0.64453012
0.036882035 0.015367538 0.64010024
0.03627364 0.013602614 0.63704026
0.035799138 0.011933059 0.63465369
0.035414007 0.010329098 0.63271666
0.035090003 0.0087725222 0.63108701
0.034815121 0.00725317 0.62970448
0.034581423 0.0057635903 0.62852901
0.034382213 0.0042977929 0.62752712
0.034213137 0.0028511286 0.62667674
0.034070641 0.0014196038 0.62595999
0.033951964 -0 0.62536311
0.033855479 -0.0014106631 0.62487781
0.033779766 -0.0028149784 0.62449706
0.033724081 -0.0042155385 0.62421691
0.033695411 -0.00561589 0.62407279
0.033699002 -0.0070206225 0.62409085
0.033715844 -0.008428961 0.62417555
0.033746354 -0.009842664 0.62432897
0.03379108 -0.011263669 0.62455392
0.033850897 -0.012694091 0.6248548
0.033929322 -0.014137208 0.62524927
0.034054987 -0.015608549 0.62588131
0.034213528 -0.017106742 0.62667865
0.034411177 -0.018639386 0.62767279
0.034656473 -0.020216286 0.62890655
0.034961384 -0.021850854 0.63044012
0.035351455 -0.023567617 0.632402
0.035879251 -0.025414437 0.63505661
0.03670628 -0.027529657 0.63921624
0.039027218 0.017171979 0.64303797
0.038113385 0.015245378 0.63862562
0.037484311 0.013494343 0.63558817
0.036991917 0.011837423 0.63321066
0.036594216 0.010246396 0.63129044
0.036259443 0.0087022781 0.62967402
0.035975073 0.0071949959 0.62830096
0.035732854 0.0057172477 0.6271314
0.03552603 0.0042631328 0.62613279
0.035349939 0.0028280318 0.62528253
0.03520092 0.0014080703 0.62456298
0.035125602 -0 0.62419939
0.035069667 -0.0014027953 0.62392926
0.035027537 -0.0028021932 0.62372583
0.035000488 -0.0042000711 0.62359524
0.034988251 -0.0055981278 0.62353611
0.034990009 -0.0069980025 0.62354469
0.035005875 -0.0084013939 0.62362123
0.035036366 -0.0098101795 0.62376845
0.035082057 -0.011226237 0.62398911
0.035143957 -0.012651831 0.6242879
0.035222627 -0.014089048 0.62466782
0.035319496 -0.01554057 0.62513554
0.03543606 -0.017009288 0.62569833
0.035574123 -0.01849854 0.62636501
0.035736222 -0.020012259 0.62714767
0.036021899 -0.021613121 0.62852705
0.03639628 -0.023293644 0.63033473
0.036895465 -0.025088936 0.63274497
0.037626039 -0.027090728 0.63627255
0.040271807 0.017038107 0.64156854
0.039325189 0.015125066 0.63717371
0.038675863 0.013387829 0.63415909
0.038165729 0.011743307 0.63179064
0.037755791 0.010165006 0.62988746
0.037410311 0.0086331666 0.62828344
0.037116576 0.0071378052 0.62691969
0.036865927 0.00567168 0.62575603
0.036699425 0.0042345524 0.62498301
0.036591969 0.0028147697 0.62448418
0.036500186 0.0014038384 0.62405801
0.036423948 -0 0.62370402
0.036362555 -0.0013985634 0.62341905
0.036333818 -0.0027949214 0.62328559
0.036372926 -0.0041968524 0.62346721
0.03641212 -0.0056018829 0.62364912
0.036451299 -0.0070098341 0.62383103
0.036490664 -0.0084208846 0.62401378
0.03653001 -0.009834975 0.62419647
0.036569543 -0.011252165 0.62437999
0.036609061 -0.012672335 0.62456346
0.036648765 -0.014095664 0.62474787
0.036688559 -0.015522093 0.62493259
0.036733314 -0.016953856 0.62514031
0.036878157 -0.018439084 0.62581283
0.037048716 -0.019949287 0.62660468
0.037248034 -0.021489263 0.6275301
0.037479933 -0.023064554 0.62860674
0.037889834 -0.024774104 0.63050973
0.038552657 -0.026690304 0.633587
0.039761491 -0.029056489 0.63919938
0.04149726 0.016906291 0.64012241
0.040518511 0.01500687 0.63574672
0.039848749 0.013282925 0.63275236
0.039321251 0.011650771 0.63039398
0.038898949 0.010084927 0.62850595
0.038543038 0.0085651278 0.62691486
0.038301975 0.0070929825 0.62583709
0.038148504 0.0056516528 0.62515092
0.038014002 0.0042237639 0.62454963
0.037897341 0.0028072298 0.62402803
0.037893936 0.0014035106 0.62401283
0.050303593 -0 0.67949349
0.049941901 -0.0018497109 0.67787653
0.049772624 -0.0036868453 0.67711967
0.049816489 -0.0055351853 0.67731583
0.03809955 -0.0056443512 0.62493205
0.038140964 -0.0070631206 0.62511718
0.038182355 -0.0084849596 0.62530231
0.050098211 -0.012988418 0.67857534
0.049606863 -0.014698327 0.67637855
0.04870408 -0.016234696 0.67234248
0.049239285 -0.018236786 0.67473519
0.048912507 -0.019927293 0.67327428
0.038623035 -0.01716581 0.62727249
0.038475093 -0.018525034 0.62661105
0.038517322 -0.019971967 0.62679988
0.038562734 -0.021423757 0.62700284
0.038807429 -0.022996992 0.62809688
0.039092775 -0.024613947 0.6293726
0.039491255 -0.026327491 0.63115406
0.04047396 -0.028481692 0.63554752
0.042703904 0.016776532 0.63869858
0.041694563 0.014890939 0.6343472
0.041003399 0.01317969 0.6313675
0.040459756 0.011559933 0.62902379
0.040032461 0.010008097 0.62718171
0.039821047 0.0085331202 0.62627023
0.039633259 0.0070773959 0.62546068
0.039467569 0.005638212 0.62474638
0.039510421 0.0042332411 0.62493116
0.051628608 0.0036877692 0.67717379
0.051803093 0.0018501282 0.677926
0.051756013 -0 0.67772305
0.05140074 -0.0018357337 0.67619145
0.051190577 -0.0036564469 0.6752854
0.051212475 -0.0054870546 0.67537981
0.051522475 -0.007360369 0.67671621
0.051816124 -0.009252876 0.67798215
0.051742442 -0.011087656 0.67766458
0.051560778 -0.01289022 0.67688137
0.051162727 -0.01461792 0.67516536
0.050088994 -0.016100019 0.6705364
0.050605539 -0.01807341 0.67276323
0.05038134 -0.019792646 0.67179668
0.040163983 -0.017213136 0.62774873
0.040208247 -0.018668115 0.62793952
0.040252838 -0.020126402 0.62813175
0.048277359 -0.025862902 0.66272628
0.04034197 -0.023052543 0.62851602
0.040434416 -0.024549484 0.62891459
0.040798258 -0.026227444 0.63048315
0.041269604 -0.028004348 0.63251513
0.043892033 0.01664871 0.63729572
0.042852584 0.014776766 0.63296908
0.042140353 0.013078064 0.63000453
0.041652266 0.011490285 0.62797284
0.041395362 0.0099919736 0.62690353
0.041167289 0.0085173547 0.62595415
0.041144524 0.0070939064 0.62585938
0.041189607 0.0056813359 0.62604713
0.041234557 0.0042656362 0.62623417
0.053008161 0.0036557019 0.67524111
0.05319608 0.0018343627 0.67602324
0.053185552 -0 0.67597944
0.052837528 -0.001821965 0.6745308
0.052587826 -0.0036267638 0.67349148
0.052588589 -0.0054402053 0.67349464
0.05284927 -0.0072895885 0.67457974
0.053210519 -0.0091741979 0.67608333
0.053172104 -0.01100111 0.67592347
0.052994225 -0.012791693 0.67518306
0.05266723 -0.0145289 0.67382199
0.051482525 -0.015977323 0.66889071
0.051753365 -0.017845988 0.67001808
0.051829342 -0.01965937 0.67033434
0.051411569 -0.021273732 0.66859531
0.050936207 -0.022833467 0.66661668
0.05039401 -0.024328172 0.66435981
0.049749378 -0.025732428 0.66167659
0.042860303 -0.02364704 0.63300127
0.042570218 -0.024954945 0.63179374
0.042203229 -0.026195109 0.63026619
0.042631499 -0.027930945 0.63204885
0.043716688 -0.03014943 0.63656586
0.04506233 0.016522855 0.63591474
0.043992981 0.014664322 0.631612
0.043353371 0.013006002 0.62903845
0.043038759 0.011476994 0.62777251
0.04279666 0.0099858642 0.62679839
0.043096837 0.0086193383 0.62800622
0.0531695 0.0088616014 0.66853547
0.052865956 0.0070487857 0.66731411
0.052963324 0.0052963793 0.66770589
0.054363962 0.0036242902 0.67334163
0.054559186 0.0018186271 0.67412716
0.054589346 2.9802322e-08 0.67424846
0.054253146 -0.0018084347 0.67289567
0.053978257 -0.003598541 0.67178971
0.053941596 -0.0053941309 0.67164212
0.054150589 -0.0072200596 0.67248303
0.054565929 -0.0090942979 0.67415428
0.054579817 -0.010915965 0.67421019
0.054406129 -0.012694746 0.67351127
0.054127354 -0.01443398 0.67238957
0.052892782 -0.015867829 0.66742206
0.052932136 -0.017644018 0.66758037
0.053257216 -0.019527674 0.66888839
0.052843437 -0.021137357 0.66722351
0.052371275 -0.0226942 0.66532362
0.051834162 -0.024189264 0.66316247
0.05121186 -0.025605917 0.66065854
0.044244152 -0.023596883 0.63262266
0.043953307 -0.024906874 0.63145238
0.044002913 -0.026401758 0.631652
0.044052631 -0.02790001 0.63185203
0.044684183 -0.029789448 0.63439322
0.046214931 0.016398877 0.63455385
0.045165554 0.014569521 0.63046777
0.044773914 0.012998879 0.62894273
0.044516016 0.011487991 0.62793851
0.044565257 0.010063142 0.62813026
0.054249283 0.010499865 0.66583884
0.05450109 0.008790493 0.66681933
0.054206438 0.0069943964 0.665672
0.054251939 0.0052501559 0.66584915
0.055696618 0.0035933256 0.67147464
0.055898946 0.0018031895 0.67226243
0.055957425 -0 0.67249012
0.055659845 -0.0017954707 0.67133141
0.055347435 -0.0035707653 0.67011487
0.055271897 -0.0053489208 0.66982079
0.055447154 -0.0071544647 0.6705032
0.055886257 -0.009013921 0.67221308
0.055955004 -0.010830015 0.6724807
0.055793982 -0.012598634 0.67185378
0.055551603 -0.014335901 0.67090988
0.054345269 -0.015777677 0.66621262
0.054140028 -0.017464489 0.66541338
0.054658186 -0.019394845 0.66743106
0.054254789 -0.021001846 0.66586024
0.053788945 -0.022556633 0.66404629
0.05325596 -0.02405104 0.66197091
0.052647699 -0.025474668 0.6596024
0.051947009 -0.026811361 0.656874
0.045779273 -0.025104731 0.63285744
0.045831215 -0.026611686 0.63305974
0.04588341 -0.028122127 0.63326305
0.046168156 -0.029785872 0.63437182
0.047350496 0.016276747 0.63321388
0.046634726 0.014573336 0.63051385
0.046258155 0.013010114 0.62909341
0.053266473 0.013316631 0.65553021
0.053245042 0.011647344 0.65544933
0.055512331 0.01040858 0.66400206
0.055802729 0.0087191761 0.66509748
0.05553139 0.0069414377 0.66407388
0.055517141 0.0052047372 0.66402018
0.057006717 0.0035629272 0.66963911
0.057216339 0.0017880499 0.67042989
0.05730357 -0 0.67075896
0.057047948 -0.0017827451 0.66979468
0.056695655 -0.0035434961 0.66846573
0.056588057 -0.0053051114 0.66805983
0.056733824 -0.0070917308 0.66860974
0.057182215 -0.0089347064 0.67030114
0.057305414 -0.01074478 0.67076588
0.057159759 -0.012503713 0.67021644
0.056934759 -0.014233679 0.66936773
0.05628727 -0.015830815 0.66692525
0.055393837 -0.01731056 0.66355503
0.055997301 -0.019249052 0.66583145
0.055642352 -0.020865887 0.66449249
0.055184018 -0.022418499 0.6627636
0.054661039 -0.023914218 0.6607908
0.054058857 -0.02534008 0.65851927
0.053360913 -0.02668044 0.65588641
0.05255419 -0.027919412 0.6528433
0.04905612 -0.02759409 0.63964784
0.04885241 -0.029006124 0.63887942
0.047798302 -0.029873967 0.63490307
0.048689377 0.016229779 0.63269877
0.048126969 0.014583915 0.63064152
0.050443996 0.013757467 0.63911694
0.054494683 0.013210833 0.653934
0.054458376 0.011551768 0.6538012
0.056753598 0.010318875 0.66219687
0.057081643 0.0086487532 0.66339684
0.056838971 0.0068895817 0.6625092
0.056767061 0.0051606596 0.66224611
0.058294829 0.0035330355 0.66783452
0.058511734 0.0017730892 0.66862798
0.058628704 -0 0.66905582
0.058409691 -0.0017699897 0.66825473
0.058023404 -0.0035165846 0.66684169
0.057894822 -0.0052631497 0.66637135
0.057998132 -0.0070300698 0.66674924
0.058419406 -0.008851409 0.6682902
0.058634948 -0.010660917 0.66907871
0.058505103 -0.012410194 0.66860366
0.058298536 -0.014132977 0.66784811
0.057797756 -0.015763015 0.66601628
0.056663036 -0.017170638 0.66186559
0.057253245 -0.019084394 0.66402453
0.057008132 -0.020730257 0.6631279
0.056554351 -0.022278994 0.66146809
0.056040142 -0.023774624 0.65958714
0.055453874 -0.025206298 0.65744263
0.054763258 -0.026551872 0.65491641
0.053981233 -0.027808517 0.65205586
0.05027505 -0.027422756 0.63849902
0.050008282 -0.02879265 0.63752317
0.049691331 -0.030115932 0.63636386
0.050288633 0.016269892 0.63313836
0.049869381 0.014667481 0.63164991
0.051535543 0.013641775 0.63756531
0.055698793 0.013105601 0.65234607
0.055652149 0.011457801 0.65218049
0.057973649 0.01023066 0.66042256
0.058339857 0.0085794032 0.66172278
0.058137096 0.0068396926 0.66100287
0.057998158 0.0051175058 0.66050965
0.05956025 0.0035035312 0.66605556
0.05978547 0.0017583966 0.6668551
0.059929945 2.9802322e-08 0.66736805
0.059752293 -0.001757443 0.66673732
0.059336722 -0.0034903884 0.66526198
0.059181083 -0.0052218735 0.66470933
0.059240639 -0.0069694817 0.66492081
0.059633739 -0.0087696612 0.66631645
0.059919603 -0.010574043 0.66733134
0.059827518 -0.012317419 0.66700441
0.059627887 -0.014030069 0.66629565
0.05923631 -0.015680194 0.66490543
0.057942454 -0.017041892 0.66031182
0.058285892 -0.018857181 0.66153109
0.058355667 -0.020596117 0.66177887
0.057906952 -0.02214089 0.66018575
0.057397805 -0.023634404 0.65837818
0.056820571 -0.025067925 0.6563288
0.056154378 -0.0264256 0.65396363
0.055381659 -0.027690828 0.6512202
0.051494986 -0.027262062 0.63742125
0.051555067 -0.028810173 0.63763458
0.05161529 -0.030361891 0.63784838
0.05195431 0.016328484 0.63378191
0.051744461 0.014784157 0.63305819
0.052608889 0.013527989 0.6360395
0.056883868 0.013002038 0.65078336
0.056826461 0.011365294 0.65058535
