# .PCD v0.7 - Point Cloud Data file format
VERSION 0.7
FIELDS x y z
SIZE 4 4 4
TYPE F F F
COUNT 1 1 1
WIDTH 203
HEIGHT 1
VIEWPOINT 0 0 0 1 0 0 0
POINTS 203
DATA ascii
0.0081067365 -0.010808975 0.61769283
-0.010785333 -0 0.61733603
0.013748796 -0.024747819 0.62056059
-0.026243791 -0.0055249929 0.62132978
0.0083963582 -0.032186031 0.6235196
-0.032177579 -0.0097931921 0.62347519
0.0056268112 -0.033760875 0.62440199
0.007031715 -0.0056253672 0.62435853
-0.0014075219 0.0014075041 0.62450087
-0.0014343745 -0.04159686 0.62774223
-0.037455764 -0.024490297 0.6284945
-0.010151233 -0.043505281 0.62964964
-0.010157532 0.0087064505 0.6297583
-0.03200433 -0.033459067 0.63020086
-0.03200433 -0.033459067 0.63020086
-0.023500668 -0.044063777 0.63189679
-0.02200049 -0.044000983 0.63164419
-0.034097906 -0.028167784 0.63355362
0.013331125 -0.013331115 0.63339889
0.011888037 -0.0089160502 0.63397455
-0.025321715 -0.037237793 0.63439798
-0.031818055 -0.018181711 0.63749218
-0.031818055 -0.018181711 0.63749218
0.0015112967 0.0045338869 0.63702756
0.0015112967 0.0045338869 0.63702756
0.0015261768 -0.035102069 0.63882375
-0.010767148 -0.038454056 0.64027071
-0.023323696 -0.037317902 0.64229256
-0.010963022 -0.037587494 0.64364851
-0.0093668541 -0.03746742 0.64304447
0.010955787 -0.0015650988 0.64352369
-0.0315868 -0.014214069 0.64524114
0.0047914069 -0.033539832 0.64738923
-0.022765303 -0.032521844 0.65088475
0.0016780873 0.011746615 0.657161
0.0016780873 0.011746615 0.657161
-0.0050592893 -0.033728629 0.65816802
-0.030445008 -0.020296693 0.65876669
-0.028887693 -0.015293479 0.65971869
-0.015449208 -0.03433156 0.6618073
0.020707924 -0.0069026351 0.66290355
0.0051988736 -0.027727336 0.66378444
-0.021309389 -0.02663675 0.66895384
-0.02832396 -0.019472718 0.66828573
-0.027005348 -0.0072014034 0.67192012
-0.01644372 -0.029233277 0.67514598
0.0055153971 -0.023900062 0.67652041
0.0037186735 0.018593371 0.67903972
-0.01712775 -0.0247401 0.68432045
-0.0019082146 0.024806768 0.6849398
0.013362547 0.0095447004 0.68502682
0.019187372 0.0076749623 0.68620998
-0.025212556 -0.013576001 0.68870759
0.0019714141 -0.025628388 0.69256866
0.0078842277 0.021681637 0.69252551
-0.015836893 -0.021775752 0.69355816
0.025903743 0.0019925833 0.69512558
0.024014048 0.0040023327 0.69616061
0 0.02803874 0.69635296
0.0060422011 0.024168789 0.69771731
0.0020128356 0.026166856 0.69756866
-0.022618523 -0.010281146 0.70280671
-0.0041667046 -0.020833492 0.70608079
-0.015427391 -0.0066117346 0.7206338
-0.0071345628 -0.0095127523 0.74167055
0.021865431 0.031583399 0.74786353
0.024303654 0.031594783 0.74796897
0.021895198 0.034059197 0.74826288
-0.0024744147 -0.0074232519 0.75328624
0.013916409 0.0055666268 0.79056972
0.011198033 0.0055990517 0.79252839
0.0081067365 -0.010808975 0.61769283
0.0081067365 -0.010808975 0.61769283
-0.0026816798 -0.0013408065 0.61645162
-0.0026816798 -0.0013408065 0.61645162
-0.012134923 0.00067336857 0.61735511
-0.015344657 0.0013949573 0.62298554
-0.015344657 0.0013949573 0.62298554
-0.035246152 -0.012688607 0.62478137
-0.035246152 -0.012688607 0.62478137
-0.0084529072 0.004226476 0.62465727
0.004261829 -0.036935806 0.62608063
0.01139636 -0.022792727 0.62655568
-0.037077226 -0.018538594 0.626737
0.012853144 -0.0157094 0.62698811
-0.0028779728 -0.038852632 0.62829894
-0.036898419 -0.027492568 0.62926352
-0.033176899 -0.020914286 0.62871993
-0.034530606 -0.018704057 0.62827343
-0.0087620029 -0.042349696 0.63087583
-0.004390805 -0.042444438 0.63127029
-0.036335278 -0.030521661 0.63004017
0.0088140694 -0.029380232 0.63192332
-0.038504843 -0.022214353 0.63336504
-0.019483376 -0.041964173 0.63550955
-0.016561933 -0.04215765 0.6363436
-0.019751256 -0.041021824 0.63799697
-0.033124067 -0.016562015 0.63634467
0.010567108 -0.0045287907 0.63682115
-0.013775044 -0.039794594 0.63935292
-0.012356021 -0.038612545 0.64103591
-0.032934219 -0.023524433 0.64390802
-0.0078219408 0.012515098 0.64343631
-0.0048998562 -0.037565559 0.65175295
-0.022765303 -0.032521844 0.65088475
-0.027531831 -0.030770868 0.65009117
-0.014728319 -0.037639022 0.65213847
-0.029728297 -0.024773598 0.65396035
-0.029470325 -0.014735162 0.65223032
-0.029470325 -0.014735162 0.65223032
-0.004988919 0.014966756 0.6553365
-0.015207801 -0.03548488 0.65856946
-0.028733222 -0.023662627 0.65862185
0.017001018 -0.00510028 0.65981835
0.017001018 -0.00510028 0.65981835
-0.0051247529 -0.032456726 0.66080201
-0.012921445 -0.034455001 0.6625523
-0.012921445 -0.034455001 0.6625523
0.0034960168 0.013984084 0.66560113
-0.0071061566 -0.030201167 0.66904515
-0.019575082 -0.028472841 0.66940892
-0.02342925 -0.02523151 0.67214876
-0.0036443658 0.021866202 0.67455482
-0.0055391691 -0.027695835 0.67747688
0.016596135 0.0073760748 0.67719018
0.005669123 -0.022676468 0.68270582
-0.021410633 -0.019464225 0.68955177
-0.025212556 -0.013576001 0.68870759
-0.0019582284 -0.023498714 0.69097698
0 -0.023635983 0.69235784
0.003988177 0.023929089 0.69530571
-0.0020044895 -0.022049338 0.69656122
0.0020128356 0.026166856 0.69756866
0.002065703 -0.020657003 0.70395035
0.027229154 0.0062836707 0.70743251
0.027229154 0.0062836707 0.70743251
-0.012612919 -0.018919349 0.7083503
-0.012789539 -0.01705274 0.71190357
-0.013707521 -0.0091383159 0.73037195
0.0046184119 0.039256483 0.73334378
0.0070782453 0.040110022 0.73940456
-0.0027218177 -0 0.61887413
-0.010795164 0.0040481985 0.61748433
0.010374339 -0.013835311 0.62150121
-0.025735842 -0.0047110571 0.62101829
-0.023599396 -0.0027764142 0.62216842
0 -0 0.62272263
-0.013893645 0.006945163 0.62226903
-0.0014271209 -0.038532257 0.6268667
0.0084705325 -0.029646844 0.62501186
-0.036775395 -0.013793215 0.62533569
-0.017338464 -0.045908909 0.63145959
-0.037980285 -0.025883414 0.62897372
0.013763533 -0.01521261 0.62951845
-0.014411416 0.002882272 0.62855911
-0.014411416 0.002882272 0.62855911
0 0.0029148459 0.6305272
0 0.0029148459 0.6305272
-0.033334095 -0.017777666 0.63344157
0.0089647509 -0.0029882491 0.63495481
-0.002237027 0.0052118748 0.63414478
-0.033484753 -0.026250377 0.63832366
0.010567108 -0.0045287907 0.63682115
0.00075564836 0.0053267032 0.63814926
-0.0054265447 -0.04029794 0.64169008
-0.012356021 -0.038612545 0.64103591
-0.0077696163 -0.038066477 0.64217305
-0.012394969 0.012394994 0.64162356
-0.0097387377 -0.035687726 0.65041113
0.014585022 -0.0048616529 0.65021658
0.012905819 -0.0016132295 0.64933169
0.011381283 0.0016258955 0.65086114
-0.009640093 0.01445812 0.64851439
0.01481398 -0.0032919943 0.65328741
-0.020438582 -0.032361031 0.66019416
-0.029196184 -0.021464303 0.66190916
-0.0035128912 -0.031616002 0.66661966
-0.028053988 -0.021040499 0.66624892
-0.028681863 -0.014340907 0.67098582
0.0017822024 0.016039819 0.66972876
0.0017822024 0.016039819 0.66972876
-0.021270756 -0.024045825 0.67787409
0.022194514 -0.0018495619 0.67785746
-0.026722241 -0.011452377 0.68500221
0.014319346 0.010500908 0.68506199
-0.015672084 -0.023508132 0.69107139
0 0.025343031 0.68991888
0.017767018 0.0138188 0.69289446
-0.0020044895 -0.022049338 0.69656122
0.010013944 0.022030711 0.69635588
-0.014428173 -0.018550515 0.70340282
-0.014428173 -0.018550515 0.70340282
0.0065191058 0.030422509 0.71690643
0.0065191058 0.030422509 0.71690643
-0.01034187 -0.014772445 0.72215098
0.026763951 0.013381988 0.72382247
-0.002313477 -0.013880879 0.7338593
0.016126486 0.032252967 0.73268926
-0.014145951 -0.0047153234 0.73919249
0.026057394 0.026057392 0.74054384
0.020434486 0.040868968 0.76293051
0.002630892 -0.0026308894 0.77217472
0.0026965092 -0 0.78009534
