# .PCD v0.7 - Point Cloud Data file format
VERSION 0.7
FIELDS x y z
SIZE 4 4 4
TYPE F F F
COUNT 1 1 1
WIDTH 1339
HEIGHT 1
VIEWPOINT 0 0 0 1 0 0 0
POINTS 1339
DATA ascii
-0.013534914 0.0058006644 0.68799913
-0.013498399 0.0038566887 0.68736947
-0.013462135 0.0019231439 0.68674409
-0.013426579 -0 0.68613094
-0.013392591 -0.0019132197 0.68554491
-0.013358827 -0.0038168132 0.68496269
-0.013325183 -0.0057107806 0.68438244
-0.013291706 -0.0075952411 0.68380517
-0.013258448 -0.0094703138 0.68323171
-0.013225907 -0.011336476 0.68267053
-0.013195014 -0.013195008 0.68213779
-0.013164216 -0.015044838 0.68160671
-0.013133561 -0.016885996 0.68107808
-0.013103099 -0.018718719 0.68055278
-0.013072728 -0.02054286 0.68002903
-0.013043713 -0.022360623 0.67952871
-0.013015841 -0.024172276 0.67904812
-0.012988136 -0.02597627 0.67857033
-0.012960549 -0.027772635 0.67809463
-0.01293308 -0.029561341 0.67762089
-0.012905774 -0.031342596 0.67715001
-0.012881045 -0.033122659 0.6767236
-0.012883935 -0.034970731 0.67677343
-0.012859338 -0.036740959 0.67634922
-0.012834881 -0.03850463 0.67592752
-0.012812954 -0.040269285 0.67554939
-0.012791616 -0.04202956 0.67518145
-0.012770349 -0.043784052 0.6748147
-0.012749151 -0.045532703 0.67444921
-0.012729043 -0.047279298 0.67410243
-0.01271075 -0.049027175 0.67378694
-0.012692556 -0.050770223 0.67347324
-0.012676432 -0.052516639 0.67319524
-0.012661172 -0.054262161 0.67293203
-0.012646496 -0.056005925 0.67267895
-0.012633133 -0.057751447 0.67244846
-0.012622661 -0.059506834 0.67226791
-0.012612797 -0.061262161 0.6720978
-0.012604763 -0.063023806 0.67195928
-0.012600818 -0.064804226 0.67189121
-0.012597374 -0.066586137 0.67183185
-0.012600954 -0.068405181 0.6718936
-0.012606531 -0.070236415 0.6719898
-0.01262398 -0.072137013 0.67229062
-0.012652619 -0.074108183 0.67278451
-0.012721507 -0.076329008 0.67397243
-0.013143182 0.089811742 0.71901834
-0.013089374 0.087262511 0.7179358
-0.013037361 0.084742844 0.71688938
-0.012985762 0.082243174 0.71585131
-0.012934625 0.079763561 0.71482247
-0.012883835 0.077302992 0.71380067
-0.012833442 0.074861735 0.71278679
-0.012785018 0.072448432 0.71181262
-0.012737014 0.070053577 0.71084684
-0.012689423 0.067676961 0.70988935
-0.012642133 0.065317661 0.708938
-0.012595247 0.062976241 0.7079947
-0.012549283 0.060654879 0.70706999
-0.012504592 0.058354765 0.70617092
-0.012460217 0.056070983 0.70527816
-0.012416209 0.053803563 0.70439273
-0.012372458 0.051551938 0.70351261
-0.012329016 0.049316108 0.70263857
-0.012286882 0.04709971 0.70179093
-0.012245486 0.044900119 0.70095807
-0.012204416 0.04271546 0.70013183
-0.012163622 0.040545404 0.69931108
-0.01212305 0.038389653 0.69849491
-0.012082797 0.036248386 0.69768506
-0.012043922 0.034124464 0.69690287
-0.012005584 0.032014877 0.69613159
-0.011967489 0.02991873 0.69536525
-0.011929682 0.027835935 0.69460458
-0.011892066 0.025766164 0.69384778
-0.011854734 0.023709476 0.69309676
-0.011818705 0.021667629 0.6923719
-0.01178322 0.019638687 0.69165796
-0.011747946 0.017621905 0.69094837
-0.011712882 0.015617162 0.69024289
-0.011678073 0.01362443 0.68954265
-0.011643425 0.01164344 0.68884552
-0.011609969 0.0096749961 0.68817246
-0.011577151 0.007718116 0.68751216
-0.011544519 0.0057722628 0.68685567
-0.01151207 0.003837347 0.68620288
-0.011479759 0.0019133091 0.68555284
-0.011447673 2.9802322e-08 0.68490732
-0.011416633 -0.0019027889 0.68428284
-0.011386367 -0.0037954748 0.68367398
-0.011356259 -0.0056781173 0.68306828
-0.011326312 -0.0075508654 0.68246567
-0.011296521 -0.009413749 0.68186641
-0.011266886 -0.011266887 0.68127012
-0.011237955 -0.013110936 0.68068802
-0.011210175 -0.014946878 0.68012923
-0.011182574 -0.01677388 0.67957395
-0.011155067 -0.018591762 0.67902052
-0.011127695 -0.020400763 0.67846984
-0.011100499 -0.022200972 0.67792273
-0.011073843 -0.023993313 0.6773864
-0.011048534 -0.025779903 0.67687726
-0.011023342 -0.027558357 0.67637038
-0.010998304 -0.029328823 0.67586672
-0.010973339 -0.031091124 0.67536443
-0.010968809 -0.032906413 0.6752733
-0.010945813 -0.03466177 0.67481071
-0.010922954 -0.036409795 0.67435074
-0.010900189 -0.038150668 0.6738928
-0.010877481 -0.03988409 0.67343593
-0.010855062 -0.041611046 0.67298496
-0.010833791 -0.04333517 0.67255706
-0.0108135 -0.045056254 0.67214876
-0.010793284 -0.0467709 0.67174202
-0.010773105 -0.048478961 0.67133605
-0.010753271 -0.050181925 0.67093706
-0.010734392 -0.051882923 0.67055726
-0.010716766 -0.053583831 0.67020261
-0.010699311 -0.055279762 0.66985142
-0.010681952 -0.056970417 0.6695022
-0.010664725 -0.058655977 0.6691556
-0.010649743 -0.060348541 0.66885418
-0.01063488 -0.062036812 0.66855514
-0.010620019 -0.063720107 0.66825616
-0.010607337 -0.065411896 0.66800106
-0.010595394 -0.067104161 0.66776073
-0.010583591 -0.068793297 0.66752326
-0.010573303 -0.070488691 0.66731632
-0.010565229 -0.072195709 0.66715389
-0.010557278 -0.073900953 0.66699392
-0.010551638 -0.075620085 0.66688049
-0.01054882 -0.077358007 0.6668238
-0.010546003 -0.079095006 0.66676712
-0.010550414 -0.080886498 0.66685587
-0.010719329 -0.083968088 0.67025423
-0.010958361 0.089858562 0.71915615
-0.010914474 0.087315768 0.71809661
-0.010870134 0.084787011 0.71702611
-0.010825636 0.082274854 0.71595192
-0.010781502 0.079783142 0.71488643
-0.010737773 0.077311933 0.71383065
-0.010694351 0.074860483 0.71278238
-0.010651869 0.072432697 0.71175683
-0.010610532 0.070029527 0.71075881
-0.010569559 0.067645192 0.70976967
-0.010528859 0.065278918 0.70878708
-0.01048847 0.062930822 0.70781201
-0.01044839 0.060600638 0.70684433
-0.010409957 0.058295757 0.70591652
-0.010371805 0.056007773 0.70499545
-0.010333891 0.05373624 0.7040801
-0.010296294 0.051481485 0.70317245
-0.010258928 0.049242854 0.70227039
-0.010222293 0.047022551 0.70138586
-0.010186705 0.044821531 0.70052671
-0.010151364 0.042635739 0.69967353
-0.010116268 0.040465057 0.69882619
-0.010081413 0.038309395 0.69798481
-0.010046799 0.036168486 0.6971491
-0.010013022 0.034044266 0.69633365
-0.0099800285 0.031936079 0.69553709
-0.0099472916 0.0298419 0.69474673
-0.0099147689 0.02776134 0.69396162
-0.0098824184 0.025694311 0.69318062
-0.0098503176 0.023640782 0.69240558
-0.0098189255 0.021601647 0.69164777
-0.0097883455 0.019576728 0.69090945
-0.0097579937 0.017564416 0.69017673
-0.0097277919 0.015564442 0.68944758
-0.0096977763 0.013576925 0.68872297
-0.0096679823 0.011601597 0.68800366
-0.009638668 0.0096386969 0.68729591
-0.00961038 0.0076883137 0.68661296
-0.0095822215 0.005749315 0.68593323
-0.0095542269 0.0038217008 0.68525738
-0.0095264316 0.0019052923 0.68458635
-0.009498762 -0 0.6839183
-0.0094713597 -0.0018942654 0.68325675
-0.0094451141 -0.0037780404 0.68262315
-0.0094190482 -0.0056513846 0.68199384
-0.0093931258 -0.0075144768 0.68136805
-0.0093673468 -0.009367317 0.68074566
-0.0093417075 -0.011210054 0.68012673
-0.0093162088 -0.013042688 0.67951107
-0.0092918156 -0.014866889 0.67892218
-0.0092677549 -0.016681969 0.67834133
-0.0092438189 -0.018487632 0.67776346
-0.0092200059 -0.020283997 0.67718852
-0.0091963159 -0.022071153 0.67661667
-0.0091727469 -0.02384913 0.67604762
-0.009149868 -0.025619626 0.67549527
-0.0091277678 -0.027383327 0.67496169
-0.0091058072 -0.029138535 0.6744315
-0.0090839202 -0.030885309 0.67390317
-0.0090776579 -0.032679528 0.67375195
-0.0090559702 -0.034412682 0.67322832
-0.0090355612 -0.03614226 0.67273569
-0.0090153413 -0.037864447 0.67224753
-0.0089952443 -0.039579064 0.67176235
-0.0089752041 -0.041285932 0.67127848
-0.008955285 -0.04298538 0.67079765
-0.008935933 -0.044679672 0.67033041
-0.0089171417 -0.046369106 0.66987675
-0.0088989353 -0.048054248 0.66943729
-0.0088808034 -0.049732506 0.66899949
-0.0088627134 -0.051403731 0.66856277
-0.0088451346 -0.053070784 0.66813838
-0.0088276882 -0.054731637 0.66771716
-0.0088113341 -0.056392521 0.66732234
-0.008795226 -0.058048487 0.66693342
-0.0087792696 -0.059699029 0.66654825
-0.008763493 -0.061344445 0.66616738
-0.0087477732 -0.06298399 0.66578782
-0.0087336954 -0.064629346 0.66544795
-0.0087196929 -0.066269666 0.66510993
-0.0087057659 -0.067904979 0.6647737
-0.0086919423 -0.069535524 0.66443998
-0.0086794887 -0.071171805 0.66413933
-0.0086676115 -0.072807923 0.66385251
-0.0086557949 -0.074439853 0.6635673
-0.0086442214 -0.076069131 0.66328794
-0.008634734 -0.077712595 0.66305888
-0.0086253565 -0.079353258 0.66283244
-0.0086972909 -0.08175455 0.66456908
-0.0087468419 0.091841847 0.71855724
-0.0087240431 0.089421421 0.71786922
-0.0087025724 0.087025732 0.71722126
-0.0086785723 0.084616095 0.716497
-0.0086516365 0.082190543 0.71568412
-0.0086234184 0.079766631 0.7148326
-0.0085924678 0.077332199 0.7138986
-0.0085602375 0.074902087 0.71292597
-0.0085267229 0.072477162 0.71191454
-0.0084925322 0.070063382 0.71088278
-0.008458578 0.067668617 0.70985806
-0.0084248949 0.065292925 0.70884168
-0.008391479 0.062936127 0.70783317
-0.0083583621 0.060598165 0.70683384
-0.0083261291 0.058282912 0.70586109
-0.0082945563 0.055988252 0.70490825
-0.0082632564 0.053711176 0.7039637
-0.0082321567 0.051450998 0.70302522
-0.0082012909 0.049207747 0.70209378
-0.0081707556 0.046981841 0.70117229
-0.0081413416 0.044777364 0.70028466
-0.0081121707 0.042588919 0.69940436
-0.0080831768 0.040415883 0.69852936
-0.0080544204 0.038258493 0.69766158
-0.0080258362 0.036116272 0.69679892
-0.007997741 0.033990413 0.6959511
-0.0079705408 0.031882167 0.69513029
-0.0079434933 0.029788107 0.694314
-0.0079166293 0.027708203 0.69350338
-0.007889946 0.025642365 0.69269812
-0.0078634424 0.023590356 0.69189835
-0.0078373924 0.021552861 0.6911121
-0.0078121233 0.019530326 0.69034958
-0.0077870479 0.017520845 0.6895929
-0.0077621322 0.015524268 0.68884099
-0.007737346 0.013540357 0.68809301
-0.0077127474 0.011569113 0.68735069
-0.0076883929 0.0096105337 0.68661571
-0.0076649846 0.0076650083 0.68590927
-0.0076416889 0.0057312846 0.68520629
-0.0076185348 0.0038092732 0.68450755
-0.0075955489 0.0018988848 0.68381387
-0.0075726728 -2.9802322e-08 0.68312359
-0.0075499346 -0.0018874407 0.6824373
-0.007528096 -0.0037640333 0.68177831
-0.0075064967 -0.0056298971 0.68112648
-0.0074850209 -0.0074850321 0.68047845
-0.0074636675 -0.0093295574 0.67983401
-0.0074424632 -0.011163712 0.67919409
-0.007421352 -0.012987375 0.67855704
-0.0074007702 -0.014801502 0.6779359
-0.0073807649 -0.016606688 0.67733216
-0.0073608677 -0.018402189 0.67673177
-0.0073410776 -0.020187944 0.67613453
-0.0073213666 -0.021964073 0.67553973
-0.0073017878 -0.023730814 0.67494887
-0.0072823931 -0.025488347 0.67436355
-0.0072639184 -0.02723968 0.67380607
-0.0072455364 -0.028982133 0.67325133
-0.0072316094 -0.03073433 0.67283106
-0.0072207558 -0.032493383 0.67250347
-0.0072026178 -0.03421244 0.67195618
-0.0071847774 -0.035923898 0.67141783
-0.0071677179 -0.037630498 0.67090297
-0.007150765 -0.039329201 0.67039132
-0.0071338918 -0.041019887 0.66988218
-0.0071171233 -0.042702764 0.66937613
-0.0071004084 -0.044377536 0.66887164
-0.0070841475 -0.046046913 0.66838098
-0.0070682359 -0.047710598 0.66790086
-0.007052694 -0.049368829 0.66743183
-0.0070373188 -0.051020563 0.66696787
-0.0070219859 -0.052664906 0.6665051
-0.007006892 -0.054303378 0.6660496
-0.0069922288 -0.055937827 0.66560709
-0.0069776028 -0.057565212 0.66516566
-0.0069634495 -0.05918932 0.6647386
-0.0069495705 -0.060808718 0.66431975
-0.006935915 -0.062423199 0.66390765
-0.0069225049 -0.06403318 0.66350299
-0.0069091227 -0.065636665 0.66309917
-0.0068960772 -0.067236736 0.66270542
-0.006883767 -0.068837658 0.66233397
-0.0068716425 -0.070434332 0.66196799
-0.006859561 -0.072025388 0.66160345
-0.0068475208 -0.073610842 0.66124016
-0.0068361778 -0.07519795 0.66089779
-0.0068254764 -0.076786622 0.66057491
-0.0068234522 -0.078469679 0.66051382
-0.0068643601 -0.08065623 0.66174835
-0.0065309051 0.091432691 0.71738124
-0.006506728 0.088925302 0.71640849
-0.0064844666 0.086459577 0.71551275
-0.0064638872 0.084030539 0.71468472
-0.0064434381 0.081616908 0.71386182
-0.0064257579 0.079250991 0.71315044
-0.0064093499 0.076912194 0.71249026
-0.0063932445 0.074587852 0.71184224
-0.0063774898 0.072278291 0.71120828
-0.0063595492 0.069955021 0.71048647
-0.0063395663 0.067622066 0.70968235
-0.0063184318 0.065290481 0.70883197
-0.0062962752 0.06296277 0.70794046
-0.0062724655 0.060633838 0.70698243
-0.0062482101 0.058316618 0.70600647
-0.0062237028 0.056013316 0.70502043
-0.0061993874 0.053728074 0.70404196
-0.006175261 0.051460505 0.70307118
-0.0061513213 0.049210608 0.70210797
-0.0061275917 0.046978205 0.70115316
-0.0061046402 0.04476738 0.7002297
-0.0060820086 0.042574048 0.69931901
-0.0060595679 0.040397137 0.69841611
-0.0060372679 0.038236052 0.69751883
-0.0060151317 0.036090791 0.69662809
-0.0059932768 0.033961892 0.69574881
-0.005972174 0.031851619 0.69489968
-0.0059512435 0.029756248 0.69405746
-0.0059304582 0.02767545 0.69322115
-0.0059097954 0.025609106 0.69238973
-0.0058892984 0.023557186 0.69156498
-0.0058690808 0.021519929 0.69075149
-0.0058495258 0.019498438 0.68996465
-0.0058301007 0.017490327 0.68918306
-0.0058108042 0.015495479 0.68840665
-0.0057916581 0.013513863 0.6876362
-0.0057726149 0.011545241 0.68687004
-0.0057537626 0.0095896423 0.68611145
-0.0057356246 0.0076474845 0.68538165
-0.0057175793 0.0057175457 0.68465555
-0.0056996681 0.0037997663 0.68393487
-0.0056818482 0.0018939674 0.68321782
-0.00566416 -0 0.68250608
-0.0056465818 -0.0018821955 0.68179888
-0.0056295982 -0.0037530661 0.68111545
-0.0056128423 -0.0056128204 0.68044126
-0.0055962065 -0.0074616373 0.6797719
-0.0055796481 -0.0092994273 0.6791057
-0.0055631879 -0.011126369 0.67844331
-0.0055468446 -0.012942612 0.67778569
-0.0055308011 -0.014748782 0.67714018
-0.0055152755 -0.016545802 0.67651546
-0.005499817 -0.01833272 0.67589343
-0.0054844446 -0.020109624 0.67527497
-0.0054691578 -0.021876663 0.67465985
-0.0054539759 -0.023633868 0.67404896
-0.0054388586 -0.025381356 0.67344069
-0.0054243538 -0.027121753 0.67285705
-0.005410024 -0.028853476 0.67228043
-0.0054041999 -0.030623823 0.67204612
-0.0053899954 -0.03233999 0.67147458
-0.0053758463 -0.034047008 0.67090523
-0.0053618089 -0.035745412 0.67034042
-0.0053483597 -0.037438542 0.66979933
-0.0053350725 -0.039123863 0.66926467
-0.0053218701 -0.040801018 0.66873348
-0.0053087138 -0.04246971 0.66820407
-0.0052956226 -0.044130206 0.66767734
-0.0052826144 -0.045782655 0.66715395
-0.005270021 -0.047430187 0.6666472
-0.0052576722 -0.04907161 0.66615033
-0.005245436 -0.05070588 0.665658
-0.0052333479 -0.052333474 0.66517162
-0.005221297 -0.053953379 0.66468668
-0.0052093379 -0.055566281 0.66420549
-0.0051978654 -0.05717653 0.66374391
-0.0051864432 -0.058779687 0.6632843
-0.0051750708 -0.06037581 0.66282666
-0.0051639797 -0.061967731 0.66238046
-0.0051529887 -0.063553542 0.66193819
-0.0051423442 -0.065136358 0.66150987
-0.0051318132 -0.066713586 0.6610862
-0.0051213084 -0.068284124 0.66066349
-0.0051108459 -0.069848239 0.66024256
-0.005100877 -0.071412265 0.6598413
-0.0050912062 -0.072973952 0.65945226
-0.0050815544 -0.074529454 0.65906388
-0.0050719562 -0.076079339 0.6586777
-0.0050746654 -0.077811509 0.65878665
-0.0052195909 -0.081773564 0.66461802
-0.0043574818 0.091507167 0.71759522
-0.0043367287 0.08890295 0.71634269
-0.0043185004 0.086369991 0.71524251
-0.0043004989 0.083859742 0.71415597
-0.0042828848 0.081374824 0.71309292
-0.0042672702 0.078944504 0.71215045
-0.0042517865 0.076532155 0.71121597
-0.0042366302 0.074141055 0.71030116
-0.0042234524 0.071798682 0.7095058
-0.0042103562 0.069470853 0.70871544
-0.004197869 0.067165911 0.70796174
-0.0041873655 0.064904153 0.70732778
-0.0041769133 0.06265372 0.70669699
-0.0041670692 0.06042251 0.70610279
-0.0041562519 0.058187544 0.70544994
-0.0041441694 0.05594629 0.70472068
-0.0041313549 0.053707629 0.70394731
-0.0041173487 0.051466852 0.70310187
-0.0041029486 0.049235404 0.70223278
-0.0040875976 0.047007352 0.70130628
-0.004071963 0.044791639 0.70036262
-0.0040563489 0.042591661 0.69942021
-0.0040408536 0.040408522 0.69848502
-0.004025477 0.038242012 0.69755691
-0.0040102163 0.036091924 0.6966359
-0.003995087 0.033958256 0.69572276
-0.0039805467 0.031844378 0.69484514
-0.0039661117 0.029745817 0.6939739
-0.0039517968 0.027662545 0.69310999
-0.003937569 0.025594205 0.69225121
-0.0039234431 0.023540646 0.69139868
-0.0039095255 0.021502405 0.69055867
-0.0038960704 0.019480318 0.68974656
-0.0038826924 0.017472118 0.68893915
-0.0038694208 0.015477687 0.68813813
-0.0038562398 0.013496846 0.68734252
-0.0038431336 0.011529416 0.68655157
-0.003830204 0.009575516 0.68577117
-0.0038177106 0.0076354146 0.68501711
-0.0038052984 0.0057079494 0.684268
-0.0037929665 0.0037929714 0.68352371
-0.0037807145 0.0018903911 0.6827842
-0.0037685416 2.9802322e-08 0.68204951
-0.0037564607 -0.0018782318 0.68132037
-0.0037448213 -0.0037448108 0.68061787
-0.0037332817 -0.005599916 0.67992139
-0.0037218267 -0.0074436367 0.67923003
-0.0037104283 -0.0092760623 0.67854214
-0.0036991131 -0.011097372 0.67785913
-0.0036878665 -0.012907565 0.67718041
-0.0036768639 -0.014707446 0.67651629
-0.003666155 -0.016497701 0.67586994
-0.0036554949 -0.018277466 0.67522657
-0.0036448969 -0.02004692 0.67458689
-0.003634373 -0.02180624 0.67395175
-0.003623897 -0.023555309 0.67331946
-0.0036134806 -0.025294393 0.67269075
-0.0036035008 -0.027026266 0.67208838
-0.0035936013 -0.02874884 0.67149097
-0.0035891803 -0.030508012 0.67122412
-0.0035793723 -0.032214344 0.67063212
-0.0035696048 -0.033911228 0.67004263
-0.003559916 -0.035599142 0.66945785
-0.0035505441 -0.037280709 0.6688922
-0.0035413341 -0.038954675 0.66833639
-0.0035321845 -0.040620148 0.66778409
-0.0035230697 -0.042276859 0.667234
-0.0035140137 -0.043925166 0.66668743
-0.003505029 -0.045565367 0.66614515
-0.0034961388 -0.047197878 0.66560853
-0.0034875977 -0.048826337 0.66509306
-0.0034790977 -0.050446898 0.66458005
-0.0034706516 -0.05205977 0.66407031
-0.0034622704 -0.053665221 0.66356444
-0.0034539173 -0.055262685 0.66306025
-0.0034456402 -0.056853086 0.6625607
-0.0034377098 -0.058441043 0.66208196
-0.0034298273 -0.060021967 0.66160631
-0.0034219811 -0.061595649 0.66113275
-0.0034141936 -0.06316258 0.66066277
-0.0034065002 -0.064723492 0.66019839
-0.0033990024 -0.066280559 0.65974587
-0.0033916757 -0.067833513 0.65930367
-0.0033843804 -0.069379792 0.65886337
-0.0033771165 -0.070919424 0.65842491
-0.0033698836 -0.072452486 0.65798837
-0.0033629418 -0.073984712 0.65756941
-0.0033561746 -0.075513914 0.657161
-0.0033602542 -0.077285841 0.65740716
-0.003799981 -0.089299574 0.68394709
-0.0021984223 0.092333764 0.719971
-0.0021830185 0.089503795 0.71811152
-0.0021693702 0.086774826 0.71646404
-0.0021574628 0.084141046 0.71502674
-0.002146136 0.081553191 0.71365952
-0.0021360579 0.07903415 0.71244287
-0.002126083 0.07653901 0.71123886
-0.0021169796 0.074094296 0.71013999
-0.0021083271 0.071683109 0.70909554
-0.002099745 0.069291592 0.70805955
-0.0020919931 0.066943794 0.70712382
-0.0020845414 0.064620793 0.70622432
-0.0020771511 0.06231454 0.70533228
-0.002070507 0.060044706 0.70453024
-0.0020642118 0.057797909 0.70377028
-0.0020579547 0.055564761 0.70301503
-0.0020525854 0.053367227 0.70236689
-0.0020475709 0.051189303 0.70176154
-0.0020426058 0.049022555 0.70116222
-0.0020378304 0.046870112 0.70058584
-0.0020324253 0.044713378 0.69993335
-0.0020264082 0.042554557 0.69920707
-0.0020200924 0.040401846 0.69844466
-0.0020132973 0.038252681 0.69762439
-0.0020061936 0.036111504 0.69676691
-0.0019987884 0.033979416 0.69587302
-0.0019912792 0.031860501 0.69496661
-0.0019838107 0.029757172 0.69406503
-0.0019763978 0.027669609 0.69317019
-0.0019690401 0.025597543 0.69228208
-0.0019617372 0.023540825 0.69140053
-0.0019545413 0.021499932 0.69053197
-0.0019475804 0.019475818 0.68969166
-0.0019406684 0.017466009 0.68885732
-0.0019338132 0.015470505 0.68802977
-0.0019269986 0.013489008 0.68720722
-0.0019202321 0.011521399 0.6863904
-0.0019135785 0.0095679164 0.68558729
-0.0019071309 0.0076285005 0.68480903
-0.0019007267 0.0057021677 0.68403596
-0.001894358 0.0037887096 0.68326724
-0.0018880391 0.0018880665 0.68250442
-0.0018817551 -0 0.68174589
-0.0018755479 -0.0018755198 0.68099654
-0.0018695563 -0.0037390888 0.68027329
-0.0018636025 -0.0055907965 0.6795547
-0.001857687 -0.0074307323 0.67884052
-0.0018518086 -0.0092590451 0.67813098
-0.0018459674 -0.011075824 0.67742586
-0.0018401628 -0.01288113 0.67672521
-0.0018345427 -0.014676332 0.67604679
-0.0018290036 -0.016461015 0.67537814
-0.0018235045 -0.018235058 0.67471439
-0.0018180382 -0.019998431 0.67405456
-0.0018125982 -0.021751165 0.6733979
-0.0018071971 -0.023493558 0.67274594
-0.0018018541 -0.025225937 0.6721009
-0.0017967038 -0.026950568 0.67147928
-0.0017915829 -0.028665304 0.67086112
-0.0017891293 -0.030415177 0.67056495
-0.0017840578 -0.032113045 0.66995281
-0.0017790151 -0.033801258 0.66934407
-0.0017740194 -0.03548038 0.66874099
-0.0017691645 -0.037152439 0.66815495
-0.001764392 -0.038816631 0.66757888
-0.0017596513 -0.040471971 0.66700661
-0.00175493 -0.042118311 0.66643673
-0.0017502402 -0.043755978 0.66587061
-0.0017455994 -0.045385599 0.66531038
-0.0017410077 -0.047007203 0.66475618
-0.0017365424 -0.048623204 0.66421717
-0.001732136 -0.050231934 0.66368526
-0.0017277577 -0.051832736 0.66315669
-0.0017234017 -0.053425401 0.66263092
-0.0017190793 -0.055010527 0.66210914
-0.0017147785 -0.056587666 0.66159004
-0.0017105694 -0.058159351 0.66108191
-0.0017064798 -0.059726804 0.66058826
-0.0017024097 -0.061286747 0.66009694
-0.001698359 -0.062839285 0.65960801
-0.0016943333 -0.064384654 0.65912205
-0.0016903322 -0.065922916 0.65863907
-0.0016864297 -0.067457184 0.65816802
-0.0016826356 -0.068988025 0.65771002
-0.0016788531 -0.070511818 0.65725338
-0.0016750928 -0.072028995 0.6567995
-0.001671344 -0.073539138 0.65634704
-0.0016676232 -0.075043052 0.65589786
-0.0016708195 -0.076857701 0.65628368
-0.0019475727 -0.091535911 0.68969071
0 0.089054018 0.72334218
0 0.086296588 0.72169846
0 0.083415836 0.7195763
0 0.079806507 0.71496272
0 0.077078402 0.7130475
0 0.074459732 0.71140033
0 0.071942896 0.71001786
0 0.069455087 0.70865762
0 0.067040473 0.70748866
0 0.064647704 0.70632923
0 0.062289774 0.70523238
0 0.059971929 0.70422757
0 0.057673007 0.70323181
0 0.055402517 0.7022897
0 0.053164184 0.70142424
0 0.050941616 0.70056581
0 0.048740566 0.69974416
0 0.04657042 0.69901305
0 0.044413209 0.69828624
0 0.042274654 0.69759798
0 0.040164918 0.69701481
0 0.038065344 0.69643432
0 0.035979748 0.69588363
0 0.033898145 0.69529611
0 0.031817168 0.69463986
0 0.029740274 0.69392937
0 0.02766937 0.69316834
0 0.025607914 0.69237846
0 0.023554355 0.69153619
0 0.021512657 0.69067121
0 0.019484907 0.68980157
0 0.017472118 0.68893915
0 0.015473932 0.68808216
0 0.013490409 0.68723142
0 0.01152119 0.68638688
0 0.0095667541 0.68555987
0 0.0076267421 0.68475461
0 0.005700171 0.68395489
0 0.0037869513 0.68316162
0 0.0018869638 0.68237293
0 2.9802322e-08 0.6815896
0 -0.0018740892 0.6808219
0 -0.0037358105 0.68007451
0 -0.005585283 0.67933285
0 -0.0074225962 0.67859524
0 -0.0092479289 0.6778633
0 -0.0110614 0.67713606
0 -0.0128631 0.67641443
0 -0.014654666 0.67572004
0 -0.016435087 0.67503011
0 -0.018204451 0.67434514
0 -0.019962788 0.67366374
0 -0.021710247 0.67298651
0 -0.023447007 0.67231345
0 -0.025174439 0.67165697
0 -0.026892781 0.67101455
0 -0.028622061 0.67053485
0 -0.030343175 0.67005342
0 -0.032033771 0.6694212
0 -0.033714503 0.66879267
0 -0.035386324 0.66817313
0 -0.037050784 0.66757059
0 -0.038706481 0.66697454
0 -0.04035306 0.66638255
0 -0.041990459 0.66579372
0 -0.043618798 0.66520828
0 -0.0452393 0.66463119
0 -0.046851695 0.66406083
0 -0.048457026 0.66350079
0 -0.050055206 0.66294956
0 -0.0516451 0.6624018
0 -0.053226739 0.66185713
0 -0.054801345 0.66132009
0 -0.056368053 0.66078651
0 -0.057926476 0.66025507
0 -0.059481353 0.6597417
0 -0.061028838 0.65923226
0 -0.062569335 0.65872735
0 -0.064102292 0.658225
0 -0.065627649 0.65772504
0 -0.067145556 0.65722758
0 -0.068660408 0.65674537
0 -0.070170417 0.65627217
0 -0.071673363 0.65580124
0 -0.073169604 0.65533316
0 -0.074658588 0.65486658
0 -0.076502338 0.65535122
0.0022465014 0.089860052 0.72577465
0.0022331662 0.087093472 0.72416496
0.0022199787 0.084359199 0.72257304
0.0022075106 0.081677884 0.72106802
0.0021952395 0.079028606 0.71958679
0.0021831042 0.076408654 0.71812189
0.0021700477 0.073781639 0.71654582
0.0021538129 0.071075827 0.71458614
0.0021169796 0.067743361 0.71013999
0.0021006882 0.065121353 0.70817339
0.0020870718 0.062612146 0.70652974
0.0020760482 0.0602054 0.70519912
0.0020651403 0.057823956 0.7038824
0.0020555197 0.055499047 0.70272112
0.0020462729 0.053203076 0.7016049
0.0020372083 0.050930202 0.70051074
0.0020291943 0.04870069 0.69954336
0.0020212431 0.046488583 0.69858354
0.0020133944 0.044294655 0.69763613
0.0020064993 0.042136461 0.69680381
0.0019996432 0.039992869 0.69597626
0.0019928417 0.037864 0.6951552
0.001986875 0.035763741 0.694435
0.0019810773 0.033678323 0.69373512
0.0019753133 0.031605035 0.6930393
0.0019704127 0.029556185 0.69244772
0.0019657833 0.027521014 0.69188899
0.0019611758 0.025495291 0.69133282
0.001956827 0.023481935 0.69080782
0.0019519032 0.021470934 0.6902135
0.0019464741 0.019464731 0.68955815
0.0019407137 0.017466426 0.6888628
0.0019345236 0.015476197 0.6881156
0.001928105 0.013496727 0.6873408
0.001921338 0.011528045 0.68652397
0.0019144132 0.0095720887 0.68568802
0.0019075091 0.0076300204 0.68485457
0.0019006616 0.0057019889 0.68402803
0.0018938561 0.0037877262 0.68320662
0.0018870992 0.0018871129 0.68239093
0.0018803902 2.9802322e-08 0.68158108
0.0018738622 -0.0018738508 0.68079305
0.001867463 -0.0037349164 0.68002069
0.0018611073 -0.0055833459 0.67925346
0.0018548016 -0.0074192286 0.67849231
0.0018485315 -0.0092426836 0.67773545
0.0018423038 -0.01105383 0.67698371
0.0018362124 -0.012853503 0.67624837
0.0018302746 -0.014642209 0.67553163
0.0018243687 -0.016419291 0.67481875
0.0018185074 -0.018185079 0.67411119
0.001812677 -0.019939452 0.67340744
0.0018068905 -0.021682709 0.67270887
0.0018011406 -0.02341482 0.67201483
0.0017956141 -0.025138587 0.67134774
0.0017901214 -0.026851803 0.6706847
0.0017871866 -0.028594971 0.67033041
0.0017817771 -0.030290216 0.6696775
0.001776375 -0.031974763 0.66902536
0.0017710056 -0.033649117 0.66837722
0.0017657556 -0.035315096 0.66774344
0.0017606297 -0.036973208 0.66712469
0.0017555335 -0.038621753 0.66650957
0.0017504606 -0.040260613 0.66589725
0.001745423 -0.041890144 0.66528904
0.0017404143 -0.043510348 0.66468453
0.0017355065 -0.04512316 0.66409206
0.0017306502 -0.046727568 0.66350591
0.0017258687 -0.048324317 0.6629287
0.001721149 -0.049913317 0.662359
0.0017164549 -0.051493645 0.6617924
0.0017117865 -0.05306536 0.66122884
0.0017072133 -0.054630786 0.66067684
0.0017026588 -0.056187719 0.66012704
0.0016981342 -0.057736576 0.65958083
0.0016936967 -0.059279382 0.65904522
0.0016893222 -0.060815632 0.65851712
0.0016849986 -0.062344968 0.65799528
0.001680714 -0.063867137 0.65747809
0.0016764511 -0.065381587 0.65696347
0.0016722154 -0.066888645 0.65645218
0.0016680012 -0.06838806 0.65594345
0.0016639407 -0.069885477 0.65545332
0.0016599111 -0.07137616 0.65496689
0.0016559011 -0.07285963 0.65448284
0.0016531273 -0.074390724 0.65414798
0.0016567234 -0.076209277 0.65458214
0.004517708 0.088095307 0.72726578
0.0044874218 0.085261017 0.72543782
0.0044591478 0.082494259 0.72373128
0.0044314046 0.07976526 0.72205687
0.0044047604 0.07708329 0.72044873
0.0043791244 0.074445128 0.71890146
0.0043537663 0.071837127 0.71737093
0.0043297298 0.069275707 0.71592021
0.0043061245 0.066744924 0.71449554
0.0042827749 0.064241618 0.71308625
0.0042579733 0.061740607 0.71158934
0.0042280024 0.059192032 0.70978045
0.0041569602 0.056118935 0.70549262
0.0041236258 0.053607106 0.70348084
0.0040973043 0.051216304 0.70189214
0.0040751961 0.048902333 0.70055783
0.0040541794 0.046623081 0.69928926
0.004034956 0.044384509 0.69812906
0.0040171547 0.042180181 0.69705462
0.003999494 0.039994955 0.69598871
0.0039836206 0.03784439 0.69503069
0.0039683138 0.035714835 0.69410682
0.0039531235 0.033601552 0.69319004
0.0039392584 0.031514078 0.69235319
0.0039260448 0.02944535 0.69155568
0.0039129346 0.02739051 0.69076443
0.0039006721 0.025354356 0.69002432
0.0038894985 0.023337007 0.68934989
0.0038783888 0.021331131 0.6886794
0.0038679403 0.01933971 0.68804878
0.0038590208 0.017365634 0.68751043
0.0038501422 0.015400529 0.68697453
0.0038416581 0.013445765 0.68646252
0.0038328739 0.01149866 0.68593234
0.0038229611 0.0095573962 0.68533403
0.0038121988 0.0076244175 0.68468451
0.0038008324 0.0057012737 0.68399847
0.0037887592 0.003788799 0.68326974
0.003776192 0.0018880963 0.68251133
0.0037629865 2.9802322e-08 0.68171424
0.0037496763 -0.0018748343 0.68091089
0.0037364319 -0.0037364364 0.68011153
0.0037232807 -0.0055848956 0.67931777
0.0037102359 -0.0074204803 0.67853045
0.003697268 -0.0092431307 0.67774779
0.0036843908 -0.011053175 0.67697054
0.0036719395 -0.012851775 0.67621905
0.0036596523 -0.014638603 0.6754775
0.0036474608 -0.016413599 0.67474169
0.0036353369 -0.018176705 0.67400992
0.003623293 -0.019928128 0.67328304
0.003611329 -0.021667928 0.67256087
0.0035996507 -0.023397714 0.67185605
0.0035882408 -0.025117666 0.67116737
0.0035768901 -0.02682668 0.6704824
0.0035707003 -0.028565586 0.67010874
0.003559473 -0.030255526 0.66943109
0.003548316 -0.031934828 0.66875774
0.0035372786 -0.033604145 0.66809154
0.0035265831 -0.035265833 0.66744602
0.0035159893 -0.036917865 0.66680664
0.0035054709 -0.038560182 0.66617179
0.0034950154 -0.040192664 0.66554081
0.0034846221 -0.04181549 0.66491348
0.0034742786 -0.043428481 0.66428918
0.0034642478 -0.045035213 0.66368377
0.0034542633 -0.046632558 0.66308111
0.0034444307 -0.048222005 0.66248769
0.0034346774 -0.04980284 0.66189909
0.0034249793 -0.051374704 0.66131377
0.0034153473 -0.052937895 0.66073239
0.0034059435 -0.054495096 0.66016483
0.0033965909 -0.056043744 0.65960038
0.0033872901 -0.057583928 0.65903902
0.0033781198 -0.059117109 0.65848553
0.0033690669 -0.060643226 0.65793914
0.0033601301 -0.062162414 0.65739971
0.0033513191 -0.063675046 0.65686786
0.0033425542 -0.06517981 0.65633887
0.0033338352 -0.066676706 0.65581268
0.0033251501 -0.06816557 0.65528846
0.0033166534 -0.069649741 0.65477562
0.003308353 -0.07112956 0.6542747
0.0033000943 -0.072602078 0.65377617
0.0032968326 -0.074178725 0.65357935
0.0033085828 -0.076097429 0.65428859
0.0068958569 0.089646131 0.7320658
0.0068379929 0.086614609 0.72973752
0.0067838817 0.083667904 0.72756028
0.0067347265 0.080816746 0.72558242
0.0066867848 0.078012466 0.72365344
0.0066425479 0.075282216 0.7218734
0.0065988917 0.072587818 0.72011679
0.0065582688 0.069954902 0.71848226
0.0065182843 0.067355603 0.71687341
0.0064798761 0.064798772 0.71532798
0.0064428849 0.062281221 0.71383959
0.0064062867 0.059792012 0.712367
0.0063715349 0.057343841 0.71096867
0.0063374517 0.054924607 0.70959735
0.0063037318 0.052531093 0.70824051
0.0062683527 0.050146818 0.70681691
0.0062269042 0.047739595 0.70514917
0.0061240667 0.044909835 0.70101136
0.0060730269 0.042511195 0.69895768
0.0060349619 0.040233076 0.69742602
0.0060016634 0.038010567 0.69608617
0.0059712478 0.035827458 0.69486237
0.0059424788 0.033674061 0.69370478
0.0059167366 0.031555921 0.69266903
0.0058911932 0.02945596 0.69164121
0.0058673602 0.027381033 0.69068229
0.0058451984 0.025329232 0.68979049
0.0058232257 0.023292899 0.68890643
0.0058022467 0.021274924 0.68806231
0.0057831565 0.019277185 0.68729413
0.0057641692 0.017292529 0.68653011
0.0057453718 0.015320987 0.68577385
0.0057292106 0.01336816 0.68512356
0.0057131397 0.01142627 0.68447691
0.0056971377 0.0094952583 0.683833
0.0056836768 0.0075782537 0.68329144
0.0056708367 0.0056708455 0.68277478
0.0056580538 0.0037720203 0.68226045
0.0056460509 0.0018820167 0.68177748
0.0056325346 -0 0.68123358
0.0056178207 -0.0018726289 0.68064153
0.0056019705 -0.0037346482 0.68000382
0.005585046 -0.0055850446 0.67932284
0.0055674384 -0.0074232817 0.67861438
0.0055489978 -0.0092483461 0.67787236
0.0055298028 -0.011059582 0.67709994
0.0055105984 -0.012858063 0.67632723
0.0054915273 -0.014644086 0.67555994
0.0054725874 -0.016417742 0.67479783
0.005453798 -0.018179357 0.67404181
0.0054351171 -0.019928783 0.67329013
0.0054165632 -0.021666229 0.67254364
0.0053987382 -0.023394525 0.67182636
0.00538103 -0.025111526 0.67111385
0.0053634564 -0.026817292 0.67040682
0.0053536054 -0.028552532 0.67001033
0.0053362292 -0.030238628 0.66931123
0.0053189471 -0.031913668 0.66861582
0.0053020944 -0.033579916 0.6679377
0.0052855904 -0.035237223 0.66727364
0.0052691889 -0.036884278 0.6666137
0.0052528884 -0.0385212 0.66595787
0.005236689 -0.04014793 0.66530603
0.0052205892 -0.041764706 0.66465819
0.0052047321 -0.04337278 0.66402018
0.0051892581 -0.044973582 0.66339755
0.005173876 -0.046564877 0.66277862
0.0051586912 -0.048147798 0.66216761
0.0051435777 -0.049721241 0.66155958
0.0051285694 -0.051285684 0.66095561
0.0051137363 -0.052841932 0.66035879
0.0050992481 -0.05439198 0.65977585
0.0050848252 -0.055933088 0.65919554
0.0050705001 -0.057465702 0.65861911
0.0050563239 -0.058990449 0.65804863
0.0050423113 -0.060507715 0.65748489
0.0050284942 -0.062018096 0.6569289
0.0050149034 -0.0635221 0.65638202
0.0050013857 -0.065018028 0.65583813
0.0049879407 -0.066505879 0.65529716
0.0049745678 -0.067985773 0.65475905
0.0049613486 -0.069458872 0.6542272
0.0049485094 -0.070928648 0.6537106
0.0049357526 -0.072391033 0.65319729
0.004934065 -0.074010983 0.6531294
0.0058843577 -0.090226844 0.6913662
0.009290291 0.085935175 0.73495722
0.0091787055 0.082608372 0.73158985
0.0090865288 0.079507142 0.72880816
0.0090069128 0.076558769 0.72640556
0.0089341803 0.073707014 0.72421062
0.0088653611 0.070922911 0.72213387
0.0088027008 0.068220913 0.72024298
0.0087417234 0.065562904 0.71840274
0.0086850123 0.062966347 0.71669137
0.0086290687 0.060403496 0.71500313
0.008577113 0.057895511 0.71343517
0.0085258149 0.055417806 0.71188718
0.0084765619 0.052978516 0.71040082
0.0084290467 0.050574273 0.70896691
0.008382096 0.048197061 0.70755005
0.0083373664 0.045855522 0.70620024
0.0082935942 0.043541372 0.70487928
0.0082502784 0.041251391 0.70357209
0.0082053933 0.038975626 0.70221758
0.0081544109 0.036694854 0.70067906
0.0080221044 0.034094006 0.69668633
0.0079528373 0.031811327 0.69459605
0.0079039047 0.029639632 0.69311941
0.0078593045 0.027507514 0.69177341
0.0078202123 0.025415719 0.69059372
0.0077819307 0.023345768 0.68943846
0.0077487896 0.021309167 0.6884383
0.0077159586 0.019289881 0.68744755
0.0076841717 0.0172894 0.68648833
0.0076556611 0.015311331 0.68562794
0.0076273899 0.013347924 0.68477476
0.0075992979 0.011398971 0.683927
0.0075746216 0.0094682872 0.68318236
0.0075502191 0.0075502098 0.68244594
0.007525973 0.0056444705 0.6817143
0.0075038513 0.0037519336 0.68104666
0.0074831462 0.0018707812 0.68042183
0.0074625826 -0 0.67980123
0.0074433773 -0.001860857 0.67922169
0.0074268593 -0.003713429 0.67872328
0.0074104154 -0.0055578053 0.67822701
0.0073946179 -0.0073946118 0.67775023
0.0073785065 -0.0092231333 0.67726403
0.0073605431 -0.011040807 0.67672199
0.0073408354 -0.01284647 0.67612725
0.0073200008 -0.014640033 0.67549849
0.007297901 -0.016420275 0.67483157
0.007274902 -0.018187255 0.67413753
0.0072508394 -0.01993981 0.67341137
0.0072262045 -0.021678627 0.67266798
0.0072016073 -0.023405194 0.67192566
0.0071771764 -0.02512008 0.67118835
0.0071529113 -0.026823401 0.67045611
0.0071390825 -0.028556317 0.67003882
0.0071150986 -0.030239165 0.66931498
0.0070913513 -0.031911075 0.66859835
0.0070684603 -0.033575207 0.6679076
0.0070457421 -0.035228729 0.66722202
0.0070231445 -0.036871493 0.66654003
0.0070006913 -0.038503796 0.66586244
0.0069783814 -0.040125728 0.66518927
0.0069562611 -0.041737586 0.66452169
0.0069347136 -0.043341964 0.66387141
0.0069134901 -0.04493764 0.66323096
0.0068924199 -0.046523839 0.66259503
0.0068715005 -0.048100471 0.66196382
0.0068507087 -0.049667656 0.66133636
0.0068300422 -0.051225275 0.6607126
0.0068098009 -0.052775949 0.66010189
0.0067899097 -0.054319263 0.65950155
0.0067701573 -0.055853814 0.65890551
0.0067505194 -0.057379425 0.65831292
0.0067310855 -0.058896989 0.65772641
0.0067118085 -0.060406268 0.65714461
0.0066928654 -0.061908975 0.656573
0.0066742296 -0.063405186 0.65601063
0.0066557187 -0.064893261 0.65545201
0.0066372887 -0.066372856 0.65489584
0.0066189822 -0.067844585 0.65434343
0.0066008195 -0.069308594 0.65379524
0.0065831677 -0.070769057 0.65326262
0.0065656966 -0.07222265 0.65273535
0.0065674847 -0.073884189 0.65278935
0.0078843515 -0.090670019 0.69252926
0.01155894 0.076288998 0.73365545
0.011365074 0.072736502 0.72897506
0.011236947 0.069669068 0.72588181
0.011129125 0.066774756 0.72327876
0.011033561 0.063994676 0.72097158
0.01094781 0.061307758 0.71890146
0.010866073 0.058676809 0.71692812
0.010790757 0.056111932 0.71510983
0.010717946 0.053589731 0.71335202
0.010649738 0.051118761 0.71170533
0.010582704 0.048680454 0.710087
0.010520181 0.046288818 0.70857751
0.010458435 0.043925434 0.70708692
0.010399182 0.04159674 0.70565641
0.010341965 0.039299458 0.70427501
0.010285416 0.037027538 0.70290983
0.010231447 0.03478694 0.70160687
0.010178706 0.032571852 0.7003336
0.010126505 0.030379534 0.69907337
0.010073093 0.02820462 0.69778389
0.010014064 0.026036561 0.6963588
0.00988195 0.023716688 0.69316936
0.0097680902 0.021489799 0.69042051
0.0097076725 0.019415349 0.68896186
0.009651795 0.017373204 0.68761289
0.0096045882 0.015367359 0.68647325
0.0095578767 0.013381034 0.68534547
0.0095169013 0.01142028 0.68435621
0.0094772438 0.0094772279 0.68339884
0.0094379513 0.0075503886 0.68245023
0.009403117 0.0056418777 0.68160927
0.0093689952 0.003747642 0.68078542
0.0093351193 0.0018670559 0.67996764
0.0093039097 -0 0.67921424
0.0092744539 -0.0018548965 0.6785031
0.0092451507 -0.0036980808 0.67779565
0.0092167789 -0.0055300593 0.67711067
0.0091918223 -0.0073534548 0.67650813
0.0091669997 -0.0091669858 0.67590886
0.0091422778 -0.010970712 0.67531204
0.0091216443 -0.012770295 0.67481393
0.0091017988 -0.014562875 0.67433482
0.0090820407 -0.016347677 0.67385781
0.0090635819 -0.018127143 0.67341214
0.0090429429 -0.019894481 0.67291391
0.0090204123 -0.021649003 0.67236996
0.0089962147 -0.023390174 0.67178577
0.0089706341 -0.025117755 0.67116815
0.0089436639 -0.026830971 0.67051709
0.0089300321 -0.028576106 0.67018795
0.0088992519 -0.030257493 0.66944486
0.0088690287 -0.03192848 0.66871524
0.0088394154 -0.03358978 0.66800028
0.0088099996 -0.035240024 0.66729015
0.0087807793 -0.036879271 0.66658473
0.0087517519 -0.0385077 0.6658839
0.0087230066 -0.040125817 0.66518998
0.0086946012 -0.04173404 0.66450417
0.0086670704 -0.043335319 0.66383952
0.0086397137 -0.044926494 0.66317904
0.0086125284 -0.046507657 0.66252279
0.0085855443 -0.048079073 0.66187131
0.0085587567 -0.049640805 0.6612246
0.0085321078 -0.051192641 0.66058123
0.0085062599 -0.052738816 0.65995717
0.0084807118 -0.054276556 0.65934044
0.0084553175 -0.055805117 0.65872735
0.0084300749 -0.057324499 0.65811789
0.0084050382 -0.058835268 0.6575135
0.0083801784 -0.060337275 0.65691328
0.008355883 -0.061833516 0.65632677
0.0083319508 -0.063322827 0.65574902
0.0083081545 -0.064803615 0.65517449
0.0082844952 -0.066275969 0.65460336
0.0082609691 -0.067739934 0.65403539
0.0082376031 -0.069195881 0.65347123
0.0082149096 -0.070648193 0.65292341
0.008192474 -0.07209377 0.65238172
0.0081995623 -0.073796049 0.65255284
0.0099570304 -0.091604695 0.69498187
0.014441758 0.069801837 0.74514371
0.013541938 0.063195705 0.72704071
0.013354058 0.060093284 0.72326082
0.013212129 0.057252556 0.72040546
0.013091029 0.054545939 0.71796912
0.01298127 0.051925093 0.71576089
0.012883669 0.049387425 0.71379733
0.012790411 0.046898186 0.7119211
0.012703437 0.044462025 0.71017134
0.012619971 0.042066574 0.70849216
0.012541105 0.039713502 0.70690542
0.012463891 0.037391663 0.70535201
0.01239166 0.035109729 0.70389885
0.012320262 0.03285405 0.70246243
0.012251783 0.030629486 0.70108473
0.012185592 0.028433084 0.69975311
0.012120163 0.026260346 0.6984368
0.012057562 0.024115175 0.69717735
0.011996517 0.021993607 0.6959492
0.011936085 0.019893467 0.69473338
0.011875086 0.017812639 0.69350618
0.011808201 0.015744299 0.69216055
0.011711237 0.013663113 0.69020981
0.01152471 0.011524707 0.68645716
0.011449682 0.0095413923 0.68494773
0.011382437 0.0075882971 0.68359482
0.011327764 0.0056639016 0.68249494
0.011273613 0.003757894 0.68140554
0.011224341 0.0018707216 0.68041426
0.011178369 -2.9802322e-08 0.67948937
0.011132812 -0.0018554628 0.67857277
0.011090862 -0.0036969483 0.67772883
0.0110513 -0.0055256486 0.67693293
0.01101198 -0.0073412955 0.6761418
0.010974182 -0.0091451705 0.67538136
0.010940029 -0.010940045 0.67469436
0.01090605 -0.012723684 0.67401069
0.01087232 -0.014496446 0.67333215
0.010842282 -0.016263425 0.67272776
0.010813461 -0.018022418 0.67214793
0.010784832 -0.019772172 0.67157197
0.010758319 -0.021516651 0.67103863
0.010735314 -0.023259819 0.6705758
0.010712407 -0.024995595 0.67011493
0.010750961 -0.026877373 0.67089051
0.010731054 -0.02861613 0.67049003
0.0106931 -0.03029713 0.66972649
0.010655413 -0.031966239 0.66896832
0.010617954 -0.033623517 0.66821468
0.010580906 -0.035269648 0.66746926
0.010544892 -0.036907107 0.66674477
0.010509124 -0.038533479 0.66602516
0.010473707 -0.040149212 0.66531265
0.010438782 -0.04175514 0.66460997
0.010404593 -0.043352485 0.66392219
0.010370629 -0.044939399 0.66323888
0.010336921 -0.04651615 0.6625607
0.010303536 -0.048083186 0.66188908
0.010270438 -0.049640447 0.66122317
0.010237621 -0.051188111 0.66056293
0.010205812 -0.052729994 0.65992296
0.010174199 -0.05426237 0.65928698
0.010142816 -0.055785477 0.65865564
0.01011166 -0.057299405 0.65802878
0.010080695 -0.058804065 0.65740585
0.010049919 -0.060299516 0.65678668
0.010020099 -0.06179063 0.65618676
0.0099905552 -0.063273489 0.65559232
0.009961185 -0.064747661 0.65500146
0.0099320207 -0.066213459 0.65441471
0.0099029932 -0.06767045 0.65383077
0.0098741669 -0.06911917 0.65325081
0.0098461872 -0.07056433 0.65268791
0.009820357 -0.072015971 0.65216827
0.0098327724 -0.073745787 0.65241802
0.016498713 0.056567043 0.73910803
0.015459599 0.050795853 0.72118914
0.015261887 0.047965914 0.71777976
0.015109144 0.045327425 0.71514583
0.014976829 0.042790949 0.71286404
0.014855754 0.040322781 0.71077621
0.014746173 0.037918746 0.70888656
0.014642666 0.035560757 0.7071017
0.01454495 0.033245593 0.70541662
0.014451807 0.03096813 0.70381045
0.014363207 0.028726429 0.70228255
0.014276675 0.026513815 0.70079041
0.014195437 0.024335027 0.69938946
0.01411506 0.022180825 0.69800341
0.014038065 0.02005437 0.69667572
0.013963629 0.017953247 0.69539213
0.013889979 0.015874267 0.69412202
0.013819392 0.013819396 0.69290483
0.013750651 0.011786312 0.69171941
0.013682591 0.0097732842 0.6905458
0.013614673 0.0077798367 0.68937457
0.013540198 0.0058028996 0.68809026
0.013440283 0.0038400888 0.68636727
0.013223259 0.0018890202 0.68262488
0.01313297 2.9802322e-08 0.68106794
0.013056695 -0.001865238 0.67975259
0.01299281 -0.0037122369 0.67865092
0.012931694 -0.0055421293 0.67759705
0.01287418 -0.0073567033 0.67660522
0.012822336 -0.0091587901 0.67571121
0.012770907 -0.010946482 0.6748243
0.012721831 -0.012721807 0.67397803
0.012677212 -0.01448819 0.67320859
0.012632905 -0.016242296 0.67244458
0.012588905 -0.017984182 0.67168587
0.012549844 -0.01972115 0.67101222
0.012511559 -0.021448374 0.67035198
0.012473506 -0.023165077 0.66969579
0.012437406 -0.024874806 0.66907334
0.012580902 -0.026959062 0.67154783
0.012544989 -0.028674275 0.67092848
0.012499101 -0.030354917 0.67013717
0.012453548 -0.03202343 0.6693517
0.012408325 -0.033679754 0.66857189
0.012363431 -0.035324097 0.66779763
0.012319943 -0.036959827 0.66704774
0.012277018 -0.038584888 0.66630751
0.012234434 -0.040198863 0.66557318
0.012192145 -0.041801661 0.66484392
0.012150146 -0.043393373 0.66411972
0.012108981 -0.044976205 0.66340983
0.012068592 -0.046550274 0.66271341
0.012028513 -0.048114032 0.66202223
0.011988781 -0.049667835 0.66133708
0.011949515 -0.051212192 0.66065991
0.011911113 -0.052749217 0.6599977
0.011872957 -0.054276407 0.65933979
0.011835245 -0.055794716 0.65868944
0.011797811 -0.057303667 0.65804392
0.011760653 -0.05880326 0.65740311
0.011723767 -0.060293674 0.65676701
0.011688008 -0.061779484 0.65615046
0.011652545 -0.063256651 0.65553886
0.011617296 -0.064724937 0.65493107
0.01158226 -0.066184357 0.65432686
0.011547397 -0.067634746 0.65372568
0.011512781 -0.069076687 0.65312868
0.01147935 -0.070516005 0.65255225
0.011456108 -0.072009832 0.65215147
0.011469539 -0.073732749 0.65238303
0.018490374 0.043914646 0.73359615
0.017296543 0.038917214 0.71558261
0.017093644 0.036323994 0.71252108
0.016932471 0.033864945 0.71008921
0.016790913 0.031482965 0.70795327
0.01666002 0.029155046 0.70597827
0.016539417 0.026876569 0.70415843
0.016426815 0.024640262 0.70245939
0.016319193 0.022438884 0.70083553
0.01621731 0.020271629 0.69929826
0.016119674 0.018134594 0.69782507
0.016024683 0.016024679 0.6963917
0.015935117 0.013943255 0.69504029
0.015846485 0.011884868 0.69370294
0.015761625 0.0098510385 0.69242245
0.015679512 0.0078397691 0.69118351
0.015598249 0.0058493614 0.68995732
0.015520171 0.003880024 0.68877923
0.015444302 0.0019305646 0.68763447
0.015369169 -0 0.68650079
0.015294299 -0.0019117892 0.6853711
0.015213847 -0.003803432 0.68415713
0.015111384 -0.0056667626 0.68261105
0.014866573 -0.0074332654 0.67891717
0.014760496 -0.0092252791 0.67731655
0.01467618 -0.01100713 0.6760444
0.014602563 -0.012777239 0.67493355
0.014535064 -0.01453504 0.67391509
0.014469283 -0.016277909 0.67292255
0.014411977 -0.018014967 0.67205787
0.014355126 -0.019738287 0.67120004
0.014298924 -0.021448374 0.67035198
0.0142496 -0.0231556 0.66960776
0.014200564 -0.024850965 0.66886789
0.014426366 -0.027049422 0.67227501
0.014376471 -0.028752893 0.67152208
0.014322049 -0.03043437 0.67070097
0.014267986 -0.032102972 0.66988522
0.014214331 -0.033759058 0.66907561
0.014161077 -0.035402656 0.66827202
0.014108918 -0.037035912 0.66748506
0.014058129 -0.038659841 0.66671866
0.014007703 -0.040272117 0.66595787
0.013957638 -0.041872889 0.66520244
0.01390793 -0.043462306 0.66445243
0.013859007 -0.04504177 0.66371417
0.013811474 -0.046613693 0.66299695
0.013764267 -0.048174918 0.66228467
0.013717382 -0.049725503 0.66157722
0.013670861 -0.051265746 0.66087532
0.013624701 -0.052795708 0.66017878
0.013579912 -0.05431962 0.65950298
0.013535553 -0.055834144 0.65883362
0.013491483 -0.057338804 0.65816867
0.013447745 -0.058833867 0.65750873
0.013404467 -0.060320079 0.6568557
0.013362182 -0.061800107 0.65621769
0.013320385 -0.063271821 0.65558702
0.013278936 -0.064734817 0.65496159
0.013237701 -0.066188514 0.65433943
0.013196764 -0.06763342 0.65372169
0.013156167 -0.069069847 0.65310919
0.013116808 -0.070502833 0.65251523
0.013098051 -0.072039276 0.65223229
0.016001303 -0.090007335 0.69603896
0.020593155 0.034321934 0.73079944
0.019380311 0.030147165 0.71453243
0.019066289 0.027540177 0.71032071
0.018860901 0.025147885 0.7075659
0.018687069 0.022839755 0.70523447
0.018537298 0.020597011 0.70322561
0.018397946 0.018397957 0.70135659
0.018267194 0.016237527 0.6996029
0.018146545 0.014113963 0.69798476
0.01802979 0.012019873 0.69641882
0.017920088 0.0099556148 0.69494748
0.017814038 0.0079173744 0.69352508
0.017711325 0.0059037507 0.69214749
0.01761399 0.003914237 0.69084203
0.01751779 0.0019464195 0.68955177
0.017425667 2.9802322e-08 0.68831617
0.017336445 -0.0019262731 0.68711948
0.017248131 -0.0038329065 0.68593496
0.017163131 -0.0057210028 0.68479496
0.017080652 -0.0075914264 0.68368876
0.016998895 -0.0094438195 0.68259215
0.016917663 -0.01127845 0.68150264
0.016831478 -0.013091177 0.68034673
0.01672384 -0.014865667 0.67890304
0.016457243 -0.01645726 0.67532736
0.016335042 -0.018150061 0.67368835
0.016243184 -0.019852787 0.67245638
0.016159831 -0.021546423 0.67133838
0.01608629 -0.023235768 0.67035198
0.01601347 -0.024909824 0.66937536
0.016294258 -0.027157068 0.67314136
0.016232178 -0.028857172 0.67230868
0.016166966 -0.030537605 0.6714341
0.016103605 -0.032207221 0.67058432
0.016040735 -0.033863753 0.66974103
