# .PCD v0.7 - Point Cloud Data file format
VERSION 0.7
FIELDS x y z
SIZE 4 4 4
TYPE F F F
COUNT 1 1 1
WIDTH 217
HEIGHT 1
VIEWPOINT 0 0 0 1 0 0 0
POINTS 217
DATA ascii
0.035422709 -0.062794775 0.64895695
0.028956402 -0.059521526 0.64878392
0.02112644 -0.063379318 0.65076613
0.037351951 -0.055215955 0.65063179
0.019544369 -0.066776618 0.6511991
0.019544369 -0.066776618 0.6511991
0.01962306 -0.062139675 0.65199065
0.02316031 -0.049629211 0.6542905
0.018313823 -0.074920177 0.6555683
0.015067665 -0.075338334 0.65668994
0.016732778 -0.050198317 0.65658045
0.038500458 -0.046870083 0.65665948
0.020108789 -0.045244753 0.65687668
0.020108789 -0.045244753 0.65687668
0.013451586 -0.055487752 0.65756667
0.048782818 -0.053829312 0.65765333
0.01863634 -0.040661097 0.65910745
0.033931475 -0.040717781 0.65939254
0.010255108 -0.049566358 0.66091478
0.015362562 -0.039259881 0.66064513
0.02219953 -0.035860807 0.66073024
0.010279511 -0.046257764 0.66140568
0.0086127361 -0.060289115 0.66252774
0.0085958978 -0.055013746 0.6621213
0.0085958978 -0.055013746 0.6621213
0.017187662 -0.03437531 0.66207135
0.020742906 -0.03111437 0.66325545
0.010416362 -0.034721226 0.66415894
0.031228933 -0.032963872 0.66402382
0.0052493615 -0.043744653 0.66581589
0.010496925 -0.029741317 0.66577971
0.024576865 -0.026332349 0.66650432
0.0052861301 -0.033478796 0.66729534
0.010609586 -0.022987425 0.6680463
0.0035540622 -0.055087984 0.66910452
0 -0.035901219 0.67128086
0.0018126966 -0.016314268 0.67340982
-0.0091523109 -0.021965533 0.67555428
-0.0091523109 -0.021965533 0.67555428
-0.0036602281 -0.02013123 0.67551225
0.029243533 -0.018277198 0.67522335
-0.0036732873 -0.016529799 0.67630041
0.023901986 -0.0091930628 0.67653835
0.023901986 -0.0091930628 0.67653835
0.0091982763 -0.0055189729 0.67666399
-0.013032453 -0.016755998 0.67933452
-0.0037423144 -0.0018711686 0.68046659
-0.0075063277 -0.0056297481 0.68112141
-0.017112454 -0.0057041347 0.68411529
0.01712228 0.0057074428 0.68424702
-0.0019155272 0.011493176 0.68582249
-0.013472232 0.0038492382 0.6869182
0.01351486 0.011584193 0.6876533
-0.015512834 0.0058173239 0.68866849
-0.0058042887 0.015478104 0.68814445
0.011779105 0.019631833 0.69157517
0.0059453272 0.021799535 0.6938194
-0.0079143131 0.02572155 0.69343346
-0.0019837948 0.02578932 0.69406319
-0.022024505 0.022024482 0.69628823
0 0.028018653 0.69617993
-0.018279057 0.036558092 0.69976211
-0.0081211245 0.036545068 0.69967455
-0.026437422 0.026437402 0.70008093
0 0.034657121 0.70068502
-0.010251782 0.041007131 0.70209777
-0.0061854902 0.041236609 0.70348281
-0.035179839 0.03311044 0.7043969
-0.022780854 0.045561731 0.70458817
-0.022780854 0.045561731 0.70458817
-0.020773409 0.047778875 0.70535517
-0.037613414 0.037613422 0.70683908
-0.031300459 0.04173395 0.70648462
-0.024998562 0.047913879 0.70606405
-0.025098879 0.05019778 0.70707315
-0.0084739774 0.052962363 0.7103228
-0.02119302 0.057221174 0.71042037
-0.02119302 0.057221174 0.71042037
-0.040688105 0.04925403 0.71309733
-0.038556855 0.051409155 0.71316594
-0.038811065 0.058216602 0.71487075
-0.017242081 0.062502533 0.7147609
-0.039122451 0.023908168 0.71695888
-0.041504148 0.065532893 0.71828187
-0.03516518 0.074726015 0.7198987
-0.01100817 0.070452303 0.72035873
-0.044558719 0.077977747 0.72353357
0.035219271 -0.060833246 0.64784074
0.02265721 -0.063116521 0.64995277
0.019608269 -0.062909231 0.65184188
0.032435533 -0.055140376 0.65036368
0.044403791 -0.055091068 0.65311682
0.023029121 -0.052637994 0.65315944
0.0411769 -0.05270642 0.65341759
0.024695652 -0.051037669 0.65333313
0.036439393 -0.048859864 0.65453541
0.013447925 -0.070601597 0.65751141
0.013420782 -0.067103937 0.65710193
0.013420782 -0.067103937 0.65710193
0.015029144 -0.056776792 0.65617329
0.018477177 -0.045353055 0.65736085
0.023498891 -0.042800054 0.65720981
0.032327965 -0.039133847 0.65998375
0.010230923 -0.059680402 0.66042823
0.040861726 -0.04426688 0.66011655
0.039495539 -0.041212708 0.66188192
0.030799467 -0.036785975 0.66114378
0.0086700143 -0.065892085 0.66391063
0.0086640092 -0.039854437 0.66376561
0.0052465545 -0.048967838 0.665703
0.0086792475 -0.038188696 0.66413355
0.024451358 -0.027944386 0.6654222
0.0035326208 -0.049456716 0.66781044
0.038709067 -0.035190076 0.66698873
0.0053259297 -0.026629657 0.66889679
0.015056135 -0.021255016 0.66840714
0.021316955 -0.021316975 0.66902995
0.008916188 -0.01961562 0.66985369
0.000892293 -0.032232061 0.67075098
0.01080381 -0.014405102 0.6719538
-0.0072570438 -0.025399625 0.67359859
-0.0072570438 -0.025399625 0.67359859
-0.0054275701 -0.025328666 0.67298651
0.030787289 -0.021732211 0.67320704
0.0018126966 -0.016314268 0.67340982
0.025372146 -0.016310662 0.67336142
0.028982569 -0.01449126 0.67325449
0.018139651 -0.012697756 0.67356288
-0.0018289234 -0.045723051 0.67536855
0.038503796 -0.027502716 0.67592263
0.03470565 -0.023745954 0.67508966
-0.003669987 -0.03853485 0.67610121
-0.0037121212 -0.0074242353 0.67864424
-0.0037121212 -0.0074242353 0.67864424
0.0009261099 -0.0037080348 0.67839706
-0.0056323018 -0.0018774271 0.68122423
0.0037616286 0.0037616491 0.68163228
0.020726744 0.0018842518 0.68204695
0.013366117 0.0057283342 0.6850884
-0.0076441406 0.0076441467 0.68528032
0.017188288 0.0076391995 0.68513238
0.00095798366 0.011493415 0.68582737
-0.015412129 0.00096510351 0.68714899
-0.0038502011 0.013475716 0.6869781
0.035006847 -0.083627477 0.68935907
-0.013593432 0.011651516 0.6890083
0.035140567 -0.081994638 0.69025576
-0.021514159 0.0078233182 0.69068778
-0.021728532 0.011851937 0.69304025
-0.017806783 0.019785345 0.69342774
-0.0078778341 0.02363354 0.69233257
-0.02198202 0.019983679 0.695822
-0.013947781 0.0278956 0.69511878
-0.011938316 0.027856082 0.69477832
-0.003982685 0.027878821 0.69497424
-0.0020080211 0.030120283 0.69698751
-0.0020080211 0.030120283 0.69698751
-0.016092714 0.032185435 0.69741827
-0.0080760336 0.034323156 0.69831377
-0.024433268 0.032577664 0.70037764
-0.020680424 0.045496941 0.70423269
-0.033582814 0.041978508 0.70796072
-0.036114253 0.048860431 0.71103179
-0.0084739774 0.052962363 0.7103228
-0.027579663 0.057280868 0.71068716
-0.036478836 0.019312322 0.7136206
-0.045095354 0.049390167 0.71381176
-0.040688105 0.04925403 0.71309733
-0.040688105 0.04925403 0.71309733
-0.01514416 0.062740117 0.71574968
-0.0152207 0.065231591 0.71706951
-0.048052404 0.058973402 0.71825421
-0.024133235 0.072399706 0.71942878
-0.037581399 0.077373505 0.72144943
-0.030923838 0.077309579 0.7212292
-0.017771263 0.077749252 0.72274554
-0.040036175 0.080072343 0.72308648
-0.05156073 0.071736664 0.72520363
-0.022322796 0.078129768 0.72405791
-0.017882809 0.080472618 0.72442865
0.038138464 -0.052488841 0.65259683
0.022341359 -0.05005997 0.65437198
0.013418129 -0.066252202 0.65706182
0.026007216 -0.038444929 0.65934324
0.0098662265 -0.045713268 0.66185904
0.05037459 -0.050374597 0.66427904
0.0086876042 -0.037355855 0.66433525
0.034337729 -0.031254247 0.66715294
0.018398166 -0.025840074 0.66610807
0.015007407 -0.022952914 0.6677258
0.0023702816 -0.049853735 0.66954517
0.0024543796 -0.025924869 0.67042124
-0.002429531 -0.037286341 0.67416632
0.029516261 -0.017710499 0.67384773
-0.0074782805 -0.0093478262 0.68027502
-0.014111001 0.0022452027 0.68685955
-0.0028691965 0.010520622 0.6854561
0.039248284 -0.078496546 0.69148225
-0.018306866 0.010460049 0.69134659
0.0175272 0.013632268 0.68967795
-0.010747843 0.018564425 0.69046223
-0.021947308 -0.0039904118 0.69544107
-0.022707589 0.01184763 0.69295371
-0.0069950987 0.029980943 0.69586587
-0.017252028 0.036532164 0.69958818
-0.02957749 0.026518136 0.70083058
-0.028832261 0.033981845 0.70319521
-0.031241698 0.01249674 0.70601165
-0.037692841 0.038742095 0.70737171
-0.013611604 0.050262958 0.70740116
-0.039932482 0.038882717 0.70829678
-0.037645184 0.058077157 0.71424735
-0.009265583 0.058443725 0.71269292
-0.029509133 0.066219956 0.7152456
-0.041960601 0.073985115 0.72118175
-0.030263644 0.078243218 0.72189444
-0.049235135 0.049235135 0.72474366
