# .PCD v0.7 - Point Cloud Data file format
VERSION 0.7
FIELDS x y z
SIZE 4 4 4
TYPE F F F
COUNT 1 1 1
WIDTH 1354
HEIGHT 1
VIEWPOINT 0 0 0 1 0 0 0
POINTS 1354
DATA ascii
-0.0098229917 0.029469013 0.6522212
-0.0098828459 0.028001398 0.6534254
-0.0099434024 0.026515722 0.65464377
-0.010004705 0.025011778 0.65587705
-0.010069537 0.023495585 0.65718138
-0.010135761 0.021960825 0.65851372
-0.010202829 0.02040565 0.659863
-0.010270826 0.018829823 0.66123098
-0.010340979 0.017234981 0.66264242
-0.010414014 0.015621006 0.66411173
-0.01048805 0.013984084 0.66560113
-0.010563146 0.012323678 0.66711205
-0.010639327 0.01063934 0.66864467
-0.010719559 0.0089329481 0.67025876
-0.010801128 0.0072007477 0.67189986
-0.010883948 0.0054419935 0.67356604
-0.010968007 0.0036560297 0.67525721
-0.011055533 0.001842618 0.67701805
-0.011145377 -0 0.67882562
-0.011236693 -0.0018727481 0.68066275
-0.011329561 -0.0037765205 0.68253106
-0.011425584 -0.0057128072 0.6844629
-0.011524754 -0.0076831579 0.68645805
-0.011625614 -0.0096880198 0.68848729
-0.011728257 -0.011728227 0.69055223
-0.011834453 -0.01380685 0.69268876
-0.011944159 -0.015925556 0.69489586
-0.012055965 -0.01808393 0.69714522
-0.012169834 -0.020283073 0.69943613
-0.01228829 -0.022528499 0.70181924
-0.012410203 -0.024820417 0.70427191
-0.01253456 -0.027158201 0.70677376
-0.012661701 -0.029543996 0.70933169
-0.012794935 -0.031987309 0.71201211
-0.012931004 -0.034482658 0.71474963
-0.013070055 -0.037031829 0.71754718
-0.013214804 -0.03964442 0.72045922
-0.013364282 -0.042320251 0.72346652
-0.013545542 -0.04515177 0.72711313
-0.013704392 -0.047965348 0.73030901
-0.013869448 -0.050854623 0.7336297
-0.014038526 -0.053814352 0.73703122
-0.014214939 -0.056859761 0.74058044
-0.014396881 -0.059987038 0.74424082
-0.014587509 -0.063212514 0.7480759
-0.014783688 -0.066526592 0.75202274
-0.014989106 -0.06994912 0.75615543
-0.01520193 -0.073475957 0.76043707
-0.0078796139 0.066188782 0.64482856
-0.0078042019 0.063994467 0.64300799
-0.0077302442 0.061841965 0.64122248
-0.007657628 0.059729487 0.63946939
-0.0076392023 0.058057964 0.63902462
-0.0075164577 0.055621773 0.63606131
-0.0074478295 0.053624392 0.63440442
-0.007392088 0.05174464 0.63305867
-0.0074237399 0.050481439 0.6338228
-0.0074556423 0.04920724 0.63459301
-0.0074911383 0.047943264 0.63545001
-0.0075273365 0.046669483 0.63632393
-0.0075638853 0.045383304 0.63720626
-0.0076007918 0.044084579 0.63809723
-0.0076404861 0.042786717 0.63905555
-0.0076812804 0.041478932 0.64004046
-0.0077224891 0.04015699 0.64103526
-0.0077641667 0.038820833 0.6420415
-0.0078073684 0.037475348 0.64308447
-0.0078527043 0.036122441 0.64417899
-0.00789857 0.03475371 0.6452862
-0.0079450002 0.033369005 0.64640719
-0.0079919528 0.031967789 0.64754075
-0.00804161 0.030558109 0.64873958
-0.0080922535 0.029132128 0.64996225
-0.0081435665 0.027688116 0.65120101
-0.0081955334 0.026225686 0.65245563
-0.0082486849 0.024746031 0.6537388
-0.0083044041 0.023252338 0.65508401
-0.0083608814 0.021738291 0.65644747
-0.0084181326 0.020203501 0.65782964
-0.0084761726 0.018647581 0.65923083
-0.0085363872 0.017072797 0.66068459
-0.0085984385 0.01547721 0.66218257
-0.0086613987 0.013858259 0.66370255
-0.0087252883 0.012215406 0.66524506
-0.0087904055 0.010548502 0.66681707
-0.0088585708 0.0088585615 0.66846275
-0.00892777 0.007142216 0.67013335
-0.0089980597 0.0053988397 0.6718303
-0.0090694968 0.0036278367 0.6735549
-0.0091439476 0.0018287897 0.67535233
-0.0092201084 -0 0.67719102
-0.0092975469 -0.0018595159 0.67906058
-0.0093762986 -0.0037505031 0.68096173
-0.0094579328 -0.0056747496 0.68293262
-0.0095419828 -0.0076335967 0.68496174
-0.0096275406 -0.0096275508 0.68702728
-0.0097146844 -0.011657625 0.68913114
-0.009805033 -0.013727039 0.69131237
-0.0098981364 -0.015837014 0.69356006
-0.0099929841 -0.017987341 0.6958499
-0.010089708 -0.020179421 0.69818503
-0.010190688 -0.022419512 0.70062286
-0.010294261 -0.024706215 0.70312333
-0.010399917 -0.027039766 0.70567405
-0.010508647 -0.02942422 0.70829904
-0.01062202 -0.031866014 0.71103621
-0.010737865 -0.034361154 0.71383297
-0.010856265 -0.036911279 0.71669137
-0.010980629 -0.039530247 0.71969372
-0.011108124 -0.042210847 0.72277176
-0.011262239 -0.045048922 0.7264924
-0.011399044 -0.047876 0.72979528
-0.011540492 -0.050778151 0.73320997
-0.011687403 -0.053762048 0.7367568
-0.011838328 -0.056823969 0.74040043
-0.01199717 -0.059985846 0.74423528
-0.012160629 -0.063235283 0.74818152
-0.012332189 -0.066593796 0.75232327
-0.012509909 -0.070055485 0.75661385
-0.012697077 -0.073643029 0.76113248
-0.0063827154 0.068614215 0.6472134
-0.0063208719 0.066369146 0.64534712
-0.006323108 0.064811856 0.64541459
-0.0063728993 0.063729018 0.64691716
-0.0064175278 0.0625709 0.64826399
-0.0060850331 0.057807833 0.63823009
-0.0060287798 0.055766225 0.63653243
-0.0059735929 0.053762317 0.63486701
-0.0059193722 0.051794529 0.63323081
-0.0058661434 0.049862236 0.63162446
-0.0058792052 0.048503458 0.63201869
-0.0059093749 0.047275007 0.63292909
-0.0059398734 0.046034038 0.6338495
-0.0059706881 0.044780195 0.63477933
-0.0060030129 0.043521821 0.63575482
-0.0060365079 0.042255551 0.63676572
-0.0060703792 0.040975064 0.63778782
-0.0061046327 0.039680153 0.63882154
-0.0061392938 0.038370609 0.63986748
-0.0061759325 0.037055612 0.64097315
-0.0062132617 0.035726249 0.64209968
-0.0062510641 0.034380883 0.64324045
-0.0062893098 0.033018887 0.64439464
-0.0063281064 0.03164053 0.64556545
-0.0063690864 0.030253172 0.64680207
-0.0064106011 0.028847754 0.64805496
-0.0064526601 0.027423799 0.64932418
-0.006495296 0.025981188 0.6506108
-0.0065388195 0.024520606 0.65192425
-0.0065843156 0.023045093 0.65329725
-0.0066304505 0.021548986 0.65468943
-0.0066772355 0.020031691 0.65610135
-0.0067246859 0.018492848 0.65753329
-0.0067737778 0.016934484 0.6590147
-0.0068243365 0.015354782 0.66054046
-0.0068756794 0.013751328 0.66208994
-0.0069277766 0.012123644 0.66366208
-0.0069807665 0.010471165 0.66526115
-0.0070362552 0.008795321 0.66693568
-0.0070926077 0.0070926249 0.66863632
-0.0071498957 0.0053624511 0.6703651
-0.0072080912 0.0036040545 0.67212135
-0.0072685084 0.001817137 0.67394459
-0.0073305378 -0 0.67581648
-0.0073936349 -0.0018483996 0.67772055
-0.0074578552 -0.0037289262 0.67965865
-0.0075242189 -0.0056431592 0.68166131
-0.0075927251 -0.0075927377 0.68372869
-0.00766249 -0.0095781088 0.68583405
-0.007733549 -0.011600316 0.68797839
-0.0078071565 -0.013662517 0.69019973
-0.0078830784 -0.015766174 0.69249082
-0.0079605235 -0.017911166 0.69482797
-0.0080394736 -0.020098656 0.69721049
-0.0081221126 -0.022335798 0.69970435
-0.0082067391 -0.024620175 0.70225823
-0.0082931472 -0.026952714 0.70486575
-0.0083824825 -0.029338658 0.70756173
-0.0084752701 -0.03178224 0.71036178
-0.008570171 -0.034280688 0.71322572
-0.0086670723 -0.036835045 0.71614993
-0.0087621212 -0.039429545 0.71901834
-0.0088505028 -0.042039901 0.72168547
-0.0090026995 -0.045013487 0.72627842
-0.0091149583 -0.047853529 0.72966611
-0.0092327762 -0.050780267 0.73322165
-0.0093536805 -0.053783655 0.73687023
-0.0094808023 -0.056884825 0.74070644
-0.0096121179 -0.06007573 0.7446692
-0.0097500673 -0.063375413 0.74883223
-0.0098932059 -0.066779137 0.75315177
-0.010044592 -0.070312172 0.75772035
-0.0048478101 0.071101218 0.64965868
-0.0048002321 0.06880334 0.6477443
-0.0047536097 0.066550523 0.64586842
-0.004726979 0.064602047 0.64479691
-0.0047572404 0.063429862 0.64601451
-0.0047898167 0.062267631 0.64732528
-0.0045757811 0.057959914 0.63871312
-0.0045333835 0.05591172 0.63700718
-0.0049041305 0.058849543 0.65192491
-0.0049550598 0.057809025 0.65397412
-0.0044107772 0.049988836 0.63207388
-0.0043713693 0.048085034 0.63048822
-0.0043805288 0.046725661 0.63085675
-0.0044043064 0.045511156 0.63181353
-0.0044283438 0.04428342 0.63278073
-0.0044537685 0.043053091 0.63380373
-0.0044796597 0.041810155 0.63484555
-0.0045058406 0.040552557 0.63589895
-0.0045323428 0.039280325 0.63696533
-0.0045591593 0.037993014 0.63804436
-0.0045873318 0.036698639 0.63917792
-0.0046160389 0.035389632 0.64033294
-0.0046451078 0.034064144 0.64150262
-0.004674545 0.032721817 0.64268708
-0.0047043576 0.031362414 0.64388669
-0.0047355536 0.029991835 0.6451419
-0.004767363 0.02860418 0.64642179
-0.004799603 0.027197748 0.64771903
-0.0048322664 0.025772095 0.64903331
-0.0048654089 0.024327099 0.65036678
-0.0049001761 0.022867501 0.65176582
-0.0049354443 0.021386921 0.65318489
-0.0049712234 0.019884914 0.65462452
-0.0050075422 0.018361002 0.65608585
-0.0050447513 0.016815841 0.65758306
-0.0050833784 0.015250146 0.65913725
-0.0051225838 0.013660252 0.66071475
-0.0051624165 0.012045652 0.66231751
-0.0052028559 0.010405689 0.66394472
-0.0052449228 0.0087415576 0.66563737
-0.0052879737 0.0070506334 0.6673696
-0.005331737 0.0053317547 0.66913044
-0.0053762505 0.0035841763 0.6709215
-0.0054221004 0.001807332 0.67276645
-0.0054695164 2.9802322e-08 0.67467427
-0.0055177691 -0.0018392503 0.67661583
-0.0055668806 -0.0037112236 0.67859191
-0.0056173792 -0.0056173801 0.68062377
-0.0056697656 -0.0075596571 0.68273163
-0.0057231383 -0.0095385611 0.68487918
-0.0057775467 -0.011555076 0.68706846
-0.0058337939 -0.013612211 0.68933171
-0.0058919564 -0.015711904 0.69167191
-0.0059513138 -0.017853945 0.69406027
-0.0060118795 -0.020039588 0.69649726
-0.0060753128 -0.022276133 0.69904965
-0.0061403001 -0.024561197 0.70166451
-0.0062066922 -0.026895642 0.70433593
-0.0062741432 -0.029279321 0.70704997
-0.0063386294 -0.031693131 0.70964462
-0.0063986676 -0.034126252 0.71206045
-0.0064517464 -0.03655988 0.71419615
-0.006498897 -0.038993359 0.71609336
-0.0065483982 -0.04147318 0.71808517
-0.0066088862 -0.044059247 0.72051901
-0.0068436363 -0.047905445 0.72996455
-0.0069348193 -0.050855309 0.73363346
-0.00703044 -0.053900063 0.737481
-0.0071297511 -0.057038009 0.74147701
-0.007234138 -0.060284466 0.74567717
-0.0073427404 -0.063637078 0.75004697
-0.0074579869 -0.067121893 0.75468421
-0.0075789359 -0.070736736 0.75955075
-0.0032408955 0.071299702 0.65020329
-0.003229266 0.069429219 0.64950138
-0.0031777476 0.066732705 0.64639199
-0.0031556124 0.064690053 0.64505595
-0.0031896795 0.06379357 0.64711213
-0.0033541834 0.065406591 0.65704077
-0.0033860637 0.064335197 0.65896499
-0.0034152658 0.063182414 0.66072744
-0.0034405817 0.061930507 0.66225541
-0.0034629891 0.060602307 0.66360784
-0.0034806954 0.059171796 0.66467649
-0.0029215801 0.048206061 0.6309309
-0.0028956523 0.046330452 0.62936598
-0.002907743 0.045070022 0.63009572
-0.0029242865 0.04386428 0.63109422
-0.0029415295 0.04265219 0.63213497
-0.0029592307 0.041429222 0.63320333
-0.0029771465 0.040191501 0.63428462
-0.0029952803 0.038938671 0.63537908
-0.0030136367 0.037670434 0.63648695
-0.0030325588 0.036390752 0.63762903
-0.003052121 0.035099387 0.63880974
-0.0030719368 0.033791274 0.64000571
-0.0030920117 0.032466143 0.64121735
-0.0031123506 0.031123519 0.64244485
-0.0031332825 0.029766172 0.64370829
-0.003154906 0.028394133 0.64501333
-0.0031768295 0.02700302 0.64633656
-0.0031990604 0.025592506 0.64767826
-0.0032216145 0.024162143 0.64903957
-0.0032448994 0.022714287 0.65044492
-0.0032688649 0.021247596 0.65189141
-0.0032931764 0.019759059 0.6533587
-0.0033178632 0.01824826 0.65484869
-0.0033429114 0.016714543 0.65636051
-0.0033690212 0.01516059 0.65793633
-0.0033956575 0.013582617 0.65954399
-0.0034227185 0.01197952 0.66117728
-0.0034502258 0.010350674 0.66283751
-0.0034784812 0.0086961985 0.66454285
-0.0035077317 0.0070154965 0.66630828
-0.0035374912 0.0053062737 0.66810435
-0.0035677596 0.003567785 0.66993123
-0.0035986539 0.001799345 0.6717959
-0.0036308917 2.9802322e-08 0.67374164
-0.0036637122 -0.0018318594 0.67572254
-0.0036971315 -0.0036971271 0.6777395
-0.0037312913 -0.0055969059 0.67980129
-0.003766967 -0.0075339377 0.6819545
-0.0038033461 -0.0095084012 0.68415016
-0.0038404346 -0.01152128 0.68638867
-0.0038786745 -0.013575375 0.68869668
-0.003918374 -0.015673488 0.69109273
-0.0039589098 -0.017815113 0.69353932
-0.0040002936 -0.020001471 0.69603693
-0.004041702 -0.022229344 0.69853622
-0.0040808963 -0.024485379 0.70090187
-0.0041170097 -0.026760578 0.70308143
-0.0041487566 -0.02904129 0.70499754
-0.0041779424 -0.031334579 0.70675904
-0.0042095059 -0.033676058 0.70866406
-0.0042469869 -0.036099374 0.71092623
-0.0042879684 -0.038591713 0.71339971
-0.0043325606 -0.041159302 0.71609104
-0.0043824995 -0.043825001 0.71910524
-0.0044356864 -0.046574712 0.72231531
-0.0046385136 -0.051023632 0.73455691
-0.0047055166 -0.054113477 0.73860097
-0.0047760108 -0.057312101 0.74285567
-0.0048498008 -0.060622483 0.74730927
-0.0049281628 -0.064066112 0.75203884
-0.0050113555 -0.067653298 0.75705999
-0.0050996142 -0.071394593 0.7623868
-0.0016249894 0.071499527 0.65075147
-0.0016346194 0.070288658 0.65191394
-0.0016479439 0.069213688 0.65352237
-0.0016596139 0.068044186 0.65493101
-0.0016699885 0.066799551 0.65618336
-0.0016782166 0.06545046 0.65717661
-0.0016870609 0.064108312 0.65824425
-0.0016968499 0.06278345 0.65942585
-0.0017070795 0.061454892 0.66066062
-0.0017183531 0.060142398 0.66202146
-0.0017308837 0.05885002 0.66353405
-0.0014644798 0.048327863 0.63137627
-0.0014514464 0.046446294 0.629803
-0.0014416316 0.044690579 0.62861824
-0.001450134 0.04350403 0.62964457
-0.0014587628 0.042304099 0.63068616
-0.0014678136 0.041098773 0.63177872
-0.0014769774 0.039878368 0.63288486
-0.0014862564 0.038642704 0.63400489
-0.0014956526 0.037391335 0.63513917
-0.0015051684 0.036124051 0.63628781
-0.0015151042 0.034847379 0.63748717
-0.0015252185 0.033554822 0.63870811
-0.0015354642 0.032244742 0.63994485
-0.0015458481 0.030916989 0.64119828
-0.0015563738 0.029571116 0.64246887
-0.0015673334 0.028211981 0.64379179
-0.001578513 0.026834756 0.6451413
-0.0015898533 0.025437653 0.64651018
-0.0016013526 0.024020284 0.64789832
-0.0016130194 0.022582293 0.64930654
-0.0016252059 0.021127701 0.65077758
-0.0016375993 0.019651234 0.65227365
-0.0016501831 0.018152028 0.65379262
-0.0016629675 0.016629666 0.65533584
-0.001676058 0.015084535 0.65691602
-0.0016896415 0.013517171 0.65855575
-0.0017034472 0.011924148 0.66022217
-0.0017174743 0.010304868 0.66191536
-0.0017317403 0.0086587071 0.66363746
-0.0017466171 0.006986469 0.66543329
-0.0017618013 0.0052854121 0.66726613
-0.0017772521 0.0035544932 0.66913128
-0.0017929761 0.0017929673 0.67102927
-0.001809321 -0 0.6730023
-0.0018260999 -0.0018261075 0.67502773
-0.0018431928 -0.0036863685 0.677091
-0.0018606089 -0.005581826 0.67919332
-0.0018788016 -0.007515192 0.68138933
-0.0018974254 -0.0094870925 0.68363744
-0.0019164295 -0.0114986 0.68593144
-0.0019357809 -0.013550431 0.68826735
-0.0019548088 -0.015638441 0.69056416
-0.0019726732 -0.017754048 0.69272065
-0.0019890075 -0.01989007 0.69469237
-0.0020031575 -0.022034734 0.6964004
-0.0020169737 -0.024203688 0.69806814
-0.0020320951 -0.026417226 0.69989347
-0.0020495586 -0.028693825 0.70200151
-0.0020688376 -0.031032562 0.70432872
-0.0020895905 -0.033433408 0.70683384
-0.0021128319 -0.035918146 0.70963925
-0.002137399 -0.038473189 0.71260482
-0.0021653334 -0.041141331 0.71597677
-0.0021963187 -0.043926358 0.71971709
-0.0022975001 -0.048247486 0.73193073
-0.0023315772 -0.051294714 0.73604417
-0.00236752 -0.054452956 0.74038291
-0.0024055711 -0.057733715 0.74497604
-0.0024457257 -0.06114316 0.74982321
-0.0024889882 -0.064713687 0.75504535
-0.002535555 -0.068460017 0.76066649
0 0.074069887 0.65328747
0 0.071700513 0.65130281
0 0.070028067 0.65118247
0 0.068781435 0.65228015
0 0.067531705 0.65342218
0 0.066298574 0.65467155
0 0.065089583 0.65605962
0 0.063902974 0.65759194
0 0.06275475 0.6593321
0 0.061624944 0.66123104
0 0.060490102 0.66322082
0 0.060663998 0.66997427
0 0.048450083 0.63182336
0 0.046792954 0.63111073
0 0.044708729 0.62868899
0 0.043189824 0.62838042
0 0.042005837 0.62944442
0 0.040810019 0.63053381
0 0.039605081 0.63166285
0 0.038384527 0.63280654
0 0.037148148 0.63396496
0 0.035895675 0.63513917
0 0.034627229 0.63633156
0 0.033348471 0.63757581
0 0.032052159 0.63883781
0 0.030737847 0.64011729
0 0.029405087 0.64141417
0 0.02805382 0.64273101
0 0.026688963 0.64410639
0 0.025304049 0.64550203
0 0.023898542 0.64691842
0 0.022472054 0.6483559
0 0.021024942 0.64982396
0 0.019559413 0.65135026
0 0.018070728 0.65290064
0 0.016558439 0.65447557
0 0.01502189 0.65607578
0 0.013462484 0.65773118
0 0.011878312 0.65943205
0 0.010267407 0.66116166
0 0.0086290538 0.66292149
0 0.006963104 0.66472834
0 0.0052689314 0.66660255
0 0.0035442412 0.66851044
0 0.0017882288 0.67045307
0 -0 0.67245007
0 -0.0018219352 0.67452359
0 -0.0036788583 0.67663783
0 -0.005571872 0.67879307
0 -0.0075013638 0.68097115
0 -0.0094635785 0.68306994
0 -0.011454284 0.68504089
0 -0.01346761 0.68683875
0 -0.015493691 0.68837953
0 -0.017547905 0.68995547
0 -0.01964277 0.69170725
0 -0.021786571 0.69367737
0 -0.023985356 0.69587207
0 -0.026235849 0.69820964
0 -0.028557777 0.70082855
0 -0.030938923 0.70357513
0 -0.033417374 0.70671272
0 -0.035989255 0.71014428
0 -0.038690358 0.7140612
0 -0.041647971 0.7191956
0 -0.04556483 0.72960603
0 -0.048578531 0.73383343
0 -0.051702797 0.73828351
0 -0.054961115 0.7430498
0 -0.05836308 0.74814153
0 -0.061933219 0.75363815
0 -0.065710664 0.75967395
0 -0.06975621 0.76646161
0.0016506839 0.074280798 0.65385312
0.0016341389 0.071902096 0.65185595
0.0016229602 0.069787294 0.6505065
0.001636009 0.068712384 0.65208173
0.0016505369 0.067672014 0.65383536
0.0016655304 0.066621214 0.65564525
0.0017195637 0.067063004 0.66216761
0.0017341111 0.065896243 0.66392362
0.001748778 0.064704806 0.66569406
0.0017636893 0.063492805 0.667494
0.0017785598 0.062249571 0.66928911
0.0017936638 0.060984552 0.6711123
0.0018090202 0.059697658 0.672966
0.0018243355 0.058378726 0.6748147
0.0014458096 0.0448201 0.62912261
0.001433109 0.042993277 0.62758952
0.0014394873 0.041745126 0.62835944
0.00144861 0.04056111 0.62946057
0.0014579553 0.039364785 0.63058871
0.0014676242 0.038158268 0.63175583
0.001477418 0.036935478 0.63293803
0.0014873475 0.035696328 0.63413668
0.0014974071 0.034440368 0.63535094
0.0015076447 0.033168197 0.63658673
0.001518304 0.031884402 0.63787341
0.0015291151 0.030582279 0.63917851
0.0015400813 0.029261559 0.64050221
0.0015512062 0.027921706 0.64184511
0.0015625318 0.026563078 0.6432122
0.0015743311 0.02518931 0.64463651
0.00158631 0.023794651 0.64608246
0.0015984725 0.022378653 0.64755058
0.0016108229 0.020940691 0.64904147
0.0016235078 0.019482076 0.65057266
0.001636619 0.018002808 0.65215528
0.0016499436 0.01649943 0.65376377
0.0016634872 0.014971375 0.65539861
0.0016772603 0.013418078 0.65706116
0.0016916466 0.011841506 0.65879774
0.0017063053 0.010237843 0.66056716
0.00172122 0.008606106 0.66236758
0.0017363979 0.0069455802 0.66419965
0.0017522076 0.005256623 0.66610813
0.0017683954 0.0035367906 0.66806215
0.0017848917 0.0017848909 0.67005342
0.0018016984 2.9802322e-08 0.67208219
0.0018185074 -0.0018185079 0.67411119
0.0018344284 -0.0036688447 0.67603302
0.0018493515 -0.0055480003 0.67783439
0.001862888 -0.0074515641 0.67946839
0.0018746696 -0.0093733072 0.68089056
0.0018868999 -0.011321425 0.68236691
0.0019008494 -0.013305902 0.68405074
0.0019161288 -0.015329033 0.68589514
0.0019333052 -0.017399758 0.68796855
0.0019514161 -0.019514173 0.69015473
0.0019717247 -0.021688968 0.69260615
0.0019928813 -0.023914576 0.69515997
0.0020171038 -0.026222378 0.69808388
0.0020432312 -0.028605223 0.70123774
0.0020725825 -0.03108874 0.70478082
0.002109634 -0.03375414 0.70925331
0.0021833519 -0.037116975 0.71815181
0.0022216444 -0.039989591 0.72277415
0.0022557073 -0.042858452 0.72688591
0.0022980173 -0.045960337 0.73199314
0.002336313 -0.04906255 0.73661584
0.0023777131 -0.052309662 0.74161327
0.0024227868 -0.055724114 0.74705416
0.0024725073 -0.059340149 0.75305593
0.002528725 -0.063218117 0.75984204
0.0025972833 -0.067529351 0.76811773
0.0033107721 0.074492365 0.65442073
0.0033184574 0.073006064 0.65488452
0.0033461642 0.071942538 0.65655684
0.0033734506 0.070842505 0.65820366
0.0034011975 0.06972456 0.65987831
0.0034291104 0.068582207 0.66156304
0.0034571749 0.06741491 0.66325694
0.0034857024 0.06622836 0.66497868
0.0035144333 0.065017045 0.66671276
0.003543328 0.06377992 0.66845667
0.0035727015 0.062522292 0.67022949
0.0036016069 0.061227351 0.67197406
0.0036264574 0.059836566 0.67347401
0.0036443793 0.058310091 0.67455566
0.0036596926 0.056725234 0.67547989
0.0028733122 0.043099701 0.62801766
0.0028631513 0.041515678 0.62740445
0.0028817933 0.040345132 0.62852955
0.0029006714 0.039159089 0.62966889
0.0029199263 0.037959039 0.63083106
0.0029399134 0.036748946 0.6320374
0.0029601762 0.035522133 0.63326037
0.0029807203 0.034278303 0.63450027
0.0030015514 0.033017069 0.63575757
0.0030227029 0.0317384 0.63703418
0.0030447755 0.030447751 0.6383664
0.0030671631 0.029138058 0.63971764
0.0030898922 0.027809054 0.64108944
0.0031129606 0.026460171 0.64248168
0.0031364842 0.025091857 0.64390147
0.0031609449 0.023707062 0.64537781
0.0031857903 0.022300541 0.64687741
0.0032110291 0.020871669 0.64840072
0.0032366714 0.019420028 0.64994836
0.0032631622 0.017947406 0.65154713
0.0032904258 0.016452163 0.6531927
0.0033181491 0.014931679 0.65486598
0.0033463433 0.013385385 0.65656763
0.0033752483 0.011813343 0.6583122
0.0034052713 0.010215789 0.66012424
0.0034358448 0.0085895956 0.66196954
0.0034669721 0.0069339275 0.66384822
0.0034985833 0.0052478909 0.66575611
0.0035297675 0.0035297871 0.66763818
0.0035591563 0.0017795563 0.66941202
0.003586479 -0 0.67106104
0.0036109642 -0.0018054545 0.67253888
0.003632948 -0.0036329329 0.67386574
0.0036559224 -0.0054838657 0.67525238
0.0036827771 -0.0073655844 0.67687321
0.0037114464 -0.0092786252 0.67860353
0.0037439808 -0.011231929 0.68056715
0.0037779314 -0.013222724 0.68261623
0.0038160218 -0.015264064 0.68491518
0.0038556308 -0.017350316 0.68730581
0.0039006872 -0.019503415 0.69002521
0.0039488496 -0.021718681 0.69293213
0.0040032379 -0.02401942 0.69621474
0.0040691313 -0.026449323 0.70019174
0.004205897 -0.029441297 0.70844626
0.0042845905 -0.032134414 0.7131958
0.0043481854 -0.034785509 0.71703416
0.004413405 -0.037513912 0.72097045
0.0044836826 -0.040353119 0.7252121
0.0045725978 -0.043439686 0.7305786
0.0046540676 -0.046540707 0.73549581
0.0047431192 -0.04980278 0.74087048
0.004842713 -0.053269833 0.74688148
0.0049578766 -0.057015568 0.75383222
0.0051045045 -0.061254054 0.76268202
0.0049803942 0.074705929 0.65499353
0.0050042034 0.073395014 0.6559515
0.0050440393 0.072297901 0.65755445
0.0050845151 0.071183205 0.65918297
0.0051248926 0.070040196 0.66080773
0.0051658279 0.068877697 0.66245478
0.0052074404 0.06769672 0.66412914
0.0052465545 0.066456348 0.665703
0.0052795112 0.065113962 0.66702902
0.0053013829 0.063616633 0.66790915
0.0053244373 0.062118441 0.66883671
0.0053525362 0.060662091 0.66996735
0.0053832298 0.059215516 0.67120236
0.005415821 0.057768762 0.67251372
0.0054536196 0.056354076 0.6740346
0.0043206746 0.043206751 0.62844843
0.0042828652 0.041401058 0.62692714
0.0043023219 0.040155023 0.62770993
0.0043312465 0.038981199 0.62887383
0.0043605627 0.03779152 0.6300534
0.0043902784 0.036585659 0.63124907
0.0044212742 0.035370201 0.6324963
0.0044527506 0.034137785 0.63376278
0.0044846786 0.032887638 0.63504744
0.0045170542 0.03161937 0.63635015
0.004549914 0.030332744 0.63767231
0.0045841513 0.029032946 0.63904995
0.0046189791 0.027713895 0.64045131
0.00465434 0.026374578 0.64187407
0.0046902462 0.025014669 0.64331889
0.0047269049 0.023634493 0.64479387
0.0047650328 0.022236824 0.64632803
0.0048037809 0.020816386 0.64788711
0.0048431489 0.019372612 0.64947116
0.0048831832 0.017905027 0.65108204
0.0049247895 0.016415983 0.65275615
0.0049673906 0.014902204 0.65447032
0.005010752 0.01336199 0.65621501
0.0050548767 0.011794716 0.65799046
0.0050992658 0.010198534 0.65977651
0.0051423442 0.0085705817 0.66150987
0.0051831836 0.0069109201 0.66315311
0.0052209157 0.0052209198 0.66467136
0.0052543045 0.0035028756 0.66601485
0.0052853674 0.0017617941 0.6672647
0.0053177597 -2.9802322e-08 0.66856802
0.0053566047 -0.0017855167 0.67013103
0.0053970302 -0.0035980046 0.67175764
0.005443316 -0.0054433048 0.67362005
0.0054911454 -0.0073215365 0.67554456
0.0055448571 -0.0092414021 0.67770571
0.0056005912 -0.011201203 0.67994833
0.0056636045 -0.013215065 0.68248379
0.0057302825 -0.015280753 0.68516666
0.0058066235 -0.017419875 0.68823838
0.0058966549 -0.019655526 0.69186103
0.0060514086 -0.022188514 0.69808781
0.0062035373 -0.024814129 0.70420903
0.0062945331 -0.027276278 0.70787036
0.0063855206 -0.029799074 0.7115314
0.0064822827 -0.032411397 0.71542478
0.0065842164 -0.035115808 0.71952629
0.0066939415 -0.037932366 0.72394139
0.0068128547 -0.040877104 0.72872603
0.0069695623 -0.044140577 0.73503149
0.0071196062 -0.047464013 0.74106872
0.0073005292 -0.051103741 0.74834859
0.0075530419 -0.055388957 0.75850886
0.006659572 0.074920207 0.65556824
0.006699766 0.073697448 0.65678126
0.0067516807 0.072580576 0.6583479
0.0067983051 0.071382225 0.65975493
0.0068367152 0.070076317 0.66091406
0.0068611833 0.06861183 0.66165245
0.0068921112 0.067198098 0.66258574
0.0069283764 0.065819561 0.6636802
0.0069674491 0.064448893 0.66485929
0.0070088552 0.063079685 0.66610885
0.0070572696 0.061751097 0.66756988
0.0071121659 0.060453385 0.66922653
0.007171236 0.059162706 0.67100912
0.0072308253 0.057846606 0.67280734
0.0072909887 0.056505173 0.67462295
0.0073515126 0.055136383 0.67644942
0.0057245665 0.041503102 0.627352
0.0057125571 0.039987922 0.6269896
0.0057519586 0.038825721 0.62817866
0.0057919081 0.037647396 0.62938422
0.005832416 0.036452562 0.63060665
0.0058734943 0.035240948 0.63184631
0.0059159603 0.034016788 0.63312781
0.0059594521 0.032776982 0.6344403
0.0060036066 0.031518936 0.63577282
0.0060484023 0.030241996 0.63712466
0.0060938713 0.028945893 0.63849676
0.0061411024 0.027634948 0.63992208
0.0061893594 0.026304811 0.64137834
0.0062383604 0.024953425 0.64285707
0.0062881638 0.023580581 0.64436007
0.0063391095 0.022186875 0.64589751
0.0063920515 0.020774186 0.64749515
0.0064458852 0.019337684 0.64911973
0.006500612 0.017876685 0.65077126
0.0065562981 0.016390741 0.65245175
0.0066117663 0.014876455 0.65412563
0.0066646729 0.013329327 0.6557222
0.0067147589 0.011750847 0.65723372
0.0067611919 0.01014179 0.65863496
0.0068015628 0.0085019469 0.65985322
0.0068412018 0.0068412125 0.66104943
0.0068818969 0.0051614344 0.66227752
0.0069318791 0.0034659505 0.66378587
0.0069826418 0.001745671 0.66531777
0.0070413053 -2.9802322e-08 0.66708815
0.0071013151 -0.0017753243 0.66889906
0.0071687191 -0.0035843551 0.67093313
0.0072385664 -0.0054289103 0.67304099
0.0073170839 -0.0073170662 0.67541051
0.0073993197 -0.0092491508 0.67789215
0.0074947467 -0.011242121 0.68077195
0.0076042642 -0.013307422 0.68407691
0.0077500497 -0.015500098 0.68847638
0.007992791 -0.017983794 0.69580173
0.0081095081 -0.020273775 0.69932401
0.008222755 -0.022612572 0.7027415
0.0083413627 -0.025024086 0.70632076
0.0084668081 -0.02751714 0.71010643
0.0086015519 -0.030105412 0.71417272
0.00874539 -0.032795221 0.71851343
0.0089012003 -0.035604775 0.7232154
0.0090737166 -0.038563281 0.72842151
0.0093177119 -0.041929722 0.73578483
0.0095738173 -0.045475662 0.74351341
0.0084347641 0.077599853 0.65823114
0.00834841 0.075135678 0.65614641
0.0083339214 0.073338538 0.65579659
0.0083720172 0.071999371 0.65671635
0.0084151309 0.070687115 0.65775716
0.0084615238 0.069384456 0.65887719
0.0085114697 0.06809175 0.660083
0.0085691055 0.066839039 0.66147441
0.0086345552 0.065622628 0.66305453
0.0087041901 0.064411044 0.66473567
0.0087743737 0.063175529 0.66643006
0.0088452287 0.06191659 0.66814065
0.0089164749 0.06063205 0.6698606
0.0089907506 0.059338957 0.67165387
0.0090671619 0.05802983 0.67349863
0.0091499677 0.056729794 0.67549765
0.0092377774 0.055426687 0.67761761
0.0071734148 0.0416058 0.62777948
0.0071154111 0.039846331 0.62637913
0.0071649295 0.038690627 0.62757462
0.0072159539 0.037522972 0.62880647
0.0072677098 0.036338538 0.63005596
0.0073202141 0.035137028 0.63132352
0.0073735034 0.033918142 0.63261002
0.0074281925 0.032684058 0.63393033
0.0074846614 0.031435579 0.6352936
0.0075419722 0.030167878 0.63667727
0.007600191 0.028880745 0.6380828
0.0076593156 0.027573526 0.63951015
0.0077206064 0.026250064 0.64098984
0.0077834181 0.024906933 0.64250624
0.0078472607 0.023541778 0.64404756
0.007912159 0.022154033 0.64561439
0.0079777585 0.020742208 0.64719802
0.0080429288 0.019303054 0.64877141
0.0081041288 0.01782909 0.65024889
0.0081617646 0.016323537 0.65164036
0.0082153948 0.014787704 0.65293509
0.008261187 0.013217926 0.65404063
0.0083086519 0.011632115 0.65518653
0.0083580324 0.010029644 0.65637869
0.0084170559 0.0084170699 0.65780365
0.0084771495 0.0067817271 0.65925443
0.0085467109 0.005128026 0.66093373
0.0086174235 0.0034469664 0.66264099
0.0086969286 0.0017393827 0.66456038
0.0087791458 -2.9802322e-08 0.66654527
0.0088709779 -0.0017741919 0.66876233
0.0089669693 -0.0035867691 0.67107975
0.0090782838 -0.0054469407 0.67376709
0.0092033865 -0.0073626935 0.67678732
0.009364401 -0.0093644261 0.68067461
0.0096606649 -0.011592776 0.68782699
0.0098059168 -0.013728291 0.69133365
0.0099384394 -0.015901476 0.69453311
0.01007508 -0.01813516 0.69783193
0.010221373 -0.020442724 0.70136368
0.010375634 -0.022826374 0.70508784
0.01053906 -0.025293738 0.70903331
0.010717763 -0.027866155 0.71334761
0.010912427 -0.030554771 0.7180472
0.011129174 -0.033387512 0.72327995
0.011378721 -0.036411911 0.72930449
0.011808713 -0.040149629 0.73968548
0.010151253 0.077826291 0.65882534
0.010047026 0.075352699 0.65672851
0.0099449176 0.072929382 0.65467417
0.0099968426 0.071644038 0.65571886
0.0100718 0.070502609 0.65722692
0.010150738 0.069363356 0.65881503
0.010230226 0.068201482 0.66041422
0.010310507 0.0670183 0.66202933
0.010391161 0.06581068 0.66365194
0.010475023 0.064595997 0.66533911
0.010561437 0.063368618 0.66707766
0.010653938 0.062148005 0.66893858
0.010753078 0.060934126 0.67093313
0.010866575 0.059766173 0.67321652
0.010985787 0.058590859 0.67561489
0.011096109 0.057329923 0.67783439
0.01119713 0.055985659 0.67986679
0.011292441 0.054580122 0.68178427
0.0085539669 0.039918512 0.62669045
0.0085737295 0.038581789 0.62708807
0.0086346632 0.037416875 0.62831396
0.0086982325 0.036242664 0.62959284
0.0087627191 0.035050869 0.63089025
0.0088281957 0.033841431 0.63220751
0.0088946577 0.032613754 0.63354462
0.0089624757 0.031368673 0.63490903
0.0090329936 0.030110002 0.63632774
0.00910463 0.028831333 0.63776892
0.0091774119 0.02753225 0.63923317
0.0092513664 0.026212215 0.64072102
0.0093253925 0.024867684 0.64221036
0.0093978764 0.023494661 0.64366859
0.0094670756 0.022089839 0.64506078
0.0095310034 0.020650506 0.64634693
0.009589578 0.019179165 0.64752531
0.0096412236 0.017675608 0.64856434
0.0096950876 0.016158491 0.64964801
0.0097526917 0.014629036 0.65080696
0.0098196501 0.013092875 0.65215403
0.0098885437 0.011536658 0.65354002
0.0099674026 0.0099674165 0.65512663
0.010047531 0.0083729327 0.65673864
0.010137678 0.0067584217 0.65855229
0.010230749 0.00511536 0.66042465
0.010334074 0.0034447014 0.66250342
0.010442594 0.0017404258 0.66468668
0.010566716 -0 0.66718382
0.010704042 -0.0017840266 0.66994661
0.010874526 -0.0036248267 0.6733765
0.011216583 -0.0056082606 0.68025815
0.011393713 -0.0075958073 0.68382168
0.011544252 -0.0096202195 0.68685037
0.011697091 -0.011697084 0.68992519
0.01185984 -0.013836443 0.69319946
0.012029734 -0.01603964 0.69661748
0.01221256 -0.018318862 0.70029563
0.012408101 -0.020680159 0.70422959
0.012619016 -0.023134857 0.70847297
0.012851295 -0.025702596 0.71314609
0.013115047 -0.028415918 0.71845227
0.013429265 -0.031334937 0.72477388
0.013871754 -0.034679383 0.73367608
0.011877749 0.078053772 0.6594224
0.011941978 0.076769888 0.66052991
0.011635668 0.073138475 0.65524781
0.011694252 0.071836144 0.65625805
0.011783165 0.070699006 0.65779138
0.011875372 0.069555789 0.65938139
0.011970548 0.068403095 0.66102266
0.012071129 0.067253441 0.6627571
0.012180231 0.06612125 0.66463846
0.012301986 0.065024793 0.66673809
0.012433213 0.063942254 0.66900098
0.012558843 0.062794209 0.67116743
0.012673037 0.06155479 0.67313659
0.012777662 0.060237557 0.67494082
0.012878345 0.058872432 0.67667705
0.012976347 0.057466686 0.67836702
0.01307024 0.056015342 0.67998612
0.013165255 0.054541796 0.68162459
0.010004228 0.040016919 0.62711465
0.0099799968 0.038494319 0.62669683
0.010052782 0.037338883 0.62795198
0.010126637 0.036166549 0.62922555
0.010203011 0.034981787 0.63054252
0.010281331 0.033781528 0.6318931
0.010360862 0.032562733 0.6332646
0.010441634 0.031324923 0.63465744
0.010523642 0.030067563 0.63607168
0.010605022 0.02878505 0.63747501
0.010683238 0.027471215 0.63882375
0.010758087 0.026126802 0.64011449
0.010828197 0.024750143 0.64132345
0.010890755 0.023337334 0.64240229
0.010947499 0.021895051 0.64338076
0.011007018 0.020441622 0.64440715
0.011072401 0.018981248 0.64553463
0.011146363 0.017515689 0.64681005
0.011223261 0.016033202 0.64813614
0.011310314 0.014541835 0.64963734
0.011398729 0.013027102 0.65116197
0.011498269 0.011498272 0.65287846
0.011600828 0.0099435747 0.65464699
0.011714043 0.0083672106 0.65659934
0.011833564 0.0067620277 0.65866041
0.011968339 0.0051292777 0.66098458
0.012115055 0.0034614205 0.66351455
0.012290373 0.001755774 0.66653782
0.012669691 -0 0.67307889
0.01288185 -0.0018402338 0.67673749
0.01305037 -0.003728658 0.67964351
0.01321777 -0.0056647658 0.68253022
0.013393359 -0.0076533556 0.68555814
0.013577939 -0.00969854 0.68874115
0.013775095 -0.011807203 0.69214094
0.013983308 -0.013983339 0.69573146
0.014207875 -0.016237557 0.69960392
0.014454192 -0.018583953 0.70385152
0.014727077 -0.021038651 0.70855725
0.015039337 -0.023633271 0.71394199
0.015434256 -0.02645871 0.72075218
0.013614368 0.078282624 0.66002285
0.013528234 0.076096296 0.65872324
0.013336095 0.073348552 0.65582407
0.013408913 0.072072923 0.65692276
0.013526634 0.071014851 0.6586991
0.013654818 0.069980949 0.66063321
0.013796574 0.068982869 0.66277218
0.013936791 0.067941844 0.66488785
0.014060943 0.066789448 0.66676122
0.014176022 0.065564096 0.66849756
0.014287644 0.064294398 0.67018181
0.014393218 0.06297031 0.6717748
0.014496479 0.061610103 0.67333287
0.014598729 0.060219765 0.67487574
0.014702432 0.058809757 0.67644048
0.014807563 0.057379305 0.6780268
0.014911265 0.055917263 0.67959154
0.015016486 0.054434776 0.68117917
0.011461657 0.040115803 0.62754095
0.011384885 0.038424015 0.62638253
0.011470195 0.037278146 0.62766981
0.011556793 0.036114931 0.62897646
0.011644709 0.034934103 0.63030303
0.011733182 0.033732891 0.63163799
0.011821612 0.032509446 0.63297224
0.011904371 0.031248987 0.63422102
0.01198349 0.029958695 0.63541484
0.012057995 0.028637767 0.63653898
0.012124026 0.027279079 0.63753533
0.012185738 0.025894701 0.63846648
0.012250255 0.024500489 0.63944006
0.012323041 0.023105711 0.64053822
0.012403189 0.021705598 0.64174753
0.012487346 0.020291954 0.64301741
0.012581625 0.01887244 0.64443994
0.012677337 0.017431349 0.64588416
0.012785166 0.015981466 0.64751112
0.012896131 0.014508128 0.64918554
0.013017842 0.013017833 0.65102196
0.01314692 0.011503518 0.65296966
0.013290488 0.0099678636 0.65513593
0.013444266 0.0084027052 0.65745622
0.013633054 0.0068165064 0.66030478
0.013954719 0.0052330196 0.66515839
0.014280508 0.0035701394 0.67007416
0.014465884 0.0018082559 0.67287123
0.014645787 -0 0.67558581
0.014831759 -0.0018539727 0.67839193
0.01502968 -0.0037573874 0.68137825
0.015237244 -0.0057139695 0.68451017
0.015457124 -0.0077285469 0.68782789
0.015694696 -0.0098091662 0.69141257
0.015949976 -0.011962473 0.69526446
0.01622967 -0.014200956 0.69948471
0.016545365 -0.016545355 0.70424819
0.016918587 -0.019033402 0.70987964
0.017426286 -0.021782845 0.71754026
0.019269397 -0.026495427 0.74535066
0.015202206 0.076011032 0.65849441
0.015082754 0.073737919 0.6568923
0.015235019 0.07278952 0.65893453
0.015368905 0.071721584 0.66073024
0.015494977 0.070588231 0.66242117
0.015616579 0.069406986 0.66405213
0.015728999 0.068158984 0.66555989
0.015840929 0.066883951 0.66706121
0.015949437 0.065569907 0.66851652
0.016059441 0.064237773 0.66999191
0.016171031 0.062887341 0.67148864
0.01628224 0.061510682 0.67298019
0.016393676 0.060110152 0.67447478
0.016506707 0.058690518 0.67599082
0.01662088 0.057249725 0.67752206
0.016732415 0.055774689 0.67901802
0.016846463 0.054283082 0.68054771
0.016962206 0.05277127 0.68210006
0.012813426 0.038440257 0.62645543
0.012884992 0.037223309 0.6274153
0.012977749 0.036049306 0.62865937
0.013066011 0.0348427 0.62984312
0.013148379 0.033601433 0.63094783
0.013226347 0.032331109 0.63199359
0.01329417 0.031019747 0.63290328
0.013361186 0.029691517 0.63380212
0.013430121 0.028352499 0.63472676
0.013509898 0.027019799 0.63579667
0.01359551 0.025680423 0.63694495
0.013686332 0.024331242 0.63816309
0.01378698 0.022978306 0.63951302
0.013889118 0.021605313 0.64088291
0.014004271 0.020228356 0.64242738
0.014122589 0.018830121 0.64401424
0.014251532 0.017418534 0.64574373
0.014389056 0.015987813 0.64758825
0.014539815 0.014539838 0.64961028
0.014703313 0.01306963 0.65180308
0.014899015 0.011588156 0.65442795
0.015155189 0.010103464 0.6578638
0.015594783 0.0086637437 0.66375983
0.015798528 0.0070215762 0.66649246
0.015989305 0.0053297579 0.66905129
0.016184632 0.0035965741 0.67167103
0.0163929 0.0018214583 0.67446434
0.016608376 -0 0.67735434
0.016840478 -0.0018711686 0.68046743
0.017085318 -0.0037967265 0.68375123
0.017346062 -0.0057820082 0.68724847
0.017633718 -0.0078371763 0.69110656
0.017951163 -0.0099728703 0.69536424
0.018312208 -0.012208134 0.70020676
0.018760171 -0.014591247 0.7062149
0.019609436 -0.017430604 0.71760547
0.016940692 0.076233149 0.65909016
0.016868733 0.074222416 0.65822154
0.016990453 0.073058963 0.6596908
0.017109787 0.071861118 0.66113138
0.017224347 0.070619822 0.66251421
0.017339787 0.069359154 0.66390765
0.017456787 0.068081498 0.66532004
0.017574944 0.066784799 0.66674626
0.017691771 0.065459579 0.6681565
0.017810224 0.064116806 0.66958636
0.01793021 0.062755764 0.67103469
0.018049154 0.061367124 0.67247045
0.018168367 0.059955627 0.67390954
0.018289434 0.058526218 0.67537087
0.018412124 0.057077587 0.67685193
0.018534617 0.055603892 0.67833054
0.018676233 0.054161072 0.68004
0.018913506 0.052957833 0.68290412
0.014272186 0.038534909 0.62687844
0.014257059 0.037068367 0.62669581
0.014337086 0.035842687 0.62766188
0.014406561 0.03457576 0.62850046
0.014478471 0.033300459 0.62936854
0.014551315 0.03201288 0.63024783
0.01463773 0.030739248 0.63129091
0.014728169 0.029456317 0.63238263
0.014825044 0.028167576 0.63355201
0.014931308 0.02687633 0.63483477
0.015039106 0.025566489 0.636136
0.015160774 0.024257243 0.63760465
0.015285546 0.022928357 0.63911074
0.015420655 0.021588922 0.64074171
0.015565529 0.020235181 0.64249051
0.015722089 0.018866509 0.64438033
0.015894089 0.017483503 0.64645648
0.016094653 0.016094685 0.64887756
0.016348759 0.014713913 0.65194488
0.01682166 0.013457328 0.65765333
0.017052585 0.011936814 0.66044086
0.017255709 0.010353446 0.6628927
0.017460382 0.0087302029 0.66536337
0.017675521 0.0070702136 0.66796041
0.017900191 0.0053700805 0.67067236
0.018139191 0.0036278367 0.67355728
0.01838878 0.0018388927 0.67657012
0.018660281 -0 0.67984742
0.018951401 -0.0018951297 0.68336153
0.019268947 -0.0038537979 0.68719471
0.019625219 -0.0058875382 0.6914953
0.020043209 -0.0080172718 0.69654083
0.02059225 -0.010296106 0.70316839
0.022754544 -0.013652742 0.72926956
0.018549789 0.07419917 0.65815771
0.018671492 0.07298857 0.65949321
0.018794866 0.071762204 0.66084713
0.018917346 0.070510119 0.66219115
0.01904038 0.069237769 0.66354126
0.019165087 0.067948937 0.66490984
0.019291308 0.066642702 0.66629493
0.019414816 0.065304399 0.66765022
0.019540472 0.063950628 0.66902918
0.019667765 0.062579244 0.67042601
0.019796157 0.061188132 0.67183495
0.019923784 0.059771359 0.67323548
0.02011029 0.058502674 0.67528218
0.020360325 0.057379097 0.67802596
0.015877435 0.040415287 0.6288321
0.0157381 0.03862986 0.62730312
0.015601235 0.036875635 0.62580121
0.015618059 0.035495609 0.62598574
0.015710833 0.034278184 0.62700385
0.015805487 0.033047855 0.62804258
0.015907997 0.031816006 0.6291675
0.01601921 0.03058213 0.6303879
0.01613199 0.029330879 0.63162547
0.016259326 0.028084308 0.63302284
0.016389763 0.026819617 0.63445425
0.016530199 0.02554667 0.63599527
0.016681502 0.024264038 0.63765562
0.016842658 0.022967279 0.63942415
0.017022053 0.021664411 0.64139277
0.017225666 0.020357609 0.64362717
0.017474782 0.019063443 0.64636087
0.017977994 0.017977983 0.65188301
0.018235549 0.01657778 0.65470934
0.018451409 0.015096635 0.65707815
0.018664021 0.013573825 0.65941125
0.018884374 0.01201728 0.66182935
0.019117426 0.010427713 0.66438675
0.019360729 0.0088003278 0.66705668
0.019618692 0.0071340799 0.66988754
0.019893682 0.0054255724 0.67290515
0.020185521 0.0036700964 0.67610776
0.020503983 0.0018640161 0.67960238
0.020856811 2.9802322e-08 0.6834743
0.021255843 -0.001932323 0.68785316
0.021741578 -0.00395298 0.69318342
0.022504123 -0.0061374903 0.70155138
0.020236747 0.074201465 0.65816391
0.020331999 0.072856307 0.65912205
0.020462265 0.071617931 0.66043246
0.020592021 0.070356041 0.66173768
0.020721646 0.069072157 0.66304159
0.02085284 0.067771703 0.6643613
0.020985704 0.066454738 0.66569781
0.021118343 0.065114886 0.66703206
0.021250863 0.063752621 0.66836506
0.021485072 0.062664807 0.67072105
0.021746609 0.061615407 0.67335194
0.017364016 0.040516049 0.62926644
0.017365171 0.039071649 0.62927806
0.017061265 0.036966085 0.62622106
0.016939105 0.035289794 0.62499219
0.017054675 0.034109324 0.62615472
0.017171832 0.032912701 0.62733322
0.017304264 0.031724483 0.62866533
0.017439667 0.030519456 0.63002741
0.017584514 0.029307514 0.63148451
0.017741429 0.028090596 0.6330629
0.017906135 0.026859194 0.63471973
0.018091954 0.025630236 0.63658893
0.01829721 0.0243963 0.63865364
0.018538781 0.023173481 0.64108366
0.019060858 0.022237659 0.64633536
0.019354485 0.020967335 0.64928901
0.019582167 0.019582123 0.65157932
0.019801609 0.018151492 0.65378672
0.020026093 0.016688406 0.65604484
0.020265913 0.015199423 0.65845728
0.020511966 0.013674676 0.6609323
0.020777144 0.012120008 0.66359985
0.021053402 0.010526747 0.6663788
0.0213497 0.0088956952 0.66935933
0.021670008 0.0072233379 0.67258132
0.022017742 0.0055044293 0.67607927
0.022405624 0.0037342906 0.67998111
0.022857605 0.0019048154 0.6845277
0.023429967 -2.9802322e-08 0.69028521
0.025877725 -0.0021564662 0.71490771
0.021987095 0.074417859 0.65875769
0.021973059 0.072680146 0.65862739
0.02210921 0.071429789 0.65989161
0.022246605 0.070162386 0.66116738
0.022383098 0.068871081 0.6624347
0.0225386 0.067615807 0.66387868
0.022804175 0.066658318 0.66634464
0.018858081 0.040617406 0.6297034
0.018875649 0.039203256 0.62986654
0.01901114 0.03802228 0.63112462
0.018367954 0.035322964 0.62515241
0.018439131 0.034041464 0.62581331
0.018587722 0.032885969 0.62719303
0.018749528 0.031729966 0.62869543
0.018916873 0.03055799 0.63024938
0.019108258 0.029397339 0.63202643
0.019313758 0.028227836 0.63393462
0.01955313 0.027073532 0.63615727
0.019974947 0.02612108 0.64007401
0.020414213 0.025125235 0.64415276
0.020652868 0.023830235 0.64636886
0.020878388 0.022484452 0.64846283
0.021108616 0.021108627 0.65060067
0.021351263 0.019708872 0.65285373
0.021603212 0.018279642 0.65519321
0.021869924 0.016822994 0.65766972
0.022148207 0.015333384 0.6602537
0.022448216 0.01381427 0.66303945
0.022765465 0.012258351 0.66598517
0.023107888 0.010665178 0.66916478
0.023488982 0.0090342164 0.67270339
0.023917543 0.0073592067 0.67668277
0.024429373 0.0056375563 0.68143535
0.025180541 0.0038739443 0.68841028
0.023594111 0.072467625 0.65803093
0.023796087 0.071388274 0.65977234
0.024070915 0.0704934 0.66214192
0.020359524 0.040719062 0.63014162
0.020241745 0.039037675 0.62912613
0.020333875 0.03776291 0.62992048
0.019829139 0.035409212 0.62556851
0.0198786 0.034077585 0.62599504
0.020074798 0.032980025 0.62768662
0.020279484 0.031867772 0.62945151
0.020524465 0.030786723 0.63156378
0.020846104 0.029780149 0.63433701
0.021406043 0.029051065 0.63916492
0.021663895 0.027853578 0.64138818
0.021899108 0.026591748 0.64341623
0.022134235 0.025296271 0.6454435
0.022378542 0.023977041 0.64754999
0.022635469 0.02263549 0.64976525
0.022902405 0.02126652 0.65206683
0.023185683 0.01987347 0.65450931
0.023484007 0.018451691 0.65708154
0.023799807 0.016999871 0.6598044
0.024143839 0.01552102 0.66277075
0.024515796 0.014008999 0.66597784
0.024928369 0.012464195 0.6695351
0.025405735 0.010888189 0.67365104
0.025999606 0.0092855692 0.6787715
0.028725823 0.0082074106 0.70227742
0.026329307 0.056169212 0.66647983
0.026382616 0.054524064 0.66690886
0.026541408 0.053082824 0.66818672
0.026745323 0.051707625 0.6698277
0.021868693 0.040821552 0.63058358
0.021674931 0.039014906 0.62902433
0.021484576 0.037239939 0.62749243
0.021297473 0.035495818 0.62598675
0.021447921 0.034316689 0.62719744
0.021758063 0.033362359 0.62969327
0.022341028 0.032766879 0.63438463
0.022623327 0.031672686 0.6366564
0.022867959 0.030490637 0.63862503
0.023107266 0.029269189 0.64055085
0.023352217 0.028022677 0.6425221
0.023613257 0.026761681 0.64462274
0.023880273 0.025472313 0.64677155
0.024166776 0.024166793 0.64907718
0.024462152 0.022831351 0.65145409
0.024781926 0.021477669 0.65402746
0.025119836 0.020095855 0.65674675
0.025481179 0.018686175 0.65965462
0.025884546 0.017256379 0.66290069
0.02633596 0.015801579 0.66653335
0.026864991 0.014328003 0.67079067
0.027605895 0.012882769 0.67675298
0.030355064 0.012142032 0.69887662
0.027457912 0.060064167 0.66175187
0.027515952 0.058471382 0.66218972
0.027676903 0.057083607 0.66340405
0.027882414 0.055764854 0.66495448
0.028121689 0.054485798 0.66675967
0.028353048 0.053161919 0.66850519
0.028569272 0.051781833 0.67013645
0.028763063 0.050335377 0.67159849
0.023177626 0.03911224 0.62945962
0.022973634 0.037332118 0.62792063
0.023228869 0.036295086 0.62984622
0.02353535 0.035303056 0.6321584
0.023788935 0.034196585 0.63407153
0.024031656 0.033043504 0.63590276
0.024279309 0.03186658 0.63777119
0.024540916 0.030676156 0.63974488
0.024811145 0.029463232 0.64178354
0.025095886 0.028232902 0.64393175
0.025393438 0.026980549 0.64617658
0.025710179 0.025710195 0.64856625
0.026041187 0.024413586 0.65106356
0.026404673 0.023104131 0.65380573
0.026795926 0.021771699 0.65675759
0.027227625 0.02042073 0.66001451
0.027723676 0.019060075 0.66375691
0.028334986 0.017709374 0.66836894
0.031310335 0.0176121 0.69081616
0.028537149 0.063788921 0.6572296
0.028599996 0.062247038 0.65767586
0.028762758 0.06090939 0.6588316
0.028969055 0.059642166 0.66029644
0.029212203 0.058424383 0.66202295
0.029449981 0.057167649 0.66371131
0.029669501 0.055848479 0.66526997
0.029869536 0.054467946 0.66669041
0.030057942 0.053043455 0.66802818
0.030229822 0.051568508 0.66924864
0.030370459 0.050021946 0.67024726
0.02468791 0.03921026 0.62989759
0.024664216 0.037721753 0.62972933
0.024910886 0.036633641 0.63148081
0.02516135 0.035521895 0.6332593
0.025422141 0.034394652 0.63511109
0.025694992 0.033252329 0.63704854
0.025977176 0.032089472 0.63905221
0.026277067 0.030914217 0.64118159
0.026588945 0.029717088 0.64339614
0.026922116 0.028505772 0.64576191
0.027277118 0.027277112 0.64828253
0.027654998 0.026028246 0.65096575
0.028074039 0.024771214 0.65394127
0.028542992 0.023505986 0.65727109
0.029088529 0.022244155 0.66114473
0.029829524 0.021056175 0.66640627
0.032789536 0.02121675 0.68742424
0.029646197 0.065880418 0.65340972
0.029801978 0.064570963 0.65445441
0.030008715 0.06335175 0.65584081
0.030255089 0.06219101 0.65749305
0.030498721 0.060997456 0.65912688
0.030721141 0.059735566 0.66061854
0.030927062 0.058417797 0.6619994
0.031122206 0.05705741 0.66330802
0.031296216 0.055637717 0.66447496
0.031445146 0.054155529 0.6654737
0.031572353 0.05262062 0.66632676
0.031684533 0.051047325 0.66707915
0.0269133 0.04186514 0.63508248
0.026205778 0.039308667 0.63033777
0.02626026 0.037931502 0.63070315
0.02653523 0.036854506 0.63254714
