# .PCD v0.7 - Point Cloud Data file format
VERSION 0.7
FIELDS x y z
SIZE 4 4 4
TYPE F F F
COUNT 1 1 1
WIDTH 1340
HEIGHT 1
VIEWPOINT 0 0 0 1 0 0 0
POINTS 1340
DATA ascii
-0.026181374 -0.045817405 0.71796215
-0.026328206 -0.048268348 0.71943921
-0.02647681 -0.050747186 0.72093409
-0.026633127 -0.053266287 0.72250652
-0.026794048 -0.055820942 0.72412521
-0.026959954 -0.058413208 0.72579408
-0.02713234 -0.061047763 0.72752815
-0.027309923 -0.063723147 0.72931457
-0.027493751 -0.066443205 0.73116362
-0.027685046 -0.069212615 0.73308802
-0.027881743 -0.072027802 0.73506653
-0.028087163 -0.074899107 0.73713297
-0.028297901 -0.077819228 0.73925287
-0.028518597 -0.080802679 0.74147284
-0.020903308 0.019003063 0.68398452
-0.020876588 0.017080843 0.68369132
-0.020926436 0.015219241 0.68423831
-0.020995086 0.01336056 0.68499166
-0.021078303 0.011497259 0.68590486
-0.021176759 0.0096257925 0.68698531
-0.021281734 0.0077388287 0.68813723
-0.021400226 0.0058364272 0.68943751
-0.021524761 0.0039136112 0.69080412
-0.021652114 0.0019683838 0.69220173
-0.021773919 2.9802322e-08 0.69353831
-0.02188091 -0.0019891858 0.69471246
-0.021970699 -0.0039946735 0.69569772
-0.022038085 -0.0060104132 0.69643724
-0.022100737 -0.0080366135 0.69712478
-0.022165533 -0.010075241 0.6978358
-0.022239963 -0.012130886 0.69865257
-0.022314802 -0.0142003 0.69947374
-0.022397436 -0.016289026 0.70038062
-0.022483256 -0.018395394 0.70132238
-0.022571681 -0.020519704 0.70229274
-0.022667706 -0.022667706 0.70334649
-0.022764649 -0.024834156 0.70441031
-0.022867462 -0.027025133 0.70553851
-0.022974558 -0.02924037 0.7067138
-0.023082569 -0.0314762 0.70789903
-0.02319932 -0.033744454 0.7091803
-0.023317656 -0.036036372 0.71047884
-0.023439299 -0.038355201 0.71181375
-0.023567971 -0.040708303 0.71322572
-0.023738846 -0.043161541 0.71510088
-0.023874769 -0.045579106 0.71659243
-0.024015717 -0.04803142 0.71813911
-0.024159189 -0.050514638 0.71971357
-0.024310503 -0.053041101 0.72137403
-0.024464486 -0.05560115 0.72306383
-0.024624616 -0.058203638 0.72482097
-0.024790989 -0.06085062 0.72664672
-0.024962114 -0.063539922 0.72852463
-0.025139866 -0.066277802 0.73047525
-0.025323549 -0.06906423 0.7324909
-0.025513601 -0.071901947 0.73457646
-0.025710966 -0.074795514 0.73674232
-0.025915317 -0.077745914 0.7389847
-0.026127528 -0.080757827 0.74131358
-0.018588394 0.024164915 0.67897964
-0.018605536 0.022326618 0.67918664
-0.0186527 0.020517975 0.67975593
-0.018722916 0.018722951 0.6806035
-0.018797545 0.016917825 0.68150437
-0.018888516 0.015110821 0.68260247
-0.018981237 0.013286889 0.68372172
-0.019088989 0.01145339 0.68502241
-0.0191979 0.0095989108 0.68633705
-0.019308878 0.0077235699 0.68767667
-0.019412484 0.0058237314 0.68892729
-0.019503741 0.0039007366 0.69002891
-0.019576615 0.0019576252 0.69090855
-0.019632997 -0 0.69158912
-0.01968769 -0.0019687414 0.69224942
-0.019745728 -0.0039491355 0.69294995
-0.019810615 -0.0059431791 0.69373316
-0.019875932 -0.0079503655 0.69452167
-0.019948917 -0.0099744797 0.69540268
-0.020023879 -0.012014329 0.6963076
-0.020101346 -0.014070928 0.69724262
-0.020185195 -0.01614818 0.69825482
-0.020269748 -0.018242747 0.69927537
-0.020359317 -0.020359337 0.7003566
-0.020452691 -0.022497952 0.70148379
-0.020546841 -0.024656206 0.70262021
-0.020648165 -0.026842594 0.7038433
-0.020751355 -0.02905187 0.70508891
-0.020856449 -0.03128466 0.70635754
-0.020968501 -0.033549607 0.70771003
-0.021081761 -0.035838962 0.70907724
-0.021199485 -0.038159072 0.71049833
-0.021322075 -0.040511966 0.71197814
-0.021482369 -0.042964727 0.71391308
-0.021613115 -0.045387536 0.71549135
-0.021746974 -0.047843337 0.71710718
-0.02188413 -0.0503335 0.71876276
-0.022028649 -0.052868783 0.72050726
-0.022175582 -0.055438936 0.72228092
-0.022329072 -0.058055609 0.72413367
-0.022487225 -0.060715497 0.72604275
-0.022650199 -0.063420564 0.72801006
-0.022820756 -0.06618017 0.7300688
-0.022994746 -0.06898424 0.73216903
-0.023178492 -0.07185334 0.7343871
-0.023365965 -0.074771106 0.73665011
-0.023563594 -0.077759862 0.73903567
-0.023767529 -0.080809593 0.7414974
-0.01642351 0.031022191 0.67487496
-0.016392304 0.029141903 0.67445636
-0.016425187 0.02737534 0.67489743
-0.016473135 0.025624841 0.67554057
-0.016535742 0.023884952 0.67638022
-0.016606048 0.022141397 0.67732316
-0.016684925 0.020392716 0.67838115
-0.016769612 0.018632919 0.67951697
-0.016863054 0.016863048 0.68077028
-0.016957926 0.015073717 0.68204266
-0.017053161 0.013263583 0.68331999
-0.017138703 0.011425793 0.68446732
-0.01721582 0.0095643401 0.68550164
-0.017274994 0.0076777935 0.68629533
-0.01732244 0.0057741702 0.68693167
-0.017369745 0.003859967 0.68756616
-0.017421219 0.0019356906 0.6882565
-0.017477337 2.9802322e-08 0.68900913
-0.01753382 -0.0019482076 0.68976671
-0.017597677 -0.0039105713 0.69062322
-0.017662419 -0.0058874786 0.69149154
-0.017729804 -0.0078799129 0.69239539
-0.017802207 -0.0098901093 0.69336641
-0.017875275 -0.011916876 0.69434637
-0.017952736 -0.013963223 0.6953854
-0.018033328 -0.016029596 0.69646627
-0.018114645 -0.018114656 0.69755697
-0.018201776 -0.020224214 0.69872558
-0.018290861 -0.022355497 0.69992042
-0.018380899 -0.02450785 0.70112801
-0.018477589 -0.026689857 0.70242488
-0.0185753 -0.028894901 0.70373535
-0.018675832 -0.03112638 0.70508373
-0.01878153 -0.03338936 0.70650142
-0.018888351 -0.035677999 0.70793414
-0.019000083 -0.038000166 0.70943272
-0.019115414 -0.040354759 0.71097952
-0.019232158 -0.04273811 0.71254528
-0.019388238 -0.04523924 0.71463871
-0.019514265 -0.047701538 0.7163291
-0.019644596 -0.050202876 0.71807706
-0.019780414 -0.052747756 0.71989876
-0.019918827 -0.055330068 0.72175515
-0.020064378 -0.057963759 0.72370732
-0.020213248 -0.060639739 0.72570401
-0.02036849 -0.063368648 0.72778618
-0.020528849 -0.06614849 0.72993696
-0.020695461 -0.068984866 0.73217165
-0.020868186 -0.071879268 0.73448819
-0.021049028 -0.074840993 0.7369138
-0.021235837 -0.077864766 0.73941928
-0.02143323 -0.080969989 0.7420668
-0.014283107 0.035707772 0.67011338
-0.014291775 0.033942968 0.67024422
-0.014326558 0.032234758 0.67076904
-0.014375128 0.030547142 0.67150187
-0.01442881 0.028857648 0.6723119
-0.014493855 0.027176023 0.67329329
-0.014561448 0.025482595 0.67431319
-0.0146377 0.023786277 0.67546374
-0.014717785 0.022076666 0.6766721
-0.014799407 0.020349205 0.67790365
-0.014879449 0.018599272 0.67911148
-0.014949915 0.016818672 0.68017471
-0.015012881 0.01501292 0.68112481
-0.015060667 0.01317808 0.68184584
-0.015100951 0.011325717 0.68245363
-0.015141392 0.0094633996 0.68306386
-0.015186487 0.0075932443 0.68374431
-0.015234459 0.0057129264 0.68446821
-0.015283028 0.0038207471 0.68520105
-0.015337958 0.001917243 0.68602979
-0.015393284 2.9802322e-08 0.68686467
-0.015451098 -0.0019313991 0.68773699
-0.015513014 -0.0038782358 0.68867123
-0.015575428 -0.0058408082 0.68961298
-0.015641525 -0.0078207552 0.69061029
-0.015710343 -0.0098189414 0.69164872
-0.015779769 -0.01183483 0.69269621
-0.015853828 -0.013872117 0.69381368
-0.015929855 -0.015929818 0.69496083
-0.016006548 -0.018007338 0.69611812
-0.016088575 -0.020110726 0.69735575
-0.016171904 -0.022236347 0.69861311
-0.016256761 -0.024385124 0.69989347
-0.016346851 -0.026563615 0.70125282
-0.016437946 -0.028766423 0.70262742
-0.016531972 -0.030997425 0.70404613
-0.016630189 -0.033260375 0.70552814
-0.01672958 -0.035550356 0.70702779
-0.016833775 -0.03787598 0.70859998
-0.016940854 -0.040234506 0.71021569
-0.017049741 -0.042624354 0.71185869
-0.017193573 -0.045133144 0.71402889
-0.017310606 -0.047604173 0.7157948
-0.01743266 -0.050118893 0.71763647
-0.017558757 -0.05267626 0.71953917
-0.017688101 -0.055275291 0.72149074
-0.017824123 -0.057928413 0.72354317
-0.017962495 -0.060623407 0.725631
-0.018108685 -0.06338039 0.72783685
-0.018258769 -0.066188008 0.73010153
-0.01841611 -0.069060385 0.73247558
-0.018580236 -0.071998417 0.73495203
-0.018750213 -0.075000852 0.73751676
-0.018930128 -0.078086793 0.74023151
-0.019117182 -0.081248015 0.74305391
-0.01228589 0.042123049 0.66646051
-0.012255539 0.040268213 0.66593713
-0.012275814 0.038581103 0.66628677
-0.012307562 0.036922723 0.66683424
-0.012352486 0.035292864 0.66760892
-0.012400243 0.033657819 0.66843247
-0.012456737 0.032031596 0.66940665
-0.012514375 0.030392051 0.67040056
-0.012581264 0.028757185 0.67155409
-0.012648872 0.027104706 0.67271996
-0.012717395 0.025434792 0.67390156
-0.012783866 0.023741454 0.67504776
-0.012841328 0.022013724 0.67603868
-0.012890954 0.020257205 0.67689443
-0.012929546 0.018470764 0.67755997
-0.012963476 0.016667306 0.67814505
-0.012997535 0.014854342 0.6787324
-0.013036381 0.0130364 0.67940229
-0.013076828 0.011208713 0.68009973
-0.013118263 0.0093702078 0.68081427
-0.013164513 0.0075225532 0.68161184
-0.013211089 0.0056619048 0.68241501
-0.013260004 0.0037885904 0.68325853
-0.013312065 0.0019017458 0.68415624
-0.013364587 2.9802322e-08 0.68506199
-0.013420199 -0.0019171536 0.68602097
-0.01347809 -0.0038509071 0.68701929
-0.013536483 -0.0058013499 0.68802619
-0.013598499 -0.0077705383 0.68909562
-0.013662416 -0.0097588599 0.69019783
-0.013726885 -0.011765897 0.69130963
-0.013795332 -0.013795376 0.69248998
-0.013865345 -0.015846074 0.69369727
-0.013936071 -0.017917782 0.69491684
-0.014011557 -0.020016521 0.69621861
-0.014088036 -0.022138357 0.69753736
-0.014165983 -0.024284542 0.69888157
-0.014248391 -0.026461303 0.7003026
-0.014331764 -0.028663516 0.70174032
-0.014417958 -0.030895621 0.70322669
-0.014507717 -0.033160448 0.7047745
-0.014598662 -0.035453886 0.70634282
-0.014694083 -0.037784815 0.70798832
-0.014791948 -0.04014954 0.70967591
-0.014891946 -0.042548418 0.71140033
-0.0150225 -0.045067489 0.71365166
-0.015129508 -0.047549844 0.71549696
-0.015242094 -0.050081164 0.71743846
-0.015357648 -0.052654803 0.7194311
-0.015477292 -0.055276006 0.72149432
-0.015602222 -0.057951123 0.72364855
-0.01573116 -0.06067732 0.7258721
-0.01586541 -0.063461632 0.72818714
-0.016006725 -0.066313565 0.73062402
-0.016152889 -0.069226652 0.73314452
-0.016306223 -0.072213292 0.73578864
-0.016467683 -0.075280815 0.73857296
-0.016636482 -0.078429133 0.74148381
-0.01681539 -0.081674755 0.744569
-0.010305129 0.046373099 0.66192108
-0.010308384 0.044669658 0.66198659
-0.010332509 0.043052167 0.66247195
-0.010364005 0.041456044 0.66310561
-0.010401169 0.039871156 0.66385329
-0.010444012 0.038294733 0.66471523
-0.010490799 0.036717772 0.66565651
-0.010541005 0.0351367 0.66666651
-0.010596367 0.03355515 0.6677804
-0.010652427 0.031957299 0.66890818
-0.010708738 0.030341417 0.67004108
-0.010761597 0.02869761 0.67110455
-0.010808595 0.027021468 0.67205006
-0.010846709 0.025308996 0.67281687
-0.010877323 0.023567557 0.67343277
-0.010905297 0.021810591 0.67399555
-0.010933455 0.020044684 0.6745621
-0.010966284 0.018277138 0.67522252
-0.010999634 0.01649946 0.67589349
-0.011034321 0.014712423 0.67659128
-0.011072495 0.012917936 0.67735934
-0.011110933 0.011110902 0.67813265
-0.011151462 0.0092928708 0.67894799
-0.011194458 0.0074629486 0.67981303
-0.011237786 0.0056188703 0.68068475
-0.011283614 0.0037612319 0.68160671
-0.011331356 0.0018885732 0.68256724
-0.011379547 -0 0.68353671
-0.011430413 -0.0019050837 0.68456006
-0.011483097 -0.0038277209 0.68561995
-0.011536223 -0.0057680905 0.68668878
-0.011592217 -0.0077281296 0.68781525
-0.011649885 -0.0097082257 0.68897551
-0.011708131 -0.011708111 0.69014728
-0.011769684 -0.013731301 0.69138569
-0.011832634 -0.015776843 0.69265217
-0.011896213 -0.01784429 0.69393122
-0.011963816 -0.019939721 0.69529134
-0.012032385 -0.022059321 0.69667077
-0.012102232 -0.024204433 0.69807601
-0.012176005 -0.026381344 0.69956023
-0.012250683 -0.028584927 0.70106262
-0.012327903 -0.030819744 0.70261616
-0.012408255 -0.033088654 0.70423269
-0.012489662 -0.035387367 0.70587045
-0.012575303 -0.037725896 0.70759344
-0.012662928 -0.040099263 0.70935637
-0.01275303 -0.042510062 0.711169
-0.012847555 -0.044966429 0.71307081
-0.012965461 -0.047540039 0.7154429
-0.013067553 -0.05009225 0.71749681
-0.013171437 -0.052685738 0.71958673
-0.013280218 -0.05533421 0.72177523
-0.013393915 -0.058040291 0.72406274
-0.013511463 -0.060801595 0.72642761
-0.01363524 -0.063631117 0.72891778
-0.013763261 -0.066522449 0.73149335
-0.013899306 -0.069496542 0.7342304
-0.014042006 -0.072550356 0.73710132
-0.01419216 -0.075691491 0.74012214
-0.014352281 -0.078937531 0.74334353
-0.008452747 0.052407056 0.65866524
-0.0084274048 0.050564438 0.65805346
-0.0084386049 0.048943877 0.65832388
-0.0084580043 0.047364831 0.65879226
-0.008487531 0.045832664 0.65950507
-0.0085174385 0.044290692 0.66022706
-0.0085546309 0.042773128 0.661125
-0.0085922964 0.041243047 0.66203427
-0.0086347638 0.03971988 0.66305959
-0.0086793387 0.038189083 0.66413569
-0.0087246196 0.036643416 0.66522884
-0.0087695448 0.035078198 0.66631341
-0.0088100927 0.033478349 0.66729236
-0.008847543 0.031851172 0.66819656
-0.0088760769 0.030178666 0.66888535
-0.0088996952 0.02847904 0.66945553
-0.0089221988 0.026766598 0.66999882
-0.0089451028 0.025046259 0.67055184
-0.00897176 0.023326606 0.67119539
-0.0089985449 0.021596521 0.67184198
-0.0090267593 0.019858897 0.67252314
-0.0090573803 0.018114775 0.67326242
-0.0090882434 0.016358823 0.67400753
-0.0091209784 0.014593571 0.67479783
-0.0091554597 0.012817681 0.67563027
-0.0091902353 0.01102829 0.67646986
-0.0092270114 0.0092270076 0.67735761
-0.0092653176 0.0074122548 0.6782825
-0.0093039786 0.0055823922 0.67921585
-0.0093446039 0.0037378371 0.68019664
-0.0093868524 0.0018773675 0.6812166
-0.0094294501 2.9802322e-08 0.68224502
-0.0094740139 -0.0018948019 0.68332088
-0.0095202327 -0.0038080812 0.68443668
-0.009566905 -0.0057401359 0.68556345
-0.0096157361 -0.0076925457 0.68674237
-0.0096661523 -0.0096661448 0.68795943
-0.0097170994 -0.011660516 0.68918943
-0.0097705694 -0.013678789 0.69048035
-0.0098254038 -0.015720636 0.69180417
-0.0098808967 -0.017785609 0.69314384
-0.0099395057 -0.019879013 0.69455886
-0.0099992147 -0.021998227 0.69600034
-0.010059929 -0.024143845 0.69746614
-0.010124128 -0.026322722 0.69901597
-0.010189152 -0.028529644 0.70058584
-0.010256321 -0.030768961 0.70220745
-0.010326299 -0.033044159 0.70389682
-0.010397237 -0.035350591 0.70560944
-0.010472094 -0.03769955 0.70741665
-0.010548569 -0.040084571 0.70926291
-0.010627705 -0.042510837 0.71117342
-0.010710283 -0.044983178 0.71316707
-0.010813705 -0.047580302 0.71566391
-0.010902535 -0.050151646 0.71780837
-0.010995832 -0.052780002 0.72006077
-0.011091724 -0.055458605 0.72237575
-0.011192856 -0.058202863 0.7248174
-0.011298249 -0.061010569 0.7273618
-0.011408401 -0.063887089 0.73002112
-0.011525711 -0.066849113 0.73285317
-0.011649201 -0.069895178 0.73583448
-0.011780243 -0.073037505 0.73899817
-0.011920684 -0.076292396 0.74238873
-0.012073305 -0.07968384 0.74607325
-0.0066185007 0.056257248 0.65432882
-0.0066188071 0.054605186 0.65433806
-0.0066337246 0.0530698 0.65478832
-0.0066518257 0.05155164 0.65533453
-0.0066747861 0.050060898 0.65602738
-0.0066998783 0.04857412 0.65678465
-0.0067287325 0.04710114 0.65765542
-0.0067581558 0.045617521 0.65854335
-0.0067922836 0.044149876 0.6595732
-0.0068267575 0.04266724 0.66061354
-0.0068615833 0.041169494 0.66166449
-0.0068962192 0.039653271 0.66270971
-0.0069261226 0.038093686 0.66361219
-0.0069538443 0.036507696 0.66444874
-0.0069752196 0.034876108 0.66509378
-0.0069926688 0.033215165 0.66562039
-0.0070100334 0.031545132 0.66614437
-0.007028176 0.029869765 0.6666919
-0.0070487196 0.028194875 0.66731185
-0.0070694094 0.026510268 0.66793621
-0.0070914519 0.024820089 0.66860145
-0.0071150735 0.023124009 0.66931427
-0.0071388786 0.021416634 0.67003262
-0.0071642282 0.01970166 0.67079765
-0.0071908436 0.017977089 0.67160082
-0.0072176573 0.016239733 0.67241001
-0.0072459825 0.014491975 0.6732648
-0.0072755367 0.012732208 0.67415667
-0.0073053055 0.010957956 0.67505503
-0.0073364764 0.0091706216 0.67599571
-0.0073690256 0.0073690414 0.67697793
-0.0074018375 0.0055513978 0.67796814
-0.0074359104 0.0037179589 0.67899632
-0.0074714967 0.0018678904 0.68007028
-0.0075074262 2.9802322e-08 0.68115449
-0.0075446693 -0.0018861592 0.68227851
-0.0075834328 -0.0037917197 0.68344826
-0.0076226257 -0.0057169497 0.68463099
-0.0076632532 -0.00766325 0.68585706
-0.0077054421 -0.0096317828 0.68713021
-0.0077480995 -0.011622161 0.68841749
-0.007792505 -0.013636887 0.68975759
-0.007838374 -0.015676767 0.69114184
-0.0078848181 -0.017740816 0.69254333
-0.007933544 -0.019833863 0.69401383
-0.0079834489 -0.021954507 0.6955198
-0.0080340514 -0.024102151 0.69704688
-0.008087717 -0.026285052 0.69866633
-0.0081421034 -0.028497338 0.70030761
-0.0081983013 -0.030743659 0.7020036
-0.008256915 -0.033027649 0.70377237
-0.0083163381 -0.035344481 0.70556569
-0.0083793588 -0.03770712 0.70746744
-0.0084435195 -0.040106684 0.70940369
-0.0085075488 -0.042537779 0.71133596
-0.0085637905 -0.044959903 0.7130332
-0.0086678984 -0.047673464 0.71617496
-0.0087438617 -0.050277203 0.71846735
-0.0088224132 -0.052934438 0.72083777
-0.0089058345 -0.05566144 0.72335529
-0.0089924652 -0.058450997 0.72596955
-0.0090841772 -0.061318189 0.72873724
-0.0091816112 -0.064271241 0.73167747
-0.0092850747 -0.0673168 0.73479986
-0.0093959682 -0.070469767 0.73814636
-0.0095164599 -0.073752582 0.74178249
-0.0096494695 -0.077195793 0.7457965
-0.0097997161 -0.080847651 0.75033051
-0.0048916647 0.061961114 0.65142328
-0.0048746043 0.060120136 0.65073681
-0.0048796115 0.058555394 0.65093827
-0.0048904219 0.057054967 0.65137327
-0.0049058935 0.055600107 0.65199584
-0.0049225288 0.05414784 0.65266514
-0.0049422365 0.052717209 0.65345818
-0.0049631693 0.051286131 0.65430045
-0.0049856543 0.049856544 0.65520519
-0.0050104172 0.048434049 0.6562016
-0.0050354274 0.046997339 0.65720791
-0.005060568 0.045545101 0.65821946
-0.0050851866 0.044071585 0.65921003
-0.0051062214 0.042551845 0.66005641
-0.0051249973 0.040999949 0.6608119
-0.0051400196 0.039406806 0.66141635
-0.0051525286 0.037785232 0.66191965
-0.0051650815 0.036155611 0.66242474
-0.0051785703 0.034523815 0.6629675
-0.0051934416 0.03289178 0.66356587
-0.0052083982 0.031250358 0.6641677
-0.0052245501 0.029605776 0.66481757
-0.0052416627 0.027955532 0.66550612
-0.005258888 0.02629447 0.66619921
-0.0052773212 0.024627507 0.66694093
-0.0052965567 0.022951752 0.66771495
-0.0053159515 0.021263838 0.6684953
-0.0053364383 0.019566923 0.66931963
-0.0053578094 0.017859399 0.67017955
-0.0053793332 0.016137987 0.67104554
-0.0054017692 0.014404714 0.67194831
-0.0054252949 0.012659043 0.67289495
-0.0054490068 0.010898024 0.67384905
-0.0054734452 0.0091224015 0.67483234
-0.005499152 0.0073322058 0.67586672
-0.005525101 0.0055251122 0.67691082
-0.0055517275 0.0037011504 0.67798221
-0.0055797105 0.0018599331 0.67910814
-0.005607998 -0 0.68024635
-0.0056369761 -0.0018790066 0.68141234
-0.0056674108 -0.0037782788 0.68263692
-0.0056981756 -0.0056981444 0.68387479
-0.0057297349 -0.0076396465 0.68514466
-0.0057627968 -0.0096046627 0.68647492
-0.0057962649 -0.011592537 0.68782163
-0.005830803 -0.013605177 0.68921137
-0.0058667408 -0.01564461 0.69065738
-0.0059031481 -0.017709434 0.69212228
-0.0059411381 -0.019803792 0.69365084
-0.0059802402 -0.021927536 0.69522417
-0.0060198838 -0.024079531 0.69681931
-0.0060619661 -0.026268512 0.69851267
-0.00610469 -0.028488547 0.70023167
-0.0061489525 -0.030744761 0.70201266
-0.006195012 -0.033040047 0.70386595
-0.0062417663 -0.035369992 0.70574725
-0.0062858872 -0.037715316 0.70752251
-0.0063234628 -0.040048569 0.70903438
-0.0063533583 -0.042355716 0.71023732
-0.0063794954 -0.044656456 0.71128905
-0.006409843 -0.047005504 0.71251011
-0.0065826862 -0.050467283 0.71946478
-0.0066469307 -0.05317542 0.72204971
-0.0067141219 -0.055950969 0.72475332
-0.0067860899 -0.058812767 0.72764909
-0.0068626595 -0.061763912 0.73073
-0.0069447337 -0.064817488 0.73403239
-0.0070342286 -0.067997545 0.73763347
-0.0071330708 -0.071330696 0.74161053
-0.0072449967 -0.074864954 0.74611408
-0.0073797423 -0.078717202 0.75153577
-0.0031923451 0.065443099 0.647273
-0.0031923351 0.063846737 0.64727235
-0.0031986309 0.06237331 0.64765239
-0.0032064198 0.060921967 0.64812249
-0.0032170783 0.059515953 0.6487658
-0.0032280993 0.058105797 0.64943093
-0.0032414941 0.056726158 0.65023941
-0.0032550106 0.055335194 0.65105522
-0.0032702428 0.053959012 0.65197456
-0.0032862336 0.052579761 0.65293968
-0.0033023921 0.051187068 0.65391493
-0.0033184902 0.049777329 0.65488654
-0.0033336573 0.048338026 0.65580195
-0.0033472162 0.046861023 0.65662026
-0.0033584498 0.045339048 0.65729833
-0.003367763 0.043780893 0.6578604
-0.0033758176 0.042197764 0.65834653
-0.0033839112 0.040606946 0.65883499
-0.0033927909 0.039017111 0.65937102
-0.003402377 0.037426144 0.65994954
-0.0034120053 0.035826057 0.66053063
-0.0034225311 0.034225315 0.66116595
-0.0034335458 0.032618701 0.66183078
-0.003444632 0.031001687 0.66249985
-0.003456542 0.02938062 0.66321868
-0.0034689312 0.027751446 0.66396648
-0.00348141 0.02611059 0.66471958
-0.0034945761 0.024462044 0.66551423
-0.0035083222 0.022804081 0.66634393
-0.0035221644 0.021132976 0.66717935
-0.0035365287 0.019450933 0.66804636
-0.0035516529 0.01775828 0.66895914
-0.0035668949 0.016051024 0.66987908
-0.003582486 0.01432994 0.67082012
-0.0035990037 0.012596548 0.671817
-0.0036156739 0.010847032 0.67282319
-0.0036326051 0.0090815127 0.67384505
-0.0036505745 0.0073011518 0.67492956
-0.0036687357 0.005503118 0.67602569
-0.0036871058 0.0036871135 0.67713445
-0.003706635 0.0018533766 0.67831314
-0.0037263727 -2.9802322e-08 0.67950439
-0.0037463494 -0.0018731356 0.68071014
-0.0037675342 -0.00376755 0.68198872
-0.0037889886 -0.0056834817 0.68328363
-0.0038107757 -0.0076215565 0.68459857
-0.0038337989 -0.0095844865 0.68598819
-0.0038571018 -0.011571288 0.68739462
-0.0038809909 -0.013583452 0.68883646
-0.0039060314 -0.015624136 0.69034773
-0.0039313966 -0.017691284 0.69187868
-0.0039577824 -0.019788891 0.69347125
-0.0039850799 -0.021917909 0.69511878
-0.0040127733 -0.024076641 0.69679016
-0.0040421761 -0.026274145 0.69856477
-0.0040720291 -0.028504193 0.70036662
-0.00410194 -0.03076455 0.70217192
-0.0041283555 -0.033026844 0.70376623
-0.0041503739 -0.035278201 0.70509517
-0.0041676243 -0.037508607 0.70613629
-0.0041850009 -0.03975749 0.70718509
-0.00420671 -0.042067081 0.70849532
-0.0042316141 -0.044431925 0.70999849
-0.0042599854 -0.046859831 0.71171081
-0.00441251 -0.050743848 0.72091645
-0.0044592475 -0.053510964 0.7237373
-0.004509748 -0.056371868 0.7267853
-0.004563631 -0.059327185 0.73003739
-0.0046226792 -0.062406182 0.73360127
-0.0046880143 -0.065632164 0.73754454
-0.0047627818 -0.069060355 0.74205726
-0.0048541059 -0.072811574 0.74756908
-0.0049924301 -0.077382684 0.75591773
-0.0015926163 0.070075154 0.64684373
-0.0015696343 0.067494303 0.64406949
-0.0015729897 0.066065609 0.64447457
-0.0015774828 0.064676791 0.64501691
-0.0015826471 0.063305914 0.64564031
-0.0015884452 0.061949372 0.64634019
-0.0015949312 0.060607404 0.6471231
-0.0016015422 0.05925706 0.6479212
-0.0016092064 0.057931423 0.64884633
-0.0016169497 0.056593239 0.64978099
-0.0016247361 0.055241048 0.65072095
-0.0016325287 0.05387345 0.65166157
-0.0016395203 0.052464694 0.65250552
-0.0016460682 0.051028103 0.65329593
-0.0016510925 0.049532801 0.65390241
-0.0016554189 0.04800716 0.65442467
-0.0016593111 0.046460718 0.65489453
-0.0016632217 0.044906974 0.65536654
-0.0016676176 0.043358028 0.6558972
-0.0016722489 0.041806221 0.65645623
-0.0016769005 0.040245652 0.65701771
-0.0016820474 0.03868708 0.65763903
-0.001687368 0.037122101 0.65828133
-0.0016927168 0.035547078 0.6589269
-0.001698503 0.033970088 0.65962541
-0.00170448 0.032385111 0.66034687
-0.0017105051 0.030789107 0.66107416
-0.0017168614 0.029186636 0.66184145
-0.0017234966 0.02757597 0.66264236
-0.0017301774 0.025952667 0.66344881
-0.0017370789 0.024319112 0.6642819
-0.0017443764 0.022676915 0.66516274
-0.0017517292 0.02102074 0.66605031
-0.0017591936 0.019351155 0.66695142
-0.0017671589 0.017671585 0.66791284
-0.0017751965 0.015976757 0.66888309
-0.001783314 0.014266491 0.66986299
-0.0017919423 0.012543619 0.67090452
-0.0018006868 0.010804117 0.67196012
-0.0018095239 0.0090476274 0.6730268
-0.0018188378 0.0072753429 0.67415112
-0.001828342 0.0054849982 0.67529833
-0.0018379458 0.003675878 0.67645764
-0.0018480194 0.001848042 0.67767358
-0.0018583355 -0 0.67891884
-0.0018687672 -0.0018687546 0.68017805
-0.0018797191 -0.0037594438 0.68150008
-0.0018909217 -0.0056727827 0.68285239
-0.0019022586 -0.0076090395 0.68422085
-0.0019142227 -0.0095711052 0.68566507
-0.0019264051 -0.011558414 0.68713558
-0.0019388113 -0.01357168 0.68863314
-0.0019519185 -0.015615314 0.69021529
-0.0019652043 -0.017686844 0.69181907
-0.001978993 -0.019789934 0.69348353
-0.0019933023 -0.021926343 0.69521075
-0.0020078197 -0.024093837 0.69696325
-0.002021635 -0.026281267 0.69863093
-0.0020334825 -0.028468758 0.70006096
-0.0020430812 -0.030646205 0.70121956
-0.0020511632 -0.032818586 0.70219523
-0.0020600557 -0.035020947 0.70326865
-0.002071107 -0.037279934 0.70460266
-0.0020840899 -0.03959772 0.70616984
-0.0020986968 -0.041973919 0.70793301
-0.0021154045 -0.044423491 0.70994985
-0.0021357569 -0.046986669 0.71240664
-0.0022231152 -0.051131696 0.72295171
-0.0022499359 -0.05399847 0.7261892
-0.0022790716 -0.056976795 0.72970617
-0.0023116493 -0.06010288 0.73363864
-0.0023492787 -0.063430488 0.73818088
-0.0023956432 -0.067078024 0.74377763
-0.0024794543 -0.071904153 0.75389451
0 0.073697269 0.65228784
0 0.070597112 0.64827579
0 0.067641735 0.64448357
0 0.065672874 0.64334595
0 0.064367086 0.6441052
0 0.0630669 0.6449191
0 0.061779886 0.64581573
0 0.060480952 0.64672136
0 0.059166878 0.64762712
0 0.057839513 0.64853823
0 0.056458056 0.64931476
0 0.055054754 0.65005958
0 0.053588092 0.65061778
0 0.05209288 0.65110314
0 0.050581634 0.65155745
0 0.049063444 0.6520139
0 0.047554165 0.65253925
0 0.046039611 0.65307915
0 0.044516951 0.65362263
0 0.042999059 0.65423048
0 0.041473716 0.65485066
0 0.039938956 0.65547538
0 0.038403988 0.65615314
0 0.036861449 0.65685093
0 0.035308033 0.65755308
0 0.033749521 0.65829432
0 0.032183826 0.65906805
0 0.030606091 0.6598469
0 0.029018551 0.66064799
0 0.027424365 0.66149855
0 0.025816888 0.66235608
0 0.024195969 0.66322011
0 0.022567421 0.6641466
0 0.020924538 0.66508281
0 0.019266993 0.66602808
0 0.017597884 0.66702306
0 0.015913993 0.66804099
0 0.01421392 0.66906953
0 0.012499273 0.67014027
0 0.010768652 0.67124587
0 0.0090201199 0.67236286
0 0.0072543919 0.67351842
0 0.0054705739 0.67471677
0 0.0036671758 0.67592996
0 0.0018439591 0.67718202
0 -0 0.67848313
0 -0.0018656254 0.67979962
0 -0.0037539005 0.68116474
0 -0.0056659281 0.68257844
0 -0.0076020062 0.6840089
0 -0.0095645785 0.68550694
0 -0.011554062 0.687047
0 -0.013570338 0.6886096
0 -0.015618771 0.69026679
0 -0.0176965 0.69194865
0 -0.01980263 0.69363666
0 -0.021920025 0.69514179
0 -0.024038732 0.69640911
0 -0.026148766 0.69740063
0 -0.028273165 0.69837475
0 -0.030436784 0.69953442
0 -0.032641828 0.70086169
0 -0.034906119 0.70245332
0 -0.037230939 0.70427406
0 -0.03962788 0.70636165
0 -0.042131901 0.70888656
0 -0.04485777 0.71244621
0 -0.048820674 0.72246963
0 -0.051705271 0.72596228
0 -0.054731667 0.72987676
0 -0.05795157 0.73441303
0 -0.061521769 0.74022603
0.0016842952 0.077477604 0.65791035
0.0016497098 0.074236929 0.65373552
0.0016165162 0.071126699 0.64972872
0.0016052158 0.069024295 0.6483646
0.00155977 0.065510362 0.64287883
0.0015670289 0.064248204 0.64375502
0.0015742766 0.062971056 0.64462996
0.0015813964 0.061674476 0.64548939
0.0015874977 0.060324907 0.64622581
0.0015930827 0.058944076 0.64690006
0.0015975588 0.057512134 0.64744031
0.0016012859 0.056044996 0.64789027
0.0016049275 0.054567546 0.64832985
0.0016085857 0.053083301 0.64877141
0.0016128947 0.051612645 0.64929152
0.0016172214 0.050133884 0.64981383
0.0016215716 0.048647106 0.65033895
0.0016265055 0.047168672 0.65093452
0.0016314748 0.045681298 0.65153438
0.0016364799 0.044184983 0.65213847
0.0016419359 0.042690307 0.6527971
0.0016475206 0.041188031 0.65347123
0.001653149 0.039675593 0.65415066
0.0016590802 0.038158834 0.65486658
0.0016652753 0.036636055 0.65561444
0.0016715117 0.035101771 0.65636724
0.0016779015 0.033558041 0.65713853
0.0016847036 0.032009363 0.65795964
0.0016915665 0.030448198 0.65878808
0.0016984801 0.028874159 0.65962261
0.0017058398 0.027293444 0.66051102
0.0017133282 0.025699943 0.66141486
0.0017208884 0.024092436 0.66232759
0.0017287666 0.022473991 0.66327852
0.0017369101 0.02084291 0.66426146
0.0017451247 0.019196421 0.66525304
0.0017535832 0.017535836 0.66627419
0.0017624157 0.01586175 0.66734034
0.0017713378 0.014170706 0.66841733
0.001780433 0.012463003 0.66951519
0.0017900063 0.010740042 0.67067081
0.001799683 0.0089984238 0.67183888
0.0018095172 0.0072380602 0.67302603
0.0018198963 0.0054596663 0.67427886
0.0018303952 0.0036607981 0.67554617
0.0018410769 0.0018410683 0.67683554
0.0018523433 -0 0.67819554
0.0018637484 -0.0018637776 0.67957222
0.0018754426 -0.0037508905 0.6809839
0.0018876973 -0.0056630969 0.68246317
0.0019001204 -0.0076004565 0.6839627
0.0019130372 -0.0095651746 0.68552196
0.0019264126 -0.011558503 0.68713653
0.0019399764 -0.013579845 0.68877381
0.0019529699 -0.015623748 0.69034231
0.0019641705 -0.017677516 0.69169426
0.0019734125 -0.019734085 0.69280988
0.0019809753 -0.021790683 0.69372284
0.0019888256 -0.023865908 0.69467044
0.0019990918 -0.025988191 0.69590968
0.0020106114 -0.028148562 0.6973002
0.0020234662 -0.030352026 0.69885194
0.002038935 -0.032622963 0.70071912
0.0020567703 -0.034965068 0.70287204
0.0020786354 -0.037415445 0.70551145
0.0021172485 -0.040227741 0.71017241
0.0021832471 -0.043664962 0.71813917
0.0022178828 -0.046575516 0.72232002
0.0022501484 -0.049503267 0.72621489
0.0022880551 -0.052625269 0.73079067
0.0023377209 -0.056105286 0.73678577
0.0033951276 0.078087926 0.65951198
0.0033301297 0.074927926 0.65558898
0.0033430343 0.073546767 0.6563679
0.0032056905 0.068922371 0.6480785
0.0031305379 0.065741301 0.64354265
0.0031254052 0.064070821 0.64323282
0.0031354718 0.062709421 0.64384043
0.0031440326 0.061308652 0.64435709
0.0031510515 0.059869975 0.6447807
0.0031581018 0.05842492 0.64520621
0.0031653743 0.056976765 0.64564514
0.0031737066 0.055539876 0.64614803
0.0031820927 0.054095566 0.64665419
0.0031906047 0.052644968 0.64716798
0.0032001752 0.051202804 0.64774561
0.0032097932 0.049751759 0.6483261
0.0032194795 0.04829219 0.6489107
0.0032300791 0.046836138 0.64955044
0.0032408955 0.045372576 0.65020323
0.0032517742 0.04389897 0.65085983
0.0032632474 0.042422265 0.65155232
0.0032752308 0.040940404 0.65227556
0.0032873021 0.039447635 0.65300417
0.0032995937 0.03794533 0.65374601
0.0033127449 0.036440223 0.65453982
0.0033260123 0.034923136 0.65534055
0.0033393751 0.03339377 0.65614706
0.0033534977 0.031858265 0.65699941
0.0033679667 0.030311704 0.65787268
0.0033825729 0.02875188 0.65875429
0.0033976405 0.027181119 0.65966368
0.0034133669 0.025600225 0.66061282
0.0034292277 0.024004579 0.66157013
0.0034453557 0.022394806 0.66254354
0.0034624022 0.020774424 0.66357231
0.0034796302 0.019137979 0.66461217
0.0034970187 0.017485082 0.66566169
0.0035153837 0.015819252 0.6667701
0.0035340432 0.014136165 0.66789633
0.0035529016 0.012435138 0.66903448
0.0035726889 0.010718107 0.67022878
0.0035929305 0.0089823306 0.6714505
0.0036133893 0.0072268248 0.67268527
0.0036348219 0.0054522157 0.67397887
0.0036567773 0.0036567748 0.675304
0.0036789998 0.0018394887 0.67664516
0.0037023977 -2.9802322e-08 0.67805743
0.0037262891 -0.001863122 0.67949933
0.0037505757 -0.0037505925 0.68096519
0.0037762634 -0.0056643784 0.68251556
0.0038023198 -0.0076046288 0.68408823
0.0038284604 -0.009571135 0.68566597
0.0038520687 -0.011556178 0.68709081
0.0038721608 -0.013552547 0.68830353
0.0038880478 -0.015552193 0.68926239
0.0039028779 -0.017562956 0.69015741
0.0039198934 -0.019599438 0.6911844
0.0039398945 -0.021669418 0.69239163
0.0039638812 -0.023783267 0.69383931
0.0039905468 -0.02593857 0.69544876
0.0040206085 -0.02814424 0.69726312
0.0040573189 -0.03042987 0.69947881
0.0041028312 -0.032822639 0.70222569
0.004256235 -0.036177993 0.71148443
0.0043082377 -0.038774103 0.71462303
0.0043639424 -0.041457444 0.71798515
0.004426328 -0.044263273 0.72175044
0.0045191362 -0.0474509 0.7273519
0.0046248795 -0.050873667 0.73373413
0.0052448311 0.082169026 0.66563368
0.0051903347 0.079585135 0.66344082
0.005026103 0.075391561 0.6568327
0.0050258171 0.073711991 0.65682119
0.0048248572 0.069156259 0.64873517
0.0047301669 0.06622234 0.64492512
0.0046517435 0.063573837 0.64176965
0.0046619871 0.062159836 0.64218175
0.0046728277 0.060746759 0.642618
0.0046849325 0.059342474 0.64310503
0.0046971152 0.057931095 0.64359522
0.0047096419 0.056515723 0.64409924
0.0047235284 0.055107832 0.64465803
0.0047375117 0.053691804 0.6452207
0.0047515631 0.052267194 0.64578605
0.0047670454 0.050848514 0.64640903
0.0047827354 0.049421608 0.64704031
0.0047985441 0.047985464 0.64767647
0.004815184 0.046546817 0.64834595
0.0048325774 0.045104057 0.64904583
0.004850097 0.043650866 0.64975077
0.0048678541 0.042188108 0.65046525
0.004886935 0.040724427 0.65123302
0.0049061822 0.03924948 0.65200746
0.0049255653 0.037762672 0.65278739
0.0049459008 0.036269963 0.65360558
0.0049668811 0.034768164 0.65444976
0.0049880403 0.03325361 0.65530115
0.0050096815 0.03172794 0.65617192
0.0050324728 0.030194879 0.65708899
0.005055455 0.028647602 0.6580137
0.0050786659 0.027086198 0.65894771
0.0051032356 0.025516212 0.65993625
0.0051281666 0.023931444 0.6609394
0.0051533426 0.022331148 0.66195244
0.005179571 0.020718306 0.66300774
0.0052065738 0.019090772 0.66409427
0.0052338587 0.01744619 0.66519213
0.0052620405 0.015786141 0.66632611
0.005291292 0.014110088 0.66750312
0.0053208699 0.012415349 0.66869318
0.0053512957 0.01070258 0.66991746
0.0053830366 0.0089717209 0.67119461
0.0054151369 0.0072201788 0.67248625
0.0054482552 0.0054482818 0.67381877
0.0054827216 0.0036551356 0.67520565
0.0055176476 0.0018391907 0.67661095
0.0055540279 -2.9802322e-08 0.67807478
0.0055915993 -0.001863867 0.67958647
0.005629661 -0.0037530959 0.68111801
0.0056664478 -0.0056664348 0.68259823
0.0056982622 -0.0075976849 0.6838783
0.0057250373 -0.0095417202 0.6849556
0.005746318 -0.01149264 0.68581188
0.0057683112 -0.013459414 0.68669683
0.0057957503 -0.015455335 0.68780088
0.0058264118 -0.017479211 0.68903464
0.0058622505 -0.019540817 0.69047666
0.005903543 -0.021646321 0.69213814
0.0059502758 -0.023801118 0.69401854
0.006005914 -0.026025653 0.69625723
0.0060821809 -0.028383464 0.69932598
0.0063018268 -0.031509131 0.70816386
0.0063773002 -0.034012258 0.71120065
0.0064602983 -0.036608368 0.7145403
0.0065534012 -0.039320409 0.7182864
0.0066646961 -0.042209715 0.72276461
0.0068672434 -0.045781612 0.73091447
0.0070503582 0.082841694 0.66736132
0.0069125583 0.079494417 0.66320282
0.0069384398 0.078057468 0.66398382
0.0069671343 0.07663846 0.66484976
0.0070039742 0.075292736 0.6659615
0.0063533969 0.066710681 0.64632869
0.0062302239 0.063859791 0.64261156
0.0061646136 0.061646134 0.64063162
0.0061810249 0.060265005 0.64112687
0.0061989627 0.058890164 0.6416682
0.0062170248 0.057507515 0.64221323
0.0062351734 0.056116551 0.64276093
0.0062552448 0.054733425 0.64336669
0.0062755253 0.053341985 0.64397866
0.006295918 0.051941365 0.64459407
0.0063173999 0.050539166 0.64524233
0.0063398527 0.049133867 0.64591992
0.0063624657 0.047718525 0.64660227
0.0063852812 0.046293318 0.64729083
0.0064099031 0.044869304 0.64803386
0.0064347358 0.043434471 0.64878321
0.0064597414 0.041988343 0.64953786
0.0064857821 0.040536135 0.65032369
0.0065128389 0.039077073 0.65114021
0.0065401224 0.037605673 0.65196359
0.006567765 0.03612271 0.65279776
0.0065971208 0.034634888 0.65368366
0.0066267615 0.033133805 0.65457815
0.0066566481 0.031619102 0.65548009
0.0066879229 0.030095696 0.65642381
0.0067200572 0.028560221 0.65739357
0.0067524784 0.027009934 0.65837193
0.006785789 0.025446713 0.65937722
0.0068205227 0.023871869 0.66042542
0.0068556368 0.022280812 0.66148508
0.0068913042 0.020673931 0.66256142
0.0069289515 0.019054651 0.66369748
0.0069669886 0.01741752 0.66484541
0.0070054447 0.015762269 0.66600597
0.007046164 0.014092326 0.66723472
0.007087409 0.012402952 0.66847944
0.0071291397 0.010693729 0.66973877
0.0071733696 0.0089666843 0.67107356
0.0072181774 0.0072181821 0.67242569
0.0072638392 0.0054478943 0.67380369
0.0073120315 0.0036560297 0.67525804
0.0073608677 0.0018402338 0.67673171
0.0074098669 -0 0.67821044
0.0074544386 -0.0018635988 0.67955554
0.0074928389 -0.0037464201 0.68071437
0.0075239078 -0.0056429505 0.68165195
0.0075512449 -0.007551223 0.68247688
0.0075813071 -0.0094766617 0.68338406
0.0076187379 -0.011428088 0.68451369
0.0076615224 -0.013407677 0.68580478
0.0077085886 -0.015417159 0.68722516
0.0077646924 -0.017470568 0.68891823
0.0078290831 -0.019572705 0.6908614
0.0079068094 -0.021743715 0.69320703
0.0080171237 -0.024051368 0.696536
0.0082945563 -0.026957303 0.70490825
0.0083936965 -0.029377937 0.70790017
0.0085034287 -0.031887859 0.71121156
0.0086286599 -0.034514666 0.71499079
0.008778262 -0.03730762 0.71950543
0.0089860456 -0.040437162 0.72577584
0.0088855978 0.083524615 0.66911519
0.0086933319 0.079978645 0.66447353
0.0086924564 0.07823211 0.66445237
0.0089796176 0.079020649 0.67138505
0.0090445764 0.077783376 0.67295337
0.0091097867 0.076522201 0.67452759
0.0091734873 0.075222582 0.67606544
0.0076942258 0.061553806 0.64035296
0.0076725879 0.059846163 0.63983059
0.007696996 0.05849719 0.64041984
0.0077215354 0.057139367 0.64101231
0.0077462569 0.05577302 0.64160913
0.0077722468 0.054405749 0.64223659
0.0077994335 0.053036153 0.64289296
0.0078268107 0.051656961 0.64355385
0.0078543555 0.050267875 0.6442188
0.0078841085 0.048881501 0.6449371
0.0079141613 0.047484964 0.64566267
0.00794442 0.046077609 0.64639318
0.0079756984 0.044663906 0.64714831
0.0080084288 0.043245494 0.64793849
0.0080414293 0.04181543 0.64873523
0.0080747278 0.040373653 0.64953911
0.0081100138 0.038928062 0.65039098
0.0081458464 0.037470907 0.65125602
0.0081819706 0.036000699 0.65212816
0.0082193352 0.034521192 0.65303028
0.0082581332 0.033032507 0.6539669
0.008297299 0.031529784 0.65491241
0.0083369762 0.030013114 0.65587032
0.0083789434 0.028488398 0.65688354
0.0084213056 0.026948184 0.65790623
0.0084641287 0.025392383 0.65894008
0.008509066 0.023825407 0.660025
0.0085549522 0.022242874 0.66113275
0.0086013367 0.020643204 0.66225249
0.0086496007 0.019029111 0.66341776
0.0086993175 0.017398626 0.66461802
0.0087496089 0.015749335 0.66583216
0.008801817 0.014082938 0.66709256
0.0088558113 0.012398124 0.66839612
0.0089104399 0.010692537 0.66971493
0.008967516 0.0089675486 0.67109287
0.0090262704 0.0072210133 0.6725114
0.0090857679 0.0054514706 0.67394775
0.0091436813 0.0036575198 0.6753459
0.0091939839 0.0018387735 0.67656034
0.0092366515 -0 0.67759049
0.0092705023 -0.0018541217 0.67840767
0.0093048438 -0.0037219524 0.67923671
0.0093455464 -0.005607307 0.68021935
0.0093910107 -0.0075128078 0.68131697
0.0094467187 -0.0094467103 0.68266189
0.0095077865 -0.011409312 0.68413615
0.0095760226 -0.013406426 0.68578357
0.0096589867 -0.015454352 0.68778646
0.0097603537 -0.017568618 0.69023371
0.010115082 -0.020230174 0.69879764
0.010236722 -0.022520781 0.7017343
0.010360037 -0.024864107 0.70471132
0.010496831 -0.027291745 0.70801377
0.010653365 -0.029829413 0.71179295
0.010841023 -0.032523066 0.71632338
0.011129669 -0.035614908 0.72329193
0.010751422 0.084219456 0.67089987
0.010694014 0.081987411 0.66974485
0.010769666 0.080772519 0.67126685
0.010843888 0.079521894 0.67276013
0.010916122 0.078232229 0.67421335
0.010966245 0.076763719 0.67522168
0.0109917 0.075109959 0.6757338
0.011023504 0.073490053 0.67637366
0.0091517018 0.059486061 0.63871598
0.0091819307 0.058152229 0.63932407
0.0092135482 0.056816876 0.63996017
0.0092453826 0.055472255 0.64060068
0.0092774108 0.054118246 0.64124501
0.0093118558 0.052767187 0.64193797
0.0093467897 0.051407337 0.64264083
0.0093819583 0.050037116 0.64334834
0.0094180424 0.048659891 0.64407432
0.0094560729 0.047280371 0.64483941
0.0094944108 0.045889646 0.64561069
0.0095330914 0.044487745 0.64638895
0.0095737074 0.043081671 0.64720601
0.0096152853 0.04166624 0.64804256
0.0096572582 0.040238589 0.64888698
0.0097000683 0.038800269 0.64974821
0.0097451266 0.037356317 0.65065473
0.0097905723 0.035898745 0.65156907
0.0098364446 0.034427583 0.65249193
0.0098846043 0.032948703 0.65346074
0.0099337623 0.031456918 0.65444982
0.0099833785 0.029950142 0.65544796
0.010034667 0.028431535 0.6564799
0.010087842 0.026900917 0.65754962
0.010141582 0.025353968 0.65863079
0.010196453 0.02379173 0.65973467
0.010254056 0.022217125 0.66089362
0.010312279 0.020624548 0.66206497
0.010371489 0.019014448 0.66325617
0.010433921 0.017389894 0.66451222
0.010497144 0.015745699 0.66578418
0.010561661 0.014082223 0.66708207
0.01062957 0.012401164 0.66844833
0.01069832 0.010698348 0.66983151
0.010767348 0.0089727938 0.67122024
0.010830665 0.0072204471 0.67249405
0.010885566 0.0054427683 0.67359865
0.010930868 0.0036436319 0.67451
0.010969209 0.0018282235 0.67528135
0.011009274 -0 0.67608744
0.011061643 -0.0018436015 0.67714095
0.011118835 -0.0037062466 0.67829156
0.011184074 -0.0055920184 0.67960411
0.011259788 -0.0075064898 0.68112731
0.011344415 -0.0094536841 0.68282998
0.011443483 -0.011443466 0.68482304
0.011575365 -0.013504535 0.68747628
0.01199321 -0.015990943 0.69588268
0.012130252 -0.018195361 0.69863975
0.012277536 -0.020462543 0.70160288
0.012441164 -0.02280879 0.70489484
0.012628943 -0.025257856 0.70867264
0.012863023 -0.02786988 0.71338195
0.013271823 -0.030967563 0.72160637
0.012648507 0.084925711 0.67271364
0.012545708 0.082443237 0.67094088
0.012600998 0.081006438 0.67189437
0.012629079 0.079382807 0.6723786
0.012665521 0.077802539 0.67300701
0.012710658 0.076263964 0.67378539
0.01276095 0.074742734 0.67465264
0.0128252 0.073286891 0.67576057
0.010719695 0.059724033 0.63945246
0.010656551 0.057849884 0.6383636
0.010695308 0.056532353 0.63903189
0.010734808 0.055207551 0.63971305
0.010774568 0.053872854 0.64039868
0.010815023 0.05253014 0.64109635
0.010858039 0.051187932 0.64183807
0.010901364 0.049834818 0.64258516
0.010945071 0.048471004 0.64333892
0.010990509 0.047102183 0.64412248
0.011037473 0.045726717 0.64493233
0.011084876 0.044339478 0.64574981
0.011132652 0.042940199 0.64657366
0.011183483 0.041538626 0.64745021
0.011234781 0.040124267 0.6483348
0.011286587 0.038696885 0.64922822
0.01134016 0.037260532 0.65015197
0.011395614 0.035814792 0.65110826
0.011451577 0.034354746 0.65207332
0.011508469 0.032881349 0.65305436
0.011568412 0.031399995 0.65408808
0.011629022 0.029903203 0.65513325
0.011690231 0.028390557 0.65618873
0.011754573 0.026867628 0.65729827
0.011820147 0.025328904 0.65842903
0.011886455 0.023772925 0.65957248
0.011955757 0.022203565 0.66076756
0.01202686 0.020617455 0.66199374
0.012098858 0.019012481 0.66323525
0.012174176 0.017391682 0.66453409
0.012251509 0.015751958 0.66586763
0.012329788 0.014091194 0.66721749
0.012406304 0.012406319 0.66853696
0.012473462 0.010691553 0.66969514
0.012530582 0.0089504123 0.67068005
0.012576295 0.0071864724 0.67146838
0.012621113 0.0054090321 0.67224127
0.012671799 0.0036205053 0.67311525
0.012731494 0.0018187761 0.67414469
0.012801341 2.9802322e-08 0.67534912
0.012877068 -0.0018395782 0.67665505
0.012966499 -0.0037046969 0.67819715
0.013068681 -0.0056008399 0.67995924
0.013190145 -0.0075372159 0.68205386
0.013358012 -0.0095414221 0.68494856
0.013821519 -0.011847019 0.69294149
0.013976946 -0.013976961 0.69562173
0.014147901 -0.016169012 0.69856972
0.014338217 -0.018434852 0.70185167
0.014558733 -0.020798147 0.70565426
0.014840771 -0.023321211 0.71051788
0.014577729 0.085644126 0.67455888
0.014258432 0.08198598 0.66974103
0.014308533 0.080485493 0.67049694
0.014364243 0.079003364 0.6713376
0.014435159 0.077589005 0.67240763
0.014528416 0.076274186 0.67381477
0.014626361 0.074960113 0.67529267
0.014723306 0.073616534 0.67675549
0.012338806 0.060151696 0.64077616
0.012124321 0.057590514 0.6375398
0.012168809 0.056280702 0.63821113
0.012216457 0.05497402 0.63893008
0.012264443 0.053656965 0.63965404
0.012312807 0.052329421 0.64038384
0.012362661 0.050995976 0.64113605
0.012414653 0.049658626 0.64192057
0.012467123 0.048310101 0.6427123
0.012519998 0.046949983 0.6435101
0.012575616 0.045586586 0.64434928
0.012632368 0.044213295 0.64520568
0.012689634 0.042827517 0.64606971
0.012748112 0.041431367 0.64695209
0.012809386 0.040029317 0.64787662
0.012871292 0.038613886 0.64881074
0.0129338 0.037184685 0.64975393
0.012999367 0.035748243 0.65074325
0.013066283 0.034299016 0.65175289
0.013133893 0.032834738 0.65277302
0.01320373 0.031358868 0.65382683
0.013276119 0.029871285 0.65491903
0.013349305 0.028367281 0.65602338
0.013424248 0.026848495 0.65715414
0.013502679 0.02531752 0.65833765
0.013582031 0.023768574 0.65953499
0.013663255 0.02220282 0.66076052
0.013748477 0.02062273 0.66204643
0.013834722 0.019022763 0.66334778
0.013921328 0.017401695 0.66465455
0.014001333 0.015751481 0.66586173
0.014071075 0.014071077 0.66691405
0.014129686 0.012363523 0.6677984
0.014177931 0.010633469 0.66852641
0.014228124 0.008892566 0.66928375
0.014290552 0.0071452558 0.67022574
0.014358524 0.0053844452 0.6712513
0.014440157 0.0036100447 0.67248309
0.014529998 0.0018162727 0.67383868
0.014629568 -2.9802322e-08 0.67534107
0.014750108 -0.0018437505 0.67715985
0.014895229 -0.0037238002 0.67934954
0.015141279 -0.0056779981 0.6830622
0.015605181 -0.007802546 0.69006193
0.015780764 -0.0098629594 0.69271129
0.015973654 -0.011980206 0.69562167
0.016191594 -0.014167637 0.69891018
0.016449023 -0.016449004 0.70279449
0.016780777 -0.018878371 0.70780033
0.01653981 0.086374551 0.67643476
0.016169928 0.08264634 0.6714738
0.016098192 0.080490947 0.67051172
0.016205132 0.079225123 0.67194599
0.016311022 0.077930421 0.67336613
0.016421055 0.076631606 0.674842
0.016540296 0.075350195 0.67644131
0.01669012 0.074178338 0.67845076
0.016882082 0.073155701 0.68102545
0.01371597 0.057911873 0.63856059
0.013638415 0.056069046 0.63752043
0.01369224 0.05476895 0.63824236
0.013748969 0.053468198 0.63900316
0.013806127 0.052156508 0.63976979
0.013863805 0.05083397 0.6405434
0.013923647 0.049506277 0.64134604
0.013985482 0.048172206 0.64217538
0.014047915 0.046826422 0.64301276
0.014110862 0.04546836 0.643857
0.014177455 0.044107646 0.64475018
0.014244814 0.042734474 0.64565361
0.014312863 0.041348279 0.64656627
0.01438308 0.039953023 0.64750808
0.014455893 0.038549095 0.64848465
0.014529494 0.037130952 0.64947182
0.014604036 0.035698742 0.65047163
0.014682746 0.034259737 0.65152729
0.014762357 0.032805264 0.65259504
0.014842788 0.031334788 0.65367383
0.014927364 0.029854715 0.65480816
0.015013561 0.028358966 0.65596426
0.015100811 0.026845872 0.65713441
0.015192256 0.025320411 0.65836102
0.015285853 0.023777992 0.65961635
0.015380664 0.022216499 0.66088796
0.015473681 0.020631582 0.66213548
0.015555944 0.019012868 0.66323888
0.01562655 0.017362833 0.66418588
0.015683696 0.015683681 0.66495234
0.015737077 0.013988525 0.66566831
0.015794981 0.012284964 0.6664449
0.015867107 0.010578066 0.66741228
0.015947461 0.0088597238 0.66848999
0.016036909 0.0071275234 0.66968971
0.016141471 0.0053804815 0.67109215
0.016256906 0.0036126375 0.67264038
0.016390216 0.0018211305 0.67442834
0.0165611 -0 0.67672038
0.017154437 -0.0019060373 0.68467832
0.017346261 -0.003854692 0.68725109
0.017543107 -0.0058477223 0.68989134
0.017759802 -0.0078932345 0.69279766
0.018005496 -0.01000306 0.69609296
0.018296732 -0.012197852 0.69999915
0.018693663 -0.01453951 0.70532286
0.018117581 0.083340883 0.67329645
0.017969038 0.080860674 0.67150337
0.018094977 0.079617918 0.67302364
0.018249875 0.078474432 0.67489338
0.018460082 0.077532321 0.67743081
0.018612802 0.076312482 0.67927432
0.018736446 0.074945778 0.68076682
0.018844979 0.073495418 0.68207693
0.018945517 0.071992993 0.68329054
0.015103889 0.055884391 0.63691795
0.015166013 0.054597646 0.63766789
0.015229716 0.053303987 0.63843691
