# .PCD v0.7 - Point Cloud Data file format
VERSION 0.7
FIELDS x y z
SIZE 4 4 4
TYPE F F F
COUNT 1 1 1
WIDTH 1312
HEIGHT 1
VIEWPOINT 0 0 0 1 0 0 0
POINTS 1312
DATA ascii
-0.07754644 -0.032957256 0.68861502
-0.078896664 -0.035503477 0.69268966
-0.065307967 -0.031021297 0.65168214
-0.07883358 -0.03941676 0.69249928
-0.078484252 -0.041204244 0.69144511
-0.069505148 -0.012475252 0.66972649
-0.069139205 -0.014182389 0.66859382
-0.068847708 -0.015887916 0.66769159
-0.06804847 -0.017448306 0.66521788
-0.067175873 -0.018947065 0.66251707
-0.06649103 -0.020458758 0.66039735
-0.066286176 -0.022095382 0.65976328
-0.075835787 -0.02722311 0.68932068
-0.0755466 -0.0290564 0.68842566
-0.075646758 -0.031034559 0.6887356
-0.07713832 -0.033624411 0.69335222
-0.06400001 -0.029538482 0.65268731
-0.063751817 -0.031058609 0.65191913
-0.063513823 -0.032571167 0.65118247
-0.06415002 -0.034542292 0.65315151
-0.076631233 -0.043227851 0.69178271
-0.076804355 -0.045294851 0.69231856
-0.068213508 -0.010770559 0.67128479
-0.067719586 -0.012474686 0.66971576
-0.067465127 -0.014203191 0.6689074
-0.066930309 -0.015851885 0.66720855
-0.065992504 -0.017366409 0.66422951
-0.065264471 -0.018892348 0.66191685
-0.06465593 -0.020417631 0.65998369
-0.07418216 -0.025378078 0.69024467
-0.073989905 -0.027259469 0.68963403
-0.073864013 -0.029156834 0.68923408
-0.075356722 -0.031729132 0.69397581
-0.062685251 -0.028043389 0.65372366
-0.062426139 -0.029570282 0.65290058
-0.062191933 -0.031095952 0.65215659
-0.061973408 -0.032617599 0.65146244
-0.06179636 -0.0341506 0.65090007
-0.061620519 -0.035675019 0.65034145
-0.075439841 -0.045660943 0.69423985
-0.075606935 -0.047751725 0.69477063
-0.067064919 -0.0090627968 0.67339391
-0.066329896 -0.010756224 0.67099595
-0.066028267 -0.012491822 0.67001194
-0.065694161 -0.014204115 0.66892183
-0.064805813 -0.015763581 0.66602373
-0.064019881 -0.017302692 0.66345966
-0.063392274 -0.018846333 0.66141212
-0.063508615 -0.020597368 0.66179168
-0.072426386 -0.025447071 0.69088548
-0.072164401 -0.027305454 0.69003069
-0.072415911 -0.029357761 0.69085121
-0.073768638 -0.031899959 0.69526452
-0.061086997 -0.028066963 0.65389121
-0.060856674 -0.029605955 0.65313983
-0.060628083 -0.031133324 0.65239406
-0.060449317 -0.032675296 0.65181088
-0.06027652 -0.03421098 0.65124708
-0.060137305 -0.035757303 0.65079296
-0.060014874 -0.037306517 0.65039349
-0.073821582 -0.047884256 0.69543719
-0.073663265 -0.049772441 0.69492066
-0.07341788 -0.051590949 0.69412017
-0.064954229 -0.0090214312 0.67239428
-0.064567268 -0.010761201 0.6710968
-0.064324707 -0.012507588 0.67028344
-0.06365256 -0.014145017 0.66802967
-0.062798426 -0.015699565 0.66516566
-0.062132768 -0.017259121 0.66293371
-0.061787292 -0.018879473 0.66177535
-0.070788503 -0.023596138 0.691957
-0.070523269 -0.02546674 0.6910677
-0.070567198 -0.027442783 0.69121498
-0.071973629 -0.029988974 0.69593084
-0.059745308 -0.026553452 0.65492833
-0.059508253 -0.028101116 0.6541335
-0.059283614 -0.029641777 0.65338027
-0.059089914 -0.031186342 0.65273082
-0.058920018 -0.032733351 0.65216112
-0.05876701 -0.034280717 0.65164804
-0.05864704 -0.035839826 0.65124583
-0.058527369 -0.037392437 0.65084457
-0.058336686 -0.038891107 0.65020519
-0.057905916 -0.040212452 0.6487608
-0.071328945 -0.051515341 0.69376916
-0.070437506 -0.052828133 0.69078016
-0.06365516 -0.0072748661 0.67413676
-0.063118532 -0.0090169013 0.67228591
-0.062868834 -0.010777503 0.67142475
-0.06245004 -0.012489974 0.66998041
-0.061563555 -0.014071673 0.66692299
-0.060858611 -0.015649348 0.66449177
-0.060274631 -0.017221302 0.66247767
-0.060675588 -0.019069463 0.66386056
-0.06894327 -0.023637682 0.69237477
-0.068774045 -0.025544673 0.69179118
-0.070159107 -0.028063655 0.69656801
-0.070342563 -0.030146807 0.69720078
-0.058146078 -0.026581049 0.65513659
-0.057925478 -0.02813521 0.65437573
-0.057717577 -0.029683352 0.65365875
-0.057551041 -0.031241983 0.6530844
-0.057385653 -0.032791793 0.65251398
-0.057267051 -0.03436023 0.65210491
-0.05714988 -0.035922766 0.65170079
-0.057007004 -0.037461758 0.65120804
-0.056665204 -0.038856119 0.65002924
-0.05624336 -0.040173858 0.64857435
-0.056002352 -0.041601747 0.64774311
-0.057734322 -0.044537902 0.65371644
-0.069149069 -0.05531922 0.69308448
-0.068814047 -0.057017356 0.6919291
-0.061705008 -0.0072593987 0.67367011
-0.061382186 -0.0090267956 0.67252398
-0.061106361 -0.010783464 0.67154473
-0.060349401 -0.012424856 0.66885722
-0.059576731 -0.014018029 0.66611397
-0.058970604 -0.01560989 0.66396213
-0.058937304 -0.017334491 0.66384387
-0.067316912 -0.021779001 0.6935941
-0.067055553 -0.02366665 0.69266617
-0.06723763 -0.025708497 0.69331264
-0.068528205 -0.028217494 0.69789463
-0.056771841 -0.025046378 0.65615582
-0.056553863 -0.026613593 0.65538192
-0.05633904 -0.028169513 0.65461922
-0.056169026 -0.029736519 0.65401554
-0.056006666 -0.031297863 0.65343916
-0.055874959 -0.03286761 0.65297157
-0.055760134 -0.03444007 0.65256393
-0.055642497 -0.036003977 0.65214628
-0.055389773 -0.037469566 0.65124899
-0.054946814 -0.038785964 0.64967632
-0.054670472 -0.040198892 0.64869529
-0.054512981 -0.041686386 0.64813614
-0.054461848 -0.0432491 0.64795458
-0.054527659 -0.044905126 0.64818823
-0.066309877 -0.0565584 0.69001883
-0.066061907 -0.058289915 0.68913841
-0.060326688 -0.0054842532 0.67526686
-0.059890807 -0.0072595179 0.67367244
-0.059664223 -0.0090400577 0.67284369
-0.059137482 -0.010752261 0.67091691
-0.05830821 -0.012368381 0.66788346
-0.057665743 -0.013979554 0.66553342
-0.057199296 -0.015599817 0.66382718
-0.065618731 -0.019884467 0.6946246
-0.065393671 -0.021797895 0.6938014
-0.065378651 -0.023774058 0.69374645
-0.066695906 -0.026274145 0.69856477
-0.05539323 -0.023500174 0.65722072
-0.055168357 -0.025076509 0.65639824
-0.054957747 -0.026646197 0.65562779
-0.054774161 -0.028217018 0.65495628
-0.054614913 -0.029789954 0.65437376
-0.054470774 -0.031361967 0.6538465
-0.054358337 -0.032944441 0.65343523
-0.054246724 -0.034520686 0.653027
-0.054064486 -0.036042988 0.65236032
-0.053656194 -0.037396729 0.65086687
-0.053325392 -0.03878212 0.64965683
-0.053140905 -0.040258229 0.64898193
-0.05306115 -0.041805714 0.64869022
-0.053092372 -0.043439209 0.64880449
-0.053282201 -0.04520911 0.64949882
-0.054075997 -0.047521293 0.65240246
-0.054514296 -0.049558491 0.65400577
-0.06396912 -0.060092211 0.68859053
-0.059071172 -0.0036919713 0.6774267
-0.058424532 -0.0054772496 0.67498744
-0.058161162 -0.0072701573 0.67399395
-0.057846185 -0.0090384781 0.67280579
-0.057022348 -0.010691702 0.66969812
-0.056341738 -0.01232475 0.66713071
-0.055787176 -0.013946772 0.66503882
-0.05602983 -0.015758395 0.66595411
-0.06376636 -0.019926995 0.69513798
-0.063575961 -0.021854222 0.69441968
-0.064847432 -0.024317801 0.69921601
-0.065021768 -0.02641511 0.69987363
-0.053768579 -0.023523748 0.65742421
-0.053562269 -0.025107324 0.65664601
-0.053365894 -0.026682943 0.65590519
-0.053210184 -0.02826789 0.65531778
-0.053055726 -0.029843867 0.65473521
-0.052943975 -0.03143546 0.65431368
-0.05283444 -0.03302151 0.65390044
-0.052699491 -0.034584045 0.65339142
-0.052373867 -0.036007017 0.65216303
-0.051985987 -0.03736493 0.65069991
-0.051764473 -0.038823336 0.64986432
-0.051649757 -0.040351361 0.64943159
-0.051648088 -0.041964054 0.64942527
-0.051787075 -0.043695331 0.64994961
-0.052413639 -0.0458619 0.65231311
-0.05280447 -0.047854006 0.65378737
-0.052922625 -0.049614966 0.6542331
-0.0530749 -0.051416308 0.65480751
-0.061339606 -0.061339617 0.68598378
-0.059987403 -0.061862022 0.68088293
-0.056966275 -0.003675282 0.67641848
-0.056630794 -0.0054804087 0.67511219
-0.056405094 -0.0072780848 0.67423332
-0.055771716 -0.0089954436 0.67176706
-0.055023476 -0.010649681 0.66885346
-0.054441024 -0.0122931 0.66658545
-0.054274529 -0.014006287 0.66593707
-0.062079243 -0.018022984 0.69632787
-0.061834984 -0.019946754 0.69537669
-0.061960217 -0.021985888 0.69586438
-0.063172229 -0.024453729 0.70058382
-0.052358381 -0.021956772 0.65847588
-0.05215276 -0.023552865 0.65767521
-0.051952407 -0.025138259 0.65689504
-0.051791944 -0.026731312 0.65627021
-0.05164038 -0.028318942 0.65568006
-0.051517062 -0.029913127 0.65519989
-0.051410004 -0.031509399 0.65478301
-0.051299997 -0.03309679 0.65435463
-0.051060028 -0.034589052 0.65342015
-0.050647721 -0.035943538 0.6518147
-0.050396767 -0.037391156 0.65083754
-0.050254878 -0.038906991 0.65028501
-0.050212741 -0.040494144 0.65012097
-0.050286319 -0.042175621 0.65040743
-0.050619289 -0.044087797 0.65170401
-0.05129372 -0.046329796 0.65433013
-0.051426876 -0.048108995 0.65484869
-0.051565185 -0.049901783 0.65538722
-0.051741842 -0.051741809 0.65607512
-0.05196511 -0.053641379 0.65694451
-0.052253257 -0.055624425 0.65806651
-0.056640517 -0.062121809 0.67514998
-0.055575442 -0.0018524826 0.67821622
-0.055108819 -0.0036739111 0.67633867
-0.054888967 -0.0054888725 0.67545408
-0.054488484 -0.0072651505 0.67384267
-0.053700574 -0.0089501143 0.67067236
-0.053085823 -0.010617137 0.66819876
-0.052576538 -0.012267888 0.66614962
-0.060325127 -0.016086698 0.69732744
-0.060149387 -0.0180448 0.6966204
-0.060085587 -0.020028532 0.69636363
-0.061301943 -0.022477359 0.70125788
-0.050940398 -0.020376146 0.65956622
-0.050728649 -0.021982402 0.65871423
-0.050532773 -0.023581952 0.65792608
-0.050360356 -0.025180161 0.65723228
-0.050212275 -0.02677986 0.65663648
-0.050077595 -0.028377295 0.65609461
-0.049972899 -0.029983729 0.65567333
-0.049869634 -0.031584084 0.65525782
-0.049697097 -0.033131421 0.65456361
-0.049313094 -0.034519196 0.65301853
-0.049015362 -0.035944611 0.65182054
-0.048848517 -0.037450522 0.65114915
-0.048780099 -0.039024085 0.6508739
-0.048816428 -0.040680349 0.65102005
-0.049026567 -0.042489678 0.6518656
-0.049756069 -0.044780463 0.65480089
-0.04992171 -0.046593547 0.65546733
-0.050046708 -0.048378497 0.65597034
-0.050207909 -0.050207913 0.65661895
-0.050412785 -0.052093208 0.65744328
-0.050672993 -0.054051191 0.6584903
-0.051012758 -0.056114018 0.65985739
-0.051478814 -0.058342636 0.66173267
-0.052209523 -0.060911089 0.66467273
-0.056330416 -0.067596495 0.68125403
-0.053613558 -0.0018487573 0.67776096
-0.053334709 -0.0036782324 0.67660034
-0.053080104 -0.0054910481 0.67554057
-0.052379578 -0.0072247386 0.67262459
-0.05171334 -0.00891608 0.66985142
-0.051189933 -0.010590971 0.66767275
-0.051290173 -0.012380362 0.66809005
-0.058466785 -0.016128778 0.69796222
-0.058263242 -0.018081665 0.697115
-0.059418458 -0.020489126 0.70192349
-0.059582658 -0.022600323 0.70260698
-0.049290057 -0.020395875 0.65976471
-0.049098756 -0.02200979 0.65896839
-0.048914868 -0.023614079 0.65820301
-0.048770357 -0.025226027 0.65760148
-0.048627514 -0.026828974 0.65700686
-0.048523117 -0.028444588 0.65657234
-0.048421428 -0.030054688 0.65614903
-0.048295233 -0.031641692 0.65562379
-0.047987778 -0.033095002 0.65434402
-0.047634117 -0.034493685 0.65287197
-0.047432475 -0.035983235 0.65203261
-0.047336228 -0.037542522 0.65163201
-0.047341634 -0.039179236 0.65165448
-0.047481835 -0.040932626 0.65223807
-0.048146844 -0.043166131 0.65500617
-0.048407212 -0.045068771 0.6560899
-0.04851938 -0.046846271 0.65655679
-0.048665509 -0.048665524 0.65716505
-0.048852947 -0.050537497 0.65794522
-0.049091775 -0.052477419 0.65893936
-0.049397778 -0.054507911 0.66021311
-0.049812395 -0.056683093 0.66193891
-0.050428685 -0.059123307 0.66450417
-0.053121295 -0.064111918 0.67571205
-0.053478796 -0.066387475 0.67720008
-0.052144554 -2.9802322e-08 0.67939812
-0.051768638 -0.0018488765 0.67777747
-0.051571216 -0.0036836267 0.67692637
-0.051067986 -0.0054715872 0.67475694
-0.05035146 -0.0071930587 0.67166787
-0.049797021 -0.0088923275 0.66927761
-0.049517523 -0.010610908 0.6680727
-0.056720365 -0.014180094 0.69912487
-0.056500997 -0.016143173 0.69817919
-0.056575838 -0.018185079 0.69850171
-0.057696294 -0.020605803 0.70333219
-0.04784197 -0.018795073 0.66084921
-0.047649801 -0.020421296 0.66002077
-0.047464795 -0.022037238 0.6592232
-0.047314759 -0.023657382 0.65857637
-0.047174715 -0.025272161 0.65797263
-0.047060147 -0.02689147 0.65747869
-0.046961244 -0.02851218 0.65705234
-0.046859458 -0.030123919 0.65661359
-0.046633452 -0.031644136 0.65563917
-0.046253484 -0.033038199 0.65400112
-0.046027523 -0.034520686 0.653027
-0.045901153 -0.036065191 0.65248221
-0.045867492 -0.037676871 0.65233707
-0.045953244 -0.039388478 0.65270674
-0.046321694 -0.04135862 0.65429515
-0.046873573 -0.043525457 0.65667439
-0.04698991 -0.045311689 0.65717596
-0.047121566 -0.047121555 0.65774345
-0.047289524 -0.048978418 0.65846759
-0.047503743 -0.050896883 0.65939116
-0.047784694 -0.052904457 0.66060233
-0.048149768 -0.05502826 0.66217613
-0.048679106 -0.057371795 0.66445822
-0.049673252 -0.060317516 0.66874403
-0.051739577 -0.064674467 0.67765218
-0.050777219 0.0018806458 0.68161094
-0.050221875 -0 0.67912817
-0.049997166 -0.0018517077 0.67812347
-0.049696822 -0.0036812425 0.67678076
-0.048970841 -0.0054411888 0.67353511
-0.048388679 -0.0071686804 0.67093235
-0.0479111 -0.0088724196 0.66879725
-0.054910947 -0.012202442 0.70009196
-0.054782689 -0.014202923 0.6995185
-0.054675605 -0.016200185 0.69903976
-0.055787574 -0.018595815 0.70401108
-0.046383426 -0.017179012 0.66196734
-0.046186004 -0.018816531 0.66108471
-0.046005607 -0.020446897 0.6602782
-0.045844957 -0.022073478 0.65955997
-0.045708764 -0.023700863 0.6589511
-0.04558415 -0.025324523 0.65839398
-0.045487761 -0.026955724 0.65796304
-0.045393154 -0.028580874 0.65754008
-0.045231294 -0.030154198 0.65681648
-0.044873871 -0.031577915 0.65521848
-0.044608496 -0.033043295 0.65403205
-0.044459492 -0.034579575 0.65336585
-0.044401623 -0.036179066 0.65310717
-0.044441793 -0.037857801 0.65328681
-0.044666458 -0.039703518 0.65429115
-0.045324013 -0.041966677 0.65723097
-0.045453329 -0.043769836 0.65780908
-0.045572154 -0.045572162 0.65834033
-0.045725163 -0.047418684 0.65902448
-0.045919597 -0.049321026 0.65989369
-0.046166435 -0.051296026 0.66099727
-0.046500135 -0.053389043 0.66248918
-0.046956562 -0.055652231 0.66452968
-0.047720704 -0.058325291 0.66794598
-0.050009195 -0.062974542 0.67817736
-0.048680127 0.0018723309 0.68060601
-0.048394371 -0 0.67927933
-0.048189823 -0.0018534362 0.67832971
-0.047609959 -0.003662318 0.67563754
-0.046973046 -0.0054199696 0.6726805
-0.046477646 -0.0071504116 0.67038053
-0.046453748 -0.0089334249 0.67026961
-0.053041492 -0.01224032 0.7008546
-0.052838333 -0.014225721 0.69991142
-0.053039756 -0.016319931 0.70084661
-0.054020733 -0.018699467 0.70540094
-0.044706814 -0.017194897 0.66215909
-0.044531435 -0.018840224 0.66134483
-0.044361666 -0.020474583 0.66055667
-0.044228494 -0.022114217 0.65993834
-0.044097614 -0.023744851 0.65933073
-0.044001114 -0.025385231 0.65888262
-0.043907851 -0.027020216 0.65844971
-0.04379094 -0.028632551 0.65790695
-0.043503627 -0.030117899 0.656573
-0.04318491 -0.031558216 0.65509331
-0.043004893 -0.033080667 0.65425754
-0.042924158 -0.034669489 0.65388268
-0.042935632 -0.036330163 0.65393591
-0.043074526 -0.038104355 0.65458077
-0.04370752 -0.040345371 0.65751958
-0.043907255 -0.042218536 0.65844691
-0.044013616 -0.044013619 0.65894073
-0.044152237 -0.045850396 0.65958434
-0.044329617 -0.047739595 0.6604079
-0.044555839 -0.049696892 0.66145813
-0.044845514 -0.051744819 0.66280305
-0.045252662 -0.053955108 0.66469324
-0.045870315 -0.056455791 0.66756088
-0.048266172 -0.061260879 0.67868412
-0.048619363 -0.063579172 0.6803239
-0.047191717 0.0037753284 0.68245971
-0.046795033 0.0018717945 0.68054432
-0.046607081 -0 0.67963678
-0.046232931 -0.0018493533 0.67783028
-0.04555507 -0.0036444068 0.67455727
-0.045033541 -0.0054040253 0.67203909
-0.044663396 -0.0071461499 0.67025191
-0.05123372 -0.010246724 0.70197618
-0.051041387 -0.012249917 0.70104754
-0.051071815 -0.014300108 0.70119441
-0.052094653 -0.016670316 0.70613325
-0.043219317 -0.015558958 0.66327924
-0.043041755 -0.017216682 0.66242188
-0.042872548 -0.018863916 0.66160488
-0.042733993 -0.020512313 0.66093588
-0.042606048 -0.022155166 0.66031814
-0.042500809 -0.023800462 0.65981001
-0.042410463 -0.025446266 0.65937376
-0.042317204 -0.02708298 0.65892351
-0.042107098 -0.02863282 0.65790892
-0.041760586 -0.030067623 0.65623587
-0.041559823 -0.031585455 0.65526652
-0.041448414 -0.03315869 0.65472859
-0.041422609 -0.034795016 0.65460402
-0.041517198 -0.036535144 0.65506065
-0.041935306 -0.038580507 0.65707946
-0.042348437 -0.04065448 0.65907425
-0.042448603 -0.04244861 0.65955794
-0.042572554 -0.044275463 0.66015643
-0.042731509 -0.046150029 0.66092396
-0.042937886 -0.048090428 0.66192043
-0.043203343 -0.050115854 0.66320217
-0.043556109 -0.052267313 0.66490543
-0.044080116 -0.054659337 0.66743553
-0.045368038 -0.058071077 0.6736542
-0.046780504 -0.061750233 0.68047416
-0.045214325 0.0037678778 0.68200839
-0.044980608 0.0018741786 0.68083292
-0.0447523 2.9802322e-08 0.67968458
-0.044125933 -0.0018385649 0.67653418
-0.043569751 -0.0036308169 0.67373687
-0.043128792 -0.0053911209 0.67151904
-0.043326255 -0.0072210431 0.67251217
-0.049283881 -0.010267466 0.70247668
-0.049152963 -0.012288243 0.70181823
-0.050148498 -0.014626622 0.70682538
-0.041718572 -0.013906181 0.66442609
-0.041536611 -0.015576243 0.66351092
-0.041372471 -0.017238528 0.66268539
-0.041224759 -0.018894672 0.66194242
-0.041100878 -0.02055043 0.66131938
-0.040986966 -0.02220127 0.66074646
-0.040899303 -0.023857951 0.6603055
-0.040813673 -0.025508583 0.65987486
-0.040663723 -0.027109146 0.65912068
-0.04033754 -0.02857241 0.65748006
-0.040101811 -0.030076355 0.65629447
-0.039970201 -0.031643063 0.6556325
-0.03992223 -0.033268541 0.65539122
-0.039965011 -0.034969389 0.65560639
-0.04019779 -0.036847979 0.65677714
-0.040767811 -0.039069146 0.65964419
-0.040879529 -0.040879548 0.66020608
-0.040991165 -0.042699099 0.66076756
-0.041134384 -0.04456228 0.66148794
-0.041316528 -0.046481103 0.662404
-0.041554719 -0.048480481 0.66360205
-0.041870289 -0.050593257 0.66518921
-0.042319741 -0.052899659 0.66744983
-0.043137465 -0.055719256 0.67156261
-0.045016184 -0.060021579 0.6810118
-0.043650221 0.0056935251 0.68368697
-0.043337572 0.0037684739 0.68204612
-0.043168183 0.0018768907 0.68115705
-0.042706821 -0 0.67873567
-0.042107254 -0.0018307269 0.67558903
-0.041644048 -0.0036212206 0.67315799
-0.041517548 -0.0054153204 0.67249405
-0.047476083 -0.0082567036 0.70376623
-0.047286857 -0.010279745 0.70277309
-0.047421899 -0.012370884 0.70348179
-0.048332062 -0.014709741 0.70825857
-0.040016025 -0.013918608 0.66461366
-0.039856512 -0.015596032 0.66377646
-0.039702509 -0.017261982 0.66296828
-0.039580841 -0.018929958 0.66232967
-0.039462626 -0.020589173 0.66170925
-0.03937446 -0.022255093 0.66124648
-0.039290041 -0.023915619 0.66080344
-0.039183155 -0.02555421 0.6602425
-0.038918402 -0.027073652 0.65885299
-0.038634878 -0.028556228 0.65736502
-0.038478572 -0.030113667 0.65654469
-0.038410123 -0.031730115 0.65618545
-0.03842641 -0.033414245 0.65627086
-0.038561478 -0.035208285 0.65697974
-0.039145432 -0.037443489 0.66004455
-0.039300635 -0.039300621 0.66085905
-0.039400339 -0.041113436 0.66138238
-0.039529722 -0.042967111 0.66206139
-0.03969539 -0.044873029 0.66293085
-0.039906543 -0.046846807 0.66403902
-0.040186927 -0.048923194 0.66551054
-0.04057043 -0.051154047 0.66752332
-0.041210983 -0.053753465 0.67088509
-0.043243773 -0.058285087 0.68155384
-0.042165812 0.0076665282 0.68595541
-0.041705087 0.005687058 0.68342745
-0.041519783 0.0037745237 0.68241072
-0.041243196 0.0018747151 0.68089312
-0.040629271 -2.9802322e-08 0.67752457
-0.040145919 -0.0018247962 0.67487252
-0.039749436 -0.0036135614 0.67269707
-0.04560928 -0.0062194169 0.70484912
-0.045460857 -0.0082656145 0.70403475
-0.045444343 -0.010328233 0.70394415
-0.046365224 -0.012645066 0.70899689
-0.038486436 -0.012245685 0.66576719
-0.038324706 -0.013936251 0.6648798
-0.038172271 -0.01561594 0.66404343
-0.038045879 -0.017293602 0.66334993
-0.037930775 -0.018965364 0.66271836
-0.037835471 -0.020637512 0.66219544
-0.037754111 -0.022309244 0.66174901
-0.037669875 -0.023971736 0.66128683
-0.037477367 -0.02555272 0.66023058
-0.037166469 -0.02703014 0.65852475
-0.036989998 -0.028583199 0.65755647
-0.036893547 -0.03018561 0.65702724
-0.036877599 -0.031848818 0.65693974
-0.036974464 -0.033613175 0.6574713
-0.037425507 -0.035724342 0.65994602
-0.037711557 -0.037711561 0.66151553
-0.037799872 -0.039518028 0.66200006
-0.037916142 -0.04136306 0.66263807
-0.038065877 -0.04325667 0.66345966
-0.038257841 -0.045213789 0.66451287
-0.038504746 -0.047255814 0.66586769
-0.038845938 -0.049440295 0.66773975
-0.039363239 -0.0518879 0.67057806
-0.041458171 -0.056533873 0.6820727
-0.04175207 -0.058832467 0.68368524
-0.040076483 0.0076335967 0.68496263
-0.039840646 0.0056915283 0.68360704
-0.039662141 0.003777355 0.68258095
-0.039152425 0.0018644333 0.67965102
-0.038631484 2.9802322e-08 0.6766566
-0.038225748 -0.0018202364 0.67432439
-0.038305599 -0.0036481321 0.67478335
-0.04364536 -0.0062350035 0.705477
-0.043505851 -0.0082868338 0.70467508
-0.044380903 -0.01056689 0.709705
-0.036941897 -0.01055479 0.66694468
-0.036776524 -0.012258828 0.66599405
-0.036629476 -0.013954103 0.66514885
-0.03649589 -0.015641093 0.66438097
-0.036384806 -0.017326087 0.66374242
-0.036282286 -0.019005001 0.66315317
-0.036203902 -0.020687938 0.66270262
-0.036127474 -0.022364646 0.66226327
-0.03599086 -0.02399388 0.66147798
-0.035697892 -0.02549845 0.65979391
-0.035491582 -0.027041227 0.65860808
-0.035377465 -0.028638899 0.65795213
-0.035338677 -0.030290276 0.65772915
-0.035382465 -0.032012701 0.65798086
-0.035616457 -0.033920437 0.65932584
-0.036101781 -0.036101788 0.66211557
-0.036196671 -0.037920326 0.66266102
-0.036299583 -0.039756685 0.66325259
-0.036431611 -0.041636139 0.66401148
-0.036601789 -0.043573558 0.66498971
-0.036826022 -0.045594126 0.6662786
-0.037118595 -0.047723889 0.66796035
-0.03755198 -0.050069302 0.67045146
-0.03849519 -0.053160012 0.67587316
-0.039895102 -0.056993008 0.68392003
-0.038483653 0.0096209347 0.68686736
-0.038159925 0.0076319873 0.68491346
-0.038005292 0.0057007968 0.68398017
-0.037664421 0.0037664771 0.68192279
-0.037111301 0.001855582 0.6785844
-0.036686547 -0 0.67602086
-0.036478464 -0.0018239021 0.67476487
-0.041776109 -0.0041776001 0.70673907
-0.041609183 -0.0062413812 0.70573157
-0.041694824 -0.008338958 0.70624846
-0.042512447 -0.010628104 0.71118325
-0.035214081 -0.010564208 0.66713369
-0.035070434 -0.012274623 0.66626668
-0.034932952 -0.013973206 0.66543698
-0.034823667 -0.015670657 0.66477728
-0.034718558 -0.017359257 0.66414297
-0.034639359 -0.019051611 0.66366494
-0.034564823 -0.0207389 0.66321504
-0.034468271 -0.022404402 0.66263235
-0.034228474 -0.023959905 0.66118503
-0.033980444 -0.025485337 0.659688
-0.033847466 -0.027077973 0.65888542
-0.033790551 -0.028721958 0.65854192
-0.033810299 -0.030429274 0.65866113
-0.033949319 -0.032251835 0.65950012
-0.034468386 -0.034468383 0.66263306
-0.034583695 -0.036312878 0.66332901
-0.034675367 -0.03814292 0.66388232
-0.034794122 -0.040013224 0.66459906
-0.034946129 -0.041935354 0.6655165
-0.03514063 -0.043925792 0.66669041
-0.035405699 -0.046027422 0.6682902
-0.035776321 -0.048298001 0.6705271
-0.036427341 -0.050998271 0.67445642
-0.038087308 -0.055226594 0.68447518
-0.036489028 0.0096023977 0.68641979
-0.036301766 0.0076424479 0.68523008
-0.036105301 0.0057008862 0.6839819
-0.035570744 0.003744334 0.68058574
-0.035129238 0.0018488765 0.67778075
-0.034772292 -0 0.67551303
-0.039852507 -0.0020974874 0.70778859
-0.039744545 -0.0041835904 0.70710272
-0.039694928 -0.006267637 0.70678747
-0.040503658 -0.0085271001 0.71192557
-0.033639342 -0.008852452 0.66831517
-0.033494633 -0.010577232 0.66739577
-0.033359937 -0.012290508 0.66654003
-0.033246886 -0.013998687 0.66582185
-0.033145115 -0.01570031 0.66517526
-0.033060394 -0.017400205 0.66463703
-0.032988466 -0.01909861 0.66418004
-0.032913886 -0.020787716 0.66370624
-0.032740571 -0.022401422 0.66260511
-0.032468185 -0.023923904 0.66087455
-0.032314777 -0.025511682 0.65990001
-0.032232825 -0.027143449 0.65937936
-0.032227583 -0.028835177 0.65934598
-0.032321151 -0.030620039 0.65994048
-0.032779519 -0.032779515 0.66285253
-0.032960333 -0.034695059 0.66400129
-0.033041321 -0.036519349 0.66451579
-0.033147428 -0.038381219 0.66518992
-0.033284135 -0.040291309 0.66605848
-0.033459384 -0.042264491 0.66717184
-0.033687502 -0.04432562 0.66862112
-0.034007076 -0.046535999 0.67065144
-0.034519523 -0.049054056 0.67390716
-0.036270466 -0.05345118 0.68503118
-0.034825463 0.011608481 0.68814266
-0.034577843 0.0096049607 0.68648207
-0.034437303 0.0076527894 0.68553954
-0.034038007 0.0056730211 0.6828618
-0.033561848 0.003729105 0.67966866
-0.033194471 0.0018441379 0.67720497
-0.033179183 -0 0.67710245
-0.037868671 -0.0021038353 0.70855087
-0.037728753 -0.0041920841 0.70761251
-0.038479924 -0.0064133108 0.71265006
-0.038589563 -0.0085754693 0.71338528
-0.031902038 -0.0088616908 0.66853774
-0.031772949 -0.010590971 0.66767204
-0.031654466 -0.012310088 0.66687751
-0.031556975 -0.014025301 0.6662237
-0.031467009 -0.01573348 0.66562033
-0.03139779 -0.01744321 0.66515619
-0.031331055 -0.01914674 0.66470861
-0.031209022 -0.020805985 0.66389024
-0.030951189 -0.022353619 0.66216123
-0.030774467 -0.023935705 0.66097605
-0.030677507 -0.025564581 0.66032583
-0.030647129 -0.027241886 0.6601221
-0.030695489 -0.028990209 0.66044641
-0.030936092 -0.030936092 0.66205996
-0.031321898 -0.033062011 0.66464722
-0.031400524 -0.03488946 0.66517454
-0.031493526 -0.036742449 0.66579819
-0.031613577 -0.03863883 0.66660327
-0.031771157 -0.040596455 0.66766
-0.031974636 -0.042632848 0.66902459
-0.032250687 -0.044792593 0.67087585
-0.032669254 -0.047188908 0.67368281
-0.034437168 -0.05165574 0.68553871
-0.034677159 -0.053942263 0.68714815
-0.03321838 0.013678163 0.69046926
-0.032855902 0.011596203 0.68789548
-0.032710854 0.0096208453 0.68686557
-0.032470733 0.0076401532 0.68516052
-0.031978052 0.005643189 0.6816622
-0.031597454 0.0037173927 0.67895961
-0.031333238 0.0018431544 0.67708361
-0.035938479 2.9802322e-08 0.70978373
-0.035797365 -0.0021057129 0.70878166
-0.035844732 -0.0042170286 0.70911801
-0.036556911 -0.0064512193 0.71417499
-0.030295391 -0.0071283281 0.66971421
-0.030169029 -0.0088732243 0.66881692
-0.030049022 -0.010605574 0.66796488
-0.029953049 -0.012333602 0.66728342
-0.029861672 -0.01405254 0.66663456
-0.029792225 -0.015772372 0.66614145
-0.029727774 -0.01748693 0.66568375
-0.029642515 -0.019180447 0.66507834
-0.029430114 -0.020774215 0.66357023
-0.029218124 -0.022343248 0.66206497
-0.029107641 -0.023970991 0.66128045
-0.029061597 -0.025642604 0.66095352
-0.029083457 -0.027372658 0.66110873
-0.029225653 -0.029225677 0.66211843
-0.029666187 -0.031411231 0.66524649
-0.029752418 -0.033252686 0.66585875
-0.029834755 -0.035099685 0.66644341
-0.02994124 -0.036986232 0.66719949
-0.030077498 -0.03892383 0.66816705
-0.030257778 -0.040936977 0.66944718
-0.030496767 -0.043054223 0.67114413
-0.030845121 -0.045360476 0.67361766
-0.031543437 -0.048242897 0.67857611
-0.032796364 -0.05208838 0.6874727
-0.031134622 0.01362139 0.6894905
-0.030951776 0.011606932 0.68811101
-0.0308041 0.0096262693 0.68699694
-0.030382887 0.0075957179 0.68381912
-0.02998011 0.0056212544 0.68078041
-0.029666705 0.0037083328 0.67841589
-0.029809093 0.0018630624 0.67949021
-0.033888452 -0 0.71026647
-0.033813592 -0.0021133125 0.70970172
-0.034505714 -0.0043132007 0.71492344
-0.028673848 -0.005376339 0.67092538
-0.028547674 -0.0071369112 0.66997355
-0.028431488 -0.0088848174 0.66909695
-0.02833288 -0.010624826 0.66835296
-0.028245213 -0.012357265 0.66769159
-0.028171664 -0.014085829 0.66713673
-0.028109644 -0.015811682 0.66666877
-0.028045144 -0.017528206 0.66618216
-0.027893199 -0.019176543 0.66503584
-0.027660456 -0.020745337 0.66328001
-0.027530333 -0.022368371 0.6622982
-0.027463278 -0.024030387 0.6617924
-0.027465636 -0.025748998 0.66181016
-0.027553167 -0.027553141 0.66247052
-0.027964031 -0.029711783 0.66557026
-0.028093662 -0.031605363 0.66654825
-0.028165814 -0.033446908 0.66709262
-0.028260268 -0.035325348 0.66780519
-0.028381897 -0.037251264 0.66872281
-0.028537702 -0.039239347 0.66989827
-0.028747879 -0.041325092 0.67148393
-0.02904102 -0.043561518 0.67369556
-0.029542236 -0.046159744 0.67747688
-0.030943045 -0.050282419 0.6880452
-0.029432058 0.015697122 0.69144881
-0.029184284 0.013619363 0.68945491
-0.029065048 0.011626035 0.6884954
-0.028775761 0.0095919371 0.68616736
-0.02835279 0.0075607598 0.68276358
-0.028029416 0.0056058764 0.68016124
-0.027943633 0.0037258267 0.6794709
-0.031945676 0.0021297038 0.7116769
-0.031819046 2.9802322e-08 0.71065784
-0.031951662 -0.0021300912 0.711725
-0.032536183 -0.0043381453 0.71642888
-0.026908815 -0.005381763 0.67114335
-0.026798612 -0.0071462691 0.6702565
-0.026696427 -0.0088987947 0.66943419
-0.026613217 -0.01064527 0.66876459
-0.02653653 -0.012383699 0.66814744
-0.026476992 -0.014121056 0.66766828
-0.02642023 -0.015852123 0.66721153
-0.026314354 -0.017542899 0.66635948
-0.02609369 -0.019135356 0.66458368
-0.02594647 -0.020757169 0.66339898
-0.02586644 -0.022417605 0.66275495
-0.025843637 -0.024120718 0.66257143
-0.025895532 -0.025895536 0.66298908
-0.026153609 -0.027897149 0.66506588
-0.026423674 -0.029946834 0.66723925
-0.026487084 -0.031784505 0.66774952
-0.026569692 -0.033654928 0.66841429
-0.026677448 -0.035569936 0.66928142
-0.026816325 -0.03754282 0.67039901
-0.02699573 -0.039593726 0.67184281
-0.027248198 -0.041780561 0.67387444
-0.027638424 -0.044221491 0.67701483
-0.029080026 -0.048466712 0.68861592
-0.029381014 -0.050927073 0.69103801
-0.027418526 0.015667737 0.69100571
-0.027278759 0.013639361 0.68980062
-0.027116563 0.011621386 0.68840212
-0.026701767 0.0095363557 0.68482566
-0.026371447 0.0075347126 0.68197763
-0.026102977 0.0055934787 0.67966282
-0.029952122 0.0042788684 0.71285081
-0.029844036 0.0021317005 0.71191895
-0.029859431 2.9802322e-08 0.71205163
-0.030460725 -0.0021757483 0.71723616
-0.025255879 -0.0036079884 0.67235899
-0.025147986 -0.0053888559 0.67142868
-0.025046557 -0.0071561635 0.67055416
-0.024964793 -0.0089159906 0.66984916
-0.024887893 -0.010666221 0.66918612
-0.024828879 -0.012414426 0.66867727
-0.024774784 -0.014157027 0.66821086
-0.024701925 -0.01587984 0.66758263
-0.024519745 -0.01751411 0.66601187
-0.024345813 -0.019128859 0.66451216
-0.024255445 -0.020790368 0.66373301
-0.024219552 -0.022489548 0.66342348
-0.024241846 -0.024241835 0.66361582
-0.024379706 -0.02612111 0.6648044
-0.024733761 -0.028267145 0.66785717
-0.024802594 -0.030117422 0.66845059
-0.024874195 -0.031981081 0.66906798
-0.024966663 -0.033883303 0.66986525
-0.025087014 -0.035838604 0.67090297
-0.025246322 -0.037869483 0.6722765
-0.025458457 -0.040006161 0.67410564
-0.025780011 -0.042352855 0.67687804
-0.027184965 -0.046602786 0.6889919
-0.027385082 -0.048901945 0.69071734
-0.025650617 0.017758131 0.69277513
-0.025469631 0.015673637 0.69109458
-0.025360893 0.013655871 0.69008493
-0.025044328 0.01155892 0.68714547
-0.024695469 0.0094982684 0.6839062
-0.024426071 0.0075156987 0.68140471
-0.024480494 0.005649358 0.68190998
-0.027879322 0.0042891502 0.71346956
-0.027799608 0.0021384358 0.71272945
-0.02836637 -0 0.71799207
-0.023585735 -0.0018143058 0.67360181
-0.023479402 -0.0036122203 0.67261446
-0.023382589 -0.0053959787 0.6717155
-0.023299672 -0.0071691275 0.67094553
-0.02322679 -0.0089333951 0.67026883
-0.023165165 -0.010691613 0.66969663
-0.023113471 -0.012445718 0.66921663
-0.023059718 -0.014190614 0.6687175
-0.022930386 -0.015874892 0.66751659
-0.022739204 -0.017491668 0.66574132
-0.022632705 -0.019150734 0.66475248
-0.022582026 -0.020844936 0.6642819
-0.022587672 -0.022587657 0.6643343
-0.022666145 -0.024409711 0.66506296
-0.023014925 -0.026555687 0.66830158
-0.023107069 -0.028439462 0.66915715
-0.023169126 -0.030298114 0.66973341
-0.023250202 -0.032192588 0.67048621
-0.023354551 -0.034133613 0.67145514
-0.023489913 -0.036138326 0.67271209
-0.023674326 -0.038243145 0.67442441
-0.023938579 -0.040511429 0.67687804
-0.024439562 -0.043239236 0.68153
-0.025474217 -0.047029316 0.69113719
-0.023914957 0.019929141 0.69516385
-0.023654174 0.017740637 0.69254053
-0.023550356 0.015700191 0.69149625
-0.02335887 0.013626009 0.68957001
-0.022999622 0.011499822 0.68595624
-0.022725672 0.0094690621 0.68320054
-0.022595422 0.0075318515 0.68189031
-0.025871258 0.0064677894 0.71484268
-0.025765346 0.0042942166 0.7137773
-0.025842641 0.0021535456 0.71455485
-0.026338829 -0 0.71954614
-0.021792388 -0.0018160343 0.67381239
-0.021702042 -0.0036170185 0.6729036
-0.021617733 -0.0054044425 0.67205548
-0.021549303 -0.0071831048 0.67136717
-0.021486454 -0.0089527071 0.670735
-0.021437358 -0.010718673 0.67024112
-0.021391077 -0.012478113 0.66977555
-0.021302812 -0.01420188 0.66888762
-0.021121537 -0.015841156 0.66706419
-0.021003837 -0.017503172 0.6658802
-0.020940473 -0.019195408 0.66524279
-0.020924345 -0.02092436 0.66508061
-0.020975513 -0.022723466 0.66559529
-0.021233579 -0.024772495 0.66819119
-0.021400226 -0.026750267 0.66986763
-0.021453444 -0.028604597 0.67040288
-0.021523811 -0.030492097 0.67111075
-0.02161501 -0.032422513 0.67202812
-0.02173252 -0.034409821 0.67321026
-0.021888036 -0.036480069 0.67477453
-0.022105124 -0.038683981 0.67695832
-0.022475826 -0.041205645 0.68068725
-0.023573285 -0.045182109 0.69172686
-0.021834297 0.01984936 0.69420087
-0.021706508 0.017759889 0.69279861
-0.021595873 0.015706092 0.69158453
-0.02128231 0.013543308 0.68814355
-0.021002937 0.011456162 0.68507779
-0.020783095 0.0094468594 0.68266535
-0.023819286 0.0086615384 0.71598363
-0.023746423 0.0064762831 0.71518397
-0.02373434 0.0043153465 0.71505141
-0.024218082 0.0022016764 0.7203598
-0.020090912 -2.9802322e-08 0.67506951
-0.020003073 -0.0018184483 0.67410564
-0.019921189 -0.0036220551 0.67320704
-0.019854786 -0.0054149628 0.67247838
-0.019792954 -0.0071974397 0.67179984
-0.019745095 -0.008975029 0.67127466
-0.01970184 -0.010746449 0.67079997
-0.019642357 -0.01249969 0.67014718
-0.019493204 -0.014176846 0.66851044
-0.019357393 -0.015837878 0.66702008
-0.019286711 -0.017533362 0.66624445
-0.019260187 -0.019260198 0.6659534
-0.019281238 -0.021034032 0.66618437
-0.019406602 -0.022935063 0.6675601
-0.019677399 -0.025043935 0.67053175
-0.019729877 -0.026904345 0.67110765
-0.019789182 -0.028784275 0.67175841
-0.019866325 -0.030702472 0.67260498
-0.019968528 -0.032675773 0.6737265
-0.020101111 -0.034720123 0.67518139
-0.020284537 -0.036881 0.67719436
-0.02056827 -0.039266676 0.68030787
-0.02166234 -0.043324679 0.69231391
-0.021852069 -0.045690656 0.6943959
-0.02001619 0.022017807 0.69621474
-0.019847471 0.019847482 0.6941781
-0.01976515 0.017788649 0.69318438
-0.01954885 0.015639096 0.69057339
-0.019262716 0.013483912 0.68711948
-0.019043654 0.01142621 0.68447512
-0.019035975 0.0095179975 0.6843825
-0.021716865 0.0086867511 0.71674365
-0.021642469 0.006492734 0.7158457
-0.022080462 0.0044160783 0.7211327
-0.018370146 0.0018369853 0.67634523
-0.018285222 -2.9802322e-08 0.67532009
-0.018208964 -0.0018208921 0.67439955
-0.018142873 -0.0036285818 0.67360175
-0.018085493 -0.0054256618 0.67290914
-0.018036596 -0.0072146356 0.67231894
-0.017995859 -0.0089979172 0.6718272
-0.017953435 -0.010772079 0.67131507
-0.01784879 -0.012494147 0.67005187
-0.017700532 -0.014160424 0.66826224
-0.017618014 -0.015856206 0.66726613
-0.017582107 -0.017582119 0.66683275
-0.0175894 -0.019348323 0.66692078
-0.017658055 -0.02118969 0.66774952
-0.017935609 -0.023316324 0.6710999
-0.017996183 -0.025194675 0.67183107
-0.018046681 -0.027070016 0.67244059
-0.018112531 -0.028980017 0.67323554
-0.018197242 -0.030935287 0.67425805
-0.018310785 -0.032959431 0.67562866
-0.018461308 -0.035076499 0.67744565
-0.018686764 -0.037373513 0.68016708
-0.019245675 -0.040415943 0.68691373
-0.019865753 -0.043704659 0.69439876
-0.017981913 0.021977872 0.6957767
-0.017890755 0.019878626 0.69455403
-0.017772628 0.017772645 0.69296968
-0.017494651 0.015550822 0.68924141
-0.017277909 0.013438374 0.68633443
-0.017130878 0.011420608 0.68436235
-0.019645367 0.010914057 0.71808743
-0.01956556 0.0086958706 0.71701699
-0.019607216 0.0065357387 0.71757579
-0.019992048 0.0044427216 0.72273719
-0.016549049 0.0018387735 0.67655867
-0.016478863 -0 0.67561734
-0.016413873 -0.0018237233 0.67474568
-0.016360799 -0.0036357045 0.67403382
-0.016312556 -0.0054375231 0.67338681
-0.016274532 -0.0072330832 0.67287678
-0.016239084 -0.009021759 0.67240137
-0.016170161 -0.010780096 0.6714769
-0.016030457 -0.012468129 0.66960323
-0.015942322 -0.014170974 0.66842109
-0.015895279 -0.015895277 0.66779011
-0.015885746 -0.017650813 0.66766226
-0.015930817 -0.01947099 0.66826683
-0.016159251 -0.021545649 0.67133069
-0.016250862 -0.023473471 0.67255938
-0.016293198 -0.025344968 0.67312717
-0.016349038 -0.027248383 0.67387605
-0.016421355 -0.029193521 0.67484605
-0.016514456 -0.031193972 0.67609477
-0.01664201 -0.033284009 0.67780554
-0.016823303 -0.035515875 0.68023705
-0.017155809 -0.038124025 0.68469673
-0.017917948 -0.041808546 0.69491881
-0.016104499 0.024156749 0.69759601
-0.015991714 0.0219886 0.69589424
-0.015919147 0.019898951 0.6947993
-0.015707014 0.017670393 0.69159842
-0.015488764 0.015488774 0.68830532
-0.015320523 0.013405472 0.68576676
-0.015397606 0.011548221 0.68692988
-0.017492615 0.010932893 0.71854115
-0.017466815 0.0087333918 0.71815181
-0.017825155 0.0066844225 0.72355872
-0.014795686 0.0036989152 0.67784762
-0.014729536 0.0018411875 0.67684948
-0.014668329 2.9802322e-08 0.67592591
-0.014618401 -0.0018272996 0.67517257
-0.014572368 -0.0036430955 0.67447793
-0.014536437 -0.0054511428 0.67393577
-0.014504358 -0.0072521567 0.67345178
-0.014459456 -0.0090371668 0.67277431
-0.014346482 -0.01075986 0.67106962
-0.014248281 -0.012467265 0.66958791
-0.014197139 -0.014197111 0.66881615
-0.014179186 -0.015951574 0.66854537
-0.01419719 -0.017746478 0.66881698
-0.014305566 -0.019670129 0.67045224
-0.014492596 -0.021738917 0.67327428
-0.014529472 -0.023610383 0.67383075
-0.014575181 -0.025506556 0.67452037
-0.014635988 -0.027442455 0.67543793
-0.0147147 -0.029429406 0.67662561
-0.014816826 -0.031485766 0.67816657
-0.014962991 -0.03366673 0.68037206
-0.015202867 -0.036106765 0.68399149
-0.0159676 -0.039918989 0.69553041
-0.014233625 0.026433885 0.70004797
-0.014078579 0.024134696 0.69737434
-0.014017165 0.022026986 0.69631523
-0.013889152 0.019841671 0.69410777
-0.01367554 0.017582804 0.6904242
-0.013513451 0.015443921 0.6876291
-0.013471765 0.013471752 0.68691021
-0.015396534 0.013197035 0.72010159
-0.015336062 0.01095432 0.71905887
-0.015642846 0.0089387894 0.72434914
-0.013022277 0.0055809915 0.67915905
-0.012960549 0.003703028 0.67809463
-0.01290582 0.0018436611 0.67715085
-0.012857875 -0 0.67632401
-0.012816752 -0.0018309355 0.67561489
-0.012781393 -0.0036518574 0.6750052
-0.012752262 -0.0054652691 0.67450285
-0.012721691 -0.0072695613 0.67397565
-0.012644672 -0.0090319216 0.67264748
-0.012540048 -0.010748565 0.67084324
-0.012482575 -0.012482554 0.6698522
-0.012459041 -0.014238924 0.66944641
-0.012466314 -0.016028106 0.66957182
-0.012525025 -0.017892867 0.67058426
-0.012718596 -0.019986361 0.6739223
-0.012756302 -0.021867961 0.67457247
-0.012793672 -0.023759693 0.67521691
-0.012842317 -0.025684595 0.67605573
-0.012906249 -0.027656257 0.67715824
-0.012991268 -0.029694349 0.67862439
-0.013106826 -0.031830877 0.68061709
-0.013285656 -0.034163117 0.68370086
-0.014006515 -0.03801766 0.69613159
-0.014116425 -0.040332615 0.6980269
-0.012153281 0.02633211 0.69910306
-0.012082408 0.024164796 0.69767725
-0.012016685 0.022030562 0.69635499
-0.011831795 0.01971966 0.6926353
-0.011678709 0.017518073 0.68955541
-0.011556073 0.015408128 0.68708813
-0.013260684 0.015470803 0.72138232
-0.013209281 0.013209283 0.72034812
-0.013226798 0.011022359 0.72070056
-0.013490577 0.0089937449 0.72600734
-0.011172711 0.0055863857 0.67937553
-0.011124191 0.0037080348 0.67839932
-0.011079646 0.0018466115 0.67750323
-0.011043007 -2.9802322e-08 0.67676616
-0.011010122 -0.0018350482 0.67610443
-0.010983938 -0.0036613047 0.6755777
-0.010959839 -0.0054799318 0.67509288
-0.010911956 -0.0072745979 0.67412949
-0.010816227 -0.0090135336 0.6722036
-0.010757548 -0.010757565 0.67102307
-0.010726606 -0.012514383 0.67040062
-0.010723197 -0.014297575 0.67033195
-0.010756777 -0.016135186 0.67100757
-0.010919776 -0.018199623 0.67428684
-0.010971134 -0.020113736 0.67532015
-0.011001004 -0.022002012 0.67592102
-0.011040368 -0.023920774 0.67671293
-0.011091312 -0.025879711 0.67773789
-0.011158301 -0.027895749 0.67908561
-0.011249535 -0.029998749 0.68092108
-0.011383343 -0.032252789 0.68361312
-0.011675529 -0.03502658 0.68949145
-0.012108237 -0.038342714 0.69819677
-0.010213612 0.02859816 0.70117629
-0.010127448 0.026331395 0.69909608
-0.010084095 0.02420181 0.69804955
-0.0099642482 0.021921337 0.69515616
-0.00981881 0.019637585 0.69164497
-0.0097074462 0.0174734 0.68895644
-0.009730516 0.015568852 0.68951333
-0.011075667 0.01550597 0.72198814
-0.011048618 0.013258338 0.72133517
-0.011276402 0.011276424 0.72683436
-0.0093653472 0.0074923038 0.68069738
-0.0093224579 0.0055935085 0.67966193
-0.0092831617 0.0037132502 0.67871326
-0.0092508942 0.001850158 0.67793429
-0.0092214681 -2.9802322e-08 0.67722386
-0.0091982428 -0.0018396378 0.67666316
-0.0091778282 -0.0036711097 0.67617023
-0.0091486629 -0.0054892004 0.67546618
-0.0090750894 -0.0072600842 0.67368996
-0.0090141715 -0.0090141594 0.67221928
-0.0089823902 -0.010778844 0.67145199
-0.0089719854 -0.012560815 0.67120087
-0.0089872945 -0.01437968 0.67157042
-0.0090758791 -0.01633659 0.67370909
-0.0091737229 -0.018347442 0.67607117
-0.009196857 -0.020233065 0.67662972
-0.0092276921 -0.022146463 0.67737406
-0.0092679262 -0.024096578 0.67834544
-0.0093199573 -0.026095867 0.67960167
-0.0093899881 -0.02816993 0.6812923
-0.0094896462 -0.030366868 0.68369824
-0.0096659651 -0.032864273 0.68795496
-0.010116146 -0.03641811 0.69882327
-0.0081566041 0.028548121 0.70074522
-0.0081154276 0.026375145 0.69950265
-0.0080560092 0.024168044 0.6977095
-0.0079274168 0.021800399 0.69382888
-0.0078294203 0.01957351 0.6908716
-0.0077837165 0.017513365 0.68949234
-0.0089101167 0.017820209 0.72348452
-0.0088738119 0.015529186 0.72238892
-0.008918534 0.013377786 0.72373849
-0.0090754032 0.011344254 0.72847241
-0.0075003081 0.0075003207 0.68093973
-0.0074682352 0.0056011677 0.67997187
-0.0074398075 0.0037199259 0.67911398
-0.0074157696 0.0018539429 0.6783886
-0.0073949182 -0 0.67775929
-0.0073779626 -0.0018444657 0.67724764
-0.0073598935 -0.0036799312 0.67670232
-0.0073136613 -0.0054852664 0.67530721
-0.0072533879 -0.0072533786 0.67348826
-0.0072210943 -0.0090263784 0.67251372
-0.0072082211 -0.010812312 0.67212522
-0.0072136768 -0.012623906 0.67228985
-0.0072535989 -0.014507204 0.67349464
-0.0073616803 -0.016563773 0.67675626
-0.0073824804 -0.018456191 0.67738396
-0.0074050417 -0.020363837 0.67806482
-0.0074345567 -0.022303641 0.67895544
-0.0074740918 -0.02429077 0.6801486
-0.0075255767 -0.026339531 0.68170232
-0.0075982017 -0.028493255 0.68389398
-0.0077141742 -0.030856699 0.68739372
-0.0081141116 -0.034484953 0.69946289
-0.0061639259 0.030819654 0.70261514
-0.0061211451 0.028565347 0.70089376
-0.0060916343 0.026397079 0.69970638
-0.0060050976 0.024020404 0.69622439
-0.0059219189 0.021713734 0.69287753
-0.0058578346 0.019526124 0.69029903
-0.0067134313 0.02014032 0.72472554
-0.0066904509 0.01784119 0.72380084
-0.0066931355 0.015617371 0.7239089
-0.0068285367 0.013657033 0.72935706
-0.0056581604 0.0094302893 0.68226475
-0.0056329784 0.0075106025 0.68125147
-0.0056100944 0.0056101084 0.68033069
-0.0055911411 0.0037274361 0.67956805
-0.0055742818 0.0018580854 0.67888969
-0.0055607557 -2.9802322e-08 0.67834544
-0.0055484846 -0.0018494725 0.67785168
-0.0055234539 -0.0036823153 0.6768446
-0.0054743239 -0.005474329 0.67486775
-0.0054450533 -0.0072600842 0.67368996
-0.005429789 -0.0090496242 0.67307574
-0.005429632 -0.010859281 0.67306942
-0.0054482748 -0.012712628 0.67381954
-0.0055335127 -0.014756024 0.67724931
-0.0055559194 -0.016667724 0.67815089
-0.005571737 -0.01857242 0.67878729
-0.0055925366 -0.020505995 0.6796242
-0.0056194402 -0.022477746 0.68070674
-0.0056559644 -0.024509162 0.68217635
-0.0057049319 -0.02662304 0.68414664
-0.0057807285 -0.028903663 0.68719649
-0.0060995803 -0.032531083 0.70002609
-0.0061471649 -0.034833938 0.70194077
-0.0041510286 0.033208221 0.70513469
-0.0041060969 0.030795723 0.7024228
-0.0040880484 0.028616369 0.70133346
-0.0040464746 0.026302099 0.69882429
-0.0039844452 0.023906648 0.69508052
-0.0039373212 0.021655291 0.69223624
-0.0039359741 0.019679844 0.692155
-0.0044881669 0.020196736 0.72548276
-0.00447434 0.017897338 0.7246483
-0.0045661922 0.015981674 0.73019195
-0.0037945777 0.011383742 0.68362093
-0.0037767908 0.0094419718 0.68254739
-0.0037606251 0.0075212419 0.68157172
-0.0037472751 0.0056209266 0.68076599
-0.0037352187 0.0037352741 0.68003833
-0.0037256232 0.001862824 0.67945921
-0.0037172921 -0 0.67895633
-0.0037051667 -0.0018526018 0.6782245
-0.0036745283 -0.0036745071 0.67637533
-0.0036503477 -0.0054755211 0.67491591
-0.0036377157 -0.0072754323 0.67415345
-0.0036339113 -0.0090847909 0.67392385
-0.00364174 -0.010925204 0.6743964
-0.0036864264 -0.012902498 0.67709351
-0.0037167261 -0.014866889 0.67892218
-0.003726539 -0.016769439 0.67951447
-0.0037396012 -0.018698007 0.68030286
-0.00375663 -0.020661473 0.68133056
-0.0037786304 -0.022671789 0.68265843
-0.003809253 -0.024760157 0.68450665
-0.003853552 -0.026974827 0.68718034
-0.0039423155 -0.029567331 0.69253767
-0.0041025789 -0.032820672 0.70221055
-0.0020678544 0.033085644 0.70421004
-0.0020558492 0.030837744 0.70276082
-0.0020435816 0.02861014 0.70128006
-0.0020109669 0.026142567 0.69734311
-0.0019850226 0.023820251 0.69421136
-0.0019678089 0.021645874 0.69213349
-0.0022562365 0.022562385 0.72694975
-0.0022467435 0.020220697 0.72580385
-0.0022540106 0.018032104 0.72668105
-0.0022971099 0.016079754 0.73188365
-0.0018992476 0.011395484 0.68385738
-0.0018910288 0.0094551444 0.68286532
-0.0018836607 0.0075346231 0.6819759
-0.0018775115 0.0056325495 0.68123358
-0.0018721444 0.003744334 0.68058574
-0.0018677976 0.0018677711 0.68006104
-0.0018631377 2.9802322e-08 0.67949855
-0.0018509934 -0.0018509924 0.67803258
-0.0018357947 -0.0036715865 0.67619795
-0.0018278677 -0.0054835975 0.67524105
-0.001824808 -0.0072992444 0.67487174
-0.0018265132 -0.0091325939 0.67507756
-0.0018381752 -0.011029065 0.6764853
-0.0018644776 -0.013051331 0.67966026
-0.0018695212 -0.014956146 0.68026912
-0.0018754776 -0.01687929 0.68098813
-0.0018835048 -0.018835008 0.68195701
-0.001893978 -0.02083376 0.68322128
-0.0019077999 -0.022893578 0.68488973
-0.0019275034 -0.025057554 0.6872682
-0.0019618988 -0.027466565 0.69142008
-0.0020566434 -0.030849665 0.70285678
0 0.035454363 0.70634604
0 0.033087313 0.70422244
0 0.030882031 0.70311725
0 0.028452933 0.69992435
0 0.026035517 0.69634914
0 0.023761183 0.69361681
0 0.021896064 0.69487858
0 0.02259773 0.72737652
0 0.020324379 0.72719431
0 0.018436611 0.73278528
0 0.013374239 0.68522835
0 0.011411428 0.68417805
0 0.0094703138 0.68323076
0 0.0075500607 0.68244165
0 0.0056452751 0.68174672
0 0.0037542284 0.68118429
0 0.001872927 0.68067968
0 -0 0.6796217
0 -0.0018474162 0.67759788
0 -0.0036753118 0.67642337
0 -0.0054981709 0.67582703
0 -0.0073325634 0.67587721
0 -0.0092000067 0.67670482
0 -0.011217862 0.68028426
0 -0.013132185 0.68105513
0 -0.015052974 0.68172961
0 -0.017000467 0.68261361
0 -0.018986583 0.68378603
0 -0.021028042 0.6853534
0 -0.023155808 0.68752748
0 -0.02545467 0.69095576
0 -0.028870165 0.70352185
0.0020820347 0.035394579 0.70592171
0.0020715699 0.033145159 0.70465857
0.002054625 0.030819356 0.70261312
0.0020215206 0.028301269 0.69861704
0.0019965952 0.025955766 0.69560826
0.0019903684 0.023884416 0.69485664
0.0022738103 0.025011897 0.72907114
0.0022654505 0.022654504 0.72806203
0.0023115957 0.020804375 0.73363221
0.0019221351 0.015377074 0.68662012
0.0019129202 0.013390422 0.68550783
0.0019045975 0.011427581 0.6845032
0.0018976917 0.0094884634 0.68366957
0.0018915222 0.0075661242 0.68292481
0.0018865655 0.0056597292 0.6823265
0.0018823214 0.0037646592 0.68181419
