# .PCD v0.7 - Point Cloud Data file format
VERSION 0.7
FIELDS x y z
SIZE 4 4 4
TYPE F F F
COUNT 1 1 1
WIDTH 1333
HEIGHT 1
VIEWPOINT 0 0 0 1 0 0 0
POINTS 1333
DATA ascii
-0.053609677 0.01786992 0.65069669
-0.053826906 0.016311198 0.65149134
-0.053751733 0.014659613 0.65121633
-0.051750526 0.012545556 0.64389616
-0.051545519 0.010933906 0.64314628
-0.051865295 0.0094300807 0.64431596
-0.048952673 0.007417053 0.63366187
-0.048800755 0.0059152246 0.63310617
-0.048819225 0.004438132 0.6331737
-0.047056332 0.0028518736 0.62672526
-0.047525641 0.0014401972 0.62844193
-0.049181636 0.043033957 0.64012128
-0.049149182 0.041469604 0.63999885
-0.049475856 0.040199161 0.64123118
-0.050462745 0.039424032 0.64495391
-0.050828792 0.038121581 0.64633477
-0.051161252 0.036772192 0.64758879
-0.050454795 0.034687668 0.64492393
-0.050760951 0.033311874 0.64607882
-0.051757779 0.032348603 0.64983904
-0.052242454 0.031018972 0.65166736
-0.052487694 0.029524356 0.65259248
-0.052670717 0.027981311 0.65328288
-0.052790888 0.02639544 0.65373611
-0.052515414 0.024616599 0.65269703
-0.051978562 0.022740632 0.6506719
-0.05192361 0.021093965 0.65046453
-0.052064084 0.019524038 0.65099448
-0.052370612 0.018002391 0.65215081
-0.052702785 0.016469657 0.65340382
-0.052766703 0.014840662 0.65364492
-0.052583192 0.013145804 0.65295267
-0.050532822 0.011054039 0.64521825
-0.050679009 0.0095023215 0.64576972
-0.050953824 0.0079615414 0.64680636
-0.047814142 0.0059767663 0.63496292
-0.047896959 0.0044903457 0.63527524
-0.045415405 0.0028384924 0.62591434
-0.045663442 0.001426965 0.62684995
-0.047553711 0.044485748 0.63976693
-0.047867466 0.043235123 0.64098871
-0.0480856 0.041880995 0.64183813
-0.048200361 0.040426135 0.64228499
-0.048660036 0.039241999 0.64407486
-0.049552329 0.038363099 0.64754939
-0.049902093 0.03702414 0.64891136
-0.050135322 0.03557989 0.64981955
-0.049462415 0.033506811 0.64719927
-0.050149586 0.032354563 0.64987504
-0.050916724 0.031207025 0.65286219
-0.051286932 0.029779494 0.65430373
-0.051488329 0.028235555 0.65508795
-0.051657747 0.026662081 0.65574771
-0.051675301 0.025004208 0.65581602
-0.051107809 0.023080945 0.6536063
-0.050866127 0.021330953 0.6526652
-0.050894499 0.019701123 0.65277565
-0.051110502 0.018135995 0.65361679
-0.051469196 0.016602963 0.6550135
-0.051686324 0.015005738 0.65585893
-0.051613402 0.013319612 0.65557504
-0.049679454 0.011217952 0.64804441
-0.04950504 0.0095816553 0.64736521
-0.049827389 0.0080366731 0.64862049
-0.044048026 0.0056836307 0.62611622
-0.043918446 0.0042501688 0.62561166
-0.043789621 0.0028251112 0.62511003
-0.043926902 0.001417011 0.62564456
-0.045931987 0.045932025 0.63941395
-0.046115577 0.044578403 0.64015269
-0.046586297 0.043480545 0.64204675
-0.046920199 0.042228192 0.64339024
-0.047080461 0.040803075 0.6440351
-0.047262497 0.039385438 0.64476752
-0.048092443 0.038473964 0.64810699
-0.048608083 0.037266195 0.65018177
-0.048946638 0.035894245 0.65154397
-0.048420865 0.033894628 0.64942843
-0.048517901 0.032345295 0.6498189
-0.049446132 0.031315893 0.65355384
-0.049992703 0.02999565 0.65575302
-0.050273489 0.028488338 0.65688282
-0.050459214 0.026911587 0.65763009
-0.050590847 0.025295436 0.65815973
-0.050440226 0.023538768 0.65755367
-0.049859527 0.021605819 0.65521717
-0.049764972 0.019905984 0.65483671
-0.049892008 0.018293738 0.65534782
-0.050184239 0.016728073 0.65652376
-0.050511856 0.015153587 0.65784192
-0.050579935 0.013487965 0.65811586
-0.050399411 0.011759847 0.65738952
-0.048434768 0.0096869767 0.6494844
-0.048602883 0.00810045 0.65016085
-0.042427 0.0056569576 0.62531096
-0.042302892 0.0042302907 0.62481159
-0.042179387 0.0028119683 0.62431467
-0.042279653 0.0014093518 0.62471813
-0.043157056 -0 0.62824845
-0.04423457 0.045759916 0.63872159
-0.044731755 0.044731736 0.64079106
-0.045208242 0.043649316 0.64277434
-0.04565445 0.04250586 0.64463168
-0.045935556 0.041183621 0.64580178
-0.046051607 0.039699644 0.64628482
-0.046331868 0.038343638 0.6474514
-0.047278084 0.037496448 0.65138996
-0.047634587 0.036136597 0.65287387
-0.047954317 0.034725547 0.65420479
-0.047286864 0.032611668 0.65142649
-0.047650229 0.031219155 0.65293902
-0.048584361 0.030155808 0.65682733
-0.049010858 0.028730512 0.65860254
-0.049227014 0.02715975 0.65950227
-0.049396265 0.025549799 0.66020679
-0.049451653 0.02387321 0.66043735
-0.048988357 0.021960288 0.6585089
-0.048673835 0.020140916 0.65719968
-0.048686575 0.018467337 0.65725267
-0.048879441 0.016855001 0.65805554
-0.049232356 0.015279025 0.6595245
-0.049448617 0.013641 0.66042471
-0.04937828 0.011918873 0.66013193
-0.047515415 0.0098307729 0.65237784
-0.047375172 0.0081681609 0.65179408
-0.04769424 0.0065785348 0.65312219
-0.040702153 0.0042105913 0.62401807
-0.040583987 0.0027988851 0.62352622
-0.040699985 0.0014034808 0.62400907
-0.041376591 -2.9802322e-08 0.62682539
-0.042572454 0.047133803 0.63813186
-0.04280306 0.04586041 0.63912606
-0.043318681 0.044865817 0.64134884
-0.043812595 0.043812633 0.64347816
-0.044274908 0.042693675 0.64547127
-0.044681858 0.041490287 0.64722568
-0.04491204 0.040100038 0.64821804
-0.045019127 0.038587838 0.64867973
-0.045427117 0.03731513 0.65043861
-0.046293225 0.036373258 0.65417242
-0.046631277 0.034973472 0.65562987
-0.046834398 0.033453137 0.65650547
-0.046232723 0.03137219 0.65391165
-0.047003467 0.030216485 0.65723437
-0.04763684 0.028922349 0.65996492
-0.047961198 0.027406424 0.66136324
-0.048145965 0.025792509 0.66215974
-0.048290841 0.024145424 0.6627844
-0.048206598 0.022381634 0.66242123
-0.047639757 0.020417035 0.65997744
-0.04750777 0.018663764 0.65940845
-0.047621619 0.017007709 0.65989929
-0.047898892 0.015396088 0.66109461
-0.048220869 0.013777405 0.66248274
-0.048292838 0.012073219 0.66279298
-0.048114713 0.010310322 0.66202503
-0.046240509 0.0082572103 0.65394521
-0.046433304 0.0066333413 0.65477633
-0.039116379 0.004191041 0.62323236
-0.039003342 0.0027859807 0.62274504
-0.039172485 0.0013990104 0.6234743
-0.039806113 -0 0.62620586
-0.04170648 -0.0014895201 0.63439852
-0.040845599 0.046896815 0.63720906
-0.041334238 0.045926929 0.63939363
-0.041875426 0.044977337 0.64181316
-0.042376403 0.043945909 0.64405286
-0.042856045 0.042856038 0.64619726
-0.043314565 0.041710317 0.64824718
-0.043663569 0.040429205 0.64980751
-0.043841541 0.038970292 0.65060318
-0.04399373 0.037476152 0.65128362
-0.044657156 0.036387324 0.65424955
-0.045270246 0.035210222 0.65699059
-0.045596305 0.033775032 0.65844834
-0.045077808 0.031721443 0.65613019
-0.045228269 0.030152172 0.65680295
-0.046147194 0.029055655 0.66091126
-0.046624344 0.027629256 0.66304445
-0.046860624 0.0260337 0.66410077
-0.047032408 0.024387181 0.66486883
-0.047123458 0.022689104 0.66527587
-0.046761844 0.020783037 0.66365921
-0.04637897 0.018895119 0.66194743
-0.046376742 0.017176598 0.66193742
-0.046550602 0.015516877 0.66271478
-0.046892345 0.013894022 0.66424263
-0.047107026 0.012212962 0.66520238
-0.047039289 0.010453165 0.66489959
-0.045251898 0.008379966 0.65690857
-0.04514499 0.0066881776 0.6564306
-0.045448739 0.0050498843 0.65778857
-0.037437148 0.0027731061 0.62197065
-0.037684962 0.001395762 0.62307853
-0.038338717 -0 0.62600136
-0.039710183 -0.0014707446 0.63213289
-0.039136261 0.046662509 0.63629651
-0.039014313 0.045016527 0.63573039
-0.040409155 0.045071721 0.64220631
-0.040920377 0.044068128 0.64457971
-0.041406307 0.04299888 0.64683574
-0.041871283 0.041871279 0.64899451
-0.042314865 0.040687352 0.65105391
-0.042613842 0.039335847 0.65244198
-0.042736616 0.037805498 0.65301198
-0.042976763 0.036364943 0.65412694
-0.043869942 0.035433441 0.6582737
-0.044214964 0.034011513 0.65987557
-0.044516351 0.032531172 0.66127479
-0.043894812 0.030388743 0.65838921
-0.04434488 0.028994769 0.66047871
-0.045175187 0.027800113 0.66433358
-0.045537148 0.026271433 0.66601408
-0.045726977 0.024622202 0.66689539
-0.045883741 0.022941887 0.66762316
-0.045858346 0.021165401 0.66750532
-0.045312237 0.019170582 0.66496986
-0.045150105 0.017365426 0.66421711
-0.045245737 0.015662014 0.66466111
-0.045507833 0.014002413 0.66587794
-0.04582265 0.01233688 0.66733956
-0.045897983 0.010591865 0.66768932
-0.045722958 0.008792907 0.66687673
-0.043943442 0.0067605078 0.65861493
-0.044157185 0.0050950646 0.65960729
-0.035950463 0.0027654171 0.62150586
-0.036228687 0.0013934374 0.62279749
-0.0369283 -0 0.62604558
-0.038046189 -0.0014633238 0.63123566
-0.037443805 0.046430349 0.63539261
-0.037327826 0.044793397 0.63483262
-0.038054369 0.044143081 0.63834071
-0.039434832 0.044167012 0.64500612
-0.039936677 0.043131649 0.64742923
-0.040407289 0.042023599 0.64970154
-0.040857211 0.040857226 0.65187395
-0.041269142 0.039618373 0.65386301
-0.041510861 0.038190007 0.65503007
-0.041614987 0.036621183 0.6555329
-0.041969918 0.035254747 0.65724659
-0.042802423 0.034241974 0.66126633
-0.043126337 0.032775998 0.66283029
-0.043284666 0.031164944 0.66359484
-0.042777251 0.029088527 0.66114473
-0.043560356 0.027878642 0.66492593
-0.044113223 0.026467949 0.66759545
-0.044385739 0.024856031 0.66891122
-0.044558708 0.023170501 0.6697464
-0.044675037 0.021444023 0.67030811
-0.044419941 0.01954478 0.66907638
-0.043973811 0.017589539 0.66692227
-0.043957431 0.015824676 0.66684318
-0.044116333 0.014117241 0.66761041
-0.044442192 0.012443811 0.66918385
-0.044654146 0.010717005 0.6702072
-0.044589207 0.0089178681 0.66989362
-0.0428821 0.0068611205 0.66165102
-0.034446009 0.0041335523 0.62091792
-0.034542266 0.0027633905 0.62138271
-0.034812298 0.0013925135 0.62268656
-0.035551272 -2.9802322e-08 0.62625462
-0.036506321 -0.0014602542 0.63086605
-0.037980303 -0.0030384064 0.63798302
-0.035879251 0.047838986 0.63505661
-0.035768215 0.046200633 0.63449812
-0.035657972 0.044572443 0.63394368
-0.036139693 0.043668836 0.63636655
-0.037840977 0.044147789 0.64492333
-0.038426559 0.043229878 0.64786857
-0.038912799 0.042155564 0.65031421
-0.039377127 0.04101783 0.65264964
-0.039812643 0.039812624 0.65483999
-0.040177748 0.038503647 0.65667641
-0.04036995 0.037005782 0.65764308
-0.040497929 0.035435706 0.65828675
-0.041045245 0.034204334 0.66103959
-0.041691631 0.033005863 0.66429067
-0.042002533 0.031501919 0.66585433
-0.041500147 0.029395908 0.66332757
-0.041705821 0.027803898 0.66436195
-0.042574205 0.026608884 0.66872966
-0.042991988 0.025078684 0.67083091
-0.043195188 0.023397386 0.67185295
-0.043351594 0.021675825 0.67263961
-0.043379627 0.019882321 0.67278057
-0.042868748 0.017862022 0.67021108
-0.042688318 0.016008109 0.6693036
-0.042757172 0.014252394 0.6696499
-0.043003228 0.012542605 0.67088747
-0.043309849 0.010827482 0.67242962
-0.043387774 0.0090391338 0.67282152
-0.043216642 0.0072027743 0.67196083
-0.032933854 0.0041167736 0.62024242
-0.033149775 0.0027624965 0.62132841
-0.033534974 0.0013972819 0.6232658
-0.034204267 -0 0.62663209
-0.035034824 -0.0014597774 0.63080949
-0.036184452 -0.0030153394 0.63659167
-0.034214485 0.047602773 0.63416547
-0.034109123 0.045973152 0.63361251
-0.034168061 0.044567049 0.63392186
-0.03446801 0.043459654 0.63549602
-0.03521334 0.042868435 0.63940775
-0.036872882 0.043285578 0.64811748
-0.037387505 0.042264163 0.65081835
-0.037857573 0.041149557 0.65328544
-0.03830605 0.03997156 0.65563923
-0.038733836 0.03873387 0.6578843
-0.039042111 0.037344635 0.65950227
-0.039180484 0.035773486 0.66022849
-0.03938416 0.03424713 0.66129744
-0.040211216 0.033217967 0.66563809
-0.040544849 0.031730741 0.66738904
-0.040824883 0.030174941 0.66885877
-0.040256932 0.028004825 0.665878
-0.04080303 0.026610643 0.66874409
-0.041485071 0.025251806 0.67232358
-0.041793771 0.023622572 0.67394376
-0.041964766 0.021894634 0.67484117
-0.042091854 0.020130903 0.6755082
-0.041953139 0.018240482 0.67478019
-0.041457575 0.016222566 0.67217928
-0.041420866 0.014407247 0.67198658
-0.041564632 0.012650132 0.67274117
-0.041872695 0.010923326 0.67435801
-0.042081848 0.0091482401 0.67545569
-0.03149217 0.0054769218 0.61987799
-0.031576507 0.004118681 0.62032062
-0.031774413 0.0027630031 0.62135923
-0.032269251 0.0014030337 0.62395632
-0.03287695 -0 0.62714571
-0.033606216 -0.0014611185 0.6309731
-0.034569785 -0.0030061007 0.6360302
-0.03620255 -0.004722029 0.64459944
-0.032565985 0.047368705 0.63328254
-0.032793682 0.046209276 0.63453192
-0.032932609 0.044908106 0.6352942
-0.03313005 0.043671429 0.63637751
-0.033492327 0.04262656 0.63836527
-0.034278501 0.042069077 0.64267886
-0.035832275 0.042347252 0.65120423
-0.036316246 0.041268468 0.65385962
-0.036769938 0.040112644 0.656349
-0.037202142 0.038893163 0.65872043
-0.037607584 0.03760761 0.66094506
-0.03786163 0.036140651 0.66233897
-0.037961647 0.034510612 0.66288769
-0.038273934 0.033054769 0.66460121
-0.039054323 0.031953573 0.66888309
-0.039360985 0.030415297 0.67056572
-0.039198119 0.028507739 0.66967213
-0.03906139 0.026632786 0.66892183
-0.03984569 0.025356382 0.67322522
-0.040317662 0.023824066 0.67581487
-0.040539194 0.02211228 0.67703032
-0.04069566 0.020347863 0.67788887
-0.040756982 0.018525928 0.67822534
-0.040334061 0.016500324 0.67590487
-0.040103942 0.01458326 0.67464221
-0.040147383 0.012774199 0.67488056
-0.040376961 0.011011928 0.67614019
-0.040673856 0.0092440546 0.67776924
-0.030056326 0.0054648221 0.61951244
-0.030225925 0.0041217208 0.62044299
-0.030526083 0.0027751029 0.62208992
-0.031003682 0.0014092326 0.62471044
-0.031553525 -0 0.62772739
-0.03221507 -0.0014643073 0.63135713
-0.033037774 -0.0030034184 0.63587117
-0.034243312 -0.0046695173 0.64248574
-0.031060994 0.047331065 0.63314044
-0.031194612 0.046049178 0.63390851
-0.03173263 0.045332342 0.6370011
-0.03185606 0.043991715 0.63771057
-0.032064579 0.042752773 0.63890922
-0.032527532 0.041821092 0.64157033
-0.033334382 0.04127115 0.64620817
-0.034747127 0.041365653 0.65432882
-0.035211254 0.04024142 0.65699673
-0.035648115 0.039043188 0.65950781
-0.036063865 0.037781179 0.6618976
-0.03643287 0.036432862 0.66401875
-0.036637396 0.034892797 0.66519433
-0.036743991 0.03324455 0.66580701
-0.037213903 0.031897634 0.66850817
-0.037845206 0.030636609 0.67213696
-0.038137786 0.029057384 0.67381877
-0.037667885 0.026905626 0.67111772
-0.03791745 0.02527833 0.67255223
-0.038719747 0.023969352 0.67716396
-0.039070319 0.022325873 0.67917907
-0.039244696 0.020556778 0.68018144
-0.039380897 0.018752813 0.68096435
-0.039312974 0.016848445 0.68057394
-0.038828775 0.014791906 0.67779064
-0.038758449 0.012919486 0.6773864
-0.038886972 0.011110604 0.67812514
-0.028582972 0.0068054795 0.61889654
-0.028729742 0.005472362 0.61974013
-0.028908059 0.0041297674 0.62076509
-0.029298838 0.0027903616 0.62301135
-0.029739752 0.0014162064 0.62554574
-0.030245069 2.9802322e-08 0.62845039
-0.030836117 -0.0014683902 0.63184786
-0.031561255 -0.0030058026 0.63601601
-0.032534882 -0.004647851 0.64161259
-0.034590419 -0.0065886676 0.65342808
-0.029336995 0.045472383 0.63166237
-0.03020422 0.045306355 0.63689649
-0.030628543 0.044411361 0.63945752
-0.030750426 0.043050587 0.64019316
-0.030972561 0.041812956 0.64153385
-0.03152471 0.040982097 0.64486641
-0.033043768 0.041304708 0.65403467
-0.033614732 0.040337682 0.65748078
-0.034062564 0.039171934 0.66018367
-0.034488466 0.037937343 0.66275424
-0.034889594 0.036634088 0.66517526
-0.035205659 0.035205632 0.66708291
-0.035356037 0.033588231 0.66799051
-0.035523716 0.031971335 0.66900253
-0.036277853 0.030836165 0.67355418
-0.036595855 0.029276699 0.67547345
-0.036852047 0.027639031 0.67701972
-0.036347028 0.025442928 0.67397171
-0.036961071 0.024024695 0.67767775
-0.037498169 0.022498906 0.68091941
-0.037753377 0.020764351 0.68245971
-0.037908833 0.018954426 0.68339795
-0.037999954 0.017100006 0.68394792
-0.037674773 0.015069932 0.68198532
-0.037387773 0.013085723 0.68025315
-0.027168373 0.0081504881 0.61857355
-0.02727359 0.0068183839 0.61920857
-0.027403994 0.0054807961 0.61999565
-0.027704965 0.0041557252 0.62181216
-0.028067537 0.0028067529 0.62400043
-0.028472982 0.0014236569 0.62644756
-0.028932579 -2.9802322e-08 0.6292215
-0.029467003 -0.0014733076 0.632447
-0.030113513 -0.0030113459 0.63634908
-0.030936079 -0.0046404302 0.64131367
-0.032192931 -0.0064386129 0.64889944
-0.027632872 0.045085222 0.63015497
-0.027549751 0.043499649 0.62962681
-0.02746705 0.041923374 0.62910146
-0.027714396 0.040842265 0.63067281
-0.029623533 0.042096615 0.64280194
-0.029858178 0.040858597 0.64429271
-0.030479155 0.040104181 0.64823788
-0.031962983 0.040374309 0.6576649
-0.032446023 0.039276749 0.66073376
-0.032875873 0.038066834 0.66346467
-0.033284251 0.036787868 0.6660592
-0.033671867 0.035444081 0.66852182
-0.033936184 0.033936203 0.67020106
-0.034038372 0.032246888 0.67085028
-0.034299582 0.03068912 0.67250979
-0.035019506 0.029490143 0.67708361
-0.035304964 0.027872354 0.6788972
-0.035079591 0.02584812 0.67746532
-0.035063416 0.02399075 0.67736256
-0.035812337 0.022618353 0.68212062
-0.036204025 0.020960212 0.68460912
-0.025985762 0.013676733 0.61969048
-0.036528707 0.017303079 0.68667185
-0.036517061 0.015375614 0.68659788
-0.025766375 0.0094928741 0.61829662
-0.025851151 0.0081635118 0.61883533
-0.025963761 0.0068325698 0.6195507
-0.026193751 0.0055144727 0.62101185
-0.026495174 0.0041834712 0.62292689
-0.02682903 0.0028240979 0.62504792
-0.027202114 0.0014317334 0.62741822
-0.02762452 -0 0.63010186
-0.028110448 -0.0014794767 0.63318902
-0.028682582 -0.0030192137 0.63682389
-0.029396454 -0.0046415031 0.64135927
-0.030382331 -0.0063962936 0.64762276
-0.026172044 0.045074046 0.63011152
-0.025974588 0.043291003 0.62878734
-0.02590034 0.041728348 0.62828946
-0.026087746 0.040580928 0.62954623
-0.028311945 0.042467922 0.64446205
-0.028464599 0.041115552 0.64548576
-0.028727442 0.03989923 0.64724839
-0.029391175 0.039188206 0.65169954
-0.03079425 0.039348215 0.66110873
-0.031239333 0.038181424 0.66409349
-0.031650685 0.036925822 0.66685212
-0.032041296 0.035601467 0.66947162
-0.032401055 0.034201145 0.67188418
-0.032609049 0.032609046 0.67327905
-0.032703657 0.030886769 0.67391348
-0.033094935 0.029417723 0.67653751
-0.033699732 0.028083146 0.68059337
-0.033970218 0.026421249 0.68240726
-0.033538476 0.024222255 0.67951196
-0.033843718 0.022562504 0.68155897
-0.034545481 0.021111131 0.68626511
-0.024506824 0.013614893 0.61894435
-0.024437804 0.012218922 0.61848146
-0.024373848 0.010832816 0.6180526
-0.024459569 0.0095120668 0.61862749
-0.024553325 0.0081844032 0.6192562
-0.024740968 0.0068725049 0.62051451
-0.024992729 0.0055539012 0.62220287
-0.025271842 0.0042119622 0.62407464
-0.025580995 0.0028423369 0.62614787
-0.025924793 0.0014402568 0.62845343
-0.026310274 -0 0.63103855
-0.026750468 -0.0014861226 0.63399053
-0.027265847 -0.0030295253 0.63744676
-0.027890842 -0.0046484768 0.64163804
-0.028707204 -0.0063793659 0.64711273
-0.030073645 -0.0083537996 0.65627623
-0.024414672 0.043084711 0.62795746
-0.024643779 0.042039394 0.62958419
-0.024804391 0.040854335 0.63072467
-0.024999179 0.039704591 0.63210779
-0.027106311 0.041456729 0.64706975
-0.027274145 0.040109038 0.64826149
-0.027591845 0.038953185 0.65051734
-0.028291225 0.038276404 0.65548337
-0.029576754 0.038275808 0.66461146
-0.029992551 0.037049621 0.66756392
-0.030385103 0.0357472 0.67035127
-0.030757455 0.034375995 0.67299515
-0.031074546 0.032902449 0.67524672
-0.031231541 0.031231552 0.67636144
-0.031364318 0.029519349 0.67730427
-0.032037914 0.028268754 0.68208718
-0.032335076 0.026628882 0.68419725
-0.03256122 0.024899781 0.68580306
-0.032125637 0.022676915 0.68271017
-0.023106102 0.01495102 0.61866575
-0.023041135 0.013553619 0.61820447
-0.023021491 0.012187839 0.61806494
-0.023091674 0.010866672 0.61856335
-0.023167903 0.0095397234 0.61910456
-0.023334356 0.0082356632 0.62028646
-0.02354948 0.0069263577 0.62181401
-0.023784693 0.0055963993 0.62348413
-0.024041831 0.0042426884 0.62531
-0.024325024 0.002861768 0.62732089
-0.024639923 0.0014494061 0.62955689
-0.024992717 2.9802322e-08 0.6320619
-0.025393531 -0.0014937222 0.63490796
-0.025856281 -0.0030418932 0.63819373
-0.026406363 -0.0046599209 0.64209968
-0.027103031 -0.0063771904 0.64704645
-0.028099356 -0.0082645118 0.65412104
-0.023129346 0.043367505 0.62909538
-0.022801805 0.041328281 0.62662429
-0.023538254 0.041191995 0.63218033
-0.023680989 0.039961666 0.63325721
-0.022601223 0.036726981 0.62511098
-0.022535121 0.035211116 0.62461227
-0.026051018 0.039076537 0.65113765
-0.026454318 0.038028091 0.65418035
-0.027240224 0.037455291 0.66010958
-0.028299229 0.037142724 0.66809911
-0.028697181 0.035871476 0.67110145
-0.029074246 0.034525692 0.67394614
-0.029430808 0.033109665 0.67663622
-0.029693775 0.031549603 0.67862016
-0.029803766 0.029803753 0.67944998
-0.03001428 0.028138369 0.6810382
-0.03066346 0.026830524 0.68593585
-0.030923443 0.025125325 0.68789726
-0.030670626 0.023002952 0.68598992
-0.021649297 0.014883906 0.61792922
-0.021687888 0.013554931 0.61822039
-0.021742726 0.012230307 0.6186341
-0.021803482 0.010901749 0.61909246
-0.021967892 0.0096109509 0.6203329
-0.022148764 0.008305788 0.62169743
-0.022345293 0.0069828928 0.62318015
-0.022559505 0.0056398809 0.62479627
-0.022794405 0.0042739511 0.62656844
-0.023055144 0.0028818846 0.62853557
-0.02334388 0.0014590025 0.63071394
-0.023666359 -2.9802322e-08 0.63314682
-0.024029853 -0.0015018284 0.63588917
-0.024446046 -0.0030557811 0.63902909
-0.024937429 -0.004675746 0.64273626
-0.025537945 -0.0063844621 0.64726686
-0.026341248 -0.0082316101 0.65332729
-0.027929299 -0.01047343 0.66530824
-0.021506185 0.041578621 0.62766635
-0.021240395 0.039648712 0.62552744
-0.021151446 0.038072586 0.62481159
-0.021089751 0.036555588 0.62431514
-0.021028418 0.035047382 0.62382156
-0.021167371 0.033867836 0.62493974
-0.024793223 0.03801626 0.65411842
-0.02526664 0.037057757 0.65792811
-0.026526961 0.037137747 0.66807044
-0.026978651 0.035971552 0.67170537
-0.020667603 0.026178956 0.62091798
-0.020608697 0.024730414 0.62044394
-0.02055007 0.023290068 0.61997211
-0.020491773 0.021857917 0.61950302
-0.028345509 0.028345495 0.68270499
-0.020376224 0.019017786 0.61857313
-0.020319019 0.017609805 0.6181128
-0.020332836 0.016266286 0.61822397
-0.020367874 0.014936447 0.61850595
-0.020408748 0.013605863 0.61883485
-0.020491606 0.012294978 0.61950165
-0.020630393 0.011002868 0.62061852
-0.020780966 0.0096977949 0.62183022
-0.0209438 0.0083775222 0.62314063
-0.021122454 0.0070408285 0.6245783
-0.021321008 0.0056855977 0.62617612
-0.021537967 0.0043075979 0.62792212
-0.021775803 0.0029034615 0.62983608
-0.022038605 0.0014692247 0.63195091
-0.022331854 2.9802322e-08 0.63431084
-0.022661306 -0.0015107095 0.63696206
-0.023036839 -0.0030715764 0.63998413
-0.023473307 -0.0046946406 0.64349651
-0.023996251 -0.0063989758 0.6477049
-0.024668057 -0.0082226992 0.6531111
-0.025693852 -0.010277539 0.66136611
-0.019973826 0.039947659 0.62681603
-0.01976954 0.038126975 0.62505466
-0.019604113 0.03640765 0.62362838
-0.019535553 0.03488493 0.62303722
-0.019479167 0.033392876 0.62255102
-0.020072035 0.032975465 0.6276629
-0.023504335 0.036935359 0.65725684
-0.019311834 0.028967768 0.62110823
-0.019256782 0.027509689 0.6206336
-0.019201936 0.026059806 0.6201607
-0.019147404 0.024618119 0.61969048
-0.01909323 0.023184627 0.61922342
-0.019039312 0.021759242 0.61875856
-0.019010067 0.02036795 0.61850631
-0.019019099 0.019019127 0.61858422
-0.019035587 0.017675936 0.61872637
-0.019058218 0.016335607 0.61892152
-0.019101093 0.015008003 0.61929125
-0.019201988 0.013715684 0.62016118
-0.019314975 0.01241675 0.62113535
-0.019438194 0.011107564 0.62219775
-0.019572234 0.009786129 0.62335348
-0.01972384 0.0084530711 0.62466061
-0.019887516 0.0071027279 0.62607193
-0.020066459 0.0057332814 0.62761474
-0.02026253 0.0043420196 0.6293053
-0.020478802 0.0029255748 0.63117003
-0.02071872 0.0014799237 0.63323867
-0.020984551 2.9802322e-08 0.63553071
-0.021283511 -0.0015202463 0.63810843
-0.021620834 -0.0030886829 0.6410169
-0.022008365 -0.0047160685 0.64435828
-0.022470212 -0.0064200461 0.64834034
-0.023039876 -0.0082285106 0.65325212
-0.023831384 -0.010213464 0.66007668
-0.024834512 -0.012417257 0.66872585
-0.02476918 -0.014153808 0.66816258
-0.018614104 0.038660049 0.62743801
-0.018332854 0.036665708 0.62482643
-0.018202903 0.035005569 0.62361979
-0.018096302 0.033408552 0.62263
-0.018008126 0.03186056 0.62181127
-0.01793568 0.030352652 0.62113857
-0.017876972 0.028878182 0.62059343
-0.017830223 0.027431071 0.62015933
-0.017794129 0.026006818 0.61982417
-0.017767493 0.024601161 0.61957681
-0.017749457 0.023210824 0.61940938
-0.017740259 0.021834165 0.61932397
-0.017738953 0.020468026 0.61931181
-0.017744277 0.019109219 0.61936128
-0.017779196 0.017779201 0.61968553
-0.017846465 0.016473651 0.62031013
-0.01792698 0.015168995 0.62105775
-0.018016307 0.013858706 0.62188721
-0.018114848 0.012541085 0.6228022
-0.018226365 0.011216223 0.62383771
-0.018349921 0.0098807514 0.62498492
-0.018484823 0.008531481 0.62623757
-0.018630739 0.0071656406 0.6275925
-0.018793788 0.0057827234 0.6291064
-0.018973209 0.0043784678 0.63077247
-0.019170035 0.0029492378 0.63260007
-0.019386288 0.0014912486 0.63460803
-0.019626169 -2.9802322e-08 0.63683546
-0.019894913 -0.0015304089 0.63933092
-0.02019749 -0.0031072795 0.64214039
-0.020543676 -0.004740864 0.64535493
-0.020949533 -0.0064460337 0.64912349
-0.021440007 -0.0082461238 0.65367776
-0.022081815 -0.01019159 0.65963721
-0.022951178 -0.012358338 0.66770959
-0.022903096 -0.014094204 0.66726315
-0.022842934 -0.015814334 0.66670454
-0.017369339 0.037633568 0.62932003
-0.017035514 0.035490662 0.6259619
-0.016833439 0.033666879 0.62392926
-0.016729737 0.032065302 0.62288612
-0.01665909 0.030541688 0.6221754
-0.016601192 0.029052079 0.621593
-0.01655446 0.027590752 0.62112296
-0.016517527 0.02615276 0.62075138
-0.016490672 0.024736017 0.62048125
-0.016472755 0.023336411 0.62030107
-0.016489675 0.021986276 0.62047124
-0.016516799 0.020646006 0.62074411
-0.016553456 0.019312352 0.62111288
-0.016603442 0.017987072 0.62161565
-0.016662328 0.016662359 0.622208
-0.016729737 0.01533556 0.62288606
-0.016807195 0.014006019 0.62366521
-0.016896823 0.012672603 0.62456685
-0.016995491 0.011330336 0.62555933
-0.017103888 0.0099772811 0.62664974
-0.017224887 0.0086124837 0.62786692
-0.017359449 0.0072330832 0.62922049
-0.017504644 0.0058348775 0.63068104
-0.017664546 0.0044161379 0.63228953
-0.017840799 0.0029734671 0.63406253
-0.018035924 0.0015029907 0.63602531
-0.01825238 -0 0.63820267
-0.01849276 -0.0015410483 0.64062071
-0.018764446 -0.0031273961 0.6433537
-0.019071573 -0.0047678649 0.64644313
-0.019426435 -0.0064754784 0.65001279
-0.019853925 -0.008272469 0.65431303
-0.020388544 -0.010194272 0.65969086
-0.021087267 -0.012300879 0.66671944
-0.021052664 -0.014035106 0.66637135
-0.020997668 -0.015748233 0.66581815
-0.016097218 0.036584586 0.63124394
-0.015807938 0.034490049 0.62806952
-0.015631409 0.032683879 0.62613225
-0.015513726 0.031027436 0.62484086
-0.015430912 0.029459029 0.62393212
-0.015374146 0.027952969 0.6233092
-0.015337473 0.026492 0.62290668
-0.015317156 0.025064439 0.62268376
-0.015310551 0.023661792 0.62261128
-0.015317113 0.022279441 0.62268329
-0.015336662 0.020913661 0.6228978
-0.015365819 0.019556522 0.62321782
-0.01540405 0.018204778 0.62363732
-0.015451534 0.016856223 0.62415838
-0.015510797 0.015510827 0.62480867
-0.015578494 0.014162272 0.62555158
-0.015654573 0.012808293 0.62638646
-0.015740845 0.011447936 0.62733322
-0.01583878 0.010079265 0.6284079
-0.015946297 0.0086979568 0.62958777
-0.016064143 0.0073018968 0.63088095
-0.016194263 0.0058888197 0.6323089
-0.016337706 0.0044557154 0.633883
-0.016496113 0.0029992759 0.63562131
-0.016670689 0.0015155077 0.637537
-0.016863041 -0 0.63964784
-0.017077139 -0.0015524328 0.64199728
-0.017317859 -0.003148675 0.6446389
-0.017589658 -0.0047971606 0.64762151
-0.017902792 -0.0065100789 0.65105778
-0.018270843 -0.0083049238 0.65509665
-0.018723577 -0.010212868 0.66006482
-0.019254055 -0.012252569 0.6658861
-0.019217685 -0.013976514 0.66548699
-0.019290699 -0.01578328 0.66628826
-0.014800093 0.035520196 0.63325089
-0.014550215 0.033465475 0.6302346
-0.014397814 0.03167519 0.6283949
-0.014292815 0.030014902 0.62712747
-0.0142197 0.028439373 0.6262449
-0.01417073 0.026924402 0.62565374
-0.014140056 0.025452107 0.62528348
-0.014124488 0.024011642 0.62509555
-0.014121658 0.022594661 0.62506139
-0.014129912 0.021194845 0.62516105
-0.014149453 0.019809216 0.62539697
-0.014180087 0.018434107 0.62576675
-0.014219297 0.017063171 0.62624002
-0.014266651 0.015693337 0.62681162
-0.014323174 0.014323175 0.62749392
-0.014390236 0.012951195 0.62830347
-0.014465579 0.01157248 0.62921292
-0.014549538 0.010184646 0.63022637
-0.014642913 0.0087857246 0.6313535
-0.014748572 0.0073742867 0.63262898
-0.014864771 0.0059459209 0.63403153
-0.014990176 0.0044970512 0.63554537
-0.015129784 0.0030259788 0.63723058
-0.015284332 0.0015284419 0.63909614
-0.015454853 -0 0.64115453
-0.015645105 -0.0015645325 0.64345104
-0.015856715 -0.0031713247 0.64600539
-0.016097086 -0.0048291385 0.64890695
-0.016369456 -0.0065477788 0.65219474
-0.016686408 -0.00834319 0.65602064
-0.017071435 -0.01024285 0.66066837
-0.017441027 -0.0122087 0.66512972
-0.017508464 -0.014006793 0.6659438
-0.017685141 -0.015916616 0.66807646
-0.018054366 -0.018054336 0.67253339
-0.014028396 0.037409067 0.64275092
-0.013482233 0.034454584 0.63542563
-0.013264956 0.032425463 0.6325115
-0.013131278 0.030639648 0.63071859
-0.013038659 0.028974801 0.62947637
-0.012974983 0.027391613 0.62862229
-0.012933395 0.025866777 0.62806445
-0.012908334 0.024382383 0.62772834
-0.012897057 0.022928089 0.62757713
-0.012897575 0.021495938 0.6275841
-0.012908297 0.020079583 0.62772787
-0.012928197 0.018674076 0.62799472
-0.012958144 0.017277539 0.62839639
-0.012997489 0.01588583 0.62892413
-0.013044779 0.01449421 0.62955838
-0.013099725 0.01309976 0.63029534
-0.013163329 0.01170069 0.6311484
-0.013236805 0.010295331 0.6321339
-0.013318665 0.0088790953 0.63323188
-0.013409326 0.0074496269 0.63444781
-0.013508764 0.0060039163 0.63578147
-0.013621543 0.004540503 0.63729417
-0.013743347 0.0030540526 0.63892782
-0.013878846 0.0015421212 0.64074516
-0.014028878 -0 0.64275742
-0.014194435 -0.0015771389 0.64497793
-0.014379819 -0.003195554 0.64746439
-0.014588329 -0.0048627257 0.65026093
-0.014824806 -0.0065887868 0.65343261
-0.015099443 -0.0083885789 0.65711617
-0.015422383 -0.010281622 0.66144753
-0.015732186 -0.012236148 0.66560268
-0.01594238 -0.014171004 0.66842186
-0.016069241 -0.016069233 0.67012334
-0.016315216 -0.018127978 0.67342246
-0.012538667 0.036048651 0.64379179
-0.01213189 0.033362716 0.63765407
-0.011947613 0.031362474 0.63487351
-0.011830381 0.029575944 0.63310456
-0.011750747 0.027908027 0.63190305
-0.011697009 0.026318282 0.63109219
-0.01166157 0.02478081 0.63055742
-0.011640984 0.023281962 0.63024676
-0.011633575 0.021812975 0.630135
-0.011636687 0.020364225 0.63018191
-0.011649318 0.018930167 0.63037252
-0.01167041 0.017505616 0.63069081
-0.011699437 0.016086698 0.63112879
-0.011737241 0.014671564 0.6316992
-0.011783297 0.013256192 0.63239408
-0.011836888 0.011836857 0.63320279
-0.011898002 0.010410756 0.63412488
-0.011966794 0.0089751184 0.63516295
-0.012045114 0.0075282156 0.63634467
-0.012132258 0.0060661435 0.63765955
-0.012228474 0.0045856833 0.63911134
-0.012332951 0.0030832589 0.64068782
-0.0124501 0.0015562475 0.64245546
-0.012580279 -0 0.64441967
-0.012723718 -0.0015904605 0.64658403
-0.012884384 -0.0032210648 0.64900827
-0.013063469 -0.0048988163 0.65171045
-0.013268065 -0.0066340268 0.65479755
-0.013500265 -0.0084376633 0.65830123
-0.013773645 -0.01033026 0.66242617
-0.014043479 -0.012288064 0.66649771
-0.014323073 -0.014323056 0.6707164
-0.014442814 -0.016248196 0.6725232
-0.014609812 -0.018262267 0.67504299
-0.011060338 0.034761041 0.64532661
-0.010748743 0.032246232 0.63995337
-0.010594789 0.030270845 0.63729846
-0.010494852 0.028486043 0.63557518
-0.01042811 0.026815146 0.63442421
-0.010383715 0.025217593 0.63365865
-0.010354613 0.023667693 0.63315684
-0.010338232 0.022153378 0.63287437
-0.010332681 0.020665377 0.63277864
-0.010337926 0.019199014 0.63286906
-0.010351309 0.017745137 0.63309979
-0.010372921 0.016300321 0.63347256
-0.010401662 0.014859527 0.63396817
-0.010437619 0.013419807 0.63458818
-0.010480815 0.01197806 0.63533312
-0.010531553 0.010531574 0.63620806
-0.010589632 0.0090768337 0.63720959
-0.010654996 0.0076106787 0.63833678
-0.010727476 0.0061299801 0.63958669
-0.010808882 0.0046323538 0.6409905
-0.010900279 0.0031143725 0.6425665
-0.010998792 0.0015712678 0.64426529
-0.011109064 -0 0.64616686
-0.011231899 -0.0016045272 0.64828509
-0.011367985 -0.0032480061 0.65063179
-0.011520468 -0.0049373507 0.6532613
-0.011692144 -0.0066812336 0.65622175
-0.011889079 -0.0084922016 0.65961772
-0.012083956 -0.010357678 0.66297829
-0.012338389 -0.01233837 0.66736579
-0.012639469 -0.014445126 0.67255777
-0.012790634 -0.0164451 0.67516452
-0.012907011 -0.018438578 0.67717135
-0.013147217 -0.020659894 0.68131357
-0.0095794806 0.033528179 0.64732218
-0.0093321763 0.031107306 0.6423468
-0.0092056375 0.029151171 0.63980103
-0.0091230292 0.027369082 0.63813913
-0.0090681631 0.025693148 0.63703525
-0.0090316897 0.024084508 0.63630146
-0.0090084635 0.022521168 0.63583422
-0.0089963162 0.020991385 0.63558984
-0.0089936741 0.019486308 0.63553667
-0.0089992015 0.017998427 0.63564783
-0.0090132775 0.016524315 0.63593107
-0.0090339174 0.015056551 0.63634628
-0.0090615125 0.013592303 0.6369015
-0.0090953894 0.012127221 0.63758302
-0.0091358554 0.010658503 0.6383971
-0.0091823796 0.0091823936 0.63933313
-0.0092357416 0.0076964796 0.64040667
-0.0092963427 0.0061975718 0.64162588
-0.0093639325 0.0046819448 0.6429857
-0.0094385622 0.0031461716 0.64448714
-0.0095212096 0.0015868843 0.64614987
-0.0096130371 -0 0.64799738
-0.0097155757 -0.0016192794 0.65006024
-0.0098289093 -0.0032762885 0.65234029
-0.0099562304 -0.0049781203 0.6549018
-0.013849037 -0.0092326701 0.73321903
-0.010262048 -0.008551687 0.66105437
-0.010408273 -0.010408282 0.66399622
-0.010625319 -0.012396216 0.6683628
-0.010888843 -0.01451847 0.67366457
-0.011090657 -0.016635984 0.67772472
-0.011182449 -0.018637419 0.67957139
-0.011338546 -0.020787299 0.68271184
-0.0080693634 0.032277435 0.64940959
-0.0078816991 0.02995047 0.64487898
-0.0077784332 0.028002352 0.64238596
-0.0077127521 0.026223361 0.64080024
-0.0076681427 0.02453807 0.6397233
-0.007639179 0.022917539 0.63902402
-0.007621353 0.021339774 0.63859367
-0.0076128654 0.019793451 0.63838875
-0.0076125409 0.018270075 0.63838089
-0.0076192408 0.016762346 0.63854265
-0.0076322574 0.015264511 0.63885689
-0.0076521239 0.013773799 0.63933653
-0.0076772026 0.012283504 0.63994199
-0.0077080703 0.010791332 0.64068717
-0.0077446741 0.0092936158 0.64157093
-0.0077870768 0.0077870786 0.64259458
-0.0078348015 0.0062678456 0.64374673
-0.0078884084 0.004733026 0.64504099
-0.007949342 0.003179729 0.64651203
-0.0080171032 0.0016034544 0.64814794
-0.0080905268 -0 0.64992046
-0.0081734974 -0.0016346872 0.6519236
-0.0082656089 -0.0033062398 0.65414733
-0.011620631 -0.0069723725 0.73514479
-0.011714602 -0.0093716979 0.73741347
-0.008602431 -0.0086024106 0.66227901
-0.0087347021 -0.010481685 0.66547227
-0.0089068562 -0.01246956 0.66962844
-0.0091124745 -0.014579952 0.67459249
-0.0093333088 -0.016799986 0.67992395
-0.0094330767 -0.018866152 0.68233258
-0.0095334016 -0.020973504 0.68475461
-0.0097631728 -0.023431629 0.69030178
-0.0065328004 0.031030804 0.65174264
-0.006391807 0.028763115 0.64748776
-0.0063120602 0.026826262 0.64508116
-0.0062609585 0.025043875 0.64353907
-0.0062263855 0.023348957 0.64249575
-0.0062043052 0.021715075 0.64182937
-0.0061914655 0.02012229 0.64144188
-0.0061862785 0.01855883 0.64128542
-0.0061875219 0.017015666 0.64132291
-0.0061944351 0.015486091 0.64153153
-0.0062067877 0.013965279 0.64190435
-0.0062241009 0.012448192 0.64242679
-0.0062466739 0.01093173 0.64310795
-0.0062734792 0.0094102323 0.6439169
-0.0063049616 0.0078811944 0.64486694
-0.0063416408 0.0063416362 0.6459738
-0.0063833264 0.0047874749 0.64723182
-0.0064297332 0.0032148361 0.64863229
-0.0064811823 0.0016202927 0.65018487
-0.0065397811 -0 0.65195328
-0.0066035204 -0.0016508996 0.65387678
-0.0093712434 -0.0046856105 0.73740017
-0.0094021475 -0.0070516169 0.73833287
-0.0094883982 -0.009488374 0.74093568
-0.0095256539 -0.011907071 0.74205995
-0.0070385318 -0.01055783 0.66700447
-0.0071679228 -0.012543887 0.67090917
-0.0073225987 -0.014645219 0.67557693
-0.0075135697 -0.016905516 0.68133998
-0.0076409592 -0.019102395 0.68518424
-0.0077061839 -0.021191984 0.68715256
-0.0078342631 -0.023502767 0.69101769
-0.004961201 0.029767185 0.65422124
-0.004861013 0.02754578 0.65018994
-0.004803489 0.025618613 0.64787543
-0.0047663189 0.023831606 0.64637977
-0.0047411178 0.022125244 0.64536577
-0.0047254614 0.020477027 0.64473575
-0.0047166264 0.018866509 0.64438033
-0.0047140196 0.017284751 0.64427543
-0.0047163595 0.015721232 0.6443696
-0.0047229785 0.014168948 0.64463586
-0.0047334633 0.012622565 0.6450578
-0.004748031 0.011078745 0.64564395
-0.0047664247 0.0095328391 0.646384
-0.0047887317 0.0079812109 0.64728165
-0.0048143808 0.0064191818 0.64831364
-0.0048435708 0.0048435926 0.64948809
-0.0048773759 0.0032515824 0.65084839
-0.0049153236 0.0016384423 0.65237528
-0.0049574818 -0 0.65407157
-0.0050036195 -0.0016678572 0.65592802
-0.0071577313 -0.0047718287 0.74260283
-0.0071464851 -0.0071465075 0.74215031
-0.007193611 -0.00959149 0.74404651
-0.0072549065 -0.012091517 0.74651283
-0.0053250417 -0.010650069 0.66886103
-0.0054140822 -0.012632847 0.67244375
-0.0055254265 -0.014734477 0.67692393
-0.0056596966 -0.016979069 0.68232656
-0.0057925298 -0.019308448 0.68767136
-0.0058496171 -0.021448582 0.68996835
-0.0059218258 -0.023687333 0.69287384
-0.0033497822 0.028473169 0.65677512
-0.0032867191 0.026293725 0.652969
-0.003250306 0.024377286 0.65077126
-0.0032261114 0.022582769 0.64931101
-0.0032104729 0.020868063 0.64836711
-0.0032006563 0.019203931 0.64777464
-0.0031954541 0.017574996 0.6474607
-0.0031941691 0.015970826 0.64738309
-0.0031964036 0.014383793 0.64751798
-0.0032019059 0.012807637 0.64785004
-0.003210102 0.011235386 0.6483447
-0.0032207849 0.0096623302 0.6489895
-0.003234077 0.0080852211 0.64979178
-0.0032502534 0.0065004826 0.65076804
-0.003269057 0.0049036145 0.65190291
-0.0032903287 0.0032903254 0.6531868
-0.003314204 0.0016570985 0.6546278
-0.0033413265 -0 0.65626484
-0.0033719731 -0.001685977 0.65811443
-0.0048944419 -0.0048944056 0.75000364
-0.0048403242 -0.0072604716 0.7467373
-0.0048531173 -0.0097061992 0.74750942
-0.0048982515 -0.012245655 0.75023359
-0.004918885 -0.01475662 0.75147891
-0.0036364861 -0.012727678 0.6740793
-0.0037063058 -0.014825195 0.67829323
-0.0037897634 -0.017053932 0.68333036
-0.0038928122 -0.019464105 0.68954992
-0.003951001 -0.021730512 0.69306189
-0.0039891154 -0.023934692 0.69536233
-0.0040730564 -0.026474863 0.70042861
-0.0017873718 0.030385345 0.67035276
-0.0016975983 0.027161598 0.65951616
-0.0016676453 0.025014669 0.65590054
-0.0016499383 0.023099124 0.65376312
-0.0016381193 0.021295577 0.65233642
-0.0016309005 0.019570798 0.65146506
-0.0016263416 0.017889768 0.65091467
-0.0016241297 0.016241282 0.65064776
-0.0016238872 0.014614969 0.65061849
-0.00162538 0.013003051 0.65079868
-0.0016285012 0.011399508 0.65117538
-0.0016332322 0.0097994208 0.65174645
-0.0016392678 0.0081963241 0.65247506
-0.0016465774 0.0065863132 0.65335739
-0.0016551506 0.0049654543 0.6543923
-0.0016653861 0.003330797 0.65562779
-0.0016770243 0.0016770363 0.65703261
-0.0016900754 -0 0.65860808
-0.0017039867 -0.0017039478 0.66028726
-0.0025009564 -0.0050019324 0.75649011
-0.0024680314 -0.0074040592 0.75251567
-0.0024610513 -0.0098442137 0.7516731
-0.0024764477 -0.012382239 0.75353158
-0.0024986956 -0.014992118 0.75621712
-0.0018331244 -0.012831897 0.67587566
-0.0018664042 -0.014931202 0.67989284
-0.0019064915 -0.017158419 0.68473172
-0.0019553129 -0.019553125 0.69062507
-0.0019995233 -0.02199474 0.69596177
-0.0020181369 -0.024217665 0.69820857
-0.0020487024 -0.026633143 0.70189816
0 0.028413147 0.66895837
0 0.025824606 0.66241831
0 0.02370131 0.65895528
0 0.021781385 0.6568476
0 0.019971818 0.6554988
0 0.018231392 0.65466362
0 0.016532302 0.65416062
0 0.014863282 0.65394849
0 0.013213784 0.65397871
0 0.011575997 0.65421855
0 0.0099435747 0.65464699
0 0.0083121061 0.6552698
0 0.0066767931 0.65608788
0 0.0050319731 0.65706861
0 0.0033735931 0.65821195
0 0.0016976595 0.6595217
0 -0 0.66043591
0 -0.0017193258 0.6621412
0 -0.0034702718 0.66404629
0 -0.0076104105 0.76081705
0 -0.010011166 0.75671053
0 -0.012538373 0.75730103
0 -0.01518783 0.76015401
0 -0.017799318 0.76153594
0 -0.015047103 0.6816417
0 -0.017267853 0.68619937
0 -0.019642413 0.69170266
0 -0.02220434 0.69826162
0 -0.02454263 0.70147765
0 -0.026887655 0.7042616
0 -0.029829413 0.71179295
0.0017828055 0.026742131 0.66980159
0.0017463733 0.024449199 0.66540384
0.0017190673 0.022347867 0.66210771
0.0017021317 0.020425558 0.66006339
0.0016914408 0.018605858 0.65877283
0.0016847716 0.0168477 0.65796787
0.0016810246 0.015129209 0.65751553
0.0016797492 0.013438016 0.65736163
0.001680539 0.011763781 0.65745693
0.0016831168 0.010098696 0.65776807
0.0016873226 0.0084366202 0.65827578
0.0016930376 0.0067721605 0.65896559
0.0017002461 0.0051007271 0.65983582
0.0017053109 0.0034106374 0.66044712
0.0017145963 0.0017145872 0.66156799
0.0017264403 2.9802322e-08 0.66299766
0.0017398878 -0.0017398596 0.66462094
0.001755047 -0.0035100877 0.66645086
0.0017721974 -0.0053165555 0.66852105
0.0025560202 -0.010224104 0.76313686
0.0025453451 -0.012726724 0.76184827
0.0025603625 -0.015362173 0.76366097
0.0025846183 -0.018092304 0.76658893
0.0018957576 -0.015166044 0.68343616
0.0019324763 -0.017392308 0.68786848
0.0019758828 -0.01975885 0.69310808
0.0020292767 -0.022322029 0.69955325
0.0020722649 -0.024867147 0.70474237
0.0020918357 -0.027193844 0.70710486
0.0021298206 -0.029817492 0.71169001
0.003609271 0.025264859 0.67243671
0.0035211851 0.022887707 0.66712022
0.0034841124 0.02090469 0.66488272
0.0034600676 0.019030362 0.66343153
0.0034389384 0.017194688 0.66215622
0.0034264098 0.015418857 0.66140002
0.0034197592 0.013679028 0.66099864
0.0034180307 0.011963099 0.66089433
0.0034207527 0.010262281 0.6610586
0.0034215362 0.0085538626 0.66110587
0.0034174351 0.0068348944 0.66085839
0.003439222 0.0051588416 0.66217333
0.0034552291 0.0034552515 0.66313946
0.0034747971 0.0017374158 0.66432047
0.0034975805 -0 0.66569561
0.0035234538 -0.0017617047 0.66725719
0.0035529016 -0.0035528839 0.66903448
0.0035857849 -0.0053786635 0.6710192
0.0052586324 -0.01051724 0.77198446
0.0051825149 -0.012956262 0.76739037
0.0051887757 -0.015566289 0.7677682
0.0052384273 -0.018334478 0.77076495
0.0052638603 -0.0210554 0.7723
0.003896025 -0.01753211 0.68974382
0.0039778883 -0.019889444 0.69468474
0.0040777535 -0.022427619 0.70071208
0.0041904161 -0.025142491 0.7075119
0.0042395378 -0.027556986 0.7104767
0.0042952932 -0.030067056 0.7138418
0.0054897601 0.023788989 0.67548883
0.0053638783 0.021455526 0.67042369
0.0052957716 0.019417822 0.6676833
0.005252705 0.017508984 0.66595048
0.0051683537 0.015505075 0.66255641
0.0051550767 0.013746858 0.66202223
0.005141886 0.01199773 0.66149139
0.0051287622 0.010257542 0.66096336
0.0051156706 0.0085261166 0.66043663
0.0051734657 0.0068979561 0.66276211
0.0052305213 0.005230546 0.66505784
0.0052584456 0.0035056472 0.66618145
0.0052851252 0.0017617345 0.66725492
0.0053167613 2.9802322e-08 0.66852784
0.0053532808 -0.0017844439 0.66999733
0.0053954781 -0.0035969913 0.67169523
0.0054437504 -0.0054437518 0.67363751
0.0054975203 -0.0073300302 0.6758011
0.0079644118 -0.013274014 0.77506113
0.0079068951 -0.015813798 0.7727468
0.0079504484 -0.018551022 0.7744993
0.0080299815 -0.021413267 0.77769941
0.0058919336 -0.017675787 0.69167101
0.0060104108 -0.020034701 0.69643819
0.0061517498 -0.022556394 0.70212519
0.0063275145 -0.025310069 0.70919746
0.0064492519 -0.02794677 0.71409577
0.0065162475 -0.030409127 0.71679151
0.0066721621 -0.033360809 0.72306496
0.0074243252 0.022272974 0.67864668
0.0072647361 0.019978046 0.67383069
0.0071786181 0.017946541 0.67123187
0.0071221883 0.016024947 0.66952896
0.0068453196 0.01369065 0.66117376
0.006827875 0.011948824 0.66064727
0.0068104966 0.0102157 0.66012281
0.0068504037 0.0085630119 0.66132718
0.0069407499 0.0069407523 0.66405356
0.0070497622 0.0052873194 0.66734338
0.0071143406 0.0035571754 0.66929209
0.0071493085 0.0017873347 0.67034739
0.0071887001 -0 0.67153609
0.0072352169 -0.0018087626 0.6729399
0.0072884662 -0.0036442578 0.67454684
0.00734992 -0.0055124462 0.67640138
0.0074185734 -0.0074186027 0.67847317
0.010908967 -0.013636231 0.78380513
0.010746309 -0.016119421 0.77889645
0.010749253 -0.018811196 0.77898526
0.010853242 -0.021706522 0.78212345
0.010910276 -0.024548143 0.78384459
0.008080435 -0.020201057 0.69844663
0.0082583455 -0.022710443 0.70381558
0.0084776031 -0.025432825 0.71043229
0.0087055629 -0.028293043 0.7173115
0.0088017331 -0.030806065 0.72021377
0.0089473603 -0.033552587 0.72460842
0.0094162831 0.020715833 0.68192708
0.0092314035 0.018462837 0.67746371
0.0091252374 0.016425431 0.67490065
0.0090535125 0.014485627 0.67316908
0.0086213434 0.012069911 0.66273558
0.0086136553 0.010336399 0.66254997
0.0086621195 0.0086621344 0.66372001
0.0087469472 0.0069975555 0.66576791
0.0088758562 0.0053255558 0.66888011
0.0090054758 0.0036022067 0.67200935
0.009071799 0.0018143952 0.67361051
0.0091166589 2.9802322e-08 0.67469352
0.009170494 -0.0018340647 0.6759932
0.0092345038 -0.003693819 0.67753863
0.0093073361 -0.005584389 0.67929685
0.0093915397 -0.0075132251 0.68132973
0.0094853286 -0.009485364 0.68359405
0.013808642 -0.016570359 0.78796798
0.01366272 -0.019127816 0.78444523
0.013732315 -0.021971703 0.7861253
0.013877502 -0.024979532 0.78963047
0.010186497 -0.020372987 0.70052171
0.010400177 -0.022880346 0.70568037
0.010656632 -0.025575906 0.7118718
0.010977884 -0.028542519 0.7196275
0.011163938 -0.03125903 0.72411925
0.011298963 -0.033896863 0.72737908
0.01147853 0.019130915 0.68552816
0.011265154 0.016897738 0.68123531
0.011140537 0.014854074 0.67872822
0.010722392 0.012509465 0.6703158
0.010529211 0.01052922 0.66642928
0.010542115 0.0087850988 0.66668892
0.010612885 0.00707528 0.6681127
0.010727603 0.005363822 0.67042065
0.010902208 0.0036340654 0.67393339
0.011041424 0.0018402338 0.67673421
0.011108139 -0 0.67807639
0.011167224 -0.0018611848 0.67926514
0.011238543 -0.0037461817 0.68069994
0.011320717 -0.0056603551 0.68235314
0.011417111 -0.0076113939 0.68429244
0.01152608 -0.0096050501 0.68648475
0.011649117 -0.011649102 0.68896008
0.016747015 -0.019538164 0.79152185
0.016723691 -0.022298247 0.79105258
0.012586427 -0.023075104 0.70781732
0.012877258 -0.025754511 0.71366835
0.013239339 -0.028685242 0.72095287
0.013583848 -0.031695664 0.72788382
0.013728834 -0.034322083 0.73080069
0.014012774 -0.037367404 0.73651314
0.014363619 0.020519495 0.7022897
0.013607162 0.017494917 0.68924505
0.013368923 0.015278757 0.6851368
0.013230902 0.01323089 0.68275666
0.012627985 0.010823995 0.6723597
0.012516253 0.0089402199 0.67043298
0.012550158 0.0071715415 0.67101765
0.01264741 0.0054203272 0.67269468
0.012804102 0.0036583245 0.67539668
0.013019712 0.0018599927 0.67911482
0.01316011 -0 0.68153596
0.013229303 -0.0018898845 0.68272907
0.013305846 -0.0038016737 0.68404901
0.013397766 -0.0057418942 0.68563408
0.013503084 -0.0077160299 0.68745029
0.013626697 -0.0097333193 0.68958187
0.013764324 -0.011797965 0.69195521
0.014814095 -0.023279279 0.7100578
0.015138859 -0.025952339 0.71565819
0.015530892 -0.028843105 0.72241861
0.016014922 -0.032029837 0.73076534
0.01625469 -0.034831464 0.7349
0.016486209 -0.037682801 0.73889244
0.016463231 0.01852113 0.70300889
0.015805438 0.015805423 0.69308358
0.015546393 0.013603091 0.68917489
0.015397783 0.01154834 0.6869325
0.014663922 0.0091649294 0.67585945
0.014587131 0.0072935522 0.6747008
0.014641876 0.0054906905 0.6755268
0.014771118 0.0036928058 0.67747688
0.014983267 0.0018728971 0.68067801
0.015228953 -2.9802322e-08 0.68438512
0.015361208 -0.0019201934 0.68638062
0.015442217 -0.0038605332 0.687603
