# .PCD v0.7 - Point Cloud Data file format
VERSION 0.7
FIELDS x y z
SIZE 4 4 4
TYPE F F F
COUNT 1 1 1
WIDTH 1328
HEIGHT 1
VIEWPOINT 0 0 0 1 0 0 0
POINTS 1328
DATA ascii
-0.023145208 -0.021783739 0.61894345
-0.023201458 -0.023201466 0.61934286
-0.023258047 -0.024626166 0.6197446
-0.023314783 -0.02605769 0.62014753
-0.02337186 -0.027496308 0.62055284
-0.023429221 -0.028941959 0.62096012
-0.023571799 -0.030504704 0.62197256
-0.028542077 -0.0071355104 0.66993123
-0.028194977 -0.0088109374 0.66731262
-0.028261665 -0.010598123 0.66781574
-0.028328769 -0.012393862 0.66832203
-0.022403071 -0.011201531 0.62361604
-0.021622226 -0.012162507 0.61772501
-0.021531681 -0.013457298 0.61704189
-0.021522881 -0.014796972 0.61697549
-0.022474958 -0.016856223 0.62415838
-0.0224807 -0.018265545 0.62420171
-0.022236181 -0.019456655 0.62235701
-0.021942003 -0.020570576 0.62013751
-0.021783786 -0.021783799 0.61894387
-0.021836666 -0.023201466 0.61934286
-0.021889867 -0.024626106 0.61974424
-0.021943325 -0.02605769 0.62014753
-0.021997046 -0.027496308 0.62055284
-0.022469658 -0.029491425 0.62411839
-0.022270389 -0.030621737 0.62261498
-0.022159798 -0.031854689 0.62178069
-0.022214524 -0.033321768 0.62219352
-0.027939888 -0.0037253201 0.6794408
-0.026944365 -0.0053888559 0.67142946
-0.026370475 -0.0070321262 0.66681111
-0.023012822 -0.007670939 0.63979077
-0.02130485 -0.0085219443 0.62604612
-0.020248633 -0.0094493628 0.61754632
-0.02014407 -0.010743469 0.61670488
-0.020081548 -0.01204896 0.61620176
-0.020129483 -0.013419658 0.61658752
-0.022249103 -0.016315997 0.63364488
-0.021923436 -0.017538786 0.63102412
-0.021595167 -0.018715829 0.62838244
-0.021276463 -0.019858062 0.62581772
-0.020967029 -0.020967036 0.62332749
-0.020715065 -0.022096068 0.62129986
-0.020477405 -0.023207694 0.61938739
-0.020521749 -0.024626106 0.61974424
-0.022177508 -0.02809149 0.63306868
-0.021951778 -0.02926904 0.63125217
-0.021719718 -0.030407608 0.6293847
-0.021491036 -0.031520158 0.6275444
-0.021252966 -0.032587886 0.62562859
-0.021020113 -0.033632159 0.62375474
-0.020877736 -0.034796238 0.62260902
-0.021073882 -0.036528051 0.62418741
-0.028683363 0.0020488203 0.70191139
-0.027422067 -0 0.69103622
-0.026430953 -0.0018879175 0.68249065
-0.024481611 -0.0034973323 0.66568303
-0.021621302 -0.0046331286 0.64102089
-0.020423336 -0.0058352351 0.63069183
-0.019495431 -0.006962657 0.62269127
-0.018824222 -0.0080675185 0.6169039
-0.018715588 -0.0093577802 0.61596727
-0.018698202 -0.010684669 0.61581737
-0.018742729 -0.0120489 0.61620128
-0.018787518 -0.013419658 0.61658752
-0.021211779 -0.016666383 0.63748997
-0.020901274 -0.017915368 0.63481271
-0.020642281 -0.01916784 0.63257968
-0.020439425 -0.020439386 0.63083053
-0.02040115 -0.021858394 0.63050056
-0.022067644 -0.025220126 0.64486933
-0.021816581 -0.026491553 0.64270467
-0.021571033 -0.02773416 0.64058751
-0.021314271 -0.028926551 0.63837367
-0.021063549 -0.030090749 0.63621187
-0.020798383 -0.031197578 0.63392556
-0.020469887 -0.032166958 0.6310932
-0.020100949 -0.033023 0.62791216
-0.019661503 -0.033705384 0.6241231
-0.019485939 -0.034796298 0.62260944
-0.019534301 -0.03627798 0.62302643
-0.019582957 -0.037767142 0.62344593
-0.027994748 0.0064603388 0.71454138
-0.026876999 0.0041349232 0.7041626
-0.023566935 0.0018128455 0.67342722
-0.022037078 2.9802322e-08 0.65922183
-0.020632036 -0.0015870631 0.64617538
-0.019605879 -0.0030162632 0.63664705
-0.018746773 -0.0043261945 0.62866992
-0.017991889 -0.0055359602 0.62166047
-0.017437134 -0.0067065656 0.61650932
-0.017326819 -0.0079969764 0.61548495
-0.017321421 -0.009326905 0.61543489
-0.017758325 -0.010928154 0.6194917
-0.017418036 -0.012058645 0.61633199
-0.017445551 -0.013419658 0.61658752
-0.02041607 -0.017275125 0.64417005
-0.022202032 -0.020494193 0.66075349
-0.021929499 -0.021929532 0.65822291
-0.02166271 -0.023329079 0.65574563
-0.021385519 -0.024675578 0.65317178
-0.02111396 -0.025986373 0.65065026
-0.020818649 -0.027224392 0.64790821
-0.020455105 -0.028322458 0.6445325
-0.02003623 -0.029283702 0.64064306
-0.019549135 -0.03007558 0.63612014
-0.019114099 -0.030876637 0.63208067
-0.018745638 -0.03172338 0.62865937
-0.018413553 -0.032577842 0.62557578
-0.018108897 -0.033431798 0.62274694
-0.018094087 -0.034796298 0.62260944
-0.018138994 -0.03627798 0.62302643
-0.018184176 -0.037767142 0.62344593
-0.018229581 -0.039263725 0.62386751
-0.028873794 0.01443693 0.74504584
-0.027425436 0.011427253 0.7304765
-0.026247181 0.008749038 0.71862417
-0.021899851 0.0054749548 0.67489344
-0.020782609 0.0034637749 0.6636548
-0.019738467 0.0016449094 0.65315151
-0.018795284 2.9802322e-08 0.64366388
-0.0179797 -0.001498282 0.63545978
-0.017272854 -0.0028788149 0.62834942
-0.016631773 -0.0041579604 0.62190062
-0.016077543 -0.0053591728 0.6163255
-0.015970929 -0.0066545606 0.61525309
-0.015951157 -0.0079755783 0.61505419
-0.016980112 -0.0099050701 0.62540466
-0.016697822 -0.011131883 0.62256503
-0.022062723 -0.016547024 0.67653179
-0.0217705 -0.018142074 0.67359227
-0.021469168 -0.019680083 0.67056108
-0.021172928 -0.021172911 0.66758114
-0.020841474 -0.022578299 0.66424698
-0.020431904 -0.023837209 0.66012704
-0.019946063 -0.024932563 0.65523982
-0.019427128 -0.025902838 0.65001976
-0.018990263 -0.026902884 0.64562523
-0.018611301 -0.027916938 0.64181316
-0.018269876 -0.028927326 0.63837862
-0.017958352 -0.029930562 0.63524497
-0.01767453 -0.0309304 0.63238996
-0.017420743 -0.031938046 0.62983704
-0.017192384 -0.03295207 0.62753999
-0.016973151 -0.033946276 0.62533462
-0.016790744 -0.034980744 0.62349975
-0.017383723 -0.037664711 0.62946469
-0.017149124 -0.038585514 0.62710476
-0.016920727 -0.03948167 0.62480724
-0.016869431 -0.040767804 0.6242913
-0.028105166 0.020440131 0.76301551
-0.026782414 0.017043352 0.74850005
-0.022499615 0.012272537 0.70150191
-0.020792359 0.0094510615 0.68276703
-0.019582186 0.0071208179 0.66948688
-0.018855972 0.0051425695 0.66151768
-0.017965319 0.0032664537 0.65174389
-0.017203161 0.0015639067 0.64338017
-0.01651522 -0 0.63583094
-0.015896695 -0.0014451444 0.62904346
-0.015334353 -0.0027880669 0.62287247
-0.01482037 -0.0040419102 0.61723214
-0.014636709 -0.0053224564 0.61521673
-0.014587365 -0.0066306293 0.61467522
-0.014621894 -0.0079755783 0.61505419
-0.021568876 -0.013725668 0.69128829
-0.021243127 -0.015449524 0.68771356
-0.020863848 -0.017070442 0.68355143
-0.020400472 -0.018545896 0.67846656
-0.019835467 -0.019835442 0.67226636
-0.019297259 -0.021051586 0.6663602
-0.018856877 -0.022285402 0.66152763
-0.018466329 -0.023502618 0.65724188
-0.018113721 -0.024700522 0.65337241
-0.017794957 -0.025883585 0.64987445
-0.017511923 -0.027063876 0.64676845
-0.017259967 -0.028243572 0.64400363
-0.017021528 -0.029400796 0.64138699
-0.016837763 -0.030614108 0.63937044
-0.01738322 -0.033186167 0.64535612
-0.017127624 -0.034255266 0.6425513
-0.016879382 -0.035293251 0.63982713
-0.016638234 -0.036301583 0.63718092
-0.016401337 -0.037275761 0.63458121
-0.016169667 -0.038219213 0.63203895
-0.015944449 -0.03913635 0.6295675
-0.015725421 -0.040028334 0.62716395
-0.015511627 -0.040894315 0.62481785
-0.027430151 0.027430177 0.78570908
-0.023339698 0.02100575 0.73633301
-0.021156996 0.016925573 0.70998549
-0.019767648 0.013837367 0.69321454
-0.018675884 0.011205524 0.68003583
-0.017746864 0.0088734627 0.66882151
-0.017122434 0.0068489611 0.66128397
-0.01637819 0.0049134791 0.65230018
-0.015720112 0.0031440258 0.64435649
-0.015119177 0.0015119016 0.63710254
-0.014571104 -0 0.63048667
-0.014069085 -0.001406908 0.62442684
-0.013608126 -0.0027215779 0.61886251
-0.013317822 -0.0039953291 0.61535823
-0.013229999 -0.0052919984 0.61429811
-0.013261242 -0.0066306293 0.61467522
-0.013292595 -0.0079755485 0.61505371
-0.019705214 -0.013793647 0.69246089
-0.019164296 -0.015331417 0.68593138
-0.018707724 -0.016836971 0.68042016
-0.018303685 -0.018303633 0.67554295
-0.017941656 -0.019735783 0.67117286
-0.017622543 -0.021147043 0.66732085
-0.01734177 -0.022544295 0.66393161
-0.017079886 -0.023911834 0.66077042
-0.017667096 -0.026500612 0.6678586
-0.017382618 -0.027812213 0.66442472
-0.017101835 -0.029073119 0.66103536
-0.016830035 -0.030294061 0.65775442
-0.016565369 -0.031474203 0.65455961
-0.016305815 -0.032611638 0.65142655
-0.016054271 -0.033713967 0.64839011
-0.015810367 -0.034782797 0.64544594
-0.015572748 -0.035817325 0.64257765
-0.015339766 -0.036815435 0.63976526
-0.015113652 -0.037784129 0.63703585
-0.014894064 -0.038724601 0.63438523
-0.014680807 -0.039638191 0.63181096
-0.014469385 -0.04051429 0.62925887
-0.014253321 -0.041334629 0.62665075
-0.014093099 -0.042279288 0.62471664
-0.021649307 0.02646029 0.7449649
-0.020003416 0.022226006 0.72288966
-0.018760951 0.01876092 0.7062254
-0.017730642 0.015760541 0.69240659
-0.016832484 0.013091922 0.6803602
-0.016059041 0.010706007 0.66998655
-0.015476711 0.0085981786 0.66217619
-0.014866896 0.0066075325 0.65399712
-0.014288974 0.0047630072 0.6462459
-0.01375632 0.0030569732 0.63910174
-0.013268043 0.0014742613 0.63255286
-0.01281751 -0 0.6265102
-0.012401792 -0.0013779998 0.62093449
-0.012013379 -0.0026696622 0.61572492
-0.011920931 -0.0039736629 0.61448503
-0.011906999 -0.0052919984 0.61429811
-0.018543022 -0.010301709 0.7033025
-0.018124269 -0.012082875 0.69768602
-0.017759729 -0.013813108 0.69279671
-0.017442813 -0.015504688 0.68854612
-0.017151821 -0.017151803 0.68464327
-0.01770485 -0.019672066 0.69206059
-0.01738188 -0.021244496 0.68772888
-0.017070485 -0.022760659 0.68355238
-0.016770113 -0.024223506 0.67952359
-0.016475365 -0.025628328 0.67557037
-0.016190566 -0.026984274 0.67175066
-0.015915448 -0.028294116 0.66806066
-0.015648052 -0.029557407 0.66447425
-0.015387128 -0.030774236 0.66097468
-0.015134763 -0.031951159 0.65758985
-0.014890543 -0.033090115 0.65431434
-0.014652839 -0.034189969 0.65112615
-0.014410928 -0.035226703 0.64788157
-0.014164344 -0.036197782 0.64457434
-0.01391345 -0.037102491 0.64120924
-0.013648873 -0.037913531 0.63766068
-0.013335033 -0.038523406 0.63345134
-0.013066468 -0.039199412 0.62984931
-0.012821013 -0.039887577 0.62655711
-0.012652073 -0.040767804 0.6242913
-0.012683825 -0.042279437 0.62471718
-0.0127157 -0.043798506 0.62514466
-0.020306153 0.032997519 0.76099414
-0.018868292 0.028302461 0.73929846
-0.017710404 0.024351805 0.72182727
-0.016722312 0.020902902 0.70691812
-0.015868157 0.017851681 0.69402993
-0.01511144 0.015111417 0.68261194
-0.014439115 0.012634248 0.67246735
-0.013824067 0.010368079 0.66318697
-0.013386493 0.008366555 0.6565845
-0.012876302 0.0064381957 0.64888632
-0.012403573 0.0046513677 0.64175338
-0.011967582 0.0029918849 0.63517481
-0.011561767 0.0014452338 0.62905151
-0.011188917 -0 0.62342566
-0.010840302 -0.0013550222 0.61816543
-0.010624396 -0.0026560724 0.61490762
-0.010559123 -0.003959626 0.61392277
-0.017242452 -0.008621186 0.71476638
-0.017745027 -0.011090636 0.7223497
-0.01738096 -0.013035715 0.71685636
-0.017031459 -0.014902502 0.71158284
-0.016692325 -0.016692311 0.70646566
-0.016364226 -0.018409759 0.70151508
-0.016048776 -0.020060956 0.69675529
-0.015743276 -0.021647036 0.69214559
-0.015446804 -0.023170203 0.6876722
-0.015161293 -0.024637103 0.68336415
-0.014886145 -0.026050717 0.67921251
-0.014612906 -0.027399182 0.6750896
-0.014331124 -0.028662264 0.67083788
-0.014045106 -0.029845834 0.6665222
-0.013742435 -0.030920476 0.66195524
-0.013385194 -0.031789839 0.65656489
-0.013089526 -0.032723814 0.6521036
-0.012813116 -0.033634424 0.64793289
-0.012558571 -0.034536064 0.64409214
-0.012327026 -0.035440177 0.64059836
-0.012110016 -0.036330044 0.63732398
-0.011904124 -0.037200361 0.63421726
-0.011711862 -0.038063556 0.6313163
-0.011527871 -0.038906544 0.62854004
-0.011354109 -0.0397394 0.62591821
-0.011246287 -0.040767804 0.6242913
-0.011274479 -0.042279288 0.62471664
-0.011302846 -0.043798506 0.62514466
-0.019008119 0.040731698 0.78238118
-0.017684452 0.03536889 0.7595554
-0.016582841 0.030796707 0.74055874
-0.015629373 0.026793212 0.7241168
-0.014813281 0.023277998 0.71004379
-0.014078862 0.020112664 0.69737917
-0.01342838 0.017265081 0.68616205
-0.012841281 0.014675766 0.67603785
-0.012303325 0.012303323 0.66676116
-0.01190921 0.010207891 0.65996492
-0.011459182 0.0081851482 0.65220439
-0.011042344 0.0063099265 0.64501631
-0.010655028 0.004566431 0.63833731
-0.010294719 0.0029413402 0.63212395
-0.0099585457 0.0014226437 0.62632692
-0.0096481498 -2.9802322e-08 0.62097436
-0.0093565192 -0.001336664 0.61594534
-0.0092578903 -0.0026451349 0.61424458
-0.0092392331 -0.003959626 0.61392277
-0.016223518 -0.0092705786 0.73436248
-0.015867421 -0.011333853 0.72822183
-0.015524215 -0.013306439 0.72230345
-0.015195541 -0.015195519 0.71663558
-0.014877144 -0.017002434 0.71114504
-0.014551535 -0.018709093 0.70553017
-0.014217563 -0.020310789 0.69977105
-0.013862383 -0.02178371 0.69364613
-0.013455825 -0.023067117 0.68663538
-0.013119394 -0.024364591 0.68083376
-0.012808784 -0.02561757 0.67547745
-0.012528386 -0.026846558 0.6706422
-0.012270825 -0.028047591 0.66620076
-0.01203 -0.029215693 0.66204786
-0.011806162 -0.030358702 0.65818787
-0.011594914 -0.031471938 0.65454507
-0.011394724 -0.032556385 0.65109295
-0.011204878 -0.033614635 0.64781916
-0.011020976 -0.034637362 0.64464784
-0.010842779 -0.035626292 0.64157492
-0.010669992 -0.036582857 0.63859534
-0.010505461 -0.037519485 0.63575804
-0.010346569 -0.038430095 0.63301808
-0.010197931 -0.039334863 0.63045496
-0.010056881 -0.040227532 0.62802267
-0.0099328738 -0.041150481 0.62588418
-0.010028949 -0.042981222 0.62754095
-0.0099121006 -0.043896466 0.62552595
-0.0099149626 -0.045325547 0.6255753
-0.016400369 0.043734312 0.78454781
-0.01534341 0.038358539 0.76328355
-0.014433566 0.033678323 0.7449789
-0.013639948 0.029553205 0.72901249
-0.012938863 0.025877744 0.71490777
-0.012306324 0.02256161 0.70218205
-0.011744913 0.019574851 0.69088733
-0.011234296 0.016851455 0.68061453
-0.010766229 0.014354974 0.67119771
-0.010335639 0.012058228 0.66253495
-0.010020099 0.010020077 0.6561867
-0.0096554877 0.0080462396 0.64885139
-0.0093165087 0.0062109828 0.64203161
-0.00900055 0.0045002401 0.63567507
-0.0087052947 0.0029017329 0.62973493
-0.0084287953 0.0014047623 0.62417221
-0.0081723435 -0 0.61901283
-0.007968572 -0.0013281107 0.61491323
-0.0079069529 -0.0026356578 0.61367351
-0.014454274 -0.0072271526 0.74539548
-0.014021543 -0.0093476772 0.73668957
-0.013551411 -0.011292845 0.72723126
-0.013159371 -0.013159394 0.71934402
-0.012807271 -0.014941812 0.71226037
-0.012492 -0.016656011 0.70591754
-0.012202036 -0.018303037 0.70008391
-0.011934281 -0.019890457 0.69469714
-0.011685527 -0.021423459 0.68969262
-0.011451209 -0.022902399 0.68497843
-0.011227993 -0.024327278 0.68048769
-0.011012909 -0.025696814 0.67616051
-0.01080556 -0.027013898 0.67198902
-0.010609847 -0.028292954 0.6680516
-0.010422257 -0.029529721 0.66427755
-0.01025087 -0.030752599 0.66082948
-0.010096052 -0.031970829 0.65771484
-0.010171648 -0.033905476 0.65923566
-0.010028332 -0.035099179 0.6563524
-0.0098766359 -0.036214322 0.65330052
-0.0097252065 -0.037279963 0.65025395
-0.0095735844 -0.038294345 0.64720356
-0.009426618 -0.039277583 0.64424682
-0.0092803929 -0.040215015 0.64130503
-0.009137162 -0.041117221 0.63842344
-0.0089983111 -0.041992128 0.63562995
-0.0088632507 -0.04283905 0.63291276
-0.0087303817 -0.043651909 0.63023961
-0.0086014383 -0.044440746 0.62764549
-0.0084985392 -0.045325547 0.6255753
-0.013078063 0.041849822 0.77033031
-0.012314887 0.036944687 0.75190568
-0.011648712 0.032616377 0.73582274
-0.01105096 0.028732508 0.72139168
-0.010511561 0.025227755 0.70836949
-0.010031531 0.022069395 0.69678056
-0.0095934654 0.019186974 0.68620467
-0.0091920244 0.016545653 0.67651308
-0.008822863 0.014116555 0.66760069
-0.0085464185 0.011965007 0.66092676
-0.0082306117 0.0098767579 0.65330243
-0.0079391003 0.0079391301 0.64626479
-0.0076675322 0.0061340332 0.63970852
-0.0074140597 0.0044484735 0.63358915
-0.0071767895 0.0028707385 0.62786096
-0.0069542541 0.0013908744 0.62248844
-0.0067457585 -0 0.61745489
-0.0066208993 -0.001324147 0.61444056
-0.006583977 -0.0026335716 0.61354917
-0.011814903 -0.0070889294 0.7398349
-0.011531236 -0.0092250109 0.73298663
-0.011260314 -0.011260301 0.72644591
-0.011001732 -0.013202041 0.72020322
-0.010759478 -0.015063286 0.71435469
-0.010535376 -0.016856611 0.70894444
-0.010333763 -0.018600792 0.70407701
-0.010378389 -0.020756781 0.70515442
-0.010195713 -0.022430569 0.70074421
-0.010008175 -0.024019599 0.69621658
-0.0098164594 -0.025522768 0.69158822
-0.0096316924 -0.026968718 0.68712753
-0.0094489669 -0.028346926 0.68271619
-0.0092714299 -0.029668599 0.67843008
-0.0091004083 -0.030941397 0.67430121
-0.0089333812 -0.032160193 0.67026877
-0.0087718815 -0.033333123 0.66636992
-0.0086161476 -0.034464568 0.66261011
-0.008465847 -0.035556585 0.65898156
-0.0083207004 -0.03661105 0.6554774
-0.008180446 -0.037630051 0.65209132
-0.0080448426 -0.038615227 0.6488176
-0.0079136612 -0.039568305 0.64565063
-0.0077866893 -0.040490806 0.64258522
-0.007663704 -0.041384012 0.63961607
-0.0075440882 -0.042246878 0.63672829
-0.0074280603 -0.043082744 0.63392717
-0.0073155477 -0.043893278 0.63121086
-0.0072064134 -0.044679731 0.6285761
-0.0071004676 -0.045442984 0.6260184
-0.010788246 0.045850068 0.7801621
-0.010164266 0.040657073 0.7613318
-0.0096085183 0.036031932 0.7445606
-0.0091104349 0.031886488 0.72952962
-0.0086629074 0.028154463 0.71602434
-0.0082616871 0.024785042 0.70391643
-0.0078960164 0.021714061 0.69288129
-0.0075613433 0.018903375 0.6827817
-0.0072538876 0.016321272 0.67350334
-0.0069704582 0.01394093 0.66495013
-0.0067569916 0.011824727 0.65850818
-0.0065126694 0.0097690225 0.65113509
-0.0062866625 0.007858336 0.64431477
-0.0060758339 0.0060758591 0.63795245
-0.0058786874 0.004409045 0.63200301
-0.0056939325 0.0028470159 0.62642753
-0.0055204364 0.0013801157 0.62119186
-0.0053572012 -0 0.61626577
-0.0052843983 -0.0013210773 0.61406875
-0.0052671819 -0.0026335716 0.61354917
-0.0099565471 -0.0074673891 0.7550633
-0.0097136777 -0.0097136796 0.74773413
-0.0094803972 -0.011850476 0.74069422
-0.0092561757 -0.013884246 0.73392779
-0.0090406407 -0.015821129 0.72742337
-0.0088349143 -0.017669827 0.72121507
-0.0086383428 -0.01943624 0.71528298
-0.0084502921 -0.021125704 0.70960808
-0.0082702897 -0.022743285 0.70417595
-0.0080977948 -0.024293393 0.69897056
-0.0079323491 -0.025780112 0.69397771
-0.0077729248 -0.027205229 0.68916667
-0.0076196659 -0.028573751 0.6845417
-0.007472306 -0.029889226 0.68009472
-0.0073305648 -0.031154871 0.67581725
-0.0071940743 -0.032373309 0.67169833
-0.0070625739 -0.033547223 0.66772997
-0.0069358186 -0.034679115 0.66390479
-0.0068135108 -0.035770923 0.66021377
-0.0066954405 -0.036824912 0.65665072
-0.0065814145 -0.037843138 0.65320969
-0.0064711869 -0.038827121 0.64988327
-0.0063644685 -0.039777935 0.64666277
-0.0062609585 -0.040696263 0.64353907
-0.0061607622 -0.041585118 0.64051533
-0.0060637216 -0.042446047 0.63758689
-0.0059696911 -0.043280244 0.63474923
-0.0058785318 -0.044088989 0.6319983
-0.0057901149 -0.044873387 0.62933004
-0.0057043186 -0.045634538 0.62674093
-0.0079186158 0.044872195 0.77321839
-0.0074761505 0.039872825 0.75541496
-0.0070805158 0.035402626 0.73949587
-0.0067234444 0.031376094 0.72512841
-0.0063985311 0.027726978 0.71205491
-0.0060987622 0.024395078 0.69999313
-0.0058230446 0.021351188 0.68889916
-0.0055675418 0.018558472 0.67861849
-0.0053295223 0.015988588 0.66904128
-0.0051291129 0.013677627 0.66097748
-0.0050251442 0.011725366 0.65679407
-0.0048468551 0.0096937418 0.64962029
-0.0046807691 0.0078012943 0.64293754
-0.0045257295 0.0060342848 0.6366992
-0.0043807332 0.0043807328 0.63086504
-0.0042447275 0.0028298199 0.62539256
-0.004116924 0.0013723075 0.62025011
-0.0039965804 -0 0.61540788
-0.0039563421 -0.0013187528 0.61378878
-0.0039503966 -0.0026335716 0.61354959
-0.0075472314 -0.0075472295 0.75827515
-0.0073556937 -0.0098076165 0.75056827
-0.0071736029 -0.011956006 0.74324143
-0.0070003099 -0.014000595 0.73626864
-0.0068352222 -0.015948892 0.729626
-0.0066773556 -0.017806292 0.72327399
-0.0065264185 -0.019579262 0.71720076
-0.0063821538 -0.021273851 0.71139592
-0.006244129 -0.022895157 0.70584226
-0.0061119478 -0.024447769 0.70052373
-0.0059852479 -0.025936067 0.69542569
-0.0058636926 -0.027363896 0.69053471
-0.0057469779 -0.028734893 0.68583846
-0.0056348178 -0.030052334 0.6813255
-0.0055269524 -0.03131938 0.67698532
-0.0054231388 -0.032538831 0.67280817
-0.005323153 -0.033713311 0.66878504
-0.0052267876 -0.034845263 0.66490763
-0.0051336386 -0.035935491 0.66115963
-0.0050432771 -0.036984026 0.65752369
-0.0049560578 -0.037996471 0.65401435
-0.0048710606 -0.038968474 0.65059423
-0.0047886856 -0.039905727 0.64727974
-0.0047090505 -0.040811777 0.64407545
-0.004631049 -0.041679472 0.64093697
-0.004555603 -0.042518944 0.63790119
-0.0044822148 -0.043328077 0.63494831
-0.0044103498 -0.044103473 0.63205665
-0.004340753 -0.044854417 0.62925631
-0.0042717378 -0.045565203 0.62647939
-0.0042600022 -0.046860024 0.6260072
-0.0054068593 0.048661739 0.78093076
-0.0050437618 0.042871982 0.75901586
-0.0047306083 0.037844867 0.7401154
-0.004454067 0.033405483 0.72342467
-0.0042108698 0.029476106 0.70874637
-0.0040020533 0.026013374 0.69614315
-0.0038129541 0.022877753 0.68473005
-0.0036409316 0.020025104 0.67434758
-0.0034837609 0.017418832 0.66486144
-0.0034115983 0.01535219 0.66050607
-0.003419362 0.013677478 0.66097468
-0.0033309611 0.01165837 0.65563917
-0.0032139888 0.0096419752 0.64857936
-0.0031049533 0.0077623725 0.64199847
-0.0030030734 0.0060061514 0.63584942
-0.0029076752 0.0043615103 0.63009161
-0.0028181516 0.0028181672 0.62468839
-0.0027339756 0.0013669729 0.61960793
-0.0026554151 -0 0.61486638
-0.0026342981 -0.0013171136 0.61359185
-0.0026335909 -0.0026335716 0.61354917
-0.0026397877 -0.0039596558 0.61392325
-0.004916444 -0.0098328888 0.75133157
-0.0047852146 -0.01196304 0.74341118
-0.0046532233 -0.013959676 0.73544478
-0.0045243464 -0.015835196 0.72766638
-0.0044073015 -0.017629236 0.72060215
-0.004298504 -0.019343257 0.71403563
-0.004194913 -0.020974606 0.70778328
-0.0040977574 -0.022537649 0.7019195
-0.0040058019 -0.024034798 0.69636941
-0.0039178981 -0.025466353 0.691064
-0.0038337696 -0.026836395 0.6859864
-0.0037531781 -0.02814883 0.68112224
-0.0036762019 -0.029409587 0.67647636
-0.0036027092 -0.030623019 0.6720407
-0.0035321095 -0.031788975 0.66777956
-0.003464224 -0.032910138 0.66368228
-0.0033989102 -0.033989072 0.65974027
-0.0033360024 -0.03502804 0.65594351
-0.0032753807 -0.03602919 0.65228462
-0.0032169337 -0.036994725 0.64875704
-0.0031605253 -0.037926286 0.64535254
-0.0031063126 -0.038828909 0.64208049
-0.0030540118 -0.039702147 0.63892382
-0.0030034429 -0.040546447 0.63587177
-0.0029545305 -0.041363418 0.63291961
-0.002907177 -0.042154044 0.63006151
-0.0028613172 -0.042919755 0.62729371
-0.0028257191 -0.043798655 0.62514514
-0.0028328383 -0.045325413 0.62557483
-0.0028400014 -0.046860024 0.6260072
-0.0026875583 0.051063597 0.77901489
-0.0025248204 0.045446783 0.75937074
-0.002380677 0.040471464 0.74197102
-0.0022521031 0.03603366 0.7264508
-0.0021367054 0.03205061 0.71252108
-0.0020325575 0.028455824 0.69994926
-0.0019380826 0.025195122 0.68854517
-0.0018520073 0.022224069 0.67815495
-0.0017732525 0.019505769 0.66864842
-0.001701906 0.017019063 0.66003615
-0.0017057991 0.01535219 0.66050607
-0.0017094474 0.0136756 0.66094649
-0.0016603078 0.011622161 0.65501481
-0.0016022756 0.0096136332 0.64800966
-0.0015481728 0.007740885 0.6414789
-0.0014976133 0.0059904456 0.63537586
-0.0014502517 0.0043507814 0.62965876
-0.0014057938 0.0028116107 0.62429219
-0.0013639806 0.0013639927 0.61924493
-0.0013267922 2.9802322e-08 0.61475587
-0.00131621 -0.0013162196 0.61347854
-0.0013167955 -0.0026335716 0.61354917
-0.0013198904 -0.003959626 0.61392277
-0.0023900587 -0.0095602572 0.74310356
-0.0023298727 -0.01164937 0.73583847
-0.0022726536 -0.013635963 0.72893143
-0.0022181678 -0.015527189 0.72235447
-0.0021662428 -0.017329931 0.71608657
-0.0021166841 -0.019050151 0.71010429
-0.002069351 -0.020693511 0.7043907
-0.0020240804 -0.022264868 0.69892603
-0.0019807557 -0.023769081 0.69369632
-0.0019392396 -0.025210083 0.68868482
-0.0018994279 -0.026591957 0.68387914
-0.001861225 -0.027918339 0.67926764
-0.0018245218 -0.029192358 0.67483723
-0.0017892446 -0.030417174 0.67057884
-0.0017552995 -0.031595379 0.66648132
-0.0017226243 -0.032729864 0.6625371
-0.0016911379 -0.033822745 0.65873635
-0.0016607817 -0.034876406 0.65507197
-0.0016315014 -0.035893023 0.6515376
-0.0016032305 -0.036874294 0.64812493
-0.0015759276 -0.037822276 0.64482921
-0.0015495344 -0.03873837 0.64164329
-0.0015240106 -0.039624274 0.63856226
-0.0014993185 -0.040481597 0.63558167
-0.0014754095 -0.041311473 0.63269562
-0.0014522553 -0.04211536 0.62990057
-0.0014298124 -0.042894363 0.62719154
-0.0014128595 -0.043798655 0.62514514
-0.0014164231 -0.045325547 0.6255753
-0.0014200007 -0.046860024 0.6260072
0 0.050848931 0.77765107
0 0.045249969 0.7580508
0 0.040291309 0.74069148
0 0.0358693 0.72521091
0 0.031901389 0.7113207
0 0.028320849 0.69878578
0 0.025073647 0.68741792
0 0.02211988 0.67710656
0 0.019418687 0.66769314
0 0.017019063 0.66003615
0 0.01535219 0.66050607
0 0.013674945 0.66093659
0 0.011615098 0.65489316
0 0.0096077025 0.64788961
0 0.0077361763 0.64136565
0 0.0059868991 0.63526821
0 0.0043481588 0.62955582
0 0.0028100014 0.62419361
0 0.0013632178 0.6191507
0 -0 0.61472535
0 -0.0013159811 0.6134485
0 -0.0026335716 0.61354917
0 -0.003959626 0.61392277
0 -0.0095981061 0.74424636
0 -0.011694014 0.73691642
0 -0.013686508 0.72994953
0 -0.015582979 0.72331703
0 -0.017390221 0.71699649
0 -0.019114435 0.71096653
0 -0.020761162 0.70520741
0 -0.022335529 0.69970137
0 -0.023842245 0.69443214
0 -0.025285572 0.68938547
0 -0.026669323 0.68454605
0 -0.027997226 0.67990208
0 -0.029272527 0.67544198
0 -0.030498296 0.67115498
0 -0.031677395 0.66703129
0 -0.032812566 0.66306245
0 -0.033905953 0.65923846
0 -0.034959972 0.65555227
0 -0.035976678 0.65199649
0 -0.036958009 0.64856434
0 -0.037905812 0.64524961
0 -0.038821906 0.64204669
0 -0.039707631 0.63894916
0 -0.040564775 0.63595343
0 -0.041394949 0.63305557
0 -0.042199075 0.63024884
0 -0.042978138 0.62752855
0 -0.043798655 0.62514514
0 -0.045325413 0.62557483
0 -0.046860024 0.6260072
0.0026204619 0.047168314 0.77091563
0.002454171 0.041720867 0.75084257
0.0023101124 0.036961794 0.73345315
0.002182038 0.03273055 0.7179932
0.0020674102 0.028943777 0.7041564
0.0019670045 0.025571048 0.69203639
0.0018763921 0.022516727 0.68109846
0.0017937667 0.019731432 0.6711247
0.0017181112 0.017181128 0.66199231
0.0017057991 0.01535219 0.66050607
0.0017095933 0.013676763 0.66096407
0.0016624811 0.01163739 0.65527713
0.0016040683 0.0096244216 0.64822608
0.0015496832 0.007748425 0.64166123
0.0014988694 0.0059954524 0.63552749
0.0014512823 0.0043538213 0.62978321
0.0014066237 0.00281322 0.62439245
0.0013646317 0.0013646185 0.61932355
0.0013269576 -0 0.6147759
0.001316397 -0.0013163686 0.61350107
0.0013167955 -0.0026335716 0.61354917
0.0013198904 -0.003959626 0.61392277
0.0013229999 -0.0052919984 0.61429811
0.0023714923 -0.01185745 0.74086237
0.0023111901 -0.01386714 0.73358321
0.0022538784 -0.015777141 0.72666514
0.0021993404 -0.017594725 0.72008181
0.0021473796 -0.019326389 0.71380955
0.0020978171 -0.020978183 0.70782685
0.0020504908 -0.022555381 0.70211411
0.002005253 -0.024063021 0.69665337
0.0019619679 -0.025505632 0.69142842
0.0019205121 -0.026887149 0.6864242
0.0018807719 -0.028211564 0.68162715
0.0018426431 -0.029482275 0.67702466
0.001806388 -0.030708581 0.67264825
0.0017715635 -0.031888127 0.66844457
0.0017380564 -0.033023089 0.66439992
0.0017057933 -0.034115881 0.66050541
0.001674706 -0.035168827 0.65675282
0.0016447316 -0.036184102 0.65313458
0.0016158114 -0.037163675 0.64964366
0.0015878906 -0.038109392 0.64627326
0.0015609183 -0.039022982 0.64301747
0.0015348471 -0.039905995 0.63987029
0.0015096324 -0.0407601 0.63682669
0.0014852327 -0.041586518 0.63388139
0.0014616094 -0.042386681 0.63102978
0.0014387257 -0.04316178 0.62826747
0.0014165476 -0.043912962 0.62559032
0.0014164192 -0.045325413 0.62557483
0.0014200007 -0.046860024 0.6260072
0.0052559804 0.044675857 0.77182442
0.0049582697 0.039666146 0.75385594
0.0046909149 0.03518188 0.73771966
0.0044452432 0.031116724 0.72289205
0.0042166011 0.027407914 0.70909232
0.0040068123 0.024040878 0.69643044
0.0038080059 0.020944029 0.68443143
0.0036160268 0.018080175 0.67284441
0.0034447508 0.01550138 0.66250706
0.0034194086 0.013677627 0.66097748
0.0033399549 0.011689842 0.65618199
0.0032214073 0.0096642375 0.64902705
0.0031111992 0.0077780187 0.64237541
0.0030082825 0.0060165823 0.63616383
0.0029119565 0.0043679476 0.63035005
0.0028219102 0.0028219223 0.62491524
0.0027372662 0.0013686121 0.61980659
0.0026576861 2.9802322e-08 0.61500347
0.0026352415 -0.0013175905 0.61364883
0.0026335909 -0.0026335716 0.61354917
0.0026397808 -0.003959626 0.61392277
0.0049114255 -0.0098228753 0.75102866
0.0047886497 -0.011971653 0.74361849
0.0046718838 -0.014015645 0.73657107
0.0045603034 -0.015961051 0.72983652
0.0044524618 -0.017809838 0.72332776
0.0043496219 -0.019573301 0.71712083
0.004251407 -0.021257013 0.71119308
0.0041575474 -0.022866517 0.70552814
0.0040677255 -0.024406344 0.70010698
0.0039817188 -0.025881171 0.69491595
0.0038982409 -0.027287692 0.68987757
0.0038179001 -0.02863422 0.68502861
0.0037408036 -0.029926419 0.6803754
0.0036667595 -0.031167448 0.67590648
0.0035955894 -0.032360286 0.67161095
0.0035271298 -0.033507735 0.66747904
0.0034612166 -0.034612179 0.66350085
0.003397733 -0.035676181 0.65966928
0.0033356575 -0.036692232 0.65592271
0.0032756168 -0.037669599 0.65229887
0.0032176888 -0.038612247 0.64880258
0.0031617838 -0.03952229 0.64542848
0.0031077787 -0.040401101 0.64216894
0.0030555876 -0.041250437 0.63901895
0.0030051298 -0.042071819 0.63597357
0.0029563024 -0.042866379 0.63302654
0.0029090445 -0.043635637 0.63017428
0.002863233 -0.044380084 0.62740934
0.0028328383 -0.045325413 0.62557483
0.0028400014 -0.046860024 0.6260072
0.0080437083 0.045581043 0.77825177
0.00757863 0.04041937 0.75953847
0.0071643926 0.035821944 0.74287081
0.0067957677 0.031713605 0.72803849
0.0064654187 0.028016835 0.7147463
0.0061657233 0.024662882 0.7026875
0.005892558 0.021606028 0.69169617
0.0056425915 0.018808663 0.68163824
0.0054122084 0.016236633 0.67236835
0.0051972712 0.013859421 0.66371995
0.0050461083 0.011774272 0.65763766
0.0048646359 0.0097292662 0.65033579
0.0046958071 0.0078263581 0.64354259
0.0045385095 0.0060513616 0.63721341
0.0043919482 0.0043919384 0.63131624
0.0042545572 0.0028363466 0.62578809
0.0041257273 0.0013752282 0.6206044
0.0040046088 -0 0.61573094
0.0039588357 -0.001319617 0.61388916
0.0039503863 -0.0026335716 0.61354917
0.0074952263 -0.0074952543 0.75618255
0.0073085269 -0.009744674 0.74867034
0.0071308687 -0.011884779 0.74152195
0.006961158 -0.013922304 0.73469329
0.0067985994 -0.015863448 0.72815245
0.0066434592 -0.017715901 0.72191012
0.006495269 -0.019485831 0.71594739
0.0063535199 -0.021178395 0.71024382
0.0062178248 -0.022798717 0.70478392
0.0060878047 -0.024351209 0.69955224
0.0059631113 -0.025840133 0.69453496
0.0058434233 -0.027269304 0.68971908
0.0057284236 -0.028642118 0.68509185
0.0056178835 -0.029962033 0.68064409
0.0055102748 -0.031224877 0.67631423
0.0054065944 -0.03243953 0.67214245
0.0053067431 -0.03360939 0.66812479
0.0052105314 -0.034736842 0.66425347
0.0051177288 -0.03582409 0.66051942
0.005028191 -0.03687343 0.65691674
0.0049416996 -0.037886351 0.6534366
0.0048567192 -0.038853735 0.6500172
0.0047746268 -0.039788544 0.64671409
0.0046952488 -0.040692151 0.64352018
0.0046184673 -0.041566223 0.64043069
0.0045441701 -0.042412251 0.63744122
0.0044722124 -0.043231368 0.6345458
0.0044024982 -0.044024974 0.63174075
0.0043349364 -0.044794321 0.6290223
0.0042693201 -0.045539409 0.62638205
0.0042600143 -0.046860173 0.62600768
0.010374486 0.041497946 0.7676757
0.0097758304 0.03665936 0.74960971
0.0092488192 0.032370865 0.7337057
0.0087756831 0.028520972 0.71942759
0.0083543845 0.025063157 0.7067138
0.0079732724 0.021926522 0.69521272
0.0076253852 0.019063473 0.68471426
0.0073066126 0.016439855 0.67509449
0.0070169643 0.014033914 0.66635352
0.0067991824 0.011898577 0.6597814
0.0065496685 0.0098245144 0.6522516
0.006317839 0.0078973174 0.64525557
0.0061018416 0.0061018467 0.63873726
0.0059002638 0.0044251978 0.63265413
0.0057133394 0.0028566718 0.62701321
0.005537957 0.0013844967 0.62172055
0.0053730211 -0 0.61674315
0.0052892026 -0.0013222694 0.61421371
0.0052671819 -0.0026335716 0.61354917
0.0098716384 -0.0074037015 0.75250095
0.0096304333 -0.0096304417 0.74522197
0.0094019268 -0.011752397 0.73832613
0.0091840541 -0.013776064 0.73175132
0.0089760507 -0.015708119 0.72547424
0.0087772608 -0.017554492 0.71947515
0.008584802 -0.019315779 0.71366715
0.0084004961 -0.02100122 0.70810527
0.0082239714 -0.02261591 0.70277816
0.0080546793 -0.024164021 0.69766939
0.0078922175 -0.025649726 0.69276667
0.0077361199 -0.027076423 0.68805593
0.0075861062 -0.028447896 0.68352896
0.0074417717 -0.029767066 0.67917323
0.0073025874 -0.03103596 0.67497301
0.0071677431 -0.032254845 0.67090368
0.0070377886 -0.033429503 0.666982
0.0069124866 -0.034562409 0.66320068
0.006791546 -0.035655588 0.65955091
0.0066747637 -0.036711216 0.65602672
0.0065619517 -0.0377312 0.65262228
0.0064528682 -0.03871721 0.64933044
0.0063473526 -0.039670944 0.64614624
0.0062452317 -0.040594012 0.6430645
0.0061463639 -0.041487962 0.64008087
0.0060505597 -0.042353928 0.63718975
0.0059576961 -0.04319331 0.63438731
0.0058676396 -0.044007301 0.63166964
0.0057794815 -0.044790983 0.62900925
0.0056936084 -0.045548841 0.62641776
0.013499862 0.043199599 0.78051335
0.012642475 0.037927419 0.75981426
0.011902988 0.033328354 0.74196148
0.011256513 0.029266924 0.72635424
0.01068257 0.025638163 0.71249801
0.010167248 0.022367954 0.70005703
0.0097070318 0.019414067 0.68894643
0.0092866765 0.016716003 0.67879814
0.0089011835 0.014241904 0.66949147
0.0085664652 0.011993051 0.66141069
0.0082926229 0.0099511445 0.65479958
0.0079913149 0.0079913139 0.64752531
0.0077111586 0.0061689019 0.64076179
0.0074504022 0.0044702291 0.63446653
0.0072095077 0.0028838217 0.62865078
0.0069837025 0.0013967454 0.62319946
0.0067716129 2.9802322e-08 0.61807907
0.0066285124 -0.0013256967 0.61462438
0.006583977 -0.0026335716 0.61354917
0.01241955 -0.0074517429 0.75443238
0.012050102 -0.0096400678 0.74551308
0.011701944 -0.011701941 0.73710787
0.01137334 -0.013648003 0.72917467
0.011083076 -0.015516311 0.72216707
0.010841398 -0.017346233 0.71633244
0.010607967 -0.019094318 0.71069694
0.010385022 -0.020770043 0.70531458
0.010171794 -0.022377968 0.70016676
0.0099671464 -0.023921162 0.69522613
0.0097705694 -0.0254035 0.69048035
0.0095815975 -0.026828468 0.68591809
0.0093997605 -0.028199285 0.68152827
0.0092247315 -0.029519141 0.6773026
0.0090561016 -0.030790746 0.6732316
0.0088919774 -0.032011122 0.66926926
0.0087332083 -0.033186197 0.66543621
0.0085800085 -0.034320027 0.66173768
0.0084321201 -0.035414904 0.65816736
0.0082892161 -0.036472529 0.65471727
0.0081510749 -0.037494928 0.65138227
0.0080174627 -0.038483828 0.64815664
0.0078881597 -0.039440781 0.64503497
0.0077629616 -0.040367365 0.64201236
0.0076416763 -0.041265011 0.63908428
0.0075240084 -0.042134434 0.63624358
0.00740912 -0.042972893 0.63346994
0.0072977077 -0.043786228 0.63078016
0.0071895765 -0.044575334 0.62816966
0.007084603 -0.045341447 0.62563533
0.016006874 0.040017188 0.77663136
0.014926431 0.034828305 0.7548945
0.014017485 0.030371189 0.73660791
0.013230121 0.02646026 0.72076738
0.012548601 0.023005784 0.70705628
0.011935278 0.019892126 0.69471717
0.011392157 0.017088264 0.68379045
0.01089829 0.014531076 0.67385459
0.010446083 0.012187093 0.66475689
0.010118237 0.010118246 0.6581611
0.0097381081 0.0081151128 0.65051353
0.0093855076 0.0062570274 0.64341974
0.0090575488 0.0045287609 0.63682175
0.0087563042 0.0029187799 0.63076115
0.0084749321 0.0014124811 0.62510037
0.00821108 2.9802322e-08 0.61979204
0.0079789273 -0.0013298392 0.61512154
0.0079177972 -0.0026392341 0.61389166
0.012889034 -0.019333541 0.71390527
0.012556106 -0.020926833 0.70720732
0.012239894 -0.022439778 0.7008456
0.011939265 -0.023878515 0.6947974
0.011653005 -0.02524817 0.68903828
0.011380151 -0.026553661 0.68354887
0.011163238 -0.027908087 0.67918491
0.010957479 -0.029219925 0.67504537
0.010759128 -0.0304842 0.6710549
0.010567869 -0.031703591 0.667207
0.01038329 -0.032880396 0.66349363
0.010205049 -0.034016848 0.6599077
0.010032823 -0.035114884 0.65644276
0.0098662823 -0.036176354 0.65309221
0.009705211 -0.037203282 0.64985168
0.0095493142 -0.038197249 0.64671528
0.0093983477 -0.039159775 0.64367807
0.0092520788 -0.040092319 0.64073539
0.0091092708 -0.040991694 0.63786232
0.0089700539 -0.041860253 0.63506144
0.0088350289 -0.042702615 0.63234496
0.0087040076 -0.043520063 0.62970906
0.0085768402 -0.044313669 0.62715065
0.0084985392 -0.045325547 0.6255753
0.018851487 0.037703007 0.77968013
0.017355921 0.032232434 0.75389004
0.016196961 0.027766228 0.73390448
0.015238248 0.023945838 0.71737206
0.014412262 0.020588934 0.70312846
0.013693986 0.017606586 0.69074225
0.01305436 0.014919281 0.6797123
0.012482396 0.012482435 0.6698491
0.012015885 0.010299355 0.6618045
0.011587243 0.0082766116 0.65441275
0.011150231 0.0063715875 0.64687669
0.010744984 0.0046049953 0.63988858
0.010371815 0.0029633939 0.63345343
0.010027571 0.0014325082 0.62751716
0.0097054429 -0 0.62196231
0.0094033675 -0.0013433397 0.61675322
0.0092721544 -0.002649188 0.61449051
0.0092392331 -0.003959626 0.61392277
0.009436938 -0.0053925216 0.6173321
0.0093051875 -0.0066465735 0.61506015
0.01294436 -0.02958712 0.67781544
0.012655499 -0.030734777 0.67283416
0.012199619 -0.031370431 0.66497278
0.01199186 -0.032549322 0.66139013
0.011790623 -0.033687472 0.65791994
0.011595375 -0.034786135 0.65455306
0.011406413 -0.035848737 0.65129447
0.011223548 -0.036877364 0.64814109
0.011045478 -0.037870198 0.64507037
0.010872296 -0.038829625 0.642084
0.010704461 -0.039759427 0.63918972
0.010541696 -0.040660828 0.636383
0.010383838 -0.041535318 0.63366079
0.010230608 -0.042383939 0.63101846
0.010081864 -0.043207988 0.62845343
0.0099373544 -0.04400827 0.62596142
0.020408336 0.030612558 0.76253593
0.018623024 0.025606692 0.73559767
0.017357595 0.021696985 0.71650386
0.016342513 0.018385351 0.70118737
0.015480797 0.015480816 0.6881851
0.014723306 0.012882888 0.67675543
0.014063857 0.010547906 0.66680515
0.013591855 0.0084949136 0.65968317
0.013042612 0.0065213442 0.65139574
0.012544404 0.0047041476 0.64387834
0.012082856 0.0030207336 0.63691413
0.011663506 0.0014579296 0.63058662
0.011273939 2.9802322e-08 0.62470847
0.010909555 -0.0013636947 0.61921042
0.01064253 -0.0026606619 0.61518133
0.010564278 -0.0039615929 0.61400056
0.010584 -0.0052919984 0.61429811
0.010608993 -0.0066306293 0.61467522
0.010634105 -0.0079755783 0.61505419
0.015959196 -0.013964266 0.69540358
0.015700052 -0.015700042 0.69149345
0.013764409 -0.030969918 0.66228682
0.01353743 -0.032151371 0.65886199
0.013316398 -0.033290982 0.65552682
0.013101866 -0.034392387 0.65228987
0.01289393 -0.035458297 0.64915228
0.012692492 -0.036490917 0.64611286
0.012496898 -0.037490666 0.64316154
0.01230656 -0.038458019 0.6402896
0.012120759 -0.039392442 0.63748604
0.011939844 -0.040297002 0.63475627
0.011764251 -0.041174918 0.63210678
0.01159378 -0.042027444 0.62953454
0.011428148 -0.042855561 0.62703538
0.011302876 -0.043798655 0.62514514
0.024491912 0.027213216 0.78309077
0.019885229 0.019885242 0.72130454
0.018449124 0.016399235 0.70204306
0.017358966 0.013501406 0.68742156
0.016457483 0.010971665 0.67533052
0.015674796 0.0087082088 0.66483295
0.015139444 0.0067286193 0.65765268
0.014505157 0.0048350692 0.64914542
0.013938256 0.0030973852 0.64154196
0.0134146 0.0014905035 0.63451856
0.012944288 -0 0.62821054
0.012505838 -0.0013895333 0.62232989
0.012097091 -0.0026882291 0.61684775
0.011944899 -0.0039816201 0.61480647
0.011906967 -0.0052919984 0.61429775
0.011935117 -0.0066306293 0.61467522
0.011963337 -0.0079755485 0.61505371
0.017900996 -0.013923019 0.69469142
0.017469134 -0.015528142 0.68889916
0.017057553 -0.017057538 0.68337893
0.016675349 -0.018528193 0.6782527
0.01633605 -0.019966274 0.67370188
0.016038336 -0.021384418 0.66970885
0.015813895 -0.022842288 0.66669858
0.015508692 -0.029294193 0.66260511
0.015258817 -0.030517608 0.65925366
0.015015865 -0.031700134 0.65599513
0.014779266 -0.032842845 0.65282184
0.01454841 -0.033946306 0.64972556
0.014324701 -0.035015911 0.64672506
0.014107723 -0.036053061 0.64381492
0.013896706 -0.037057877 0.64098465
0.013690493 -0.038029164 0.63821888
0.013488572 -0.038966954 0.63551068
0.013292405 -0.039877236 0.63287961
0.013101861 -0.040761352 0.63032395
0.012916701 -0.041620463 0.62784058
0.012736703 -0.042455718 0.62542641
0.026809201 0.024128258 0.77821362
0.025352212 0.020281762 0.7606262
0.021290865 0.014903635 0.71160138
0.019518118 0.011710912 0.69020247
0.018330036 0.0091650188 0.67586106
0.017362712 0.0069450736 0.66418439
0.016749753 0.00502491 0.65678537
0.016002821 0.0032005906 0.64776909
0.01535431 0.0015354753 0.63994086
0.014758534 -0 0.6327492
0.014228516 -0.0014228821 0.62635136
0.01373521 -0.0027470589 0.62039655
0.013347914 -0.0040043592 0.61572146
0.013254391 -0.0053017437 0.61459255
0.013261242 -0.0066306293 0.61467522
0.020113468 -0.012068093 0.69738895
0.019725332 -0.013807684 0.69270378
0.01932857 -0.015462875 0.68791437
0.018934619 -0.017041177 0.68315899
0.018533792 -0.018533796 0.67832065
0.018143861 -0.019958258 0.67361367
0.017750328 -0.021300405 0.6688633
0.017367173 -0.022577345 0.66423827
0.016999979 -0.023799956 0.65980577
0.016665511 -0.024998277 0.65576845
0.016366566 -0.026186496 0.65215981
0.016104341 -0.027377397 0.64899451
0.015906569 -0.028631836 0.64660716
0.016418444 -0.031195015 0.65278608
0.016170438 -0.032340884 0.64979237
0.015927328 -0.033447385 0.6468578
0.01569142 -0.034521133 0.64401013
0.015462399 -0.035563529 0.6412456
0.015238945 -0.03657347 0.63854825
0.015019379 -0.037548453 0.63589787
0.014804559 -0.038491845 0.63330477
0.014595799 -0.039408654 0.63078481
0.014392844 -0.040299922 0.62833488
0.014195455 -0.041166812 0.62595224
0.014093099 -0.042279288 0.62471664
0.026094703 0.01423347 0.74095327
0.024935989 0.011334509 0.72823793
0.020650147 0.0075091422 0.68120641
0.019277997 0.0052576661 0.66614884
0.018503578 0.0033643246 0.65765059
0.017601021 0.0016001165 0.64774621
0.0168269 -2.9802322e-08 0.63925123
0.016139226 -0.0014671981 0.63170493
0.015535008 -0.0028245449 0.62507445
0.014977575 -0.0040847957 0.61895728
0.014674327 -0.0053361058 0.61562955
0.014587365 -0.0066306293 0.61467522
0.016139226 -0.0088031888 0.63170493
0.021081533 -0.013415515 0.68594027
0.020798881 -0.015126467 0.68283856
0.020489557 -0.016764164 0.67944407
0.020155951 -0.0183236 0.67578328
0.019801 -0.019800991 0.67188811
0.01943614 -0.021203041 0.66788423
0.019073371 -0.022541225 0.66390336
0.018706966 -0.023808867 0.65988255
0.018345138 -0.025016069 0.65591192
0.01798716 -0.026163131 0.65198356
0.017628927 -0.027244717 0.64805245
0.017284576 -0.028283834 0.64427364
0.016957493 -0.029290229 0.64068437
0.016661959 -0.030294478 0.63744122
0.016394889 -0.031299323 0.63451046
0.016158795 -0.032317609 0.63191968
0.015983205 -0.03341943 0.62999272
0.016516656 -0.036036342 0.63584673
0.01628704 -0.037016004 0.63332701
0.016062548 -0.037966013 0.63086349
0.015844161 -0.038890183 0.62846696
0.015631631 -0.039789617 0.62613475
0.015463645 -0.040767804 0.6242913
0.026817266 0.0089390874 0.7243588
0.025625912 0.006406486 0.71237469
0.022129076 0.0036881566 0.67719924
0.020724721 0.0017270744 0.66307253
0.019397568 -0 0.6497224
0.018414494 -0.0015345216 0.63983345
0.01760323 -0.0029338598 0.63167274
0.016892307 -0.0042231083 0.62452143
0.016255347 -0.0054184198 0.61811411
0.016018864 -0.0066744983 0.61573523
0.015951116 -0.0079755485 0.61505371
0.01685513 -0.0098321736 0.62414747
0.016560853 -0.011040568 0.62118727
0.016303148 -0.012227327 0.61859494
0.021321269 -0.017767727 0.66907334
0.021064555 -0.019309193 0.66649097
0.020802122 -0.02080214 0.66385114
0.020506222 -0.022215068 0.66087461
0.02019156 -0.023556799 0.65770936
0.019864501 -0.02483061 0.65441936
0.019526634 -0.026035517 0.65102071
0.019190498 -0.027186543 0.64763939
0.018853711 -0.028280586 0.64425159
0.018516371 -0.029317588 0.64085823
0.018189456 -0.030315757 0.63756973
0.017853105 -0.031242937 0.63418627
0.017528968 -0.03213641 0.63092577
0.017216245 -0.032997787 0.62777996
0.016925162 -0.033850312 0.62485194
0.016702188 -0.034796238 0.62260902
0.016743686 -0.03627798 0.62302643
0.017030971 -0.038319707 0.62591624
0.016827308 -0.039263725 0.62386751
0.027799491 0.0042768717 0.71272826
0.026242662 0.0020186603 0.69827247
0.025252884 -0 0.68908203
0.02234995 -0.0017192066 0.66212696
0.020330627 -0.0031278133 0.64337665
0.019230166 -0.0044377148 0.63315845
0.018347384 -0.0056453347 0.62496138
0.017605098 -0.0067711771 0.61806893
0.017387448 -0.0080249906 0.61604798
0.017321421 -0.009326905 0.61543489
0.01736257 -0.010684669 0.61581695
0.017403962 -0.0120489 0.61620128
0.017445551 -0.013419658 0.61658752
0.017487342 -0.014796972 0.61697549
0.019738551 -0.018220186 0.63787901
0.019641696 -0.019641668 0.63697964
0.021288302 -0.022925854 0.65226912
0.021047076 -0.024285108 0.65002918
0.02079602 -0.025595099 0.64769804
0.02052041 -0.026834399 0.64513892
0.020221664 -0.027999222 0.64236486
0.01991849 -0.029111624 0.63954979
0.019603929 -0.030159891 0.63662899
0.01929079 -0.031162024 0.63372135
0.018979743 -0.032119542 0.63083309
0.018663721 -0.033020467 0.62789875
0.018358052 -0.033891767 0.62506044
0.018094087 -0.034796298 0.62260944
0.018138994 -0.03627798 0.62302643
0.018184125 -0.037767023 0.62344545
0.026822824 -0.0019159019 0.6858694
0.025824964 -0.0036892891 0.67726576
0.024893818 -0.0053343773 0.6692372
0.021407221 -0.0061163306 0.63917506
0.020058472 -0.0071637034 0.62754589
0.019093126 -0.0081827641 0.61922252
0.018787719 -0.009393841 0.61658925
0.018698154 -0.010684669 0.61581695
0.018742729 -0.0120489 0.61620128
0.018787567 -0.013419688 0.61658794
0.018832522 -0.014796972 0.61697549
0.020675547 -0.017721891 0.63286644
0.020381205 -0.018925399 0.6303286
0.020107469 -0.020107478 0.62796837
0.019890793 -0.021311581 0.62610018
0.019744297 -0.022564918 0.62483704
0.021482389 -0.026085764 0.63982314
0.021260127 -0.027334422 0.63790679
0.021032054 -0.028543472 0.63594031
0.020788508 -0.029697865 0.63384044
0.020532526 -0.030798763 0.63163328
0.020247655 -0.031817734 0.62917709
0.019965114 -0.03279984 0.62674093
0.019670669 -0.033721149 0.62420219
0.019485885 -0.034796238 0.62260902
0.019534301 -0.03627798 0.62302643
0.027471608 -0.0054942966 0.67567235
0.026370475 -0.0070321262 0.66681111
0.026432794 -0.0088109374 0.66731262
0.026495311 -0.010598123 0.66781574
0.020952921 -0.0097780526 0.62321401
0.020229422 -0.010789037 0.61739171
0.020133046 -0.012079835 0.61661619
0.020129483 -0.013419658 0.61658752
0.021884507 -0.01604861 0.63071078
0.02168351 -0.017346799 0.62909335
0.021406142 -0.018551975 0.62686121
0.021097161 -0.019690692 0.62437475
0.020785801 -0.020785809 0.62186915
0.020507898 -0.021875083 0.61963272
0.020471875 -0.023201466 0.61934286
0.020521749 -0.024626106 0.61974424
0.020571869 -0.02605769 0.62014753
0.021648299 -0.028864384 0.62880993
0.021442531 -0.030019522 0.62715411
0.021232823 -0.03114146 0.62546647
0.021019055 -0.032229215 0.62374622
0.020826176 -0.033321887 0.62219405
0.020877736 -0.034796238 0.62260902
0.028261665 -0.010598123 0.66781574
0.022083025 -0.012421697 0.62120152
0.021638939 -0.013524383 0.61785114
0.021560267 -0.014822662 0.61725754
0.021574561 -0.016180933 0.61736542
0.021626489 -0.017571539 0.6177572
0.021925837 -0.019185126 0.62001562
0.021731867 -0.020373613 0.61855221
0.021783786 -0.021783799 0.61894387
0.021836666 -0.023201466 0.61934286
0.021889867 -0.024626106 0.61974424
0.021943325 -0.02605769 0.62014753
0.021997046 -0.027496308 0.62055284
0.022051031 -0.028941959 0.62096012
0.022105342 -0.030394852 0.62136984
