# .PCD v0.7 - Point Cloud Data file format
VERSION 0.7
FIELDS x y z
SIZE 4 4 4
TYPE F F F
COUNT 1 1 1
WIDTH 257
HEIGHT 1
VIEWPOINT 0 0 0 1 0 0 0
POINTS 257
DATA ascii
-0.0031110249 -0.054442957 0.64236492
-0.009389882 -0.061034217 0.64350772
0 -0.050190717 0.64392757
0.012703246 -0.060340434 0.6462751
-0.012841933 -0.056183457 0.6483677
0.0081293304 -0.048775971 0.65085727
-0.0016196505 -0.040491283 0.65010703
0.0016225444 -0.040563643 0.65045643
0 -0.039011657 0.65081143
0.018064082 -0.06404537 0.65282768
-0.016470598 -0.052705914 0.65341562
0.018179353 -0.067759395 0.65409267
-0.013320916 -0.044958115 0.655595
-0.008302833 -0.041514158 0.65504611
-0.021769648 -0.058610618 0.65673864
0.0084336558 -0.037108064 0.65820432
-0.0067487666 -0.035431027 0.65825999
-0.0033931823 -0.027145475 0.65939462
-0.0017045847 -0.02386418 0.66035944
-0.0017045847 -0.02386418 0.66035944
-0.01543798 -0.03773725 0.66165668
-0.008578361 -0.03088212 0.66169792
0.020709638 -0.048322469 0.66292083
0.018959377 -0.046536654 0.66265237
0 -0.020632297 0.66214269
0.025964063 -0.065775618 0.6635406
0.027944801 -0.066368893 0.66542518
0.020935217 -0.045359641 0.66518992
-0.005231305 -0.022668988 0.66508943
-0.0034933561 -0.017466754 0.66544062
0 -0.015700907 0.66518337
-0.028033948 -0.063076347 0.6660977
0.0053013642 -0.019438297 0.66790837
0 -0.01233229 0.66726094
0.019523837 -0.035497874 0.66884661
0.019523837 -0.035497874 0.66884661
-0.0035634781 -0.010690421 0.66967285
0.010713974 -0.019642293 0.67014647
-0.01979872 -0.028798133 0.67186314
0.0072674002 -0.010901123 0.67391109
0.001821765 -0.0018217564 0.67450434
-0.0036552013 -0.0018275678 0.67520881
-0.01663992 -0.081350714 0.67777747
0.016637953 -0.025881261 0.67775106
-0.011069515 -0.0073796809 0.67729938
-0.0055280309 -0.0036853552 0.67702878
-0.0055566803 -0.0018522441 0.67818153
0.014898722 -0.080080628 0.67940229
0.014898722 -0.080080628 0.67940229
0.011159255 -0.0055796504 0.6791048
0.0093529532 -0.0018706024 0.68039823
0 -0.082610533 0.68123358
-0.011300773 2.9802322e-08 0.68195188
0.0018794509 0.0093972683 0.68146777
-0.0018877115 -0.081171602 0.68246484
0.013212435 -0.077387109 0.68243819
-0.0094274599 0.0018855035 0.68219697
-0.026591789 -0.032290012 0.68387741
0.0076231482 -0.080043033 0.68464679
-0.028550813 -0.034260958 0.68435705
-0.0076677445 -0.078594401 0.6859926
-0.0038259279 -0.078431532 0.68551314
-0.0095771598 0.0076617301 0.68581104
-0.0038422924 -0.076845825 0.68650079
-0.025011873 -0.023087889 0.68684411
-0.0057842485 -0.077123314 0.68733811
0.0096542155 0.0096542239 0.6876713
-0.015496498 0.0058111846 0.68842208
0.015695434 -0.0058857501 0.69142371
0.0078590577 0.01768285 0.69176596
-0.015754802 0.011816144 0.69231951
-0.0079280753 0.021802187 0.69384873
-0.011925275 0.019875467 0.69451594
0.015968809 0.0019961298 0.69554865
0.015968809 0.0019961298 0.69554865
-0.028012356 -0.014006168 0.69612581
-0.028012356 -0.014006168 0.69612581
-0.016022438 0.018025249 0.69635785
0.0080334386 0.026108652 0.6970284
-0.0020114437 0.036205977 0.69740063
-0.028332425 -0.010118753 0.69888556
0.024285622 -0.0060713887 0.69889241
0.0081697218 0.032678902 0.70114112
-0.012335146 0.032893747 0.70276189
-0.012335146 0.032893747 0.70276189
0.024719143 2.9802322e-08 0.70325327
-0.012406203 0.035150886 0.70419145
0.0020776342 0.04778558 0.70539057
0.025145233 0.0062863231 0.70753944
0.010499606 0.041998446 0.70808089
0.016861288 0.02529195 0.70901513
0.021107998 0.02532956 0.70939398
-0.019091183 0.036061138 0.71065462
-0.019330066 0.040807903 0.71385849
-0.015007181 0.047165424 0.71338749
-0.010731969 0.051513493 0.71369058
-0.0064288122 0.053573459 0.71327335
0 0.058347851 0.71545756
-0.028256821 0.019562423 0.71697485
-0.026037298 0.02169773 0.71651292
-0.010861025 0.056477338 0.71680629
0.0065190205 0.058671206 0.71690309
0.017464528 0.041478276 0.7181173
-0.010926724 0.059004337 0.71839237
-0.010926724 0.059004337 0.71839237
0.0065582399 0.061210245 0.71848112
0.019975642 0.048829347 0.72251713
0.0044391695 0.068807125 0.72252548
0.020111602 0.05139631 0.72434068
-0.0022687172 0.079405129 0.72845626
0.0022704466 0.079465657 0.72866511
0.016341524 0.079373121 0.73639739
0.00076590345 -0.058141023 0.63928849
0.0046791201 -0.059268832 0.6428712
0.003151895 -0.052006274 0.6448316
-0.012784757 -0.057531387 0.64750504
0.0071632853 -0.054909039 0.64672315
0.00080033304 -0.044759825 0.64756173
-0.0048265019 -0.04826498 0.64880133
-0.016317673 -0.055480063 0.65156966
-0.013076869 -0.050672889 0.65191269
-0.011441626 -0.049035549 0.65190172
0.006515638 -0.04723838 0.65122467
0.0032848204 -0.039417863 0.65285438
-0.018264234 -0.053132325 0.65502411
-0.011653902 -0.043285906 0.65556228
0.0033160709 -0.036476761 0.65474051
0.00083018688 -0.033159822 0.65473497
-0.013574247 -0.039025933 0.65941751
-0.013574247 -0.039025933 0.65941751
0.012020298 -0.034343719 0.66188055
-0.00510643 -0.030638576 0.66006482
0.0051255054 -0.030753016 0.66083229
0.024189796 -0.063063592 0.663167
0.022495417 -0.053642929 0.66347772
-0.012941188 -0.032778636 0.66284716
0.0034645598 -0.022519618 0.66370255
-0.022595361 -0.048666924 0.6644057
0.017378392 -0.04692167 0.66437364
-0.0052059055 -0.024294198 0.66406739
0.0069869324 -0.024454266 0.66544724
0.0034820517 -0.020892292 0.66475832
-0.0052828742 -0.019370496 0.66716439
0.023110805 -0.047107548 0.66919184
0.023110805 -0.047107548 0.66919184
-0.0070777591 -0.019463807 0.66818821
0.0035538352 -0.01421535 0.66909087
0.016070846 -0.039284259 0.67014486
-0.019693803 -0.03043589 0.67071176
0.018029058 -0.032452315 0.67222792
-0.029291146 -0.051259518 0.67558253
-0.018233875 -0.020966545 0.67470026
-0.01278018 -0.01278019 0.67498422
0.0073040533 -0.0091300607 0.67501724
-0.01663992 -0.081350714 0.67777747
-0.01291153 -0.0092225075 0.67724931
0.0073785065 -0.0055338442 0.67726409
0.016712915 -0.024140865 0.67875648
-0.018576317 -0.014861017 0.67883384
-0.0093302457 -0.0018660724 0.67984998
-0.0037625621 -0.084657624 0.68168867
0.0037460688 0.0037460923 0.68069315
-0.0037936138 -0.081562713 0.68356276
0.024619756 -0.032195091 0.68320316
-0.018882886 -0.0094414353 0.68253446
-0.0037918456 0.011375576 0.68345606
0.0076548993 -0.078462705 0.68560493
0.0076548993 -0.078462705 0.68560493
-0.02295864 -0.015305758 0.68554401
0.02101328 -0.013372093 0.68519133
-0.02103826 -0.0095628202 0.6854654
-0.0095962984 -0.076770365 0.68627304
0.017503968 -0.0058346689 0.6893664
0.0058439462 0.015583843 0.68974018
0.0038923579 0.0175156 0.6895225
-0.017583249 0.0058610737 0.69042969
0.027766304 -0.019833058 0.69400424
0.027766304 -0.019833058 0.69400424
0.019934848 0.0059804618 0.69523281
-0.015931882 0.015931904 0.69499147
-0.009945591 0.021880329 0.69470572
0.016121686 0.0060456693 0.69785535
-0.0020001868 0.034003168 0.69604182
-0.0020001868 0.034003168 0.69604182
-0.016207132 0.022284836 0.6991446
-0.010112547 0.028315127 0.69873637
0.0081236949 0.030463845 0.69975215
-0.026555067 -0.0040853918 0.70117331
-0.010227307 0.032727391 0.70150697
0.0081697218 0.032678902 0.70114112
-0.0020343259 0.040686518 0.70016277
-0.010285627 0.034971118 0.70291489
-0.008290261 0.039378732 0.70477867
0.023061484 0.014675498 0.70766771
-0.0041704555 0.047960252 0.70630717
0.0041922592 0.046114892 0.70762318
-0.025370801 0.012685418 0.70980847
0.016949967 0.027543724 0.71035314
-0.01699076 0.04035306 0.71096861
0.010771151 0.051701546 0.7146365
-0.017451052 0.050171793 0.71791393
-0.010993224 0.061562091 0.71999776
-0.0021872364 0.063429862 0.71862066
0.0066382592 0.066382557 0.72170085
0.011243916 0.069712281 0.72605002
0.01131501 0.072416067 0.72776639
0 0.076649845 0.72672886
-0.0068739098 0.082486898 0.73118269
0.0069345948 0.085526675 0.73362446
0.0069345948 0.085526675 0.73362446
0.021648059 0.079376191 0.74494815
-0.0056934031 -0.046137117 0.65088344
-0.021657085 -0.059973449 0.65569341
0.013266444 -0.047259763 0.65477312
0.017366569 -0.057707876 0.65749067
0.021385055 -0.057951503 0.65834284
-0.020902155 -0.054264408 0.65803051
-0.015073263 -0.045219779 0.65676498
-0.0090465276 -0.035052698 0.65934175
0.0023642546 -0.029992729 0.6580109
-0.0027514908 -0.022166172 0.66206473
-0.012738233 -0.026346974 0.66665667
0.0061502955 -0.021958522 0.66666883
-0.02831394 -0.060167104 0.66821015
-0.013169659 -0.019153189 0.67135715
0.0098326579 -0.01854166 0.6703704
0.021642433 -0.036070704 0.67230392
0.0054896595 -0.0073195398 0.67548478
0.013024601 -0.0074426234 0.6791991
-0.0064819395 -0.0027747527 0.67808366
-0.0064819395 -0.0027747527 0.67808366
0.0093045672 -0.0037218332 0.67923003
0.0065955832 -0.084815979 0.68211329
-0.013791852 -0.07775794 0.68168163
-0.022478329 -0.021539018 0.68071246
-0.021622606 -0.01786302 0.681508
0.017465524 -0.0067900121 0.68885076
-0.014323715 0.010416796 0.69034404
-0.014323715 0.010416796 0.69034404
-0.014323715 0.010416796 0.69034404
-0.0078850044 0.019712538 0.69254893
0.009975492 0.021946073 0.69542754
0 0.040648043 0.69993037
0.024719143 2.9802322e-08 0.70325327
0.020565758 0.016452581 0.70284855
-0.013660199 0.030050209 0.70190966
0.010201826 0.030605495 0.70089173
0.0062115211 0.039339632 0.70453018
-0.0041951067 0.050341278 0.70779496
0.025570909 0.012785435 0.71182144
-0.009849417 0.045728456 0.70935333
-0.013650748 0.050285846 0.71473658
0.0010910715 0.062169403 0.71790034
0.020468783 0.05799894 0.72913134
0.01028653 0.077694595 0.73043799
-0.017417002 0.077781364 0.73487735
0.013861186 0.078546733 0.73346341
