# .PCD v0.7 - Point Cloud Data file format
VERSION 0.7
FIELDS x y z
SIZE 4 4 4
TYPE F F F
COUNT 1 1 1
WIDTH 1332
HEIGHT 1
VIEWPOINT 0 0 0 1 0 0 0
POINTS 1332
DATA ascii
-0.047485206 0.024621964 0.66689318
-0.046902921 0.022582918 0.66428989
-0.04963493 0.022059947 0.67650408
-0.052234355 0.021280676 0.68812549
-0.045289062 0.016773731 0.65707475
-0.045024324 0.015008122 0.65589112
-0.04479026 0.013271183 0.6548447
-0.044609673 0.011565477 0.6540373
-0.044461537 0.0098803341 0.65337509
-0.044339254 0.0082110167 0.65282828
-0.044153184 0.0065412223 0.65199643
-0.043595091 0.0048439205 0.64950138
-0.043357238 0.0032116473 0.64843798
-0.043291248 0.0016033649 0.64814293
-0.043356407 -0 0.64843428
-0.043617614 -0.0016154349 0.649602
-0.044155352 -0.0032707453 0.65200615
-0.044341583 -0.0049268603 0.65283877
-0.044459492 -0.0065865517 0.65336585
-0.044609234 -0.0082609653 0.65403533
-0.044794567 -0.0099543631 0.65486395
-0.045020718 -0.01167202 0.65587509
-0.045295142 -0.013420761 0.65710187
-0.045636196 -0.015212059 0.65862668
-0.046065059 -0.017061144 0.66054404
-0.046632066 -0.018998265 0.66307902
-0.047467854 -0.021096826 0.66681558
-0.048862617 -0.02352643 0.67305124
-0.049160622 -0.025490701 0.67438358
-0.047592189 0.029287517 0.67555505
-0.047310252 0.027294368 0.67424607
-0.046002511 0.024770588 0.66817462
-0.045344774 0.022672385 0.66512096
-0.047972672 0.022141218 0.67732155
-0.050523221 0.021375239 0.68916303
-0.043817785 0.016853005 0.65803152
-0.043558251 0.015077859 0.65682662
-0.04332874 0.01333192 0.65576106
-0.043153107 0.011618137 0.65494567
-0.043007739 0.0099248588 0.65427077
-0.042888917 0.0082478523 0.65371913
-0.04271248 0.0065711439 0.65289992
-0.042170975 0.0048658848 0.65038592
-0.041937694 0.0032259822 0.64930284
-0.041873172 0.0016105175 0.64900327
-0.041936748 2.9802322e-08 0.64929843
-0.042191491 -0.0016227365 0.65048116
-0.042712901 -0.0032856166 0.65290195
-0.042890757 -0.0049489141 0.65372765
-0.043006033 -0.0066162944 0.65426284
-0.043152109 -0.0082984865 0.65494102
-0.043333072 -0.0099999309 0.65578115
-0.043554164 -0.011726141 0.65680766
-0.043822359 -0.013483763 0.6580528
-0.044157784 -0.015285403 0.65961009
-0.04457752 -0.017145187 0.66155881
-0.045137413 -0.019096613 0.66415823
-0.045979742 -0.021221429 0.66806889
-0.04729563 -0.023647815 0.67417824
-0.047581226 -0.025620669 0.67550415
-0.046001535 0.029440999 0.67671299
-0.045713056 0.027427822 0.67532003
-0.044504017 0.024922282 0.66948229
-0.043774225 0.022762597 0.66595858
-0.046298128 0.022223115 0.67814505
-0.048796631 0.021470517 0.69020891
-0.042332672 0.016933054 0.65899813
-0.042078488 0.015148252 0.65777075
-0.041853644 0.013393164 0.65668517
-0.041683353 0.011671305 0.65586299
-0.041540775 0.0099698007 0.65517455
-0.041425627 0.0082851052 0.65461856
-0.041258387 0.0066013336 0.65381104
-0.040733743 0.0048880577 0.65127784
-0.04050542 0.0032404363 0.65017545
-0.040442433 0.0016177297 0.64987123
-0.040504504 -0 0.65017098
-0.040752452 -0.0016300976 0.65136814
-0.041257299 -0.0033006072 0.65380579
-0.041427001 -0.004971236 0.65462518
-0.041539256 -0.0066462755 0.65516722
-0.041681826 -0.0083363652 0.65585554
-0.041858267 -0.010045975 0.65670753
-0.042073954 -0.011780709 0.65774894
-0.042335536 -0.013547361 0.65901196
-0.042665049 -0.015359402 0.66060299
-0.043075249 -0.017230093 0.66258365
-0.043627203 -0.019195974 0.66524869
-0.044473954 -0.021347493 0.66933715
-0.045702703 -0.023765385 0.67527008
-0.045985468 -0.025751889 0.67663538
-0.044394113 0.02959609 0.67788315
-0.044098064 0.027561307 0.67639405
-0.042990141 0.025077611 0.67082167
-0.042191129 0.022853494 0.66680294
-0.044611316 0.022305697 0.67897552
-0.04705457 0.021566689 0.69126415
-0.040833242 0.017013878 0.65997326
-0.04058484 0.015219301 0.65872389
-0.040364929 0.013455003 0.65761781
-0.040199943 0.011724979 0.65678805
-0.040060606 0.01001516 0.65608716
-0.039948925 0.008322686 0.65552551
-0.039789949 0.0066316724 0.65472591
-0.03928348 0.0049104691 0.65217859
-0.039060254 0.0032550395 0.65105581
-0.038998861 0.0016249716 0.65074706
-0.039059237 -0 0.65105069
-0.039300323 -0.0016375184 0.65226328
-0.039788369 -0.0033156872 0.65471792
-0.039949991 -0.0049937069 0.65553087
-0.040059268 -0.0066765547 0.65608048
-0.040197924 -0.0083745718 0.65677786
-0.040369816 -0.010092437 0.65764242
-0.040579762 -0.011835784 0.65869838
-0.040834632 -0.013611555 0.6599803
-0.041157786 -0.015434176 0.6616056
-0.041558173 -0.017315894 0.66361934
-0.042101342 -0.019296438 0.66635132
-0.042950165 -0.021475077 0.67062056
-0.044087376 -0.023880661 0.67634034
-0.044373445 -0.025884539 0.6777792
-0.042769674 0.029752821 0.67906559
-0.042467121 0.027695924 0.67747772
-0.041457277 0.025234878 0.67217773
-0.04059533 0.022945195 0.66765404
-0.042911768 0.022388756 0.67981136
-0.045296837 0.021663725 0.69232893
-0.039319839 0.017095566 0.66095984
-0.039077114 0.015291065 0.65968597
-0.038863331 0.013517708 0.65856397
-0.038702831 0.01177913 0.65772164
-0.038566776 0.010060906 0.65700758
-0.038458768 0.0083605945 0.65644068
-0.038307708 0.0066622496 0.65564787
-0.037819754 0.0049330294 0.65308696
-0.037601896 0.003269732 0.65194362
-0.037542403 0.0016322434 0.65163136
-0.037600912 -0 0.65193844
-0.037834924 -0.0016449988 0.65316653
-0.038305797 -0.003330946 0.65563786
-0.038459413 -0.0050164461 0.65644413
-0.038565613 -0.0067070723 0.6570015
-0.038700491 -0.008413136 0.65770936
-0.038867533 -0.010139376 0.65858603
-0.039071672 -0.011891395 0.65965742
-0.039320916 -0.013676822 0.66096556
-0.039635781 -0.015509665 0.66261798
-0.040028691 -0.017403781 0.66468012
-0.040560707 -0.0193986 0.66747224
-0.0414082 -0.02160427 0.67192018
-0.04245615 -0.023996919 0.67742008
-0.04274473 -0.0260185 0.67893469
-0.041127931 0.02991122 0.68026066
-0.040820312 0.027832061 0.67857277
-0.03990506 0.025394142 0.67355096
-0.039018054 0.023056149 0.66868407
-0.039338764 0.021457523 0.67044377
-0.04351943 0.021759719 0.6933825
-0.043488998 0.019767702 0.69321549
-0.037555236 0.015363514 0.66065782
-0.037347797 0.013581038 0.65951967
-0.037191961 0.011833847 0.65866458
-0.037059236 0.01010707 0.65793639
-0.036954977 0.0083988607 0.65736425
-0.036811624 0.0066930354 0.65657771
-0.036342505 0.0049557984 0.65400374
-0.036130417 0.0032846034 0.65284008
-0.036072638 0.001639694 0.65252304
-0.036129467 2.9802322e-08 0.65283489
-0.036356069 -0.0016525388 0.65407819
-0.036809653 -0.003346324 0.65656692
-0.036955349 -0.0050393641 0.65736634
-0.037058361 -0.0067378879 0.65793157
-0.037189066 -0.0084520578 0.65864873
-0.037351221 -0.010186702 0.65953845
-0.037549213 -0.011947483 0.6606248
-0.037792865 -0.013742864 0.66196167
-0.038098816 -0.01558587 0.66364038
-0.03848388 -0.017492652 0.66575319
-0.039007962 -0.019503951 0.66862869
-0.039851464 -0.021737158 0.67325687
-0.040808961 -0.0241144 0.67851055
-0.041098911 -0.026153862 0.68010139
-0.039475735 0.030076772 0.68150949
-0.039156511 0.027968943 0.67967451
-0.038333125 0.025555432 0.67494166
-0.037448928 0.023182631 0.66985917
-0.037703838 0.021545082 0.67132437
-0.041725371 0.021856159 0.6944406
-0.041696891 0.019855678 0.69427699
-0.036018744 0.01543662 0.6616382
-0.035817996 0.013644964 0.66048431
-0.035666872 0.011888951 0.65961564
-0.035537794 0.010153681 0.65887368
-0.03543748 0.0084374845 0.65829706
-0.035301637 0.006724149 0.65751618
-0.034851659 0.0049788058 0.6549297
-0.034645505 0.0032995939 0.6537447
-0.034589507 0.001647085 0.65342283
-0.034644477 -2.9802322e-08 0.6537388
-0.034863453 -0.0016601384 0.65499747
-0.035299618 -0.003361851 0.65750462
-0.03543736 -0.0050624609 0.65829635
-0.035537075 -0.0067689717 0.65886956
-0.035663724 -0.0084913671 0.65959764
-0.035820682 -0.010234445 0.66049975
-0.036012448 -0.012004137 0.66160202
-0.036249869 -0.013809472 0.66296679
-0.036546666 -0.015662849 0.66467279
-0.036923334 -0.017582536 0.66683793
-0.037438251 -0.019610524 0.66979778
-0.038289826 -0.021879882 0.67469275
-0.03914557 -0.024232984 0.67961168
-0.039441358 -0.026294231 0.68131185
-0.037828583 0.030262887 0.68291366
-0.037474718 0.028106034 0.68077785
-0.036768503 0.025737941 0.67651546
-0.035863761 0.023311406 0.67105484
-0.03605552 0.021633327 0.67221224
-0.039915338 0.021953434 0.69550824
-0.039892104 0.019946069 0.69536805
-0.034467556 0.01551041 0.662628
-0.034273606 0.013709456 0.66145742
-0.0341275 0.011944622 0.66057563
-0.034002382 0.010200709 0.6598205
-0.033905841 0.0084764659 0.6592378
-0.033777546 0.0067555308 0.65846348
-0.033346795 0.0050020218 0.65586364
-0.033146977 0.0033146739 0.6546576
-0.03309283 0.0016546547 0.65433085
-0.033145882 2.9802322e-08 0.65465105
-0.033357129 -0.0016678572 0.65592605
-0.033775497 -0.003377527 0.65845108
-0.033905495 -0.0050858259 0.65923572
-0.034001805 -0.0068003535 0.65981698
-0.034124009 -0.0085310042 0.66055453
-0.034275603 -0.010282665 0.66146946
-0.034461033 -0.012061328 0.66258866
-0.034691837 -0.013876736 0.66398168
-0.034979109 -0.015740573 0.66571558
-0.035346672 -0.017673343 0.667934
-0.0358513 -0.0197182 0.67097968
-0.036707677 -0.022024602 0.67614836
-0.037464619 -0.024352014 0.68071693
-0.037785303 -0.02644974 0.68265241
-0.036160924 0.030451298 0.68433523
-0.035775144 0.028243512 0.68188441
-0.035189964 0.025929451 0.67816657
-0.034262866 0.023443013 0.67227656
-0.034393642 0.021722287 0.67310739
-0.038089272 0.022051722 0.69658643
-0.038070817 0.020037293 0.69646919
-0.03290147 0.015584886 0.66362739
-0.032714657 0.013774574 0.66244048
-0.032573648 0.012000799 0.66154462
-0.032452557 0.010248184 0.6607753
-0.032359987 0.008515805 0.66018718
-0.032239165 0.0067872107 0.6594196
-0.03182783 0.0050254464 0.65680635
-0.031634651 0.0033299625 0.65557903
-0.031582419 0.0016622245 0.65524721
-0.031633601 2.9802322e-08 0.6555723
-0.031836785 -0.0016756356 0.65686321
-0.032236982 -0.0033933818 0.65940571
-0.032359436 -0.0051093698 0.66018367
-0.032452114 -0.0068320334 0.6607725
-0.032569963 -0.0085710585 0.6615212
-0.03271601 -0.010331362 0.662449
-0.032894641 -0.012119085 0.66358399
-0.033118557 -0.013944626 0.66500652
-0.033395912 -0.015819103 0.66676861
-0.033753641 -0.017765075 0.66904134
-0.034246821 -0.019827098 0.67217457
-0.035104331 -0.02217114 0.67762256
-0.035766531 -0.024471819 0.68182957
-0.036109418 -0.026606947 0.68400806
-0.034533694 0.03069663 0.68618602
-0.034058858 0.028382391 0.68300164
-0.033590261 0.026125789 0.67985916
-0.032644745 0.023576766 0.67351842
-0.032718033 0.021812022 0.67400992
-0.036246642 0.022150725 0.69767332
-0.036232643 0.020129263 0.69757938
-0.031320374 0.015660197 0.66463697
-0.031140823 0.013840348 0.66343296
-0.031005211 0.012057602 0.66252351
-0.030888243 0.010296136 0.66173905
-0.030799832 0.0085555315 0.66114616
-0.030686285 0.0068191886 0.66038471
-0.030294675 0.0050491095 0.65775847
-0.030108331 0.0033453405 0.65650886
-0.030058088 0.0016699135 0.65617192
-0.030107222 -0 0.65650141
-0.030302217 -0.0016834736 0.65780914
-0.030684091 -0.0034093261 0.66036999
-0.030798882 -0.005133152 0.66113985
-0.03088803 -0.0068640113 0.66173762
-0.031001156 -0.0086114407 0.66249627
-0.031141577 -0.010380536 0.66343796
-0.031313296 -0.012177378 0.66458952
-0.031529911 -0.01401329 0.66604221
-0.031796843 -0.015898407 0.66783226
-0.032143984 -0.01785776 0.67016023
-0.032624524 -0.019937187 0.67338276
-0.033492457 -0.022328317 0.67920333
-0.03405229 -0.024593294 0.68295765
-0.034413356 -0.026765972 0.68537897
-0.032325614 0.028522611 0.68413007
-0.031966273 0.026325166 0.68157852
-0.031008163 0.023712128 0.67477536
-0.031028524 0.021902502 0.6749199
-0.034385856 0.022249699 0.69875908
-0.034377657 0.020222157 0.6987009
-0.029723825 0.015736103 0.66565579
-0.029552093 0.013906866 0.66443634
-0.029421765 0.012114853 0.66351092
-0.029309336 0.010344476 0.66271257
-0.029224951 0.0085955858 0.66211343
-0.0291187 0.0068514347 0.66135901
-0.028746914 0.0050730109 0.65871906
-0.028567821 0.0033609569 0.65744734
-0.028519737 0.0016776323 0.65710592
-0.028566668 -0 0.65743923
-0.02875323 -0.0016913712 0.65876389
-0.029116509 -0.0034254491 0.66134346
-0.029223846 -0.0051571429 0.66210556
-0.029309237 -0.0068962872 0.66271192
-0.029417593 -0.00865224 0.66348135
-0.029552093 -0.010430127 0.66443634
-0.029717283 -0.012236536 0.6656093
-0.029925441 -0.014082551 0.66708738
-0.030181659 -0.015978515 0.66890669
-0.030517446 -0.017951459 0.67129093
-0.030983992 -0.020048469 0.6746037
-0.0318738 -0.022499114 0.68092191
-0.032321069 -0.024716109 0.68409789
-0.032771096 -0.02698797 0.68729323
-0.030577846 0.028666735 0.68528998
-0.030295275 0.026508391 0.6831581
-0.029352576 0.023848981 0.67604601
-0.029324943 0.021993726 0.67583758
-0.031417232 0.021599352 0.69162267
-0.032506526 0.020316571 0.69984072
-0.028111713 0.015812844 0.66668445
-0.02794851 0.013974249 0.66545314
-0.027823208 0.012172669 0.66450781
-0.027715422 0.010393262 0.66369462
-0.027635248 0.0086360276 0.66308975
-0.027536299 0.0068840683 0.66234326
-0.02718454 0.005097121 0.65968943
-0.02701292 0.0033766329 0.65839463
-0.02696697 0.0016854405 0.65804797
-0.027011828 -0 0.65838641
-0.027189618 -0.0016993284 0.65972775
-0.027533932 -0.003441751 0.66232538
-0.027633913 -0.0051813722 0.66307974
-0.027715422 -0.0069288611 0.66369468
-0.027818954 -0.0086934268 0.66447574
-0.027947336 -0.010480225 0.66544431
-0.028105989 -0.012296379 0.66664124
-0.028305031 -0.014152497 0.66814291
-0.028550118 -0.016059458 0.66999191
-0.028873753 -0.018046111 0.67243356
-0.029325157 -0.020161033 0.67583913
-0.030230183 -0.022672623 0.68266702
-0.030572359 -0.024840027 0.68524855
-0.028812548 0.028812557 0.68646342
-0.028586809 0.026681006 0.68464679
-0.027680011 0.02398935 0.67734945
-0.027607111 0.022085726 0.67676282
-0.029528979 0.021654576 0.69222879
-0.03062021 0.020413488 0.70101029
-0.026483811 0.0158903 0.66772318
-0.026329307 0.014042318 0.66647983
-0.026209412 0.012231082 0.66551495
-0.026106486 0.010442585 0.66468668
-0.026030609 0.0086768568 0.66407609
-0.025938667 0.0069169998 0.66333622
-0.025607152 0.0051214397 0.66066837
-0.025443431 0.003392458 0.65935087
-0.025399689 0.0016933084 0.65899885
-0.02544231 -0 0.65934181
-0.025611173 -0.0017074049 0.66070074
-0.02593625 -0.0034581721 0.66331673
-0.026029075 -0.0052057803 0.66406369
-0.026106577 -0.0069617331 0.6646874
-0.026204929 -0.0087349713 0.66547889
-0.026327092 -0.010530829 0.66646194
-0.026478861 -0.012356788 0.6676833
-0.026668444 -0.014223158 0.669209
-0.02690245 -0.016141474 0.67109215
-0.027212631 -0.018141747 0.67358828
-0.027650848 -0.020277262 0.67711473
-0.028534964 -0.022827983 0.68422955
-0.028806131 -0.024965316 0.6864118
-0.027029404 0.028960109 0.68765062
-0.026834946 0.026834935 0.68597394
-0.025988415 0.024132103 0.67867506
-0.025874853 0.022178471 0.67769587
-0.027644347 0.021720558 0.69295275
-0.028715814 0.020511299 0.70219117
-0.024839886 0.015968502 0.66877216
-0.024694262 0.014111042 0.66751653
-0.02457997 0.012290001 0.66653109
-0.02448255 0.010492533 0.6656912
-0.02441063 0.0087181032 0.66507101
-0.024325693 0.0069501698 0.66433871
-0.024014801 0.0051460266 0.66165811
-0.023859143 0.0034084618 0.66031599
-0.02381769 0.0017012656 0.6599586
-0.023858005 -0 0.66030622
-0.0240176 -0.0017155111 0.66168225
-0.024323158 -0.0034747124 0.66431689
-0.024409015 -0.0052304864 0.66505712
-0.024482295 -0.0069949329 0.66568893
-0.024575487 -0.0087769628 0.66649246
-0.024691127 -0.01058194 0.66748953
-0.024835743 -0.012417883 0.66873646
-0.025015431 -0.014294505 0.6702857
-0.025239047 -0.01622507 0.67221379
-0.025533807 -0.018238425 0.67475528
-0.025959427 -0.02039668 0.67842507
-0.026803836 -0.0229747 0.68570572
-0.027021896 -0.025091767 0.68758595
-0.025230551 0.02911216 0.6888746
-0.025055809 0.026983172 0.68725204
-0.024276564 0.024276584 0.68001646
-0.024127981 0.022271961 0.67863679
-0.02574371 0.021783173 0.69363946
-0.026793191 0.020610154 0.7033844
-0.023179777 0.016047537 0.66983229
-0.023043135 0.014180392 0.66856349
-0.022934752 0.012349516 0.66755712
-0.022842934 0.010542929 0.66670454
-0.02277519 0.0087596774 0.66607547
-0.022697071 0.0069837272 0.66535014
-0.022407772 0.0051710308 0.66266382
-0.022259774 0.0034246147 0.66128963
-0.022220766 0.0017093122 0.66092741
-0.022258785 -0 0.66128045
-0.022408852 -0.0017237663 0.66267395
-0.022694536 -0.0034914613 0.6653266
-0.022773435 -0.0052553713 0.6660592
-0.022842532 -0.0070284605 0.66670084
-0.022930225 -0.0088193417 0.6675151
-0.023039136 -0.010633469 0.66852641
-0.023176227 -0.012479484 0.66979933
-0.023345834 -0.014366657 0.6713742
-0.023558401 -0.016309679 0.67334795
-0.023836995 -0.018336147 0.67593479
-0.024248058 -0.020517588 0.67975175
-0.025033725 -0.023108035 0.687047
-0.025219595 -0.025219589 0.68877292
-0.023412792 0.02926597 0.69011247
-0.023256361 0.027132452 0.68853885
-0.022544097 0.024422795 0.68137395
-0.022366315 0.022366315 0.6795857
-0.023829915 0.021844119 0.69430834
-0.024851842 0.020709842 0.70458817
-0.021503076 0.016127348 0.67090219
-0.021375693 0.014250457 0.66962081
-0.021273602 0.012409568 0.66859388
-0.021187574 0.010593802 0.66772842
-0.021124063 0.0088017285 0.66708958
-0.021052664 0.0070175231 0.66637135
-0.020785056 0.0051963031 0.66367942
-0.020645265 0.0034408569 0.66227329
-0.020608701 0.0017173886 0.66190541
-0.020644272 -0 0.66226327
-0.020784624 -0.0017320216 0.66367507
-0.021050228 -0.0035083592 0.66634685
-0.021122281 -0.0052805245 0.66707164
-0.021186899 -0.0070622861 0.66772163
-0.021269079 -0.0088621378 0.66854835
-0.021371052 -0.010685533 0.66957414
-0.02150015 -0.012541741 0.67087269
-0.02165922 -0.014439493 0.67247283
-0.021860065 -0.016395032 0.67449319
-0.022124346 -0.018436968 0.67715168
-0.022516197 -0.020639837 0.68109339
-0.023235573 -0.023235559 0.6883297
-0.023398833 -0.025348723 0.68997198
-0.021579023 0.029425949 0.69139957
-0.021436984 0.02728343 0.68984085
-0.020790631 0.024570763 0.68274808
-0.020589659 0.022461444 0.68054265
-0.021897623 0.021897644 0.69489574
-0.022891713 0.020810664 0.70580471
-0.019810122 0.016208321 0.67198825
-0.019691689 0.014321238 0.67068857
-0.019596128 0.012470275 0.66963995
-0.019516151 0.010645181 0.66876227
-0.019457094 0.0088441372 0.66811419
-0.019391902 0.0070515871 0.66739881
-0.019146489 0.0052217543 0.66470575
-0.019015316 0.0034573376 0.66326624
-0.01898128 0.0017255545 0.66289276
-0.019014331 -0 0.66325545
-0.01914469 -0.0017404258 0.66468596
-0.019389853 -0.0035254061 0.66737628
-0.019455168 -0.0053059459 0.66809309
-0.019515323 -0.0070964694 0.66875315
-0.019591665 -0.0089053214 0.66959095
-0.019686759 -0.010738224 0.67063451
-0.019807272 -0.012604624 0.6719569
-0.019955425 -0.014513016 0.67358267
-0.020143854 -0.01648131 0.67565048
-0.020392839 -0.018538922 0.67838275
-0.020763572 -0.020763606 0.68245113
-0.02141688 -0.023363858 0.68962032
-0.021563806 -0.025484502 0.69123262
-0.019727588 0.029591382 0.69273096
-0.019592023 0.027428806 0.69109458
-0.019020995 0.024727255 0.68420166
-0.018797826 0.022557378 0.68150777
-0.019964837 0.021961331 0.69559479
-0.0209125 0.020912498 0.70703411
-0.018100409 0.016290367 0.67308921
-0.017990876 0.014392704 0.671767
-0.017902175 0.012531519 0.67069632
-0.017828373 0.010697037 0.66980541
-0.017773909 0.0088869333 0.66914797
-0.017714946 0.0070860088 0.66843623
-0.017491695 0.0052475035 0.66574132
-0.017369704 0.0034739375 0.66426885
-0.017338345 0.0017338097 0.66389024
-0.017368799 2.9802322e-08 0.66425788
-0.01748882 -0.0017488599 0.66570663
-0.01771294 -0.0035425723 0.66841203
-0.017772015 -0.0053316355 0.66912514
-0.017827421 -0.0071309507 0.6697939
-0.017897885 -0.008948952 0.67064452
-0.017986091 -0.01079163 0.67170924
-0.018097397 -0.012668192 0.67305285
-0.01823418 -0.014587313 0.6747039
-0.01840955 -0.016568571 0.67682081
-0.018641997 -0.018641979 0.6796267
-0.018989809 -0.020888805 0.68382525
-0.019577995 -0.023493618 0.69092518
-0.019711113 -0.025624454 0.69253212
-0.017855145 0.029758573 0.69407648
-0.017726174 0.027574062 0.69234663
-0.017230706 0.024888813 0.68570131
-0.016990621 0.022654146 0.68248117
-0.018027119 0.022033155 0.696383
-0.018913738 0.021015286 0.7082746
-0.016373292 0.016373277 0.67420137
-0.016273061 0.014464945 0.67285711
-0.016191557 0.012593448 0.6717639
-0.016124131 0.010749429 0.67085958
-0.016074345 0.0089301765 0.67019182
-0.016021561 0.0071206987 0.66948384
-0.015820507 0.0052734911 0.66678727
-0.015708204 0.0034907162 0.66528106
-0.015679544 0.0017421842 0.66489667
-0.015707327 -0 0.66526926
-0.015816784 -0.001757443 0.66673732
-0.016019451 -0.0035598874 0.66945559
-0.01607251 -0.0053575039 0.67016721
-0.016123092 -0.0071657896 0.67084563
-0.016187366 -0.00899297 0.67170769
-0.016268417 -0.010845631 0.67279482
-0.016370136 -0.012732327 0.67415905
-0.01649528 -0.014662474 0.67583752
-0.016656723 -0.016656697 0.67800283
-0.016871583 -0.018746197 0.68088466
-0.017197214 -0.021018863 0.68525207
-0.017715087 -0.023620129 0.69219798
-0.017837888 -0.025765836 0.69384503
-0.015961424 0.029927671 0.69543725
-0.01583921 0.027718604 0.69359314
-0.015416879 0.025052428 0.68722069
-0.015167843 0.022751778 0.68346298
-0.016076686 0.022105426 0.69717634
-0.016895235 0.021119028 0.70952731
-0.014628553 0.016457111 0.67532575
-0.014537862 0.014537841 0.67395735
-0.014463899 0.012655914 0.67284131
-0.01440311 0.010802329 0.67192405
-0.014358215 0.0089738667 0.67124665
-0.014311397 0.0071557164 0.67054021
-0.014132729 0.0052997768 0.66784436
-0.014030583 0.0035076439 0.66630304
-0.014004714 0.0017505586 0.66591275
-0.014029747 -0 0.6662904
-0.014128339 -0.001766026 0.66777813
-0.014309351 -0.0035773218 0.67050934
-0.014356361 -0.0053836405 0.67121869
-0.01440197 -0.0072009563 0.67190689
-0.01445998 -0.0090375245 0.67278218
-0.014533428 -0.01090005 0.67389041
-0.014625292 -0.012797117 0.67527652
-0.014738322 -0.014738321 0.67698205
-0.014885204 -0.016745865 0.67919832
-0.015081322 -0.018851638 0.68215752
-0.015384587 -0.021153808 0.68673342
-0.01583088 -0.023746312 0.6934675
-0.015943941 -0.025908917 0.69517338
-0.014046002 0.030098617 0.69681257
-0.013932302 0.027864635 0.69485182
-0.013579255 0.025218636 0.68876386
-0.013329289 0.022850245 0.68445325
-0.014117564 0.022184759 0.69804657
-0.014856699 0.021223843 0.71079254
-0.012865809 0.016541779 0.67646086
-0.012785078 0.014611512 0.67506868
-0.012719012 0.012719005 0.67392945
-0.012665018 0.010855734 0.67299831
-0.012625163 0.0090179741 0.67231113
-0.012584292 0.0071910322 0.6716063
-0.012428006 0.0053263009 0.66891122
-0.012336606 0.0035247803 0.66733503
-0.01231362 0.0017590821 0.66693866
-0.012335868 -0 0.66732234
-0.012423775 -0.0017748475 0.66883826
-0.012582349 -0.0035949349 0.67157274
-0.012623434 -0.0054100156 0.67228127
-0.012663919 -0.0072365403 0.67297935
-0.012715364 -0.0090824068 0.67386651
-0.012780974 -0.010955155 0.67499793
-0.012862597 -0.012862593 0.67640543
-0.012963091 -0.014814943 0.67813838
-0.013094574 -0.016835868 0.68040574
-0.013270755 -0.018958211 0.6834439
-0.013548526 -0.021290541 0.68823391
-0.013924713 -0.023870945 0.69472104
-0.014028843 -0.026053548 0.69651663
-0.012117424 0.030293584 0.69838166
-0.012004719 0.028011054 0.69611424
-0.01171846 0.025389999 0.69035512
-0.011474757 0.022949547 0.68545222
-0.012149692 0.022274435 0.69903088
-0.012796954 0.0213283 0.7120527
-0.011084883 0.016627312 0.67760855
-0.011014444 0.014685959 0.67619145
-0.010956679 0.012782812 0.67502928
-0.010909696 0.010909706 0.67408407
-0.010874998 0.0090625286 0.67338598
-0.01084005 0.0072267056 0.67268294
-0.010706142 0.0053530931 0.66998887
-0.010626034 0.0035420358 0.66837716
-0.010606024 0.001767695 0.66797471
-0.010625356 2.9802322e-08 0.66836363
-0.010702325 -0.0017836988 0.66991204
-0.01083829 -0.0036128163 0.67264748
-0.010873384 -0.0054367185 0.67335349
-0.010908586 -0.0072723627 0.67406172
-0.010953361 -0.0091277957 0.67496252
-0.011010688 -0.011010677 0.67611587
-0.011081814 -0.012928754 0.67754674
-0.01116976 -0.014892995 0.6793161
-0.011284589 -0.016926855 0.68162632
-0.011439603 -0.019066036 0.68474495
-0.011688575 -0.021429062 0.68975389
-0.011998435 -0.02399686 0.69598782
-0.012094042 -0.026203752 0.69791126
-0.010165017 0.030495048 0.70000315
-0.010056612 0.028158516 0.69738603
-0.0098321997 0.025563717 0.6919682
-0.0096040349 0.023049682 0.68645978
-0.010165843 0.022364855 0.70002306
-0.010716385 0.021432757 0.71331441
-0.0092854006 0.016713738 0.67876732
-0.0092256842 0.01476112 0.67732567
-0.0091765486 0.012847155 0.67613941
-0.0091368351 0.010964215 0.67518061
-0.0091074985 0.0091075003 0.67447239
-0.0090784151 0.0072627366 0.67377025
-0.0089669051 0.0053801537 0.67107809
-0.0088986186 0.0035594404 0.6694296
-0.0088816863 0.0017763078 0.66902083
-0.0088980179 -0 0.66941506
-0.0089635309 -0.0017926991 0.67099673
-0.0090768673 -0.0036307275 0.67373288
-0.00910604 -0.0054636002 0.67443717
-0.0091358004 -0.0073086321 0.67515564
-0.0091736559 -0.0091736317 0.6760695
-0.0092223855 -0.011066854 0.67724597
-0.0092825759 -0.012995601 0.67869914
-0.0093575716 -0.014972091 0.68050969
-0.0094549656 -0.017018944 0.68286103
-0.0095875096 -0.019175023 0.68606085
-0.0098042646 -0.021569371 0.69129378
-0.010051481 -0.024123579 0.69726217
-0.010142311 -0.026370019 0.69945496
-0.008193234 0.030724674 0.70185065
-0.0080876183 0.028306663 0.69866341
-0.0079236189 0.02575174 0.69371432
-0.0077237901 0.023171365 0.68768388
-0.0081658559 0.02245611 0.70102441
-0.0086152889 0.021538198 0.71458721
-0.0074671484 0.016801089 0.67993903
-0.0074185184 0.014837056 0.67847157
-0.007378398 0.012912214 0.67726076
-0.007346143 0.01101923 0.67628741
-0.007322331 0.0091528893 0.67556882
-0.0072991252 0.0072990954 0.67486852
-0.0072099604 0.0054074824 0.67217773
-0.0071541127 0.0035770833 0.67049235
-0.0071403557 0.0017850697 0.6700772
-0.0071536014 -2.9802322e-08 0.67047691
-0.0072071305 -0.0018017888 0.67209232
-0.0072977142 -0.0036488473 0.67482597
-0.0073210984 -0.0054908097 0.67553163
-0.0073452261 -0.0073452592 0.67625976
-0.0073761139 -0.0092201531 0.67719185
-0.0074157421 -0.011123627 0.67838776
-0.0074646417 -0.013063103 0.67986345
-0.0075260298 -0.01505205 0.68171597
-0.0076053049 -0.017111927 0.68410832
-0.007714442 -0.019286096 0.68740183
-0.0078983223 -0.021720409 0.69295084
-0.0080836006 -0.024250805 0.69854218
-0.0081656557 -0.026538402 0.70101833
-0.0060977214 0.028456062 0.69995129
-0.0059901676 0.025957406 0.69562364
-0.0058276565 0.023310602 0.68908471
-0.0061494564 0.02254799 0.70203298
-0.0064934152 0.021644741 0.71587276
-0.0056297672 0.016889304 0.6811223
-0.0055926619 0.014913768 0.67962921
-0.0055619716 0.012977928 0.67839444
-0.0055374117 0.011074811 0.67740613
-0.0055192704 0.0091988146 0.67667621
-0.0055019134 0.0073358715 0.67597783
-0.0054350775 0.0054350793 0.67328858
-0.0053922413 0.0035948455 0.67156494
-0.0053818016 0.0017939508 0.6711449
-0.0053918734 -0 0.67155015
-0.0054328544 -0.0018109679 0.67319912
-0.0055007036 -0.003667146 0.67592919
-0.0055182762 -0.0055182874 0.67663622
-0.0055366559 -0.0073821843 0.67737573
-0.0055602822 -0.0092671514 0.67832643
-0.0055904542 -0.011180907 0.67954046
-0.0056277202 -0.01313135 0.68103993
-0.0056748237 -0.015132844 0.68293518
-0.0057353396 -0.017206043 0.68537021
-0.0058201998 -0.019400656 0.68878466
-0.0059661684 -0.021875948 0.69465804
-0.006094899 -0.024379611 0.69983774
-0.0061635966 -0.026708901 0.70260191
-0.0040867296 0.02860713 0.70125389
-0.0040256064 0.026166439 0.69756478
-0.0039089452 0.023453683 0.69052368
-0.0039312113 0.021621644 0.69186753
-0.0043504541 0.021752298 0.71717101
-0.0037730029 0.016978532 0.68231881
-0.0037478367 0.014991373 0.68079984
-0.0037269415 0.013044298 0.67953873
-0.0037103458 0.011131018 0.67853713
-0.0036980468 0.0092450976 0.67779481
-0.0036864942 0.0073730052 0.67709756
-0.0036419916 0.0054630041 0.67441154
-0.0036127891 0.0036127865 0.67264903
-0.0036057208 0.0018028617 0.67222244
-0.0036125283 2.9802322e-08 0.67263329
-0.0036404284 -0.0018202066 0.67431718
-0.0036856118 -0.0036855936 0.67704427
-0.0036973499 -0.0055460334 0.67775273
-0.0037097682 -0.0074194968 0.6785022
-0.0037258454 -0.0093145967 0.67947257
-0.0037462793 -0.011238843 0.6807059
-0.0037715244 -0.013200343 0.68222958
-0.003803635 -0.015214562 0.68416762
-0.0038450384 -0.017302692 0.68666655
-0.0039033345 -0.019516677 0.69018501
-0.0040061544 -0.02203384 0.69639075
-0.0040850611 -0.024510354 0.70115316
-0.0041491697 -0.026969612 0.70502245
-0.0020544564 0.0287624 0.70259273
-0.0020293505 0.026381552 0.69956225
-0.0019665714 0.02359885 0.69198406
-0.0019744248 0.021718681 0.69293207
-0.0021860132 0.021860152 0.71847308
-0.0018965193 0.017068654 0.68352807
-0.0018837104 0.015069693 0.68198186
-0.0018730485 0.013111353 0.68069482
-0.0018646583 0.011187941 0.67968214
-0.0018583908 0.0092919767 0.67892551
-0.0018526176 0.0074104667 0.67822862
-0.0018303884 0.0054911971 0.67554533
-0.0018154656 0.0036309361 0.67374396
-0.0018118762 0.0018118918 0.67331076
-0.0018153273 -0 0.67372727
-0.001829572 -0.0018295646 0.67544681
-0.0018521308 -0.0037042499 0.67816991
-0.0018580112 -0.0055740476 0.67887974
-0.0018643179 -0.0074572861 0.67964101
-0.0018725158 -0.0093625784 0.68063056
-0.0018828881 -0.011297315 0.68188262
-0.0018957146 -0.013269991 0.68343091
-0.0019121378 -0.015297085 0.68541342
-0.0019333798 -0.017400414 0.68797755
-0.0019634075 -0.019634098 0.69160223
-0.0020182102 -0.022200286 0.69821745
-0.0020535372 -0.024642438 0.70248187
0 0.028919607 0.70394826
0 0.026590347 0.70150089
0 0.023745745 0.69346178
0 0.021816552 0.6940062
0 0.021967262 0.71976602
0 0.017159909 0.68475199
0 0.015148848 0.68317628
0 0.013179034 0.68186295
0 0.011245489 0.68083972
0 0.0093392134 0.68006694
0 0.0074483454 0.67937052
0 0.0055196285 0.67669094
0 0.0036492646 0.67485005
0 0.0018209517 0.67440999
0 -0 0.67483318
0 -0.0018390417 0.67658806
0 -0.0037231147 0.67930686
0 -0.00560233 0.6800189
0 -0.0074954033 0.68079054
0 -0.0094110072 0.68180054
0 -0.011356443 0.68307257
0 -0.013340414 0.68464506
0 -0.015380561 0.68667281
0 -0.017499268 0.68930334
0 -0.01975286 0.6930365
0 -0.022384673 0.70024067
0 -0.024776071 0.70382589
0.0020770996 0.029079407 0.70532602
0.002059564 0.026774347 0.70320934
0.0019912159 0.023894578 0.69495898
0.0019923022 0.021915317 0.69509006
0.0022075397 0.022075415 0.72107148
0.0019169216 0.017252266 0.68599081
0.0019036047 0.015228838 0.68438333
0.0018925094 0.013247579 0.68304402
0.0018839373 0.011303604 0.68200928
0.0018773987 0.0093869567 0.68122
0.0018716333 0.007486552 0.68052405
0.0018494676 0.0055484474 0.6778484
0.0018338837 0.0036677718 0.67596734
0.0018301809 0.0018302202 0.6755203
0.0018337358 -2.9802322e-08 0.67594945
0.0018485794 -0.0018485785 0.67774117
0.0018710734 -0.0037421882 0.68045646
0.0018769762 -0.0056309402 0.68116903
0.0018834692 -0.0075338781 0.68195277
0.0018920014 -0.0094599724 0.68298268
0.001902707 -0.011416197 0.68427497
0.001915938 -0.013411582 0.68587214
0.0019331184 -0.015464932 0.68794596
0.0019554656 -0.017599195 0.69064355
0.0019873169 -0.019873172 0.69448835
0.0020520128 -0.02257216 0.70229781
0.002075919 -0.024911016 0.70518351
0.0041776807 0.029243767 0.70674324
0.0041451133 0.026943237 0.70477766
0.0040075346 0.024045199 0.69647408
0.0040027257 0.022015005 0.69618374
0.0044369255 0.02218461 0.72239012
0.0044351164 0.019958049 0.72228086
0.0038274205 0.015309662 0.6856032
0.003804879 0.013317078 0.68424261
0.0037874542 0.011362374 0.683191
0.003774113 0.0094352961 0.6823858
0.0037625621 0.007525146 0.68168861
0.003718328 0.0055775046 0.67901886
0.0036864672 0.0036864877 0.67709589
0.0036789456 0.0018394887 0.67664194
0.003686155 -0 0.67707705
0.0037164639 -0.0018582344 0.67890638
0.0037613742 -0.0037613511 0.6816169
0.0037732164 -0.0056598186 0.68233168
0.0037863939 -0.0075727999 0.68312699
0.0038037796 -0.0095094144 0.68417633
0.003825533 -0.011476606 0.6854893
0.003852484 -0.013483703 0.68711591
0.0038875644 -0.015550256 0.68923318
0.0039334055 -0.017700285 0.69199997
0.0039989827 -0.019994885 0.69595784
0.0041347519 -0.022741169 0.70415229
0.0041745962 -0.0250476 0.7065571
0.0063021709 0.029410154 0.70817769
0.0062549007 0.027104586 0.7062757
0.0060494579 0.024197847 0.69800931
0.0060315183 0.022115558 0.6972875
0.0066884835 0.022294968 0.72372174
0.0066861599 0.020058483 0.72362822
0.0057717934 0.015391469 0.68683696
0.0057374444 0.013387382 0.68545485
0.0057108356 0.01142171 0.68438423
0.0056904205 0.0094840527 0.68356276
0.0056730867 0.0075640976 0.68286526
0.0056068674 0.0056068599 0.68020082
0.0055580381 0.0037053823 0.67823613
0.0055465782 0.0018488765 0.67777503
0.005557565 2.9802322e-08 0.67821705
0.0056039575 -0.0018679798 0.68008375
0.0056712008 -0.0037808418 0.68278944
0.0056890184 -0.0056890249 0.68350637
0.0057091634 -0.0076121986 0.68431693
0.0057356684 -0.0095594525 0.68538338
0.0057688211 -0.011537641 0.68671739
0.0058101523 -0.013557017 0.68838042
0.0058636926 -0.015636504 0.69053471
0.0059342091 -0.017802626 0.69337207
0.0060357391 -0.020119101 0.69745731
0.0062439214 -0.022894353 0.70583391
0.0062963814 -0.025185525 0.70794469
0.0084531121 0.029585928 0.70969313
0.0083899312 0.027267307 0.7077865
0.0081178639 0.024353594 0.69957614
0.0080789346 0.022217065 0.69840133
0.0089621041 0.022405237 0.72505337
0.0089604594 0.020161033 0.72500372
0.0077370172 0.015474051 0.68808305
0.00769052 0.013458431 0.6866799
0.0076544313 0.011481643 0.6855908
0.0076266341 0.0095332861 0.68475199
0.0076033687 0.0076033473 0.68404984
0.0075154039 0.0056365728 0.68139529
0.0074488898 0.003724426 0.67938811
0.0074333972 0.0018583536 0.67892051
0.0074482244 -2.9802322e-08 0.67936802
0.0075113703 -0.0018778443 0.68127358
0.0076008849 -0.003800422 0.68397492
0.0076246588 -0.0057184994 0.68469238
0.0076520899 -0.0076520443 0.68552017
0.0076879798 -0.0096099377 0.68660325
0.0077328617 -0.011599272 0.68795764
0.00778923 -0.013631165 0.68965876
0.0078618666 -0.015723735 0.69185072
0.0079582762 -0.0179061 0.69476014
0.0080994014 -0.020248502 0.69901901
0.0083766934 -0.023035884 0.70738697
0.0084424866 -0.025327474 0.70937246
0.010630369 0.02976504 0.71123773
0.010549059 0.027427524 0.70927471
0.010213778 0.024513036 0.7011804
0.010145231 0.022319496 0.69952548
0.010875662 0.021751344 0.71715963
0.011258083 0.020264566 0.72639203
0.0097234435 0.015557498 0.68934262
0.0096644349 0.013530254 0.68791801
0.0096185459 0.011542261 0.68681014
0.0095831016 0.0095831156 0.68595445
0.0095537528 0.0076430142 0.68524593
0.0094444361 0.0056666434 0.68260682
0.0093593216 0.0037437081 0.68055195
0.0093396502 0.00186795 0.68007702
0.0093584461 -0 0.68053079
0.0094390204 -0.0018877983 0.68247598
0.0095506888 -0.0038202405 0.68517196
0.0095804967 -0.0057482719 0.68589157
0.0096154409 -0.0076923668 0.68673515
0.0096610384 -0.0096610487 0.68783599
0.0097180428 -0.011661679 0.68921226
0.0097900694 -0.013706118 0.69095111
0.0098824576 -0.01581192 0.69318157
0.010006013 -0.018010825 0.69616449
0.010189774 -0.020379543 0.70060086
0.010533735 -0.023174226 0.7089048
0.010615529 -0.02547726 0.7108795
0.012834153 0.029946387 0.71280122
0.012731829 0.027585626 0.71074259
0.012338541 0.024677068 0.7028302
0.01223067 0.02242291 0.70065999
0.013091029 0.02181837 0.71796906
0.013579486 0.020369262 0.72779608
0.01173142 0.015641898 0.69061583
0.011659477 0.013602704 0.68916845
0.011603507 0.011603504 0.68804246
0.011560077 0.0096333921 0.68716872
0.011524577 0.0076830387 0.68645447
0.011394794 0.0056974292 0.68384349
0.011289639 0.0037631989 0.68172789
0.011265661 0.0018776357 0.68124551
0.011288578 -0 0.68170655
0.01138723 -0.0018978715 0.68369126
0.011520949 -0.0038403273 0.68638158
0.011556785 -0.0057783723 0.68710244
0.011599606 -0.007733047 0.68796396
0.011655178 -0.0097126365 0.68908203
0.011724684 -0.011724681 0.69048035
0.011813079 -0.013781935 0.69225872
0.011925844 -0.015901119 0.69452733
0.012077839 -0.018116713 0.69758528
0.012307384 -0.020512283 0.70220333
0.012716674 -0.02331388 0.71043766
0.012814432 -0.025628865 0.71240443
0.015064954 0.03012991 0.71438372
0.014939522 0.02774483 0.71222079
0.014496668 0.024851471 0.704584
0.014335517 0.022527248 0.70180511
0.015324321 0.021891892 0.71885633
0.015925357 0.020475447 0.72922087
0.013761294 0.015727222 0.69190294
0.013676073 0.013676077 0.69043338
0.013609647 0.011665404 0.6892879
0.013557914 0.0096842349 0.6883958
0.013516163 0.0077235401 0.68767577
0.013366423 0.0057284832 0.68509364
0.013240205 0.003782928 0.68291706
0.013211737 0.0018873811 0.68242621
0.013238853 -0 0.68289375
0.013356331 -0.0019080639 0.6849196
0.01351194 -0.0038605332 0.687603
0.013553927 -0.0058088303 0.68832701
0.013604837 -0.007774204 0.68920493
0.013670736 -0.0097648203 0.69034135
0.013753081 -0.011788338 0.69176131
0.013858543 -0.013858557 0.69357991
0.013992526 -0.015991479 0.69589043
0.014174468 -0.018224299 0.6990279
0.014452761 -0.020646781 0.70382684
0.014923099 -0.023450613 0.71193761
0.015039596 -0.025782168 0.71394646
0.017330768 0.03032884 0.71609902
0.017170487 0.027902067 0.71368057
0.016685506 0.025028288 0.70636272
0.016460048 0.022632539 0.70296085
0.017567698 0.021959603 0.71967399
0.018297665 0.020584852 0.73068833
0.015813494 0.015813529 0.69320512
0.015714535 0.013750225 0.69171196
0.015637249 0.011727929 0.69054574
0.015576945 0.0097355843 0.68963593
0.015528842 0.0077643991 0.68891007
0.015359675 0.0057598948 0.6863575
0.015211591 0.0038028955 0.6841231
0.015178195 0.0018972456 0.6836192
0.015209626 -0 0.68409348
0.01534666 -0.0019183159 0.68616116
0.015524085 -0.0038810372 0.68883824
0.015572217 -0.0058395565 0.68956453
0.01563157 -0.0078158081 0.69046009
0.015707999 -0.009817481 0.69161338
0.015803691 -0.011852741 0.69305724
0.015926875 -0.013935983 0.69491589
0.01608392 -0.016083896 0.69728553
0.016297864 -0.018335074 0.70051372
0.016626528 -0.020783126 0.70547283
0.017153932 -0.023586631 0.71343076
0.017291613 -0.025937438 0.71550822
0.019636201 0.030545175 0.71796447
0.019425958 0.028059721 0.71514463
0.018905638 0.02520749 0.708166
0.018604539 0.022738874 0.70412755
0.019820811 0.022023171 0.72044051
0.020695556 0.020695567 0.73217285
0.017888268 0.015900671 0.69452071
0.017775223 0.013825178 0.69300449
0.017686769 0.011791199 0.69181812
0.017617574 0.0097875595 0.69089007
0.01756295 0.0078057349 0.69015741
0.017374907 0.0057916045 0.68763536
0.017203916 0.0038231015 0.68534195
0.017165357 0.001907289 0.68482476
0.017201288 -2.9802322e-08 0.68530673
0.017358564 -0.0019287169 0.6874162
0.017557679 -0.00390172 0.69008672
0.017611925 -0.0058706403 0.69081432
0.017680034 -0.0078578293 0.69172782
0.017767439 -0.0098708272 0.69290012
0.017876765 -0.011917859 0.6943664
0.018018534 -0.014014393 0.6962679
0.018199569 -0.016177416 0.69869602
0.018447161 -0.018447161 0.70201671
0.018833293 -0.020925879 0.70719564
0.019410301 -0.023723692 0.71493465
0.019574234 -0.026098996 0.7171334
0.02197486 0.030764788 0.71985793
0.021707067 0.028219193 0.71662539
0.021157891 0.025389463 0.70999622
0.02076927 0.022846192 0.70530522
0.022087676 0.022087693 0.72121978
0.023119269 0.020807385 0.7336722
0.019986048 0.015988827 0.69585091
0.01985842 0.013900906 0.69431025
0.019758515 0.011855096 0.69310433
0.019680023 0.0098400116 0.69215685
0.019618832 0.0078475475 0.69141817
0.019412484 0.0058237314 0.68892729
0.019217512 0.0038434863 0.68657386
0.019173549 0.0019173622 0.68604314
0.019214043 -0 0.68653196
0.019392395 -0.0019392073 0.68868482
0.019613065 -0.0039226115 0.69134855
0.019673524 -0.0059020519 0.69207835
0.019750714 -0.0079002678 0.69301015
0.01984936 -0.00992468 0.69420087
0.019972805 -0.011983663 0.69569099
0.020133782 -0.014093637 0.69763416
0.020340033 -0.016272008 0.70012385
0.020622889 -0.018560588 0.70353818
0.02107315 -0.021073163 0.70897335
0.021690035 -0.023859024 0.71641982
0.021898113 -0.026277751 0.71893156
0.024013728 0.028379858 0.71811736
0.023442894 0.025574058 0.71185315
0.022954628 0.022954613 0.70649505
0.024384387 0.022167623 0.7221849
0.025569424 0.020920426 0.73518908
0.022107217 0.016077965 0.69719589
0.021964649 0.013977468 0.69563138
0.021852849 0.011919796 0.69440448
0.021764705 0.0098930597 0.69343722
0.021696839 0.0078897774 0.69269252
0.02147278 0.0058561862 0.69023371
0.021252723 0.0038641393 0.68781894
0.021203192 0.0019275844 0.68727529
0.021248294 -0 0.68777031
0.021448512 -0.0019498169 0.68996739
0.021690598 -0.0039437115 0.69262397
0.021757478 -0.005933851 0.69335794
0.021843828 -0.007943213 0.69430554
0.021954136 -0.0099791586 0.69551599
0.02209249 -0.01205042 0.69703424
0.022273082 -0.014173776 0.69901597
0.022505596 -0.016367704 0.70156753
0.022825543 -0.018675417 0.70507848
0.023344854 -0.021222591 0.71077728
0.023994882 -0.023994893 0.71791053
0.024254045 -0.026458979 0.7207545
0.026346112 0.028541625 0.71961933
0.025768002 0.025768042 0.71380401
0.025160722 0.023064017 0.70769519
0.026697902 0.022248268 0.72315812
0.028046362 0.021034807 0.73672253
0.024253447 0.016168982 0.6985687
0.024094222 0.014054984 0.69696707
0.023970045 0.011985004 0.69571799
0.023872077 0.0099466741 0.69473249
0.023797331 0.0079324543 0.69398057
0.023556177 0.0058890581 0.69155478
0.023309901 0.0038850009 0.68907744
0.023254471 0.001937896 0.68851984
0.023304474 2.9802322e-08 0.68902278
0.023527285 -0.0019606054 0.69126415
0.023790637 -0.0039650798 0.69391322
0.023864202 -0.0059660375 0.69465321
0.023959907 -0.007986635 0.69561601
0.024082145 -0.010034174 0.69684553
0.024236413 -0.012118191 0.6983974
0.024436848 -0.014254838 0.70041364
0.024696877 -0.016464561 0.70302927
0.025055727 -0.018791795 0.70663911
0.025648901 -0.021374077 0.71260595
0.026326127 -0.024132252 0.71941829
0.026663167 -0.026663184 0.72280866
0.028705362 0.028705359 0.72113973
0.028157134 0.025991172 0.71604919
0.027387941 0.023174405 0.70890689
0.029037252 0.022336364 0.72422153
0.030550521 0.02115038 0.73827285
0.026423998 0.016260952 0.6999563
0.026247425 0.014133245 0.69831669
0.026110668 0.012051076 0.69704688
0.026002428 0.010000944 0.69604182
0.025920672 0.0079755783 0.6952827
0.025663067 0.0059222579 0.6928907
0.025389403 0.0039060712 0.69034964
0.025327811 0.0019483268 0.68977773
0.025382765 -0 0.69028795
0.02562909 -0.0019714236 0.69257522
0.025913445 -0.0039866567 0.69521558
0.025993804 -0.0059985816 0.69596171
0.026099142 -0.0080304742 0.69693983
0.02623377 -0.010089874 0.69818997
0.026404688 -0.012186766 0.69977701
0.026625611 -0.014336854 0.70182836
0.026914142 -0.016562521 0.70450747
0.027313765 -0.018909514 0.70821816
0.027991494 -0.02153191 0.71451116
0.028684475 -0.024271488 0.72094584
0.031094462 0.028873414 0.72270036
0.030588014 0.026218295 0.7183336
0.029667212 0.023309946 0.71039432
0.031410966 0.02243641 0.7254293
0.033082511 0.021267325 0.73984164
0.028619496 0.016353995 0.70136064
0.028424859 0.014212459 0.69968247
0.028275015 0.012117833 0.69839054
0.028156476 0.010055929 0.69736844
0.02806724 0.0080192089 0.69659907
0.027793845 0.0059558153 0.69424176
0.02749159 0.00392735 0.69163561
0.027423568 0.0019588172 0.69104916
0.027483607 2.9802322e-08 0.69156682
0.027754312 -0.0019824505 0.69390088
0.028059145 -0.0040084124 0.69652921
0.028146861 -0.0060314536 0.69728553
0.028262123 -0.0080748796 0.69827938
0.028409297 -0.010146171 0.6995483
0.028597528 -0.012256056 0.70117128
0.028839596 -0.014419794 0.7032584
0.029158071 -0.016661733 0.70600432
0.02960027 -0.019028753 0.70981717
0.030380404 -0.021700293 0.71654356
0.031071017 -0.02441296 0.72249818
0.0335126 0.029044271 0.72428656
0.03306175 0.026449412 0.72065842
0.031999614 0.023466349 0.71211094
0.033806045 0.02253738 0.72664797
0.03564249 0.021385491 0.74142653
0.030840145 0.016448081 0.70278025
0.030626832 0.014292538 0.70106369
0.030463487 0.012185395 0.69974917
0.030334452 0.010111481 0.6987108
0.030237418 0.0080633163 0.69792986
0.029948806 0.0059897602 0.69560724
0.029616838 0.0039488971 0.69293582
0.029542111 0.0019694865 0.69233447
0.02960749 2.9802322e-08 0.69286054
0.029903343 -0.0019935668 0.69524145
0.030228285 -0.0040304363 0.69785637
0.030323546 -0.006064713 0.69862294
0.030449027 -0.0081197321 0.69963276
0.030609343 -0.010203153 0.70092291
0.030815452 -0.012326181 0.70258152
0.031079339 -0.014503688 0.70470512
0.031428911 -0.016762108 0.70751822
0.031917147 -0.019150227 0.71144724
0.032806825 -0.021871209 0.71860689
0.033485387 -0.024555922 0.72406751
0.035960976 0.029218286 0.72590256
0.035581384 0.026686043 0.72303873
0.034363676 0.023625046 0.71385181
0.036222775 0.022639245 0.72787762
0.038228523 0.021503597 0.74300987
0.033086628 0.016543329 0.70421726
0.032853764 0.014373541 0.70246041
0.032676354 0.012253612 0.70112193
0.032536648 0.010167718 0.70006794
0.032431465 0.0081079006 0.69927442
0.032128595 0.0060241222 0.69698942
0.031765655 0.0039707124 0.6942513
0.031683814 0.0019802451 0.69363379
0.031754568 -0 0.69416761
0.03207659 -0.0020047426 0.6965971
0.03242122 -0.004052639 0.69919717
0.032524485 -0.00609833 0.69997615
0.032660492 -0.0081651211 0.7010023
0.032834224 -0.010260731 0.70231301
0.033059031 -0.01239711 0.704009
0.033345301 -0.014588565 0.70616877
0.033727407 -0.016863674 0.70905155
0.034268361 -0.019275934 0.71313274
0.035277832 -0.022048622 0.72074866
0.035928376 -0.024700761 0.72565657
0.03675976 0.02378574 0.71561533
0.036914505 0.021714419 0.71671408
0.040840715 0.021621555 0.74459261
0.035359129 0.01663956 0.70567
0.035105936 0.014455408 0.70387214
0.034914289 0.012322694 0.70251131
0.034763321 0.010224521 0.70143938
0.034649752 0.0081529021 0.70063293
0.034333531 0.0060588717 0.69838756
0.033938188 0.0039927363 0.69558042
0.033849053 0.001991123 0.69494748
0.033925328 -0 0.69548911
0.034274459 -0.0020161271 0.69796807
0.034638602 -0.00407511 0.70055377
0.034749828 -0.0061323047 0.70134354
0.034896668 -0.0082109869 0.70238626
0.035084363 -0.010318935 0.70371896
0.035328437 -0.012468874 0.70545202
0.035638236 -0.014674544 0.70765185
0.036053792 -0.016966492 0.71060246
0.036650635 -0.019403279 0.71484041
0.037823036 -0.022248834 0.72316521
0.039188668 0.02394861 0.71740294
0.039279766 0.021822125 0.71801388
0.043481734 0.021740884 0.74619293
0.037658397 0.016737074 0.70714074
0.037385151 0.014538676 0.70530832
0.037177593 0.012392521 0.70391637
0.03701517 0.01028201 0.70282716
0.036892809 0.0081983805 0.70200664
0.036564201 0.0060940087 0.69980288
0.036134955 0.0040149987 0.69692433
0.036038369 0.0020021498 0.69627661
0.036120173 -0 0.69682521
0.036497373 -0.002027601 0.69935471
0.036880571 -0.0040978491 0.70192456
0.037000269 -0.0061666965 0.7027272
0.037158262 -0.0082573593 0.70378673
0.037360184 -0.010377824 0.70514083
0.037624255 -0.012541443 0.7069118
0.037960444 -0.014762402 0.70916629
0.03840936 -0.0170708 0.71217674
0.039064415 -0.019532204 0.71656972
0.041800149 0.024200112 0.72016233
0.041668601 0.021930873 0.71932656
0.046152063 0.021861494 0.74781096
0.039984591 0.01683563 0.70862776
0.039690785 0.014622927 0.70676112
0.039466694 0.012463182 0.70533746
0.039292321 0.010340065 0.70422971
0.039160892 0.0082443953 0.70339471
0.038820758 0.0061295927 0.70123374
0.03835636 0.0040374994 0.69828331
0.038251877 0.0020132661 0.6976195
0.038339652 2.9802322e-08 0.69817716
0.038745765 -0.0020392239 0.70075732
0.039147828 -0.0041207969 0.70331168
0.039275922 -0.0062014461 0.70412546
0.039445404 -0.0083042979 0.70520222
0.03966197 -0.01043734 0.70657808
0.039946955 -0.012614816 0.70838869
0.040310618 -0.014851272 0.71069908
0.040797584 -0.017177939 0.71379292
0.041510675 -0.019662976 0.71832329
0.044313654 0.024372518 0.72205448
0.044079617 0.022039771 0.72064197
0.04885219 0.021983474 0.74944699
0.042338517 0.016935408 0.71013349
0.042023469 0.014708221 0.70823199
0.041781865 0.012534559 0.70677376
0.041595519 0.010398924 0.70564908
0.04145474 0.0082909763 0.70479941
0.04110381 0.0061655641 0.70268142
0.040602822 0.0040602684 0.69965762
0.040490121 0.0020245016 0.69897735
0.040583882 2.9802322e-08 0.6995433
0.041020069 -0.0020510256 0.70217597
0.041440666 -0.0041440725 0.70471442
0.041577544 -0.0062366426 0.70554066
0.04175885 -0.008351773 0.70663488
0.041990492 -0.0104976 0.70803297
0.042297181 -0.012689173 0.70988399
0.042689264 -0.014941245 0.71225047
0.043215964 -0.01728636 0.71542931
0.044151768 -0.019868255 0.72107738
