# .PCD v0.7 - Point Cloud Data file format
VERSION 0.7
FIELDS x y z
SIZE 4 4 4
TYPE F F F
COUNT 1 1 1
WIDTH 1338
HEIGHT 1
VIEWPOINT 0 0 0 1 0 0 0
POINTS 1338
DATA ascii
-0.031525716 0.064802855 0.66601408
-0.031587742 0.063175529 0.66643006
-0.031651799 0.061545163 0.66685957
-0.031721696 0.059918761 0.66732836
-0.031791907 0.058285177 0.66779917
-0.031869866 0.056657553 0.66832197
-0.031948209 0.055021912 0.66884738
-0.032033544 0.053389251 0.66941965
-0.032120716 0.051750064 0.67000419
-0.032214236 0.050111055 0.67063135
-0.032310851 0.048466295 0.67127925
-0.032413881 0.046820074 0.67197019
-0.032520857 0.045167893 0.67268759
-0.03263516 0.043513536 0.67345417
-0.032753609 0.041851848 0.67424852
-0.032881558 0.040188551 0.67510653
-0.033013053 0.03851524 0.67598838
-0.033157684 0.036841869 0.67695826
-0.03330864 0.035159141 0.67797059
-0.0334698 0.033469796 0.6790514
-0.033645976 0.031776756 0.68023288
-0.033834688 0.030075282 0.68149841
-0.034035433 0.02836284 0.68284464
-0.034186848 0.026589781 0.68386
-0.034286276 0.024762332 0.6845268
-0.034355331 0.022903562 0.68498987
-0.034424271 0.021037042 0.68545222
-0.034525882 0.019181013 0.68613362
-0.034661148 0.017330557 0.68704075
-0.034855384 0.015491277 0.68834335
-0.029544085 0.074729145 0.66437948
-0.029577373 0.073073506 0.66461581
-0.029615164 0.071424842 0.66488421
-0.029653158 0.069772124 0.66515392
-0.02969788 0.068130434 0.66547155
-0.029742744 0.066483796 0.66579008
-0.029792536 0.064842582 0.66614366
-0.029844487 0.063200116 0.66651249
-0.029899247 0.061557263 0.66690135
-0.029958326 0.059916645 0.66732085
-0.030018482 0.05827117 0.66774797
-0.030084945 0.056630492 0.66821992
-0.030151704 0.054982543 0.66869396
-0.030225202 0.053338617 0.6692158
-0.030299814 0.051687926 0.66974562
-0.030380221 0.05003801 0.67031658
-0.030463345 0.048382968 0.67090678
-0.030551534 0.046725869 0.67153299
-0.030643547 0.045064062 0.67218637
-0.030740893 0.043398917 0.67287755
-0.030842772 0.041728467 0.67360097
-0.030950846 0.040054023 0.67436838
-0.031063652 0.038372725 0.67516935
-0.031184711 0.036687911 0.67602897
-0.031309713 0.034993231 0.67691654
-0.031446878 0.033296704 0.67789054
-0.031589944 0.031589955 0.67890638
-0.031743433 0.029876173 0.67999625
-0.03191039 0.028156251 0.68118173
-0.032089278 0.026426435 0.68245196
-0.032281328 0.024685711 0.6838156
-0.032428145 0.022890478 0.68485814
-0.032524243 0.021045119 0.68554044
-0.032589912 0.019170523 0.68600678
-0.032655723 0.017288357 0.68647408
-0.032751787 0.015412569 0.6871562
-0.032879908 0.013538778 0.68806595
-0.033064205 0.011669725 0.68937451
-0.027812092 0.076483279 0.66442394
-0.027860872 0.0748761 0.664792
-0.027896404 0.073228061 0.66506004
-0.02792589 0.071560115 0.66528249
-0.027956413 0.069891065 0.6655128
-0.027992288 0.068231225 0.66578341
-0.028028253 0.066567093 0.66605479
-0.028069826 0.064911485 0.66636837
-0.028112406 0.063252926 0.66668963
-0.028158681 0.061597079 0.6670388
-0.028207991 0.059941977 0.66741085
-0.028259071 0.058284342 0.66779613
-0.028315144 0.056630284 0.66821921
-0.028371336 0.05496949 0.66864312
-0.028434418 0.053314537 0.669119
-0.028497878 0.051652431 0.6695978
-0.028566826 0.049991935 0.67011797
-0.02863764 0.048326075 0.67065227
-0.028713135 0.046658814 0.67122179
-0.028791925 0.044987381 0.67181623
-0.028874898 0.043312341 0.6724422
-0.028962227 0.041633219 0.67310107
-0.02905388 0.039949089 0.67379248
-0.029150574 0.038260132 0.67452198
-0.029252509 0.036565602 0.67529106
-0.029359464 0.034864396 0.67609799
-0.029473715 0.033157915 0.67695993
-0.029592248 0.031441778 0.67785424
-0.029721776 0.029721797 0.6788314
-0.029856786 0.027990729 0.67984998
-0.030002469 0.02625218 0.68094903
-0.030160259 0.024505228 0.68213952
-0.030329132 0.022746861 0.68341351
-0.03051177 0.020976871 0.68479145
-0.030654067 0.01915881 0.68586504
-0.030746603 0.017294973 0.68656313
-0.030808959 0.015404522 0.68703353
-0.030871332 0.013506234 0.68750411
-0.030961832 0.011610687 0.68818688
-0.031082885 0.0097134113 0.68910015
-0.031257279 0.0078142881 0.69041586
-0.026013829 0.076307267 0.66394103
-0.026107756 0.074842244 0.66469693
-0.026179425 0.073302388 0.66527373
-0.026230479 0.071696639 0.66568452
-0.026265822 0.070042193 0.66596895
-0.026293704 0.068363637 0.66619337
-0.026321551 0.066681236 0.66641742
-0.026355473 0.06501016 0.66669041
-0.026389483 0.063334763 0.66696405
-0.026427859 0.061664999 0.66727287
-0.026468121 0.0599944 0.66759694
-0.026510941 0.058324099 0.66794151
-0.02655747 0.056655943 0.66831595
-0.02660501 0.054983705 0.66869855
-0.026658023 0.053316057 0.66912508
-0.026711153 0.051641554 0.66955268
-0.026770033 0.049970746 0.67002648
-0.026829937 0.048293859 0.67050862
-0.026894353 0.046616912 0.67102695
-0.026961302 0.044935495 0.67156577
-0.027031898 0.043251038 0.6721338
-0.027106488 0.041563302 0.67273408
-0.027184147 0.039870054 0.67335904
-0.027266711 0.038173378 0.67402345
-0.027352666 0.036470205 0.67471516
-0.027444182 0.034762651 0.67545164
-0.027539749 0.033047736 0.67622066
-0.027640868 0.031326354 0.67703444
-0.027748169 0.029598057 0.67789793
-0.027860235 0.027860224 0.67879975
-0.027982075 0.02611661 0.67978024
-0.028108986 0.024361134 0.68080163
-0.028246723 0.022597402 0.68190998
-0.028395159 0.020823121 0.68310452
-0.028554179 0.019036114 0.68438423
-0.028726969 0.017236173 0.68577474
-0.028864292 0.0153943 0.68687981
-0.02895315 0.013511479 0.68759489
-0.029012019 0.011604816 0.68806863
-0.02907113 0.0096903741 0.68854427
-0.029156053 0.0077749491 0.6892277
-0.029269872 0.0058539808 0.6901437
-0.029434133 0.0039245486 0.69146556
-0.024155745 0.077643454 0.66287339
-0.024214864 0.076103866 0.66338313
-0.024282433 0.074581772 0.6639657
-0.024371818 0.073115468 0.66473639
-0.024460666 0.071634829 0.66550243
-0.024533397 0.07009545 0.66612959
-0.024586095 0.06848985 0.6665839
-0.024621094 0.066828668 0.66688573
-0.024647342 0.065139383 0.66711205
-0.024673561 0.063446313 0.66733807
-0.024704538 0.061761379 0.66760516
-0.024736555 0.060074508 0.66788119
-0.02477172 0.058390498 0.6681844
-0.024809621 0.05670771 0.66851127
-0.024849048 0.055022895 0.6688512
-0.024892934 0.053341985 0.66922951
-0.024936976 0.051655203 0.66960931
-0.02498679 0.049973577 0.67003882
-0.025036799 0.048285276 0.67047
-0.025091415 0.046598315 0.67094088
-0.025147803 0.044906765 0.67142713
-0.025207713 0.043213218 0.67194366
-0.02527073 0.041516185 0.67248702
-0.025336539 0.039814562 0.67305446
-0.025406655 0.038109958 0.67365897
-0.025479198 0.036398858 0.67428446
-0.025556909 0.03468439 0.67495453
-0.02563707 0.032961935 0.67564565
-0.02572321 0.031235307 0.67638838
-0.025812497 0.029500008 0.67715824
-0.025907774 0.02775833 0.67797971
-0.026008002 0.02600801 0.67884392
-0.026113587 0.024248302 0.67975426
-0.026227489 0.022480726 0.68073636
-0.026346356 0.020700693 0.68176126
-0.026476005 0.018911451 0.68287909
-0.026615025 0.017109662 0.68407774
-0.026763998 0.015293717 0.68536222
-0.02692665 0.013463318 0.6867646
-0.027058743 0.01159656 0.68790364
-0.027143672 0.009694159 0.68863583
-0.027199108 0.0077711642 0.68911386
-0.027254667 0.0058402717 0.6895929
-0.027334111 0.0039048791 0.69027781
-0.027440758 0.0019600391 0.6911974
-0.027594687 -0 0.69252455
-0.022459455 0.077744275 0.66314375
-0.022484221 0.076100409 0.66337371
-0.022523927 0.07450223 0.66374236
-0.022575129 0.072935045 0.66421789
-0.022635227 0.071388006 0.66477591
-0.022717204 0.069899112 0.66553706
-0.022800816 0.068402439 0.66631347
-0.022873942 0.066862315 0.66699249
-0.02292772 0.065255791 0.66749179
-0.022961549 0.063585877 0.66780597
-0.022986623 0.061887026 0.66803879
-0.023011182 0.060183108 0.66826677
-0.0230393 0.058484375 0.6685279
-0.023069289 0.056785941 0.66880631
-0.023101406 0.055087984 0.66910452
-0.023136903 0.053392828 0.66943419
-0.023173004 0.051693618 0.66976941
-0.023214107 0.049999624 0.67015105
-0.023255356 0.048299581 0.67053407
-0.023301175 0.046602339 0.67095947
-0.023348093 0.044900209 0.67139518
-0.023398573 0.043197364 0.67186391
-0.02345138 0.041490912 0.67235422
-0.023506809 0.039780736 0.67286891
-0.023565825 0.038067877 0.67341685
-0.023626771 0.036348879 0.6739828
-0.023692433 0.034627438 0.67459249
-0.023759676 0.032898009 0.67521691
-0.023832453 0.03116551 0.67589265
-0.023906905 0.029423892 0.67658401
-0.023987576 0.027677983 0.67733306
-0.02407057 0.025922149 0.67810369
-0.024159798 0.024159789 0.67893219
-0.024253123 0.022387505 0.67979872
-0.024351908 0.020605475 0.68071604
-0.024458032 0.018813878 0.68170142
-0.024568705 0.017009109 0.68272907
-0.024690127 0.015193939 0.68385649
-0.024819665 0.013364464 0.68505931
-0.024958514 0.011519313 0.68634868
-0.025110845 0.0096580386 0.68776309
-0.025237206 0.0077652931 0.68893641
-0.025317656 0.0058425367 0.68968344
-0.025369795 0.0039030612 0.69016755
-0.025421949 0.001955539 0.69065177
-0.025495686 -0 0.69133651
-0.025595104 -0.0019688308 0.69225967
-0.025738718 -0.0039598048 0.6935932
-0.020815752 0.078059077 0.66398823
-0.020811856 0.076310158 0.66394907
-0.020822538 0.074614108 0.66405648
-0.020841546 0.072945416 0.66424769
-0.020878436 0.07133466 0.66461873
-0.020922158 0.069740534 0.66505861
-0.02097808 0.068178773 0.6656211
-0.021049934 0.066658139 0.66634387
-0.021128152 0.065145135 0.66713071
-0.02120089 0.063602686 0.66786236
-0.021253873 0.06199044 0.6683954
-0.021286499 0.060311705 0.66872358
-0.021311356 0.058606237 0.66897357
-0.0213343 0.056891471 0.66920441
-0.021359572 0.05517891 0.66945863
-0.021387495 0.053468734 0.66973948
-0.02141656 0.05175668 0.67003191
-0.021449689 0.050049305 0.6703651
-0.021482766 0.048336267 0.67069781
-0.021520803 0.046628386 0.67108047
-0.021559209 0.044914991 0.67146683
-0.021601168 0.043202341 0.67188889
-0.021644853 0.041485965 0.67232835
-0.021691145 0.039767087 0.67279398
-0.02174031 0.038045526 0.67328858
-0.021791281 0.036318839 0.67380124
-0.021846225 0.034589887 0.67435396
-0.021902326 0.032853514 0.67491829
-0.021963537 0.031115025 0.67553407
-0.022025496 0.029367328 0.6761573
-0.022093248 0.02761659 0.67683876
-0.022161992 0.02585566 0.67753035
-0.022237092 0.024090201 0.67828578
-0.022313781 0.022313774 0.67905718
-0.022396849 0.020530432 0.67989284
-0.022483146 0.018735945 0.68076086
-0.022575201 0.016931415 0.68168688
-0.022673408 0.015115589 0.68267477
-0.022775842 0.013285905 0.68370521
-0.022888886 0.011444449 0.68484235
-0.023008876 0.0095870197 0.68604934
-0.023137527 0.0077125132 0.68734348
-0.023279354 0.0058198273 0.68877017
-0.023399472 0.0038999021 0.68997848
-0.023474947 0.0019562542 0.69073766
-0.023524061 -0 0.69123167
-0.023572544 -0.0019643903 0.69171941
-0.023640763 -0.0039401054 0.69240564
-0.023732804 -0.0059331656 0.69333148
-0.023866002 -0.0079553127 0.69467133
-0.019374631 0.079259843 0.66720927
-0.019208966 0.076835871 0.66539133
-0.019173902 0.074952513 0.66500658
-0.019165955 0.073179126 0.66491932
-0.01917123 0.071456432 0.66497719
-0.019188005 0.069774538 0.66516131
-0.019219162 0.068140686 0.66550314
-0.019255875 0.066520333 0.66590607
-0.01930755 0.064943582 0.66647309
-0.019369926 0.06339249 0.66715765
-0.019442525 0.061862588 0.66795433
-0.019513384 0.060314089 0.66873193
-0.019563114 0.058689326 0.66927767
-0.019596966 0.057009399 0.66964912
-0.019621348 0.05529654 0.66991669
-0.019642565 0.053570658 0.67014945
-0.019665165 0.051844537 0.67039752
-0.019690985 0.050122529 0.67068088
-0.019717155 0.048396677 0.670968
-0.019747717 0.046676397 0.67130339
-0.019778373 0.044950843 0.6716398
-0.019812832 0.043228 0.67201793
-0.019848343 0.041501075 0.67240763
-0.019886494 0.039772987 0.67282629
-0.019926885 0.038042247 0.67326957
-0.019969035 0.036307365 0.6737321
-0.020014491 0.034570456 0.67423093
-0.020061035 0.032827139 0.67474169
-0.020111907 0.031082064 0.67529994
-0.020163188 0.029328257 0.67586267
-0.020219706 0.027572334 0.6764828
-0.020276615 0.025806606 0.67710739
-0.020339107 0.024037123 0.67779315
-0.020402212 0.02225697 0.67848563
-0.020471571 0.020471603 0.67924672
-0.020542014 0.018674552 0.6800198
-0.020618739 0.016869903 0.68086171
-0.020698061 0.015053123 0.68173224
-0.020783095 0.013225615 0.68266535
-0.020873344 0.011385471 0.68365562
-0.020967972 0.0095309019 0.68469411
-0.02107209 0.0076625943 0.68583673
-0.021182545 0.0057770908 0.68704879
-0.021300923 0.0038728714 0.68834782
-0.021432059 0.0019483864 0.68978685
-0.021545319 -0 0.69102973
-0.021615634 -0.0019650459 0.69180137
-0.021661486 -0.0039384365 0.69230455
-0.021706423 -0.0059199333 0.69279766
-0.02176901 -0.0079160035 0.69348454
-0.021853629 -0.0099334419 0.69441307
-0.021976314 -0.01198709 0.69575936
-0.017976269 0.082690835 0.67159075
-0.017945195 0.080753356 0.67121553
-0.017914163 0.078822285 0.67084104
-0.01786606 0.076824039 0.67026031
-0.017563162 0.073765278 0.66660404
-0.017518396 0.071825415 0.66606367
-0.017504727 0.070018888 0.66589868
-0.017505342 0.068270802 0.66590607
-0.017520726 0.066578746 0.6660918
-0.017545793 0.064919472 0.66639435
-0.017577229 0.063278049 0.6667738
-0.017623475 0.061682135 0.66733211
-0.017676895 0.06010142 0.66797698
-0.017743215 0.058552593 0.66877747
-0.01780921 0.056989491 0.66957408
-0.017858282 0.055360645 0.67016649
-0.01789283 0.053678513 0.67058349
-0.017916407 0.051957548 0.6708681
-0.017935866 0.05022043 0.671103
-0.017955884 0.048480868 0.67134464
-0.017979564 0.04674685 0.6716305
-0.018003371 0.045008451 0.6719178
-0.018030943 0.043274283 0.67225063
-0.018059056 0.041535825 0.67259002
-0.018090004 0.039798051 0.67296356
-0.018122569 0.038057387 0.67335665
-0.018156962 0.036313951 0.67377186
-0.018194001 0.034568608 0.67421895
-0.01823212 0.032817841 0.6746791
-0.018273804 0.031065494 0.67518222
-0.018315947 0.029305547 0.67569095
-0.018362528 0.027543813 0.67625326
-0.018409347 0.025773108 0.67681843
-0.0184609 0.023999184 0.67744064
-0.018513015 0.022215635 0.67806983
-0.018569905 0.020426899 0.67875648
-0.018627701 0.018627703 0.67945415
-0.018690813 0.016821712 0.68021607
-0.018754916 0.015003949 0.6809898
-0.018825268 0.013177663 0.68183899
-0.018897504 0.011338502 0.68271095
-0.01897555 0.0094877779 0.68365312
-0.019057799 0.007623136 0.68464595
-0.019144498 0.0057433248 0.68569243
-0.019239534 0.0038479269 0.68683964
-0.019340299 0.0019340515 0.68805599
-0.019448325 2.9802322e-08 0.6893599
-0.019568576 -0.0019568503 0.69081151
-0.01967391 -0.0039347708 0.692083
-0.019739496 -0.0059218109 0.69287467
-0.019782029 -0.0079127848 0.6933881
-0.019823173 -0.009911567 0.69388479
-0.019880118 -0.011928052 0.69457215
-0.019957351 -0.013970137 0.69550443
-0.0200695 -0.016055584 0.69685823
-0.016346486 0.083548725 0.67384183
-0.016300097 0.0815005 0.67321968
-0.01626078 0.079497188 0.67269236
-0.016232528 0.077555418 0.67231345
-0.016204316 0.075620174 0.67193502
-0.01617109 0.073668331 0.67148936
-0.015898252 0.070658892 0.66782999
-0.015846226 0.068666965 0.6671322
-0.015828012 0.066829354 0.66688794
-0.015824953 0.065058142 0.66684693
-0.015838645 0.063354582 0.66703057
-0.015858224 0.06167087 0.66729307
-0.015886756 0.060016632 0.66767585
-0.015925691 0.058394223 0.66819799
-0.015970819 0.056785136 0.66880327
-0.016030913 0.055217594 0.66960931
-0.016091118 0.053637087 0.67041677
-0.016139273 0.052004337 0.67106265
-0.016173761 0.05031839 0.67152524
-0.016196331 0.048588991 0.67182791
-0.016214002 0.046840459 0.6720649
-0.01623165 0.045087904 0.67230165
-0.016253034 0.043341428 0.67258847
-0.01627465 0.04159075 0.67287838
-0.016299095 0.039842248 0.67320621
-0.016324561 0.038090616 0.6735478
-0.016352126 0.036338061 0.67391747
-0.016381631 0.034583449 0.67431325
-0.016412377 0.032824755 0.67472565
-0.016446004 0.031064689 0.67517662
-0.016480068 0.029297918 0.67563343
-0.016517909 0.027529895 0.67614102
-0.016555926 0.025753647 0.67665088
-0.016597969 0.023974836 0.6772148
-0.016640473 0.022187293 0.67778492
-0.01668678 0.020394981 0.678406
-0.016734155 0.01859352 0.67904139
-0.016785303 0.016785324 0.67972744
-0.01683777 0.014966875 0.68043113
-0.016894624 0.013140261 0.68119371
-0.016952755 0.011301875 0.68197334
-0.017016303 0.0094535053 0.68282562
-0.017081428 0.007591784 0.68369913
-0.017152214 0.0057173967 0.68464851
-0.017226489 0.0038281083 0.68564475
-0.017305199 0.001922816 0.6867004
-0.017391011 -0 0.68785131
-0.01748202 -0.001942426 0.68907201
-0.017579749 -0.0039066076 0.69038272
-0.017688785 -0.0058962703 0.69184512
-0.017785754 -0.007904768 0.69314575
-0.017846299 -0.009914577 0.69395781
-0.017885355 -0.011923552 0.69448161
-0.017922727 -0.013939857 0.69498289
-0.017974017 -0.015976906 0.69567084
-0.018043732 -0.018043727 0.6966058
-0.018145155 -0.020161271 0.69796616
-0.014730458 0.084700137 0.67686337
-0.014664083 0.082485497 0.67586184
-0.014608959 0.080349267 0.67503005
-0.014567277 0.078299105 0.67440116
-0.014527784 0.076270878 0.67380524
-0.014502361 0.074324608 0.67342168
-0.014477081 0.07238543 0.67304015
-0.014451731 0.070452183 0.67265767
-0.014216249 0.067527205 0.66910452
-0.01415702 0.065476209 0.66821086
-0.014135474 0.06360966 0.66788572
-0.014132778 0.061830908 0.66784513
-0.014141565 0.060101658 0.66797769
-0.014156269 0.058394641 0.66819954
-0.014181848 0.056727409 0.66858548
-0.014214079 0.05507955 0.66907179
-0.014252797 0.053447992 0.66965598
-0.014305311 0.051856756 0.67044842
-0.014359554 0.050258428 0.67126685
-0.014405909 0.048619956 0.67196631
-0.014439689 0.046929002 0.67247599
-0.01446092 0.045190364 0.67279637
-0.014476767 0.043430328 0.67303544
-0.014492596 0.04166621 0.67327428
-0.014511194 0.039905846 0.67355496
-0.014530526 0.038142622 0.6738466
-0.014551919 0.036379814 0.67416942
-0.014574809 0.034615189 0.67451483
-0.014598996 0.032847762 0.67487979
-0.014625452 0.031079113 0.67527896
-0.014652543 0.029305071 0.67568773
-0.014682693 0.027530044 0.67614263
-0.014712916 0.025747597 0.67659867
-0.014746739 0.023963451 0.677109
-0.014780826 0.022171259 0.67762339
-0.014818088 0.020374864 0.67818558
-0.0148562 0.018570274 0.67876065
-0.01489728 0.016759485 0.67938054
-0.014939704 0.014939666 0.68002069
-0.014985174 0.013112009 0.68070674
-0.015032219 0.011274159 0.68141657
-0.0150828 0.0094267428 0.68217981
-0.015134981 0.0075674951 0.68296719
-0.015191501 0.0056968033 0.68382001
-0.015249491 0.0038123727 0.68469501
-0.015312962 0.0019141138 0.68565267
-0.015379149 -0 0.68665135
-0.015449786 -0.0019312203 0.6877172
-0.015526312 -0.0038815737 0.68887192
-0.015607555 -0.0058528483 0.69009775
-0.015695129 -0.0078475475 0.69141912
-0.01579253 -0.0098703206 0.6928888
-0.015880622 -0.011910468 0.69421804
-0.015935816 -0.013943851 0.69505084
-0.015971167 -0.015971154 0.69558418
-0.016004693 -0.018005282 0.69609004
-0.016050385 -0.020062983 0.69677949
-0.016112538 -0.022154748 0.69771731
-0.01620313 -0.024304688 0.69908428
-0.013429718 0.088252485 0.68618518
-0.013468864 0.086585581 0.6868602
-0.012965971 0.081500381 0.67818809
-0.012907011 0.079285949 0.67717135
-0.012852449 0.077114671 0.67623049
-0.012815579 0.075062722 0.67559469
-0.012778921 0.073022425 0.67496258
-0.012754537 0.071061015 0.67454201
-0.012732189 0.069117606 0.67415667
-0.012710289 0.067182958 0.67377901
-0.01254773 0.064531177 0.6709758
-0.012450582 0.062252939 0.66930056
-0.012428536 0.060367167 0.66892034
-0.012424568 0.058572948 0.66885191
-0.012429286 0.056819588 0.66893327
-0.012440366 0.05509305 0.66912436
-0.012462322 0.053409934 0.66950297
-0.012488361 0.051737517 0.66995198
-0.012522519 0.050090075 0.67054105
-0.012566143 0.048469424 0.67129326
-0.012614251 0.046852946 0.6721229
-0.012658061 0.045207381 0.67287838
-0.012689797 0.043507904 0.67342561
-0.01270955 0.041759968 0.67376626
-0.012723956 0.039989591 0.67401469
-0.012737931 0.038213789 0.67425567
-0.01275384 0.036439538 0.67453003
-0.012770954 0.034664005 0.67482513
-0.012789327 0.032886863 0.67514199
-0.012809534 0.031108886 0.67549038
-0.012830415 0.029326677 0.67585051
-0.01285377 0.027543813 0.67625326
-0.012877257 0.025754511 0.67665821
-0.012903824 0.023964256 0.67711639
-0.01293055 0.022166669 0.6775772
-0.012959975 0.020365685 0.67808473
-0.012990063 0.018557221 0.67860359
-0.013022568 0.016743302 0.67916405
-0.013056208 0.014921367 0.67974418
-0.013092129 0.01309213 0.6803636
-0.013129573 0.011253923 0.68100929
-0.013169364 0.0094066858 0.68169546
-0.01321089 0.0075491071 0.68241155
-0.013255137 0.0056807697 0.68317461
-0.013301196 0.0038003325 0.68396884
-0.013350731 0.0019072592 0.68482304
-0.013401713 -2.9802322e-08 0.6857022
-0.013457634 -0.0019224882 0.68666649
-0.013515693 -0.0038616061 0.68766767
-0.013577992 -0.0058191419 0.68874198
-0.013645225 -0.0077972412 0.68990135
-0.013716564 -0.0097975135 0.69113159
-0.013793866 -0.011823297 0.69246459
-0.013879465 -0.013879448 0.69394076
-0.013958231 -0.015952259 0.69529903
-0.014007802 -0.01801005 0.69615382
-0.014039415 -0.020056278 0.69669896
-0.014068965 -0.022108406 0.69720852
-0.014108919 -0.024186701 0.69789749
-0.014163577 -0.026303768 0.69884002
-0.014243177 -0.028486371 0.70021272
-0.011555539 0.084740639 0.6870774
-0.011589308 0.083056718 0.68775678
-0.011184865 0.078294069 0.67962009
-0.011129015 0.076048285 0.67849642
-0.011078501 0.073856652 0.6774801
-0.011044796 0.071791172 0.67680204
-0.01101303 0.069749177 0.67616296
-0.010988723 0.067763776 0.67567396
-0.01096937 0.065816224 0.67528456
-0.010950285 0.063876688 0.67490065
-0.010919855 0.061879188 0.67428845
-0.010733894 0.059036404 0.67054719
-0.010707554 0.057106972 0.6700173
-0.010700151 0.055284113 0.66986829
-0.0107016 0.053508013 0.66989744
-0.010711184 0.051770747 0.67009026
-0.010728025 0.050064087 0.67042911
-0.01074842 0.048367888 0.67083943
-0.01077794 0.046704412 0.67143333
-0.010813344 0.045055628 0.67214561
-0.010854826 0.043419331 0.67298019
-0.010894968 0.041764051 0.67378777
-0.010923351 0.040052295 0.67435873
-0.010942143 0.038297564 0.6747368
-0.01095536 0.036517888 0.67500269
-0.010967487 0.034730405 0.67524672
-0.010980764 0.032942295 0.67551386
-0.010995565 0.031154126 0.67581159
-0.01101101 0.029362679 0.67612237
-0.011028484 0.027571201 0.67647386
-0.011046137 0.0257743 0.67682904
-0.011066373 0.02397716 0.6772362
-0.011086684 0.022173375 0.67764473
-0.011109289 0.020367026 0.67809951
-0.011132399 0.018554032 0.67856455
-0.011157472 0.016736239 0.67906892
-0.011183532 0.014911413 0.67959321
-0.011211263 0.013079822 0.6801511
-0.011240395 0.011240393 0.6807372
-0.011271074 0.0093925595 0.6813544
-0.011303496 0.0075356662 0.68200672
-0.011337562 0.0056687593 0.68269205
-0.011373468 0.0037911236 0.68341446
-0.011411425 0.0019018948 0.68417811
-0.011451254 -0 0.68497938
-0.01149378 -0.0019156337 0.68583488
-0.011537863 -0.0038459599 0.6867218
-0.011585908 -0.0057929754 0.68768841
-0.011635843 -0.0077572167 0.68869305
-0.011689714 -0.0097414255 0.68977678
-0.011747532 -0.011747539 0.69094002
-0.011808896 -0.013777077 0.69217461
-0.011875744 -0.015834302 0.69351935
-0.011949435 -0.01792416 0.69500196
-0.012018465 -0.020030767 0.69639069
-0.012062019 -0.022113681 0.697267
-0.012089658 -0.024179339 0.69782305
-0.012115174 -0.026249558 0.69833642
-0.012149494 -0.028348804 0.69902688
-0.012196484 -0.030491173 0.69997221
-0.012265046 -0.032706767 0.70135158
-0.0096952207 0.079500765 0.68866122
-0.0097237462 0.077789962 0.68934989
-0.0093297241 0.072771847 0.67983735
-0.0092871245 0.070582151 0.67880893
-0.0092545217 0.068483502 0.67802185
-0.0092277601 0.066439867 0.67737579
-0.0092046401 0.064432442 0.6768176
-0.0091883456 0.062480748 0.67642421
-0.0091720745 0.060535699 0.67603141
-0.0091532152 0.058580577 0.67557609
-0.0089976378 0.055785358 0.6718201
-0.0089688655 0.053813219 0.67112553
-0.008959326 0.051964104 0.67089522
-0.008958267 0.050166309 0.67086959
-0.0089663584 0.048418343 0.67106491
-0.0089786826 0.046689183 0.67136246
-0.0089951148 0.044975609 0.67175919
-0.009018884 0.043290615 0.67233306
-0.00904667 0.041614711 0.67300391
-0.0090813804 0.03995809 0.67384183
-0.0091162268 0.038288146 0.67468309
-0.0091414759 0.0365659 0.67529267
-0.0091589782 0.034804106 0.67571521
-0.0091707632 0.033014715 0.67599976
-0.0091809602 0.03121528 0.67624593
-0.0091917543 0.029413611 0.67650652
-0.0092041995 0.027612597 0.67680693
-0.0092168134 0.025807083 0.67711151
-0.0092315394 0.024001986 0.67746699
-0.0092462786 0.022191048 0.67782283
-0.0092630545 0.020378739 0.67822778
-0.0092801312 0.018560261 0.67864013
-0.0092988256 0.016737878 0.67909145
-0.0093182558 0.014909238 0.67956054
-0.0093390569 0.013074696 0.68006271
-0.0093609318 0.011233121 0.68059081
-0.0093840007 0.0093840063 0.68114769
-0.0094084572 0.0075267255 0.68173814
-0.0094340015 0.0056603849 0.68235487
-0.0094612231 0.0037844777 0.68301201
-0.0094896099 0.0018979311 0.6836974
-0.0095197977 2.9802322e-08 0.68442619
-0.0095514543 -0.0019102693 0.68519044
-0.0095849382 -0.0038339794 0.6859988
-0.0096204327 -0.005772233 0.68685567
-0.0096574947 -0.0077260137 0.68775052
-0.0096976636 -0.0096976459 0.68872023
-0.0097393421 -0.011687219 0.68972647
-0.0097846705 -0.013698548 0.69082075
-0.0098330118 -0.015732825 0.69198787
-0.0098843314 -0.017791808 0.69322681
-0.009940533 -0.01988107 0.69458365
-0.010002253 -0.022004932 0.69607371
-0.010061021 -0.024146438 0.69749242
-0.01009822 -0.026255369 0.69839048
-0.010121753 -0.028340876 0.69895864
-0.010143174 -0.030429512 0.69947577
-0.010171794 -0.032549739 0.70016676
-0.010211069 -0.034717649 0.70111495
-0.010268487 -0.036966562 0.70250118
-0.0077863513 0.075916946 0.68957186
-0.0078093801 0.074189126 0.69026679
-0.0075087501 0.069455951 0.68119442
-0.0074742595 0.067268312 0.68015361
-0.0074445116 0.065139443 0.67925596
-0.0074228379 0.063094139 0.67860186
-0.0074023581 0.061069459 0.67798376
-0.0073888302 0.059110671 0.67757559
-0.007375679 0.05716151 0.67717874
-0.0073628174 0.05522114 0.6767906
-0.0072407662 0.052495569 0.67310739
-0.0072121955 0.050485373 0.67224514
-0.0072017885 0.048612058 0.67193109
-0.0072003636 0.046802402 0.67188811
-0.0072056777 0.045035481 0.67204845
-0.0072141448 0.043284893 0.67230403
-0.0072274311 0.041557729 0.67270494
-0.00724517 0.039848447 0.67324024
-0.0072660013 0.038146496 0.67386889
-0.0072940178 0.036470115 0.67471433
-0.0073222504 0.034780681 0.67556638
-0.0073443102 0.033049375 0.6762321
-0.0073599201 0.031279683 0.67670316
-0.0073699481 0.029479802 0.67700577
-0.00737818 0.027668208 0.6772542
-0.0073865945 0.025853068 0.67750812
-0.0073966128 0.024039 0.67781043
-0.007406686 0.022220045 0.67811441
-0.007418436 0.020400733 0.67846906
-0.0074303336 0.018575847 0.67882812
-0.0074435985 0.016748101 0.67922837
-0.007457383 0.014914781 0.67964435
-0.0074722222 0.013076395 0.68009216
-0.0074879052 0.01123184 0.68056548
-0.0075044422 0.0093805492 0.68106449
-0.0075220978 0.0075220764 0.68159735
-0.0075404905 0.0056553781 0.68215233
-0.0075602294 0.0037800968 0.68274808
-0.0075806463 0.0018951595 0.68336421
-0.0076026176 2.9802322e-08 0.68402719
-0.0076253265 -0.0019063354 0.68471253
-0.0076496624 -0.0038248003 0.68544692
-0.0076750075 -0.005756259 0.68621176
-0.0077020326 -0.007701993 0.68702734
-0.0077305022 -0.0096631646 0.68788648
-0.0077603869 -0.011640579 0.68878829
-0.0077925962 -0.013637036 0.68976033
-0.0078260535 -0.01565209 0.69076997
-0.0078626396 -0.017690957 0.69187403
-0.0079014404 -0.019753575 0.69304496
-0.0079426747 -0.021842331 0.69428933
-0.0079880375 -0.023964107 0.69565827
-0.0080376007 -0.026122183 0.69715393
-0.0080855275 -0.028299361 0.69860029
-0.0081161512 -0.030435562 0.69952452
-0.0081353523 -0.032541394 0.70010388
-0.0081526171 -0.034648597 0.70062488
-0.0081755286 -0.036789864 0.7013163
-0.0082070762 -0.038983583 0.7022683
-0.0082532717 -0.041266352 0.7036624
-0.0058625937 0.072305322 0.69049048
-0.0058799782 0.07055971 0.69118994
-0.0056671109 0.066116333 0.68262482
-0.0056395177 0.063914508 0.68151462
-0.0056145843 0.061760426 0.68051136
-0.0055979597 0.059711576 0.67984235
-0.005581785 0.057678401 0.67919165
-0.0055705169 0.05570519 0.67873818
-0.0055605704 0.053752184 0.67833805
-0.0055510495 0.051809788 0.67795491
-0.0054745637 0.049271047 0.67487741
-0.0054372628 0.047122985 0.6733765
-0.0054274527 0.045228779 0.67298174
-0.0054262755 0.043410242 0.67293441
-0.0054289247 0.041621774 0.67304099
-0.0054342118 0.039850861 0.67325372
-0.0054442636 0.038109839 0.67365819
-0.0054566129 0.0363774 0.67415512
-0.0054718293 0.034654915 0.67476726
-0.005492351 0.032954097 0.67559302
-0.0055138171 0.031244993 0.67645681
-0.0055317795 0.029502779 0.67717957
-0.0055446727 0.027723372 0.67769837
-0.0055527128 0.025912642 0.67802185
-0.0055589234 0.024088651 0.67827171
-0.0055651469 0.022260606 0.67852217
-0.0055726469 0.020433009 0.67882395
-0.0055802702 0.018600911 0.67913067
-0.0055889348 0.016766787 0.6794793
-0.0055979383 0.014927834 0.67984158
-0.0056077885 0.013084829 0.68023789
-0.0056181992 0.01123637 0.68065679
-0.0056292601 0.0093821287 0.68110186
-0.0056411284 0.0075215101 0.68157935
-0.0056534726 0.0056535006 0.68207604
-0.0056668324 0.0037778914 0.68261367
-0.0056805583 0.0018935204 0.68316591
-0.0056955162 -0 0.6837678
-0.0057107704 -0.0019036233 0.6843816
-0.0057273963 -0.0038182437 0.68505055
-0.005744426 -0.0057444274 0.68573576
-0.005762863 -0.0076838136 0.6864776
-0.0057818647 -0.0096364319 0.68724215
-0.0058023143 -0.011604607 0.68806499
-0.0058236998 -0.013588607 0.6889255
-0.0058463132 -0.015590161 0.68983537
-0.0058705499 -0.017611653 0.69081062
-0.0058957054 -0.019652337 0.69182277
-0.005923368 -0.021719009 0.69293582
-0.0059525883 -0.023810357 0.69411153
-0.0059836251 -0.025929064 0.69536042
-0.0060179532 -0.028083742 0.69674164
-0.0060552903 -0.030276448 0.69824398
-0.0060918815 -0.032490045 0.69971627
-0.006115559 -0.034654856 0.70066905
-0.0061302446 -0.03678143 0.70125991
-0.0061433157 -0.038907677 0.7017858
-0.0061605107 -0.041070074 0.70247769
-0.0061842413 -0.043289661 0.70343256
-0.0062190611 -0.045606434 0.70483363
-0.0039354167 0.066902101 0.69212133
-0.003802927 0.062748283 0.68412483
-0.0037824865 0.060519814 0.68289113
-0.0037649968 0.058357447 0.68183559
-0.0037527559 0.056291312 0.68109679
-0.0037417407 0.054255217 0.68043196
-0.0037331562 0.052264214 0.67991388
-0.0037264558 0.050307184 0.67950946
-0.0037200283 0.048360378 0.67912149
-0.0037092455 0.046365529 0.67847073
-0.0036457733 0.043749273 0.67463976
-0.0036371734 0.0418275 0.67412072
-0.0036350065 0.039985061 0.67399001
-0.0036358782 0.038176745 0.67404258
-0.0036392102 0.036392093 0.67424369
-0.003645441 0.034631699 0.67461973
-0.0036530397 0.032877326 0.67507839
-0.0036632698 0.031137794 0.67569578
-0.0036762559 0.029410034 0.67647958
-0.0036907636 0.027680725 0.67735523
-0.0037036855 0.025925785 0.67813516
-0.003712975 0.024134368 0.6786958
-0.0037187424 0.022312462 0.67904389
-0.0037229622 0.020476282 0.67929858
-0.0037271499 0.01863575 0.6795513
-0.0037320426 0.016794205 0.67984664
-0.0037371716 0.014948666 0.68015623
-0.0037428606 0.013100028 0.68049949
-0.0037489177 0.011246771 0.68086511
-0.0037554032 0.0093885064 0.68125659
-0.0037624065 0.007524848 0.68167925
-0.00376972 0.0056545436 0.68212068
-0.003777703 0.0037777126 0.68260252
-0.0037858782 0.0018929541 0.68309587
-0.0037948652 -0 0.68363833
-0.0038039964 -0.0019019842 0.68418944
-0.0038140437 -0.0038140118 0.6847958
-0.0038242028 -0.0057362914 0.68540895
-0.0038353861 -0.00767079 0.68608397
-0.0038467234 -0.009616822 0.68676829
-0.0038591248 -0.011577368 0.68751669
-0.0038718013 -0.013551265 0.68828177
-0.0038855567 -0.015542239 0.68911207
-0.0038998357 -0.017549276 0.68997383
-0.0039150622 -0.019575298 0.69089288
-0.0039312425 -0.021621794 0.69186938
-0.0039481171 -0.023688704 0.6928879
-0.0039666779 -0.02578339 0.69400811
-0.0039862231 -0.027903587 0.69518775
-0.004007021 -0.030052632 0.69644308
-0.004030081 -0.032240629 0.69783479
-0.0040550996 -0.034468353 0.69934487
-0.0040799151 -0.036719233 0.70084256
-0.0040961807 -0.038913697 0.70182431
-0.0041061812 -0.041061789 0.70242786
-0.0041149445 -0.04320693 0.7029568
-0.0041264314 -0.045390785 0.70365012
-0.0041422993 -0.047636479 0.70460784
-0.001975477 0.063215256 0.69305915
-0.0019814067 0.0614236 0.69377488
-0.0019027939 0.057083815 0.68428546
-0.001893935 0.05492413 0.68321609
-0.0018868786 0.052832633 0.68236428
-0.0018813164 0.050795555 0.68169296
-0.0018764553 0.048787832 0.68110609
-0.0018730344 0.046825886 0.68069321
-0.0018697029 0.04487288 0.68029106
-0.0018657916 0.042913169 0.67981893
-0.0018338365 0.040344387 0.67596161
-0.0018281215 0.038390547 0.67527169
-0.0018263399 0.036526799 0.6750567
-0.0018263132 0.034699947 0.67505336
-0.0018279878 0.03290379 0.67525554
-0.0018307636 0.031122983 0.67559063
-0.0018342265 0.029347628 0.67600864
-0.0018393849 0.027590781 0.67663133
-0.0018455249 0.025837362 0.67737246
-0.0018527822 0.024086177 0.67824852
-0.0018597376 0.022316873 0.67908812
-0.0018646931 0.020511597 0.67968631
-0.0018678742 0.018678755 0.68007028
-0.0018700664 0.016830593 0.68033487
-0.0018721865 0.014977515 0.68059081
-0.0018745713 0.013121992 0.6808787
-0.0018771593 0.011262953 0.68119109
-0.0018799521 0.0093997717 0.68152821
-0.0018830156 0.0075320601 0.681898
-0.0018862172 0.0056586564 0.68228447
-0.0018897505 0.0037795007 0.68271101
-0.001893376 0.0018934011 0.68314862
-0.001897404 2.9802322e-08 0.68363482
-0.0019014635 -0.0019014478 0.68412483
-0.0019059976 -0.0038119853 0.68467218
-0.0019105609 -0.0057317019 0.68522304
-0.0019156152 -0.0076624453 0.6858331
-0.0019207186 -0.0096035898 0.68644917
-0.0019263308 -0.011557996 0.68712664
-0.0019320061 -0.013524055 0.68781167
-0.0019382479 -0.01550597 0.68856514
-0.0019445906 -0.017501295 0.68933076
-0.0019515302 -0.019515276 0.6901685
-0.0019586808 -0.0215455 0.69103158
-0.0019663628 -0.023596317 0.6919589
-0.0019744714 -0.025668144 0.69293773
-0.001982993 -0.027761936 0.69396633
-0.0019923022 -0.029884517 0.69509006
-0.0020021074 -0.032033712 0.69627368
-0.0020126009 -0.034214169 0.69754034
-0.0020241786 -0.036435187 0.69893789
-0.0020367438 -0.038698137 0.70045471
-0.0020493739 -0.040987462 0.70197916
-0.0020577514 -0.043212801 0.70299047
-0.0020628499 -0.045382708 0.70360589
-0.0020672735 -0.047547281 0.70413989
-0.0021479509 -0.051550835 0.71387857
0 0.059499472 0.69400525
0 0.05768925 0.69472581
0 0.053610355 0.68571723
0 0.051449031 0.68461436
0 0.049334943 0.68364608
0 0.047296852 0.68296719
0 0.045278102 0.68232906
0 0.043307751 0.68188947
0 0.04134962 0.68147707
0 0.03940174 0.68108404
0 0.036898255 0.67729855
0 0.034917384 0.67643476
0 0.033034623 0.67613292
0 0.031193078 0.67608821
0 0.029383302 0.67627764
0 0.027583063 0.67656928
0 0.02579245 0.67698526
0 0.024013638 0.67757475
0 0.022235841 0.67827338
0 0.02046296 0.67915237
0 0.018675476 0.6800307
0 0.01685524 0.68066525
0 0.015011042 0.68109679
0 0.013151169 0.68138081
0 0.011285245 0.68163913
0 0.009416014 0.68192029
0 0.0075432658 0.68223554
0 0.0056657195 0.68256718
0 0.0037832856 0.68293953
0 0.0018948317 0.68332171
0 -0 0.68375218
0 -0.0019019544 0.68418592
0 -0.0038120747 0.68467653
0 -0.0057303309 0.68516839
0 -0.007658571 0.68571633
0 -0.0095961988 0.68627131
0 -0.011545748 0.68688071
0 -0.013506055 0.68750137
0 -0.01548031 0.68817794
0 -0.017466962 0.68887007
0 -0.019470215 0.68962401
0 -0.021487057 0.69039011
0 -0.023524344 0.69123447
0 -0.025577873 0.69209987
0 -0.027653843 0.69303465
0 -0.029751152 0.69401664
0 -0.031872004 0.6950537
0 -0.034022778 0.69618088
0 -0.036201328 0.69736946
0 -0.038413703 0.69864762
0 -0.04066816 0.70005202
0 -0.042966455 0.70157462
0 -0.045295298 0.70312643
0 -0.047853738 0.70574826
0 -0.050391555 0.70804787
0 -0.053081036 0.71089578
0 -0.056094319 0.71502787
0.0019912079 0.055753827 0.69495797
0.0019972327 0.053925276 0.69568521
0.0019272808 0.050109297 0.68724132
0.0019172448 0.047931105 0.68602985
0.0019085496 0.045805186 0.68498027
0.0019025551 0.04375878 0.68425661
0.001896994 0.041733891 0.68358529
0.0018929605 0.039752156 0.6830985
0.0018895079 0.037790149 0.68268168
0.0018862953 0.035839617 0.68229389
0.0018587291 0.03345713 0.6789664
0.0018475009 0.031407535 0.67761099
0.0018442594 0.029508144 0.67721975
0.0018438925 0.027658373 0.6771754
0.0018450008 0.025830001 0.67730927
0.0018470509 0.024011642 0.67755675
0.0018505347 0.022206426 0.6779772
0.0018550834 0.020405918 0.67852628
0.0018605051 0.018605024 0.67918074
0.0018678464 0.016810596 0.68006694
0.0018753089 0.015002489 0.68096769
0.0018809912 0.013166934 0.68165362
0.0018849664 0.011309803 0.6821335
0.0018874764 0.0094373822 0.68243653
0.0018896363 0.0075585544 0.68269718
0.0018919085 0.0056757033 0.68297148
0.0018945446 0.0037890971 0.68328971
0.0018972383 0.0018972456 0.68361485
0.0019003584 -0 0.68399149
0.0019034815 -0.0019034743 0.68436849
0.0019070801 -0.0038141608 0.68480289
0.0019106995 -0.0057320893 0.68523973
0.0019147355 -0.0076589286 0.68572694
0.0019188549 -0.0095942616 0.68622422
0.0019233691 -0.011540234 0.68676913
0.0019280158 -0.013496101 0.68733001
0.0019330436 -0.015464336 0.68793696
0.0019382329 -0.017444074 0.68856335
0.0019438351 -0.019438356 0.68923956
0.001949614 -0.021445721 0.68993711
0.0019558631 -0.023470342 0.69069153
0.0019622757 -0.025509566 0.69146556
0.0019692725 -0.027569801 0.69231021
0.0019764525 -0.029646784 0.69317681
0.001984267 -0.031748265 0.69412017
0.001992421 -0.033871174 0.69510442
0.0020010907 -0.036019623 0.69615096
0.0020104658 -0.038198858 0.69728261
0.0020203453 -0.040406883 0.69847518
0.0020310311 -0.042651653 0.69976509
0.002042714 -0.044939667 0.70117533
0.0020596487 -0.047371924 0.70321953
0.002073871 -0.049772918 0.70493633
0.0020901491 -0.052253723 0.70690125
0.0021091981 -0.054839134 0.70920062
0.0021329075 -0.057588488 0.71206266
0.0021670873 -0.060678452 0.71618849
0.0040104738 0.050130934 0.6966514
0.0040226933 0.048272371 0.69738889
0.0038582322 0.044369668 0.68746281
0.0038400367 0.042240411 0.68636465
0.0038267034 0.040180385 0.68555987
0.0038153378 0.03815338 0.68487394
0.0038061668 0.036158592 0.68432039
0.0037991873 0.034192681 0.68389916
0.0037926792 0.032237768 0.68350637
0.0037812148 0.030249715 0.68281442
0.0037162155 0.027871609 0.67889136
0.0037078161 0.025954753 0.67838442
0.0037059623 0.02408877 0.67827255
0.0037072529 0.02224353 0.67835045
0.0037107172 0.020408958 0.67855948
0.0037176374 0.018588215 0.67897719
0.0037260673 0.016767293 0.67948598
0.0037367109 0.014946848 0.6801284
0.0037509834 0.013128459 0.6809898
0.0037661023 0.011298329 0.68190229
0.0037784735 0.0094462037 0.68264896
0.0037872249 0.007574439 0.68317717
0.0037926217 0.0056889355 0.68350291
0.0037969674 0.0037969947 0.68376517
0.0038013954 0.0019007027 0.68403244
0.003806717 2.9802322e-08 0.68435359
0.0038120388 -0.0019060075 0.6846748
0.0038182933 -0.0038182735 0.68505228
0.0038246119 -0.0057368875 0.68543369
0.0038317293 -0.0076634288 0.6858632
0.0038390348 -0.0095975697 0.68630421
0.0038470486 -0.011541128 0.68678784
0.0038553635 -0.013493776 0.68728971
0.0038643556 -0.015457422 0.68783242
0.0038737198 -0.017431766 0.68839765
0.0038837474 -0.019418746 0.68900275
0.0038942362 -0.021418303 0.68963587
0.0039054216 -0.023432523 0.69031096
0.0039170855 -0.025461048 0.69101489
0.003929575 -0.027507037 0.69176877
0.0039425176 -0.029568911 0.69254988
0.0039565307 -0.031652212 0.69339567
0.0039709117 -0.033752769 0.6942637
0.0039866837 -0.035880178 0.69521564
0.0040030461 -0.038028926 0.69620311
0.0040205438 -0.040205449 0.69725925
0.0040393532 -0.042413175 0.69839442
0.0040591783 -0.044650942 0.69959104
0.0040880819 -0.047012895 0.70133543
0.00411207 -0.049344838 0.70278323
0.0041382229 -0.051727772 0.70436174
0.0041668783 -0.054169387 0.70609128
0.0041995957 -0.056694567 0.70806599
0.0042376886 -0.059327662 0.71036506
0.0042853244 -0.062137157 0.71324009
0.0043535577 -0.065303355 0.71735841
0.0060399398 0.046306252 0.69762635
0.0060583935 0.0444282 0.69836891
0.0058234059 0.040763855 0.6889137
0.0057957503 0.038638324 0.68780088
0.005772837 0.03656128 0.68687892
0.0057554832 0.034532905 0.68618071
0.0057404283 0.032529116 0.68557495
0.0057293638 0.030556619 0.6851297
0.0057192352 0.028596163 0.68472219
0.0057069492 0.026632458 0.68422782
0.005608438 0.024303228 0.68026406
0.0055914535 0.022365779 0.67958069
0.0055865007 0.020483851 0.67938137
0.0055869999 0.018623322 0.67940146
0.0055922451 0.01677677 0.67961252
0.0056015314 0.014937431 0.67998612
0.005613178 0.013097405 0.68045473
0.0056292815 0.011258572 0.68110269
0.0056495788 0.0094159842 0.68191946
0.0056724865 0.0075633228 0.68284112
0.0056926436 0.0056926608 0.68365216
0.0057069063 0.0038046241 0.68422604
0.0057156631 0.0019052029 0.68457848
0.0057222438 -2.9802322e-08 0.68484324
0.0057288385 -0.001909554 0.6851086
0.0057367645 -0.003824532 0.68542755
0.0057448219 -0.0057448149 0.68575168
0.0057540713 -0.0076721013 0.68612385
0.0057636155 -0.0096060336 0.68650794
0.0057741916 -0.01154837 0.6869334
0.0057852292 -0.013498843 0.68737757
0.0057971827 -0.01545915 0.68785852
0.0058097704 -0.017429322 0.68836504
0.0058231801 -0.01941061 0.68890458
0.0058373562 -0.021403611 0.68947494
0.0058523766 -0.023409486 0.69007939
0.0058682319 -0.025428981 0.69071734
0.0058849808 -0.027463198 0.69139123
0.0059026377 -0.02951318 0.69210172
0.0059213815 -0.031580716 0.69285595
0.0059409738 -0.033665508 0.69364423
0.0059620216 -0.035772145 0.69449115
0.0059837685 -0.037897199 0.6953662
0.0060075247 -0.040050179 0.69632202
0.0060321004 -0.042224705 0.69731092
0.0060585896 -0.04442966 0.69837677
0.0060972017 -0.046745211 0.69993043
0.0061277165 -0.049021751 0.70115823
0.006160384 -0.051336527 0.70247269
0.0061965715 -0.053703636 0.70392871
0.0062359576 -0.056123614 0.70551348
0.0062792609 -0.058606446 0.7072559
0.0063286079 -0.061176538 0.70924145
0.0063857376 -0.063857377 0.71154016
0.0064575472 -0.066727966 0.71442956
0.0065596728 -0.069969863 0.71853882
0.0080857892 0.042450398 0.69860816
0.0081106266 0.040553123 0.69935775
0.0078157848 0.037124962 0.69046009
0.0077758539 0.034991354 0.68925512
0.0077419854 0.032903433 0.68823302
0.0077178925 0.0308716 0.6875059
0.0076960498 0.028860211 0.68684673
0.0076803677 0.026881307 0.68637359
0.0076663941 0.024915814 0.68595177
0.0076529388 0.022958815 0.6855458
0.0075239646 0.020690918 0.68165368
0.0074953362 0.018738329 0.68078971
0.0074857487 0.016842932 0.68050039
0.0074844891 0.014968932 0.68046236
0.0074915206 0.013110191 0.68067455
0.007502473 0.011253715 0.68100506
0.0075168153 0.0093960166 0.68143791
0.0075382469 0.0075382292 0.68208468
0.0075638588 0.0056729317 0.68285751
0.0075943386 0.0037972033 0.68377733
0.0076232934 0.0019057989 0.68465114
0.0076437904 2.9802322e-08 0.68526971
0.0076567153 -0.0019141436 0.68565971
0.007665718 -0.0038328469 0.68593144
0.0076745953 -0.0057559311 0.68619931
0.0076849386 -0.0076849163 0.68651152
0.0076957839 -0.0096197128 0.68683875
0.007707906 -0.011561871 0.68720454
0.0077207806 -0.01351136 0.6875931
0.0077347145 -0.015469432 0.68801355
0.0077495691 -0.017436504 0.6884619
0.0077653849 -0.019413471 0.68893915
0.0077823247 -0.021401376 0.68945032
0.0078000976 -0.023400307 0.68998665
0.0078192046 -0.02541244 0.69056332
0.0078391414 -0.027437001 0.69116497
0.0078604771 -0.029476762 0.69180882
0.007882799 -0.031531215 0.69248241
0.0079065589 -0.033602893 0.69319946
0.0079315631 -0.035692036 0.69395399
0.0079578962 -0.037800014 0.69474876
0.0079859979 -0.039929986 0.69559669
0.008015262 -0.042080134 0.69647986
0.0080470042 -0.044258505 0.69743776
0.0080928504 -0.046533912 0.69882131
0.0081285452 -0.048771292 0.69989854
0.0081671551 -0.051044703 0.70106363
0.0082079843 -0.053351879 0.70229572
0.0082519446 -0.05570063 0.70362234
0.0083004041 -0.058102816 0.7050848
0.0083531644 -0.060560465 0.70667696
0.0084113339 -0.06308502 0.70843244
0.0084774597 -0.065700293 0.71042788
0.0085540181 -0.068432152 0.71273828
0.0086498046 -0.071360886 0.71562892
0.0087858532 -0.074679762 0.71973455
0.010179535 0.036646336 0.70035362
0.0098357182 0.033441424 0.69205314
0.0097808456 0.031298697 0.69072843
0.0097352862 0.029205859 0.6896286
0.0097029293 0.027168185 0.6888473
0.0096742632 0.0251531 0.68815529
0.0096525401 0.02316609 0.68763089
0.0096346224 0.021196187 0.68719828
0.0096183242 0.019236654 0.68680483
0.0094745876 0.01705423 0.68333471
0.0094197933 0.01507169 0.68201184
0.0094040008 0.013165623 0.68163061
0.0094020572 0.011282444 0.68158364
0.0094088465 0.0094088614 0.68174756
0.0094206445 0.0075365603 0.68203235
0.0094387354 0.0056632161 0.68246913
0.0094638364 0.0037855208 0.68307513
0.0094939675 0.0018987954 0.68380255
0.009532203 -0 0.68472564
0.0095701255 -0.0019140244 0.68564117
0.009597661 -0.0038390756 0.68630594
0.0096159587 -0.0057695508 0.68674767
0.0096276514 -0.007702142 0.68703002
0.0096388534 -0.0096388757 0.68730044
0.009651497 -0.011581808 0.68760574
0.0096651809 -0.013531238 0.68793607
0.0096801026 -0.015488178 0.68829626
0.0096963104 -0.017453313 0.68868756
0.0097135529 -0.019427091 0.68910378
0.0097322948 -0.021411061 0.6895563
0.0097519085 -0.023404568 0.6900298
0.0097732805 -0.025410503 0.6905458
0.0097953975 -0.027427107 0.69107974
0.0098194648 -0.029458374 0.69166076
0.0098443097 -0.03150177 0.69226056
0.0098712668 -0.033562332 0.69291139
0.0098991152 -0.035636812 0.69358373
0.0099290917 -0.037730545 0.69430739
0.0099603208 -0.039841264 0.69506127
0.009993583 -0.041973054 0.69586444
0.010028716 -0.044126332 0.69671249
0.01008052 -0.046370387 0.69796318
0.010120934 -0.048580468 0.69893885
0.010162869 -0.05081436 0.69995135
0.010207903 -0.053081065 0.70103854
0.010256321 -0.055384129 0.70220745
0.010307621 -0.057722658 0.70344591
0.010362999 -0.060105383 0.70478284
0.010423836 -0.062543005 0.70625162
0.010490096 -0.065038592 0.70785123
0.010563312 -0.067605168 0.70961875
0.010646383 -0.070266157 0.71162432
0.010742614 -0.073049784 0.71394765
0.010862393 -0.076036721 0.71683931
0.011032345 -0.079432875 0.72094226
0.012265397 0.032707721 0.70135868
0.0123035 0.030758768 0.70212519
0.011811174 0.027559429 0.69222039
0.011754384 0.025467843 0.69107789
0.011710917 0.023421854 0.69020337
0.011675712 0.021405488 0.68949509
0.011646812 0.019411355 0.6889137
0.011624443 0.017436653 0.68846369
0.011604673 0.015472919 0.68806595
0.011568052 0.013496101 0.68732911
0.011368258 0.011368275 0.68330956
0.011343731 0.009453088 0.68281615
0.01133923 0.0075594783 0.68272567
0.011344459 0.0056722462 0.68283081
0.011356302 0.0037854314 0.68306911
0.011378253 0.0018963814 0.68351066
0.011406266 -0 0.68407428
0.011440169 -0.001906693 0.6847564
0.011486436 -0.0038288236 0.68568718
0.011533742 -0.0057668388 0.68663889
0.011568809 -0.007712543 0.68734437
0.011593245 -0.0096610487 0.68783599
0.011608307 -0.011608273 0.68813902
0.011621923 -0.013558894 0.68841302
0.0116367 -0.015515625 0.68871027
0.011653277 -0.017479897 0.6890437
0.011670854 -0.019451439 0.68939734
0.011690533 -0.021432638 0.68979329
0.011710963 -0.023421943 0.69020432
0.011733666 -0.025422931 0.69066101
0.011757009 -0.027433038 0.69113064
0.011782895 -0.029457241 0.69165146
0.011809268 -0.031491369 0.69218206
0.011838419 -0.033542186 0.69276857
0.011868184 -0.035604566 0.69336736
0.011900787 -0.037685812 0.69402325
0.01193414 -0.039780498 0.69469428
0.011970447 -0.041896582 0.69542468
0.012025251 -0.044092566 0.6965273
0.012065655 -0.046251655 0.69734013
0.012108431 -0.048433721 0.6982007
0.012153134 -0.05063808 0.69910008
0.012201688 -0.052873969 0.70007694
0.012252183 -0.055134803 0.70109272
0.012306727 -0.05743137 0.70219016
0.012364968 -0.059763998 0.70336187
0.012426848 -0.062134266 0.70460683
0.01249382 -0.064551353 0.70595407
0.012567144 -0.067024767 0.70742935
0.012646978 -0.069558382 0.70903552
0.012735555 -0.072168112 0.71081752
0.012835746 -0.074875206 0.71283317
0.012951813 -0.077710897 0.7151683
0.013095711 -0.080756903 0.71806329
0.013299396 -0.084229499 0.72216111
0.014368333 0.028736651 0.702371
0.014413151 0.026767284 0.70314384
0.013869628 0.023776531 0.69377106
0.013800171 0.021685988 0.69257337
0.013742505 0.01963219 0.69157887
0.013700307 0.017614692 0.69085127
0.013663909 0.01561591 0.69022357
0.013636087 0.013636082 0.68974388
0.013612133 0.01166752 0.68933076
0.013582046 0.0097014308 0.6888119
