# .PCD v0.7 - Point Cloud Data file format
VERSION 0.7
FIELDS x y z
SIZE 4 4 4
TYPE F F F
COUNT 1 1 1
WIDTH 1334
HEIGHT 1
VIEWPOINT 0 0 0 1 0 0 0
POINTS 1334
DATA ascii
-0.037308238 0.019465208 0.65040237
-0.03742836 0.017900527 0.65103281
-0.037694886 0.016389072 0.65243167
-0.038048957 0.014888734 0.65428984
-0.038193412 0.013284653 0.65504807
-0.03828337 0.011651456 0.6555202
-0.038393974 0.010015815 0.65610063
-0.038527008 0.0083754659 0.65679884
-0.0386841 0.0067276657 0.65762335
-0.038866878 0.0050695837 0.65858257
-0.03908056 0.0033982992 0.65970403
-0.039329514 0.0017099977 0.66101062
-0.039620496 -2.9802322e-08 0.66253781
-0.039963085 -0.001737535 0.66433573
-0.040377412 -0.0035110712 0.66651034
-0.040899023 -0.0053346455 0.66924793
-0.041628681 -0.0072397888 0.67307734
-0.042227458 -0.0091798902 0.67621988
-0.042440183 -0.011071354 0.67733628
-0.043154102 -0.013133854 0.6810832
-0.041145612 0.046756387 0.68035769
-0.040627766 0.044321179 0.67751634
-0.038867336 0.040634036 0.66785717
-0.039039779 0.039039791 0.66880327
-0.040878218 0.039020151 0.67889047
-0.037406307 0.034005761 0.6598407
-0.037170485 0.03210178 0.65854675
-0.036992729 0.030266792 0.65757143
-0.036844026 0.028470367 0.65675557
-0.036736559 0.026717484 0.6561659
-0.0366011 0.024955302 0.65542263
-0.036032256 0.022929639 0.65230143
-0.035859473 0.021189719 0.65135348
-0.035830174 0.019543767 0.65119267
-0.035915866 0.017957956 0.65166283
-0.036110148 0.016413718 0.65272886
-0.036470618 0.014919788 0.65470672
-0.036670476 0.013334751 0.65580326
-0.036760237 0.011696428 0.65629584
-0.036860928 0.010052979 0.65684825
-0.036982168 0.0084050596 0.6575135
-0.037125729 0.0067501068 0.65830117
-0.037293643 0.0050855279 0.65922248
-0.037489112 0.003408134 0.66029501
-0.037715949 0.0017143786 0.66153961
-0.037979592 -0 0.66298616
-0.038295642 -0.001740694 0.6647203
-0.038671941 -0.003515631 0.666785
-0.03914028 -0.0053373277 0.66935474
-0.03976595 -0.0072301626 0.67278767
-0.040493261 -0.0092030168 0.67677832
-0.040720951 -0.011105686 0.67802763
-0.041084796 -0.013072431 0.68002403
-0.039062764 0.044643164 0.67913568
-0.038007423 0.041627198 0.67306942
-0.037327331 0.039104849 0.66916019
-0.039077148 0.039077163 0.67921835
-0.035986174 0.034272552 0.6614511
-0.035742819 0.032338768 0.66005218
-0.035543326 0.030465692 0.65890551
-0.035386164 0.028645933 0.65800214
-0.035274494 0.026875794 0.6573602
-0.035172477 0.025123179 0.65677381
-0.034731276 0.023154169 0.65423775
-0.034431279 0.021314621 0.65251327
-0.034366637 0.019638091 0.65214169
-0.034403995 0.018021137 0.65235651
-0.034545835 0.016450405 0.65317178
-0.034843687 0.01493302 0.65488386
-0.035128031 0.013382137 0.65651828
-0.03522731 0.011742413 0.65708899
-0.03531706 0.010090619 0.65760487
-0.035426367 0.0084348619 0.65823323
-0.035556916 0.0067727268 0.65898365
-0.035710629 0.0051015019 0.65986717
-0.035889931 0.0034180582 0.66089785
-0.036098927 0.001718998 0.66209918
-0.036342017 -0 0.66349649
-0.036626283 -0.0017440617 0.6651305
-0.036968544 -0.0035208166 0.66709781
-0.037386835 -0.0053409636 0.6695022
-0.037932232 -0.0072251856 0.67263722
-0.038700208 -0.0092143714 0.67705166
-0.038999841 -0.01114282 0.678774
-0.039250854 -0.013083637 0.68021685
-0.037580691 0.045096815 0.68141747
-0.037255816 0.042844206 0.67945671
-0.035609167 0.039170057 0.66951823
-0.035868905 0.037662387 0.67108589
-0.037563339 0.037563354 0.68131268
-0.034293924 0.032579213 0.66158009
-0.034078106 0.030670285 0.66027755
-0.033922736 0.028834313 0.65933973
-0.033794999 0.027036011 0.65856874
-0.033695545 0.025271624 0.65796852
-0.033524979 0.023467481 0.65693909
-0.033020869 0.021463543 0.65389651
-0.032891281 0.01973477 0.65311438
-0.032899287 0.018094599 0.65316266
-0.032997351 0.016498685 0.65375459
-0.033211995 0.014945418 0.65505004
-0.033542395 0.013416946 0.65704417
-0.033682276 0.011788785 0.65788847
-0.033761594 0.010128498 0.65836716
-0.033859834 0.0084649622 0.6589601
-0.033978481 0.0067957044 0.65967619
-0.034118425 0.0051178038 0.66052079
-0.034281589 0.0034281611 0.66150564
-0.034473021 0.0017236471 0.66266096
-0.034696408 2.9802322e-08 0.66400927
-0.034958091 -0.0017478764 0.66558862
-0.035266452 -0.0035266578 0.66744983
-0.03564354 -0.0053465366 0.66972578
-0.036119808 -0.0072239339 0.67260027
-0.036800683 -0.0092001557 0.67670965
-0.037267473 -0.011180222 0.67952704
-0.037471771 -0.013115108 0.68076009
-0.035652116 0.043157816 0.68110275
-0.034409076 0.039842069 0.67320549
-0.034132838 0.037725747 0.6714505
-0.03573883 0.037619859 0.68165362
-0.032829892 0.032829881 0.6631726
-0.032613095 0.030896604 0.66179526
-0.032440376 0.029025614 0.66069794
-0.03229963 0.027199686 0.65980375
-0.032202147 0.025422782 0.6591844
-0.032100372 0.023652881 0.65853781
-0.031621709 0.02163589 0.65549678
-0.031429876 0.019850463 0.65427804
-0.031389609 0.018172979 0.65402222
-0.031449419 0.016552359 0.6544022
-0.031612247 0.014974236 0.65543664
-0.031920485 0.013440192 0.65739495
-0.03211816 0.011832982 0.65865082
-0.032200184 0.010168463 0.65917194
-0.03228844 0.0084969401 0.65973264
-0.032395385 0.0068200827 0.66041207
-0.032522276 0.0051350892 0.66121829
-0.03267115 0.0034390986 0.66216403
-0.032844864 0.0017286837 0.66326767
-0.033046722 -0 0.66455013
-0.033282623 -0.0017516911 0.66604888
-0.033565585 -0.0035332143 0.66784662
-0.033902783 -0.0053530931 0.66998887
-0.03432757 -0.0072268546 0.67268765
-0.03490033 -0.0091843009 0.67632651
-0.035510689 -0.011213899 0.68020421
-0.035696026 -0.013151199 0.6813817
-0.036092691 -0.015196919 0.68390179
-0.034086701 0.04355523 0.68318844
-0.033821352 0.041337222 0.68140888
-0.032390915 0.037789404 0.67181623
-0.032629725 0.036255211 0.67341769
-0.034176078 0.036074758 0.68378782
-0.031128338 0.031128317 0.66334921
-0.030938217 0.029219478 0.66207421
-0.030798882 0.027376771 0.66113985
-0.030690782 0.025575668 0.66041481
-0.030601624 0.023801267 0.65981698
-0.030341011 0.021912962 0.65806925
-0.029960597 0.019973755 0.65551811
-0.02988534 0.018263251 0.6550135
-0.029909059 0.016616136 0.65517253
-0.030016316 0.015008152 0.65589184
-0.03026627 0.013451666 0.65756804
-0.030532429 0.011873722 0.65935296
-0.030627118 0.010209024 0.65998799
-0.030705221 0.0085292161 0.66051167
-0.030800778 0.0068446398 0.66115248
-0.030915279 0.0051525533 0.66192037
-0.031050533 0.0034500659 0.66282743
-0.031208696 0.0017338395 0.6638881
-0.031393301 -2.9802322e-08 0.66512609
-0.031608474 -0.0017560124 0.66656905
-0.031860396 -0.0035400391 0.66825849
-0.032166488 -0.00536111 0.67031121
-0.032539066 -0.0072309077 0.67280972
-0.033031698 -0.0091754496 0.67611337
-0.033707555 -0.011235863 0.68064582
-0.033931825 -0.013195693 0.68214977
-0.034191519 -0.015196204 0.6838913
-0.032187272 0.04165411 0.68314779
-0.030917322 0.038191974 0.67413032
-0.030869411 0.036316961 0.67379016
-0.032327089 0.036130279 0.68414056
-0.029621145 0.031363547 0.66492665
-0.029429808 0.029429793 0.66356802
-0.029282497 0.027560055 0.66252202
-0.029161127 0.025730401 0.66166025
-0.029074013 0.023943275 0.66104168
-0.028960474 0.022146255 0.66023552
-0.028506832 0.020122498 0.65701431
-0.028374463 0.018359959 0.6560744
-0.028364247 0.01668483 0.65600187
-0.028441921 0.015057474 0.65655345
-0.028610867 0.013463944 0.65775305
-0.028909784 0.011904061 0.65987557
-0.029041456 0.010249943 0.66081047
-0.029110231 0.0085618496 0.66129887
-0.029195761 0.0068695843 0.66190612
-0.029298736 0.0051703453 0.66263741
-0.029420543 0.0034612417 0.66350228
-0.02956298 0.0017390251 0.66451365
-0.029730685 2.9802322e-08 0.66570443
-0.02992681 -0.0017603934 0.66709709
-0.030156836 -0.0035478473 0.66873038
-0.030428365 -0.005369693 0.67065841
-0.030763905 -0.0072385371 0.67304099
-0.031191343 -0.0091738999 0.67607605
-0.031809438 -0.011226863 0.68046492
-0.03215697 -0.013241112 0.68293262
-0.032348357 -0.015222728 0.6842916
-0.030537723 0.041989386 0.68498719
-0.030295735 0.039763182 0.68316162
-0.029103098 0.03637886 0.67416388
-0.030470312 0.036183506 0.6844787
-0.028107768 0.031621218 0.66665465
-0.027908076 0.029652357 0.66514808
-0.027745681 0.027745694 0.66392291
-0.027620282 0.025893986 0.66297686
-0.02752986 0.024088651 0.66229469
-0.027448779 0.022302121 0.66168302
-0.027082371 0.020311773 0.65891862
-0.026866606 0.018470794 0.65729082
-0.026821241 0.0167633 0.65694851
-0.026857683 0.015107453 0.65722346
-0.026989697 0.013494849 0.65821946
-0.027246527 0.011920363 0.66015708
-0.027435139 0.010288179 0.66158009
-0.027508197 0.0085963011 0.66213125
-0.027583737 0.0068959594 0.66270113
-0.027675662 0.0051891506 0.66339469
-0.027785063 0.0034731328 0.66422004
-0.027913818 0.0017445982 0.66519141
-0.028064314 2.9802322e-08 0.66632682
-0.028239634 -0.0017649531 0.66764951
-0.028445732 -0.0035557151 0.66920435
-0.028692655 -0.0053798854 0.6710673
-0.028987288 -0.0072467923 0.67329013
-0.029363018 -0.0091759562 0.67612481
-0.029874388 -0.011202902 0.67998278
-0.03036537 -0.013284832 0.68368691
-0.030520145 -0.015260071 0.68485463
-0.030995158 -0.017434776 0.68843836
-0.028659396 0.040123165 0.68523097
-0.02742072 0.036560982 0.67526281
-0.027534697 0.03487727 0.67618006
-0.028839229 0.034607053 0.68667811
-0.026363248 0.029878348 0.66675293
-0.026192309 0.027938455 0.66537732
-0.026068222 0.026068211 0.66437876
-0.025966939 0.024235815 0.66356373
-0.025889101 0.022437185 0.66293734
-0.025746999 0.020597577 0.66179383
-0.025360983 0.01859805 0.65868735
-0.025271745 0.016847819 0.65796924
-0.025284261 0.015170574 0.65806991
-0.025368953 0.013530105 0.65875149
-0.025564499 0.011930108 0.66032517
-0.02580392 0.010321558 0.66225183
-0.025893299 0.0086311102 0.66297114
-0.025959302 0.0069224834 0.66350228
-0.026040634 0.0052081048 0.66415679
-0.026138399 0.0034851432 0.66494352
-0.026254062 0.0017502606 0.6658743
-0.026389668 -0 0.66696554
-0.026548358 -0.0017699003 0.66824257
-0.026733512 -0.003564477 0.66973263
-0.02695075 -0.0053901076 0.67148077
-0.027216874 -0.0072578192 0.67362243
-0.027542073 -0.009180665 0.67623937
-0.027977381 -0.011190921 0.67974246
-0.028533122 -0.013315469 0.68421477
-0.028708838 -0.01531142 0.68562889
-0.028964994 -0.017379016 0.6876902
-0.026952341 0.040428489 0.68698621
-0.026274709 0.03753531 0.68114346
-0.025743345 0.034937412 0.67656195
-0.026957529 0.034659714 0.68703091
-0.024803208 0.030118197 0.66845596
-0.024631914 0.028150737 0.66697901
-0.02449565 0.026245356 0.66580409
-0.024386836 0.024386823 0.66486591
-0.024310749 0.022574276 0.66420984
-0.02423103 0.020769477 0.66352248
-0.023858005 0.018745571 0.66030622
-0.023722995 0.016945004 0.65914208
-0.023697633 0.015234232 0.65892345
-0.023756623 0.013575196 0.65943205
-0.023892183 0.011946112 0.6606009
-0.02414334 0.010347128 0.66276646
-0.024265023 0.0086660683 0.66381562
-0.024323581 0.0069496036 0.66432047
-0.024395244 0.0052275658 0.66493833
-0.024481867 0.0034974217 0.6656853
-0.024584627 0.001756072 0.66657126
-0.024705147 -0 0.66761047
-0.02484755 -0.0017748475 0.66883826
-0.02501436 -0.0035735071 0.67027652
-0.025210433 -0.0054022372 0.67196709
-0.025442181 -0.0072692037 0.67396533
-0.025731429 -0.0091898143 0.67645919
-0.026103077 -0.011187017 0.6796636
-0.026645195 -0.013322592 0.68433785
-0.026887376 -0.0153642 0.68642604
-0.027062299 -0.017397195 0.68793422
-0.025348835 0.040948123 0.68997294
-0.025062758 0.038558125 0.68731654
-0.023945805 0.034997731 0.67694521
-0.024126552 0.033406019 0.6786235
-0.025273392 0.033049822 0.6892724
-0.023048362 0.028367192 0.668612
-0.02290245 0.026425928 0.66725719
-0.022795942 0.024549484 0.66626823
-0.022713397 0.022713393 0.66550171
-0.022646418 0.020904392 0.6648798
-0.022421908 0.018972397 0.66279513
-0.022163525 0.017048866 0.66039592
-0.022116879 0.015311718 0.65996277
-0.022140367 0.013624877 0.66018093
-0.022237249 0.011973888 0.66108054
-0.022441788 0.010357708 0.66297972
-0.022615708 0.0086983442 0.66459471
-0.022678472 0.0069780052 0.66517746
-0.022740871 0.0052478611 0.66575688
-0.022817051 0.0035103261 0.66646421
-0.022908257 0.0017621517 0.66731113
-0.023015657 -0 0.66830838
-0.023141593 -0.0017801225 0.66947776
-0.023288492 -0.0035828352 0.67084175
-0.023462292 -0.0054143369 0.67245555
-0.023670189 -0.0072831213 0.67438596
-0.023919126 -0.0091996789 0.67669749
-0.024239473 -0.011187464 0.679672
-0.024685817 -0.013292372 0.68381649
-0.025053684 -0.015417635 0.68723232
-0.025191952 -0.017440557 0.6885162
-0.023309901 0.03884986 0.68907744
-0.022508347 0.035638243 0.68101442
-0.022309471 0.033464193 0.67901391
-0.023365781 0.033101529 0.68963951
-0.021443253 0.028591007 0.67030036
-0.021298278 0.026622862 0.66884208
-0.02118675 0.024717867 0.66772014
-0.021096379 0.022854418 0.66681111
-0.021031646 0.021031678 0.66615999
-0.020944638 0.019199252 0.66528469
-0.020613866 0.017178237 0.66195738
-0.02052143 0.015391082 0.66102761
-0.020523885 0.013682574 0.66105229
-0.020587573 0.012009442 0.66169286
-0.020733237 0.010366589 0.66315818
-0.020939378 0.0087247193 0.66523182
-0.021019941 0.0070066452 0.66604215
-0.021073574 0.0052684247 0.66658175
-0.021139979 0.0035233498 0.66724968
-0.021220071 0.0017683506 0.66805536
-0.021315137 -0 0.66901165
-0.021426877 -0.0017855763 0.67013568
-0.021557737 -0.003592968 0.67145199
-0.02171083 -0.0054277182 0.67299199
-0.021891467 -0.0072971284 0.6748091
-0.02211302 -0.0092137158 0.67703772
-0.022386661 -0.011193305 0.67979038
-0.022756677 -0.013274729 0.68351245
-0.023190523 -0.015460342 0.68787658
-0.023323664 -0.017492741 0.68921584
-0.023578933 -0.019649088 0.69178367
-0.021583509 0.039242774 0.69144881
-0.02139931 0.03696245 0.6894275
-0.020486047 0.033522636 0.67940563
-0.020642402 0.031901866 0.68112141
-0.021629481 0.03146106 0.6919533
-0.019674866 0.026829362 0.67050391
-0.01955533 0.024888605 0.66919219
-0.01946494 0.023003995 0.66820025
-0.019398941 0.02116248 0.66747606
-0.019340657 0.019340664 0.6668365
-0.019066168 0.017332882 0.66382432
-0.01892769 0.0154863 0.66230464
-0.018899482 0.013745099 0.66199511
-0.018935764 0.012050033 0.66239333
-0.019039325 0.010385096 0.66352975
-0.019236894 0.008744061 0.66569781
-0.019346505 0.0070350766 0.66690063
-0.019394908 0.0052895546 0.66743177
-0.019452143 0.0035367608 0.66805983
-0.01952176 0.0017747283 0.66882378
-0.019604575 -0 0.66973263
-0.01970184 -0.0017910898 0.67079997
-0.019817183 -0.0036031306 0.67206573
-0.019952748 -0.0054416656 0.67355335
-0.020112129 -0.0073134899 0.67530233
-0.020301521 -0.0092279911 0.67738068
-0.020538948 -0.011203051 0.67998612
-0.020847332 -0.013266504 0.68337023
-0.021288071 -0.015482217 0.68820679
-0.021454951 -0.017554015 0.69003803
-0.021618096 -0.019652814 0.69182843
-0.01960461 0.03724876 0.69124657
-0.018839162 0.033910483 0.68200672
-0.018798815 0.031957984 0.68151969
-0.019692184 0.031507492 0.69230366
-0.018026071 0.027039111 0.67219186
-0.017905764 0.025068045 0.67073965
-0.017817263 0.023162425 0.66967136
-0.017745795 0.021294951 0.66880858
-0.017691832 0.019461036 0.66815722
-0.017583651 0.017583698 0.6668514
-0.017323699 0.015591353 0.66371346
-0.017270183 0.013816148 0.66306746
-0.017283307 0.012098342 0.66322589
-0.017349288 0.010409564 0.66402233
-0.017503565 0.0087518096 0.66588461
-0.017653633 0.0070614517 0.66769612
-0.017704854 0.0053114593 0.66831446
-0.017753666 0.0035507679 0.66890359
-0.017813522 0.001781404 0.66962612
-0.017885411 -0 0.6704939
-0.017970394 -0.0017970204 0.67151976
-0.018070079 -0.0036140382 0.67272305
-0.018186726 -0.0054560304 0.67413116
-0.018325537 -0.007330209 0.67580676
-0.018491395 -0.0092456937 0.67780882
-0.01869221 -0.011215329 0.68023288
-0.018949175 -0.013264447 0.68333477
-0.019320585 -0.015456468 0.68781805
-0.019574163 -0.017616749 0.69087899
-0.019691486 -0.019691467 0.69229519
-0.017803263 0.037584662 0.69338059
-0.017653903 0.035307795 0.69137728
-0.016948799 0.0320144 0.68192023
-0.01775014 0.031555802 0.69266808
-0.016359491 0.027265817 0.6740163
-0.016241135 0.025263995 0.67242885
-0.016147316 0.023323864 0.67117053
-0.016073829 0.021431774 0.67018491
-0.016021846 0.019582272 0.66948766
-0.015967363 0.017741531 0.66875696
-0.01571352 0.015713513 0.66535234
-0.015631268 0.013894469 0.66424912
-0.015621888 0.012150377 0.66412336
-0.015666451 0.010444343 0.66472101
-0.015767053 0.0087594986 0.66607028
-0.015933184 0.007081449 0.66829854
-0.016000781 0.0053336024 0.66920519
-0.01604165 0.0035648048 0.66975331
-0.016092498 0.0017880499 0.67043531
-0.016154034 -0 0.67126071
-0.016227322 -0.0018030107 0.6722436
-0.01631362 -0.0036252439 0.67340106
-0.01641495 -0.0054716766 0.6747601
-0.016533678 -0.007348299 0.67635256
-0.016674733 -0.0092637241 0.67824435
-0.016847409 -0.011231571 0.68056035
-0.01706337 -0.013271511 0.6834569
-0.017358163 -0.015429497 0.68741083
-0.017673997 -0.017673999 0.69164681
-0.017768629 -0.019742936 0.69291615
-0.018021131 -0.022025824 0.69630271
-0.015832195 0.035622448 0.69348729
-0.015151767 0.032197505 0.68322039
-0.015208934 0.03041786 0.68408304
-0.015934102 0.029876441 0.69502497
-0.014550439 0.025463253 0.67414713
-0.014455436 0.023490071 0.67271364
-0.014385511 0.021578282 0.67165852
-0.014331688 0.01970607 0.67084634
-0.014288614 0.01786077 0.67019641
-0.014126195 0.015891999 0.66774571
-0.013981772 0.013981789 0.66556656
-0.013955011 0.012210637 0.6651628
-0.013973766 0.010480314 0.6654458
-0.014046486 0.0087790787 0.66654307
-0.014188887 0.0070944726 0.66869164
-0.014280457 0.0053552091 0.67007339
-0.014317796 0.0035794675 0.67063677
-0.014360172 0.0017950237 0.67127615
-0.014411926 2.9802322e-08 0.67205715
-0.014473678 -0.0018092394 0.67298889
-0.01454642 -0.0036365688 0.67408645
-0.014632992 -0.0054873824 0.67539275
-0.014734905 -0.0073674619 0.67693043
-0.014854987 -0.0092843473 0.67874235
-0.01499893 -0.011249155 0.68091428
-0.01517877 -0.013281435 0.6836279
-0.015415573 -0.015415579 0.68720096
-0.015743338 -0.017711252 0.69214654
-0.015850563 -0.01981318 0.69376445
-0.015991906 -0.021988839 0.69589716
-0.013965521 0.035911322 0.69542474
-0.013822882 0.033569872 0.69296503
-0.013331573 0.030472159 0.68449265
-0.013964463 0.029923856 0.69540644
-0.012836527 0.025673091 0.67595589
-0.012745718 0.023670614 0.67439002
-0.012675835 0.021730006 0.67318487
-0.012620478 0.019832164 0.67223024
-0.01258036 0.017971992 0.67153847
-0.01252498 0.016103566 0.67058349
-0.012325795 0.014086634 0.66714865
-0.012274738 0.012274712 0.66626823
-0.012280203 0.010525882 0.66636246
-0.012323064 0.0088021755 0.66710156
-0.012425846 0.0071004927 0.66887403
-0.012541484 0.0053749681 0.67086804
-0.012580812 0.0035945475 0.67154628
-0.012615522 0.0018022358 0.67214483
-0.01265838 -0 0.67288387
-0.012709966 -0.0018157065 0.67377341
-0.01277114 -0.0036489069 0.67482835
-0.012843071 -0.0055041909 0.67606872
-0.012927351 -0.007387042 0.67752206
-0.013028235 -0.0093058944 0.6792618
-0.013148747 -0.011270374 0.68133998
-0.013296147 -0.013296157 0.68388176
-0.013486186 -0.015412807 0.68715894
-0.013764648 -0.017697394 0.69196075
-0.013919124 -0.019884467 0.6946246
-0.01401038 -0.022016287 0.69619823
-0.011986459 0.033961654 0.6957469
-0.011447499 0.030526638 0.68490374
-0.011537021 0.028842568 0.68670487
-0.012089025 0.028207719 0.69781035
-0.011011818 0.023858964 0.67613858
-0.010941983 0.021883994 0.67473364
-0.010890226 0.01996544 0.67369235
-0.010851962 0.018086612 0.67292249
-0.010818683 0.01622802 0.67225301
-0.010657834 0.014210463 0.66901696
-0.010586054 0.01235041 0.66757286
-0.010572521 0.010572523 0.66730058
-0.010599284 0.0088327229 0.66783905
-0.010663171 0.0071087778 0.66912436
-0.0107791 0.0053895414 0.67145669
-0.01082918 0.0036097169 0.67246419
-0.010856829 0.0018095076 0.67302042
-0.010891451 2.9802322e-08 0.67371696
-0.010933535 -0.001822263 0.67456365
-0.010983778 -0.0036612749 0.67557448
-0.011043089 -0.0055215359 0.67676771
-0.011112826 -0.0074085295 0.67817068
-0.011194667 -0.009328872 0.6798172
-0.011292697 -0.011292696 0.6817894
-0.011412337 -0.013314396 0.68419641
-0.011563862 -0.01541847 0.68724489
-0.011772592 -0.017658859 0.69144416
-0.011972978 -0.01995495 0.6954757
-0.012039912 -0.022073179 0.69682229
-0.010066932 0.03422758 0.69763511
-0.0097325975 0.031144291 0.68956363
-0.0096315434 0.028894633 0.68712395
-0.010090644 0.028253824 0.69820762
-0.0092507917 0.024052083 0.67793179
-0.0091867931 0.022048295 0.67638671
-0.0091392053 0.020106226 0.67523783
-0.0091013685 0.018202722 0.67432439
-0.0090732127 0.016331792 0.67364466
-0.0090108281 0.01441735 0.67213851
-0.008880551 0.012432784 0.66899335
-0.0088571282 0.010628551 0.66842788
-0.008866325 0.0088663399 0.66864991
-0.0089075221 0.0071260333 0.66964447
-0.0089954706 0.0053972602 0.67176783
-0.0090606939 0.0036242902 0.67334241
-0.0090854047 0.0018171072 0.67393899
-0.0091124075 -2.9802322e-08 0.67459095
-0.0091454852 -0.0018291175 0.67538953
-0.009185073 -0.0036740303 0.67634523
-0.0092318458 -0.0055391192 0.67747438
-0.0092877103 -0.007430166 0.67882311
-0.0093536172 -0.0093536377 0.6804142
-0.0094313696 -0.01131767 0.68229133
-0.0095254527 -0.013335645 0.68456274
-0.0096424948 -0.015427977 0.68738836
-0.0097995028 -0.01763913 0.69117892
-0.010002773 -0.020005524 0.69608629
-0.010065919 -0.022145033 0.69761074
-0.010174318 -0.024418354 0.70022762
-0.008146611 0.034623086 0.70044363
-0.0080662686 0.032265097 0.69801903
-0.0077191726 0.028946906 0.68754458
-0.008082197 0.028287679 0.69849974
-0.0074651707 0.024261832 0.67987943
-0.0074084131 0.022225261 0.67816651
-0.007363657 0.020250082 0.67681593
-0.0073293294 0.018323332 0.67577994
-0.0073047727 0.016435713 0.67503899
-0.0072787385 0.014557481 0.67425334
-0.0071609216 0.012531579 0.67069787
-0.0071251295 0.010687709 0.66961777
-0.0071243686 0.0089054704 0.66959476
-0.0071474193 0.0071474314 0.67029035
-0.0072023845 0.0054017603 0.67194915
-0.0072738971 0.0036369562 0.67410719
-0.0072994176 0.001824826 0.67487735
-0.0073195994 -0 0.67548639
-0.0073446333 -0.0018361211 0.67624182
-0.0073748636 -0.0036874413 0.67715412
-0.0074108271 -0.0055581629 0.67823941
-0.0074531892 -0.0074531734 0.67951781
-0.0075029228 -0.0093786418 0.68101865
-0.0075628581 -0.011344254 0.68282735
-0.0076343436 -0.013360113 0.68498462
-0.007722687 -0.015445352 0.68765068
-0.0078376066 -0.0176346 0.6911186
-0.0080073727 -0.020018429 0.6962418
-0.0080819689 -0.02222541 0.69849294
-0.0081429975 -0.024428964 0.70033455
-0.0060974741 0.032519877 0.69994128
-0.0058620675 0.029310375 0.69046926
-0.0058458354 0.027280569 0.68981618
-0.0061254664 0.026543707 0.70106763
-0.0056012808 0.022405118 0.67997605
-0.0055635385 0.02039963 0.67845744
-0.0055355737 0.018451929 0.67733216
-0.0055141007 0.016542286 0.67646819
-0.0054971986 0.014659196 0.6757881
-0.0054279827 0.012665302 0.67300308
-0.0053782924 0.010756582 0.6710037
-0.0053690774 0.0089484751 0.67063296
-0.0053794486 0.0071725845 0.67105025
-0.0054105697 0.0054106116 0.67230242
-0.0054695564 0.0036463737 0.67467588
-0.0054980842 0.0018326938 0.67582375
-0.0055121365 -2.9802322e-08 0.67638922
-0.0055298232 -0.0018432736 0.67710078
-0.0055514192 -0.0037009716 0.67796981
-0.0055772434 -0.0055772364 0.6790089
-0.0056078094 -0.0074770749 0.68023872
-0.0056438432 -0.0094063878 0.68168861
-0.0056861956 -0.011372417 0.68339276
-0.0057372907 -0.013386995 0.68544871
-0.0057995119 -0.015465379 0.68795222
-0.0058792415 -0.0176377 0.69116032
-0.0059911953 -0.019970655 0.695665
-0.0060839308 -0.022307754 0.69939637
-0.0061207209 -0.024482876 0.70087671
-0.0041058613 0.032846898 0.70240855
-0.0040693632 0.030520231 0.70020568
-0.0039043396 0.027330369 0.69024569
-0.0040901871 0.026586205 0.70146257
-0.0037663288 0.022597969 0.681916
-0.0037384278 0.020561337 0.68023205
-0.0037169745 0.018584877 0.67893714
-0.0037003441 0.016651511 0.67793345
-0.0036882609 0.014753044 0.67720413
-0.0036704312 0.0128465 0.67612797
-0.003612072 0.010836244 0.67260581
-0.003598667 0.0089966655 0.67179668
-0.003601257 0.0072025359 0.67195302
-0.0036159223 0.0054239035 0.67283809
-0.0036502948 0.0036503375 0.67491269
-0.003680109 0.001840055 0.67671216
-0.0036905867 -0 0.67734456
-0.0037015898 -0.0018507838 0.67800862
-0.0037151119 -0.0037150979 0.67882472
-0.0037313746 -0.0055970848 0.67980629
-0.003750646 -0.0075013041 0.68096936
-0.0037737144 -0.0094342828 0.68236172
-0.0038009915 -0.011402965 0.684008
-0.0038332408 -0.01341635 0.68595451
-0.0038725953 -0.015490383 0.68832976
-0.0039216601 -0.017647475 0.69129103
-0.0039888448 -0.019944191 0.695346
-0.0040683043 -0.022375673 0.70014179
-0.0040921774 -0.02455309 0.70158273
-0.0041500814 -0.026975513 0.70507753
-0.0020524338 0.030786514 0.70234859
-0.0019649109 0.027508765 0.69178367
-0.0019714297 0.025628567 0.69257057
-0.0020660784 0.024792939 0.7039957
-0.0018844837 0.020729303 0.6820752
-0.0018720884 0.018720865 0.68057901
-0.0018629365 0.016766399 0.67947429
-0.0018561432 0.014849156 0.67865425
-0.0018502679 0.012951881 0.67794502
-0.001821765 0.010930568 0.6745044
-0.001810257 0.0090512633 0.67311525
-0.0018087061 0.0072348118 0.67292809
-0.0018140833 0.0054422319 0.67357719
-0.0018268132 0.0036536157 0.6751138
-0.0018461104 0.0018461347 0.67744315
-0.0018533106 -0 0.6783123
-0.0018584458 -0.001858443 0.67893219
-0.001864846 -0.003729701 0.67970479
-0.0018725999 -0.0056177974 0.6806407
-0.0018818541 -0.0075273812 0.68175781
-0.0018927815 -0.0094638765 0.68307686
-0.0019056274 -0.01143375 0.68462753
-0.0019212052 -0.013448447 0.68650794
-0.0019397582 -0.015518039 0.68874741
-0.0019629453 -0.017666489 0.69154632
-0.0019933418 -0.019933432 0.69521552
-0.0020374074 -0.022411466 0.70053476
-0.0020536468 -0.024643749 0.70249504
-0.0020719303 -0.026935101 0.70470202
0 0.031056821 0.70452404
0 0.028714776 0.70218205
0 0.025676012 0.69301111
0 0.024833977 0.70440823
0 0.02090475 0.68400025
0 0.018866509 0.68233687
0 0.016887695 0.68110013
0 0.014947087 0.68013173
0 0.013037592 0.67942232
0 0.011087328 0.67765713
0 0.0091105998 0.67454684
0 0.0072727203 0.67407131
0 0.005461812 0.67436355
0 0.0036612749 0.67557609
0 0.001850456 0.67796648
0 2.9802322e-08 0.67928433
0 -0.0018661916 0.67986846
0 -0.003744334 0.68059081
0 -0.0056387186 0.6814822
0 -0.0075536966 0.68255168
0 -0.0094947219 0.68382084
0 -0.011468142 0.68531907
0 -0.013481796 0.68708283
0 -0.015549868 0.6892277
0 -0.017687798 0.69183207
0 -0.019932956 0.6952098
0 -0.022371411 0.70009494
0 -0.024736255 0.70342541
0 -0.026974618 0.70506918
0.0020726854 0.029017597 0.70479321
0.0019787427 0.025723666 0.69345325
0.0019947961 0.023937583 0.69539106
0.0020909179 0.023000121 0.706994
0.0019022007 0.019022048 0.68421388
0.001890186 0.017011672 0.68276358
0.0018811538 0.015049219 0.68167329
0.0018746204 0.01312235 0.68088466
0.0018675815 0.011205524 0.68003494
0.0018369808 0.0091849267 0.67634112
0.0018281282 0.0073125362 0.67527246
0.0018288564 0.0054865479 0.67536044
0.0018355118 0.0036709905 0.67616379
0.0018520895 0.0018521249 0.6781649
0.0018688161 -0 0.68018395
0.0018743956 -0.0018743873 0.68085748
0.0018799945 -0.00376001 0.68153334
0.0018869212 -0.0056607425 0.68236947
0.0018952693 -0.0075810552 0.68337715
0.001905192 -0.0095259547 0.68457496
0.0019171125 -0.011502653 0.68601388
0.0019312382 -0.013518661 0.68771899
0.0019479519 -0.015583605 0.68973655
0.0019685521 -0.017716944 0.69222313
0.0019944145 -0.019944131 0.69534504
0.002030174 -0.022331923 0.69966161
0.0020685298 -0.024822354 0.70429152
0.0020805283 -0.027046859 0.70573997
0.0041796002 0.029257238 0.70685911
0.0040471782 0.026306689 0.69886672
0.0039970661 0.023982406 0.69584221
0.004188925 0.023039103 0.7074219
0.0038360476 0.019180268 0.68612385
0.0038093398 0.017142057 0.6845119
0.0037894335 0.015157729 0.68331045
0.0037741985 0.013209671 0.68239093
0.0037623784 0.011287183 0.68167752
0.0037116806 0.0092792511 0.67861772
0.0036803798 0.0073607564 0.67672849
0.0036748655 0.005512327 0.67639565
0.0036843093 0.0036843121 0.67696565
0.0037078161 0.0018539131 0.67838442
0.0037491426 -0 0.6808787
0.0037653367 -0.0018826425 0.6818561
0.0037757934 -0.0037758052 0.68248725
0.0037888738 -0.0056833327 0.68327671
0.0038048208 -0.0076096356 0.68423921
0.0038238666 -0.009559691 0.68538868
0.003846413 -0.011539251 0.68674946
0.00387306 -0.013555706 0.68835783
0.0039053911 -0.015621573 0.69030911
0.0039439471 -0.01774773 0.69263613
0.0039926167 -0.019963056 0.69557363
0.0040569571 -0.022313237 0.69945693
0.0041468139 -0.024880886 0.7048803
0.004175798 -0.027142674 0.70662957
0.0042199614 -0.029539704 0.70929515
0.0063643218 0.02970016 0.71067846
0.0062792874 0.027210265 0.70725697
0.0060068276 0.024027318 0.69629401
0.0062922374 0.023071557 0.70777804
0.0058058151 0.019352734 0.68820584
0.0057607624 0.017282307 0.68639314
0.0057261726 0.015269786 0.68500131
0.0056998632 0.013299704 0.68394268
0.0056807296 0.01136145 0.68317288
0.005650599 0.0094176531 0.68196046
0.0055608796 0.00741449 0.67835045
0.0055427686 0.0055427551 0.67762172
0.0055483617 0.0036989152 0.67784679
0.0055757728 0.001858592 0.67894971
0.0056347121 -2.9802322e-08 0.68132126
0.0056727221 -0.0018908978 0.68285066
0.0056879194 -0.0037919581 0.68346214
0.0057061687 -0.0057061911 0.68419635
0.0057287952 -0.0076383948 0.68510687
0.0057561677 -0.009593606 0.68620825
0.0057887095 -0.011577398 0.68751764
0.0058272267 -0.013596863 0.68906742
0.0058726398 -0.015660375 0.69089466
0.0059282333 -0.017784685 0.69313157
0.0059959344 -0.019986451 0.69585574
0.0060842764 -0.022309005 0.69941032
0.0062155072 -0.024862021 0.70469064
0.0062873093 -0.027244985 0.70757967
0.006334377 -0.029560417 0.70947361
0.0084409192 0.027432978 0.70932519
0.0081181927 0.024354577 0.69958603
0.0080901682 0.02224794 0.69874036
0.0084799742 0.021199942 0.71050382
0.0077454904 0.017427355 0.68833876
0.0076928553 0.015385717 0.68675035
0.0076537286 0.013394028 0.68556958
0.0076247747 0.011437148 0.68469584
0.007599731 0.0094996691 0.68394011
0.0074784481 0.0074784756 0.68028009
0.0074345018 0.0055758953 0.67895383
0.0074319066 0.0037159622 0.67887557
0.0074569932 0.0018642545 0.6796326
0.0075193569 -0 0.68151456
0.0075932145 -0.0018983185 0.68374348
0.0076177227 -0.003808856 0.68448305
0.0076405508 -0.0057303905 0.68517196
0.0076689199 -0.0076689124 0.68602806
0.0077032475 -0.0096290708 0.68706399
0.0077441116 -0.011616141 0.68829715
0.0077934153 -0.013638496 0.68978506
0.007851935 -0.015703857 0.69155109
0.0079213297 -0.017822981 0.69364524
0.0080075646 -0.020018905 0.69624758
0.0081166783 -0.022320896 0.69954038
0.0082689226 -0.024806768 0.7041347
0.0084150117 -0.027348757 0.70854336
0.0084666293 -0.029633164 0.71010101
0.010667994 0.027736783 0.71214604
0.010565677 0.025357634 0.70967591
0.010131918 0.0222902 0.69920409
0.010617692 0.021235377 0.71093166
0.0097675566 0.017581612 0.69040757
0.0096933423 0.015509337 0.68861592
0.0096381111 0.013493389 0.68728256
0.0095957099 0.011514813 0.68625885
0.0095648197 0.009564817 0.68551314
0.0094751976 0.0075801611 0.68334943
0.0093556466 0.0056134164 0.68046319
0.0093373489 0.0037349463 0.68002146
0.0093555069 0.0018711388 0.6804598
0.0094128819 -0 0.68184495
0.0095196171 -0.0019038916 0.68442184
0.0095648561 -0.0038259327 0.68551397
0.0095914425 -0.0057548583 0.6861558
0.0096249478 -0.0076999664 0.68696475
0.0096658906 -0.0096658766 0.68795317
0.009714948 -0.011657923 0.68913758
0.009773165 -0.013682455 0.690543
0.0098422961 -0.015747666 0.69221193
0.0099261375 -0.017867029 0.69423604
0.010026385 -0.020052761 0.69665623
0.010154125 -0.022339076 0.69974017
0.010324338 -0.024778396 0.70384949
0.010548125 -0.02742511 0.70925218
0.010616566 -0.029726356 0.71090448
0.010766052 -0.032298148 0.71451342
0.012789048 0.025578082 0.71189368
0.012248184 0.022455066 0.70101237
0.012282861 0.020471454 0.70170999
0.012876872 0.019315332 0.71366054
0.011730502 0.015640676 0.69059741
0.011653005 0.013595164 0.68903828
0.011595887 0.011595905 0.68788916
0.011554205 0.0096285343 0.68705058
0.011507922 0.0076719224 0.68611938
0.011317473 0.0056587458 0.68228793
0.011267774 0.0037559271 0.68128806
0.011275478 0.0018792748 0.68144304
0.011324432 2.9802322e-08 0.68242788
0.011440257 -0.001906693 0.68475813
0.011527939 -0.003842622 0.68652213
0.011560256 -0.0057801306 0.68717229
0.011597501 -0.0077316761 0.68792158
0.011643649 -0.0097030401 0.6888501
0.011700009 -0.011700034 0.68998396
0.011767239 -0.01372844 0.69133645
0.011846922 -0.015795857 0.69293958
0.011941023 -0.017911524 0.69483274
0.012057126 -0.020095229 0.69716859
0.012199457 -0.022365659 0.700032
0.012386855 -0.024773687 0.70380217
0.012667471 -0.027446181 0.70944774
0.012788667 -0.029840201 0.71188605
0.01290244 -0.032256097 0.71417499
0.01506774 0.025830448 0.71443176
0.014920238 0.023446113 0.71188819
0.014357555 0.020510793 0.70218509
0.015049029 0.01934877 0.71410912
0.013804739 0.015776813 0.69265217
0.013703308 0.013703287 0.69090307
0.013628818 0.011681855 0.68961847
0.01357194 0.0096942484 0.68863761
0.013528536 0.0077306032 0.68788916
0.013333653 0.0057144165 0.68452853
0.013231351 0.0037803948 0.68276441
0.013216274 0.0018880665 0.68250442
0.013257344 -0 0.68321264
0.013359031 -0.0019084513 0.68496615
0.013499961 -0.0038571358 0.68739641
0.013548107 -0.0058062971 0.6882267
0.013588844 -0.0077650249 0.68892908
0.013639699 -0.0097426474 0.6898061
0.013701432 -0.011744082 0.6908707
0.01377515 -0.01377514 0.69214189
0.013864411 -0.015845031 0.69368118
0.01397059 -0.017962188 0.69551218
0.014096653 -0.020138055 0.69768596
0.014254712 -0.02240026 0.70041162
0.014456161 -0.024782002 0.70388556
0.014741519 -0.027377099 0.70880634
0.014978687 -0.029957384 0.71289617
0.015078444 -0.032310963 0.71461642
0.017227463 0.02368778 0.7145403
0.016440241 0.020550281 0.70266199
0.016578807 0.018651187 0.70475274
0.01738821 0.017388195 0.71696573
0.01579334 0.013819188 0.69290102
0.015693959 0.011770487 0.69140148
0.015619979 0.0097624958 0.69028521
0.015566041 0.0077830255 0.68947136
0.01547571 0.0058034062 0.68810833
0.015230286 0.0038075447 0.68440521
0.015188043 0.0018985271 0.68376774
0.015208009 2.9802322e-08 0.68406904
0.015297103 -0.0019121468 0.68541336
0.015470565 -0.0038675964 0.68803072
0.015554125 -0.0058327913 0.6892916
0.015597459 -0.0077987313 0.68994546
0.015652351 -0.0097827017 0.69077367
0.01571966 -0.011789739 0.69178927
0.015800573 -0.013825506 0.69301015
0.015896767 -0.015896767 0.69446164
0.016011607 -0.01801306 0.69619447
0.016150959 -0.020188719 0.69829708
0.016318861 -0.022438437 0.70083052
0.016532518 -0.024798781 0.70405436
0.016825072 -0.02734074 0.70846862
0.017176308 -0.030058563 0.71376842
0.017280415 -0.032400757 0.71533924
0.019551799 0.023896664 0.71683246
0.018963117 0.021070123 0.70893687
0.018687457 0.018687457 0.70523965
0.019591181 0.017414391 0.71736068
0.017920872 0.013938457 0.69495797
0.017794961 0.011863321 0.69326925
0.017700743 0.0098337531 0.69200557
0.017631164 0.0078361034 0.69107234
0.017571036 0.0058570206 0.69026589
0.01728043 0.0038400888 0.68636823
0.017186843 0.0019096434 0.68511295
0.01719006 -0 0.68515611
0.017255401 -0.0019173026 0.68603253
0.017424252 -0.0038720369 0.68829715
0.017574534 -0.0058581531 0.6903128
0.017626125 -0.0078338385 0.69100475
0.017683158 -0.0098239779 0.69176972
0.01775378 -0.011835843 0.69271684
0.017840927 -0.013876289 0.69388574
0.017945008 -0.015951097 0.69528168
0.018068783 -0.01806879 0.69694179
0.018215692 -0.020239681 0.6989122
0.018397044 -0.022485256 0.70134449
0.01862154 -0.024828702 0.70435554
0.018919697 -0.027328461 0.70835453
0.019357985 -0.030112386 0.71423298
0.01951528 -0.03252545 0.71634269
0.019717623 -0.035053551 0.71905655
0.021756336 0.021756351 0.71722013
0.020804245 0.018723816 0.7057274
0.021803549 0.017442852 0.71779007
0.020096423 0.014067531 0.69718319
0.019936278 0.011961788 0.69525009
0.019817207 0.0099086165 0.69381273
0.019727666 0.0078910589 0.69273192
0.019662237 0.0058986843 0.6919421
0.019446662 0.0038893521 0.68933988
0.019228518 0.0019228458 0.68670666
0.019195028 -0 0.68630242
0.019245232 -0.0019245148 0.68690842
0.0193791 -0.0038758516 0.68852437
0.019596856 -0.0058790445 0.69115293
0.019674839 -0.0078699291 0.69209421
0.0197342 -0.0098670721 0.69281077
0.019808656 -0.011885196 0.69370949
0.019899329 -0.013929546 0.69480407
0.020007946 -0.01600638 0.69611526
0.02013986 -0.018125862 0.69770753
0.020297211 -0.020297199 0.6996069
0.020485263 -0.022533774 0.70187694
0.020720847 -0.024865001 0.70472062
0.021024536 -0.027331859 0.70838654
0.021467714 -0.030054808 0.71373618
0.021769209 -0.032653809 0.71737552
0.021930072 -0.035088122 0.71931732
0.024135668 0.021941483 0.71945548
0.02322291 0.01900053 0.70943916
0.023125436 0.016818494 0.70836949
0.024248168 0.015430659 0.72069001
0.022120902 0.012065977 0.69734603
0.021969296 0.009986043 0.69568235
0.021857448 0.0079481602 0.69445491
0.021776589 0.0059390664 0.69356763
0.021682907 0.0039423704 0.69253957
0.021320397 0.0019382238 0.6885615
0.021236489 -0 0.68764073
0.02125732 -0.0019324422 0.68786931
0.021369152 -0.003885299 0.68909657
0.021610541 -0.0058937669 0.69174552
0.021742523 -0.0079063475 0.69319379
0.021803332 -0.0099105835 0.69386113
0.021880647 -0.011934876 0.69470954
0.021975875 -0.01398465 0.69575453
0.022090537 -0.016065836 0.69701278
0.022227298 -0.018185973 0.69851363
0.02239133 -0.020355761 0.70031357
0.022590393 -0.022590369 0.70249808
0.02283255 -0.024908215 0.70515549
0.023140701 -0.027348101 0.70853698
0.023572212 -0.030000985 0.71327227
0.02403596 -0.032776326 0.71836132
0.024189238 -0.035184324 0.7200433
0.026694225 0.022245198 0.72312105
0.026370294 0.019777775 0.71986258
0.025277557 0.016851693 0.70887053
0.026498895 0.01545766 0.72115624
0.024351912 0.012176007 0.69955921
0.024163067 0.01006797 0.69765961
0.024026444 0.0080088079 0.69628531
0.023922293 0.005980581 0.69523764
0.02384411 0.0039740205 0.69445115
0.023481922 0.0019568503 0.69080782
0.023315875 -0 0.68913752
0.023301488 -0.0019418001 0.6889928
0.023383796 -0.0038972795 0.68982077
0.023596445 -0.0058991015 0.69195986
0.023821782 -0.0079405904 0.69422656
0.023895163 -0.0099563301 0.69496471
0.02397282 -0.011986434 0.69574594
0.024069497 -0.01404056 0.69671834
0.024188766 -0.016125828 0.69791818
0.024332272 -0.018249184 0.69936168
0.024503063 -0.02041924 0.70107973
0.024707241 -0.022648275 0.70313358
0.024959074 -0.024959087 0.70566684
0.025274046 -0.027380228 0.70883524
0.025695549 -0.029978126 0.71307516
0.026290163 -0.032862693 0.71905655
0.026479028 -0.035305351 0.72095644
0.028819827 0.019952178 0.72220266
0.027612211 0.016992122 0.71098936
0.027675768 0.014902353 0.7115795
0.029024813 0.013396025 0.72410601
0.026405439 0.010155946 0.69978398
0.026231337 0.0080711544 0.69816732
0.026104379 0.0060240626 0.69698846
0.026011474 0.0040017962 0.69612581
0.0258421 0.0019878447 0.69455314
0.025437655 2.9802322e-08 0.69079769
0.02538009 -0.0019523501 0.69026315
0.0254298 -0.0039122701 0.69072473
0.025595305 -0.0059065819 0.69226146
0.02589364 -0.0079672635 0.69503164
0.026007835 -0.010003 0.69609201
0.026086476 -0.0120399 0.69682229
0.026185717 -0.014100015 0.69774377
0.026307084 -0.016189009 0.69887072
0.026452797 -0.018313497 0.70022374
0.026630407 -0.020484895 0.70187289
0.026842725 -0.022713095 0.70384437
0.027098361 -0.025013864 0.70621806
0.027417842 -0.027417809 0.70918453
0.027834464 -0.029975563 0.71305311
0.028460074 -0.032838523 0.71886212
0.031379588 0.020172626 0.72515869
0.031053936 0.017745107 0.72235096
0.029864268 0.014932096 0.71209335
0.031313941 0.013420284 0.72459275
0.028691586 0.010246992 0.70198226
0.028480679 0.0081373453 0.70016372
0.028323602 0.0060693622 0.69880944
0.028207839 0.0040296912 0.69781131
0.028107785 0.0020077229 0.69694865
0.027634749 2.9802322e-08 0.69286996
0.027492993 -0.0019637942 0.69164777
0.027510483 -0.0039300621 0.69179857
0.02763813 -0.0059224367 0.69289911
0.027942965 -0.0079837143 0.69552749
0.028139737 -0.010049909 0.69722414
0.028219087 -0.012093902 0.69790828
0.028320054 -0.014160037 0.69877887
0.028444709 -0.016254097 0.6998536
0.02859531 -0.018382698 0.70115221
0.028775265 -0.020553768 0.70270377
0.028992256 -0.022779614 0.7045747
0.029255735 -0.02507633 0.70684648
0.029579021 -0.027466208 0.70963389
0.029993672 -0.029993623 0.71320909
0.030579738 -0.032763988 0.71826226
0.033610146 0.017925411 0.72507149
0.032061536 0.014962077 0.71260923
0.032342695 0.012937069 0.71487188
0.031036412 0.010345459 0.70435971
0.030776912 0.008207202 0.70227134
0.030584399 0.0061169267 0.70072216
0.030442111 0.0040589273 0.69957709
0.030338133 0.0020225644 0.69874036
0.02995562 -2.9802322e-08 0.69566214
0.029662723 -0.0019775033 0.69330508
0.029619759 -0.0039493144 0.69295931
0.02971616 -0.0059432387 0.69373506
0.029965186 -0.0079907179 0.69573915
0.03027706 -0.010092348 0.69824892
0.030377917 -0.012151182 0.69906056
0.030477095 -0.014222652 0.69985867
0.030601108 -0.016320586 0.70085657
0.030754212 -0.018452495 0.70208871
0.030939816 -0.020626545 0.70358235
0.03116102 -0.022851437 0.7053625
0.031427201 -0.025141746 0.70750445
0.031754963 -0.027520984 0.71014214
0.032169413 -0.030024767 0.71347737
0.032838117 -0.032838106 0.71885866
0.033972379 -0.03623718 0.72798645
0.036196899 0.018098444 0.72768247
0.035161939 0.015383363 0.71987432
0.034568742 0.012963295 0.71539891
0.036253776 0.011329353 0.72811157
0.033123039 0.0082807839 0.70449197
0.032888047 0.0061664879 0.70271903
0.032713342 0.0040891767 0.701401
0.032588564 0.0020367801 0.70045966
0.032437377 -0 0.69931901
0.031890165 -0.0019931495 0.69519067
0.031780157 -0.0039725304 0.69436073
0.031821337 -0.0059664845 0.69467133
0.032019757 -0.0080049336 0.6961683
0.032399572 -0.010124862 0.6990338
0.032557685 -0.012209117 0.70022672
0.032656495 -0.014287204 0.70097208
0.032781791 -0.01639089 0.70191741
0.032935672 -0.018526345 0.70307839
0.03312071 -0.020700425 0.70447433
0.033347245 -0.022926241 0.70618343
0.033618491 -0.025213867 0.7082299
0.033947799 -0.027582586 0.71071428
0.034358073 -0.030063301 0.71380955
0.035010319 -0.032822162 0.71873039
0.03591983 -0.035919845 0.72559214
0.038501158 0.015853435 0.72798026
0.036803659 0.012989581 0.715927
0.038587965 0.01134941 0.72859669
0.03552942 0.0083598793 0.70687914
0.035238717 0.0062185824 0.70481497
0.035031047 0.0041213334 0.70334029
0.034873351 0.0020513833 0.70222056
0.034756646 -0 0.70139194
0.034206372 -0.0020121336 0.69748461
0.033979949 -0.0039976537 0.6958769
0.033977773 -0.0059960783 0.6958614
0.034113772 -0.0080267489 0.69682711
0.03447631 -0.010140121 0.69940138
0.034756646 -0.012267053 0.70139194
0.034856915 -0.014352858 0.70210391
0.03498134 -0.016461819 0.70298743
0.035137262 -0.018602073 0.70409453
0.03532609 -0.020780057 0.70543534
0.035552289 -0.023004413 0.7070415
0.035826314 -0.025289148 0.7089873
0.03615908 -0.027651072 0.71135008
0.036654741 -0.030186266 0.71486962
0.037205137 -0.032828063 0.71877778
0.038021013 -0.035784513 0.72457099
0.041134018 0.015996605 0.73044878
0.039594568 0.013198197 0.72012502
0.039395396 0.010943145 0.71878934
0.041323885 0.009183079 0.73172206
0.037648793 0.0062747896 0.70707631
0.037388567 0.0041542649 0.70533121
0.037202623 0.0020668209 0.70408422
0.037066203 2.9802322e-08 0.70316935
0.036792133 -0.0020440221 0.70133144
0.036239203 -0.0040265918 0.69762343
0.03616659 -0.0060277581 0.69713646
0.036262695 -0.008058399 0.69778097
0.03654002 -0.010150015 0.69964075
0.036951385 -0.012317151 0.70239937
0.037085433 -0.014422119 0.70329833
0.037207078 -0.016536474 0.70411408
0.037359875 -0.018679947 0.7051388
0.03754865 -0.020860374 0.70640481
0.037779078 -0.023087233 0.70795006
0.038054436 -0.025369585 0.70979661
0.038464639 -0.027780056 0.71254754
0.038880933 -0.030240715 0.71533924
0.039419018 -0.032849163 0.71894777
0.040179238 -0.035714865 0.72404587
0.041991871 -0.039658934 0.73620158
0.041669514 0.010965645 0.7193324
0.043699656 0.0091999471 0.73223031
0.040113993 0.0063337982 0.70944989
0.039802119 0.0041896701 0.70746851
0.039573312 0.0020827949 0.70601481
0.039406162 2.9802322e-08 0.7049529
0.039258406 -0.0020662546 0.70401418
0.038587082 -0.0040617883 0.69974917
0.038406722 -0.0060642064 0.69860327
0.038443062 -0.0080932677 0.69883418
0.03865895 -0.01017338 0.70020568
0.039116099 -0.012352437 0.70311004
0.039335728 -0.014492095 0.70450544
0.039455555 -0.016612858 0.70526671
0.039608266 -0.018761784 0.7062369
0.039796453 -0.020945519 0.70743251
0.040023472 -0.023171455 0.70887476
0.040375333 -0.025500178 0.71111023
0.040714242 -0.027857095 0.71326339
0.041133858 -0.030309141 0.71592927
0.041661844 -0.032890916 0.7192837
0.04237758 -0.035686404 0.72383088
0.043589655 -0.039001256 0.73153144
0.044272877 0.011068225 0.72180837
0.044349398 0.0088698864 0.72227025
0.046535909 0.0069803596 0.73546696
0.042269308 0.004226923 0.70971578
0.041992079 0.0020996332 0.70804256
0.04179059 -0 0.70682645
0.041643463 -0.0020821691 0.70593852
0.041077152 -0.0041077137 0.70252049
0.040707536 -0.0061061084 0.70028961
0.040670477 -0.0081340671 0.70006597
0.040821116 -0.010205269 0.70097512
0.041225217 -0.012367547 0.70341408
0.041601915 -0.01456064 0.70568764
0.041728031 -0.016691208 0.70644891
0.041876454 -0.018844426 0.70734465
0.042065334 -0.021032661 0.70848465
0.042366125 -0.023301333 0.71030009
0.042644512 -0.025586694 0.71198034
0.042987067 -0.027941614 0.71404785
0.043400012 -0.030380011 0.71654022
0.043922517 -0.032941878 0.71969378
0.044606388 -0.035685092 0.72382128
0.045648172 -0.038800955 0.7301091
0.046663858 0.0088883638 0.72282779
0.048948295 0.0069926381 0.73595899
0.044792775 0.004265964 0.71207255
0.044463344 0.0021173358 0.71017885
0.044216741 2.9802322e-08 0.70876139
0.044042893 -0.002097249 0.70776206
0.043819182 -0.0041732192 0.70647621
0.043076195 -0.0061537623 0.70220542
0.042949773 -0.0081808865 0.70147872
0.043034736 -0.010246366 0.70196712
0.043332536 -0.012380749 0.70367885
0.043851003 -0.014616966 0.70665908
0.044029605 -0.016773164 0.70768571
0.044244669 -0.018961996 0.70892191
0.044428755 -0.021156549 0.70998001
0.044659127 -0.023392886 0.71130431
0.044940673 -0.025680393 0.71292263
0.045277625 -0.028028995 0.71485949
0.045693073 -0.030462027 0.71724749
0.046203412 -0.033002436 0.72018105
0.046866577 -0.035707831 0.72399294
0.047814116 -0.03870669 0.72943962
0.049299743 0.0089635849 0.72509813
0.049214445 0.006711036 0.72463018
0.047395516 0.0043087006 0.71464992
0.046987254 0.0021357834 0.71240985
0.046697434 2.9802322e-08 0.71081972
0.04648073 -0.0021127462 0.70963067
0.046319567 -0.0042108595 0.70874643
0.045554735 -0.0062119961 0.70454985
0.045274999 -0.0082318187 0.70301503
0.045298662 -0.010295123 0.70314485
0.045523651 -0.012415528 0.70437932
0.046328343 -0.014740825 0.70879453
0.046426818 -0.016882479 0.70933485
0.046569414 -0.019051105 0.71011728
0.04675217 -0.021250993 0.71112001
0.046978634 -0.023489296 0.71236259
0.04725391 -0.025774866 0.71387297
0.047594491 -0.028124034 0.71574169
0.04800253 -0.030547082 0.71798062
0.048511084 -0.03307575 0.7207709
0.049155325 -0.035749346 0.72430581
0.05003497 -0.038663357 0.72913229
0.051635642 -0.042247355 0.73791492
0.051237281 0.006683141 0.72350603
0.051235914 0.0044552982 0.72349882
0.049690418 0.0021604598 0.7153877
0.049328756 -0 0.71348959
0.049058333 -0.002132982 0.71207029
0.048871461 -0.0042496622 0.71108949
0.048742294 -0.0063576996 0.71041167
0.047685795 -0.0082931519 0.70486683
0.047601376 -0.010348141 0.70442373
0.048640318 -0.012688786 0.70987642
0.048694037 -0.01481989 0.71015835
0.048786514 -0.016969234 0.71064371
0.048921112 -0.019143045 0.71135014
0.049096428 -0.021346271 0.7122702
0.04932199 -0.023588777 0.71345407
0.049597688 -0.025877059 0.71490097
0.049929719 -0.02822116 0.71664357
0.050339222 -0.030641258 0.71879274
0.050834417 -0.033152878 0.72139168
0.051464807 -0.035801619 0.72470021
0.052300252 -0.038656712 0.72908485
0.053620279 -0.041963696 0.7360127
0.054157 0.0067696273 0.72698659
0.053016976 0.0044181049 0.72125268
0.052373938 0.0021822453 0.71801841
0.051923286 2.9802322e-08 0.71575189
0.051608205 -0.002150327 0.71416712
0.05137527 -0.0042812526 0.71299559
0.051212482 -0.0064015388 0.7121768
0.051111996 -0.0085186362 0.71167135
0.051061139 -0.01063773 0.71141565
0.051056579 -0.012764156 0.7113927
0.051095467 -0.01490283 0.71158826
