# .PCD v0.7 - Point Cloud Data file format
VERSION 0.7
FIELDS x y z
SIZE 4 4 4
TYPE F F F
COUNT 1 1 1
WIDTH 1338
HEIGHT 1
VIEWPOINT 0 0 0 1 0 0 0
POINTS 1338
DATA ascii
-0.024726503 -0.06743589 0.7259391
-0.02485233 -0.070038378 0.7273199
-0.024982508 -0.072676361 0.72874838
-0.025114058 -0.075342178 0.73019201
-0.025247809 -0.078038722 0.73165977
-0.025386155 -0.080774099 0.7331779
-0.025526496 -0.083541274 0.73471797
-0.018024577 0.045061439 0.6721738
-0.018055016 0.04333204 0.67254126
-0.018098183 0.041625798 0.67306232
-0.018151034 0.039932311 0.67370027
-0.018211748 0.038244665 0.67443317
-0.018272869 0.036545783 0.67517096
-0.018340854 0.034847617 0.67599159
-0.018413344 0.033143997 0.67686665
-0.018486477 0.031426996 0.67774945
-0.018561294 0.029698074 0.67865258
-0.018643733 0.027965605 0.67964774
-0.01872691 0.026217669 0.68065172
-0.018810831 0.024454087 0.68166471
-0.018895935 0.022675097 0.68269205
-0.018981453 0.020879626 0.68372428
-0.019066731 0.019066781 0.68475372
-0.019147063 0.017232358 0.68572342
-0.019223049 0.015378445 0.68664068
-0.019296816 0.013507813 0.68753105
-0.019359082 0.011615455 0.68828273
-0.019414216 0.009707123 0.68894821
-0.019465499 0.0077862144 0.68956727
-0.019517129 0.0058551431 0.69019055
-0.019568881 0.00391379 0.69081521
-0.019627759 0.0019628108 0.69152594
-0.019687381 -0 0.6922456
-0.019747442 -0.0019747019 0.69297057
-0.019809518 -0.0039619207 0.69371998
-0.019876486 -0.0059629381 0.69452834
-0.019943906 -0.0079775453 0.69534212
-0.020011708 -0.010005862 0.69616061
-0.020082064 -0.012049228 0.69700992
-0.020156329 -0.014109403 0.69790632
-0.020231064 -0.016184837 0.69880843
-0.020306436 -0.018275768 0.6997183
-0.020383868 -0.020383865 0.70065296
-0.020465322 -0.02251187 0.7016362
-0.020547431 -0.024656922 0.70262736
-0.020630201 -0.026819259 0.70362645
-0.020714156 -0.028999805 0.70463991
-0.020802861 -0.031204283 0.70571065
-0.020892417 -0.033427835 0.70679164
-0.020982657 -0.035670519 0.70788103
-0.02107377 -0.037932813 0.70898086
-0.021169258 -0.040221572 0.71013349
-0.021266522 -0.04253307 0.71130764
-0.021401051 -0.04494223 0.71293151
-0.021500185 -0.047300428 0.71412814
-0.021601731 -0.049683958 0.71535385
-0.021706879 -0.052096546 0.71662319
-0.021813244 -0.054533124 0.71790707
-0.021920562 -0.056993455 0.71920252
-0.022030978 -0.059483618 0.7205354
-0.022143785 -0.062002629 0.72189707
-0.022258744 -0.06455037 0.72328472
-0.022375302 -0.067125946 0.72469175
-0.022495214 -0.06973514 0.72613913
-0.022616312 -0.072372198 0.72760099
-0.022740686 -0.075044245 0.72910225
-0.022868317 -0.077752292 0.73064297
-0.022997387 -0.080490828 0.73220092
-0.023128459 -0.083262444 0.73378313
-0.015761755 0.056041777 0.66599929
-0.015764458 0.054299802 0.66603553
-0.015801022 0.052670091 0.66652596
-0.015837755 0.051032752 0.66701859
-0.015887093 0.049426496 0.66768032
-0.015938768 0.047816306 0.66837341
-0.015990781 0.046195626 0.66907102
-0.016050568 0.04458496 0.66987294
-0.016112303 0.042966157 0.67070091
-0.016174516 0.041334867 0.67153537
-0.016238907 0.039695114 0.67239892
-0.016309012 0.038054377 0.67333925
-0.016379723 0.036399394 0.67428768
-0.01645105 0.034730047 0.67524433
-0.016523365 0.033046752 0.67621422
-0.016595827 0.031347662 0.67718613
-0.016668497 0.029632896 0.67816079
-0.016737141 0.027895242 0.67908144
-0.016801711 0.026136011 0.67994744
-0.016865518 0.024361312 0.68080324
-0.016919062 0.022558749 0.68152142
-0.016967831 0.020738453 0.68217552
-0.017011417 0.018901557 0.68276012
-0.017055163 0.017055184 0.68334681
-0.017099069 0.015199214 0.6839357
-0.017147185 0.013336688 0.68458104
-0.017197739 0.011465162 0.6852591
-0.017248658 0.0095826089 0.68594205
-0.017299814 0.0076888204 0.68662816
-0.017355956 0.0057853162 0.68738115
-0.017413002 0.0038695931 0.68814629
-0.017470488 0.0019411743 0.68891728
-0.01752829 -0 0.68969256
-0.01759053 -0.0019544959 0.69052732
-0.017653765 -0.0039230585 0.69137549
-0.017717527 -0.0059058368 0.69223064
-0.01778168 -0.0079029799 0.69309109
-0.017849201 -0.0099162161 0.69399667
-0.01791859 -0.011945724 0.69492745
-0.017988522 -0.013991088 0.69586527
-0.018059 -0.016052425 0.6968106
-0.018131347 -0.018131375 0.69778097
-0.018206926 -0.020229876 0.6987946
-0.01828314 -0.02234605 0.69981688
-0.018359916 -0.024479896 0.70084655
-0.018437417 -0.026631773 0.70188606
-0.018519077 -0.028807431 0.70298129
-0.018601695 -0.03100282 0.7040894
-0.01868513 -0.033217996 0.70520842
-0.01876924 -0.035452992 0.70633656
-0.018856399 -0.037712812 0.70750558
-0.018945726 -0.039996564 0.70870364
-0.019035904 -0.042302012 0.70991313
-0.01915868 -0.044703573 0.71155989
-0.019251149 -0.047058344 0.71280003
-0.019347588 -0.049443841 0.71409357
-0.019445084 -0.051853567 0.71540117
-0.019543566 -0.054287702 0.71672201
-0.019643996 -0.056749314 0.71806908
-0.019747192 -0.059241563 0.7194531
-0.01985253 -0.061763406 0.72086596
-0.019959085 -0.064312607 0.72229517
-0.020068312 -0.066894352 0.72376007
-0.020179193 -0.069506109 0.72524726
-0.020293225 -0.072153687 0.72677672
-0.020409385 -0.074834377 0.72833467
-0.020526979 -0.077546328 0.72991186
-0.020647543 -0.08029598 0.73152888
-0.020771353 -0.083085388 0.73318946
-0.020954413 -0.086145908 0.73564476
-0.013623774 0.064712912 0.66016483
-0.013637328 0.063072622 0.66036928
-0.013668107 0.06150645 0.66083378
-0.013701042 0.059942067 0.6613307
-0.013744275 0.058413148 0.66198307
-0.013787784 0.056874633 0.6626395
-0.013831949 0.055327803 0.66330588
-0.013883522 0.053798676 0.66408408
-0.013935432 0.052257866 0.6648674
-0.013987781 0.050705701 0.66565722
-0.014042643 0.049149245 0.66648507
-0.014101611 0.047592968 0.66737485
-0.014161077 0.046023488 0.66827214
-0.014221047 0.044440776 0.66917694
-0.014281833 0.042845517 0.67009413
-0.014342523 0.041234761 0.6710099
-0.014403577 0.039609849 0.67193109
-0.01446186 0.037962377 0.67281055
-0.014516087 0.036290199 0.67362881
-0.014570459 0.034604818 0.67444921
-0.014616267 0.032886624 0.67514032
-0.014658767 0.031149864 0.67578161
-0.014695468 0.029390931 0.67633545
-0.014732193 0.027622879 0.67688954
-0.014769101 0.025845945 0.67744648
-0.014807892 0.024062842 0.67803174
-0.014850358 0.022275537 0.67867249
-0.014893013 0.020477921 0.6793161
-0.014935968 0.018669963 0.6799643
-0.014981191 0.016853899 0.68064666
-0.015029059 0.015029103 0.68136889
-0.015077232 0.013192564 0.68209577
-0.015125658 0.011344254 0.68282652
-0.015175778 0.0094848275 0.68358278
-0.015228721 0.0076143444 0.6843816
-0.015282094 0.005730778 0.68518692
-0.015335782 0.0038339496 0.68599701
-0.015390029 0.0019237399 0.6868155
-0.015448056 2.9802322e-08 0.68769109
-0.015506525 -0.0019382834 0.68857324
-0.015565434 -0.003891319 0.68946224
-0.015624796 -0.0058593154 0.69035792
-0.015686516 -0.007843256 0.69128919
-0.015750151 -0.0098438561 0.69224942
-0.015814243 -0.011860698 0.69321644
-0.015878921 -0.013894051 0.69419235
-0.015944257 -0.015944272 0.69517815
-0.016013144 -0.018014789 0.6962176
-0.016082693 -0.020103335 0.697267
-0.016152784 -0.022210091 0.69832468
-0.016223488 -0.024335235 0.69939148
-0.016296804 -0.026482314 0.70049775
-0.016371788 -0.028650641 0.7016291
-0.016447535 -0.030839115 0.70277208
-0.016523987 -0.033048004 0.70392561
-0.01660184 -0.035278887 0.70510036
-0.016682794 -0.037536293 0.7063219
-0.016764613 -0.039815933 0.70755637
-0.016847165 -0.042117923 0.70880204
-0.01695298 -0.044501603 0.71039867
-0.017044442 -0.046872199 0.71177864
-0.017132713 -0.049256563 0.71311063
-0.017221903 -0.051665723 0.71445644
-0.017312104 -0.054100305 0.71581739
-0.017404994 -0.056566238 0.717219
-0.017500339 -0.059063643 0.71865767
-0.017596735 -0.061588556 0.72011214
-0.017694825 -0.064143687 0.72159225
-0.017794805 -0.066730529 0.72310078
-0.017898003 -0.069354743 0.72465795
-0.018002564 -0.072010249 0.72623563
-0.018108519 -0.074697644 0.72783434
-0.018217554 -0.077424616 0.72947955
-0.018329168 -0.080190122 0.73116374
-0.018442158 -0.082989693 0.73286855
-0.018557839 -0.085830003 0.73461407
-0.011600674 0.074575722 0.65464437
-0.011600636 0.072918326 0.65464377
-0.011621229 0.071387559 0.65499878
-0.011646772 0.069880635 0.65543932
-0.011677137 0.068394631 0.65596294
-0.011713023 0.066931576 0.65658176
-0.011749133 0.06545943 0.65720451
-0.011787171 0.063987494 0.6578604
-0.011829928 0.062529624 0.65859771
-0.011873038 0.061061352 0.6593411
-0.011916422 0.059582114 0.66008925
-0.011962493 0.058103532 0.66088372
-0.012011394 0.056625187 0.66172695
-0.012060737 0.055134773 0.66257793
-0.012110447 0.053631991 0.6634351
-0.012160777 0.052117646 0.664303
-0.01221089 0.050587982 0.66516721
-0.012261461 0.049045861 0.66603923
-0.012310244 0.047482371 0.66688049
-0.012355144 0.04589051 0.66765481
-0.012400287 0.044286758 0.66843319
-0.012439395 0.042649359 0.66910762
-0.012475283 0.040990233 0.66972649
-0.012506375 0.039305747 0.67026263
-0.012536772 0.037610352 0.67078674
-0.012567315 0.035906613 0.67131352
-0.012598189 0.034195095 0.67184591
-0.01263327 0.032485545 0.67245084
-0.012668544 0.030766457 0.67305917
-0.012704065 0.029037863 0.67367166
-0.012740016 0.02730006 0.67429167
-0.012779527 0.025559038 0.67497301
-0.012819331 0.023807347 0.67565936
-0.012859385 0.022044659 0.67635006
-0.012899642 0.020270854 0.67704427
-0.012942828 0.018489778 0.67778897
-0.012986884 0.016697407 0.67854875
-0.013031192 0.014892817 0.67931277
-0.013075851 0.013075858 0.68008292
-0.013121901 0.011247367 0.68087703
-0.013170157 0.0094072819 0.68170911
-0.013218718 0.0075535774 0.68254656
-0.013267638 0.0056861341 0.68339014
-0.013316924 0.0038048327 0.68424004
-0.013368821 0.0019098222 0.68513501
-0.013421639 -0 0.68604577
-0.013474823 -0.001924932 0.6869629
-0.013528483 -0.0038652718 0.68788826
-0.013582942 -0.0058212578 0.6888274
-0.013640123 -0.0077943504 0.68981344
-0.013697735 -0.0097841024 0.69080693
-0.01375589 -0.011790752 0.69180971
-0.013814486 -0.013814479 0.69282019
-0.013875176 -0.015857339 0.69386685
-0.013937346 -0.017919421 0.69493884
-0.014000076 -0.0200001 0.69602066
-0.014063316 -0.022099465 0.69711113
-0.014127471 -0.024218529 0.69821745
-0.014194459 -0.026361108 0.69937265
-0.014262084 -0.02852419 0.70053881
-0.014330414 -0.030708015 0.70171702
-0.014399344 -0.032912791 0.70290571
-0.014470614 -0.035142928 0.7041347
-0.0145435 -0.037397563 0.70539159
-0.014617184 -0.039675206 0.70666224
-0.014691557 -0.041975856 0.70794469
-0.014767499 -0.044302523 0.70925432
-0.014869248 -0.046731889 0.71100897
-0.014948769 -0.049117357 0.71238017
-0.015029205 -0.051528692 0.71376729
-0.015110839 -0.053967297 0.71517503
-0.015195672 -0.056441009 0.71663785
-0.015281595 -0.058943301 0.71811968
-0.015368632 -0.061474532 0.71962047
-0.01545687 -0.064035594 0.72114211
-0.015548749 -0.066637456 0.72272652
-0.015641658 -0.069270164 0.72432864
-0.015735826 -0.071935236 0.72595251
-0.015832564 -0.074639231 0.72762072
-0.015931731 -0.077382684 0.72933078
-0.016032148 -0.080160737 0.73106241
-0.016135475 -0.082982451 0.73284423
-0.016241573 -0.085848302 0.7346738
-0.0098364772 0.073773593 0.65249252
-0.0098463492 0.072206587 0.65269113
-0.0098811872 0.070815176 0.65339208
-0.0099162403 0.069413692 0.65409732
-0.0099515766 0.068002433 0.65480816
-0.0099894907 0.066596597 0.65557098
-0.010029304 0.065190464 0.65637195
-0.010069401 0.063772887 0.65717864
-0.01010982 0.062343925 0.65799177
-0.0101506 0.060903609 0.65881222
-0.010191365 0.059449613 0.65963233
-0.010232458 0.057983935 0.66045904
-0.010272477 0.056498617 0.66126418
-0.01030895 0.054981053 0.66199797
-0.010345683 0.05345273 0.66273701
-0.01037848 0.05189243 0.66339684
-0.010407588 0.05030334 0.66398239
-0.010433992 0.048691928 0.66451371
-0.010458673 0.047064036 0.66501021
-0.010483472 0.045428395 0.6655091
-0.010508388 0.043784946 0.66601032
-0.010535973 0.042143941 0.66656536
-0.010564634 0.04049778 0.66714191
-0.010593412 0.038842559 0.66772091
-0.010622349 0.037178248 0.66830307
-0.010653447 0.035511523 0.66892874
-0.010685716 0.033838093 0.6695779
-0.010718182 0.03215453 0.67023104
-0.010750807 0.030460566 0.67088747
-0.010784483 0.028758615 0.67156494
-0.010820125 0.027050346 0.67228204
-0.010856004 0.025330663 0.67300391
-0.010892122 0.023599625 0.67373049
-0.01092852 0.021857053 0.6744628
-0.010966926 0.020106047 0.67523539
-0.011006247 0.018343776 0.67602646
-0.011045812 0.01656872 0.67682242
-0.01108566 0.014780879 0.67762417
-0.011125922 0.012980253 0.67843419
-0.011168596 0.011168599 0.67929274
-0.011211556 0.0093429685 0.68015701
-0.011254892 0.0075032413 0.68102884
-0.011298561 0.0056492984 0.68190742
-0.011343129 0.0037810504 0.68280405
-0.011389607 0.0018982887 0.68373913
-0.011436509 -0 0.68468273
-0.011483755 -0.0019139647 0.68563324
-0.011531394 -0.0038437843 0.68659163
-0.011580723 -0.0057903528 0.68758404
-0.011631244 -0.0077541471 0.68860048
-0.011682208 -0.009735167 0.6896258
-0.01173362 -0.011733621 0.69066012
-0.011785486 -0.013749719 0.69170362
-0.011839774 -0.01578638 0.69279575
-0.011894706 -0.017842054 0.69390094
-0.011950102 -0.019916832 0.69501537
-0.012006016 -0.022011042 0.69614029
-0.012063328 -0.024126679 0.69729334
-0.012122414 -0.026265234 0.6984821
-0.012182081 -0.028424859 0.69968247
-0.01224239 -0.030605972 0.70089579
-0.012303248 -0.032808661 0.70212018
-0.01236675 -0.035039157 0.70339781
-0.012431067 -0.037293166 0.70469165
-0.012496055 -0.039570838 0.70599914
-0.012561728 -0.041872412 0.70732033
-0.012629474 -0.044203132 0.70868331
-0.012718667 -0.046635091 0.71047777
-0.012788886 -0.049024045 0.7118904
-0.012859938 -0.051439732 0.7133199
-0.012932898 -0.053887039 0.71478772
-0.013007987 -0.056367964 0.71629846
-0.013083954 -0.058877796 0.71782672
-0.013160755 -0.061416835 0.7193718
-0.013240157 -0.06399408 0.72096926
-0.013321113 -0.066605598 0.72259808
-0.013403424 -0.069251031 0.72425401
-0.013487669 -0.071934193 0.72594881
-0.013574144 -0.074657768 0.72768855
-0.013661736 -0.07741648 0.72945076
-0.01375248 -0.080222815 0.73127645
-0.013845013 -0.08307007 0.73313808
-0.0139388 -0.085955918 0.73502493
-0.0085230097 0.078411698 0.66036153
-0.008387004 0.075483054 0.65707815
-0.0081788413 0.07197383 0.65205258
-0.0082108378 0.070613205 0.65282512
-0.0082430048 0.069241226 0.65360171
-0.0082752602 0.067857146 0.65438038
-0.008307769 0.066462159 0.6551652
-0.0083397552 0.065050095 0.65593743
-0.0083686002 0.063601404 0.65663379
-0.0083976462 0.062142611 0.65733504
-0.0084244255 0.060655832 0.65798151
-0.0084474664 0.059132278 0.65853775
-0.0084692286 0.057590753 0.65906322
-0.0084887408 0.056025684 0.65953428
-0.0085083432 0.054453403 0.66000748
-0.0085280361 0.05287385 0.660483
-0.0085490178 0.051294148 0.66098946
-0.0085716601 0.049715638 0.6615361
-0.0085943919 0.048128635 0.66208488
-0.0086172754 0.046533287 0.66263735
-0.0086408472 0.044932425 0.66320646
-0.0086663207 0.043331593 0.6638214
-0.0086919423 0.041721344 0.66443998
-0.0087177185 0.040101528 0.66506225
-0.0087436158 0.038471907 0.6656875
-0.0087713283 0.036839604 0.66635656
-0.008799619 0.03519848 0.66703951
-0.0088280933 0.033546746 0.66772699
-0.0088567836 0.031884402 0.6684196
-0.0088858493 0.030211896 0.66912133
-0.0089167925 0.028533727 0.66986835
-0.0089479825 0.026843935 0.67062134
-0.0089793596 0.025142223 0.67137885
-0.0090109576 0.0234285 0.67214167
-0.0090433024 0.021703929 0.67292255
-0.0090771308 0.019969702 0.67373919
-0.00911118 0.018222362 0.67456126
-0.0091455188 0.016461968 0.67539024
-0.0091800848 0.014688134 0.67622483
-0.009215625 0.012901902 0.67708278
-0.0092524337 0.011102915 0.67797148
-0.0092895385 0.0092895627 0.67886716
-0.0093269413 0.0074615479 0.67977023
-0.0093646813 0.0056188107 0.68068135
-0.0094036832 0.0037614703 0.68162292
-0.0094436519 0.001888752 0.68258786
-0.0094839623 -0 0.68356103
-0.0095246183 -0.0019049346 0.68454254
-0.0095656244 -0.0038262606 0.68553257
-0.0096083507 -0.0057650208 0.68656403
-0.0096517205 -0.0077213347 0.68761104
-0.0096954834 -0.0096954703 0.6886676
-0.009739683 -0.011687607 0.6897347
-0.0097844787 -0.01369825 0.69081616
-0.0098311566 -0.015729845 0.69194305
-0.0098782433 -0.01778084 0.69307977
-0.0099257827 -0.019851565 0.69422752
-0.0099738212 -0.021942377 0.69538724
-0.010023251 -0.024055779 0.69658059
-0.010073944 -0.026192278 0.69780445
-0.010125153 -0.028350443 0.69904071
-0.010176884 -0.030530661 0.70028961
-0.010229398 -0.032734036 0.70155746
-0.010284021 -0.034965664 0.70287609
-0.010339228 -0.037221223 0.70420897
-0.01039499 -0.039500982 0.70555526
-0.010451401 -0.041805625 0.70691705
-0.010510105 -0.044142425 0.70833433
-0.010586242 -0.04657948 0.71017241
-0.01064661 -0.048974395 0.71162987
-0.010707671 -0.051396817 0.71310395
-0.010771151 -0.053855717 0.7146365
-0.010835764 -0.056345969 0.71619636
-0.010901109 -0.058865994 0.71777397
-0.010967921 -0.061420381 0.71938694
-0.01103653 -0.064011872 0.72104335
-0.011106201 -0.066637158 0.72272527
-0.011178453 -0.069306374 0.72446966
-0.011251755 -0.072011232 0.72623932
-0.011326075 -0.074752092 0.72803354
-0.011403565 -0.077544272 0.72990435
-0.011482176 -0.080375224 0.73180217
-0.011562252 -0.083248228 0.73373544
-0.011645676 -0.086177975 0.73574936
-0.0071007358 0.083433688 0.6688816
-0.0068686004 0.07898888 0.66187626
-0.0067188614 0.075587183 0.65735745
-0.0065260902 0.07178703 0.65154016
-0.0065481681 0.070392787 0.65220642
-0.0065691881 0.068976492 0.65284073
-0.0065866783 0.067513466 0.65336847
-0.0066039343 0.066039354 0.6538893
-0.0066187414 0.064532697 0.65433609
-0.006633637 0.063019544 0.65478563
-0.0066485996 0.061499566 0.6552372
-0.0066639404 0.059975445 0.65570009
-0.006681114 0.058459759 0.65621841
-0.0066983984 0.056936413 0.65674001
-0.0067157499 0.055404931 0.65726364
-0.0067331917 0.053865522 0.65778995
-0.0067522731 0.052330136 0.65836579
-0.0067717149 0.050787866 0.65895253
-0.0067912461 0.049236536 0.6595419
-0.0068109133 0.047676414 0.66013539
-0.0068311146 0.046110034 0.66074502
-0.0068525616 0.044541627 0.66139227
-0.0068741678 0.042963535 0.66204429
-0.0068958867 0.041375309 0.66269976
-0.006917743 0.039776981 0.66335928
-0.0069404365 0.038172424 0.66404408
-0.0069640307 0.036561191 0.66475618
-0.0069877859 0.034938931 0.66547298
-0.0070117279 0.033305705 0.66619551
-0.00703581 0.031661183 0.66692227
-0.0070607802 0.030008346 0.66767585
-0.0070865308 0.028346151 0.66845292
-0.0071124942 0.026671827 0.66923642
-0.0071386495 0.024985254 0.67002571
-0.0071649719 0.023286164 0.67082012
-0.0071921614 0.021576494 0.67164063
-0.0072201826 0.019855499 0.67248619
-0.0072484496 0.018121153 0.67333919
-0.0072769127 0.016373038 0.67419815
-0.0073055993 0.014611214 0.67506385
-0.0073352661 0.012836725 0.67595917
-0.0073656626 0.011048466 0.67687649
-0.0073963124 0.0092453957 0.67780137
-0.0074272179 0.0074272156 0.67873406
-0.0074583828 0.0055937767 0.67967457
-0.0074906796 0.0037453473 0.68064916
-0.0075236247 0.001880914 0.68164337
-0.0075568901 -0 0.68264723
-0.007590421 -0.0018976033 0.6836592
-0.0076242518 -0.0038121045 0.6846801
-0.0076595284 -0.0057446361 0.68574464
-0.0076952809 -0.0076952577 0.68682355
-0.0077313385 -0.0096641779 0.68791175
-0.007767736 -0.011651605 0.68901008
-0.0078047509 -0.013658315 0.69012713
-0.0078431964 -0.015686393 0.69128734
-0.0078819608 -0.017734408 0.69245714
-0.0079211416 -0.019802839 0.69363952
-0.0079607135 -0.021891981 0.69483376
-0.008001578 -0.024004698 0.69606692
-0.0080433507 -0.026140869 0.69732749
-0.0080855601 -0.028299451 0.69860131
-0.0081282156 -0.030480802 0.69988853
-0.0081717232 -0.032686889 0.7012015
-0.0082167797 -0.034921318 0.70256114
-0.0082623344 -0.037180513 0.70393598
-0.0083083631 -0.039464712 0.70532495
-0.0083551174 -0.041775584 0.70673597
-0.0084038107 -0.044120014 0.70820534
-0.0084530413 -0.046491712 0.70969093
-0.0085162371 -0.048968375 0.71159816
-0.0085671265 -0.051402748 0.71313387
-0.0086195925 -0.053872436 0.71471715
-0.0086730067 -0.05637452 0.71632904
-0.0087280758 -0.058914512 0.71799088
-0.0087838871 -0.061487228 0.71967518
-0.008840573 -0.064094156 0.72138584
-0.0088996571 -0.066747397 0.72316879
-0.0089594964 -0.069436133 0.72497463
-0.00902043 -0.072163403 0.72681344
-0.0090838894 -0.074942082 0.72872853
-0.0091482466 -0.077760071 0.73067063
-0.0092144562 -0.080626458 0.73266876
-0.0092829224 -0.083546281 0.73473489
-0.0093523692 -0.086509377 0.73683059
-0.0053663901 0.084073454 0.67052478
-0.0052351002 0.080271542 0.66524208
-0.0050241854 0.075362772 0.65675551
-0.0048689279 0.071410954 0.6505084
-0.0048625558 0.069696665 0.65025204
-0.0048732748 0.068225861 0.6506834
-0.0048852968 0.066765726 0.65116709
-0.0048976177 0.065301567 0.65166283
-0.0049099857 0.063829809 0.65216047
-0.0049224319 0.062350839 0.65266126
-0.0049354928 0.060871094 0.6531868
-0.0049493415 0.059392124 0.65374404
-0.0049632681 0.05790478 0.65430444
-0.0049772733 0.056409121 0.65486789
-0.0049913577 0.054904908 0.65543467
-0.0050063566 0.053401142 0.65603817
-0.0050217146 0.051891059 0.65665609
-0.0050371676 0.050371706 0.65727788
-0.0050527155 0.048842907 0.65790349
-0.0050683771 0.047304869 0.65853363
-0.0050849798 0.045764834 0.65920174
-0.0051018652 0.044216156 0.65988111
-0.0051188632 0.042657197 0.66056514
-0.0051359921 0.041087925 0.66125429
-0.0051532187 0.039508015 0.66194743
-0.0051712915 0.0379228 0.66267467
-0.0051897247 0.036328048 0.66341633
-0.0052082897 0.034721911 0.66416335
-0.0052269879 0.033104271 0.66491568
-0.0052458025 0.031474829 0.66567272
-0.0052653444 0.029836953 0.66645902
-0.0052853674 0.028188646 0.66726464
-0.0053055426 0.026527733 0.66807652
-0.0053258729 0.024854094 0.66889447
-0.0053463788 0.02316767 0.66971958
-0.0053675417 0.021470159 0.67057115
-0.0053892406 0.019760579 0.67144424
-0.0054111159 0.018037051 0.67232442
-0.0054331692 0.016299516 0.67321175
-0.0054554031 0.014547735 0.67410636
-0.0054783397 0.012782812 0.67502928
-0.0055018323 0.011003643 0.67597461
-0.005525528 0.0092092454 0.67692798
-0.0055494285 0.007399261 0.67788965
-0.0055735577 0.0055735707 0.67886055
-0.0055984603 0.0037322938 0.67986256
-0.0056239031 0.0018746257 0.68088633
-0.0056495992 -0 0.68192029
-0.00567551 -0.0018918216 0.68296278
-0.0057016606 -0.0038011074 0.68401504
-0.0057288609 -0.0057288706 0.6851095
-0.0057564545 -0.0076752901 0.68621981
-0.0057843155 -0.009640485 0.6873408
-0.0058124242 -0.011624813 0.68847179
-0.005841013 -0.013629049 0.68962216
-0.0058706873 -0.01565519 0.6908161
-0.0059006647 -0.017701983 0.69202232
-0.0059309504 -0.019769818 0.69324094
-0.0059615485 -0.02185902 0.69447207
-0.0059931809 -0.02397269 0.69574487
-0.0060254904 -0.02611044 0.69704491
-0.0060581248 -0.028271228 0.69835806
-0.0060911402 -0.030455679 0.69968641
-0.0061249915 -0.032666594 0.70104849
-0.0061598537 -0.034905821 0.70245129
-0.0061951401 -0.037170827 0.70387113
-0.006230833 -0.03946197 0.70530725
-0.0062668086 -0.041778743 0.70675486
-0.0063017737 -0.044112414 0.70816171
-0.0063342964 -0.046451509 0.70947039
-0.0063926182 -0.049010098 0.71181703
-0.0064325039 -0.051460057 0.71342182
-0.0064731417 -0.053942829 0.71505702
-0.0065153423 -0.056466311 0.71675509
-0.006558097 -0.059022844 0.71847534
-0.0066015907 -0.061614841 0.72022539
-0.0066469009 -0.06425336 0.72204852
-0.0066928971 -0.066928953 0.7238993
-0.0067399885 -0.069646537 0.72579408
-0.0067888214 -0.0724141 0.727759
-0.0068384297 -0.075222731 0.72975504
-0.0068900012 -0.078086704 0.73183018
-0.006942838 -0.080999762 0.7339561
-0.0069973078 -0.083967656 0.73614776
-0.003605227 0.084722847 0.67219257
-0.003488862 0.080243826 0.66516936
-0.0035088388 0.078948885 0.6663751
-0.0033079267 0.07277438 0.65424895
-0.0032087844 0.068988889 0.64826518
-0.0032175644 0.067568868 0.64879513
-0.0032263924 0.066141009 0.64932793
-0.0032352586 0.064705193 0.649863
-0.0032441842 0.063261598 0.65040177
-0.0032533281 0.061813235 0.65095365
-0.0032630558 0.060366541 0.65154076
-0.0032728419 0.058911175 0.65213138
-0.0032826869 0.057447016 0.65272564
-0.003292602 0.055974275 0.65332401
-0.0033026973 0.05449453 0.65393335
-0.0033133808 0.0530141 0.65457815
-0.0033241343 0.051524073 0.65522718
-0.0033349572 0.050024331 0.65588039
-0.003345862 0.048514992 0.65653861
-0.0033568386 0.046995729 0.65720105
-0.0033684771 0.04547444 0.65790355
-0.0033802078 0.04394269 0.65861154
-0.0033920205 0.042400301 0.65932447
-0.0034039044 0.040846854 0.66004169
-0.0034158838 0.03928265 0.66076475
-0.0034283702 0.037712097 0.66151839
-0.0034411023 0.036131591 0.66228688
-0.0034539411 0.034539402 0.66306174
-0.0034668643 0.032935202 0.66384172
-0.0034798845 0.031318992 0.66462755
-0.0034933321 0.029693305 0.66543913
-0.0035071173 0.028056949 0.66627115
-0.003521024 0.026407689 0.6671105
-0.0035350292 0.024745226 0.66795582
-0.0035491465 0.023069471 0.66880786
-0.0035636178 0.021381706 0.66968125
-0.0035785404 0.01968199 0.67058194
-0.0035935754 0.01796788 0.67148942
-0.0036087374 0.016239315 0.67240447
-0.0036240281 0.014496148 0.67332733
-0.0036396866 0.012738913 0.67427248
-0.0036558155 0.010967463 0.67524588
-0.0036721013 0.0091802478 0.67622888
-0.0036885189 0.0073770285 0.67721975
-0.0037050843 0.0055576563 0.67821956
-0.0037220898 0.0037221014 0.67924595
-0.0037395593 0.0018697381 0.68030035
-0.0037571939 -0 0.68136466
-0.0037749957 -0.0018875003 0.68243909
-0.0037929525 -0.0037929416 0.68352282
-0.0038115452 -0.0057173073 0.68464506
-0.0038304972 -0.007660985 0.68578887
-0.0038496386 -0.009624064 0.68694419
-0.0038689573 -0.011606872 0.68811017
-0.0038885616 -0.013609946 0.68929332
-0.0039089606 -0.015635818 0.69052452
-0.0039295596 -0.017682999 0.69176781
-0.0039503924 -0.019751996 0.69302523
-0.0039714472 -0.021842957 0.694296
-0.0039932379 -0.023959428 0.69561112
-0.0040154783 -0.026100606 0.69695354
-0.0040379674 -0.028265774 0.69831085
-0.004060694 -0.030455202 0.69968253
-0.0040835775 -0.03266862 0.70106363
-0.0041054403 -0.034896284 0.70238316
-0.0041259383 -0.037133455 0.70362031
-0.0041447701 -0.039375335 0.70475698
-0.0041615241 -0.041615248 0.70576817
-0.0041762684 -0.043850809 0.70665801
-0.0041916622 -0.046108276 0.70758712
-0.0042694546 -0.04909873 0.7122823
-0.0042970828 -0.051564991 0.7139498
-0.0043259119 -0.05407387 0.71568978
-0.0043551303 -0.056616694 0.71745336
-0.0043849386 -0.059196651 0.71925235
-0.0044159368 -0.06182313 0.72112334
-0.0044474555 -0.064488113 0.72302556
-0.0044799489 -0.06719923 0.72498673
-0.0045134905 -0.069959074 0.72701114
-0.0045477445 -0.07276392 0.72907853
-0.004583572 -0.075628936 0.73124093
-0.0046200538 -0.078540921 0.73344284
-0.0046584005 -0.081521988 0.73575723
-0.0046975431 -0.084555775 0.73811972
-0.0018166588 0.085382998 0.67388797
-0.0018164542 0.08355689 0.67386335
-0.0018214664 0.081965983 0.6744684
-0.0018274137 0.080406219 0.67518628
-0.0015958773 0.068622738 0.64723736
-0.0015958977 0.067027718 0.6472398
-0.0016005841 0.065623969 0.64780551
-0.0016052931 0.064211696 0.64837396
-0.0016100297 0.062791169 0.64894575
-0.0016149717 0.061368942 0.64954227
-0.0016200804 0.05994302 0.65015894
-0.0016252218 0.058508009 0.65077955
-0.0016303955 0.057063848 0.65140408
-0.0016356079 0.055610687 0.65203327
-0.0016409182 0.054150283 0.65267426
-0.0016464853 0.052687526 0.6533463
-0.0016520901 0.051214814 0.65402287
-0.0016577278 0.049731821 0.65470338
-0.0016634098 0.048238903 0.65538919
-0.0016691306 0.046735674 0.65607983
-0.0016751266 0.045228451 0.65680361
-0.0016812054 0.043711334 0.6575374
-0.0016873283 0.04218322 0.65827644
-0.001693496 0.040643901 0.65902102
-0.0016997148 0.039093435 0.65977168
-0.0017061249 0.037534744 0.66054535
-0.0017127065 0.035966843 0.66133988
-0.0017193332 0.034386665 0.66213977
-0.0017260115 0.032794207 0.66294593
-0.0017327418 0.031189382 0.66375834
-0.0017396094 0.029573381 0.66458738
-0.0017467148 0.027947456 0.66544509
-0.0017538783 0.026308209 0.66630971
-0.0017611008 0.024655402 0.66718161
-0.0017683891 0.022989094 0.66806138
-0.0017757762 0.021309316 0.66895306
-0.0017834539 0.019618005 0.66987991
-0.0017911982 0.017911971 0.67081469
-0.0017990165 0.016191155 0.67175841
-0.0018068969 0.014455199 0.67270964
-0.0018148796 0.012704164 0.67367327
-0.0018231856 0.010939091 0.67467588
-0.0018315678 0.0091578364 0.67568773
-0.0018400275 0.0073601007 0.67670888
-0.0018485658 0.0055457056 0.67773956
-0.0018572456 0.0037145019 0.67878735
-0.001866244 0.0018662512 0.67987347
-0.00187533 2.9802322e-08 0.68097031
-0.001884505 -0.0018844903 0.68207777
-0.0018937701 -0.0037875473 0.68319619
-0.0019032932 -0.0057098567 0.68434572
-0.001913059 -0.0076522529 0.68552458
-0.0019229329 -0.0096146762 0.68671644
-0.0019329092 -0.011597455 0.68792075
-0.0019429971 -0.013600975 0.68913841
-0.0019535264 -0.015628219 0.69040942
-0.0019641705 -0.017677516 0.69169426
-0.0019749235 -0.019749224 0.69299233
-0.0019858025 -0.021843791 0.69430548
-0.0019966748 -0.023960084 0.69561791
-0.0020069659 -0.026090533 0.69686013
-0.0020166647 -0.02823332 0.69803089
-0.002025547 -0.030383199 0.69910306
-0.0020333999 -0.03253442 0.70005107
-0.0020404151 -0.034687072 0.70089781
-0.0020477551 -0.036859572 0.70178384
-0.0020557984 -0.039060175 0.70275474
-0.0020649955 -0.041299909 0.70386493
-0.0020745073 -0.043564647 0.7050131
-0.0020853581 -0.045877874 0.70632291
-0.0020963317 -0.048215598 0.7076475
-0.0021556225 -0.051734924 0.71480453
-0.0021706314 -0.054265767 0.71661633
-0.0021860227 -0.056836575 0.71847415
-0.0022020217 -0.05945459 0.72040546
-0.002218276 -0.062111735 0.72236753
-0.0022352212 -0.064821422 0.72441298
-0.0022526102 -0.067578316 0.72651207
-0.0022706217 -0.070389271 0.72868621
-0.0022892172 -0.073254973 0.73093092
-0.002308652 -0.076185524 0.7332769
-0.0023287339 -0.079176933 0.73570096
-0.0023498635 -0.082245231 0.73825157
-0.0023716947 -0.085381001 0.74088675
0 0.086053133 0.67560923
0 0.083232075 0.67301095
0 0.081804901 0.6740362
0 0.080420613 0.67522579
0 0.069094986 0.64856315
0 0.066572219 0.64593083
0 0.065188974 0.64652479
0 0.063797027 0.6471225
0 0.062396437 0.64772397
0 0.06099236 0.64834595
0 0.05958432 0.6489889
0 0.058166951 0.64963603
0 0.056739956 0.65028691
0 0.055303514 0.6509428
0 0.053857267 0.65160245
0 0.052409679 0.65229821
0 0.050951988 0.65299964
0 0.049484134 0.65370661
0 0.048005551 0.65441805
0 0.046516418 0.65513456
0 0.04502058 0.65587437
0 0.043516457 0.65663242
0 0.04200089 0.65739632
0 0.040473908 0.65816599
0 0.038935274 0.65894139
0 0.037385881 0.65972841
0 0.035828978 0.66054749
0 0.034259528 0.66137242
0 0.032677442 0.66220403
0 0.0310826 0.66304231
0 0.029474765 0.66388738
0 0.02785778 0.66476858
0 0.026227415 0.66565943
0 0.024583071 0.66655791
0 0.02292484 0.66746479
0 0.021252215 0.66837871
0 0.0195674 0.66932499
0 0.0178684 0.67028809
0 0.016153961 0.67125988
0 0.014424086 0.67224044
0 0.012678444 0.67322993
0 0.01091817 0.67425406
0 0.0091416538 0.67529666
0 0.0073481798 0.67634928
0 0.0055375695 0.67741191
0 0.0037094653 0.6784848
0 0.0018639863 0.67960161
0 -0 0.68073297
0 -0.0018828213 0.68187577
0 -0.0037848055 0.68302935
0 -0.0057065189 0.68420953
0 -0.0076490045 0.68542749
0 -0.0096122324 0.68665761
0 -0.011596501 0.68790179
0 -0.013602138 0.68915844
0 -0.015627831 0.69040394
0 -0.017668843 0.69157797
0 -0.019723386 0.69268024
0 -0.021787852 0.69369155
0 -0.023857653 0.69458747
0 -0.025932759 0.69539493
0 -0.028025806 0.69624174
0 -0.030143917 0.69717741
0 -0.032294095 0.69823807
0 -0.034466654 0.69933295
0 -0.036680639 0.70058382
0 -0.038917512 0.70184857
0 -0.041200787 0.70326662
0 -0.043516129 0.70473415
0 -0.045880139 0.70633548
0 -0.04829067 0.70804149
0 -0.051969111 0.71598244
0 -0.054534763 0.71791506
0 -0.057147205 0.71991622
0 -0.059802771 0.72196209
0 -0.062512994 0.72409755
0 -0.065277457 0.72631133
0 -0.068098545 0.72860539
0 -0.070982635 0.73099667
0 -0.073934168 0.73349303
0 -0.076964617 0.73612684
0 -0.08006981 0.73887098
0 -0.083286017 0.74184126
0.0018479103 0.086851805 0.67766041
0.001857749 0.085456461 0.67884809
0.0018677 0.084046513 0.6800493
0.0018776524 0.082616746 0.68125057
0.0018875477 0.081164539 0.68244511
0.0015758383 0.066185236 0.64481843
0.0015809668 0.064819664 0.64543748
0.001586134 0.063445359 0.64606118
0.0015913347 0.062062055 0.646689
0.0015965851 0.060670257 0.64732277
0.0016021114 0.059278131 0.64798987
0.0016076709 0.05787614 0.64866102
0.001613269 0.056464434 0.64933676
0.0016189063 0.055042863 0.6500172
0.0016245884 0.053611428 0.65070307
0.0016304434 0.052174181 0.65140986
0.0016364479 0.050729901 0.65213466
0.0016424966 0.049274921 0.65286475
0.00164859 0.047809124 0.65360034
0.001654729 0.046332389 0.6543414
0.0016609305 0.044845134 0.65508997
0.0016674064 0.043352604 0.65587163
0.0016739329 0.041848332 0.65665954
0.0016805108 0.040332288 0.65745354
0.0016871406 0.038804233 0.65825379
0.0016938285 0.037264258 0.65906113
0.0017007258 0.035715252 0.65989369
0.0017077727 0.034155458 0.66074431
0.0017148725 0.032582611 0.66160136
0.0017220316 0.030996561 0.66246551
0.0017292566 0.029397398 0.66333765
0.0017366329 0.027786106 0.66422802
0.0017442364 0.026163548 0.66514587
0.0017519071 0.024526715 0.66607183
0.0017596454 0.022875369 0.6670059
0.0017674522 0.021209449 0.66794825
0.0017753979 0.019529372 0.6689074
0.0017836191 0.017836183 0.66989982
0.0017919231 0.016127348 0.67090219
0.0018002917 0.01440239 0.67191231
0.0018087453 0.012661219 0.6729328
0.0018173844 0.010904312 0.67397559
0.0018262865 0.0091314614 0.6750502
0.0018352828 0.0073411167 0.6761362
0.0018443614 0.0055330992 0.67723203
0.0018535373 0.0037070811 0.6783396
0.0018630059 0.0018630028 0.67948264
0.0018726839 2.9802322e-08 0.68065083
0.001882463 -0.0018824339 0.68183136
0.0018923378 -0.0037846267 0.68302327
0.001902302 -0.0057069063 0.6842261
0.0019120941 -0.0076483786 0.68540812
0.0019212937 -0.0096064508 0.68651855
0.0019299197 -0.011579514 0.68755984
0.00193782 -0.013564765 0.68851352
0.0019448173 -0.015558511 0.68935812
0.0019512334 -0.017561078 0.69013262
0.0019579448 -0.01957947 0.69094276
0.0019654126 -0.021619529 0.69184422
0.0019738171 -0.023685813 0.69285876
0.0019824745 -0.025772184 0.69390374
0.0019923893 -0.027893454 0.69510067
0.0020023959 -0.030035943 0.69630855
0.0020135404 -0.032216609 0.69765371
0.0020251535 -0.034427613 0.69905555
0.0020376395 -0.03667748 0.70056278
0.0020511295 -0.038971454 0.70219111
0.0020657543 -0.041315079 0.70395648
0.0020818268 -0.043718368 0.70589662
0.0021010851 -0.046223879 0.70822138
0.0021619746 -0.049725413 0.71557134
0.0021787314 -0.052289546 0.71759409
0.0021960777 -0.054901928 0.71968794
0.0022141042 -0.057566702 0.72186393
0.0022327178 -0.060283363 0.72411084
0.0022522856 -0.063064009 0.72647285
0.0022726639 -0.06590727 0.72893274
0.0022941609 -0.068824768 0.73152757
0.0023169799 -0.071826398 0.73428214
0.0023411338 -0.074916303 0.73719776
0.0023672625 -0.078119636 0.7403518
0.0023962052 -0.081470937 0.74384546
0.0037202495 0.087425858 0.67913485
0.0037359996 0.085927993 0.68008542
0.0037550793 0.084489316 0.68123698
0.0037743691 0.083036125 0.6824013
0.0037933837 0.081557751 0.68354893
0.0031605656 0.066371888 0.64535487
0.0031465334 0.064503938 0.64450806
0.0031572548 0.063145101 0.64515513
0.0031680497 0.061776966 0.64580667
0.0031789187 0.060399473 0.64646268
0.0031901267 0.05901736 0.64713913
0.003201619 0.057629168 0.64783275
0.0032131944 0.056230903 0.64853138
0.0032248537 0.054822534 0.64923507
0.0032365979 0.053403884 0.64994389
0.0032484282 0.051974863 0.65065789
0.0032607911 0.050542265 0.65140402
0.0032732701 0.049099058 0.65215725
0.003285845 0.047644734 0.65291619
0.0032985171 0.046179235 0.65368104
0.0033112867 0.044702411 0.65445173
0.0033243548 0.043216586 0.65524048
0.0033378047 0.041722596 0.65605223
0.003351375 0.040216506 0.65687132
0.0033650449 0.038698018 0.65769637
0.0033788267 0.037167102 0.65852815
0.0033927334 0.035623699 0.6593675
0.0034072425 0.034072459 0.66024315
0.0034218756 0.032507837 0.66112638
0.0034366355 0.030929714 0.66201723
0.0034515231 0.029337913 0.66291577
0.00346654 0.027732313 0.66382211
0.0034821003 0.026115775 0.66476125
0.0034979109 0.024485379 0.66571552
0.0035138656 0.022840142 0.66667849
0.0035299666 0.021179825 0.66765022
0.0035462161 0.019504189 0.66863096
0.0035630341 0.017815173 0.66964608
0.0035801535 0.016110718 0.67067933
0.0035974251 0.014389724 0.6717217
0.0036148774 0.012652069 0.67277509
0.0036324866 0.010897458 0.6738379
0.0036508674 0.00912714 0.67494726
0.0036694484 0.0073389113 0.67606872
0.0036882064 0.0055322945 0.67720091
0.0037071707 0.0037071705 0.67834544
0.0037262477 0.0018631518 0.67949688
0.0037448495 -0 0.6806196
0.003762265 -0.0018811226 0.68167067
0.0037785161 -0.0037784874 0.68265158
0.0037934843 -0.005690217 0.68355495
0.0038066301 -0.0076132417 0.68434834
0.0038189928 -0.0095475018 0.68509448
0.0038318613 -0.01149562 0.68587124
0.0038462798 -0.013461947 0.68674141
0.0038623717 -0.015449494 0.68771267
0.003878915 -0.017455131 0.68871117
0.0038978916 -0.019489437 0.68985653
0.0039170394 -0.021543682 0.69101214
0.0039381888 -0.023629159 0.6922887
0.0039603827 -0.025742471 0.69362819
0.0039839223 -0.027887434 0.69504887
0.0040097022 -0.030072749 0.69660491
0.0040369905 -0.032295913 0.69825184
0.0040676594 -0.034575075 0.70010293
0.0041030329 -0.036927283 0.70223784
0.0041487566 -0.039413184 0.70499754
0.0042401128 -0.042401135 0.71051133
0.0042785634 -0.044924915 0.71283209
0.0043219882 -0.047541887 0.71545303
0.0043569314 -0.050104678 0.71756196
0.0043941229 -0.052729487 0.71980667
0.0044321506 -0.055401891 0.72210187
0.0044728601 -0.058147162 0.72455895
0.0045152823 -0.060956329 0.72711933
0.0045603863 -0.063845396 0.72984159
0.0046091164 -0.066832185 0.73278272
0.0046618725 -0.06992808 0.7359668
0.0047205663 -0.073168755 0.73950928
0.0047889017 -0.076622427 0.74363369
0.0048781228 -0.08048901 0.74901867
0.0056251888 0.088127941 0.68093807
0.0056128004 0.086062938 0.68043959
0.0056239665 0.084359497 0.68088883
0.0056383736 0.08269617 0.68146855
0.0056553888 0.081060588 0.68215322
0.0056737941 0.079433143 0.68289375
0.0047000712 0.064234346 0.64371419
0.0047167004 0.062889338 0.64438331
0.0047334484 0.061534852 0.6450572
0.00475033 0.060170859 0.6457364
0.0047673178 0.058796942 0.64642
0.0047849612 0.057419538 0.64712989
0.0048028738 0.056033552 0.64785063
0.0048209215 0.054637104 0.64857686
0.0048391051 0.053230137 0.6493085
0.0048574419 0.051812708 0.65004629
0.0048760134 0.050385475 0.65079355
0.004895302 0.048953027 0.65156966
0.0049147443 0.047509164 0.65235198
0.004934357 0.046053976 0.65314114
0.0049541113 0.044587046 0.65393591
0.0049740239 0.043108195 0.65473723
0.0049945628 0.041621387 0.65556359
0.0050155232 0.040124208 0.656407
0.0050366605 0.038614392 0.65725744
0.0050579766 0.037091851 0.65811521
0.0050794738 0.035556346 0.65898013
0.0051013972 0.034009308 0.65986228
0.0051240181 0.032452106 0.6607725
0.0051468401 0.030881077 0.66169077
0.0051698666 0.029295951 0.66261727
0.0051930998 0.02769655 0.66355217
0.0052166702 0.02608332 0.66450053
0.0052411323 0.024458647 0.66548479
0.0052658063 0.022818476 0.66647756
0.0052907323 0.021162927 0.66748053
0.0053158952 0.019491583 0.66849303
0.0053415271 0.017805099 0.66952443
0.0053680409 0.016104132 0.67059124
0.0053947996 0.014386117 0.67166793
0.0054218462 0.012650967 0.67275614
0.0054491651 0.010898352 0.67385542
0.0054764608 0.0091274381 0.6749537
0.005502942 0.007337302 0.67601919
0.0055278479 0.005527854 0.67702132
0.0055508446 0.0037005544 0.67794669
0.005572109 0.0018573701 0.67880231
0.0055906205 2.9802322e-08 0.67954707
0.0056085428 -0.0018694997 0.68026829
0.0056270231 -0.0037513375 0.68101186
0.005647942 -0.0056479275 0.68185353
0.0056710718 -0.0075614154 0.68278426
0.0056948033 -0.0094913244 0.68373907
0.0057220473 -0.011444122 0.68483531
0.0057495753 -0.013415664 0.68594295
0.0057797045 -0.015412539 0.68715531
0.0058115693 -0.017434686 0.6884374
0.0058448571 -0.019482851 0.68977678
0.0058818446 -0.021566778 0.69126505
0.0059200269 -0.023680091 0.69280142
0.0059639877 -0.025843948 0.69457024
0.0060126982 -0.028059274 0.69653022
0.0060725845 -0.030362904 0.69893986
0.0062072831 -0.033105522 0.70435971
0.0062681437 -0.035519481 0.70680857
0.0063177934 -0.037906796 0.70880634
0.0063676154 -0.040328205 0.71081096
0.0064189979 -0.042793274 0.71287847
0.006473002 -0.045311034 0.71505141
0.0065448298 -0.047995418 0.71794152
0.0066040596 -0.050631106 0.72032475
0.0066679828 -0.053343832 0.72289687
0.0067353612 -0.056127995 0.72560793
0.0068074479 -0.058997869 0.72850847
0.0068876301 -0.061988652 0.73173475
0.006977791 -0.065126032 0.73536253
0.0070875031 -0.068512529 0.73977709
0.0072578881 -0.072578818 0.74663275
0.007615027 0.089476585 0.68440169
0.0074324585 0.085473299 0.6788922
0.0074601066 0.083926231 0.67972648
0.0074917735 0.082409531 0.68068218
0.0075283227 0.080929488 0.68178511
0.0075666606 0.079449952 0.68294215
0.0062443553 0.06400463 0.64303797
0.0062672324 0.062672347 0.64372838
0.0062902779 0.061330229 0.64442384
0.0063134939 0.059978187 0.6451245
0.0063368818 0.058616191 0.64583027
0.0063604438 0.057244003 0.64654124
0.0063849962 0.055868715 0.64728218
0.0064097997 0.054483324 0.64803076
0.0064347982 0.053087085 0.64878511
0.0064600119 0.051680088 0.64954603
0.006485404 0.050261885 0.6503123
0.0065112496 0.048834354 0.65109229
0.006537965 0.047400266 0.65189844
0.0065648998 0.045954287 0.65271133
0.0065920581 0.044496417 0.65353084
0.0066194413 0.043026388 0.65435725
0.0066470541 0.04154411 0.65519047
0.0066756988 0.040054232 0.65605491
0.0067047491 0.038552314 0.65693164
0.0067340527 0.037037313 0.65781593
0.0067636142 0.03550899 0.65870798
0.0067934361 0.033967167 0.65960801
0.0068241269 0.032414585 0.6605342
0.0068554957 0.030849725 0.66148078
0.0068871779 0.0292705 0.6624369
0.006919154 0.027676642 0.66340184
0.0069514047 0.026067764 0.66437513
0.0069846404 0.024446249 0.66537809
0.0070186122 0.022810489 0.66640329
0.0070529426 0.021158844 0.66743922
0.0070876097 0.019490898 0.66848552
0.0071225935 0.01780647 0.66954124
0.0071573365 0.016104043 0.67058969
0.0071907658 0.014381498 0.67159849
0.0072223973 0.012639225 0.672553
0.007251496 0.010877252 0.67343116
0.0072783944 0.0090979636 0.67424291
0.0073016016 0.007301569 0.67494327
0.0073246895 0.0054935515 0.67563999
0.0073483274 0.0036741495 0.67635334
0.0073752985 0.0018438399 0.67716724
0.0074048773 -0 0.67805988
0.0074351639 -0.0018587708 0.67897385
0.0074699912 -0.0037349761 0.68002486
0.0075051738 -0.0056288838 0.68108654
0.0075433329 -0.0075433254 0.68223816
0.0075840652 -0.0094800591 0.68346733
0.007625937 -0.011438906 0.68473095
0.0076731537 -0.013428032 0.6861558
0.0077209589 -0.015441924 0.68759847
0.00777676 -0.017497689 0.68928242
0.0078363176 -0.019590825 0.69107974
0.0079071838 -0.021744758 0.69321829
0.0080773365 -0.02423203 0.69835311
0.0081656892 -0.026538461 0.70101935
0.0082308371 -0.028807878 0.70298535
0.0082942471 -0.031103402 0.70489895
0.0083586415 -0.03343457 0.70684224
0.0084272362 -0.035815746 0.70891225
0.0084970389 -0.038236648 0.71101874
0.0085718231 -0.040716112 0.71327555
0.0086487578 -0.043243796 0.71559733
0.0087550301 -0.045963943 0.71880436
0.0088458089 -0.048651934 0.72154379
0.0089436024 -0.051425695 0.72449493
0.0090519255 -0.054311544 0.72776401
0.0091774426 -0.05735904 0.73155183
0.0093365759 -0.060687751 0.73635405
0.0095288269 0.089570969 0.68464416
0.0093066096 0.085620821 0.67927933
0.0093528135 0.084175318 0.68039477
0.0093988078 0.082709521 0.6815052
0.009445684 0.081232846 0.68263692
0.0094946884 0.079755396 0.68382001
0.0078250719 0.064165562 0.64351189
0.0078111952 0.062489569 0.64317679
0.0078409156 0.061159164 0.64389437
0.007870838 0.059818387 0.64461678
0.0079009896 0.058467358 0.64534473
0.0079313982 0.057106107 0.64607882
0.0079620173 0.055734158 0.64681804
0.0079938686 0.054358304 0.647587
0.0080260793 0.052972108 0.6483646
0.0080585508 0.051574707 0.64914852
0.0080913119 0.05016613 0.64993948
0.0081243142 0.0487459 0.65073621
0.0081579853 0.047316313 0.6515491
0.0081926882 0.045879066 0.6523869
0.0082276883 0.044429541 0.65323186
0.0082629882 0.042967558 0.65408409
0.0082985917 0.041492969 0.65494365
0.0083345044 0.040005624 0.65581065
0.0083719613 0.038511008 0.65671492
0.0084097283 0.037002802 0.65762675
0.008447866 0.035481036 0.65854746
0.0084863221 0.033945292 0.6594758
0.0085251592 0.032395601 0.66041344
0.0085655265 0.030835927 0.66138804
0.0086064255 0.029261827 0.66237539
0.0086477175 0.027672648 0.66337228
0.0086893765 0.026068151 0.66437805
0.0087314397 0.024448007 0.66539353
0.0087729581 0.022809714 0.66639584
0.0088124201 0.021149844 0.66734856
0.0088501405 0.019470334 0.6682592
0.0088847456 0.017769456 0.66909468
0.0089165056 0.016049713 0.66986144
0.0089439517 0.01431036 0.670524
0.0089718243 0.012560576 0.67119694
0.0090002278 0.010800242 0.67188269
0.0090328539 0.0090328455 0.6726703
0.0090683457 0.0072546601 0.67352718
0.0091045815 0.0054627359 0.674402
0.0091463886 0.0036585629 0.67541128
0.0091885468 0.0018377006 0.67642909
0.009233959 2.9802322e-08 0.6775254
0.0092827827 -0.0018565655 0.67870414
0.0093321949 -0.0037328601 0.67989701
0.0093887551 -0.0056332648 0.68126249
0.0094460053 -0.0075567961 0.68264467
0.0095113292 -0.0095113516 0.68422174
0.0095795793 -0.011495471 0.68586946
0.009664285 -0.013529986 0.68791443
0.0097829103 -0.015652686 0.69077826
0.0099773221 -0.017959207 0.69547182
0.01005819 -0.020116359 0.69742411
0.010133971 -0.02229473 0.69925362
0.010210861 -0.024506032 0.70110989
0.010291466 -0.026757807 0.70305586
0.01037473 -0.029049218 0.70506603
0.010462109 -0.031386286 0.70717555
0.010553063 -0.033769786 0.70937139
0.010649964 -0.036209881 0.71171081
0.010751016 -0.03870365 0.71415043
0.010861167 -0.041272402 0.71680969
0.010980438 -0.043921739 0.71968907
0.011157067 -0.046859682 0.72395337
0.011323511 -0.049823463 0.72797167
0.011568829 -0.053216606 0.73389417
0.011211221 0.085952729 0.68015027
0.011273952 0.084554642 0.68141234
0.011339787 0.083158433 0.68273681
0.011417459 0.081825107 0.68429947
0.011498226 0.080487609 0.68592429
0.011572109 0.079076052 0.68741077
0.0093513615 0.062342376 0.6427328
0.0093875332 0.061018974 0.64346045
0.0094245467 0.059688807 0.64420515
0.0094618537 0.05834806 0.64495575
0.0094994577 0.056996733 0.64571226
0.0095373616 0.055634648 0.64647484
0.00957557 0.054261565 0.6472435
0.0096152239 0.052883774 0.64804125
0.0096553946 0.051495433 0.64884949
0.0096959332 0.050095677 0.64966506
0.0097367819 0.048683941 0.65048683
0.0097779762 0.047260195 0.65131563
0.009820099 0.04582718 0.65216303
0.0098633971 0.044385284 0.65303409
0.0099071106 0.042930841 0.65391356
0.0099511808 0.041463286 0.65480018
0.0099956775 0.039982706 0.65569544
0.010040876 0.038490027 0.65660477
0.010087706 0.036988258 0.65754688
0.01013494 0.035472304 0.65849715
0.010182654 0.033942193 0.65945709
0.010230819 0.032397628 0.66042608
0.010279264 0.030837804 0.66140079
0.010327 0.029259831 0.66236115
0.010371811 0.027658165 0.66326267
0.010414773 0.026036948 0.66412699
0.010454485 0.024393827 0.66492593
0.010490395 0.022729188 0.66564846
0.010521684 0.02104336 0.66627783
0.010554085 0.019349188 0.66692972
0.010586837 0.017644763 0.66758859
0.010624754 0.01593715 0.66835147
0.010665672 0.014220893 0.66917467
0.010707363 0.012491882 0.67001349
0.010755544 0.010755569 0.67098272
0.010804121 0.0090034604 0.67196006
0.010856004 0.007237345 0.67300385
0.010912234 0.0054561198 0.67413515
0.010969009 0.0036563575 0.67527735
0.011033349 0.0018388927 0.67657179
0.011099226 2.9802322e-08 0.6778971
0.011172711 -0.0018621087 0.67937553
0.011250969 -0.0037503541 0.68094993
0.011344973 -0.0056724846 0.68284112
0.011466387 -0.0076442361 0.68528378
0.011705575 -0.0097546279 0.6900959
0.011805181 -0.011805177 0.69209981
0.011892539 -0.01387462 0.69385737
0.011980765 -0.015974373 0.69563234
0.012071769 -0.018107653 0.69746315
0.012167221 -0.020278692 0.6993835
0.012265348 -0.022486478 0.70135766
0.012369502 -0.024738997 0.70345306
0.012477618 -0.027034819 0.70562822
0.012592446 -0.029382378 0.70793831
0.012715166 -0.031787902 0.71040732
0.012845796 -0.034255445 0.71303535
0.012988965 -0.036802053 0.71591568
0.013151358 -0.039454073 0.71918285
0.013346104 -0.042262614 0.72310078
0.013212036 0.086821973 0.68243128
