# .PCD v0.7 - Point Cloud Data file format
VERSION 0.7
FIELDS x y z
SIZE 4 4 4
TYPE F F F
COUNT 1 1 1
WIDTH 1324
HEIGHT 1
VIEWPOINT 0 0 0 1 0 0 0
POINTS 1324
DATA ascii
-0.059721496 0.022182256 0.66057003
-0.05995068 0.020554543 0.66136038
-0.059340246 0.018649817 0.65925515
-0.060538206 0.017296612 0.6633867
-0.061062112 0.015701681 0.66519362
-0.061275978 0.014005929 0.66593122
-0.06141372 0.012282759 0.66640627
-0.061210658 0.010493279 0.66570592
-0.06076359 0.0086805224 0.66416407
-0.060626224 0.0069287121 0.66369033
-0.060758952 0.005207926 0.66414803
-0.061145473 0.0034940541 0.66548109
-0.061402954 0.0017544031 0.66636914
-0.061308376 -0 0.66604292
-0.061088949 -0.001745373 0.66528618
-0.059502952 -0.0034001768 0.65981627
-0.059455074 -0.0050961673 0.65965116
-0.059780207 -0.0068320334 0.6607725
-0.059546657 -0.0085066855 0.65996701
-0.057096589 -0.0097879767 0.65151697
-0.05702167 -0.011404335 0.65125859
-0.053116623 -0.01214093 0.63779062
-0.05235723 -0.013463289 0.63517153
-0.051336281 -0.014667481 0.63165039
-0.052264415 -0.016425967 0.63485146
-0.051123127 0.031576037 0.63610113
-0.051217169 0.030127764 0.63643497
-0.051442973 0.028747559 0.63723665
-0.05518673 0.029216528 0.65052813
-0.05602511 0.028012574 0.65350473
-0.056684263 0.026674956 0.65584487
-0.056924954 0.02511394 0.65669936
-0.057164822 0.02353847 0.65755099
-0.058391917 0.022326291 0.66190755
-0.058745794 0.020733833 0.6631639
-0.058109496 0.018800139 0.66090488
-0.059071552 0.017373949 0.66432047
-0.059747044 0.015815407 0.66671866
-0.059971351 0.014110893 0.66751504
-0.06012566 0.012378782 0.66806293
-0.06000774 0.010589629 0.66764426
-0.059537947 0.0087555647 0.66597629
-0.059375655 0.0069853663 0.66540015
-0.059467394 0.0052471459 0.66572583
-0.059817001 0.0035186112 0.66696703
-0.060113337 0.0017680228 0.66801918
-0.060053915 -0 0.66780818
-0.059841409 -0.001760006 0.6670537
-0.05829747 -0.003429234 0.66157228
-0.05820154 -0.005135417 0.66123164
-0.058536179 -0.0068866014 0.66241974
-0.058342658 -0.0085798204 0.66173267
-0.055932827 -0.0098704994 0.65317702
-0.055831321 -0.011494726 0.65281665
-0.05206183 -0.012249827 0.6394338
-0.049409952 -0.013079107 0.63001883
-0.049759544 -0.014635175 0.63125992
-0.051131885 -0.016542673 0.63613218
-0.049294792 0.031369418 0.63491333
-0.050068781 0.030344754 0.63774449
-0.050251946 0.028932959 0.63841444
-0.050807204 0.027713031 0.64044559
-0.054642741 0.028149307 0.65447557
-0.055353861 0.026838243 0.65707672
-0.055675451 0.025307029 0.65825313
-0.055827923 0.023684591 0.65881085
-0.057042401 0.022471249 0.66325331
-0.057459053 0.0208942 0.6647774
-0.056894399 0.018964827 0.66271186
-0.057128247 0.017311603 0.6635673
-0.058400191 0.015927345 0.66821992
-0.058647029 0.014217466 0.66912282
-0.058817074 0.012476325 0.66974491
-0.058752824 0.010682315 0.66950989
-0.058290921 0.0088319778 0.66782022
-0.058106299 0.0070431828 0.66714495
-0.058156237 0.0052869618 0.66732758
-0.05847754 0.0035440922 0.66850287
-0.05880367 0.0017819405 0.66969585
-0.058778346 -0 0.66960317
-0.058572758 -0.0017749369 0.6688512
-0.057070792 -0.0034588277 0.66335714
-0.056928333 -0.0051753223 0.66283607
-0.057263367 -0.0069409609 0.66406155
-0.057115804 -0.0086538792 0.66352177
-0.054761622 -0.0099566281 0.65491045
-0.054621954 -0.011586487 0.65439957
-0.051019453 -0.012368321 0.64122194
-0.047731165 -0.013017565 0.62919372
-0.048226066 -0.014613956 0.63100398
-0.049982999 -0.016660988 0.63743073
-0.047729481 0.031322479 0.6346435
-0.047296226 0.029560119 0.63300914
-0.049067695 0.029133976 0.63969147
-0.049402736 0.027789026 0.64095533
-0.053221151 0.028273731 0.65535915
-0.053978853 0.02698943 0.65821737
-0.054384407 0.025492698 0.65974724
-0.054514393 0.023850083 0.66023755
-0.05567234 0.022616893 0.66460562
-0.056102276 0.021038353 0.66622746
-0.055720001 0.019153774 0.66478544
-0.055705074 0.017407835 0.66472912
-0.057017684 0.016036212 0.66968048
-0.057301722 0.01432544 0.67075205
-0.057483792 0.012574583 0.67143875
-0.057475738 0.010776728 0.67140836
-0.057052217 0.0089144111 0.66981077
-0.056815762 0.0071020126 0.66891885
-0.056833711 0.0053281784 0.66898656
-0.057118565 0.003569901 0.67006111
-0.057473056 0.001796037 0.67139828
-0.057480901 -0 0.67142785
-0.057282455 -0.0017900765 0.67067933
-0.055823933 -0.0034889877 0.66517746
-0.055640809 -0.0052163303 0.66448665
-0.055970293 -0.0069963038 0.66572958
-0.055859767 -0.0087280571 0.66531259
-0.053569619 -0.010044307 0.65667367
-0.053393476 -0.011679798 0.65600926
-0.04588617 -0.01147154 0.62769014
-0.046278346 -0.013015747 0.62916946
-0.046932451 -0.014666408 0.63163698
-0.048817709 -0.016781092 0.63874853
-0.046218235 0.031309128 0.63456678
-0.045489281 0.029347926 0.63172829
-0.045405652 0.02782926 0.63140273
-0.045354672 0.026334971 0.63120413
-0.045303538 0.024843872 0.63100505
-0.05255476 0.027125001 0.65924054
-0.053064294 0.02567628 0.6612246
-0.053211562 0.024031043 0.66179806
-0.054272443 0.022759378 0.66592902
-0.054716799 0.021180689 0.66765928
-0.054572608 0.019364476 0.66709781
-0.054332137 0.017526478 0.66616142
-0.055593215 0.016139984 0.67107195
-0.055932809 0.014434278 0.67239434
-0.05611939 0.012672126 0.6731208
-0.056161247 0.01086992 0.67328382
-0.055793785 0.0089990199 0.67185295
-0.055503495 0.0071617365 0.6707226
-0.055501312 0.0053711236 0.67071408
-0.055739652 0.003596127 0.67164212
-0.056121424 0.0018103719 0.67312872
-0.056155756 -0 0.67326242
-0.055969942 -0.0018054545 0.67253888
-0.054562818 -0.0035201609 0.66705966
-0.054339938 -0.0052586794 0.66619182
-0.054656453 -0.0070524514 0.66742426
-0.054582018 -0.0088035464 0.6671344
-0.052357316 -0.010133684 0.6584717
-0.044171203 -0.0099741518 0.62659585
-0.044486012 -0.011480272 0.62782168
-0.044875208 -0.013028294 0.62933719
-0.045818221 -0.014780045 0.6330092
-0.047635492 -0.016902924 0.64008546
-0.044072807 0.029381901 0.63193321
-0.043597393 0.027611703 0.63002026
-0.043724645 0.026234776 0.63053232
-0.043989759 0.024927557 0.63159901
-0.051115595 0.027261645 0.66027117
-0.051706325 0.025853157 0.66264808
-0.051904779 0.024222255 0.66344666
-0.05222369 0.022630274 0.66472983
-0.053309988 0.021324009 0.66910076
-0.053505331 0.01961863 0.66988677
-0.052977342 0.017659098 0.66776228
-0.054142188 0.016242683 0.67244929
-0.054542933 0.014544815 0.67406178
-0.05473366 0.012771189 0.67482919
-0.054811999 0.010962397 0.67514437
-0.054511439 0.0090852678 0.673935
-0.054168958 0.0072225332 0.67255694
-0.05414727 0.0054147243 0.67246968
-0.054340344 0.0036227107 0.67324662
-0.054731261 0.0018244088 0.67481947
-0.054801393 -2.9802322e-08 0.67510176
-0.054634646 -0.0018211603 0.67443073
-0.042598087 -0.0028398633 0.62599939
-0.042551719 -0.0042551756 0.62581277
-0.05332135 -0.007109493 0.66914648
-0.04245916 -0.0070765316 0.62544036
-0.042540625 -0.0085081458 0.62576818
-0.042797759 -0.0099861324 0.6268028
-0.043092381 -0.011491299 0.62798822
-0.043766968 -0.013130069 0.63070261
-0.044686448 -0.014895499 0.63440228
-0.046435986 -0.017026514 0.64144188
-0.042764809 0.029493034 0.6326037
-0.042190224 0.027641892 0.63021207
-0.041798282 0.025943756 0.62858063
-0.042797349 0.025088102 0.63273919
-0.049662031 0.027399719 0.661313
-0.050312933 0.026023954 0.66402239
-0.041586846 0.020076424 0.62770057
-0.04154101 0.018621832 0.62750971
-0.051881414 0.021468192 0.670551
-0.052202821 0.01980105 0.67188889
-0.051632192 0.017804205 0.6695137
-0.052618913 0.016330034 0.67362082
-0.053129468 0.014656395 0.67574596
-0.053325698 0.012871712 0.67656273
-0.053439599 0.011056453 0.67703688
-0.053204082 0.009173125 0.67605656
-0.052832529 0.0072872639 0.67451
-0.052771043 0.0054590404 0.67425406
-0.052930623 0.0036503971 0.67491829
-0.053313352 0.0018384457 0.67651141
-0.05342425 -0 0.67697299
-0.053275771 -0.0018370748 0.67635494
-0.040866073 -0.0028183162 0.62470043
-0.040821929 -0.0042229891 0.62451661
-0.04079679 -0.0056271553 0.62441206
-0.040983807 -0.0070661604 0.62519044
-0.041194987 -0.0085231066 0.62606949
-0.041473448 -0.010010839 0.62722856
-0.04198477 -0.011581987 0.62935692
-0.042641271 -0.013233483 0.6320895
-0.043536987 -0.015012771 0.63581789
-0.045218673 -0.017151892 0.6428178
-0.042060323 0.030043095 0.63592398
-0.040880758 0.027740508 0.63083875
-0.040460225 0.026010126 0.62902588
-0.040146027 0.024374396 0.62767124
-0.039932847 0.022818804 0.62675226
-0.039889075 0.021369129 0.62656355
-0.039845508 0.019922793 0.62637573
-0.039801929 0.018479466 0.62618786
-0.050430849 0.02161327 0.67201006
-0.050814234 0.019962758 0.6736629
-0.050296146 0.017962933 0.6714294
-0.050981387 0.016386867 0.67438352
-0.05168594 0.014767408 0.67742097
-0.051892314 0.01297307 0.67831069
-0.039499838 0.008464247 0.6248855
-0.039457012 0.0070459247 0.62470084
-0.051473826 0.007353425 0.67650652
-0.051372092 0.0055041611 0.67606789
-0.051510163 0.0036793053 0.67666316
-0.051873483 0.0018526316 0.67822945
-0.052023344 -0 0.67887557
-0.039202303 -0.0014000833 0.62360281
-0.039191991 -0.0027994215 0.6235584
-0.039324883 -0.0042133629 0.6241312
-0.039476912 -0.0056395233 0.62478662
-0.039649636 -0.0070802867 0.62553132
-0.039946169 -0.0085598826 0.62680966
-0.040360801 -0.010090202 0.62859714
-0.040859539 -0.011674136 0.63074732
-0.041497707 -0.013338536 0.63349849
-0.042369287 -0.015131861 0.63725597
-0.043990057 -0.017281801 0.64424324
-0.041589878 0.030807316 0.64053655
-0.039989229 0.028140545 0.63338041
-0.039245065 0.026163369 0.63005346
-0.038821705 0.024443328 0.62816072
-0.038571209 0.02285701 0.62704074
-0.038355477 0.021308631 0.62607628
-0.038170166 0.019791931 0.62524778
-0.038089238 0.018339276 0.62488598
-0.03804794 0.016910195 0.62470138
-0.04935297 0.020106763 0.6752435
-0.048983801 0.018142164 0.67359304
-0.049051564 0.016350538 0.67389596
-0.037883844 0.011224836 0.62396777
-0.037843093 0.0098111928 0.6237855
-0.037802219 0.0084004998 0.62360281
-0.037761644 0.0069928765 0.62342143
-0.037721053 0.0055883229 0.62323987
-0.037680544 0.0041867495 0.6230588
-0.037640337 0.0027881861 0.62287903
-0.037621155 0.0013933778 0.62279332
-0.03769432 -0 0.62312037
-0.037783399 -0.001399368 0.62351865
-0.037888836 -0.0028065443 0.62399006
-0.038011219 -0.0042234659 0.62453717
-0.038199417 -0.0056591332 0.62537855
-0.038487256 -0.0071272552 0.62666547
-0.038826726 -0.00862813 0.62818313
-0.039230362 -0.010170847 0.62998772
-0.039716255 -0.011767775 0.63216001
-0.040335838 -0.013445258 0.63493001
-0.041182905 -0.015252948 0.63871711
-0.0427504 -0.017416805 0.64572495
-0.039097797 0.028571457 0.63611799
-0.038273409 0.026496977 0.6322906
-0.037723385 0.024665296 0.62973696
-0.037315987 0.022963673 0.62784553
-0.037051249 0.021375716 0.62661648
-0.036874812 0.019855678 0.62579733
-0.03672377 0.018361896 0.62509608
-0.036595467 0.016890198 0.62450039
-0.0364879 0.015437216 0.62400097
-0.036399588 0.01399982 0.62359095
-0.03632915 0.012575507 0.62326396
-0.036275662 0.011161774 0.62301564
-0.036238071 0.0097563863 0.62284112
-0.036215674 0.0083574653 0.62273711
-0.036210332 0.0069635212 0.62271231
-0.036219608 0.0055722594 0.62275535
-0.036243424 0.0041818917 0.62286592
-0.03628163 0.0027908981 0.6230433
-0.036333919 0.0013974607 0.62328613
-0.036400709 -2.9802322e-08 0.62359619
-0.036482271 -0.0014031827 0.6239748
-0.036641646 -0.0028185546 0.62471473
-0.036845256 -0.0042513907 0.62566006
-0.037082721 -0.0057050288 0.62676257
-0.037360352 -0.0071846843 0.62805152
-0.037689175 -0.00869748 0.62957811
-0.038081717 -0.010252774 0.63140059
-0.038554482 -0.011862904 0.63359553
-0.039155342 -0.013553739 0.63638514
-0.039977271 -0.015375882 0.64020109
-0.041491091 -0.017553896 0.64722943
-0.038241789 0.029063791 0.63924563
-0.03729644 0.026853472 0.63468105
-0.036709879 0.024962723 0.63184893
-0.036275323 0.023216218 0.62975073
-0.035946228 0.021567762 0.62816167
-0.035681076 0.019981444 0.62688136
-0.035466302 0.018442482 0.62584436
-0.03530474 0.016946286 0.62506425
-0.035201617 0.015488744 0.62456632
-0.035116531 0.014046639 0.62415552
-0.035048343 0.012617439 0.62382627
-0.034995884 0.011198699 0.62357301
-0.034958523 0.0097883642 0.62339258
-0.034936655 0.008384794 0.62328702
-0.034930218 0.0069860816 0.62325591
-0.03493724 0.005589962 0.62328982
-0.034957938 0.0041949749 0.62338978
-0.035011947 0.0028009713 0.62365055
-0.035103127 0.0014041364 0.62409085
-0.035216678 -0 0.62463909
-0.035355031 -0.0014142096 0.62530714
-0.035522297 -0.0028418005 0.62611479
-0.035718672 -0.0042862296 0.62706292
-0.035948299 -0.0057516992 0.62817162
-0.036217242 -0.0072434247 0.62947023
-0.036533404 -0.0087679923 0.63099676
-0.036914304 -0.010336012 0.63283598
-0.037373774 -0.011959583 0.63505447
-0.037955526 -0.013663977 0.63786346
-0.038752161 -0.015500873 0.64170992
-0.040211927 -0.017693281 0.64875829
-0.037466481 0.02966097 0.64303976
-0.03630599 0.027229488 0.63720298
-0.035671528 0.025267303 0.63401186
-0.035225667 0.023483813 0.6317693
-0.0348766 0.021797895 0.63001364
-0.034605537 0.020186603 0.62865031
-0.034386445 0.018626004 0.62754834
-0.034208946 0.017104477 0.62665564
-0.03406629 0.015613735 0.62593818
-0.033953883 0.01414746 0.62537277
-0.033868175 0.012700588 0.62494171
-0.033806488 0.011268854 0.62463146
-0.033768084 0.0098490417 0.62443829
-0.033753369 0.0084383488 0.62436426
-0.033758875 0.0070331395 0.62439191
-0.033784136 0.005630672 0.62451905
-0.033829249 0.0042286515 0.62474591
-0.033894561 0.0028245449 0.62507445
-0.03398069 0.0014158785 0.62550759
-0.034089305 -0 0.62605393
-0.034223862 -0.0014260113 0.62673062
-0.034384377 -0.0028653443 0.62753797
-0.034573555 -0.0043216944 0.62848949
-0.034795146 -0.0057992041 0.62960398
-0.035055175 -0.0073031783 0.63091183
-0.035359468 -0.0088398457 0.63244236
-0.035727885 -0.01042065 0.63429528
-0.03617366 -0.012057871 0.63653737
-0.036736038 -0.013776004 0.63936591
-0.037506968 -0.015627891 0.64324343
-0.03891217 -0.017834723 0.65031105
-0.035323586 0.027644545 0.6399864
-0.034627203 0.025594026 0.63633156
-0.034151636 0.023757666 0.63383561
-0.033794511 0.02203992 0.63196129
-0.03351061 0.020397782 0.63047135
-0.03328488 0.018813223 0.62928665
-0.033104207 0.017271787 0.6283384
-0.032958489 0.015762776 0.62757361
-0.032843169 0.014279634 0.62696844
-0.032754648 0.012817025 0.62650383
-0.032691933 0.011371136 0.62617469
-0.032652512 0.0099377334 0.62596774
-0.032633994 0.0085132122 0.62587059
-0.032635566 0.0070947111 0.62587887
-0.032656774 0.0056794584 0.62599015
-0.032697506 0.0042649209 0.62620389
-0.032758191 0.0028485656 0.62652242
-0.032839891 0.0014278293 0.62695122
-0.032944806 -0 0.62750185
-0.033073571 -0.0014380217 0.62817764
-0.03322741 -0.0028893352 0.62898505
-0.033409242 -0.0043577254 0.62993932
-0.033622812 -0.0058474243 0.63106018
-0.03387389 -0.0073638558 0.63237792
-0.034167048 -0.0089131296 0.6339165
-0.034521982 -0.01050669 0.63577932
-0.034953553 -0.012157768 0.6380443
-0.035496384 -0.013889909 0.64089328
-0.0362412 -0.015757024 0.64480227
-0.03759158 -0.017978609 0.65188944
-0.034342024 0.028098047 0.64302742
-0.033559307 0.025932223 0.63873279
-0.033057719 0.024041981 0.63598061
-0.032688513 0.022287637 0.63395482
-0.0323993 0.020617753 0.63236797
-0.032167152 0.019007891 0.63109422
-0.031980619 0.017444015 0.63007075
-0.031831633 0.015915841 0.62925327
-0.031714067 0.014415503 0.62860823
-0.031624231 0.012937188 0.6281153
-0.031559404 0.011476159 0.62775958
-0.031516574 0.010028005 0.62752461
-0.031494573 0.0085894465 0.62740386
-0.031492501 0.0071573555 0.62739253
-0.031509809 0.0057290792 0.62748748
-0.031546291 0.0043017864 0.62768763
-0.031602897 0.0028730035 0.62799823
-0.031681027 0.001440078 0.62842691
-0.031781182 -0 0.62897646
-0.03190387 -0.0014501512 0.62964964
-0.032051016 -0.0029137135 0.63045704
-0.032225441 -0.0043943822 0.63141406
-0.032430802 -0.0058964789 0.63254082
-0.032672793 -0.0074256361 0.63386863
-0.032955185 -0.0089877546 0.63541806
-0.033296097 -0.010594189 0.63728857
-0.033713169 -0.012259364 0.63957703
-0.03423607 -0.014005661 0.6424461
-0.034954224 -0.015888274 0.6463865
-0.036249395 -0.0181247 0.65349287
-0.033390738 0.02862066 0.64653212
-0.032485794 0.026298046 0.64133042
-0.031949047 0.02434212 0.63824511
-0.031557843 0.022541314 0.63599646
-0.031263761 0.020842522 0.63430601
-0.031027975 0.019207776 0.63295066
-0.03083838 0.017621964 0.63186085
-0.030686358 0.016073823 0.63098699
-0.030566026 0.014555246 0.63029534
-0.030473391 0.013060033 0.62976283
-0.030405756 0.011583149 0.62937409
-0.030359898 0.010119945 0.62911046
-0.030334655 0.0086670816 0.62896538
-0.030329052 0.0072211921 0.62893319
-0.03034254 0.0057795644 0.62901068
-0.030375345 0.0043393373 0.62919927
-0.030428914 0.0028979778 0.62950718
-0.030502938 0.0014525056 0.6299327
-0.030597536 2.9802322e-08 0.63047647
-0.030714072 -0.001462549 0.63114631
-0.030854497 -0.002938509 0.63195348
-0.03102147 -0.0044316649 0.63291329
-0.031218616 -0.005946368 0.63404649
-0.031451385 -0.0074883997 0.6353845
-0.031722955 -0.0090636909 0.63694555
-0.032049518 -0.010683179 0.63882267
-0.032451883 -0.012362599 0.64113551
-0.03295457 -0.01412341 0.64402497
-0.033645742 -0.016021788 0.64799798
-0.034886256 -0.018273771 0.6551286
-0.03255466 0.0292992 0.65108269
-0.031390421 0.02668187 0.64405584
-0.030812534 0.024650067 0.64056802
-0.030413145 0.022809863 0.63815749
-0.030103276 0.021072298 0.63628727
-0.029864665 0.019412041 0.63484716
-0.029672507 0.01780352 0.63368738
-0.029518114 0.016234964 0.63275552
-0.029395508 0.01469776 0.63201553
-0.02930049 0.013185233 0.63144201
-0.029230395 0.011692137 0.631019
-0.029181724 0.010213643 0.63072515
-0.0291535 0.0087460577 0.63055485
-0.029144669 0.0072861314 0.63050157
-0.029155029 0.0058310032 0.63056409
-0.029185552 0.0043778121 0.63074833
-0.029235175 0.0029235184 0.63104784
-0.029304264 0.0014652312 0.63146478
-0.029393351 2.9802322e-08 0.63200247
-0.029503753 -0.0014751852 0.63266885
-0.029637443 -0.0029637218 0.63347572
-0.029796997 -0.0044695437 0.63443869
-0.029985743 -0.0059971511 0.63557792
-0.030209053 -0.0075522661 0.6369257
-0.030469727 -0.0091409385 0.63849902
-0.030783437 -0.010774225 0.64039242
-0.031169167 -0.012467653 0.64272052
-0.031652641 -0.014243692 0.64563853
-0.032317478 -0.01615873 0.64965117
-0.033500962 -0.018425524 0.65679407
-0.030300023 0.027110547 0.64709985
-0.029666517 0.024982303 0.64307505
-0.029241746 0.023085564 0.64037645
-0.028925981 0.021313906 0.63837028
-0.028677391 0.019621372 0.63679099
-0.028482361 0.017988861 0.63555181
-0.02832629 0.016399443 0.63456035
-0.028201926 0.014843106 0.63377023
-0.028104799 0.013312846 0.63315314
-0.028032616 0.01180318 0.63269454
-0.027981626 0.010309011 0.63237065
-0.027950609 0.008826524 0.6321736
-0.027939521 0.0073525012 0.63210309
-0.027948227 0.0058838427 0.63215846
-0.027974872 0.0044170916 0.63232768
-0.028020388 0.002949506 0.63261688
-0.028084541 0.0014781356 0.63302445
-0.028168086 -0 0.63355517
-0.028272461 -0.00148803 0.63421834
-0.028399317 -0.0029894114 0.63502431
-0.028551303 -0.0045081079 0.6359899
-0.028731648 -0.0060487688 0.63713562
-0.028945446 -0.0076172054 0.63849396
-0.02919496 -0.0092194676 0.64007914
-0.029495502 -0.010866791 0.64198864
-0.029864462 -0.012574524 0.64433265
-0.030328345 -0.01436606 0.64727974
-0.030966517 -0.016298145 0.65133423
-0.032092571 -0.0185799 0.65848827
-0.029210063 0.027587295 0.65048498
-0.02849053 0.025324941 0.64565963
-0.028047267 0.02337274 0.64268708
-0.027722744 0.021562129 0.6405108
-0.027470512 0.019839823 0.63881934
-0.027270224 0.018180132 0.63747609
-0.027110564 0.016567558 0.63640541
-0.026984418 0.014991313 0.63555944
-0.026885822 0.013442904 0.63489825
-0.026812105 0.011916518 0.63440388
-0.026758892 0.010406256 0.63404703
-0.026727051 0.0089090168 0.63383353
-0.026714366 0.0074206591 0.63374841
-0.02671936 0.0059376359 0.63378191
-0.026742604 0.0044571161 0.63393784
-0.02678372 0.0029760003 0.63421357
-0.026843032 0.0014912784 0.63461131
-0.026921183 -0 0.63513541
-0.027019473 -0.0015011132 0.63579452
-0.027139645 -0.0030155182 0.63660043
-0.027284103 -0.0045473576 0.63756919
-0.027455857 -0.0061012805 0.63872099
-0.027659828 -0.0076832771 0.6400888
-0.027898099 -0.0092993677 0.64168674
-0.028185334 -0.010960966 0.64361298
-0.028537203 -0.012683183 0.64597261
-0.028981468 -0.014490753 0.64895201
-0.029592134 -0.016440094 0.6530472
-0.030660274 -0.018736809 0.66021025
-0.028150037 0.028150052 0.65448087
-0.027306365 0.025700122 0.64849025
-0.026831672 0.023675025 0.64511967
-0.02649148 0.021816522 0.64270401
-0.026237592 0.020063996 0.64090133
-0.026035139 0.018377751 0.63946378
-0.025873898 0.016741961 0.63831884
-0.025745856 0.015144587 0.63740969
-0.0256458 0.013577193 0.6366992
-0.025569325 0.012032628 0.6361562
-0.025515942 0.01050657 0.63577718
-0.025482079 0.008993715 0.63553667
-0.025466286 0.0074900687 0.63542455
-0.025468346 0.0059925616 0.63543916
-0.025487879 0.0044978857 0.63557786
-0.025524747 0.0030029416 0.63583964
-0.025579244 0.0015046597 0.63622665
-0.025652064 2.9802322e-08 0.63674372
-0.025744455 -0.001514405 0.63739973
-0.025858248 -0.0030421317 0.63820779
-0.025994956 -0.0045873523 0.63917851
-0.026157795 -0.0061547756 0.64033467
-0.026351471 -0.0077504516 0.64170992
-0.02657856 -0.0093806982 0.64332241
-0.02685217 -0.011056751 0.64526522
-0.027187232 -0.012793988 0.64764434
-0.027611369 -0.014617771 0.65065598
-0.028193515 -0.016584426 0.65478963
-0.029203678 -0.01889649 0.66196239
-0.027280137 0.028985143 0.6604107
-0.026097808 0.026097804 0.65149069
-0.025586674 0.023987532 0.64763445
-0.025240919 0.022085816 0.64502597
-0.024976563 0.020293444 0.64303154
-0.024773756 0.018580317 0.64150149
-0.024611607 0.016920477 0.64027816
-0.02448253 0.015301615 0.63930434
-0.024381272 0.013714492 0.63854039
-0.024304073 0.012152076 0.63795799
-0.024249375 0.01060912 0.63754535
-0.024213219 0.009079963 0.6372726
-0.024194924 0.0075609386 0.63713455
-0.024193974 0.0060484707 0.63712734
-0.024209922 0.0045393705 0.63724768
-0.024242694 0.0030303299 0.63749492
-0.02429257 0.0015183091 0.63787115
-0.024360649 -0 0.63838482
-0.02444754 -0.0015279651 0.63904035
-0.024554238 -0.0030692518 0.63984531
-0.024683014 -0.0046280622 0.64081687
-0.024836777 -0.0062091649 0.64197689
-0.025020119 -0.0078187585 0.64336014
-0.025235746 -0.0094633996 0.64498693
-0.025495576 -0.011154324 0.64694715
-0.025814136 -0.012907058 0.64935052
-0.02621712 -0.014747143 0.65239084
-0.02677021 -0.016731381 0.65656352
-0.027722811 -0.01905942 0.66375035
-0.029432647 -0.022074491 0.67665005
-0.024875725 0.02653411 0.6547823
-0.024323573 0.024323583 0.65033895
-0.023960017 0.022362679 0.64741325
-0.023693094 0.020534009 0.64526516
-0.023484327 0.018787473 0.64358515
-0.02332261 0.017103255 0.6422838
-0.023193527 0.015462339 0.64124501
-0.023091841 0.013855129 0.6404267
-0.02301381 0.012274027 0.63979876
-0.022957847 0.010713696 0.63934839
-0.022919847 0.0091679692 0.63904262
-0.022899289 0.0076331198 0.63887715
-0.022895586 0.0061054826 0.63884741
-0.022908233 0.00458166 0.63894916
-0.022937078 0.0030583143 0.63918126
-0.022983294 0.0015322566 0.63955319
-0.023046458 2.9802322e-08 0.6400615
-0.02312706 -0.0015418231 0.64071018
-0.023226758 -0.0030968785 0.64151245
-0.023347495 -0.0046694875 0.64248407
-0.023492265 -0.0062645972 0.64364904
-0.023665078 -0.0078883469 0.64503974
-0.023869036 -0.009547621 0.64668107
-0.024114985 -0.011253685 0.64866036
-0.024416553 -0.013022184 0.65108716
-0.024797892 -0.01487872 0.65415597
-0.025321366 -0.016880929 0.65836859
-0.026220676 -0.019228488 0.66560566
-0.027405901 -0.021924734 0.6751436
-0.027379306 -0.023728758 0.67492962
-0.02613648 0.031737208 0.67995167
-0.0236561 0.027035594 0.65856534
-0.023028666 0.024673581 0.65315545
-0.022652157 0.022652119 0.64990914
-0.022380257 0.020781666 0.64756477
-0.022171436 0.019004107 0.64576429
-0.02200629 0.017290682 0.64434034
-0.021877153 0.01562655 0.64322692
-0.021775687 0.013998657 0.6423521
-0.02169738 0.012398511 0.64167684
-0.021640671 0.010820359 0.64118791
-0.021601234 0.009257704 0.6408478
-0.021578673 0.007706672 0.64065337
-0.021572495 0.0061635673 0.64060009
-0.021582065 0.0046247542 0.64068264
-0.021608429 0.0030869246 0.64090991
-0.021650303 0.0015464723 0.641271
-0.021708069 2.9802322e-08 0.64176899
-0.021782525 -0.0015559196 0.64241099
-0.021875171 -0.0031250119 0.64320982
-0.021987917 -0.0047116876 0.64418197
-0.022123469 -0.006321013 0.64535069
-0.022285704 -0.007959187 0.64674956
-0.022477854 -0.0096333325 0.64840627
-0.022709731 -0.011354834 0.65040553
-0.022993818 -0.013139337 0.65285504
-0.023353104 -0.015012681 0.65595287
-0.023846392 -0.01703313 0.66020608
-0.024691651 -0.019400597 0.66749406
-0.025406379 -0.021776915 0.67365658
-0.025381893 -0.023568869 0.67344546
-0.024102412 0.031518549 0.67839938
-0.022463411 0.027647287 0.66318047
-0.021713838 0.025054455 0.65622038
-0.021316348 0.022956043 0.65252954
-0.021036049 0.021036059 0.64992678
-0.020828448 0.019226283 0.64799917
-0.020664677 0.017485529 0.64647847
-0.020534985 0.015796155 0.64527422
-0.020432936 0.014145851 0.64432669
-0.020354293 0.012525737 0.64359641
-0.020297067 0.010929197 0.64306504
-0.020256488 0.0093491375 0.64268827
-0.020232419 0.0077817142 0.64246476
-0.020224681 0.0062229633 0.64239293
-0.020232545 0.0046690106 0.64246595
-0.020255037 0.0031161606 0.64267474
-0.020292317 0.0015609562 0.64302093
-0.020344744 2.9802322e-08 0.64350772
-0.020413123 -0.0015702248 0.64414269
-0.020499069 -0.0031536818 0.64494073
-0.020604195 -0.0047548413 0.64591694
-0.020730406 -0.0063785315 0.64708877
-0.020881338 -0.0080312788 0.64849025
-0.021061592 -0.0097207427 0.65016401
-0.021279041 -0.01145795 0.65218312
-0.021545323 -0.013258666 0.65465564
-0.021882065 -0.015149087 0.65778244
-0.022344653 -0.017188191 0.66207778
-0.023134928 -0.019575715 0.66941583
-0.023486692 -0.021679997 0.67268211
-0.023709532 -0.023709536 0.67475128
-0.022096338 0.031303167 0.67686993
-0.022072781 0.02943036 0.676633
-0.020372909 0.025466174 0.6595335
-0.019948317 0.023273051 0.65526247
-0.019666895 0.021305829 0.65243161
-0.019454572 0.019454569 0.65029585
-0.019292546 0.017684877 0.6486659
-0.019164709 0.015970588 0.64737999
-0.019063883 0.014297932 0.64636576
-0.0189857 0.012657136 0.64557928
-0.018926155 0.01104027 0.64498031
-0.018885734 0.0094428658 0.64457375
-0.018861469 0.0078589618 0.64432967
-0.018852053 0.0062839985 0.64423496
-0.018856967 0.0047142208 0.64428437
-0.018875759 0.003145963 0.64447343
-0.018908631 0.001575768 0.64480406
-0.018955909 2.9802322e-08 0.64527965
-0.019018836 -0.0015848875 0.64591265
-0.019098265 -0.003183037 0.64671159
-0.019195527 -0.0047988892 0.64769
-0.019312527 -0.0064375103 0.64886701
-0.01945224 -0.0081050992 0.65027231
-0.019619728 -0.0098098516 0.65195709
-0.01982207 -0.011562854 0.65399253
-0.020070208 -0.01338008 0.6564886
-0.020384114 -0.015288085 0.65964627
-0.020815248 -0.017346054 0.66398317
-0.021481458 -0.019691348 0.67068475
-0.021891069 -0.021891087 0.6748051
-0.02210138 -0.023943156 0.67692065
-0.020390119 0.031512022 0.67835295
-0.020168656 0.029336244 0.67592269
-0.019007567 0.025919437 0.66318119
-0.018552477 0.023612261 0.65818721
-0.018262355 0.021582782 0.65500349
-0.018052349 0.019693494 0.65269899
-0.017889641 0.017889649 0.65091342
-0.01776406 0.016149133 0.6495353
-0.017665025 0.014453232 0.64844859
-0.017588085 0.012791336 0.64760423
-0.017529547 0.011155188 0.64696187
-0.017489163 0.0095395446 0.64651871
-0.017463638 0.0079380274 0.64623857
-0.017452287 0.0063462853 0.64611405
-0.017454443 0.004760325 0.64613771
-0.017469846 0.0031763613 0.64630675
-0.01749856 0.0015907884 0.64662182
-0.017541392 2.9802322e-08 0.64709187
-0.017598601 -0.0015998483 0.64771962
-0.017671149 -0.0032129586 0.64851582
-0.017760448 -0.0048437715 0.64949572
-0.017868269 -0.0064975321 0.65067887
-0.017997276 -0.0081805587 0.6520946
-0.018151894 -0.0099010468 0.65379137
-0.018338658 -0.011670053 0.65584081
-0.018567812 -0.013503879 0.65835547
-0.019087989 -0.01561743 0.66406369
-0.019257559 -0.017506868 0.66592455
-0.019780435 -0.019780457 0.67166245
-0.020263998 -0.0221062 0.67696893
-0.020461144 -0.024181366 0.67913234
-0.018849807 0.032044679 0.68213522
-0.01859316 0.029749066 0.67903721
-0.017632728 0.026449114 0.66744381
-0.01712138 0.023969948 0.66127121
-0.016826186 0.02187404 0.65770799
-0.016616641 0.019939959 0.65517855
-0.016457217 0.018102944 0.65325415
-0.016332321 0.016332299 0.65174651
-0.016235974 0.014612406 0.65058345
-0.016160671 0.012928516 0.64967453
-0.016103562 0.01127252 0.64898509
-0.016063701 0.0096382201 0.64850396
-0.016037444 0.0080187321 0.64818698
-0.01602445 0.0064097643 0.64803016
-0.016024295 0.0048072934 0.64802831
-0.01603657 0.0032073557 0.64817643
-0.016061794 0.0016061962 0.64848089
-0.016099831 2.9802322e-08 0.64894009
-0.016151333 -0.0016151667 0.64956176
-0.016217031 -0.0032433867 0.65035474
-0.01629838 -0.0048895478 0.65133679
-0.016396813 -0.0065587163 0.65252495
-0.016514959 -0.0082574785 0.65395111
-0.016656911 -0.0099941492 0.65566468
-0.016827488 -0.011779249 0.65772367
-0.020340117 -0.016272098 0.70012486
-0.017561436 -0.015805274 0.66658318
-0.017663978 -0.017663985 0.66782099
-0.018149719 -0.019964635 0.67368436
-0.018604707 -0.022325635 0.67917657
-0.018788015 -0.024424404 0.68138933
-0.016942039 0.030119181 0.68182963
-0.01619505 0.026991755 0.67181075
-0.015656974 0.024355263 0.66459394
-0.015354914 0.022179335 0.66054261
-0.015145046 0.020193428 0.65772778
-0.014991471 0.018322915 0.65566796
-0.014870775 0.016523093 0.65404922
-0.014775968 0.014775991 0.65277761
-0.014702881 0.013069242 0.65179729
-0.014647502 0.011392474 0.65105456
-0.014608537 0.0097390413 0.65053195
-0.014581952 0.0081011057 0.65017539
-0.014567801 0.0064745545 0.64998561
-0.01456568 0.0048552155 0.64995718
-0.01457544 0.003238976 0.65008807
-0.014596936 0.0016218722 0.65037638
-0.014630321 -0 0.65082419
-0.014676525 -0.0016307235 0.65144384
-0.014735595 -0.0032745898 0.65223616
-0.014808816 -0.0049362779 0.65321821
-0.014897685 -0.006621182 0.65441012
-0.015004608 -0.0083358884 0.65584421
-0.01513339 -0.010088921 0.65757149
-0.018615151 -0.014478415 0.70426989
-0.018487601 -0.016433418 0.70255911
-0.015971554 -0.015971541 0.66881317
-0.015985843 -0.017762065 0.6690048
-0.016488334 -0.02015242 0.67574441
-0.016912071 -0.02254945 0.68142766
-0.017080845 -0.024672329 0.68369132
-0.0152517 0.030503452 0.68472826
-0.014818527 0.027784765 0.67819226
-0.014160477 0.024780869 0.66826302
-0.013846064 0.022499859 0.66351891
-0.01364179 0.020462692 0.66043663
-0.013489755 0.018548429 0.65814257
-0.01337513 0.016718924 0.65641308
-0.013285018 0.014945626 0.65505338
-0.013214584 0.013214588 0.65399057
-0.013160839 0.011515737 0.65317965
-0.013122612 0.0098419785 0.65260279
-0.013096208 0.0081851482 0.65220439
-0.013081485 0.0065407753 0.65198231
-0.013077938 0.0049042106 0.65192878
-0.013085205 0.0032713115 0.6520384
-0.013103624 0.0016379654 0.65231633
-0.013132945 -0 0.65275878
-0.013173312 -0.0016466677 0.65336788
-0.013225499 -0.0033063889 0.65415531
-0.013290444 -0.004983902 0.65513521
-0.01336968 -0.0066848397 0.65633082
-0.013465341 -0.008415848 0.65777421
-0.013580648 -0.01018548 0.65951407
-0.016732167 -0.014640629 0.70706677
-0.016598055 -0.016598046 0.7050432
-0.01434787 -0.016141355 0.6710906
-0.014345813 -0.017932296 0.67105955
-0.014795358 -0.020343602 0.67784268
-0.015185219 -0.022777826 0.68372524
-0.015338721 -0.024925411 0.68604136
-0.013546902 0.030964345 0.6882059
-0.013390032 0.028692871 0.68550074
-0.012539868 0.025079757 0.67084014
-0.01229922 0.022841394 0.66669041
-0.012097939 0.020739317 0.66321945
-0.011953919 0.018784732 0.66073591
-0.01184361 0.016919464 0.65883362
-0.011759389 0.015119225 0.65738136
-0.011693433 0.013363928 0.65624392
-0.011642785 0.011642784 0.65537053
-0.011604941 0.0099471211 0.65471792
-0.011579427 0.0082710087 0.65427804
-0.011564556 0.0066083372 0.6540215
-0.011560317 0.0049544573 0.65394849
-0.011565891 0.0033045411 0.65404451
-0.011580997 0.0016544461 0.65430504
-0.011605749 -0 0.65473187
-0.011640463 -0.00166291 0.65533048
-0.011685747 -0.0033388138 0.65611142
-0.011742515 -0.0050325096 0.65709037
-0.011812055 -0.0067497492 0.65828949
-0.011896225 -0.0084973276 0.65974098
-0.011997775 -0.010283798 0.66149217
-0.014810649 -0.014810652 0.70999843
-0.014670203 -0.016765922 0.70757651
-0.012689244 -0.016314745 0.67341608
-0.012674 -0.018105745 0.67315328
-0.013069996 -0.020538539 0.67998195
-0.013422976 -0.02301082 0.68606883
-0.013560434 -0.025183678 0.68843925
-0.011630658 0.029076666 0.68858874
-0.010968528 0.025593221 0.6752677
-0.010657153 0.023090512 0.66900325
-0.010515565 0.021031111 0.66615474
-0.010379736 0.019029528 0.66342211
-0.010277013 0.017128319 0.6613555
-0.010197942 0.015296936 0.65976471
-0.010137508 0.013516665 0.65854883
-0.010090825 0.011772692 0.65760964
-0.010055338 0.010055333 0.6568957
-0.010031549 0.008359611 0.65641713
-0.010017323 0.0066782236 0.65613091
-0.010012112 0.0050060749 0.65602607
-0.010015519 0.0033385158 0.65609461
-0.010027428 0.0016712248 0.65633422
-0.010047833 2.9802322e-08 0.65674472
-0.010077041 -0.0016795099 0.6573323
-0.010115544 -0.003371805 0.65810692
-0.010164107 -0.005082041 0.6590839
-0.010223885 -0.0068159401 0.66028661
-0.010296434 -0.0085803866 0.6617462
-0.010374893 -0.010374904 0.66332459
-0.013224759 -0.015428871 0.72065955
-0.012702953 -0.016937256 0.71016163
-0.010994638 -0.01649195 0.67579299
-0.01096957 -0.018282622 0.67528868
-0.011311247 -0.02073729 0.68216264
-0.011624354 -0.023248702 0.68846184
-0.011744958 -0.025447398 0.69088823
-0.0098191183 0.029457361 0.69165236
-0.0093735587 0.026245981 0.68089563
-0.0090290727 0.023475558 0.67257905
-0.0088551845 0.021252483 0.66838098
-0.0087366542 0.01922068 0.66551942
-0.0086725084 0.017345011 0.66397083
-0.0086009223 0.01548171 0.66224253
-0.0085455729 0.013672918 0.66090631
-0.0085038599 0.011905402 0.65989929
-0.0084722117 0.010166645 0.65913522
-0.0084506618 0.0084506571 0.65861493
-0.0084370682 0.0067496598 0.65828681
-0.0084312679 0.0050587654 0.65814674
-0.0084329732 0.0033732057 0.65818787
-0.0084419651 0.001688391 0.65840495
-0.0084582623 -0 0.6587984
-0.008482093 -0.0016964376 0.65937376
-0.0085139023 -0.0034055412 0.66014171
-0.0085543096 -0.0051325858 0.6611172
-0.0086010108 -0.00688079 0.66224468
-0.0086421901 -0.0086421669 0.66323888
-0.0087147113 -0.010457665 0.66498971
-0.011143698 -0.015601188 0.72363067
-0.010696135 -0.017113835 0.71282542
-0.0092628142 -0.016673028 0.678222
-0.009231505 -0.018462956 0.67746615
-0.0095180962 -0.020939797 0.68438506
-0.0097881164 -0.023491472 0.69090396
-0.0098910145 -0.025716662 0.6933881
-0.0079671144 0.029876679 0.69502687
-0.0078679863 0.027537972 0.69203538
-0.0073508383 0.023890227 0.67642909
-0.0071887001 0.021566093 0.67153615
-0.0070828437 0.019477844 0.66834164
-0.0070051509 0.017512858 0.66599703
-0.0069454224 0.015627205 0.66419458
-0.0069146841 0.01382938 0.66326702
-0.0068809032 0.012041569 0.66224754
-0.0068536177 0.01028043 0.66142416
-0.0068349633 0.0085437298 0.66086119
-0.0068226145 0.0068226159 0.66048855
-0.0068168058 0.0051126182 0.66031325
-0.0068171769 0.003408581 0.66032445
-0.0068236152 0.0017059445 0.66051877
-0.0068360614 -2.9802322e-08 0.66089433
-0.0068530543 -0.0017132461 0.66140711
-0.0068632299 -0.0034315884 0.6617142
-0.0068949363 -0.0051712096 0.66267103
-0.0069342088 -0.0069341958 0.66385615
-0.0069826418 -0.0087282956 0.66531777
-0.0070411563 -0.010561705 0.66708362
-0.0090156356 -0.015777379 0.72666878
-0.0086476738 -0.017295331 0.71556461
-0.0074925306 -0.01685822 0.68070507
-0.0074588 -0.018646985 0.67968708
-0.0076896041 -0.021146387 0.68665224
-0.0079131555 -0.023739457 0.69339848
-0.0079974541 -0.025991708 0.6959424
-0.0060909423 0.030454695 0.69967854
-0.0059937793 0.02797097 0.69576895
-0.0056197555 0.024352312 0.68071938
-0.0054763812 0.021905512 0.67495048
-0.0053870166 0.019752413 0.67135477
-0.0053220019 0.017740011 0.66873872
-0.0052741505 0.01582244 0.66681337
-0.0052366527 0.013964415 0.66530454
-0.0052076029 0.012151062 0.66413569
-0.0051856907 0.010371357 0.66325402
-0.0051468932 0.0085781813 0.66169292
-0.0051422208 0.0068562925 0.66150486
-0.005137539 0.0051375329 0.66131657
-0.0051328838 0.0034219325 0.66112924
-0.0051282365 0.0017094016 0.6609422
-0.0051235808 2.9802322e-08 0.66075492
-0.005180161 -0.0017267168 0.66303146
-0.0052003143 -0.0034668446 0.66384238
-0.0052240412 -0.0052240193 0.66479707
-0.0052535506 -0.0070047379 0.66598451
-0.0052897069 -0.0088161528 0.66743928
-0.005333954 -0.01066792 0.66921967
-0.0068389904 -0.015957654 0.72977769
-0.0065552904 -0.017480791 0.71836245
-0.0056824936 -0.017047465 0.68324381
-0.0056504081 -0.01883468 0.68195277
-0.0058246711 -0.021357119 0.68896461
-0.0059981858 -0.023992777 0.69594634
-0.0060629211 -0.026272655 0.698551
-0.0040494711 0.0283463 0.69900513
-0.0038310543 0.024901837 0.68582249
-0.0037101118 0.022260696 0.67852294
-0.0036427474 0.020035088 0.67445719
-0.0035961713 0.017980874 0.671646
-0.0035605873 0.016022652 0.66949832
-0.0035338558 0.01413542 0.66788501
-0.0035130761 0.012295753 0.6666308
-0.0034972995 0.010491908 0.66567862
-0.0034697494 0.0086743832 0.66401583
-0.0034064767 0.0068129599 0.66019702
-0.0034033833 0.0051050782 0.66001028
-0.0034003076 0.003400296 0.65982461
-0.0033972485 0.001698643 0.65963995
-0.0034426411 -2.9802322e-08 0.66237974
-0.0034885095 -0.0017442107 0.66514808
-0.0035028819 -0.0035028756 0.66601551
-0.0035186594 -0.0052779913 0.66696787
-0.0035383918 -0.0070767701 0.66815877
-0.0035624381 -0.0089060962 0.66961008
-0.0035920793 -0.010776222 0.67139906
-0.0046120058 -0.01614204 0.73295707
-0.0044175549 -0.017670214 0.72122097
-0.0038313332 -0.017240971 0.6858393
-0.0038052259 -0.019026071 0.68426359
-0.003922198 -0.021572083 0.69132346
-0.0040418985 -0.024251401 0.69854808
-0.0040861289 -0.02655986 0.70121759
-0.0020525432 0.028735578 0.70236182
-0.0019744637 0.025668025 0.69293678
-0.0018875832 0.022651017 0.68244934
-0.0018490303 0.02033937 0.67779559
-0.0018228467 0.018228471 0.67463499
-0.0018035946 0.016232401 0.67231107
-0.0017888352 0.014310718 0.67052943
-0.0017777067 0.01244396 0.66918612
-0.0017692082 0.010615259 0.6681602
-0.0017586496 0.0087932646 0.66688567
-0.0017197351 0.0068789124 0.66218829
-0.0017071551 0.0051214993 0.6606698
-0.0017058456 0.0034117103 0.66051173
-0.0017142792 0.0017142892 0.66152978
-0.001735049 -0 0.66403687
-0.0017618759 -0.0017618835 0.66727519
-0.0017698153 -0.0035396218 0.66823351
-0.0017776814 -0.0053330362 0.66918308
-0.0017875762 -0.0071502924 0.67037749
-0.0017996702 -0.0089983344 0.67183733
-0.0018144583 -0.010886729 0.67362237
-0.0023329579 -0.016330659 0.73621082
-0.0022331364 -0.017865121 0.72416133
-0.0019376699 -0.017439008 0.6884954
-0.0019221574 -0.019221574 0.68662286
-0.0019813911 -0.021795273 0.69377297
-0.0020429809 -0.024515718 0.70120752
-0.0020656348 -0.026853234 0.70394206
0 0.02920863 0.70644045
0 0.026775658 0.70322156
0 0.023079187 0.68675667
0 0.02065286 0.68123615
0 0.018486351 0.67774779
0 0.016449243 0.67522013
0 0.014493257 0.67328376
0 0.012595713 0.67180371
0 0.010741562 0.67070091
0 0.0089083612 0.66966522
0 0.0069742799 0.66506594
0 0.0051808953 0.66306102
0 0.0034490526 0.66276717
0 0.0017310977 0.66356009
0 -0 0.66585064
0 -0.0017795563 0.66941047
0 -0.0035771728 0.67049932
0 -0.005389303 0.67144501
0 -0.0072253942 0.67264354
0 -0.0090925395 0.67411119
0 -0.011000574 0.67591286
0 -0.016523868 0.73954153
0 -0.018066436 0.72719926
0 -0.01923117 0.7125321
0 -0.019421071 0.689031
0 -0.022024155 0.69628429
0 -0.024785876 0.7039246
0 -0.027153343 0.70672852
0.0020896865 0.027165949 0.7068454
0.0019636925 0.023564279 0.69163662
0.0019086296 0.020994902 0.68498993
0.0018758503 0.018758506 0.68103313
0.0018524461 0.016672045 0.67820793
0.0018352828 0.014682263 0.6761362
0.0018219508 0.012753665 0.67452681
0.0018118107 0.010870874 0.67330283
0.0018039785 0.0090198815 0.67235738
0.0017694273 0.0070776939 0.66818672
0.0017474589 0.0052424371 0.66553485
0.0017436347 0.003487289 0.66507328
0.0017487231 0.0017487407 0.66568756
0.0017656061 -2.9802322e-08 0.66772544
0.0017972589 -0.0017972887 0.67154622
0.0018077521 -0.0036154687 0.67281288
0.0018155578 -0.0054466426 0.67375517
0.0018255203 -0.0073020756 0.67495769
0.0018377432 -0.0091887116 0.67643309
0.0018528234 -0.011116922 0.67825347
0.0023885528 -0.016719878 0.74292177
0.0022840446 -0.01827237 0.73030651
0.0021669932 -0.019502938 0.71617717
0.0019624757 -0.01962474 0.6914897
0.0020234417 -0.022257835 0.69884896
0.002088509 -0.025062114 0.70670325
0.0021123146 -0.027460128 0.70957685
0.0042383708 0.027549416 0.7104063
0.0040260921 0.024156541 0.69759405
0.0038829185 0.021356076 0.6889528
0.0038079191 0.019039601 0.68442619
0.0037571236 0.016907066 0.68136036
0.0037190744 0.014876336 0.67906392
0.0036904914 0.012916744 0.67733878
0.0036685204 0.01100558 0.67601269
0.0036521063 0.0091302991 0.67502201
0.0036001559 0.0072003305 0.67188656
0.0035394181 0.0053091347 0.66822064
0.0035263221 0.00352633 0.66743028
0.0035346549 0.0017673671 0.66793323
0.0035646081 2.9802322e-08 0.66974103
0.0036294565 -0.001814723 0.67365503
0.0036546807 -0.0036546886 0.6751774
0.0036702156 -0.0055053234 0.67611504
0.003690192 -0.0073803663 0.67732072
0.0037147808 -0.0092869401 0.67880476
0.0037452558 -0.011235774 0.68064409
0.0048338007 -0.016918272 0.74634361
0.0046207365 -0.018482924 0.73348403
0.0043950295 -0.019777626 0.71986139
0.0039665359 -0.019832671 0.69399953
0.0040902873 -0.022496581 0.70146859
0.0042240587 -0.025344342 0.70954239
0.0042729182 -0.027773976 0.71249139
0.0064564641 0.027978033 0.71438599
0.006361274 0.025445104 0.71055579
0.0059313253 0.021748185 0.69325602
0.0058026062 0.019342005 0.68807673
0.0057167956 0.017150372 0.68462402
0.0056541963 0.015077889 0.68210524
0.0056074536 0.013084084 0.68022442
0.005572068 0.011144161 0.67880064
0.0055454513 0.0092424154 0.67772961
0.0054945424 0.0073260665 0.67568123
0.0053775986 0.0053775907 0.6709758
0.0053495606 0.0035663843 0.66984761
0.0053589949 0.0017863512 0.67022723
0.0053982334 -2.9802322e-08 0.6718061
0.0054966146 -0.001832217 0.67576468
0.0055420524 -0.0036947131 0.67759287
0.0055652503 -0.0055652261 0.67852634
0.0055953097 -0.0074604154 0.67973578
0.0056323865 -0.0093872845 0.68122768
0.0056785806 -0.011357158 0.68308634
0.0073378226 -0.017121583 0.74984908
0.0070131957 -0.018701851 0.73678708
0.0070136543 -0.021040946 0.73680562
0.0060135652 -0.020045221 0.69656509
0.006201948 -0.022740453 0.70414507
0.0064082281 -0.025632918 0.71244514
0.0064834589 -0.028094977 0.7154721
0.0086350627 0.025905192 0.71518397
0.0080686752 0.022188872 0.69809175
0.0078625157 0.019656271 0.69187033
0.0077348943 0.017403513 0.68801904
0.007644257 0.015288502 0.68528378
0.0075750803 0.013256371 0.68319619
0.0075241625 0.011286259 0.68165958
0.0074858605 0.0093573332 0.68050373
0.0074355234 0.0074355304 0.6789847
0.0072637866 0.0054478347 0.67380208
0.0072192186 0.0036095977 0.67245716
0.0072229966 0.0018057525 0.67257118
0.0072708055 2.9802322e-08 0.67401385
0.0073967772 -0.0018491745 0.67781538
0.0074710781 -0.0037355423 0.68005764
0.0075023882 -0.0056267977 0.6810025
0.0075421669 -0.0075421333 0.68220294
0.0075918897 -0.0094898939 0.68370348
0.0076541384 -0.011481196 0.68558198
0.0077287415 -0.013525277 0.68783331
0.0094636763 -0.018927336 0.74018967
0.0094596958 -0.021284342 0.74006951
0.0081053376 -0.020263344 0.69919813
0.0083598988 -0.02298972 0.70688021
0.0086426698 -0.025927991 0.71541357
0.0087457336 -0.028423607 0.7185238
0.010951453 0.026283503 0.71898937
0.010316504 0.022696316 0.70366037
0.0099986959 0.019997388 0.69598776
0.0098176543 0.017671764 0.69161707
0.0096907131 0.015505135 0.68855244
0.0095980661 0.013437271 0.68631577
0.0095266858 0.011432052 0.68459249
0.0094751623 0.0094751716 0.68334854
0.0094253998 0.0075403452 0.68214726
0.0092126727 0.0055276155 0.67701155
0.0091348002 0.0036539435 0.6751315
0.0091280006 0.0018255711 0.67496735
0.0091831172 2.9802322e-08 0.67629802
0.0093258638 -0.0018651783 0.67974412
0.0094426898 -0.0037770867 0.68256462
0.0094830999 -0.0056898296 0.68354023
0.009532203 -0.0076257586 0.6847257
0.0095946789 -0.0095946789 0.68623394
0.0096733654 -0.011608034 0.68813366
0.0097675947 -0.013674647 0.69040853
0.011973973 -0.019158334 0.74367517
0.011963036 -0.021533489 0.74341118
0.010243387 -0.020486772 0.70189512
0.010565677 -0.02324447 0.70967585
0.010929207 -0.026230097 0.71845233
0.01106264 -0.028762907 0.72167367
0.013337151 0.0266743 0.72292066
0.012749834 0.023374707 0.71110475
0.012217778 0.020362973 0.70040065
0.011966391 0.017949581 0.69534314
0.011799429 0.015732586 0.69198406
0.011676983 0.013623148 0.68952066
0.011585014 0.011584997 0.68767041
0.011515205 0.0095959902 0.68626595
0.011461307 0.0076408684 0.68518162
0.011219559 0.0056098104 0.680318
0.011097996 0.0036993027 0.67787236
0.011082141 0.0018470585 0.67755336
0.011135661 -2.9802322e-08 0.67863017
0.011287814 -0.0018813312 0.68169123
0.011457765 -0.0038192272 0.68511033
0.011508715 -0.0057543814 0.68613541
0.011566848 -0.0077112317 0.68730497
0.011642206 -0.009701848 0.68882096
0.011737657 -0.011737645 0.6907413
0.011851973 -0.013827294 0.69304127
0.014550672 -0.019400924 0.74733484
0.014525609 -0.021788418 0.74683058
0.012434928 -0.020724893 0.70476937
0.01282089 -0.023504972 0.71253437
0.013269652 -0.026539296 0.72156268
0.013435757 -0.029110789 0.72490448
0.015846031 0.027164608 0.72785294
0.01560834 0.024527431 0.72375411
0.014532518 0.020760775 0.70520222
0.014193192 0.018248379 0.69935077
0.0139736 0.015969813 0.69556403
0.01381465 0.013814628 0.69282305
0.013699128 0.011742115 0.69083095
0.01361134 0.0097224116 0.68931705
0.013546325 0.0077407956 0.68819588
0.013319151 0.0057082176 0.68427849
0.013114187 0.0037469566 0.68074393
0.013082641 0.0018689632 0.68019998
0.013129722 -0 0.6810118
0.013288428 -0.0018983483 0.68374866
0.013515693 -0.0038616061 0.68766767
0.013580993 -0.0058204234 0.68879372
0.013648893 -0.0077993572 0.68996471
0.013737276 -0.0098122954 0.69148874
0.013848624 -0.011870235 0.69340885
0.013983475 -0.013983458 0.69573432
0.017195135 -0.019651622 0.75111747
0.017149588 -0.022049457 0.75033194
0.01468786 -0.020982653 0.70788097
0.015127221 -0.023771346 0.7154575
0.015665865 -0.026855767 0.72474611
0.015867062 -0.029467404 0.72821558
0.018132227 0.024931788 0.72819209
0.016968142 0.021210194 0.71062744
0.016499264 0.018561661 0.70355254
0.016216258 0.016216278 0.69928235
0.016019296 0.014016867 0.69631046
0.01587143 0.011903554 0.69407928
0.015763611 0.0098522604 0.69245249
0.015683196 0.0078416169 0.69123912
0.015510851 0.0058165789 0.68863863
0.015192424 0.0037981272 0.6838339
0.015131261 0.0018914044 0.68291104
0.015173593 -0 0.68354976
0.015333082 -0.001916647 0.68595624
0.015616505 -0.0039041042 0.69023275
0.015701776 -0.005888164 0.69151938
0.015779333 -0.0078896582 0.69268966
0.015880685 -0.0099254251 0.69421899
0.016007764 -0.012005836 0.69613647
0.016163677 -0.014143229 0.69848895
0.019912897 -0.019912899 0.75506037
0.019837206 -0.022316843 0.75391829
0.016997542 -0.02124694 0.71107101
0.017486425 -0.024043828 0.71844769
0.018119996 -0.027180016 0.72800756
0.01835859 -0.029832661 0.73160762
0.020711167 0.025313646 0.7323823
0.019580107 0.021755666 0.71721214
0.018899925 0.018899918 0.70808935
0.018538212 0.016478449 0.70323795
0.018289451 0.014225155 0.69990146
0.018108528 0.012072355 0.6974749
0.017974161 0.0099856257 0.69567269
0.01787648 0.0079450905 0.69436264
0.01774049 0.005913496 0.69253868
0.017328173 0.0038506985 0.6870085
0.017229654 0.0019144118 0.68568712
0.017267443 -0 0.686194
0.017424252 -0.0019360185 0.68829721
0.017760152 -0.0039466918 0.69280231
0.017872436 -0.0059574842 0.6943084
0.01795961 -0.0079820156 0.69547755
0.018074004 -0.010041088 0.69701183
0.018216869 -0.012144566 0.698928
0.018394189 -0.014306575 0.70130622
0.02270597 -0.020183086 0.75913709
0.022588884 -0.022588879 0.75756669
0.019366059 -0.021517843 0.71434128
0.019900344 -0.024322659 0.72150725
0.020634107 -0.027512133 0.73134875
