# .PCD v0.7 - Point Cloud Data file format
VERSION 0.7
FIELDS x y z
SIZE 4 4 4
TYPE F F F
COUNT 1 1 1
WIDTH 293
HEIGHT 1
VIEWPOINT 0 0 0 1 0 0 0
POINTS 293
DATA ascii
-0.02131862 -0.078168258 0.66904664
-0.012535829 -0.071633279 0.67077053
-0.012535829 -0.071633279 0.67077053
-0.012587956 -0.066536367 0.67166948
-0.019763174 -0.062882811 0.67147303
-0.018049546 -0.05775854 0.67247522
-0.010851021 -0.057872146 0.6729036
0.0036292721 -0.068956137 0.67364383
-0.012716934 -0.054501146 0.67389357
0.0073021338 -0.080323473 0.6749593
-0.0091072991 -0.047357947 0.67446756
-0.018196184 -0.045490444 0.67424524
-0.0091199484 -0.045599729 0.67477292
-0.0055015101 -0.036676735 0.67596155
0.007354944 -0.062516987 0.67655295
-0.011007539 -0.040360987 0.67605251
-0.018377837 -0.033080101 0.67643803
-0.0036770394 -0.033093333 0.6765269
-0.018406706 -0.031291395 0.67678654
-0.018406706 -0.031291395 0.67678654
-0.016544307 -0.031250358 0.67649508
0.0073776362 -0.055332273 0.67723781
0.0073833242 -0.053529084 0.67740941
0.0055507007 -0.038854897 0.67794085
-0.012900924 -0.036859781 0.67706639
-0.011073067 -0.033219159 0.67737079
-0.0055306992 -0.029497057 0.67713606
0.014840999 -0.077915251 0.67853129
0.0074264463 -0.040845454 0.67871082
-0.0055757309 -0.018585742 0.67894799
0.013031241 -0.068879426 0.6793136
0.013031241 -0.068879426 0.6793136
-0.01115515 -0.024169475 0.67902219
-0.011186699 -0.020508945 0.67965698
-0.013064682 -0.013064653 0.67989033
-0.028044706 -0.071046561 0.68028426
0.016876895 -0.071258008 0.68095583
-0.0037352743 -0.011205792 0.68004167
0.015025956 -0.056347281 0.68132204
-0.024441674 -0.050763488 0.68154955
0.015081265 -0.050899267 0.68215662
-0.011307967 -0.0018846393 0.6820966
-0.013245362 0.0094609559 0.68300605
-0.0095036337 0.0076029301 0.6840359
-0.024919217 -0.036420375 0.68598378
0.015275795 -0.032461077 0.68509185
0.011457327 -0.001909554 0.68510157
0.0095602144 0.0095601678 0.68540192
0.0095602144 0.0095601678 0.68540192
0.013422925 -0.0057526529 0.68606794
0.013465292 0.0019236207 0.68679857
-0.005768023 0.024994761 0.68668526
-0.0096202102 0.032708734 0.68685037
-0.023148322 -0.023148328 0.68745208
0.01736787 -0.01736787 0.68754101
0.015405843 -0.015405834 0.68705416
0.015434892 -0.0096467733 0.68749243
0.011563462 0.01734519 0.68723679
0.01164356 0.03104949 0.68884826
-0.0077673136 0.044662058 0.68899739
-0.025270052 -0.027213901 0.68924141
0.019497965 -0.0019497573 0.68995917
0.013603251 0.02526322 0.68917757
0.021549959 0.0039182007 0.69108063
0.0098220864 0.053039283 0.69172406
-0.0019657216 0.057005912 0.69188154
0.0019629914 0.058889776 0.69155192
0.023794217 0.019828528 0.69394928
0.015807498 0.047422528 0.69311464
0.015837142 0.051470727 0.69356191
-0.0079440614 0.057594448 0.69433117
0.015882576 0.057574362 0.69424748
0.013896536 0.06551224 0.69423509
0.02194267 0.031916589 0.69539016
-0.0059748124 0.065722942 0.69500583
-0.001998126 0.077926904 0.69579303
0.026056068 0.030064702 0.69653988
0 0.084113091 0.69634426
0.0080035944 0.088039547 0.69612777
0.010038172 0.092351198 0.69694078
-0.024175325 0.0040292442 0.69778287
-0.0080686752 0.074635267 0.69809175
0.01821606 0.089056283 0.69891715
0.022275876 0.056702226 0.69904667
0.022329016 0.064957112 0.69962984
0.018233983 0.091169924 0.69915754
-0.020395417 0.03467223 0.70079243
0.022401994 0.075352162 0.70043069
-0.020468421 0.036843181 0.70167363
-0.012263494 0.07358095 0.70132041
0.02460609 0.063565701 0.70211613
0.029697903 0.084851146 0.71065891
0.029683555 0.086930394 0.71053517
-0.0043484499 -0.082620531 0.71705008
0 -0.069726408 0.71762043
-0.0043726377 -0.07433483 0.71850991
0 -0.063569069 0.71920019
0 -0.055169493 0.72097993
0.0022146138 -0.044292241 0.7219255
0.0044447295 -0.028890759 0.72286105
0.0044447295 -0.028890759 0.72286105
0.0022451708 -0.026942074 0.72561401
0.004526536 -0.011316359 0.72779858
0.004526536 -0.011316359 0.72779858
0 2.9802322e-08 0.73060513
0.0045758802 0.0045758784 0.73077673
0.0022912824 0.0045825839 0.73118013
0.0069970791 0.037317753 0.7361387
0.009337578 0.042019099 0.73638433
0.0093687428 0.046843708 0.73732477
0.007049127 0.049343914 0.73823291
0.0047098356 0.051808178 0.73886162
-0.014310272 -0.075128913 0.67052329
-0.023255773 -0.07334511 0.67053789
-0.010754758 -0.069009081 0.67096698
-0.017965877 -0.066473752 0.67146528
0.0054514008 -0.076319575 0.67394531
-0.0090697268 -0.052604377 0.67356044
0.0073324176 -0.069657952 0.67587316
-0.01638741 -0.047341406 0.67439079
-0.01462449 -0.047529578 0.67526448
-0.010958998 -0.045662522 0.67507595
0.0091960113 -0.080924883 0.67660928
0.0091960113 -0.080924883 0.67660928
0.0092017613 -0.07913515 0.6767481
0.0073605976 -0.060724914 0.67672354
0.0073662866 -0.058930308 0.67689526
0.0055159847 -0.051482528 0.67654401
0.0037010009 -0.042561501 0.67797315
-0.011007539 -0.040360987 0.67605251
-0.016588675 -0.027647793 0.67709017
-0.0073900581 -0.027712703 0.67761266
0.014909987 -0.0689587 0.67957228
0.013048086 -0.067104429 0.67960411
0.0092866253 -0.052933425 0.67879695
0.0093188118 -0.044730276 0.67957401
0.0037132232 -0.040845454 0.67871082
-0.020372685 -0.031485021 0.67816156
-0.016678685 -0.020385027 0.6782974
-0.0074424082 -0.018606007 0.67919242
0.013098933 -0.061752111 0.68048096
-0.026338033 -0.058319926 0.6816895
0.011252107 -0.046883732 0.68097281
0.0074803769 -0.02618131 0.68033826
0.0094009619 -0.024442524 0.68155724
-0.01121587 -0.016823798 0.68024379
-0.0093620876 -0.013106883 0.68061876
0.0075298804 -0.013177305 0.68183219
-0.016842052 -0.0093567073 0.68048859
-0.0056471555 -0.0018823445 0.68182188
-0.030296504 -0.072899431 0.6831674
0.015081265 -0.050899267 0.68215662
0.017086808 -0.041767746 0.68377131
0.011372779 -0.018954635 0.68340063
0.011381791 -0.017072678 0.68358183
0.0094781052 -0.0075824857 0.68341964
-0.0018898004 0.005669415 0.68271703
-0.0018949176 0.0094746351 0.68333471
0.015238984 -0.036192566 0.68453646
0.015275795 -0.032461077 0.68509185
0.017229455 -0.02871576 0.6856845
0.011472413 0.00095646083 0.68540502
0.011472413 0.00095646083 0.68540502
-0.0095134992 0.0095135272 0.68427414
0.0095697222 0.011483669 0.68563145
-0.027068364 -0.040602535 0.68798655
0.01736787 -0.01736787 0.68754101
0.019305153 -0.017374605 0.68763179
0.015453902 -0.0057952404 0.68777931
0.015463872 -0.0038659275 0.68792975
0.011585148 0.02123946 0.68767309
-0.0077047311 0.026966572 0.68710876
-0.0077047311 0.026966572 0.68710876
-0.0019192523 0.026869535 0.6862722
-0.0038614182 0.032822043 0.68765515
0.017412866 -0.013543338 0.68814445
0.013567052 0.019381523 0.68855333
-0.015511331 0.027144819 0.68864584
0.01164356 0.03104949 0.68884826
0.013641823 0.031181306 0.6898427
-0.013573782 0.036843151 0.68866938
-0.0058284258 0.038856208 0.68911564
-0.0077673136 0.044662058 0.68899739
0.00097063929 0.044663802 0.68900645
0.0038821802 0.044645101 0.68890822
0.021599518 0.0078543723 0.69162446
0.017641455 0.013721138 0.69121033
0.01765245 0.015691072 0.69135785
0.01765245 0.015691072 0.69135785
0.01370658 0.041119784 0.69095945
-0.013729091 0.045109868 0.6913476
-0.0019625989 0.05495277 0.6915046
0.0039244588 0.058866888 0.69146001
-0.021664215 0.00098611414 0.69233447
-0.015850374 0.03170076 0.69376159
0.015793651 0.045406759 0.69290572
-0.0039349059 0.055088699 0.69209051
0.0039519994 0.069159985 0.69312221
0.01994486 0.041884214 0.69535363
-0.0099650817 0.055804491 0.69517624
0.017962333 0.057878643 0.69551408
-0.0079591302 0.059693485 0.69478595
0.01797818 0.059927285 0.69572663
-0.0059748124 0.065722942 0.69500583
0.011944966 0.075651407 0.69491208
0.0039747283 0.077507198 0.69449401
0.0039747283 0.077507198 0.69449401
-0.024077507 0.0020064712 0.69679892
-0.012039816 0.056185812 0.69682032
-0.010004973 0.060029835 0.69613934
-0.0020014909 0.080059618 0.69619924
0.014052652 0.08632344 0.69692719
0.0040043434 0.088095576 0.69628143
0.0060198111 0.092303783 0.69681644
0.0080257393 0.092296034 0.696796
0.022357224 0.069104165 0.69993931
-0.0080686752 0.074635267 0.69809175
-0.0060651749 0.082890749 0.69864166
0.018180391 0.084841847 0.69843876
0.020306107 0.085285634 0.6997143
-0.020395417 0.03467223 0.70079243
-0.012205012 0.069161713 0.70014381
-0.01857369 0.051593602 0.70371377
0.027062846 0.072861522 0.70588827
0.027133515 0.054267049 0.7065444
0 -0.079489529 0.71392864
0 -0.077567667 0.71468806
0 -0.077567667 0.71468806
-0.0021795761 -0.076285183 0.71769601
-0.0065560634 -0.076487392 0.7183935
-0.0043666847 -0.076416999 0.71815062
-0.0021984223 -0.063754261 0.719971
-0.0044086995 -0.061721802 0.72068644
0.0022451708 -0.026942074 0.72561401
0.0022750301 -0.0068250895 0.72921842
0.0022750301 -0.0068250895 0.72921842
0.0068053184 -2.9802322e-08 0.72842276
0.0023011244 0.011505604 0.73236817
0.0023170121 0.023170114 0.73428601
0.0046302075 0.02315104 0.7340557
0.0046302075 0.02315104 0.7340557
0.0046638716 0.034979045 0.73608744
0.0070285313 0.04451403 0.73740417
0.007038814 0.046925426 0.73781794
0.0070698112 0.054201871 0.73906517
-0.0098170834 -0.07407251 0.67005366
-0.025252601 -0.075757802 0.67233068
0.0063880594 -0.073888488 0.67482436
-0.021807209 -0.053608492 0.67396152
-0.0066443514 -0.053156137 0.67334485
-0.01739312 -0.037532136 0.67560285
-0.025942778 -0.06948854 0.67828155
0.0018561854 -0.054289669 0.67865932
0.009300746 -0.049293578 0.67913783
0.0093151871 -0.045644045 0.67948651
-0.013919201 -0.021344967 0.67865193
-0.0027957489 -0.013977922 0.6795795
0.011227259 -0.053329185 0.68047297
0.0037477103 -0.037477106 0.68079221
0.010330064 -0.034500603 0.68125141
-0.010322305 -0.010321617 0.68114448
-0.010322305 -0.010321617 0.68114448
-0.010400413 0.0023654215 0.68289542
-0.0028281293 0.0018869987 0.68216848
0.014353504 -0.022002839 0.68555653
-0.021129677 -0.018247232 0.6864686
0.014413822 -0.010567077 0.68652523
0.014413822 -0.010567077 0.68652523
-0.0031720242 0.014591089 0.68432665
0.010565696 0.014405608 0.68644506
0.010599863 0.018309049 0.68722653
-0.0067182831 0.022073194 0.68628395
-0.023206836 -0.021272928 0.68804067
0.014676735 0.034240358 0.69077635
-0.0067841839 0.037805781 0.68862343
0.014703575 0.038223438 0.69120932
0.0058958214 0.060923517 0.69182742
0.015123105 0.046678148 0.6926806
-0.0099551976 0.0547546 0.69493765
0.0027438747 0.082852602 0.69558901
0.0090136807 0.0891326 0.69637716
0.024601959 0.062530145 0.70207453
-0.010188937 0.078455955 0.7005806
0.022459954 0.08269386 0.70106667
-0.014627723 0.082543835 0.70684397
-0.019088918 0.065750748 0.71062422
-0.0044056736 -0.062780082 0.72050381
0 -0.037959099 0.72413129
0.0011200255 -0.030267507 0.72524339
-0.0022522765 -0.025900438 0.72647178
0.0011383231 -0.0056934804 0.72954112
0.0090819029 0.014759481 0.72866857
0.0057948688 0.026661441 0.73444283
