# .PCD v0.7 - Point Cloud Data file format
VERSION 0.7
FIELDS x y z
SIZE 4 4 4
TYPE F F F
COUNT 1 1 1
WIDTH 1336
HEIGHT 1
VIEWPOINT 0 0 0 1 0 0 0
POINTS 1336
DATA ascii
-0.041958399 0.052836508 0.64218408
-0.042244293 0.051631927 0.64346224
-0.042804852 0.050731659 0.64596838
-0.043289859 0.049703181 0.64813673
-0.043564305 0.048404783 0.64936376
-0.043828599 0.047075182 0.6505453
-0.043198086 0.044798017 0.64772648
-0.043477099 0.043477088 0.64897382
-0.044116996 0.042483032 0.65183473
-0.044593919 0.0412907 0.65396684
-0.044930585 0.039938271 0.65547204
-0.045141522 0.038453907 0.6564151
-0.045303799 0.036914229 0.65714061
-0.045438956 0.035341412 0.65774482
-0.045396969 0.033627391 0.65755713
-0.044684779 0.031444818 0.65437311
-0.044620723 0.029747188 0.65408671
-0.044734199 0.028165966 0.65459406
-0.04495959 0.02664271 0.65560174
-0.045243561 0.025135309 0.65687132
-0.045434523 0.023558646 0.65772504
-0.037835781 0.018217236 0.62375283
-0.037663423 0.016739339 0.62298226
-0.03760932 0.015322328 0.62274039
-0.037880763 0.01402992 0.62395394
-0.038712796 0.012904227 0.62767375
-0.039914913 0.011826605 0.63304818
-0.040540118 0.056132495 0.64281428
-0.040644612 0.054713905 0.6432994
-0.040824834 0.053386331 0.64413613
-0.040911626 0.051926255 0.64453912
-0.041154683 0.050651938 0.64566749
-0.041623976 0.049628586 0.64784634
-0.042199291 0.048691481 0.65051734
-0.0424718 0.047372341 0.65178251
-0.042734649 0.046021938 0.65300286
-0.042145427 0.043766439 0.65026724
-0.042382687 0.042382687 0.6513688
-0.043002479 0.041348547 0.65424633
-0.043482833 0.040138006 0.6564765
-0.043826196 0.038769305 0.65807056
-0.044039987 0.037264585 0.65906322
-0.044201143 0.035700917 0.65981138
-0.044336721 0.034105182 0.6604408
-0.044300031 0.03237313 0.66027045
-0.043600146 0.030184746 0.65702116
-0.043541048 0.028469175 0.65674675
-0.043656182 0.026865333 0.65728128
-0.043883115 0.025317192 0.65833485
-0.044161681 0.023779333 0.65962815
-0.036290739 0.018145382 0.62308562
-0.036125969 0.016673535 0.62232065
-0.036073379 0.015261829 0.62207645
-0.03632164 0.013969898 0.62322909
-0.037005402 0.012809545 0.62640357
-0.037915785 0.011666387 0.63063025
-0.039187778 0.010550559 0.63653576
-0.038949568 0.056087375 0.64266306
-0.039279304 0.054991007 0.64425516
-0.039561044 0.053803056 0.64561558
-0.039753027 0.052474022 0.64654255
-0.03984559 0.051002353 0.64698946
-0.040052272 0.049664825 0.64798737
-0.040457081 0.04854849 0.64994198
-0.041077245 0.047649592 0.6529364
-0.041351818 0.046314031 0.65426219
-0.04161277 0.044941843 0.65552211
-0.041066457 0.042709053 0.65288436
-0.041262198 0.041262209 0.65382946
-0.041851684 0.040177643 0.6566757
-0.042343419 0.038955927 0.65905005
-0.042692717 0.037569612 0.66073662
-0.042909313 0.036043823 0.66178238
-0.043068875 0.034455121 0.66255283
-0.043204833 0.032835692 0.66320932
-0.043173373 0.031084836 0.66305745
-0.042486373 0.028890729 0.65974027
-0.042432185 0.027156621 0.6594786
-0.042548951 0.025529385 0.66004241
-0.042776957 0.023955077 0.66114336
-0.034757741 0.018074036 0.62242317
-0.034600552 0.016608238 0.62166417
-0.034576926 0.015213847 0.62155008
-0.034803677 0.013921499 0.6226449
-0.035408877 0.012747169 0.62556714
-0.036161542 0.011571705 0.62920129
-0.037098445 0.01038757 0.63372505
-0.038446419 0.0092271566 0.64023364
-0.037282694 0.057477504 0.64211535
-0.037495259 0.056242913 0.64318448
-0.037822146 0.055157304 0.64482862
-0.038146053 0.054040283 0.64645773
-0.038441565 0.052857131 0.64794409
-0.038653649 0.051538199 0.64901072
-0.038760699 0.050065875 0.64954919
-0.038922891 0.048653603 0.650365
-0.039283738 0.047467858 0.65217984
-0.039919578 0.046572864 0.65537786
-0.04020277 0.045228124 0.6568023
-0.040461496 0.043833315 0.65810353
-0.039974194 0.041639775 0.65565258
-0.040120702 0.040120691 0.65638947
-0.040664963 0.03897059 0.65912694
-0.041174721 0.037743509 0.66169083
-0.041525692 0.036334962 0.66345602
-0.041748013 0.034789979 0.66457427
-0.041906085 0.033175677 0.66536927
-0.042041942 0.031531453 0.66605258
-0.042015608 0.029761046 0.66592014
-0.041342273 0.027561486 0.66253352
-0.041292943 0.025808066 0.66228545
-0.041411135 0.024156481 0.66287982
-0.033236846 0.018003315 0.62176633
-0.033087116 0.016543567 0.62101328
-0.033112571 0.015176624 0.62114125
-0.033319384 0.013883084 0.62218153
-0.033886526 0.012707472 0.62503403
-0.03453448 0.011511505 0.62829292
-0.035291716 0.010293424 0.63210154
-0.036251958 0.0090630054 0.63693118
-0.037723292 0.0078590214 0.64433146
-0.035676636 0.057392865 0.64183927
-0.03601516 0.05637157 0.64361596
-0.036342371 0.055303633 0.64533323
-0.036668338 0.054205358 0.647044
-0.036986053 0.053066969 0.64871144
-0.037290949 0.051883072 0.65031165
-0.037519392 0.050569594 0.6515106
-0.037646793 0.049104512 0.65217924
-0.03777308 0.047626942 0.65284204
-0.03808938 0.046369672 0.65450209
-0.038721588 0.045455754 0.65782011
-0.039023843 0.044113904 0.65940642
-0.039280251 0.04269591 0.66075206
-0.038876459 0.040566772 0.65863287
-0.038949486 0.03894946 0.65901613
-0.039448965 0.037733793 0.66163754
-0.0399753 0.036499202 0.66439986
-0.040327184 0.035067141 0.66624671
-0.040555134 0.033502072 0.66744304
-0.040711224 0.031860977 0.66826224
-0.040847056 0.030191302 0.66897511
-0.040825751 0.02840054 0.6688633
-0.040166587 0.026195645 0.66540384
-0.040122055 0.024422139 0.66517013
-0.040241309 0.022745103 0.66579598
-0.031585433 0.016479343 0.62036747
-0.031674016 0.015148461 0.62083238
-0.031905401 0.013871908 0.62204671
-0.032415863 0.012684464 0.62472576
-0.032984752 0.01147297 0.62771147
-0.03363185 0.010235786 0.63110763
-0.034400214 0.0089739561 0.63514024
-0.035376143 0.0076904595 0.64026219
-0.037033308 0.0064405799 0.64895952
-0.034163076 0.057456076 0.64204556
-0.03450565 0.056463778 0.64392525
-0.034840386 0.055427939 0.64576185
-0.035162907 0.054342657 0.64753151
-0.035487343 0.053231001 0.6493116
-0.035798483 0.052070528 0.6510188
-0.036108371 0.050879985 0.65271908
-0.036348626 0.049566299 0.65403736
-0.036502421 0.048116863 0.65488118
-0.036598176 0.04657951 0.65540659
-0.036878712 0.04526028 0.65694582
-0.037474435 0.044288009 0.66021448
-0.037814029 0.042970508 0.66207778
-0.038067456 0.041528136 0.6634683
-0.038288847 0.040029258 0.6646831
-0.037752427 0.03775245 0.66173977
-0.038202874 0.03646639 0.66421133
-0.038744077 0.035221934 0.66718084
-0.039096214 0.033764899 0.66911292
-0.039329063 0.032178342 0.67039055
-0.039483249 0.03050977 0.67123652
-0.039618675 0.028813601 0.67197961
-0.039602283 0.02700153 0.67188966
-0.038957983 0.024791449 0.66835451
-0.038918182 0.022997111 0.66813612
-0.030095194 0.016415566 0.6197257
-0.030256497 0.015128255 0.62061077
-0.030521512 0.013873428 0.62206483
-0.030982131 0.01267451 0.62459219
-0.031488445 0.01145035 0.62737024
-0.03205419 0.01019907 0.63047439
-0.032701522 0.0089186132 0.63402629
-0.033480406 0.0076091886 0.63829988
-0.034490407 0.0062709749 0.64384162
-0.036740117 0.0050100088 0.65618539
-0.032360036 0.058556259 0.64060754
-0.032454289 0.057181388 0.64114934
-0.032959424 0.056501895 0.64405292
-0.033308282 0.055513829 0.64605814
-0.033635076 0.05445683 0.64793664
-0.033955943 0.053359389 0.64978099
-0.034274604 0.052227974 0.6516127
-0.034582447 0.051050305 0.65338224
-0.03489089 0.049844116 0.65515524
-0.035147417 0.048536897 0.6566298
-0.035318602 0.047091484 0.65761375
-0.03540333 0.045518607 0.65810072
-0.035642311 0.044128597 0.65947449
-0.03614885 0.043034375 0.66238612
-0.036571722 0.041796237 0.66481686
-0.036822151 0.040329009 0.66625631
-0.037056021 0.038820624 0.66760063
-0.036525831 0.036525846 0.66455305
-0.036925282 0.035166949 0.66684914
-0.037479781 0.033910275 0.67003649
-0.037831578 0.032427073 0.67205864
-0.038068287 0.030817211 0.6734193
-0.038220465 0.029120356 0.67429405
-0.038354814 0.027396291 0.67506629
-0.03834362 0.025562435 0.67500192
-0.03771507 0.023347437 0.67138898
-0.028702902 0.016401678 0.61958587
-0.028855901 0.015114993 0.62046528
-0.029163523 0.013887405 0.62223363
-0.029575849 0.012675315 0.62460369
-0.030030351 0.011440128 0.62721622
-0.030531745 0.010177255 0.63009828
-0.031094451 0.0088841021 0.63333285
-0.031742122 0.0075576305 0.6370557
-0.032527935 0.0061958134 0.64157259
-0.033572745 0.0047961175 0.64757836
-0.030685363 0.058302194 0.63980043
-0.030532382 0.056484908 0.63887715
-0.03096815 0.055742651 0.64150727
-0.031708002 0.055489033 0.64597261
-0.032083526 0.054541975 0.64823914
-0.032402031 0.053463399 0.65016145
-0.032720499 0.052352786 0.65208364
-0.033031221 0.051198423 0.65395898
-0.033336684 0.050005049 0.65580261
-0.033638801 0.048776239 0.65762603
-0.033909399 0.047473162 0.65925932
-0.034094594 0.04602769 0.66037703
-0.034182057 0.044436663 0.66090488
-0.034381229 0.042976558 0.66210699
-0.034794245 0.041753054 0.66459978
-0.035296179 0.040590614 0.66762924
-0.035542894 0.03909719 0.66911823
-0.035778113 0.037567049 0.67053789
-0.035267573 0.035267591 0.66745651
-0.035614744 0.03383401 0.66955191
-0.036179092 0.032561153 0.67295808
-0.036531597 0.031051844 0.67508566
-0.036770802 0.029416651 0.67652929
-0.036921661 0.027691275 0.67743987
-0.037053723 0.025937647 0.6782369
-0.02727017 0.017725617 0.61918795
-0.027330946 0.016398579 0.61955476
-0.027469514 0.015108258 0.62039113
-0.027820108 0.013910085 0.6225071
-0.028195648 0.012688041 0.62477368
-0.02860189 0.011440754 0.62722558
-0.029049657 0.01016736 0.62992811
-0.029545566 0.0088636577 0.63292122
-0.030103911 0.0075259805 0.63629109
-0.03075392 0.0061507821 0.64021432
-0.031544186 0.0047316253 0.64498395
-0.032629922 0.0032629967 0.65153694
-0.029025158 0.058050305 0.63900042
-0.028881166 0.056242257 0.6380856
-0.029124392 0.055183023 0.63963085
-0.029595774 0.054518521 0.64262563
-0.03042151 0.054438531 0.64787167
-0.030820047 0.05352959 0.65040368
-0.031140273 0.052446753 0.6524381
-0.031455558 0.051322252 0.65444118
-0.031757873 0.050143987 0.65636182
-0.03206021 0.048934013 0.65828264
-0.03235437 0.04768011 0.66015148
-0.032634027 0.046374679 0.66192818
-0.03283681 0.044934541 0.66321653
-0.032936577 0.043337613 0.66385043
-0.033093311 0.041802078 0.66484612
-0.033444434 0.040485352 0.66707695
-0.033984587 0.039350569 0.67050856
-0.034228202 0.037831187 0.67205626
-0.034460966 0.036274701 0.67353511
-0.033980217 0.03398025 0.67048085
-0.034276702 0.03247267 0.67236447
-0.034835875 0.031168938 0.67591697
-0.035194911 0.029637814 0.67819804
-0.03543577 0.027975589 0.67972827
-0.03558499 0.0262205 0.68067628
-0.025846232 0.017684251 0.61880404
-0.025968725 0.01640135 0.61958224
-0.026164843 0.015148073 0.62082827
-0.026485432 0.013939679 0.62286502
-0.026829105 0.012708545 0.6250484
-0.027197992 0.011451781 0.62739205
-0.027597815 0.010167629 0.62993222
-0.028037908 0.0088540614 0.63272816
-0.028527485 0.0075072348 0.63583857
-0.029081538 0.0061224103 0.63935858
-0.029730814 0.0046943724 0.64348352
-0.030524757 0.0032131672 0.64852762
-0.031675547 0.0016671121 0.65583885
-0.027379237 0.057800621 0.6382072
-0.027243908 0.056001365 0.63729966
-0.027476043 0.054952085 0.63885641
-0.027865471 0.054182857 0.64146793
-0.028272219 0.053403109 0.64419562
-0.029056082 0.053269506 0.64945233
-0.029524811 0.052488536 0.6525957
-0.029848693 0.051406115 0.65476769
-0.030155106 0.050258517 0.6568225
-0.030453451 0.049063891 0.65882331
-0.030751981 0.047836423 0.66082525
-0.031037692 0.046556562 0.6627413
-0.031320374 0.045240521 0.66463703
-0.031534214 0.043797553 0.66607112
-0.031655356 0.042207152 0.66688347
-0.03177407 0.04060021 0.66767955
-0.032082044 0.039211392 0.66974491
-0.032632086 0.038070798 0.67343354
-0.032876879 0.036529899 0.67507517
-0.033105399 0.034944594 0.67660767
-0.032657053 0.032657087 0.67360097
-0.032911837 0.031083375 0.67530966
-0.033455878 0.029738545 0.678958
-0.033820078 0.028183371 0.68140042
-0.024463357 0.019027054 0.61865282
-0.024504624 0.017697781 0.61892956
-0.02461385 0.016409248 0.61966205
-0.024869196 0.015197873 0.62137449
-0.025158606 0.013977021 0.62331527
-0.025471535 0.012735754 0.62541384
-0.025807641 0.011470109 0.62766778
-0.026169078 0.010176897 0.63009167
-0.026561759 0.0088539124 0.632725
-0.02699364 0.0074982345 0.63562131
-0.027476043 0.0061058104 0.63885635
-0.028026322 0.0046710372 0.64254665
-0.028672112 0.0031858087 0.64687729
-0.029477462 0.0016376376 0.65227818
-0.030699676 2.9802322e-08 0.66047448
-0.025747493 0.057553232 0.63742125
-0.025824647 0.056206614 0.63796914
-0.025984239 0.055025429 0.63910234
-0.026206711 0.053955019 0.64068204
-0.026577897 0.05315581 0.6433177
-0.026958892 0.052331954 0.64602298
-0.02749072 0.051747292 0.64979929
-0.028182589 0.051391751 0.65471202
-0.028526431 0.050340772 0.65715349
-0.028822698 0.04916811 0.65925717
-0.029116808 0.047957093 0.6613456
-0.029406406 0.046704322 0.66340184
-0.02968731 0.045404106 0.66539645
-0.029967191 0.044069439 0.66738379
-0.030193124 0.042625546 0.66898811
-0.030336555 0.04104358 0.67000651
-0.030426513 0.039375484 0.6706453
-0.030688211 0.037908971 0.67250347
-0.031231768 0.036743283 0.67636311
-0.031487156 0.035191506 0.67817652
-0.031711008 0.033576369 0.67976594
-0.031303834 0.031303853 0.67687482
-0.031514104 0.029660344 0.67836785
-0.03203743 0.028268337 0.68208379
-0.023071695 0.019000232 0.61842144
-0.023167461 0.017716318 0.61910146
-0.023321813 0.016462475 0.62019747
-0.023573171 0.015253246 0.62198222
-0.023840088 0.014023602 0.62387747
-0.024121733 0.012770325 0.62587738
-0.024426449 0.011494815 0.62804103
-0.024754368 0.01019299 0.63036948
-0.025107577 0.0088615119 0.63287747
-0.025492158 0.0074976683 0.63560826
-0.025916073 0.006097883 0.63861835
-0.026390878 0.0046572089 0.64198971
-0.026934052 0.0031687021 0.64584655
-0.027576549 0.0016221702 0.65040869
-0.028391227 -0 0.65619349
-0.02973349 -0.0017490089 0.66572434
-0.024312563 0.057742357 0.63802207
-0.024539035 0.056746513 0.63973063
-0.024628492 0.05541411 0.64040554
-0.024765095 0.054173648 0.6414361
-0.024945121 0.053008378 0.64279437
-0.025261786 0.052102447 0.64518338
-0.025625739 0.051251501 0.64792925
-0.026048983 0.050469905 0.65112233
-0.026801307 0.050252438 0.65679818
-0.027164984 0.049236536 0.6595419
-0.027457912 0.048051357 0.66175187
-0.027746737 0.046822637 0.66393089
-0.028026193 0.045542598 0.66603923
-0.028302129 0.044222087 0.66812098
-0.028574472 0.0428617 0.67017567
-0.028813684 0.041419655 0.67198038
-0.028969457 0.039833039 0.67315561
-0.029047871 0.038125336 0.67374718
-0.029271975 0.03658998 0.67543793
-0.029776942 0.035360128 0.67924756
-0.030057551 0.033814758 0.68136466
-0.030276028 0.032168299 0.68301296
-0.029915804 0.029915839 0.68029529
-0.021674793 0.020320088 0.61812162
-0.021748871 0.019030273 0.61868048
-0.021832855 0.017739207 0.61931407
-0.022050364 0.016537786 0.62095505
-0.022277268 0.015315622 0.6226669
-0.022520984 0.014075607 0.62450564
-0.022779554 0.012813479 0.62645638
-0.023052951 0.011526495 0.628519
-0.023348717 0.010215074 0.63075036
-0.023667617 0.00887537 0.6331563
-0.024011834 0.0075037181 0.63575315
-0.024387363 0.0060968399 0.6385864
-0.02480223 0.0046503842 0.6417163
-0.025268164 0.0031585395 0.64523149
-0.025803318 0.0016127229 0.64926893
-0.026439989 2.9802322e-08 0.65407223
-0.027268523 -0.0017042756 0.66032302
-0.02833328 -0.0035416484 0.668356
-0.022645442 0.057368457 0.63683438
-0.022992661 0.05671528 0.63962859
-0.023292644 0.055902362 0.6420427
-0.023409028 0.054621041 0.64297926
-0.023520537 0.053313166 0.64387655
-0.023674484 0.05208388 0.64511549
-0.023916572 0.051022023 0.64706361
-0.024273386 0.050164998 0.64993507
-0.024641007 0.049282014 0.65289342
-0.025341202 0.048993021 0.65852815
-0.025765741 0.048096061 0.66194457
-0.026059443 0.046907008 0.66430807
-0.026339749 0.045655578 0.66656387
-0.026610671 0.044351101 0.66874409
-0.026880577 0.043008924 0.67091614
-0.027142661 0.041618764 0.67302519
-0.027388301 0.040169507 0.67500192
-0.027557243 0.038580149 0.6763615
-0.027635371 0.036847174 0.67699021
-0.027817072 0.035234988 0.67845237
-0.02824364 0.033892363 0.68188518
-0.028586481 0.032398015 0.6846441
-0.020332174 0.021687657 0.6182186
-0.02035412 0.020354152 0.61839521
-0.020426411 0.019064665 0.61897695
-0.020576831 0.017833263 0.62018746
-0.020772971 0.016618371 0.62176585
-0.020982504 0.015387177 0.62345207
-0.021201095 0.014134079 0.62521112
-0.021436589 0.012861967 0.62710631
-0.021686269 0.011565983 0.62911552
-0.021950686 0.010243654 0.63124341
-0.022237238 0.0088948905 0.63354939
-0.022545854 0.0075153112 0.63603294
-0.022880092 0.0061013997 0.63872266
-0.023245607 0.0046491623 0.64166409
-0.023650236 0.0031533539 0.64492035
-0.024105923 0.0016070902 0.64858735
-0.024632918 -0 0.65282834
-0.0252629 -0.001684159 0.65789801
-0.026111571 -0.0034815371 0.66472769
-0.027357353 -0.005471468 0.67475289
-0.020934755 0.056822866 0.63510144
-0.021307658 0.056313127 0.63831663
-0.021648964 0.055668801 0.64125943
-0.021977017 0.054942578 0.64408797
-0.022163788 0.053826332 0.64569831
-0.022248825 0.052443653 0.64643157
-0.022383763 0.051162869 0.64759505
-0.022566777 0.049969286 0.64917296
-0.02288856 0.049046874 0.6519475
-0.023230202 0.048119694 0.65489316
-0.023690421 0.047380835 0.65886128
-0.024319781 0.046902448 0.66428769
-0.024626028 0.045734048 0.66692823
-0.024894262 0.044454038 0.66924101
-0.025158461 0.043128788 0.67151892
-0.025421131 0.041763276 0.67378378
-0.025672492 0.04034248 0.67595106
-0.025918799 0.038878202 0.67807478
-0.02610152 0.037287891 0.67965019
-0.026190422 0.035544187 0.68041676
-0.026332488 0.033856064 0.68164164
-0.018988013 0.023056835 0.61831623
-0.01897973 0.021691144 0.61824477
-0.019040968 0.020401061 0.6187728
-0.019143794 0.01914382 0.61965936
-0.019314654 0.017935038 0.62113261
-0.019492663 0.016708016 0.62266743
-0.019681279 0.015463859 0.62429368
-0.0198821 0.014201492 0.6260252
-0.02009207 0.012916327 0.62783563
-0.020318482 0.011610568 0.62978774
-0.020558558 0.010279298 0.63185775
-0.0208134 0.0089200139 0.63405502
-0.021089867 0.0075321198 0.63643879
-0.021387352 0.0061106682 0.63900375
-0.021710694 0.0046522915 0.6417917
-0.022064934 0.0031521618 0.64484596
-0.022458108 0.0016041696 0.64823604
-0.022903077 -0 0.65207267
-0.02341892 -0.0016727746 0.65652037
-0.024046868 -0.0034352541 0.66193461
-0.024711074 -0.0052952468 0.66766149
-0.019357614 0.056583792 0.63434184
-0.019263996 0.054828286 0.6334725
-0.019171165 0.05308938 0.63261056
-0.019313874 0.051998883 0.63393569
-0.020592781 0.053858042 0.6458109
-0.020855963 0.052942097 0.64825463
-0.020950207 0.05156976 0.64912975
-0.021062957 0.050227106 0.65017664
-0.021211455 0.04894948 0.65155554
-0.021472067 0.047899246 0.65397543
-0.021798467 0.046950519 0.65700614
-0.02216647 0.046038061 0.66042328
-0.022829466 0.045658916 0.66657948
-0.023152057 0.044523209 0.66957486
-0.023411794 0.043221772 0.6719867
-0.023668122 0.041874379 0.67436677
-0.023918511 0.040477455 0.67669177
-0.024162488 0.039031714 0.67895722
-0.017799873 0.02738443 0.61987752
-0.017720686 0.02589944 0.61914229
-0.017642152 0.024427593 0.61841297
-0.017623987 0.023046792 0.61824435
-0.017673021 0.021751404 0.61869961
-0.017745633 0.020475745 0.61937386
-0.01789202 0.019268364 0.62073314
-0.018042943 0.018042922 0.62213451
-0.018206213 0.016805738 0.62365055
-0.018375579 0.015548587 0.62522322
-0.018556118 0.014273942 0.6268996
-0.018747637 0.01297912 0.6286779
-0.01894878 0.011660814 0.63054562
-0.019165009 0.010319591 0.6325534
-0.019394901 0.0089514852 0.63468802
-0.019639501 0.0075536668 0.63695931
-0.019904837 0.0061245561 0.63942301
-0.020190718 0.0046594143 0.64207757
-0.020501653 0.003154099 0.64496475
-0.020843467 0.0016033649 0.64813864
-0.021224327 -0 0.65167511
-0.021656726 -0.00166592 0.65569007
-0.022158844 -0.0034090579 0.66035247
-0.022675391 -0.0052327812 0.66514885
-0.022593556 -0.0069518983 0.66438901
-0.017707944 0.054599524 0.63272607
-0.01769766 0.053092986 0.6326226
-0.017813805 0.051956922 0.63379097
-0.017979862 0.050942928 0.63546139
-0.019182343 0.052751422 0.64755738
-0.019478491 0.051942647 0.65053642
-0.01962691 0.05070287 0.6520294
-0.01970957 0.049273968 0.65286088
-0.019840084 0.047946841 0.65417373
-0.020029435 0.046735346 0.65607846
-0.020339301 0.045763433 0.65919554
-0.020660682 0.044764817 0.66242832
-0.021263432 0.044298798 0.66849154
-0.021634091 0.043268174 0.67222011
-0.021890908 0.041957587 0.67480344
-0.02213805 0.040586442 0.67728949
-0.022375481 0.039157122 0.6796779
-0.016367322 0.02727887 0.61924046
-0.016294742 0.02580002 0.61851037
-0.01628153 0.024422288 0.61837745
-0.016319411 0.023119181 0.6187585
-0.016375087 0.02183345 0.6193186
-0.016498283 0.020622849 0.62055784
-0.016628088 0.019399434 0.6218636
-0.016765989 0.018163174 0.62325072
-0.016909385 0.016909391 0.62469321
-0.017063739 0.015641749 0.62624592
-0.017224047 0.014353365 0.62785846
-0.017395811 0.01304689 0.62958622
-0.017577564 0.011718422 0.63141453
-0.017769204 0.010365397 0.63334227
-0.017974587 0.0089873075 0.63540828
-0.01819348 0.0075806379 0.6376102
-0.018426983 0.0061423182 0.6399591
-0.018680263 0.0046700537 0.64250684
-0.018953636 0.0031589568 0.64525676
-0.019251473 0.0016042888 0.64825273
-0.01957974 -0 0.65155488
-0.019946462 -0.0016622245 0.65524381
-0.020363858 -0.0033939779 0.65944248
-0.02083287 -0.0052081943 0.66416037
-0.02078297 -0.0069276392 0.66365838
-0.020699643 -0.0086248517 0.66282028
-0.016164823 0.054372579 0.63198578
-0.016324816 0.053426683 0.6337415
-0.016450262 0.052341729 0.63511813
-0.016543712 0.051135093 0.63614362
-0.016669326 0.050007999 0.6375221
-0.016907018 0.049184084 0.64013046
-0.018026985 0.050803304 0.65242064
-0.018249819 0.049772233 0.65486592
-0.018328583 0.04832083 0.65573025
-0.018436145 0.046928376 0.65691066
-0.018581979 0.045610338 0.65851098
-0.018845577 0.044544071 0.6614036
-0.01913923 0.043498248 0.66462606
-0.019520858 0.042590946 0.66881394
-0.020068787 0.041961998 0.67482674
-0.020330092 0.040660203 0.6776942
-0.020562891 0.039256424 0.68024886
-0.01494573 0.027174056 0.61860788
-0.014949342 0.025821596 0.61864746
-0.014977533 0.024508685 0.61895686
-0.015025578 0.023221314 0.61948407
-0.015127832 0.022004128 0.62060618
-0.0152387 0.020780057 0.62182283
-0.01535356 0.019540876 0.62308323
-0.015476256 0.018290162 0.62442964
-0.015605304 0.017023981 0.62584585
-0.015740845 0.015740842 0.62733322
-0.015885636 0.01444149 0.6289221
-0.016036667 0.01312089 0.63057947
-0.016198792 0.011780947 0.63235855
-0.016370067 0.010417312 0.63423806
-0.016551524 0.0090280771 0.6362294
-0.016745348 0.0076115131 0.63835633
-0.016952375 0.0061644912 0.64062816
-0.017173905 0.0046837926 0.64305913
-0.01741413 0.0031661987 0.64569533
-0.01767393 0.0016067326 0.64854634
-0.017957464 -0 0.6516577
-0.01827072 -0.001660943 0.65509528
-0.018621523 -0.0033857524 0.6589449
-0.019018009 -0.0051867366 0.66329587
-0.018984882 -0.0069036186 0.66293228
-0.018909091 -0.0085950196 0.66210055
-0.019308362 -0.010531843 0.66648209
-0.014564869 0.05243355 0.63041139
-0.01492169 0.052225918 0.63471866
-0.014427663 0.049054056 0.62875521
-0.014360004 0.047388017 0.62793851
-0.014358316 0.045946598 0.62791812
-0.015495824 0.048037052 0.64164907
-0.016543079 0.049629241 0.65429056
-0.016801102 0.048723191 0.6574052
-0.016916296 0.047365636 0.65879565
-0.016997609 0.04589355 0.65977722
-0.013903677 0.036149591 0.62243015
-0.017315725 0.043289304 0.66361719
-0.017594101 0.042225808 0.66697752
-0.017898206 0.041165888 0.6706484
-0.013655702 0.030042529 0.61943686
-0.013608793 0.02857849 0.61887056
-0.013624468 0.027248949 0.6190598
-0.013645051 0.025925577 0.61930829
-0.013692249 0.024646044 0.61987799
-0.013777379 0.023421556 0.62090564
-0.01386926 0.022190809 0.62201476
-0.013964326 0.020946473 0.62316227
-0.014067227 0.01969412 0.62440443
-0.01417362 0.018425733 0.62568867
-0.014288529 0.01714626 0.62707573
-0.014408344 0.015849173 0.62852198
-0.014535462 0.014535457 0.6300565
-0.014670218 0.013203233 0.63168311
-0.01481144 0.011849195 0.6333878
-0.01496319 0.010474235 0.63521957
-0.015123381 0.0090740323 0.63715327
-0.015293863 0.0076468885 0.63921118
-0.01547536 0.006190151 0.64140207
-0.0156697 0.0047008991 0.64374793
-0.015878201 0.0031756461 0.64626473
-0.016104288 0.0016104281 0.64899391
-0.016349237 -0 0.65195066
-0.016617194 -0.0016617179 0.65518516
-0.016913779 -0.0033827126 0.65876532
-0.01723651 -0.0051709116 0.66266096
-0.017199242 -0.0068797171 0.66221112
-0.017181819 -0.0085909069 0.66200083
-0.017451247 -0.010470778 0.6652531
-0.019445604 -0.013611943 0.68932712
-0.013191593 0.052766383 0.63152748
-0.012993065 0.050528616 0.62886477
-0.012932133 0.048854738 0.62804753
-0.012871697 0.047196209 0.62723696
-0.012934287 0.04598859 0.62807637
-0.013056011 0.044970721 0.62970901
-0.014109888 0.047032982 0.64384395
-0.014327846 0.046167523 0.64676726
-0.012578038 0.039131701 0.62329829
-0.012520929 0.037562758 0.62253237
-0.012464301 0.036007971 0.62177283
-0.012408216 0.03446731 0.62102056
-0.012352601 0.032940298 0.62027466
-0.012297482 0.031426907 0.61953539
-0.012296744 0.030058712 0.61952555
-0.012305245 0.028712273 0.61963952
-0.012317562 0.02737236 0.61980474
-0.012370688 0.026115894 0.62051725
-0.012440919 0.02488181 0.62145925
-0.012514178 0.023637861 0.62244183
-0.012593199 0.022387892 0.6235016
-0.012676862 0.021128118 0.62462378
-0.012765117 0.01985684 0.62580746
-0.012859015 0.018574148 0.62706685
-0.012957174 0.017276227 0.6283834
-0.01306317 0.015966088 0.62980509
-0.013173494 0.014637232 0.63128471
-0.013291502 0.013291538 0.63286746
-0.013415677 0.011925071 0.63453299
-0.013546882 0.010536492 0.63629276
-0.013687206 0.0091248155 0.63817477
-0.013835565 0.007686466 0.64016461
-0.013994175 0.0062196553 0.6422919
-0.01416274 0.0047209263 0.64455283
-0.014343224 0.0031873882 0.64697349
-0.014537655 0.0016152859 0.64958131
-0.014748434 2.9802322e-08 0.6524083
-0.01497726 -0.0016641319 0.6554774
-0.015228012 -0.0033839941 0.6588406
-0.015475275 -0.0051583946 0.66215694
-0.015451116 -0.0068671405 0.66183287
-0.015575851 -0.0086532235 0.66350591
-0.015757231 -0.010504842 0.66593868
-0.016018825 -0.012459069 0.66944718
-0.018054077 -0.016048074 0.69674462
-0.011651963 0.050977319 0.63041246
-0.011477233 0.048778236 0.62777603
-0.011395452 0.047006249 0.62654203
-0.01134272 0.045370877 0.62574637
-0.01165366 0.045157939 0.63043803
-0.011745231 0.044044614 0.63181978
-0.011187322 0.040554076 0.62340158
-0.011136496 0.038977712 0.62263465
-0.011086067 0.037415475 0.62187374
-0.011036124 0.035867393 0.62112015
-0.010997345 0.034366727 0.62053508
-0.010989012 0.032967061 0.62040931
-0.010986328 0.031585664 0.62036884
-0.010987534 0.03021571 0.62038702
-0.011009625 0.028900266 0.62072033
-0.011059053 0.027647644 0.62146616
-0.011112968 0.026393294 0.62227964
-0.011170214 0.025132954 0.62314343
-0.011233505 0.023871213 0.62409842
-0.011299079 0.022598177 0.62508786
-0.011371463 0.021321505 0.62618005
-0.011446677 0.020031691 0.62731493
-0.011527704 0.018732518 0.62853754
-0.011612346 0.017418504 0.62981468
-0.011702172 0.016090482 0.63117009
-0.011798441 0.014748067 0.63262266
-0.011898994 0.013386369 0.63413984
-0.012006998 0.012006998 0.63576955
-0.0121201 0.010605097 0.63747615
-0.012240552 0.0091804266 0.63929355
-0.012368735 0.0077304542 0.64122772
-0.01250455 0.0062522888 0.64327699
-0.012650413 0.0047439039 0.64547789
-0.012805042 0.0032012463 0.64781111
-0.012970765 0.0016213655 0.65031165
-0.0131499 -0 0.6530146
-0.013344142 -0.001668036 0.65594548
-0.013555308 -0.0033888221 0.65913177
-0.013728532 -0.005148232 0.66174543
-0.013884052 -0.006942004 0.66409212
-0.013982748 -0.008739233 0.66558135
-0.014104196 -0.010578156 0.66741383
-0.014277502 -0.012492806 0.67002881
-0.014533322 -0.014533311 0.6738888
-0.01004209 0.047341287 0.62776756
-0.0099495491 0.045483679 0.62617171
-0.0098789707 0.04374975 0.62495464
-0.0098231696 0.042099297 0.62399244
-0.0097790677 0.040513307 0.62323189
-0.0097445417 0.038978159 0.62263656
-0.0097178565 0.037483156 0.62217641
-0.0096977577 0.036020249 0.62182975
-0.0096832262 0.034582943 0.62157917
-0.0096733849 0.033165902 0.62140942
-0.0096855285 0.031823874 0.62161887
-0.0097159697 0.030535936 0.62214381
-0.0097511075 0.029253364 0.62274969
-0.0097890981 0.027968854 0.62340486
-0.009833484 0.02669093 0.6241703
-0.0098801972 0.025406271 0.6249758
-0.0099318875 0.024120301 0.62586719
-0.0099873105 0.022828132 0.62682295
-0.010046179 0.021527529 0.62783813
-0.010110384 0.020220786 0.62894523
-0.010176834 0.018899888 0.63009113
-0.010250189 0.017571777 0.63135612
-0.010325279 0.016225457 0.63265097
-0.010406452 0.014866382 0.63405079
-0.010492369 0.01349017 0.63553238
-0.010583073 0.012094945 0.63709652
-0.01067998 0.01067999 0.6387676
-0.010781765 0.0092415214 0.64052284
-0.010890382 0.0077788234 0.64239585
-0.011005704 0.0062890053 0.6443845
-0.011128124 0.0047691762 0.64649558
-0.011260245 0.0032172203 0.64877391
-0.011399991 0.0016286075 0.65118372
-0.011549834 -0 0.6537677
-0.011712397 -0.0016732216 0.65657103
-0.011888634 -0.0033967197 0.65961009
-0.012043775 -0.0051616132 0.66228539
-0.012236315 -0.0069921911 0.66560566
-0.01237352 -0.0088382065 0.66797161
-0.012461125 -0.010680974 0.66948235
-0.012576431 -0.012576401 0.6714707
-0.012739367 -0.014559269 0.67428046
-0.012995171 -0.016708106 0.67869163
-0.0087756291 0.046803385 0.63115001
-0.0085691782 0.044274092 0.62699646
-0.0084932018 0.042466015 0.6254679
-0.0084507186 0.040845156 0.62461323
-0.0084168846 0.039278775 0.6239326
-0.0083970157 0.037786573 0.62353277
-0.0083919689 0.036365211 0.62343127
-0.0083960993 0.034983754 0.62351441
-0.0084067266 0.033626944 0.62372822
-0.0084219147 0.032283992 0.62403375
-0.0084420927 0.030954331 0.62443972
-0.0084679518 0.029637843 0.62495995
-0.0084966393 0.02832213 0.62553716
-0.0085302209 0.027012348 0.62621272
-0.0085675642 0.025702685 0.62696397
-0.0086075794 0.024388164 0.62776905
-0.0086528808 0.023074329 0.62868041
-0.0087005263 0.021751314 0.62963903
-0.0087525267 0.020422578 0.63068515
-0.0088079926 0.019084007 0.63180101
-0.0088667069 0.017733425 0.63298231
-0.008930563 0.016372681 0.63426697
-0.0089963162 0.014993876 0.63558984
-0.0090677803 0.013601661 0.63702756
-0.0091430331 0.0121907 0.63854158
-0.0092230868 0.010760278 0.6401521
-0.0093083335 0.0093083382 0.64186716
-0.0093981996 0.0078318417 0.64367515
-0.0094940504 0.0063293576 0.64560348
-0.0095957397 0.0047978759 0.64764929
-0.0097042071 0.0032347441 0.64983153
-0.009821224 0.001636833 0.65218568
-0.0099449828 -0 0.65467548
-0.010077785 -0.0016796291 0.65734732
-0.010222423 -0.0034074485 0.66025722
-0.010347645 -0.0051738322 0.66277647
-0.010517813 -0.0070118308 0.66619992
-0.010687238 -0.0089060068 0.66960853
-0.010805989 -0.010805964 0.67199761
-0.010882725 -0.012696505 0.67354143
-0.010989286 -0.014652401 0.67568529
-0.011139256 -0.016708881 0.67870247
-0.011388137 -0.018980205 0.6837095
-0.0073503884 0.044102311 0.63205194
-0.0072381673 0.041981369 0.62934273
-0.0071817134 0.040217608 0.62797976
-0.007149287 0.038606167 0.62719697
-0.007131679 0.037084758 0.62677187
-0.0071241846 0.035620928 0.62659097
-0.0071241446 0.0341959 0.62659001
-0.0071297884 0.032797039 0.62672615
-0.0071407575 0.031419307 0.62699109
-0.0071574072 0.030061096 0.62739301
-0.007177263 0.028709084 0.62787235
-0.0072006681 0.027362525 0.62843746
-0.0072288183 0.026023746 0.62911707
-0.0072592748 0.024681509 0.62985235
-0.007293602 0.02333951 0.63068104
-0.0073311757 0.021993518 0.63158816
-0.007371136 0.020639181 0.63255286
-0.0074156201 0.019280612 0.63362682
-0.0074623143 0.017909527 0.63475412
-0.0075127794 0.0165281 0.63597244
-0.0075666532 0.015133291 0.63727307
-0.0076234206 0.013722122 0.63864356
-0.007683923 0.012294263 0.64010423
-0.0077482001 0.010847509 0.64165604
-0.0078167841 0.0093801618 0.6433118
-0.0078897523 0.0078897178 0.64507341
-0.0079669356 0.0063735545 0.64693677
-0.008049191 0.0048295259 0.64892256
-0.0081366273 0.003254652 0.65103352
-0.0082299076 0.0016459823 0.6532855
-0.0083307298 -0 0.65571958
-0.0084373811 -0.0016874671 0.65829432
-0.0085283564 -0.0034113526 0.66049063
-0.0086528612 -0.0051917136 0.66349643
-0.0087859286 -0.0070287287 0.66670901
-0.0089331893 -0.0089331865 0.67026418
-0.0090782503 -0.010893881 0.67376626
-0.0091775926 -0.012848675 0.67616463
-0.0092435116 -0.014789641 0.67775607
-0.009339232 -0.016810626 0.68006694
-0.0094763823 -0.018952787 0.68337804
-0.0097209876 -0.021386176 0.68928337
-0.0059438772 0.041607141 0.63397032
-0.005875288 0.039658219 0.63190037
-0.0058401255 0.037960827 0.63083929
-0.0058194767 0.036371738 0.63021612
-0.005808684 0.034852117 0.6298905
-0.0058049946 0.03337875 0.6297791
-0.0058079758 0.031943887 0.6298691
-0.0058158408 0.030533195 0.63010645
-0.0058272537 0.02913627 0.63045084
-0.0058421879 0.027750403 0.63090158
-0.0058610761 0.026374876 0.63147157
-0.0058826269 0.025001138 0.63212192
-0.0059069679 0.023627877 0.63285649
-0.0059347651 0.022255391 0.63369536
-0.005964763 0.020876676 0.63460052
-0.005997526 0.019491971 0.63558924
-0.0060333055 0.018099934 0.63666898
-0.0060710236 0.016695321 0.63780725
-0.0061127055 0.015281737 0.63906515
-0.0061563463 0.013851762 0.64038211
-0.0062034014 0.012406796 0.64180213
-0.0062525873 0.010942042 0.64328647
-0.0063053193 0.0094580054 0.64487773
-0.0063617583 0.0079521835 0.64658093
-0.00642177 0.0064218044 0.64839196
-0.006485404 0.004864037 0.6503123
-0.0065532285 0.0032766163 0.65235907
-0.0093661565 0.0023415387 0.73724669
-0.0094994763 -2.9802322e-08 0.74127001
-0.0067858347 -0.0016964674 0.65937865
-0.0068558245 -0.0034279227 0.66149074
-0.0069498844 -0.0052123666 0.66432923
-0.0070532653 -0.007053256 0.66744906
-0.0071641002 -0.008955121 0.67079377
-0.0072865291 -0.010929763 0.67448837
-0.0074057821 -0.012960106 0.67808712
-0.0074848807 -0.014969766 0.68047416
-0.0075400928 -0.016965181 0.68214035
-0.0076224809 -0.019056171 0.68462664
-0.0077453409 -0.02129969 0.68833423
-0.0079839593 -0.023951858 0.69553524
-0.0046047107 0.041442394 0.6398772
-0.0045169047 0.039146513 0.63634408
-0.0044779358 0.037316144 0.63477618
-0.0044557648 0.035646111 0.63388407
-0.0044436161 0.03406775 0.63339525
-0.0044383998 0.032548279 0.63318539
-0.0044383211 0.031068265 0.63318217
-0.0044421698 0.029614478 0.63333702
-0.0044496492 0.028181076 0.63363802
-0.0044604517 0.026762694 0.63407266
-0.0044738785 0.025352001 0.63461292
-0.0044896682 0.023944914 0.63524824
-0.0045080059 0.022540033 0.63598603
-0.0045285965 0.021133453 0.63681459
-0.0045511969 0.019721866 0.63772392
-0.004576311 0.018305272 0.63873446
-0.0046033831 0.016879052 0.63982379
-0.004632378 0.015441269 0.64099044
-0.0046640872 0.01399228 0.64226627
-0.0046971887 0.012525827 0.6435982
-0.004733732 0.011045396 0.64506853
-0.0047713034 0.009542644 0.64658034
-0.0048120813 0.0080201328 0.64822114
-0.0048554935 0.0064739883 0.64996791
-0.0049017123 0.0049017072 0.65182757
-0.0071094898 0.0047396719 0.74066168
-0.0070219222 0.0023406446 0.73713827
-0.0071483576 -2.9802322e-08 0.74222559
-0.0072559235 -0.0024186373 0.74655372
-0.0051695998 -0.0034463704 0.66260654
-0.0052383337 -0.0052383244 0.66537219
-0.0053114188 -0.0070818961 0.66831291
-0.0053919703 -0.0089866221 0.67155409
-0.0054785595 -0.010957092 0.6750381
-0.0055740541 -0.013006121 0.67888051
-0.0056660627 -0.015109509 0.68258268
-0.0057247751 -0.017174304 0.68494505
-0.0057690428 -0.019230157 0.68672627
-0.0058352458 -0.021395892 0.68939012
-0.0059376131 -0.023750454 0.6935091
-0.0066858917 -0.028972208 0.72361743
-0.0030977929 0.038722396 0.64156628
-0.0030568759 0.036682487 0.63909668
-0.0030357146 0.034910738 0.63781953
-0.0030239909 0.033263892 0.6371119
-0.003017917 0.031688124 0.63674533
-0.003015907 0.030159056 0.63662404
-0.0030176807 0.028667986 0.63673103
-0.0030218814 0.027196944 0.63698459
-0.0030283285 0.025740802 0.63737375
-0.0030367463 0.024293959 0.63788176
-0.0030469913 0.022852451 0.63850009
-0.0030591467 0.021414012 0.63923377
-0.0030728611 0.019973606 0.6400615
-0.0030879758 0.018527836 0.64097375
-0.0031048763 0.01707682 0.64199376
-0.003123035 0.015615225 0.64308971
-0.0031429264 0.014143169 0.64429033
-0.003164323 0.012657285 0.64558172
-0.0031869975 0.011154503 0.64695024
-0.0032118536 0.0096355379 0.64845043
-0.0032374882 0.0080936849 0.64999759
-0.0032654412 0.0065309107 0.6516847
-0.0032952148 0.0049428046 0.65348178
-0.0047827447 0.0047827661 0.74326217
-0.0048269224 0.0024134517 0.74592847
-0.0047684554 -0 0.74239969
-0.0048488607 -0.0024244189 0.74725252
-0.0049281139 -0.004928112 0.75203592
-0.0035114121 -0.0052671134 0.66653037
-0.0035589791 -0.0071179271 0.66940129
-0.0036095185 -0.0090237856 0.67245162
-0.0036653359 -0.010996014 0.67582047
-0.0037255264 -0.013039351 0.67945337
-0.0037917881 -0.015167147 0.68345255
-0.003854309 -0.017344415 0.68722606
-0.0038935996 -0.01946798 0.68959749
-0.0039251517 -0.021588355 0.6915018
-0.003973987 -0.023843914 0.69444919
-0.0040480462 -0.026312292 0.69891912
-0.0016126918 0.038704574 0.64926702
-0.0015693438 0.036094904 0.6440345
-0.0015535372 0.03417781 0.6421265
-0.001545113 0.032447368 0.64110959
-0.0015404751 0.030809492 0.64054972
-0.0015384525 0.029230624 0.64030558
-0.0015384099 0.027691364 0.64030045
-0.0015398682 0.026177764 0.64047647
-0.0015427026 0.024683267 0.6408186
-0.001546675 0.023200154 0.64129806
-0.0015516487 0.021723092 0.64189851
-0.0015575801 0.020248532 0.64261448
-0.0015643296 0.018771946 0.64342916
-0.0015719915 0.017291903 0.6443541
-0.0015805025 0.015805036 0.64538145
-0.001589621 0.014306575 0.64648211
-0.0015998317 0.012798667 0.64771467
-0.0016106154 0.011274338 0.64901644
-0.0016223444 0.0097340941 0.65043223
-0.0016349559 0.008174777 0.65195459
-0.0016482481 0.006592989 0.65355909
-0.0023598825 0.0070796311 0.73946095
-0.0023893397 0.0047786832 0.74301672
-0.0024355352 0.0024355352 0.74859309
-0.002458693 -2.9802322e-08 0.75138843
-0.002430165 -0.002430141 0.74794477
-0.0024672525 -0.0049344897 0.75242168
-0.0025112238 -0.0075336397 0.75772947
-0.0017894558 -0.0071578324 0.67060435
-0.001814169 -0.0090708137 0.67358744
-0.0018403996 -0.011042416 0.67675382
-0.0018694305 -0.013085991 0.68025815
-0.0019008277 -0.015206635 0.68404818
-0.001935369 -0.017418325 0.68821764
-0.0019672131 -0.019672155 0.69206154
-0.0019869301 -0.021856189 0.69444156
-0.0020038073 -0.024045676 0.6964789
-0.0020307507 -0.026399761 0.69973123
-0.0020722221 -0.029011101 0.70473719
0 0.035630375 0.65009624
0 0.033456534 0.64691043
0 0.031609267 0.64537662
0 0.02990213 0.6445719
0 0.028266639 0.64415812
0 0.026678741 0.64403391
0 0.025125086 0.64415222
0 0.023589641 0.64443278
0 0.022066981 0.64486337
0 0.020552605 0.64543748
0 0.019041359 0.64613891
0 0.01752755 0.64693981
0 0.016011477 0.64787352
0 0.014486402 0.64889383
0 0.012951463 0.65002036
0 0.011404812 0.65126693
0 0.0098406971 0.65257752
0 0.0082614124 0.65404522
0 0.006660223 0.65558767
0 0.0050364435 0.65724868
0 0.0048101544 0.74491882
0 0.0024305582 0.74799323
0 2.9802322e-08 0.75412309
0 -0.0025056601 0.75705397
0 -0.0049567521 0.75376409
0 -0.007534802 0.75777662
0 -0.010238647 0.76357567
0 -0.0091226101 0.67483795
0 -0.011101365 0.67794001
0 -0.013142318 0.68122935
0 -0.015261561 0.68487746
0 -0.017464399 0.6888355
0 -0.019765228 0.69318533
0 -0.022098631 0.69710147
0 -0.024344474 0.69948471
0 -0.026615381 0.70173329
0 -0.029070675 0.7052511
0 -0.031862259 0.71100569
0.0016391175 0.032782376 0.65245688
0.0016196086 0.030772567 0.65010196
0.0016100144 0.028980285 0.64894384
0.0016046958 0.027279824 0.6483019
0.0016023987 0.025638402 0.64802456
0.0016022756 0.024034142 0.64800966
0.0016039293 0.022455007 0.64820933
0.0016071546 0.020893037 0.64859855
0.0016116737 0.019340068 0.64914417
0.0016171013 0.017788142 0.64979929
0.0016237923 0.016237944 0.65060699
0.0016314695 0.014683217 0.65153372
0.0016398426 0.013118744 0.65254444
0.001649476 0.011546344 0.65370733
0.0016597954 0.009958744 0.65495294
0.0016710148 0.0083550811 0.65630722
0.0016833377 0.0067333579 0.65779471
0.0016962806 0.005088836 0.65935707
0.0017057875 0.0034115911 0.6605047
0.0024534608 0.0024534464 0.75075686
0.0024746105 2.9802322e-08 0.75330979
0.0025284186 -0.002528429 0.75980502
0.0025543498 -0.0051086843 0.76293516
0.0025294153 -0.0075882375 0.75992531
0.0025575617 -0.010230243 0.76332295
0.002609937 -0.013049692 0.76964521
0.0018610033 -0.011166036 0.67924094
0.0018877542 -0.01321426 0.68246996
0.0019160773 -0.015328586 0.68588889
0.0019475576 -0.017527997 0.68968892
0.0019818305 -0.019818306 0.69382608
0.0020194645 -0.022214115 0.69836885
0.0020525095 -0.02463007 0.70235771
0.0020722135 -0.026938796 0.70473617
0.0020927982 -0.02929914 0.70722103
0.0021243047 -0.031864554 0.71102417
0.0021787505 -0.034860015 0.71759635
0.0033999146 0.032299161 0.65980095
0.0033273948 0.029946536 0.655424
0.0032975606 0.028029263 0.65362328
0.0032817181 0.02625376 0.65266711
0.0032739663 0.024554729 0.65219927
0.0032718682 0.022903055 0.65207267
0.0032740519 0.021281332 0.65220445
0.0032793628 0.019676208 0.65252495
0.0032871941 0.018079579 0.65299761
0.0032978863 0.016489446 0.65364295
0.0033111006 0.014899969 0.65444052
0.0033259238 0.013303697 0.65533519
0.0033431125 0.011700958 0.65637255
0.0033623879 0.010087162 0.65753603
0.003382996 0.0084574819 0.6587798
0.0034031752 0.0068063438 0.6599977
0.0034213727 0.0051320791 0.66109598
0.0034481334 0.0034481287 0.6627112
0.0034773208 0.0017386675 0.66447282
0.0050081704 -0 0.75686777
0.005041983 -0.0025209785 0.75890851
0.0051511163 -0.0051511228 0.7654953
0.0052099279 -0.0078148842 0.76904488
0.0051696906 -0.010339379 0.76661634
0.0052121528 -0.01303041 0.76917917
0.005324496 -0.015973449 0.77595967
0.0037979474 -0.013292789 0.6838243
0.0038536559 -0.015414655 0.6871866
0.0039125979 -0.017606705 0.6907441
0.0039782524 -0.019891262 0.69470674
0.0040499629 -0.022274762 0.69903481
0.0041286279 -0.02477178 0.70378268
0.0041958983 -0.027273297 0.70784271
0.0042352495 -0.029646724 0.71021783
0.0042806501 -0.03210488 0.71295798
0.0043492061 -0.034793645 0.71709579
0.0044877641 -0.038145989 0.7254585
0.0051493295 0.029179543 0.66179097
0.0050768624 0.027076632 0.65887505
0.005041888 0.025209457 0.65746784
0.0050234962 0.023442984 0.65672779
0.005015674 0.021734595 0.65641308
0.0050153388 0.020061374 0.65639961
0.0050206566 0.018409073 0.65661353
0.0050316798 0.0167723 0.65705705
0.0050471262 0.015141398 0.6576786
0.0050657089 0.013508558 0.65842628
0.0050876513 0.011871219 0.65930915
0.0051138932 0.010227799 0.6603651
0.0051266956 0.0085444748 0.66088027
0.0051590987 0.006878823 0.662184
0.0051944298 0.0051944554 0.66360563
0.0052322168 0.0034881532 0.66512609
0.0052739652 0.0017580092 0.66680586
0.0053184568 2.9802322e-08 0.66859609
0.0054151565 -0.0018050373 0.67248702
0.0077102832 -0.0051402152 0.76483577
0.0078620445 -0.0078620315 0.77094215
0.0079727871 -0.010630369 0.77539814
0.008048323 -0.013413846 0.77843744
0.007972491 -0.015944958 0.77538615
0.0081500523 -0.019016802 0.78253067
0.0058156447 -0.015508384 0.68860143
0.0059026605 -0.017707974 0.69210267
0.0059947367 -0.019982457 0.69580752
0.0060975235 -0.022357613 0.6999433
0.0062101334 -0.024840534 0.70447439
0.0063336277 -0.027445734 0.70944345
0.0064363652 -0.03003636 0.71357727
0.0064953254 -0.032476604 0.71594965
0.0065702102 -0.035041094 0.71896279
0.0066864872 -0.037890077 0.7236414
0.0075283442 -0.045170069 0.75751507
0.0070994762 0.028397918 0.66884363
0.0069675217 0.026128232 0.6648615
0.0068935114 0.024127305 0.66262805
0.0068563414 0.022283137 0.6615063
0.0068383967 0.020515203 0.66096485
0.006833727 0.018792748 0.66082388
0.0068385839 0.01709649 0.66097045
0.006850732 0.015414149 0.66133702
0.0068646898 0.013729393 0.66175824
0.0068666209 0.012016565 0.6618166
0.0068999045 0.01034987 0.66282094
0.0069340169 0.0086675286 0.66385043
0.0069728135 0.0069728494 0.66502118
0.0070168409 0.0052626431 0.66634983
0.0070640948 0.0035320818 0.66777587
0.0071157822 0.0017789304 0.66933566
0.007173087 2.9802322e-08 0.67106497
0.0072334125 -0.0018083453 0.67288542
0.0072986996 -0.003649354 0.67485565
0.010488989 -0.0078667402 0.77113116
0.010652959 -0.01065293 0.77607942
0.0108493 -0.013561606 0.78200448
0.010960524 -0.016440809 0.78536105
0.010847948 -0.018983901 0.78196371
0.011093632 -0.022187263 0.78937793
0.007919386 -0.0178186 0.69358647
0.0080401832 -0.020100445 0.69723195
0.0081680883 -0.022462219 0.70109177
0.0083113303 -0.024933994 0.70541453
0.0084686354 -0.027523071 0.71016157
0.0086411024 -0.030243844 0.71536624
0.0087801488 -0.032925516 0.71956235
0.0088602202 -0.035440892 0.72197866
0.0089686904 -0.038116932 0.72525209
0.0091432733 -0.041144699 0.73052061
0.0089138057 0.02495864 0.66979623
0.0087956283 0.022868633 0.66694319
0.0087043121 0.020890355 0.6647386
0.0086692329 0.019072294 0.66389173
0.0086344359 0.017268836 0.66305166
0.0085999463 0.015479892 0.66221905
0.0085725114 0.013716042 0.66155666
0.0086746737 0.012144536 0.6640231
0.008753865 0.010504663 0.66593492
0.0088037997 0.0088037848 0.66714048
0.0088460417 0.0070768595 0.66816026
0.0088958023 0.0053374767 0.66936159
0.0089506721 0.0035802722 0.67068624
0.0090102758 0.001802057 0.67212522
0.0090771634 2.9802322e-08 0.67374003
0.0091500012 -0.0018299818 0.67549849
0.0092267049 -0.0036906898 0.67735028
0.0093116667 -0.0055869818 0.6794014
0.01338932 -0.010711461 0.77784473
0.013563096 -0.013563097 0.78204006
0.013846702 -0.016616046 0.78888685
0.013994486 -0.019592285 0.79245472
0.013847086 -0.022155315 0.78889614
0.010114877 -0.020229757 0.6987927
0.010272028 -0.022598445 0.70258665
0.010438842 -0.025053233 0.7066139
0.010626351 -0.027628511 0.71114075
0.010832386 -0.030330658 0.71611482
0.01105819 -0.033174545 0.72156626
0.011233516 -0.035947233 0.72579896
0.011336801 -0.038545102 0.72829247
0.011484231 -0.041343212 0.73185182
0.011729047 -0.044570386 0.73776215
0.011168886 0.024199277 0.67929858
0.010408706 0.020817429 0.66400492
0.010366905 0.019005984 0.6631639
0.010325473 0.017209113 0.66233039
0.010284335 0.015426517 0.66150278
0.010346112 0.01379481 0.66274559
0.010463413 0.012207329 0.66510552
0.010596965 0.010596961 0.66779244
0.01071019 0.0089251399 0.67007029
0.010787622 0.0071917474 0.67162812
0.010841185 0.0054205954 0.67270577
0.010899754 0.0036332309 0.67388403
0.010965363 0.001827538 0.67520404
0.011039515 -0 0.67669582
0.011120729 -0.0018534362 0.67832971
0.011209588 -0.0037365556 0.68011743
0.011305454 -0.0056526959 0.68204606
0.011409518 -0.0076063573 0.68413973
0.016426213 -0.013688534 0.7850678
0.016596936 -0.016596913 0.78850245
0.012604606 -0.025209218 0.70818299
0.012814159 -0.027763993 0.71239889
0.013049546 -0.030448943 0.71713454
0.01330883 -0.033272088 0.72235084
0.013591535 -0.036244124 0.72803855
0.013804143 -0.039111733 0.73231584
0.013933819 -0.041801453 0.73492473
0.014133098 -0.044754803 0.73893392
0.014468694 -0.048228979 0.74568558
0.013139573 0.020647913 0.68118173
0.012094805 0.017278284 0.66316539
0.012120755 0.015583813 0.6636129
0.012192867 0.013934731 0.66485637
0.012294212 0.012294203 0.66660404
0.012425714 0.010650635 0.6688717
0.012582032 0.0089871883 0.67156726
0.012735709 0.0072775483 0.67421734
0.012851977 0.0055080056 0.67622232
0.012923154 0.0036923289 0.67744976
0.012990063 0.001855731 0.67860353
0.013067802 -0 0.6799441
0.013156353 -0.0018794537 0.68147111
0.013251677 -0.0037861764 0.68311489
0.013357147 -0.0057244897 0.68493366
0.013473839 -0.0076993406 0.68694603
0.013597707 -0.0097126365 0.68908203
0.014285236 -0.012244463 0.70093799
0.015044893 -0.027940512 0.71403784
0.015301157 -0.030602306 0.71845692
0.01558868 -0.033404291 0.72341502
0.015906336 -0.036357313 0.72889286
0.016250541 -0.039465606 0.73482847
0.016499644 -0.042427689 0.73912418
0.016661726 -0.045224696 0.7419191
0.016920837 -0.048345238 0.7463873
0.017374432 -0.052123278 0.75420928
0.014222007 0.015999764 0.66919148
0.014164235 0.014164239 0.6683197
0.014222513 0.012444675 0.66919911
0.014328866 0.010746658 0.67080379
0.0144651 0.0090406835 0.67285943
0.014638128 0.0073190629 0.67547023
0.014832419 0.0055621564 0.67840189
0.01499348 0.0037483871 0.68083209
