# .PCD v0.7 - Point Cloud Data file format
VERSION 0.7
FIELDS x y z
SIZE 4 4 4
TYPE F F F
COUNT 1 1 1
WIDTH 286
HEIGHT 1
VIEWPOINT 0 0 0 1 0 0 0
POINTS 286
DATA ascii
-0.021708163 -0.079596609 0.67296517
-0.019846767 -0.077582821 0.67239034
-0.021748342 -0.077931553 0.67336935
-0.027383102 -0.065719426 0.67496014
-0.014558377 -0.061873078 0.67426682
-0.016461454 -0.062187701 0.67538381
-0.016534103 -0.055113673 0.67635822
-0.0055179521 -0.053340197 0.67662317
-0.020230928 -0.051496863 0.676606
-0.0073388703 -0.0440332 0.67606795
-0.020335801 -0.044369042 0.67775685
-0.0073837326 -0.038764596 0.67742175
-0.011143101 -0.081716046 0.67877984
-0.013040993 -0.029807985 0.6794818
-0.013040993 -0.029807985 0.6794818
0.0018596615 -0.022315979 0.67907894
-0.011214279 -0.024297595 0.68021178
0.005617274 -0.013106942 0.68061954
-0.0075135417 -0.077013806 0.68133914
-0.0037620673 -0.056431025 0.68165874
-0.035660408 -0.054429054 0.68115544
-0.0037655919 -0.01317957 0.68187153
-0.0075402069 -0.081057221 0.68214375
-0.0075521851 -0.0075522065 0.68250525
-0.0075521851 -0.0075522065 0.68250525
0.0094358865 0.0037743747 0.68240041
0.0094550019 0.0075640082 0.68286186
-0.0094951205 -0.0018990338 0.68383044
-0.0056827515 -0.0018942654 0.68325418
-0.0037873108 -0.0018936694 0.68318242
-0.0019078072 -0.06486544 0.68489063
-0.0038305265 -0.076610535 0.68579066
-0.047760557 -0.068775207 0.68520629
-0.034362409 -0.041998476 0.68503737
0.0038276694 -0.038276672 0.68561816
-0.028691716 -0.028691709 0.68549103
0.0038261036 0.015304416 0.68552369
0 0.017240405 0.68583131
0.0076790419 0.019197643 0.68633354
0.0076969974 0.025015205 0.68687534
0 -0.065689981 0.68781799
-0.042487402 -0.050212413 0.68771988
-0.038592737 -0.046311289 0.68752569
0.0038733 -0.050352871 0.68837225
-0.017431267 0.0019367933 0.68839127
-0.017431267 0.0019367933 0.68839127
-0.038937513 -0.036990613 0.68960655
0.0097338855 -0.027254879 0.68959463
-0.025306528 -0.011679918 0.68958008
0.015550258 0.040819436 0.68923318
0.015550258 0.040819436 0.68923318
-0.025420159 -0.0097769797 0.69063514
0.015650637 -0.0019563138 0.6907478
0.019581901 0.045038402 0.69097233
0.0078097153 0.046858311 0.69027698
0.013651394 0.046804756 0.69000781
0.0098120328 -0.033360928 0.69148141
-0.033366535 -0.021590114 0.69152129
0.017676633 0.0039281547 0.69168222
-0.011754155 0.015672207 0.6910733
0.019615525 0.052961916 0.69137824
0.013775583 -0.017711431 0.69214934
-0.015761998 0.015762001 0.69242811
0.0098441159 0.059064686 0.69225591
0.019669348 0.060974956 0.69202799
-0.0118981 0.027762234 0.69396913
-0.0099089956 0.031708807 0.69382226
0.023750452 0.071251392 0.69350904
-0.025783813 -0.0019833744 0.69401193
0.025808981 0.035735518 0.69424558
0.027799802 0.061556697 0.69429314
0.027800465 0.065529674 0.69429886
0.02580253 0.075422794 0.69418573
0.021966139 0.0079877079 0.69564772
-0.02398211 0.0099925399 0.69583929
0.027922137 0.043877661 0.69534791
0.02593597 0.087783307 0.69542474
0.0020039759 0.062123269 0.69649923
0.032006826 0.074015796 0.69607079
0.032006826 0.074015796 0.69607079
-0.022105709 0.018086523 0.69717926
0.0020103932 0.064332604 0.69727385
0.012085716 0.084599972 0.69774377
-0.014162489 0.034394622 0.69882131
0.036323097 0.078700066 0.69818604
-0.0040596067 0.056834519 0.69961685
-0.010200453 0.048962146 0.70085865
-0.014345617 0.047135592 0.70197922
0.036769152 0.059239179 0.70117736
0.036957148 0.055435717 0.70243806
0.039075904 0.063755423 0.70285475
0.041211128 0.072119474 0.70332909
-0.039117523 -0.067369044 0.71692586
-0.032867454 -0.061352581 0.71909475
-0.024314797 -0.041998297 0.72142118
-0.024339313 -0.039827943 0.72169018
-0.002305429 0.041497707 0.7328878
-0.032694396 -0.076286912 0.67385143
-0.016258197 -0.070452198 0.67265773
-0.014495482 -0.065229654 0.67331779
-0.021816222 -0.072720736 0.67405218
-0.012746831 -0.058271229 0.67440915
-0.012746831 -0.058271229 0.67440915
-0.00912078 -0.052900523 0.674793
-0.00912078 -0.052900523 0.674793
-0.014744729 -0.049763441 0.67707872
-0.020335801 -0.044369042 0.67775685
-0.0092311651 -0.042463332 0.67745793
-0.0036800955 -0.042321056 0.67671132
-0.0036805421 -0.040485948 0.67673838
-0.0036981287 -0.031434119 0.6777997
-0.009319922 -0.076423362 0.67960072
-0.03905173 -0.066945821 0.67907226
-0.03905173 -0.066945821 0.67907226
-0.0074588 -0.065264493 0.67968714
-0.0074351365 -0.063198656 0.67897296
-0.020364694 -0.042580694 0.67807388
-0.014822916 -0.038910121 0.67825842
-0.01485587 -0.035282671 0.67875564
0.0018640123 -0.016776115 0.67960411
-0.007492587 -0.073052704 0.68070674
-0.035660408 -0.054429054 0.68115544
-0.033887651 -0.048948824 0.68185353
-0.016817398 -0.028028995 0.6801579
-0.0074754595 -0.026164085 0.68018991
-0.014974747 -0.024333954 0.68054938
-0.0075166174 -0.015033215 0.68143189
0.0056211655 -0.014989793 0.68077618
0.0056364681 -0.0037576556 0.68139189
-0.039873604 -0.056962281 0.68379647
-0.039873604 -0.056962281 0.68379647
-0.037801292 -0.054811865 0.68274891
-0.030310763 -0.037888467 0.68327498
0.00094217085 -0.0075498968 0.68243623
0.0094538582 -0.005672276 0.68283421
-0.0056827515 -0.0018942654 0.68325418
-0.0037873108 -0.0018936694 0.68318242
-0.047760557 -0.068775207 0.68520629
-0.0019124302 -0.066935062 0.68544865
-0.045932736 -0.065071374 0.68562174
-0.043795906 -0.06474176 0.68445152
-0.030408738 -0.036110371 0.68401414
0.013343001 0.0057184398 0.6846897
0.0076040043 0.0095050037 0.68406904
0.0076040043 0.0095050037 0.68406904
0.009533111 0.015252978 0.68474758
0.015247923 0.017153919 0.68467128
0.015247923 0.017153919 0.68467128
0.01336423 0.022910088 0.68505585
0.017219374 0.026785731 0.68554932
-0.036462437 -0.044138759 0.68625081
-0.028904201 -0.025050312 0.68720102
-0.02686304 -0.023025483 0.68621624
0.0038422334 0.023053437 0.68649721
0.0057639694 0.023055881 0.68652213
0.0076969974 0.025015205 0.68687534
0.013508395 0.030876309 0.68754184
-0.044565547 -0.050378412 0.68849081
-0.038937513 -0.036990613 0.68960655
-0.02914677 -0.021374285 0.68915296
-0.025306528 -0.011679918 0.68958008
0.011634986 0.038783282 0.68867576
0.013639008 0.044813901 0.68979418
0.0097559774 -0.029267937 0.69012809
-0.035350353 -0.023566931 0.69166267
-0.031358164 -0.021558732 0.69117701
-0.031467121 -0.017700255 0.69199902
0.01374024 -0.015703112 0.69153988
0.01374024 -0.015703112 0.69153988
0.013661511 -0.0097582042 0.69018221
-0.019652968 0.0058959126 0.69183028
0.019643325 0.015714675 0.69171381
0.021610796 0.049115479 0.69174826
0.017627506 0.052882522 0.69102329
0.017627506 0.052882522 0.69102329
0.01179368 0.058968425 0.69186848
-0.027715001 -0.0059389174 0.69356197
-0.025650011 -0.0059192479 0.69276953
-0.007924309 0.035659403 0.69373506
-0.007924309 0.035659403 0.69373506
0.025767572 0.043606669 0.69386113
0.0039553111 0.055374324 0.69332206
0.019686295 0.062996149 0.69223255
0.021695215 0.065085649 0.69267464
0.019766085 0.071157932 0.6931957
-0.023943281 0.0079811215 0.69544876
0.02389811 0.019915104 0.69499433
0.001991858 0.057763904 0.69503641
0.027802339 0.059576422 0.69431502
0.0079631843 0.067687064 0.69490826
0.029892864 0.069750041 0.69515711
0.013899736 0.073470026 0.69429028
0.025785958 0.073390812 0.69403183
0.011970018 0.075810105 0.69541609
0.025861723 0.08156392 0.69473529
0.025884468 0.083626777 0.69494653
0.023912005 0.085684687 0.6951341
-0.022105709 0.018086523 0.69717926
-0.010030405 0.038115561 0.69675332
0 0.058109283 0.69647402
0.034193307 0.070398003 0.69739187
0.0100119 0.076090425 0.69630659
0.032005802 0.078014165 0.6960631
0.018027047 0.088132232 0.69638205
0.032102443 0.088281751 0.69679219
0.024336416 0.0081121624 0.69940335
-0.026277646 0.012128174 0.69859731
-0.016202932 0.034431249 0.69908124
-0.014184341 0.036474019 0.69919813
0.032405734 0.046583265 0.69908035
0.038608551 0.077217102 0.69988555
-0.010184216 0.046847403 0.70046663
0.036625758 0.063077748 0.7002157
0.010186622 0.089642316 0.70052475
-0.002057286 0.067890465 0.70293432
-0.035066601 -0.061366558 0.71915501
-0.028772278 -0.042051822 0.72176111
-0.026646482 -0.03552863 0.72264081
-0.022223352 -0.031112701 0.72285753
-0.022333955 -0.024567336 0.72419262
-0.015692607 -0.013450801 0.72520721
-0.017983638 -0.011239737 0.72595006
-0.015787104 -0.0045105815 0.7268368
-0.011364765 0.011364788 0.72896767
-0.011360946 0.018177539 0.7288754
-0.0045951479 0.034463584 0.73193967
0 0.043854266 0.73321259
0.0046384921 0.055661917 0.73455566
0.0046384921 0.055661917 0.73455566
-0.022393949 -0.06169679 0.67526805
-0.01000444 -0.062540784 0.67421478
-0.013222254 -0.058350801 0.67471647
-0.0073126866 -0.050274491 0.67527777
-0.040979903 -0.069850609 0.67944849
-0.013905726 -0.038008809 0.67840886
-0.0065846466 -0.074359238 0.68183488
-0.038685657 -0.057782453 0.68236756
-0.033926122 -0.049946427 0.68211395
-0.0065569011 -0.02154512 0.68075192
-0.0065569011 -0.02154512 0.68075192
0.0018729605 -0.010326942 0.68126822
-0.0025301785 0.0018992573 0.68369073
0.0015831235 0.0022166795 0.68389583
0.0075738011 0.0066281706 0.68315756
-0.029487599 -0.037099481 0.68424857
-0.026760215 -0.032494575 0.68532968
0.0096405279 -0.014461279 0.68734086
-0.019272473 -0.0067466795 0.68723726
-0.0028560641 0.0066640377 0.68441081
0.017283984 0.018242776 0.68641585
0.0024002236 0.022090539 0.68646657
0.0077634957 -0.033966318 0.68888217
-0.027167359 -0.017464757 0.68884009
0.014631515 -0.0029261857 0.69002795
0.014927274 0.0019474974 0.68958157
-0.014625641 0.010724291 0.68997377
0.01818997 0.042224079 0.68981528
0.014523661 -0.018474966 0.69356698
-0.030417778 -0.007273525 0.6940462
0.029909542 0.062809899 0.69529128
0.026789371 0.070443176 0.69412518
0.026813759 0.074480228 0.69434524
0.015969638 0.081844389 0.69556117
0.015969638 0.081844389 0.69556117
0.029942475 0.082841083 0.69555634
0.02225621 0.0010090172 0.69883084
-0.020288076 0.028403282 0.69949669
-0.0094060116 0.041638613 0.69780385
0.032441229 0.045619383 0.69934809
-0.0020041766 0.054112762 0.69652343
0.036382824 0.073775858 0.69858652
0.0060818046 0.078051582 0.6993109
0.0060818046 0.078051582 0.6993109
0.028061282 0.090196967 0.69654769
0.034916189 0.046210811 0.70252478
0.042072468 0.082076065 0.70230293
-0.0041536819 0.066458911 0.70529479
0.044529941 0.068910822 0.71056175
-0.03399631 -0.058124878 0.71936452
-0.03498555 -0.053572252 0.71854353
-0.022306971 -0.013384193 0.72386694
-0.011289228 0.001129508 0.727144
-0.011161547 0.022323102 0.72406155
-0.0068187369 0.014774531 0.72896278
-0.0098681618 0.021261524 0.72956264
-0.0098681618 0.021261524 0.72956264
