# .PCD v0.7 - Point Cloud Data file format
VERSION 0.7
FIELDS x y z
SIZE 4 4 4
TYPE F F F
COUNT 1 1 1
WIDTH 1355
HEIGHT 1
VIEWPOINT 0 0 0 1 0 0 0
POINTS 1355
DATA ascii
-0.019863071 -0.019863069 0.6943664
-0.019961091 -0.021957219 0.69554961
-0.020073928 -0.024088711 0.69691163
-0.020203535 -0.026264578 0.69847614
-0.020353436 -0.028494775 0.70028567
-0.020531749 -0.030797631 0.70243812
-0.020745331 -0.033192515 0.70501626
-0.021009441 -0.035716027 0.70820427
-0.021366689 -0.038460046 0.71251667
-0.021534236 -0.040915072 0.71453917
-0.021653708 -0.043307424 0.7159813
-0.019287262 0.021430314 0.71328437
-0.018304171 0.018304169 0.70009893
-0.018034482 0.016030639 0.69648176
-0.017866196 0.013895959 0.69422466
-0.017744474 0.011829674 0.69259208
-0.017656187 0.0098090172 0.69140792
-0.017588675 0.0078172088 0.69050246
-0.017538188 0.0058460832 0.6898253
-0.017426409 0.0038725436 0.68832612
-0.017180942 0.0019090176 0.6850338
-0.0171449 2.9802322e-08 0.6845504
-0.017164309 -0.00190714 0.68481076
-0.017231235 -0.0038291812 0.6857084
-0.017365929 -0.0057886541 0.68751496
-0.017496623 -0.0077762604 0.68926781
-0.017545637 -0.0097475946 0.68992525
-0.017587507 -0.011725008 0.69048679
-0.017638138 -0.013718545 0.69116592
-0.017700186 -0.01573348 0.69199812
-0.017772276 -0.017772287 0.69296497
-0.017855357 -0.019839287 0.69407928
-0.017950948 -0.021940053 0.69536138
-0.018060884 -0.024081171 0.69683588
-0.018188102 -0.026271731 0.69854218
-0.018336292 -0.028523147 0.70052975
-0.018511238 -0.03085205 0.70287609
-0.018730128 -0.033298016 0.70581198
-0.019012997 -0.035913438 0.70960593
-0.019260453 -0.038520873 0.71292484
-0.019348502 -0.040846825 0.71410584
-0.01954399 -0.043431073 0.71672773
-0.017096637 0.023507893 0.71256626
-0.016301051 0.020376325 0.70056176
-0.016011991 0.018013537 0.69620019
-0.015846297 0.015846312 0.69370008
-0.01573183 0.013765335 0.69197291
-0.015645009 0.01173377 0.69066286
-0.015581552 0.0097384751 0.68970537
-0.015533421 0.0077667236 0.68897915
-0.015477924 0.0058042109 0.6881417
-0.015231734 0.0038079023 0.68442708
-0.015174914 0.0018968582 0.68356967
-0.015181015 -0 0.68366182
-0.0152271 -0.0019033849 0.68435711
-0.015322458 -0.0038305819 0.68579596
-0.015457483 -0.0057965219 0.68783331
-0.015516623 -0.0077583194 0.68872571
-0.015551587 -0.0097197592 0.68925321
-0.015594847 -0.01169616 0.68990594
-0.015646111 -0.013690352 0.69067955
-0.015705904 -0.015705913 0.69158173
-0.015775166 -0.017747045 0.69262677
-0.015854897 -0.019818634 0.69382977
-0.015946863 -0.021926939 0.69521749
-0.016053282 -0.024079949 0.69682324
-0.016177263 -0.026288033 0.69869393
-0.016323119 -0.028565466 0.70089477
-0.016497631 -0.030933052 0.70352793
-0.016722171 -0.033444345 0.70691603
-0.016994294 -0.036112845 0.71102202
-0.017093718 -0.038460851 0.71252215
-0.017204657 -0.04086104 0.71419615
-0.01491935 0.025576055 0.71187294
-0.014329125 0.022517204 0.70169485
-0.014002538 0.020003617 0.69606304
-0.013840525 0.017794967 0.69326919
-0.013730221 0.015691698 0.69136709
-0.013649958 0.01364997 0.68998301
-0.013588579 0.011647373 0.68892461
-0.013543079 0.0096736252 0.68813992
-0.01350579 0.0077176094 0.68749696
-0.013308726 0.0057037175 0.68409872
-0.013230053 0.0037799776 0.68274206
-0.013219167 0.0018884838 0.68255424
-0.01324912 -0 0.68307078
-0.01331657 -0.0019023716 0.68423396
-0.013435849 -0.0038387775 0.68629086
-0.01350699 -0.0057887435 0.68751764
-0.013538472 -0.0077362657 0.68806052
-0.013573256 -0.0096952021 0.68866032
-0.013614726 -0.011669725 0.68937546
-0.01366343 -0.013663411 0.69021535
-0.013720271 -0.015680313 0.69119555
-0.013786862 -0.017725974 0.69234383
-0.013863149 -0.019804478 0.69365937
-0.013950613 -0.02192238 0.69516766
-0.014051637 -0.024088532 0.69690979
-0.014169822 -0.026315421 0.69894779
-0.014312788 -0.028625548 0.70141309
-0.014487134 -0.031043857 0.70441967
-0.014722309 -0.033650994 0.70847505
-0.014867924 -0.036107779 0.71098614
-0.01494086 -0.038419366 0.71224385
-0.015164093 -0.04115963 0.7160933
-0.012777128 0.027683765 0.71165389
-0.012671534 0.02534306 0.70952952
-0.012000736 0.022001386 0.69603407
-0.011842903 0.019738197 0.69285876
-0.011740824 0.017611265 0.69080508
-0.011666682 0.015555561 0.68931347
-0.011611092 0.013546288 0.68819505
-0.011568631 0.011568636 0.6873408
-0.011536976 0.0096141696 0.68670398
-0.011429193 0.0076194704 0.68453556
-0.011299625 0.0056498051 0.68192881
-0.011281705 0.0037605762 0.68156826
-0.011295925 0.0018826425 0.68185437
-0.011342186 2.9802322e-08 0.68278509
-0.01143124 -0.0019052327 0.68457669
-0.011514366 -0.0038381219 0.68624908
-0.011545718 -0.0057728589 0.68687987
-0.011572911 -0.007715255 0.68742692
-0.011605795 -0.0096714795 0.68808842
-0.011645999 -0.011646032 0.68889731
-0.011692535 -0.013641268 0.68983352
-0.011746153 -0.015661538 0.69091225
-0.011807643 -0.017711431 0.69214934
-0.011878328 -0.019797206 0.69357139
-0.011959956 -0.021926582 0.69521368
-0.012054899 -0.024109811 0.69712377
-0.012166579 -0.026360929 0.69937062
-0.012303852 -0.028708965 0.70213234
-0.012478241 -0.031195611 0.70564079
-0.012660632 -0.03376168 0.70931017
-0.012722009 -0.0360457 0.710545
-0.012823354 -0.03847006 0.7125839
-0.010533912 0.027388185 0.70890903
-0.010007334 0.024017632 0.69619638
-0.0098569151 0.021685213 0.6925649
-0.0097629055 0.019525826 0.69029534
-0.0096955206 0.017451942 0.68866849
-0.0096458774 0.015433401 0.68747002
-0.0096084243 0.013451785 0.68656582
-0.0095800562 0.011496067 0.68588096
-0.0095392177 0.0095392168 0.68489498
-0.0093918918 0.0075135231 0.68133825
-0.0093609672 0.0056165755 0.6805917
-0.0093668904 0.003746748 0.68073463
-0.0093961246 0.0018791854 0.68144047
-0.0094566094 -0 0.68290067
-0.009537654 -0.0019074976 0.68485725
-0.0095730182 -0.003829211 0.68571103
-0.0095942747 -0.005756557 0.68622422
-0.0096206544 -0.0076965094 0.6868611
-0.0096517578 -0.0096517503 0.687612
-0.0096880123 -0.011625618 0.68848717
-0.0097298352 -0.013621777 0.68949699
-0.0097779781 -0.015644759 0.69065922
-0.009833321 -0.017699987 0.69199526
-0.009897314 -0.019794613 0.69354022
-0.0099717546 -0.021937847 0.69533736
-0.01005916 -0.024141967 0.69744748
-0.01016353 -0.026425153 0.69996727
-0.010294641 -0.028824985 0.70313251
-0.010465697 -0.031397104 0.70726222
-0.010537861 -0.033721119 0.7090044
-0.010596734 -0.036028892 0.71042573
-0.0084043406 0.02941519 0.70822132
-0.0080241943 0.026078641 0.69674939
-0.0078769978 0.023631006 0.69230735
-0.0077942349 0.021434128 0.6898098
-0.0077369274 0.019342333 0.68808043
-0.0076936837 0.017310798 0.68677533
-0.0076611992 0.015322387 0.68579507
-0.0076369657 0.013364702 0.68506372
-0.0076148245 0.011422247 0.68439561
-0.0074986219 0.0093732774 0.68088889
-0.0074613304 0.0074613392 0.6797635
-0.0074567716 0.0055926144 0.67962587
-0.0074753202 0.0037376881 0.68018568
-0.0075138239 0.0018784404 0.68134761
-0.0075810771 -0 0.68337715
-0.0076194629 -0.0019048452 0.6845355
-0.007636907 -0.0038184524 0.68506199
-0.0076562762 -0.0057422221 0.68564653
-0.0076793069 -0.0076793134 0.68634152
-0.0077063027 -0.0096328557 0.6871562
-0.0077379439 -0.011606902 0.68811107
-0.0077747665 -0.013605833 0.68922222
-0.007816853 -0.015633702 0.69049239
-0.0078650797 -0.01769641 0.6919477
-0.0079206713 -0.019801676 0.69362533
-0.0079852333 -0.021959394 0.69557357
-0.0080627268 -0.024188191 0.69791222
-0.0081577674 -0.026512742 0.70078033
-0.0082824733 -0.028988659 0.70454365
-0.0083800601 -0.031425238 0.70748866
-0.008417313 -0.033669233 0.70861286
-0.0085042957 -0.036143243 0.71123773
-0.0062886262 0.031443119 0.70763266
-0.0060578808 0.028270155 0.69834822
-0.0059054475 0.025590301 0.69221473
-0.0058357446 0.023342997 0.68941015
-0.0057881516 0.021223217 0.68749517
-0.0057540494 0.019180179 0.68612301
-0.0057278336 0.017183512 0.68506813
-0.005707839 0.01522091 0.68426365
-0.0056929239 0.013283491 0.68366349
-0.0056243245 0.011248678 0.68090326
-0.0055760625 0.009293437 0.6789614
-0.0055686361 0.0074248612 0.67866254
-0.0055763526 0.0055763721 0.67897302
-0.0056002359 0.0037334859 0.67993397
-0.005644416 0.0018814802 0.68171167
-0.0056840638 -0 0.68330699
-0.0056990841 -0.0018996894 0.68391138
-0.0057123569 -0.0038082302 0.68444544
-0.0057283579 -0.005728364 0.68508923
-0.0057479017 -0.0076638758 0.68587565
-0.0057704845 -0.0096174777 0.68678427
-0.005796399 -0.011592776 0.68782699
-0.0058261184 -0.01359427 0.68902278
-0.0058601676 -0.015627116 0.69039285
-0.0058994591 -0.017698377 0.69197381
-0.0059450911 -0.019816935 0.69380993
-0.0059986655 -0.021995097 0.69596559
-0.0060631172 -0.024252474 0.69855893
-0.0061460072 -0.026632726 0.70189416
-0.0062414035 -0.029126555 0.70573264
-0.0062748776 -0.031374365 0.70707953
-0.0063164644 -0.0336878 0.70875287
-0.0041930676 0.03354454 0.70767194
-0.004154406 0.03115806 0.70533848
-0.0039376928 0.02756387 0.69225872
-0.0038843204 0.02524808 0.68903732
-0.0038503346 0.023102015 0.68698615
-0.0038252992 0.021039128 0.68547517
-0.0038068618 0.019034296 0.68436235
-0.003792708 0.017067164 0.6835081
-0.0037820148 0.015128076 0.68286276
-0.0037631139 0.013170928 0.68172193
-0.003706937 0.011120826 0.67833138
-0.0036966535 0.0092416704 0.67771071
-0.0036994822 0.0073989928 0.67788142
-0.0037113365 0.0055670142 0.67859685
-0.0037358599 0.0037358999 0.68007702
-0.0037670096 0.0018835068 0.68195707
-0.0037805289 -0 0.68277305
-0.0037888165 -0.0018944144 0.6832732
-0.0037991009 -0.0037990808 0.68389392
-0.0038111969 -0.0057168007 0.68462402
-0.0038252405 -0.0076504946 0.68547165
-0.0038414372 -0.0096035898 0.68644917
-0.0038600182 -0.01158005 0.68757063
-0.0038813672 -0.013584822 0.68885922
-0.0039060009 -0.015623987 0.69034594
-0.003934612 -0.017705739 0.69207281
-0.0039681247 -0.019840628 0.69409543
-0.0040080799 -0.02204442 0.69650698
-0.0040570232 -0.024342149 0.69946086
-0.0041232356 -0.02680099 0.70345718
-0.0041588605 -0.029112011 0.70560735
-0.0041793729 -0.031345278 0.7068454
-0.0042455993 -0.033964783 0.71084249
-0.0020717415 0.033147901 0.70467925
-0.0019709715 0.029564559 0.69251525
-0.0019399688 0.027159572 0.68877286
-0.0019210725 0.024973959 0.68649185
-0.0019077491 0.022893012 0.68488359
-0.0018976269 0.020873874 0.68366182
-0.001890136 0.018901378 0.68275756
-0.0018844127 0.016959727 0.68206662
-0.0018785336 0.015028238 0.68135697
-0.0018488049 0.012941629 0.67776835
-0.0018412936 0.011047781 0.6768617
-0.0018407924 0.0092039406 0.6768012
-0.0018455315 0.0073821247 0.67737329
-0.0018551317 0.0055654049 0.67853212
-0.0018716682 0.0037432909 0.68052828
-0.0018807789 0.0018807948 0.68162805
-0.0018850232 -2.9802322e-08 0.68214035
-0.0018897434 -0.0018897653 0.68271017
-0.0018953412 -0.0037906766 0.68338585
-0.0019018754 -0.0057056546 0.6841746
-0.0019095837 -0.0076383352 0.68510509
-0.0019184944 -0.0095924735 0.68618071
-0.00192867 -0.011572033 0.68740892
-0.0019402999 -0.013582051 0.68881279
-0.0019536791 -0.015629441 0.6904279
-0.0019692029 -0.017722815 0.69230175
-0.0019874906 -0.019874871 0.69450927
-0.002010159 -0.022111714 0.6972456
-0.0020390511 -0.024468631 0.70073318
-0.0020664623 -0.026864022 0.70404202
-0.0020759273 -0.029062957 0.70518452
-0.0020926844 -0.03139025 0.70720726
0 0.035126954 0.70402139
0 0.031627744 0.69321078
0 0.029075176 0.68857694
0 0.026844919 0.68606001
0 0.024739414 0.68431425
0 0.022707611 0.68301898
0 0.020724654 0.68202382
0 0.018778652 0.68127614
0 0.0168567 0.68068469
0 0.014778733 0.6775921
0 0.012843728 0.67608011
0 0.010996491 0.67583025
0 0.0091775656 0.67616379
0 0.0073748827 0.67715412
0 0.0055750608 0.67892134
0 0.0037418604 0.6804387
0 0.0018757582 0.68101865
0 2.9802322e-08 0.6815393
0 -0.0018852651 0.68216693
0 -0.0037831664 0.68293178
0 -0.0056966245 0.68381214
0 -0.0076289475 0.68482214
0 -0.0095839798 0.68597662
0 -0.01156652 0.68729866
0 -0.013582617 0.68882102
0 -0.015639931 0.69058633
0 -0.017749101 0.69265401
0 -0.019925326 0.69511783
0 -0.022204161 0.69825977
0 -0.024611861 0.70217395
0 -0.026827991 0.7037077
0 -0.029053479 0.70510244
0.0020622208 0.037119985 0.70353001
0.0019938105 0.033894777 0.69527215
0.00193761 0.031001717 0.68848813
0.0019142959 0.028714448 0.68567395
0.0018985126 0.026579171 0.68376869
0.0018870707 0.024531901 0.68238747
0.0018783642 0.022540361 0.68133658
0.0018716822 0.020588517 0.68052995
0.0018666547 0.018666565 0.67992306
0.0018541691 0.016687512 0.67841595
0.0018292041 0.014633626 0.6754024
0.0018250607 0.012775421 0.67490226
0.0018266999 0.010960221 0.67510009
0.0018326881 0.0091634691 0.67582291
0.0018451096 0.0073804259 0.67732239
0.0018600695 0.0055802166 0.67912817
0.0018665293 0.0037330091 0.67990798
0.0018705697 0.0018705726 0.6803956
0.0018755901 2.9802322e-08 0.68100166
0.0018814722 -0.0018814504 0.68171167
0.0018882814 -0.0037765503 0.68253362
0.0018961097 -0.0056883693 0.68347859
0.0019050905 -0.0076203644 0.68456268
0.0019154833 -0.0095773935 0.68581718
0.0019273773 -0.011564255 0.68725288
0.0019410375 -0.013587266 0.68890184
0.0019570566 -0.015656412 0.69083548
0.0019761713 -0.017785549 0.69314295
0.0019993954 -0.019993961 0.69594634
0.0020303223 -0.022333562 0.69967955
0.0020517774 -0.024621308 0.70226932
0.0020608364 -0.026790857 0.70336288
0.0020824594 -0.02915442 0.70597297
0.0041295481 0.039230704 0.70383823
0.0040864125 0.036777705 0.70123476
0.0038770514 0.032954961 0.68859875
0.0038233262 0.0305866 0.68535608
0.0037890603 0.028417945 0.68328798
0.003763949 0.026347637 0.68177235
0.0037454241 0.024345249 0.68065423
0.0037312494 0.022387505 0.67979872
0.003720457 0.020462513 0.67914736
0.003706855 0.018534273 0.67832643
0.0036491768 0.016421288 0.67484522
0.0036357332 0.014542907 0.67403382
0.0036359313 0.0127258 0.6740458
0.0036456138 0.010936856 0.67463022
0.003664772 0.0091619194 0.6757865
0.0036972952 0.007394582 0.67774945
0.0037146015 0.005571872 0.67879397
0.0037228512 0.0037228465 0.6792919
0.0037320566 0.0018660128 0.67984748
0.0037429302 -0 0.68050373
0.0037556149 -0.0018778145 0.68126929
0.0037706431 -0.0037706494 0.68217635
0.0037878985 -0.0056818426 0.68321788
0.003807557 -0.0076151192 0.68440437
0.0038299989 -0.0095749795 0.68575883
0.003855794 -0.011567384 0.6873157
0.0038856624 -0.013599843 0.68911839
0.0039206459 -0.015682608 0.69122982
0.0039634099 -0.017835379 0.69381088
0.0040173968 -0.020087004 0.69706929
0.0040765079 -0.022420794 0.70063692
0.0040968014 -0.024580806 0.70186174
0.0041244929 -0.026809186 0.70353305
0.0061136908 0.038720071 0.70059383
0.0058241514 0.034944952 0.68894368
0.0057286201 0.032462209 0.68509978
0.0056717149 0.030249149 0.68281013
0.0056321537 0.028160751 0.68121827
0.0056018033 0.026141763 0.67999709
0.0055788187 0.024174899 0.67907226
0.005561539 0.022246182 0.67837691
0.0055462914 0.02033639 0.67776346
0.0054666884 0.018222302 0.67456049
0.0054346835 0.016304076 0.67327273
0.005429612 0.014478952 0.67306864
0.0054390952 0.012691259 0.67345017
0.0054637236 0.010927439 0.67444116
0.005507404 0.0091790259 0.67619872
0.0055431984 0.0073909461 0.67763901
0.0055570919 0.0055571198 0.67819798
0.0055696899 0.0037131608 0.67870492
0.0055849212 0.0018616617 0.67931783
0.0056033926 5.9604645e-08 0.68006098
0.0056246407 -0.0018748641 0.68091601
0.0056489408 -0.0037659407 0.68189371
0.0056766695 -0.0056766868 0.68300951
0.0057083601 -0.0076111257 0.68428457
0.0057448004 -0.0095746517 0.68575084
0.0057869689 -0.01157397 0.68744755
0.0058362894 -0.013617992 0.68943208
0.0058949417 -0.015719831 0.69179201
0.0059679477 -0.017903835 0.69472957
0.0060643903 -0.020214587 0.69861013
0.0061098584 -0.022402763 0.70043963
0.0061403755 -0.024561495 0.70166755
0.0081304936 0.040652484 0.69995725
0.0077930209 0.037016809 0.68977314
0.0076336153 0.034351289 0.68496269
0.0075496496 0.032086015 0.68242872
0.0074912687 0.029965073 0.68066692
0.0074486961 0.027932614 0.67938215
0.0074157971 0.025955319 0.67838943
0.0073905764 0.024019361 0.67762834
0.007371658 0.022114992 0.67705739
0.0073019746 0.020080477 0.67495453
0.0072222934 0.018055767 0.6725499
0.0072094933 0.016221374 0.67216361
0.0072168764 0.014433771 0.67238641
0.0072411071 0.012671918 0.67311764
0.0072913603 0.010937065 0.67463422
0.0073488676 0.009186089 0.67636961
0.0073735593 0.0073735416 0.67711478
0.0073893219 0.0055420101 0.67759043
0.0074089067 0.0037044585 0.67818147
0.0074317683 0.0018579662 0.67887139
0.0074582165 -0 0.6796695
0.0074885213 -0.0018721223 0.68058407
0.0075233704 -0.0037616491 0.68163574
0.0075637158 -0.0056727529 0.68285322
0.0076096416 -0.0076096356 0.68423921
0.0076623433 -0.00957793 0.68582958
0.007723283 -0.011584908 0.68766862
0.0077962694 -0.013643473 0.68987113
0.0078849737 -0.015769929 0.69254804
0.0079998197 -0.017999589 0.69601381
0.0080980901 -0.020245224 0.69897938
0.0081333676 -0.022366732 0.70004398
0.0081998464 -0.024599552 0.70205021
0.010146547 0.042615503 0.69955724
0.010067985 0.040271938 0.69766057
0.0095395446 0.036250263 0.68490291
0.0094215665 0.033917665 0.6820547
0.0093435571 0.031768084 0.68017137
0.0092855729 0.029713809 0.6787715
0.0092422143 0.02772665 0.67772472
0.0092087053 0.025784373 0.67691576
0.0091832522 0.023876458 0.67630124
0.0091433804 0.021944135 0.67533863
0.0090053789 0.019811839 0.67200696
0.0089751072 0.017950207 0.67127615
0.0089784898 0.016161263 0.67135781
0.0090031745 0.014405072 0.6719538
0.0090509253 0.012671322 0.67310655
0.0091309324 0.010957122 0.6750381
0.0091719739 0.0091719627 0.67602897
0.0091920244 0.0073536038 0.67651302
0.0092145046 0.0055286884 0.67705578
0.0092409505 0.0036964118 0.6776942
0.0092716711 0.0018543303 0.67843586
0.0093083056 2.9802322e-08 0.67932028
0.009350122 -0.0018700063 0.68032986
0.0093976427 -0.0037590861 0.68147707
0.0094517861 -0.0056710839 0.68278426
0.0095139332 -0.0076111257 0.68428457
0.0095857829 -0.0095857978 0.68601918
0.0096697388 -0.011603713 0.68804604
0.0097702648 -0.013678372 0.69047302
0.0098986849 -0.015837908 0.69357336
0.0100514 -0.018092513 0.6972602
0.010108012 -0.020216018 0.69862688
0.010164686 -0.022362322 0.69999516
0.012061826 0.04221639 0.69726312
0.011454748 0.038182527 0.68504965
0.011292654 0.035760075 0.68178856
0.011189159 0.033567488 0.67970639
0.011114554 0.03149125 0.67820549
0.011057814 0.029487491 0.67706394
0.011015253 0.027538121 0.67620766
0.010982572 0.025626004 0.67555022
0.010951004 0.023727179 0.67491513
0.01078673 0.021573454 0.67161024
0.010733279 0.019677699 0.67053485
0.010725343 0.017875582 0.67037517
0.010746573 0.016119868 0.6708023
0.010795885 0.014394522 0.67179435
0.010882764 0.012696564 0.67354226
0.010950444 0.010950446 0.67490387
0.010977392 0.0091478229 0.67544597
0.011002013 0.0073346496 0.67594135
0.011031727 0.0055158734 0.67653912
0.011067678 0.0036892295 0.67726243
0.011108878 0.0018514991 0.67809129
0.011155938 2.9802322e-08 0.67903805
0.011209547 -0.001868248 0.68011659
0.011270694 -0.0037568808 0.68134677
0.011340945 -0.0056704879 0.68276012
0.011422063 -0.0076147318 0.68439209
0.011516707 -0.0095972419 0.68629616
0.011629082 -0.011629075 0.68855697
0.011765441 -0.013726354 0.69130027
0.011949341 -0.015932441 0.69500005
0.012061195 -0.018091798 0.69725049
0.012114686 -0.020191133 0.69832659
0.012243588 -0.022446543 0.70091987
0.014035983 0.044113129 0.69663978
0.013388751 0.040166289 0.68547869
0.013160456 0.037601292 0.68154192
0.013028914 0.035364211 0.67927349
0.012935849 0.033263594 0.67766869
0.012865479 0.031244755 0.67645514
0.012811174 0.029282689 0.67551869
0.012769743 0.027363747 0.67480427
0.012738209 0.025476426 0.6742605
0.012584881 0.023371905 0.67161644
0.012479372 0.02139321 0.66979694
0.0124617 0.019582629 0.66949224
0.012475994 0.017822891 0.66973871
0.012519966 0.016097099 0.67049706
0.012607758 0.014408857 0.6720109
0.012704386 0.012704372 0.67367727
0.012745673 0.010924846 0.67438918
0.01277263 0.0091233253 0.67485404
0.012806068 0.0073177516 0.67543066
0.012845001 0.0055049956 0.67610204
0.012889863 0.003682822 0.67687559
0.012941252 0.0018487573 0.67776179
0.013000718 -0 0.67878729
0.013069021 -0.0018669665 0.67996514
0.013146626 -0.0037561655 0.68130338
0.013235551 -0.0056723952 0.68283683
0.013338224 -0.0076217949 0.68460733
0.013458876 -0.0096134543 0.68668789
0.01360711 -0.011663228 0.68924415
0.013793432 -0.013793409 0.69245708
0.013983196 -0.01598078 0.69572955
0.01404848 -0.018062323 0.69685531
0.014145216 -0.020207494 0.69852346
0.016000343 0.046000987 0.69602448
0.015364746 0.042253047 0.68643403
0.015034929 0.039466679 0.68145752
0.014866075 0.037165225 0.67890966
0.014748694 0.035028189 0.67713851
0.014663922 0.032993823 0.67585945
0.014598357 0.031021506 0.67487013
0.014547742 0.029095501 0.67410642
0.014509301 0.027204961 0.67352641
0.014435627 0.025262356 0.67241472
0.014225243 0.023116022 0.66924024
0.014183858 0.021275789 0.66861582
0.014191753 0.019513637 0.66873497
0.01423197 0.01778996 0.66934174
0.014309556 0.016098261 0.67051244
0.014434117 0.014434099 0.67239195
0.014496427 0.012684405 0.6733321
0.014527625 0.010895729 0.67380285
0.01456272 0.0091017187 0.67433238
0.014603895 0.0073019266 0.6749537
0.014651791 0.0054944456 0.67567635
0.014708752 0.0036772192 0.67653584
0.014773517 0.0018466711 0.67751306
0.014847053 -0 0.67862266
0.014930732 -0.0018663406 0.67988527
0.01502652 -0.0037566125 0.68133056
0.015137156 -0.0056764483 0.68299997
0.015266184 -0.0076331198 0.68494684
0.015419315 -0.0096370578 0.68725741
0.015612851 -0.01170963 0.69017768
0.015859669 -0.013877213 0.69390184
0.015964288 -0.015964299 0.69548041
0.016045045 -0.0180507 0.69669896
0.01797696 0.047938555 0.6957103
0.017845027 0.045603931 0.69394076
0.016914867 0.041347474 0.68146515
0.016699094 0.03896454 0.67857111
0.016558543 0.036796778 0.67668599
0.016453093 0.034734309 0.67527169
0.016375136 0.032750279 0.67422611
0.016314743 0.030816734 0.67341608
0.016268359 0.028921545 0.67279398
0.016217856 0.027029723 0.67211664
0.015966006 0.024835974 0.66873872
0.015900835 0.022967875 0.66786468
0.015892081 0.021189451 0.66774726
0.015927099 0.01946646 0.66821694
0.016001122 0.017778993 0.66920978
0.016130254 0.016130239 0.67094171
0.016226737 0.014423758 0.67223579
0.016265949 0.012651294 0.67276168
0.016301986 0.010868013 0.67324501
0.016345477 0.0090808272 0.67382836
0.016397914 0.0072879791 0.6745317
0.016457964 0.0054859817 0.67533708
0.016526336 0.00367257 0.67625403
0.016604088 0.001844883 0.67729688
0.016692594 2.9802322e-08 0.67848396
0.01679413 -0.0018660128 0.67984581
0.016911119 -0.0037580132 0.68141484
0.01704748 -0.0056824684 0.68324381
0.017208913 -0.0076483786 0.68540895
0.017404251 -0.0096690059 0.68802893
0.017661033 -0.011774033 0.69147301
0.017857553 -0.013889194 0.69410872
0.017932219 -0.015939772 0.6951102
0.018080534 -0.018080533 0.69709945
0.019784374 0.04748255 0.69341648
0.018807789 0.043257922 0.68162799
0.018534549 0.040775985 0.67832977
0.018360978 0.038558036 0.67623454
0.018237835 0.036475658 0.67474806
0.018143004 0.034471691 0.67360336
0.018070601 0.032527059 0.67272937
0.018015686 0.030626684 0.67206651
0.01796891 0.028750271 0.67150187
0.017726557 0.02658987 0.66857636
0.01760797 0.02465114 0.66714489
0.017586434 0.022862375 0.6668849
0.017608777 0.021130532 0.66715467
0.017674148 0.019441575 0.66794378
0.017798821 0.017798841 0.66944867
0.017931497 0.016138375 0.67105019
0.017987838 0.01439029 0.67173034
0.018025357 0.012617737 0.67218328
0.018071972 0.010843217 0.67274588
0.018126113 0.0090630651 0.67339951
0.01818838 0.0072753429 0.67415112
0.018259399 0.0054778457 0.67500836
0.018342266 0.0036684573 0.67600864
0.018436683 0.0018436909 0.6771484
0.018543821 -0 0.6784417
0.018666269 -0.0018666089 0.67991972
0.018807506 -0.0037614703 0.68162465
0.01897224 -0.0056916773 0.68361312
0.019172521 -0.0076690018 0.68603069
0.019423863 -0.009711951 0.68906468
0.01971049 -0.011826247 0.69252461
0.019811951 -0.013868362 0.69374931
0.019923497 -0.015938789 0.69509578
0.021707708 0.049335718 0.69281173
0.020732911 0.045235455 0.6821146
0.020370649 0.042593211 0.67813921
0.020162079 0.040324181 0.67585045
0.0200142 0.038208932 0.67422771
0.019904401 0.036189854 0.67302281
0.019819181 0.034233123 0.67208761
0.019753458 0.032323867 0.67136639
0.019703744 0.030451238 0.67082089
0.019566312 0.028460085 0.66931272
0.019313985 0.026337236 0.66654378
0.019267198 0.024521917 0.66603035
0.019280361 0.022785902 0.66617477
0.019336581 0.021094441 0.66679174
0.019445341 0.01944536 0.6679852
0.019611491 0.017828643 0.66980851
0.019692676 0.016112179 0.67069936
0.019734405 0.014352292 0.6711573
0.019781571 0.012588263 0.67167497
0.01983661 0.010819972 0.67227888
0.019900875 0.0090458691 0.67298412
0.019977007 0.0072643459 0.6738196
0.020063302 0.0054718256 0.67476654
0.02016112 0.0036656857 0.67583996
0.020272136 0.001842916 0.67705822
0.020399187 2.9802322e-08 0.67845237
0.02054562 -0.0018677711 0.68005937
0.02071598 -0.0037665367 0.68192881
0.020917846 -0.00570485 0.68414402
0.021166824 -0.007697016 0.68687618
0.02149643 -0.0097711086 0.69049329
0.021673001 -0.011821598 0.69243085
0.02176944 -0.013853252 0.69348919
0.022004254 -0.016003102 0.69606596
0.02362179 0.051180512 0.69221479
0.022751592 0.047399133 0.68346125
0.022214469 0.044428945 0.67805821
0.021959923 0.04208985 0.67549765
0.021785745 0.039940506 0.67374557
0.021656485 0.037898839 0.67244536
0.021558432 0.035930783 0.67145902
0.021482304 0.034013659 0.67069322
0.021423973 0.032135963 0.67010641
0.021343779 0.030237019 0.66929972
0.021018762 0.028025001 0.66603035
0.020942153 0.026177704 0.66525972
0.020936677 0.024426132 0.66520464
0.020985264 0.022734046 0.6656934
0.021084007 0.02108404 0.66668665
0.021254323 0.019483179 0.66839993
0.021376606 0.017813832 0.66962999
0.021427488 0.016070634 0.67014182
0.021474389 0.014316231 0.67061365
0.02153099 0.012559742 0.67118299
0.021599069 0.010799527 0.67186779
0.021676736 0.0090319812 0.67264903
0.021765055 0.0072550178 0.67353749
0.021865319 0.005466342 0.674546
0.021979377 0.0036632717 0.67569339
0.022110902 0.0018425584 0.6770165
0.022261001 -0 0.67852628
0.022434339 -0.0018695295 0.68026996
0.022640578 -0.003773421 0.68234456
0.022889499 -0.0057223737 0.68484849
0.023207463 -0.0077357888 0.68804693
0.023502054 -0.0097925067 0.6910103
0.023605259 -0.011802614 0.69204849
0.023770574 -0.013866156 0.69371146
0.025565127 0.053096831 0.69198126
0.025378305 0.050756603 0.69024658
0.024073154 0.04629454 0.67812765
0.023758808 0.043862462 0.67520881
0.023553878 0.04167223 0.67330599
0.023402864 0.039604872 0.67190373
0.023287743 0.037618637 0.67083478
0.023200447 0.03569302 0.67002416
0.02313287 0.033809572 0.66939676
0.02306978 0.031942755 0.6688109
0.022743734 0.029741824 0.66578341
0.022611698 0.027829766 0.6645574
0.02258838 0.026063502 0.66434091
0.022619721 0.024359733 0.6646319
0.022707768 0.02270779 0.66544944
0.022868956 0.021109819 0.66694617
0.023034649 0.019490868 0.66848469
0.023104686 0.017772824 0.66913503
0.023152303 0.016028553 0.66957712
0.023211457 0.014283955 0.67012644
0.023279993 0.012535363 0.67076284
0.023358492 0.010780841 0.67149174
0.023447998 0.009018451 0.67232287
0.023553111 0.0072471499 0.67329884
0.023671826 0.0054627359 0.67440116
0.02380646 0.0036625564 0.67565131
0.023960007 0.0018430948 0.67707705
0.024136845 -0 0.67871904
0.024342613 -0.0018724799 0.68062973
0.02458765 -0.0037826896 0.68290496
0.0248989 -0.0057458878 0.68579507
0.025278989 -0.0077781081 0.68932432
0.025429502 -0.009780556 0.69072199
0.025559101 -0.011796504 0.69192529
0.027265912 0.052584261 0.68968987
0.025953559 0.048199475 0.67837447
0.025559243 0.045641512 0.67497456
0.025315572 0.043398112 0.67287368
0.025144283 0.041308433 0.67139673
0.025012217 0.039304912 0.67025805
0.024909753 0.037364602 0.66937459
0.024830814 0.035472602 0.66869402
0.024771193 0.033618063 0.66817987
0.024534602 0.031544507 0.66613996
0.02427646 0.02947858 0.6639142
0.024229186 0.02769053 0.66350657
0.024248812 0.02598092 0.66367579
0.024321385 0.024321407 0.66430151
0.024462288 0.022714972 0.6655165
0.024666088 0.021142364 0.66727364
0.024765413 0.019458532 0.66813004
0.024817092 0.017726511 0.66857564
0.024875699 0.015991539 0.66908097
0.024943903 0.014253676 0.66966903
0.025023742 0.012511909 0.67035741
0.025117775 0.010764748 0.67116821
0.025224322 0.009008646 0.67208689
0.025344698 0.0072413683 0.67312473
0.025481235 0.0054602921 0.67430198
0.025637163 0.003662467 0.67564648
0.025816493 0.0018440485 0.67719269
0.026024912 -0 0.67898971
0.026271261 -0.0018765032 0.68111372
0.026568692 -0.0037955344 0.68367827
0.026965415 -0.0057782829 0.68709886
0.027235487 -0.0077815652 0.6894275
0.027344886 -0.0097660124 0.69037074
0.027575027 -0.011817843 0.6923551
0.029140431 0.054395467 0.68910205
0.027883524 0.050190359 0.67898715
0.027367925 0.047437757 0.67483795
0.027081154 0.04513526 0.67253023
0.026877593 0.043004155 0.67089212
0.026728846 0.040984243 0.66969508
0.026612841 0.039032191 0.66876155
0.026522839 0.037131965 0.66803724
0.026454033 0.035272062 0.66748351
0.026337346 0.03336063 0.6665445
0.025948266 0.031137884 0.66341347
0.025861803 0.029310048 0.66271764
0.025863051 0.027587265 0.66272771
0.02592532 0.025925338 0.66322875
0.026048679 0.024312109 0.66422153
0.026259389 0.022758186 0.66591716
0.026404615 0.021123707 0.66708583
0.02646644 0.019408762 0.66758335
0.026523776 0.017682523 0.66804481
0.026592851 0.015955716 0.66860068
0.026675645 0.014227033 0.66926694
0.026770033 0.012492687 0.67002648
0.026877018 0.01075083 0.67088747
0.026998255 0.0089994073 0.67186308
0.027137361 0.0072366595 0.67298251
0.02729626 0.005459249 0.67426127
0.027477339 0.0036636591 0.67571849
0.027685629 0.0018457174 0.67739469
0.027929906 -0 0.67936045
0.028227283 -0.0018818378 0.68175358
0.028596282 -0.0038128197 0.68472302
0.028996663 -0.0057993233 0.68794507
0.029135566 -0.0077694952 0.68906283
0.029303813 -0.0097679496 0.69041681
0.031009803 0.056205273 0.6885488
0.029954646 0.052420616 0.6805883
0.02918192 0.049244493 0.67475849
0.028841089 0.046866745 0.67218715
0.028611442 0.044705391 0.6704545
0.028436638 0.042654961 0.66913581
0.028306331 0.040690333 0.66815269
0.028204516 0.038781196 0.66738456
0.028125837 0.036915183 0.66679102
0.028045731 0.035057187 0.66618663
0.027631626 0.032812536 0.66306245
0.027495066 0.03093195 0.66203219
0.027471857 0.029188871 0.66185701
0.027513208 0.027513176 0.6621691
0.027625142 0.025898576 0.66301352
0.027822338 0.024344563 0.66450125
0.028018348 0.022764891 0.6659801
0.028100563 0.021075398 0.66660035
0.028157791 0.019358516 0.66703206
0.02822898 0.017643124 0.6675691
0.028311037 0.01592496 0.66818821
0.028404957 0.014202476 0.66889679
0.028512396 0.012474179 0.6697073
0.028637949 0.010739267 0.67065454
0.028779401 0.0089935958 0.67172176
0.028939404 0.0072348714 0.67292887
0.029121837 0.0054603517 0.6743052
0.029331496 0.0036664009 0.67588699
0.029574867 0.0018484592 0.67772305
0.029862799 -0 0.67989534
0.030223224 -0.0018889308 0.68261451
0.030687908 -0.0038360059 0.68612033
0.030909237 -0.0057954788 0.68779004
0.031048529 -0.0077621341 0.68884104
0.031387668 -0.0098086298 0.69139957
0.032922287 0.058098167 0.68836683
0.032675922 0.05574128 0.68661749
0.031023884 0.051098138 0.674887
0.030609695 0.048615396 0.67194599
0.030339586 0.04640168 0.67002803
0.030143797 0.044329137 0.66863781
0.029992338 0.042342156 0.66756237
0.029875936 0.040420383 0.66673577
0.029786799 0.038547635 0.66610289
0.029713338 0.036704719 0.66558135
0.029358501 0.034539402 0.66306174
0.029117705 0.032543302 0.66135192
0.029074114 0.030784339 0.66104239
0.029101171 0.029101163 0.6612345
0.02919055 0.02747348 0.66186917
0.02936448 0.025909811 0.66310424
0.029602796 0.024378777 0.66479635
0.029718945 0.022726268 0.6656211
0.029780021 0.021021217 0.66605473
0.029849412 0.019314349 0.66654748
0.029930074 0.017605901 0.66712022
0.030024735 0.015895456 0.66779238
0.030135786 0.014181584 0.66858095
0.030261114 0.01246047 0.66947085
0.030402698 0.010730386 0.6704762
0.030562842 0.0089890659 0.67161328
0.03074545 0.0072342157 0.67290992
0.030955013 0.0054626465 0.67439801
0.031198207 0.0036704242 0.67612481
0.031485058 0.0018520653 0.67816162
0.031830505 -0 0.68061447
0.032278877 -0.0018987358 0.68379825
0.032654095 -0.0038416386 0.68646252
0.032790042 -0.0057865083 0.68742782
0.033023514 -0.0077702403 0.6890856
0.034516357 0.057527304 0.68606973
0.032897413 0.053001404 0.67521286
0.03237636 0.050363272 0.6717186
0.032066625 0.048099935 0.66964149
0.03184361 0.045996338 0.6681459
0.031674728 0.043992639 0.66701341
0.03154305 0.042057425 0.6661303
0.031441085 0.040174723 0.66544652
0.03136313 0.038332701 0.66492373
0.03120167 0.036401957 0.66384095
0.030757125 0.034174591 0.66085982
0.030664137 0.032367706 0.66023618
0.030674893 0.030674875 0.66030836
0.030751351 0.029042929 0.66082108
0.03089937 0.027466118 0.66181368
0.031149549 0.025957942 0.66349143
0.031314932 0.024356067 0.66460049
0.031387284 0.0226686 0.66508573
0.031454369 0.020969599 0.66553563
0.031535432 0.019271642 0.66607916
0.031632233 0.017573446 0.66672838
0.031742267 0.015871137 0.66746628
0.031866707 0.014163017 0.66830081
0.032007478 0.012447357 0.66924483
0.032170281 0.010723442 0.6703366
0.032354727 0.0089874268 0.67157352
0.03256448 0.0072365701 0.67298019
0.032805387 0.0054675639 0.67459571
0.033085089 0.0036761761 0.67647147
0.033423599 0.0018568635 0.67874151
0.033845626 2.9802322e-08 0.68157172
0.034341838 -0.0019078851 0.68489945
0.034528662 -0.0038365126 0.68615228
0.034705222 -0.0057841837 0.68733627
0.036345344 0.059300333 0.68550694
0.034840342 0.055011094 0.67594534
0.034161415 0.05214113 0.67163199
0.03379564 0.049804121 0.66930813
0.033538707 0.047660261 0.66767579
0.033348467 0.045634776 0.66646719
0.033201952 0.043686807 0.66553634
0.033087436 0.041794658 0.66480881
0.032999117 0.039946318 0.66424769
0.032894071 0.038087845 0.66358036
0.032395273 0.035805315 0.66041136
0.032262359 0.033960372 0.65956694
0.032241024 0.032241046 0.6594314
0.032296557 0.030596763 0.6597842
0.032430083 0.029016405 0.66063249
0.032663066 0.027505755 0.66211271
0.032886561 0.025963098 0.66353261
0.032979883 0.024300963 0.6641255
0.03304626 0.022610605 0.6645472
0.033128828 0.020923465 0.66507179
0.033223767 0.019234806 0.66567492
0.033331983 0.017543137 0.66636246
0.033456556 0.015847862 0.66715389
0.033601176 0.014147848 0.6680727
0.033763953 0.01243937 0.66910684
0.033947576 0.010720313 0.67027342
0.034156628 0.0089885592 0.67160159
0.034396376 0.0072413683 0.67312473
0.034674384 0.005474925 0.674891
0.035002355 0.0036844909 0.67697465
0.035403043 0.0018633008 0.67952037
0.035932403 2.9802322e-08 0.68288338
0.036251791 -0.0019080043 0.68491256
0.036396965 -0.0038312674 0.68583488
0.036710955 -0.0057964325 0.68782973
0.03818031 0.061088502 0.68503648
0.037115842 0.057529569 0.67861181
0.035955511 0.053933263 0.67160863
0.035523087 0.051508456 0.66899872
0.035235036 0.049329072 0.66726017
0.035017543 0.047273695 0.6659475
0.034851562 0.04530704 0.66494572
0.034723978 0.043404967 0.66417569
0.03462474 0.041549712 0.66357672
0.034535002 0.03971523 0.66303509
0.034075439 0.037482977 0.66026139
0.033850331 0.035542846 0.65890276
0.033806074 0.033806086 0.65863562
0.033841517 0.032149434 0.65884954
0.033947937 0.030553162 0.65949184
0.034155805 0.029032439 0.6607464
0.03442594 0.027540743 0.66237682
0.034557302 0.025917977 0.66316974
0.034627255 0.024239093 0.66359186
0.034707118 0.022559613 0.66407394
0.034799568 0.020879745 0.66463196
0.034908336 0.01919955 0.66528839
0.035035197 0.017517596 0.66605401
0.035178307 0.015830219 0.6669178
0.035339434 0.014135808 0.66789031
0.035521448 0.012432545 0.66898882
0.035728805 0.010718673 0.67024034
0.035966106 0.0089915395 0.67167258
0.036241196 0.0072482526 0.67333293
0.036564566 0.0054846704 0.67528462
0.036953431 0.003695339 0.67763162
0.037443448 0.0018721521 0.68058908
0.037929665 2.9802322e-08 0.68352371
0.038100794 -0.0019050241 0.6845566
0.038326096 -0.0038326085 0.68591636
0.040080912 0.062984288 0.68498814
0.039752323 0.060574979 0.68309933
0.037775952 0.055764496 0.67173892
0.037260883 0.053229839 0.66877824
0.036924761 0.050991327 0.66684616
0.036684979 0.04891333 0.66546786
0.036498804 0.046927035 0.66439772
0.036353588 0.045009196 0.66356301
0.036241241 0.043144345 0.66291714
0.036155693 0.041320801 0.66242546
0.035893857 0.039312363 0.66092038
0.035449915 0.037138045 0.65836853
0.03535901 0.035359025 0.65784603
0.035376154 0.033691585 0.65794456
0.035467263 0.032089412 0.65846825
0.035639893 0.030548513 0.65946054
0.035928711 0.029085129 0.66112077
0.036111832 0.027513772 0.66217339
0.03619393 0.025852799 0.66264522
0.036270514 0.024180353 0.66308546
0.036362898 0.02251038 0.66361648
0.036472961 0.020841718 0.66424912
0.036597583 0.019170195 0.66496551
0.036738336 0.01749447 0.66577458
0.03689805 0.01581347 0.66669261
0.037082702 0.014126778 0.66775405
0.037290771 0.012430251 0.66895002
0.037527036 0.010722011 0.67030811
0.037797965 0.0089995563 0.67186546
0.038111918 0.0072593987 0.67367011
0.038483769 0.0054976642 0.6758076
0.038953286 0.0037098229 0.67850643
0.039540648 0.0018828809 0.68188262
0.039791461 -0 0.68332434
0.039973266 -0.0019034743 0.68436933
0.040415298 -0.0038490593 0.68691021
0.041548148 0.062322199 0.68256634
0.039647643 0.057669312 0.67213857
0.039001465 0.054956615 0.66859305
0.038620654 0.052664548 0.66650361
0.038344864 0.050545484 0.66499043
0.038139734 0.048541456 0.66386491
0.037979066 0.046610683 0.6629833
0.037853688 0.044736177 0.6622954
0.037757087 0.042905807 0.66176534
0.037612211 0.04103148 0.66097045
0.037051499 0.038735688 0.6578939
0.036917794 0.036917835 0.65716028
0.03689985 0.03522259 0.65706182
0.03697136 0.033610314 0.65745419
0.037126604 0.032063872 0.658306
0.037394743 0.03059569 0.65977722
0.037643462 0.02908814 0.66114193
0.037746601 0.027452111 0.66170782
0.037821691 0.025787532 0.66211981
0.037915096 0.024127781 0.66263235
0.038022093 0.022467583 0.66321945
0.038143963 0.020805836 0.6638881
0.038284853 0.019142419 0.66466111
0.03844732 0.017476052 0.66555256
0.038629733 0.015803069 0.66655338
0.038835388 0.014121979 0.66768181
0.039069016 0.012431026 0.66896367
0.039336372 0.010728121 0.67043066
0.039645929 0.0090104342 0.67212915
0.040010359 0.0072745979 0.67412871
0.040448625 0.0055157244 0.6765334
0.041025843 0.0037296414 0.67970055
0.041458331 0.0018844903 0.68207353
0.041624188 -0 0.68298358
0.04192524 -0.0019056499 0.68463534
0.043332517 0.064056754 0.68201959
0.041611072 0.059702843 0.6729849
0.040760104 0.056709737 0.66851878
0.040314469 0.054336935 0.66617996
0.040006287 0.052182108 0.66456252
0.03977235 0.050147772 0.66333473
0.039595552 0.04820329 0.66240686
0.039456539 0.046318561 0.66167724
0.039348342 0.044480741 0.66110945
0.039241675 0.042654008 0.66054958
0.038694896 0.040377289 0.65767992
0.038472142 0.038472146 0.65651095
0.038428977 0.036758155 0.65628433
0.038473684 0.035128146 0.656519
0.038597561 0.033563107 0.6571691
0.038840115 0.032085329 0.65844214
0.039139178 0.030630678 0.66001171
0.039284673 0.029036552 0.6607753
0.039363012 0.02738294 0.66118646
0.03945275 0.025730044 0.66165745
0.03955622 0.024077684 0.66220045
0.039678417 0.022426933 0.6628418
0.039820381 0.020775855 0.66358685
0.039979883 0.019120812 0.66442394
0.040159438 0.017460644 0.66536629
0.040361691 0.015793711 0.66642779
0.04059333 0.014119387 0.66764355
0.040857639 0.012434959 0.66903067
0.041160721 0.010737568 0.67062134
0.041515153 0.0090250671 0.67248148
0.041943047 0.0072944462 0.6747272
0.042471506 0.0055397451 0.67750072
0.04306899 0.0037451386 0.68063653
0.043282319 0.0018818378 0.68175614
0.043504518 -0 0.68292224
0.045138866 0.065827519 0.68162888
0.044830989 0.063510597 0.68008035
0.042539064 0.05849117 0.66855294
0.042014726 0.056019634 0.66591567
0.041665595 0.053818077 0.66415966
0.041406564 0.05175823 0.66285688
0.041205522 0.049790055 0.66184568
0.041049734 0.047891378 0.66106218
0.040929552 0.04604575 0.66045767
0.040833797 0.04423663 0.65997601
0.040441602 0.042126626 0.65800345
0.040030692 0.040030688 0.65593678
0.0399464 0.038281947 0.65551281
0.039970733 0.036639869 0.65563518
0.040076781 0.035067201 0.65616858
0.040273823 0.033561528 0.65715957
0.040600616 0.032142162 0.65880328
0.040798977 0.030599236 0.65980089
0.040890526 0.028964132 0.66026139
0.040976059 0.027317405 0.66069162
0.041079223 0.025674522 0.66121048
0.041201703 0.024034321 0.66182649
0.04134028 0.02239266 0.66252345
0.041496277 0.020748138 0.66330808
0.041674558 0.019100845 0.66420478
0.041879047 0.017449588 0.66523325
0.042109016 0.01579091 0.66638994
0.042369764 0.014123261 0.66770136
0.042668294 0.012444913 0.66920286
0.04301339 0.010753363 0.67093861
0.043420091 0.0090458691 0.67298412
0.043924663 0.0073207915 0.67552191
0.044578694 0.0055723488 0.67881143
0.044927601 0.0037440062 0.68056631
0.045108683 0.0018795431 0.68147707
0.045505598 -0 0.68347335
0.047056265 0.067761034 0.68180561
0.046617325 0.065264285 0.67968631
0.044345614 0.060310006 0.6687175
0.043720983 0.05771172 0.66570151
0.043321244 0.055451185 0.66377139
0.043035384 0.053363919 0.66239113
0.042814732 0.051377684 0.66132569
0.042641923 0.049464643 0.66049135
0.042507164 0.047608018 0.6598407
0.04240356 0.045795888 0.65934038
0.042213671 0.043902248 0.65842354
0.041602671 0.041602701 0.65547335
0.04146504 0.039806426 0.65480882
0.041454595 0.038138241 0.65475839
0.041541327 0.036556363 0.65517724
0.041718248 0.035043329 0.65603143
0.042021237 0.03361699 0.65749443
0.042292595 0.032142371 0.65880466
0.042404424 0.030531198 0.65934455
0.042487819 0.028891712 0.65974724
0.042591687 0.027258664 0.66024882
0.042710207 0.025626123 0.66082102
0.042844649 0.023992985 0.66147017
0.043001059 0.022360563 0.66222543
0.043180376 0.020726591 0.66309118
0.043381188 0.019087732 0.66406083
0.043606974 0.017442822 0.665151
0.043863252 0.01579079 0.66638845
0.044156048 0.014129937 0.66780221
0.044494517 0.012458473 0.66943645
0.044891804 0.010774046 0.67135477
0.045368534 0.0090737343 0.67365658
0.045979213 0.0073567033 0.67660522
0.046530105 0.0055836439 0.67926514
0.046728078 0.0037382543 0.68022108
0.047010463 0.0018804371 0.68158448
0.048370074 0.066973984 0.67916662
0.046212494 0.062209159 0.66914952
0.045440599 0.059422344 0.66556579
0.044986166 0.057097852 0.66345602
0.044658009 0.054963708 0.66193247
0.044415887 0.052957416 0.66080838
0.044226389 0.051030457 0.65992856
0.044077441 0.049163312 0.65923709
0.043961708 0.047343403 0.65869975
0.043837421 0.045523494 0.65812272
0.043199822 0.043199807 0.65516257
0.042986989 0.041333646 0.65417439
0.042946544 0.03964296 0.65398663
0.043001484 0.038039774 0.65424168
0.043146525 0.03650859 0.65491509
0.043420717 0.035070568 0.65618813
0.043746468 0.033651143 0.65770042
0.043904588 0.032084107 0.65843457
0.043990843 0.030455232 0.65883499
0.044090141 0.028828204 0.65929604
0.044204146 0.027202547 0.65982533
0.044339139 0.025580287 0.66045207
0.044495035 0.023958892 0.66117585
0.044670124 0.022335082 0.66198874
0.044866547 0.020707637 0.66290069
0.045088135 0.019075751 0.66392946
0.045343194 0.017439693 0.66511357
0.04563202 0.015795738 0.66645455
0.045962363 0.014142275 0.66798824
0.046344358 0.012477338 0.66976178
0.046804216 0.010800987 0.6718967
0.04737417 0.0091104209 0.67454284
0.048062887 0.0073943138 0.67774034
0.048339702 0.0055776834 0.67902553
0.048563644 0.0037356913 0.68006527
0.049106989 0.001888752 0.68258786
0.050111964 0.068671972 0.67863679
0.048244733 0.064326316 0.67028886
0.047172002 0.061148882 0.66549289
0.046645917 0.058739275 0.66314089
0.046287756 0.056573927 0.66153961
0.046012655 0.054533511 0.66030967
0.045802213 0.052587718 0.65936887
0.045638505 0.050709456 0.65863699
0.045510132 0.048881263 0.65806305
0.045398038 0.047079474 0.6575619
0.044859864 0.044859856 0.6551559
0.044503279 0.042854995 0.65356171
0.044429664 0.041138589 0.65323257
0.044461977 0.039521813 0.653377
0.04458347 0.0379785 0.65392017
0.044804964 0.036507756 0.65491045
0.045168836 0.035131335 0.65653718
0.045380343 0.033615083 0.6574828
0.045480717 0.032004952 0.65793157
0.045574766 0.03038317 0.65835202
0.045688052 0.028766572 0.65885854
0.045822565 0.027154118 0.65945989
0.045973975 0.025541067 0.66013682
0.046144355 0.023926705 0.66089851
0.046340313 0.022312045 0.66177458
0.046563119 0.020694703 0.66277075
0.046813533 0.019072205 0.66389024
0.047096845 0.017443329 0.6651569
0.047420535 0.015806884 0.66660404
0.047794312 0.014161319 0.66827512
0.048233539 0.012505025 0.67023879
0.048765261 0.01083672 0.672616
0.049465548 0.0091602802 0.6757468
0.049935255 0.0073978305 0.67784679
0.050127581 0.0055697262 0.67870659
0.050495375 0.0037404001 0.6803509
0.05189462 0.070428401 0.67832059
0.051557552 0.068129599 0.67686749
0.048939958 0.062922776 0.66558278
0.04832232 0.0604029 0.66292006
0.047911175 0.058177859 0.66114759
0.047611423 0.056113452 0.65985531
0.047377642 0.054145873 0.65884745
0.047194581 0.05225116 0.65805829
0.047051929 0.050412774 0.65744328
0.046942517 0.048619062 0.65697157
0.046693292 0.046693295 0.6558972
0.046046734 0.044402182 0.65310979
0.045907918 0.042628795 0.65251136
0.045909878 0.040990949 0.65251982
0.046009839 0.039436996 0.6529507
0.046208326 0.037956834 0.65380645
0.046545915 0.036571801 0.65526181
0.04683784 0.035128385 0.65652037
0.046957307 0.033540934 0.65703541
0.047048613 0.031925887 0.65742898
0.047162175 0.030318558 0.65791851
0.047291763 0.028712869 0.65847719
0.047438119 0.027107507 0.65910822
0.047609318 0.025504977 0.65984631
0.047804095 0.023902059 0.66068596
0.048022024 0.022295922 0.6616255
0.048266716 0.020685762 0.66268039
0.048543833 0.019070804 0.66387504
0.048859909 0.017449975 0.66523767
0.049224369 0.015822113 0.66680884
0.049651425 0.014186144 0.66864997
0.050162707 0.012540698 0.67085415
0.050798021 0.010885298 0.67359298
0.051471554 0.0091913342 0.67649674
0.05170979 0.0073871315 0.67752373
0.051976059 0.0055688918 0.67867166
0.053551227 0.068324 0.67750156
0.049998105 0.062066615 0.66271186
0.049539104 0.059788525 0.66080135
0.049203143 0.057686448 0.65940291
0.048948362 0.055699855 0.65834248
0.048748072 0.053790957 0.65750867
0.048590709 0.051941782 0.65685368
0.048468817 0.050140172 0.65634632
0.048309226 0.048309237 0.65568203
0.047594588 0.045953393 0.6527074
0.047398541 0.044129699 0.65189135
0.047362342 0.042462796 0.65174073
0.047428131 0.040886343 0.65201455
0.047596462 0.039390147 0.65271521
0.047901124 0.03799054 0.65398335
0.048251074 0.036604255 0.65543997
0.048420779 0.035063326 0.65614635
0.048514679 0.033458412 0.65653723
0.048622947 0.031856388 0.65698791
0.048746929 0.030256748 0.65750396
0.048893936 0.028661966 0.65811586
0.049063228 0.02706936 0.65882057
0.049252745 0.025475562 0.65960944
0.049464967 0.023879647 0.66049278
0.049706258 0.022282124 0.66149712
0.049981743 0.020682096 0.66264379
0.050293051 0.019076675 0.6639396
0.050648537 0.017465025 0.66541922
0.051058624 0.015845805 0.66712624
0.051542141 0.014218509 0.66913879
0.052148603 0.012587607 0.67166317
0.05291364 0.010947645 0.6748476
0.053281639 0.0091864765 0.67637938
0.053497922 0.0073790252 0.67727965
0.053977732 0.0055839121 0.67927682
0.053022631 0.061859727 0.66794455
0.050511345 0.057246178 0.65783989
0.050293196 0.055322528 0.65696216
0.05012057 0.053461969 0.65626752
0.049985543 0.051651746 0.65572417
0.049856383 0.049856424 0.65520453
0.049201246 0.047561228 0.6525684
0.048880011 0.045621365 0.65127593
0.04881214 0.043930948 0.65100276
0.048853446 0.042339683 0.651169
0.048990726 0.040825605 0.65172142
0.049239498 0.039391637 0.65272236
0.049636785 0.038054854 0.65432096
0.049859192 0.036563367 0.65521586
0.049967907 0.034977525 0.65565324
0.050070245 0.033380181 0.65606499
0.050193299 0.031789094 0.65656018
0.050338902 0.030203313 0.6571461
0.050502677 0.028618157 0.65780503
0.050686166 0.027032584 0.65854335
0.050898943 0.025449455 0.65939945
0.051139105 0.023864895 0.66036576
0.051408116 0.022276849 0.66144824
0.051712379 0.020684987 0.66267246
0.052059051 0.019088298 0.66406739
0.052458942 0.017486304 0.66567641
0.052927468 0.01587823 0.66756165
0.053488933 0.014263719 0.66982079
0.054219045 0.012651116 0.67275852
0.054816406 0.010963291 0.67516208
0.055035878 0.0091726482 0.67604518
