# .PCD v0.7 - Point Cloud Data file format
VERSION 0.7
FIELDS x y z
SIZE 4 4 4
TYPE F F F
COUNT 1 1 1
WIDTH 1336
HEIGHT 1
VIEWPOINT 0 0 0 1 0 0 0
POINTS 1336
DATA ascii
-0.018205013 0.052592278 0.69876897
-0.018175036 0.050486237 0.69836688
-0.018145083 0.048386872 0.6979652
-0.018115301 0.046294659 0.69756573
-0.018086998 0.044212699 0.69718611
-0.018059 0.042137682 0.6968106
-0.018031016 0.040068924 0.69643527
-0.018003192 0.038006723 0.69606209
-0.017975381 0.03595078 0.69568902
-0.017947728 0.033901274 0.69531816
-0.017920088 0.031857967 0.69494748
-0.017892605 0.029821008 0.69457889
-0.017865133 0.027790219 0.69421041
-0.017838947 0.025767356 0.69385922
-0.017813332 0.02375114 0.69351566
-0.017787861 0.021740705 0.69317406
-0.017762393 0.019736022 0.69283235
-0.017737066 0.017737091 0.69249272
-0.017711742 0.015743792 0.6921531
-0.017686561 0.013756216 0.69181538
-0.01766145 0.011774272 0.69147861
-0.017636342 0.0097979903 0.69114178
-0.017612889 0.0078279674 0.69082725
-0.017589774 0.0058632493 0.69051719
-0.017566787 0.0039037466 0.69020885
-0.01754386 0.0019493401 0.68990135
-0.017520994 2.9802322e-08 0.68959475
-0.017498186 -0.0019442439 0.68928879
-0.017475439 -0.0038834214 0.68898368
-0.017452681 -0.0058175623 0.6886785
-0.017430795 -0.0077469945 0.68838489
-0.017410308 -0.0096724033 0.68811017
-0.017389867 -0.011593252 0.68783605
-0.017369544 -0.013509661 0.68756348
-0.017349202 -0.01542148 0.68729061
-0.017328907 -0.017328918 0.68701833
-0.017308725 -0.019231915 0.68674767
-0.017288523 -0.021130443 0.68647677
-0.017269364 -0.023025811 0.68621975
-0.017251765 -0.024919242 0.68598378
-0.017234202 -0.026808739 0.68574816
-0.017216677 -0.028694451 0.68551314
-0.01719912 -0.030576199 0.68527764
-0.017181665 -0.032454252 0.68504351
-0.017164243 -0.03432849 0.68480992
-0.017146729 -0.036198646 0.68457496
-0.017162152 -0.038138092 0.68478179
-0.0171596 -0.040039092 0.68474758
-0.017146925 -0.041914701 0.68457758
-0.017134203 -0.04378739 0.68440694
-0.017121565 -0.045657516 0.68423748
-0.01710888 -0.047524661 0.68406725
-0.017096862 -0.049390942 0.68390608
-0.017087586 -0.051262766 0.68378174
-0.017078837 -0.053134173 0.68366444
-0.017070163 -0.055003822 0.68354803
-0.017061949 -0.056873173 0.68343788
-0.017054645 -0.058743805 0.68333989
-0.017051224 -0.060626566 0.683294
-0.017047867 -0.062508792 0.683249
-0.017044963 -0.06439212 0.68321007
-0.01704406 -0.066282421 0.68319798
-0.017048189 -0.06819278 0.68325329
-0.017052773 -0.070105851 0.6833148
-0.017059427 -0.072028667 0.68340403
-0.017075922 -0.07399568 0.68362528
-0.01709258 -0.075967014 0.68384868
-0.017127881 -0.078026995 0.68432212
-0.017180286 -0.080174685 0.6850251
-0.016645057 0.091547817 0.70575243
-0.016612934 0.089294523 0.70526773
-0.016580936 0.087049901 0.70478487
-0.016549058 0.084813923 0.70430392
-0.016517509 0.08258757 0.70382786
-0.016487099 0.080374599 0.70336908
-0.0164568 0.078169793 0.70291185
-0.016426612 0.075973094 0.70245636
-0.016396536 0.073784411 0.70200253
-0.016366567 0.071603775 0.70155036
-0.016336711 0.069431037 0.70109981
-0.016307028 0.067266494 0.70065194
-0.016277386 0.065109551 0.70020473
-0.016247854 0.062960446 0.69975907
-0.016219279 0.060822338 0.69932795
-0.016191201 0.058693141 0.69890428
-0.016163219 0.056571275 0.6984821
-0.01613527 0.054456502 0.69806039
-0.016107479 0.052349329 0.69764107
-0.016079785 0.050249368 0.69722313
-0.016052123 0.048156381 0.69680572
-0.016024617 0.046070784 0.69639075
-0.015997209 0.043992341 0.69597721
-0.015970211 0.041921794 0.69556981
-0.015944194 0.039860517 0.6951772
-0.015918326 0.037806034 0.69478691
-0.015892539 0.035758227 0.69439781
-0.015866773 0.033716917 0.69400907
-0.015841154 0.031682312 0.69362247
-0.015815618 0.029654324 0.69323713
-0.015790101 0.027632684 0.69285214
-0.015764728 0.025617689 0.6924693
-0.015739437 0.023609161 0.69208771
-0.015715091 0.021608263 0.69172037
-0.015691252 0.0196141 0.69136059
-0.015667545 0.017625988 0.69100296
-0.015643848 0.015643865 0.69064534
-0.015620284 0.013667792 0.6902898
-0.01559673 0.011697561 0.68993437
-0.015573307 0.0097333193 0.68958098
-0.015549895 0.0077749491 0.6892277
-0.015526612 0.0058224797 0.68887645
-0.015503701 0.003875941 0.68853068
-0.015481994 0.0019352436 0.68820316
-0.015460288 -2.9802322e-08 0.68787569
-0.015438702 -0.0019298494 0.68754995
-0.015417118 -0.0038542747 0.68722427
-0.015395593 -0.0057733357 0.68689942
-0.015374186 -0.0076870918 0.68657649
-0.015352783 -0.0095954835 0.68625355
-0.015331496 -0.0114986 0.68593228
-0.015310502 -0.01339671 0.6856156
-0.015290851 -0.015290827 0.68531901
-0.015271308 -0.017180204 0.6850242
-0.015251816 -0.019064754 0.68473005
-0.015232373 -0.020944506 0.68443668
-0.015212979 -0.022819459 0.68414402
-0.015193635 -0.024689645 0.68385214
-0.01517434 -0.026555091 0.68356109
-0.015155037 -0.02841565 0.68326974
-0.015136755 -0.030273497 0.68299389
-0.015119374 -0.032128662 0.68273163
-0.015102034 -0.033979595 0.68247002
-0.01508479 -0.035826355 0.68220979
-0.015097933 -0.03774482 0.68240809
-0.01508064 -0.039586693 0.6821472
-0.015063501 -0.041424632 0.68188864
-0.015048155 -0.043263435 0.68165708
-0.015033066 -0.045099229 0.68142939
-0.015018063 -0.046931446 0.68120301
-0.01500309 -0.048760027 0.68097711
-0.014988147 -0.050585002 0.68075156
-0.014973234 -0.052406311 0.68052649
-0.01495835 -0.054223984 0.68030202
-0.014945282 -0.056044817 0.68010479
-0.014932402 -0.057863086 0.67991048
-0.014919601 -0.059678406 0.67971736
-0.014906823 -0.061490655 0.67952448
-0.014895062 -0.063304007 0.6793471
-0.014884262 -0.06511867 0.67918414
-0.014873643 -0.066931397 0.67902386
-0.014863537 -0.068743855 0.67887139
-0.014853444 -0.070553869 0.6787191
-0.014843529 -0.072362214 0.67856956
-0.014836157 -0.074180797 0.67845827
-0.014829286 -0.076000109 0.67835462
-0.014822477 -0.077817991 0.67825186
-0.014815674 -0.079634234 0.67814916
-0.014810632 -0.081458434 0.67807305
-0.014808221 -0.083296254 0.67803675
-0.014805756 -0.085133091 0.6779995
-0.015138874 -0.088940874 0.68302584
-0.014531312 0.091339648 0.70518142
-0.01450231 0.089085609 0.70468128
-0.014473426 0.08684054 0.70418322
-0.014444596 0.084604055 0.70368606
-0.014415939 0.082376808 0.70319194
-0.014387514 0.080158979 0.70270169
-0.014360085 0.077954739 0.70222872
-0.01433276 0.075758845 0.70175755
-0.014305539 0.073571354 0.7012881
-0.01427848 0.071392417 0.70082152
-0.014251463 0.069221407 0.70035559
-0.014224551 0.067058623 0.69989151
-0.014197738 0.064903975 0.69942915
-0.014171027 0.062757403 0.69896853
-0.014144417 0.060618937 0.69850963
-0.014118531 0.058491051 0.69806325
-0.014093136 0.056372553 0.69762534
-0.014067834 0.054261655 0.69718903
-0.014042622 0.052158326 0.69675428
-0.014017501 0.050062507 0.69632107
-0.01399247 0.047974199 0.69588935
-0.013967526 0.045893312 0.69545931
-0.013942673 0.043819815 0.69503069
-0.013917963 0.041753888 0.69460458
-0.013893284 0.039695114 0.69417906
-0.013869628 0.037646145 0.69377106
-0.01384616 0.035604417 0.69336641
-0.013822718 0.033569455 0.69296217
-0.013799409 0.031541526 0.6925602
-0.013776178 0.029520363 0.69215965
-0.013753028 0.027506053 0.69176042
-0.013729898 0.02549839 0.69136155
-0.013706901 0.023497522 0.690965
-0.013683982 0.021503419 0.69056976
-0.013661404 0.019516319 0.69018042
-0.013639645 0.0175367 0.68980521
-0.013618009 0.015563428 0.68943208
-0.013596388 0.013596386 0.6890592
-0.013574887 0.011635631 0.68868846
-0.013553455 0.009681046 0.68831885
-0.013532037 0.0077326 0.68794954
-0.01351074 0.005790323 0.68758225
-0.01348951 0.0038541555 0.68721616
-0.013468294 0.0019240379 0.68685037
-0.013447662 -0 0.68649453
-0.013427762 -0.0019182563 0.68615139
-0.013407868 -0.0038307905 0.6858083
-0.013388086 -0.0057377219 0.68546724
-0.013368363 -0.0076390803 0.68512708
-0.013348644 -0.0095347464 0.68478709
-0.013329036 -0.011424899 0.68444896
-0.013309434 -0.013309419 0.68411088
-0.013289941 -0.015188485 0.68377471
-0.013270454 -0.017062038 0.68343878
-0.013252026 -0.018931448 0.68312097
-0.013233851 -0.020796001 0.68280745
-0.013215776 -0.022655606 0.68249583
-0.013197699 -0.024509996 0.6821841
-0.013179721 -0.026359469 0.68187404
-0.013161742 -0.028203696 0.68156397
-0.013143863 -0.030043125 0.6812557
-0.013125982 -0.031877369 0.6809473
-0.01310815 -0.033706635 0.68063986
-0.013091099 -0.035533041 0.68034589
-0.013098983 -0.037425637 0.68048179
-0.013082592 -0.039247751 0.68019915
-0.013066194 -0.041065186 0.67991638
-0.013049836 -0.042878032 0.67963433
-0.013033568 -0.044686526 0.67935377
-0.013017341 -0.04649052 0.67907399
-0.013001587 -0.048291594 0.67880225
-0.012986596 -0.050091147 0.67854375
-0.012971973 -0.05188787 0.67829156
-0.012957385 -0.053680569 0.67804003
-0.012942828 -0.055469245 0.67778903
-0.012928305 -0.057253927 0.67753851
-0.012913957 -0.059035242 0.67729115
-0.012899736 -0.060813069 0.67704594
-0.012885499 -0.062586725 0.67680037
-0.012872524 -0.064362615 0.67657661
-0.012859857 -0.06613642 0.67635822
-0.012847216 -0.067906737 0.67614025
-0.012834598 -0.069673538 0.67592263
-0.012822007 -0.071436912 0.67570555
-0.012809534 -0.07319735 0.6754905
-0.012797458 -0.074956492 0.67528212
-0.012786666 -0.076719999 0.67509609
-0.012775939 -0.078480735 0.67491114
-0.012765229 -0.080238566 0.67472643
-0.012754537 -0.081993431 0.67454207
-0.012743863 -0.08374539 0.67435795
-0.012806489 -0.085986406 0.67543793
-0.01243704 0.091204941 0.70481187
-0.012411333 0.088947922 0.70429462
-0.012385781 0.086700469 0.70378059
-0.012360334 0.084462285 0.70326865
-0.012334993 0.08223328 0.70275885
-0.012309705 0.080013096 0.70225006
-0.012284872 0.077804178 0.70175046
-0.012260689 0.075607568 0.7012639
-0.012236602 0.073419571 0.70077932
-0.012212609 0.071240216 0.70029664
-0.01218866 0.069069058 0.6998148
-0.012164855 0.066906691 0.69933593
-0.012141142 0.064752787 0.69885886
-0.012117521 0.062607229 0.69838363
-0.012093992 0.060469955 0.69791031
-0.012070507 0.058340788 0.69743776
-0.012047789 0.056223005 0.69698066
-0.012025396 0.054114282 0.69653022
-0.01200304 0.052013189 0.69608039
-0.011980765 0.049919844 0.69563234
-0.011958574 0.047834307 0.69518584
-0.011936465 0.045756429 0.69474107
-0.011914438 0.043686271 0.69429785
-0.01189249 0.041623712 0.69385636
-0.011870672 0.039568931 0.69341743
-0.011848886 0.037521482 0.6929791
-0.011828019 0.035484076 0.6925593
-0.011807226 0.033453822 0.69214094
-0.011786504 0.031430691 0.69172406
-0.011765856 0.029414624 0.69130868
-0.01174528 0.027405649 0.69089472
-0.011724776 0.025403678 0.6904822
-0.011704342 0.023408681 0.69007111
-0.011683981 0.021420598 0.6896615
-0.011663689 0.019439459 0.68925327
-0.011643605 0.017465383 0.68884915
-0.011624309 0.015499085 0.68846095
-0.011605033 0.013539225 0.68807316
-0.011585864 0.011585891 0.68768752
-0.011566758 0.0096389949 0.68730313
-0.011547716 0.0076985061 0.68692005
-0.011528693 0.0057643652 0.68653733
-0.011509775 0.003836602 0.68615675
-0.011490919 0.0019151866 0.68577731
-0.011472126 -0 0.68539929
-0.011453568 -0.0019088984 0.68502593
-0.011435768 -0.0038119256 0.68466783
-0.011417979 -0.0057089925 0.6843099
-0.011400289 -0.0076001883 0.68395406
-0.011382653 -0.0094855428 0.68359923
-0.01136503 -0.011364996 0.68324471
-0.011347502 -0.013238728 0.68289202
-0.011330031 -0.015106678 0.68254054
-0.011312569 -0.016968876 0.68218923
-0.011295204 -0.018825352 0.68183994
-0.01127806 -0.020676434 0.68149495
-0.01126173 -0.022523463 0.68116641
-0.011245405 -0.024365038 0.68083799
-0.011229169 -0.026201367 0.68051142
-0.011212938 -0.028032362 0.68018484
-0.011196796 -0.029858112 0.67986006
-0.011180658 -0.031678528 0.67953539
-0.011164608 -0.033493817 0.67921245
-0.011148564 -0.035303771 0.67888975
-0.011151172 -0.037170589 0.6789422
-0.011136157 -0.03897655 0.67864013
-0.011121183 -0.040777653 0.67833889
-0.011106247 -0.042573959 0.67803836
-0.011091353 -0.044365406 0.67773873
-0.011076499 -0.046152085 0.67743987
-0.011061684 -0.047933936 0.67714179
-0.011046908 -0.049711078 0.67684454
-0.011032457 -0.051484764 0.67655373
-0.011018285 -0.053255051 0.6762687
-0.011004149 -0.05502075 0.67598426
-0.010990573 -0.05678463 0.67571115
-0.010977071 -0.058544368 0.67543954
-0.010963602 -0.060299784 0.67516857
-0.010950205 -0.062051147 0.67489904
-0.010937001 -0.063799173 0.67463338
-0.010923987 -0.06554389 0.67437154
-0.010911045 -0.067284763 0.67411113
-0.010898132 -0.069021523 0.67385137
-0.010885329 -0.070754647 0.67359382
-0.010873344 -0.072488949 0.67335272
-0.010861424 -0.074219719 0.67311287
-0.010849687 -0.075947806 0.67287678
-0.010837938 -0.0776719 0.67264038
-0.010826251 -0.079392493 0.6724053
-0.010814552 -0.081109107 0.67216992
-0.010802877 -0.08282207 0.67193502
-0.010829884 -0.084834084 0.67247832
-0.010356864 0.091140389 0.70463479
-0.010334745 0.08887884 0.70410073
-0.010312762 0.086627215 0.70357001
-0.010290831 0.084384829 0.70304054
-0.010268993 0.082151949 0.70251334
-0.010247289 0.079928845 0.70198935
-0.010225635 0.077714831 0.70146662
-0.010204613 0.075514168 0.70095903
-0.010183886 0.073323965 0.70045865
-0.010163241 0.071142673 0.69996029
-0.010142639 0.068969935 0.69946289
-0.010122162 0.066806287 0.69896853
-0.010101767 0.06465134 0.6984762
-0.010081454 0.062505037 0.69798577
-0.010061182 0.060367107 0.69749635
-0.010041032 0.058238 0.69700986
-0.010021083 0.056118071 0.69652832
-0.010001773 0.054009557 0.69606209
-0.0099825375 0.051909208 0.69559771
-0.0099633746 0.049816877 0.69513512
-0.0099442862 0.047732592 0.69467425
-0.0099252705 0.045656234 0.69421518
-0.0099062882 0.043587685 0.69375688
-0.0098874178 0.041527152 0.69330132
-0.0098686181 0.039474487 0.69284743
-0.0098498911 0.037429571 0.69239533
-0.0098315049 0.035393417 0.69195145
-0.0098135723 0.033366144 0.69151849
-0.0097957049 0.031346262 0.69108713
-0.0097779017 0.029333711 0.69065732
-0.0097601637 0.027328432 0.69022912
-0.00974249 0.025330484 0.68980241
-0.0097248806 0.023339689 0.68937731
-0.0097073717 0.021356225 0.68895459
-0.009689888 0.019379795 0.68853247
-0.0096724676 0.017410457 0.6881119
-0.0096554086 0.01544866 0.68770009
-0.0096387798 0.013494313 0.68729866
-0.0096222088 0.011546671 0.68689859
-0.0096056946 0.0096057355 0.68649989
-0.0095892362 0.007671386 0.68610257
-0.0095728356 0.0057437122 0.68570662
-0.00955649 0.0038225651 0.68531203
-0.0095402002 0.0019080639 0.68491876
-0.0095239663 2.9802322e-08 0.6845268
-0.0095077865 -0.001901567 0.68413621
-0.009491914 -0.0037967563 0.68375301
-0.0094764903 -0.0056858659 0.6833806
-0.0094611514 -0.0075688958 0.68301034
-0.0094458628 -0.0094458759 0.68264127
-0.0094306227 -0.011316746 0.68227327
-0.0094153965 -0.013181567 0.68190569
-0.009400256 -0.015040398 0.68154019
-0.009385162 -0.016893268 0.68117577
-0.0093701174 -0.018740237 0.6808126
-0.0093550868 -0.020581186 0.68044972
-0.0093403123 -0.02241677 0.68009305
-0.0093261069 -0.024247855 0.67975008
-0.0093119089 -0.026073337 0.67940736
-0.0092977891 -0.027893364 0.67906642
-0.0092837121 -0.029707849 0.67872655
-0.0092696436 -0.03151679 0.67838693
-0.0092556523 -0.033320338 0.67804909
-0.0092416676 -0.035118371 0.67771149
-0.0092420084 -0.036968023 0.67771971
-0.0092281345 -0.038758159 0.67738479
-0.0092148781 -0.040545493 0.67706478
-0.0092017958 -0.042328268 0.67674893
-0.0091887163 -0.044105828 0.67643321
-0.0091756741 -0.045878381 0.67611831
-0.0091626681 -0.047645897 0.67580438
-0.0091497004 -0.049408346 0.67549121
-0.0091368016 -0.051166087 0.67517984
-0.0091239065 -0.052918643 0.67486846
-0.0091112126 -0.054667264 0.6745621
-0.0090989191 -0.056413263 0.67426527
-0.0090866582 -0.058154613 0.67396927
-0.0090744309 -0.059891254 0.67367411
-0.0090623675 -0.06162411 0.67338282
-0.0090504661 -0.06335327 0.67309552
-0.0090385973 -0.065077871 0.672809
-0.0090267593 -0.066798031 0.67252314
-0.0090152109 -0.068515599 0.67224437
-0.0090038553 -0.070230082 0.67197019
-0.0089925285 -0.071940213 0.67169678
-0.0089812297 -0.073646069 0.67142397
-0.0089699589 -0.075347617 0.67115182
-0.0089587169 -0.077044964 0.6708805
-0.0089478232 -0.078740805 0.67061746
-0.0089373384 -0.080436036 0.67036432
-0.008926942 -0.082127854 0.67011338
-0.0089391265 -0.084027797 0.67040753
-0.0082859024 0.091144949 0.70464718
-0.0082676243 0.088876963 0.70409554
-0.0082494281 0.08661899 0.7035464
-0.0082313102 0.084370911 0.70299971
-0.0082132723 0.082132727 0.7024554
-0.0081952801 0.07990396 0.7019124
-0.0081773987 0.077685356 0.70137274
-0.0081597297 0.075477511 0.70083958
-0.0081425672 0.073283076 0.70032167
-0.0081255091 0.071098238 0.69980687
-0.0081084901 0.068922162 0.69929326
-0.0080915419 0.066755235 0.69878185
-0.0080746971 0.064597607 0.69827342
-0.0080578895 0.062448651 0.6977663
-0.0080411527 0.060308665 0.69726121
-0.0080245165 0.058177739 0.6967591
-0.0080079176 0.056055427 0.69625825
-0.0079918336 0.053944886 0.69577283
-0.0079759415 0.051843613 0.69529325
-0.0079601118 0.049750715 0.69481558
-0.0079443138 0.047665894 0.6943388
-0.0079286098 0.045589507 0.69386488
-0.0079129674 0.043521345 0.69339287
-0.0078973556 0.04146114 0.69292176
-0.007881836 0.03940919 0.69245338
-0.0078663779 0.037365288 0.69198692
-0.0078509813 0.035329372 0.69152224
-0.0078361649 0.033303708 0.69107509
-0.0078214044 0.031285614 0.69062966
-0.0078066997 0.029275149 0.6901859
-0.00779205 0.027272195 0.68974382
-0.0077774548 0.02527675 0.6893034
-0.0077629155 0.023288757 0.68886465
-0.0077484292 0.021308184 0.68842745
-0.0077339676 0.019334942 0.68799102
-0.0077195894 0.017369092 0.6875571
-0.0077052941 0.015410602 0.68712574
-0.0076915249 0.013460159 0.68671024
-0.0076778047 0.01151672 0.68629616
-0.0076641329 0.0095801651 0.68588364
-0.0076505109 0.0076504946 0.68547249
-0.0076369359 0.0057277381 0.68506289
-0.0076234383 0.003811717 0.68465555
-0.0076099602 0.0019024611 0.68424881
-0.0075965291 -0 0.68384349
-0.0075831455 -0.0018957555 0.68343961
-0.007569809 -0.0037848949 0.6830371
-0.0075569469 -0.0056677163 0.68264902
-0.0075442423 -0.0075442493 0.68226564
-0.0075315526 -0.0094144642 0.68188262
-0.0075189047 -0.011278331 0.68150091
-0.0075062998 -0.013136029 0.68112063
-0.0074937367 -0.014987439 0.68074143
-0.0074812155 -0.016832709 0.68036354
-0.0074687367 -0.018671811 0.67998695
-0.0074562994 -0.020504832 0.67961168
-0.007443903 -0.022331685 0.67923754
-0.0074318233 -0.024153441 0.67887306
-0.0074200314 -0.025970101 0.67851722
-0.0074082762 -0.027781039 0.6781624
-0.0073965583 -0.029586256 0.67780882
-0.0073848497 -0.031385601 0.67745548
-0.0073732063 -0.033179402 0.67710412
-0.0073615983 -0.034967571 0.67675382
-0.0073608952 -0.036804467 0.6767326
-0.0073493263 -0.038583934 0.6763835
-0.0073378743 -0.040358305 0.67603785
-0.0073268614 -0.042129457 0.67570549
-0.0073159337 -0.043895602 0.67537576
-0.0073050396 -0.045656472 0.67504698
-0.0072941505 -0.047411978 0.67471838
-0.0072833211 -0.049162418 0.67439157
-0.0072725229 -0.050907642 0.67406571
-0.0072617573 -0.05264771 0.6737408
-0.0072509968 -0.054382473 0.67341608
-0.0072402949 -0.056112289 0.67309314
-0.007229859 -0.057838827 0.67277819
-0.007219662 -0.059562176 0.67247045
-0.0072094933 -0.061280668 0.67216361
-0.0071993535 -0.062994331 0.67185766
-0.0071892161 -0.064702928 0.6715517
-0.0071791848 -0.066407472 0.67124897
-0.0071692327 -0.068107724 0.67094868
-0.0071593337 -0.069803506 0.67064995
-0.0071494873 -0.071494892 0.67035282
-0.0071400246 -0.073185235 0.67006725
-0.007130587 -0.074871182 0.66978246
-0.0071211746 -0.076552644 0.66949838
-0.0071117869 -0.078229651 0.66921508
-0.0071024238 -0.079902276 0.66893256
-0.0070930603 -0.081570178 0.66864997
-0.0070990231 -0.083413497 0.66882986
-0.006219422 0.091218203 0.70484817
-0.0062052296 0.088941634 0.7042771
-0.0061911028 0.086675465 0.70370865
-0.0061770389 0.084419549 0.70314276
-0.0061630402 0.082173854 0.7025795
-0.0061491039 0.079938352 0.70201874
-0.00613523 0.077712953 0.70146048
-0.0061214194 0.075497508 0.70090485
-0.0061079939 0.073295921 0.70036459
-0.0060947509 0.07110545 0.69983172
-0.0060815644 0.068924367 0.69930124
-0.006068436 0.066752821 0.69877291
-0.0060553635 0.064590514 0.69824696
-0.0060423231 0.062437356 0.69772226
-0.0060293628 0.060293615 0.69720078
-0.0060164579 0.058159083 0.6966815
-0.006003608 0.056033671 0.69616449
-0.0059910044 0.053919017 0.69565737
-0.0059786681 0.051815122 0.69516098
-0.0059664058 0.049720049 0.69466752
-0.0059541701 0.04763335 0.69417524
-0.0059419852 0.045555234 0.69368494
-0.0059298729 0.043485731 0.69319755
-0.0059177862 0.041424543 0.69271123
-0.0059057493 0.039371669 0.69222695
-0.0058937846 0.03732729 0.69174552
-0.0058818446 0.035291046 0.69126511
-0.0058702971 0.033264995 0.69080043
-0.0058588642 0.031247258 0.6903404
-0.0058474755 0.029237419 0.68988216
-0.0058361073 0.02723518 0.68942475
-0.0058248076 0.025240839 0.68897003
-0.0058135274 0.023254097 0.6885162
-0.0058023143 0.021275163 0.68806505
-0.0057911435 0.019303799 0.68761557
-0.0057800165 0.017340064 0.68716782
-0.0057689096 0.01538375 0.68672091
-0.0057582208 0.01343587 0.6862908
-0.0057475716 0.011495173 0.68586236
-0.0057369838 0.0095616579 0.68543637
-0.0057264348 0.0076352358 0.68501192
-0.0057159243 0.0057159662 0.68458897
-0.0057054525 0.0038036406 0.68416762
-0.0056950194 0.0018983483 0.68374777
-0.0056846235 -0 0.68332952
-0.0056742663 -0.0018914044 0.68291277
-0.0056639253 -0.0037759542 0.68249667
-0.0056538982 -0.005653888 0.6820932
-0.0056440132 -0.0075253248 0.68169546
-0.0056341621 -0.0093902946 0.68129909
-0.0056243669 -0.011248708 0.68090498
-0.0056145843 -0.013100713 0.68051136
-0.0056048362 -0.014946222 0.68011916
-0.0055951215 -0.016785353 0.67972821
-0.0055854404 -0.018618137 0.67933869
-0.0055757929 -0.020444572 0.67895049
-0.0055661788 -0.022264689 0.67856365
-0.0055567008 -0.024079025 0.67818236
-0.0055475417 -0.025888503 0.67781377
-0.0055383923 -0.027691931 0.67744565
-0.0055292733 -0.029489458 0.67707872
-0.0055201841 -0.031281024 0.67671299
-0.0055111246 -0.03306672 0.67634845
-0.005507505 -0.034880877 0.67620283
-0.0055009658 -0.036673099 0.67593968
-0.0054919692 -0.038443774 0.6755777
-0.005483022 -0.040208817 0.67521775
-0.0054742638 -0.041969359 0.67486531
-0.0054657329 -0.043725878 0.67452204
-0.005457208 -0.045476735 0.67417902
-0.0054487297 -0.047222316 0.6738379
-0.005440278 -0.048962504 0.67349774
-0.0054318518 -0.050697267 0.67315876
-0.0054234522 -0.052426696 0.67282075
-0.0054150783 -0.05415079 0.67248386
-0.0054067695 -0.055869937 0.67214954
-0.0053984858 -0.057583839 0.67181623
-0.0053902469 -0.059292704 0.67148471
-0.0053823423 -0.06099987 0.6711666
-0.0053744409 -0.062701821 0.67084873
-0.005366582 -0.064399004 0.67053252
-0.0053587463 -0.06609118 0.67021728
-0.0053509143 -0.06777826 0.66990209
-0.0053431243 -0.069460601 0.66958863
-0.005335357 -0.071138069 0.66927612
-0.0053276308 -0.072810963 0.66896522
-0.0053199269 -0.074478954 0.66865528
-0.0053125466 -0.076146498 0.66835833
-0.005305205 -0.077809662 0.66806293
-0.0052978839 -0.079468265 0.66776836
-0.0052905832 -0.081122279 0.66747451
-0.0052936054 -0.082933143 0.66759616
-0.004141991 0.091123819 0.70458919
-0.0041345297 0.0888924 0.70413888
-0.0041271127 0.086669356 0.70369124
-0.004119094 0.084441453 0.70320725
-0.0041108369 0.08221674 0.70270884
-0.0041025956 0.080000609 0.7022115
-0.0040936507 0.077779382 0.7016716
-0.0040846774 0.07556656 0.70113003
-0.0040756776 0.073362172 0.70058686
-0.0040665353 0.07116437 0.7000351
-0.0040574339 0.068976343 0.69948578
-0.0040483736 0.066798151 0.69893885
-0.0040393532 0.064629674 0.69839448
-0.0040303729 0.062470824 0.69785243
-0.0040214327 0.06032151 0.69731283
-0.0040125321 0.058181703 0.69677567
-0.0040036705 0.056051403 0.69624084
-0.0039948961 0.053931117 0.6957112
-0.0039863978 0.051823169 0.6951983
-0.0039779362 0.049724221 0.6946876
-0.0039695101 0.047634125 0.69417906
-0.0039611193 0.04555288 0.69367266
-0.0039527486 0.043480277 0.69316745
-0.0039444291 0.041416526 0.69266522
-0.0039361441 0.039361447 0.6921652
-0.0039278939 0.037315011 0.69166726
-0.0039196629 0.035277009 0.69117045
-0.0039116805 0.033249289 0.69068867
-0.0039037915 0.03123036 0.69021255
-0.0038959489 0.029219627 0.68973923
-0.0038881232 0.027216852 0.68926692
-0.0038803287 0.025222123 0.68879646
-0.0038725806 0.0232355 0.68832886
-0.0038648481 0.021256685 0.6878621
-0.0038571465 0.019285709 0.6873973
-0.0038494905 0.017322719 0.68693519
-0.0038418497 0.015367389 0.68647408
-0.0038344748 0.013420641 0.68602896
-0.003827157 0.011481464 0.68558729
-0.0038198675 0.0095496774 0.68514735
-0.0038125906 0.0076251924 0.68470818
-0.0038053563 0.0057080388 0.68427151
-0.0037981349 0.003798157 0.68383563
-0.0037909553 0.0018954575 0.6834023
-0.0037838025 -0 0.68297058
-0.0037766625 -0.0018883049 0.6825397
-0.0037695635 -0.0037695467 0.6821112
-0.0037626754 -0.0056440532 0.68169546
-0.0037558686 -0.007511735 0.68128467
-0.0037490863 -0.0093727112 0.6808753
-0.0037423284 -0.011226982 0.68046743
-0.0037355809 -0.013074547 0.68006021
-0.0037288719 -0.014915496 0.67965525
-0.0037221867 -0.016749829 0.67925179
-0.0037155254 -0.018577635 0.6788497
-0.0037088881 -0.020398885 0.67844909
-0.0037022743 -0.022213638 0.67804992
-0.0036957522 -0.024022371 0.67765629
-0.0036894302 -0.025826007 0.6772747
-0.0036831161 -0.027623385 0.67689365
-0.0036768233 -0.029414564 0.67651385
-0.0036705523 -0.031199694 0.67613536
-0.0036643024 -0.032978714 0.67575812
-0.0036630284 -0.034798771 0.67568123
-0.0036569645 -0.036569625 0.67531526
-0.003650761 -0.038332969 0.67494082
-0.0036445782 -0.040090352 0.67456764
-0.0036385222 -0.041843027 0.6742022
-0.0036325918 -0.043591112 0.67384422
-0.0036267072 -0.045333833 0.67348909
-0.0036208285 -0.047070771 0.67313421
-0.0036149819 -0.048802286 0.67278135
-0.0036091537 -0.050528139 0.67242962
-0.0036033448 -0.052248448 0.67207897
-0.0035975545 -0.053963304 0.67172956
-0.0035918341 -0.05567342 0.67138427
-0.0035861449 -0.057378322 0.67104095
-0.0035804736 -0.059077799 0.67069864
-0.0035748202 -0.060771942 0.67035741
-0.0035693373 -0.062463403 0.67002648
-0.0035638968 -0.064150125 0.66969812
-0.0035584732 -0.065831751 0.66937077
-0.0035530655 -0.067508221 0.66904438
-0.0035476994 -0.069180146 0.66872048
-0.0035423369 -0.070846736 0.66839695
-0.0035370034 -0.072508574 0.66807497
-0.0035316735 -0.074165151 0.66775328
-0.0035263717 -0.075816989 0.66743326
-0.0035210985 -0.077464148 0.66711503
-0.0035160386 -0.079110846 0.66680956
-0.003510993 -0.080752835 0.6665051
-0.0035128172 -0.082551196 0.66661519
-0.0020619321 0.092786968 0.70349509
-0.0020582762 0.090564191 0.70305383
-0.0020546333 0.088349253 0.70261413
-0.002051651 0.086169362 0.70225406
-0.0020487108 0.08399716 0.70189923
-0.0020457793 0.081831217 0.70154536
-0.0020428558 0.079671353 0.70119244
-0.0020400905 0.07752347 0.70085859
-0.0020372581 0.075378537 0.7005167
-0.0020341852 0.073230684 0.70014584
-0.0020309237 0.071082383 0.69975209
-0.0020273526 0.06893 0.69932103
-0.0020237775 0.06678465 0.69888943
-0.0020200273 0.06464088 0.69843674
-0.0020160554 0.062497705 0.69795734
-0.0020120989 0.060362995 0.69747972
-0.0020079245 0.058229804 0.69697583
-0.0020036066 0.056100994 0.69645464
-0.0019992916 0.053980857 0.69593376
-0.0019948995 0.051867366 0.69540358
-0.0019905188 0.049762994 0.69487482
-0.0019861571 0.047667772 0.69434834
-0.0019818149 0.045581728 0.69382417
-0.0019774914 0.043504804 0.69330227
-0.0019731866 0.041436911 0.69278258
-0.0019689007 0.039377987 0.69226527
-0.0019646334 0.037328005 0.69175017
-0.0019603767 0.035286754 0.69123638
-0.0019562303 0.033255905 0.69073582
-0.0019521546 0.031234473 0.69024384
-0.0019480959 0.029221445 0.68975389
-0.0019440542 0.027216762 0.68926603
-0.001940029 0.025220394 0.68878013
-0.0019360206 0.023232251 0.68829626
-0.0019320286 0.021252304 0.68781441
-0.0019280531 0.019280523 0.68733448
-0.0019240866 0.017316759 0.68685573
-0.0019201436 0.01536116 0.68637973
-0.0019163415 0.013414383 0.68592083
-0.0019125546 0.011475354 0.68546367
-0.0019087897 0.0095439255 0.68500924
-0.0019050324 0.007620126 0.68455565
-0.0019012899 0.0057038665 0.68410391
-0.0018975694 0.0037951767 0.68365484
-0.0018938561 0.001893878 0.68320656
-0.0018901575 2.9802322e-08 0.68276006
-0.0018864801 -0.0018864572 0.68231624
-0.0018828103 -0.0037656128 0.6818732
-0.0018792744 -0.0056377947 0.68144643
-0.0018757589 -0.0075030327 0.68102205
-0.0018722495 -0.0093612373 0.68059844
-0.0018687601 -0.011212558 0.68017721
-0.0018652838 -0.013056993 0.6797576
-0.0018618136 -0.014894515 0.67933869
-0.001858363 -0.016725272 0.67892224
-0.0018549253 -0.018549234 0.67850721
-0.0018514934 -0.02036643 0.67809296
-0.001848081 -0.022176951 0.67768109
-0.001844749 -0.02398175 0.67727888
-0.0018414767 -0.025780678 0.67688382
-0.0018382159 -0.027573258 0.67649019
-0.0018349665 -0.02935943 0.67609793
-0.0018317287 -0.031139344 0.6757071
-0.0018284955 -0.03291291 0.67531681
-0.0018277876 -0.034727961 0.6752314
-0.0018245684 -0.036491364 0.67484277
-0.0018213671 -0.038248688 0.67445636
-0.0018181703 -0.039999723 0.67407048
-0.0018150507 -0.04174614 0.67369395
-0.0018119811 -0.043487579 0.67332339
-0.001808935 -0.045223325 0.67295569
-0.0018058991 -0.04695335 0.67258924
-0.0018028733 -0.048677593 0.67222399
-0.0017998577 -0.050396025 0.67185998
-0.0017968523 -0.052108705 0.67149717
-0.0017938567 -0.053815722 0.6711356
-0.0017908904 -0.055517584 0.6707775
-0.0017879658 -0.057214916 0.67042446
-0.0017850443 -0.058906436 0.67007178
-0.0017821388 -0.060592711 0.66972113
-0.0017792366 -0.062273294 0.66937077
-0.0017764064 -0.063950628 0.66902918
-0.0017735919 -0.065622926 0.66868937
-0.0017707862 -0.067289889 0.6683507
-0.001768008 -0.068952322 0.66801536
-0.0017652448 -0.070609793 0.66768181
-0.0017624965 -0.072262362 0.66735011
-0.0017597567 -0.073909774 0.66701937
-0.0017570254 -0.075552106 0.66668963
-0.0017543025 -0.077189311 0.66636097
-0.001751588 -0.07882148 0.66603333
-0.001748925 -0.080450535 0.66571182
-0.0017498974 -0.082245171 0.66582918
0 0.092628896 0.70307124
0 0.090360105 0.70249397
0 0.088124543 0.70198327
0 0.085899919 0.70147967
0 0.083683997 0.70097715
0 0.081477404 0.70047766
0 0.079279393 0.69997925
0 0.077107817 0.69953835
0 0.074947685 0.69911098
0 0.072795033 0.69868511
0 0.070649922 0.69826066
0 0.068512201 0.69783777
0 0.066401154 0.69748658
0 0.064298481 0.69714522
0 0.062201709 0.69680476
0 0.060110897 0.69646531
0 0.058029354 0.69614124
0 0.055953085 0.69581717
0 0.05387646 0.695467
0 0.051799864 0.69509006
0 0.049723625 0.69468474
0 0.047652096 0.69426942
0 0.045585543 0.69384402
0 0.043519974 0.69338524
0 0.041461617 0.69292456
0 0.039408892 0.69245148
0 0.037360013 0.6919533
0 0.03531906 0.6914525
0 0.033285081 0.69094282
0 0.031259596 0.69043338
0 0.029242992 0.68992704
0 0.027234852 0.68942201
0 0.025235355 0.68891913
0 0.023244321 0.68841749
0 0.021261811 0.6879189
0 0.019287825 0.68742245
0 0.017322183 0.68692803
0 0.015364915 0.68643665
0 0.013416797 0.6859625
0 0.011476666 0.68549013
0 0.0095444024 0.68501979
0 0.007619977 0.6845513
0 0.0057033896 0.68408382
0 0.0037945509 0.6836192
0 0.0018934608 0.68315643
0 2.9802322e-08 0.68269545
0 -0.0018858016 0.68223643
0 -0.0037640929 0.6817826
0 -0.0056352317 0.68134171
0 -0.0074990988 0.68090326
0 -0.0093557239 0.68046576
0 -0.011205256 0.68002987
0 -0.013047636 0.67959654
0 -0.014882922 0.67916405
0 -0.016711175 0.67873323
0 -0.018532425 0.67830402
0 -0.020346761 0.67787731
0 -0.022154242 0.67745221
0 -0.023956209 0.67704177
0 -0.02575165 0.67663378
0 -0.027540475 0.67622644
0 -0.029322833 0.6758213
0 -0.031098604 0.67541772
0 -0.032867879 0.67501485
0 -0.034677774 0.67491269
0 -0.036436617 0.67451239
0 -0.038188934 0.6741128
0 -0.039935172 0.67371619
0 -0.04167676 0.67332971
0 -0.043412715 0.67294699
0 -0.04514277 0.67256641
0 -0.046866953 0.67218792
0 -0.048584998 0.67180997
0 -0.05029723 0.6714341
0 -0.052003562 0.67105949
0 -0.053703815 0.67068547
0 -0.055398613 0.67031431
0 -0.057089418 0.6699512
0 -0.058774322 0.66958863
0 -0.060453832 0.66922808
0 -0.062127441 0.66886789
0 -0.063795954 0.66851044
0 -0.065460235 0.66815877
0 -0.067119092 0.66780818
0 -0.068772465 0.66745877
0 -0.070422187 0.66711575
0 -0.072066665 0.66677386
0 -0.073706046 0.66643375
0 -0.075340182 0.66609478
0 -0.076968819 0.66575611
0 -0.078592539 0.66541928
0 -0.080210835 0.66508281
0 -0.082005695 0.66521418
0.0020644844 0.092901796 0.70380318
0.0020586487 0.090580523 0.70309883
0.002053234 0.088289052 0.70244521
0.0020478556 0.086009949 0.70179594
0.0020424973 0.08374235 0.70114917
0.0020372167 0.081488669 0.70051169
0.0020325326 0.079268783 0.69994628
0.0020278702 0.07705906 0.6993835
0.0020232291 0.07485947 0.69882333
0.0020186172 0.072670192 0.69826663
0.0020140589 0.070492059 0.69771636
0.0020100216 0.068340749 0.69722903
0.0020060085 0.066198289 0.69674456
0.0020020034 0.064064115 0.69626111
0.0019980222 0.061938703 0.69578052
0.001994041 0.059821248 0.69529992
0.0019905583 0.057726175 0.69487959
0.0019871511 0.05564025 0.69446826
0.0019837478 0.053561181 0.69405746
0.0019803636 0.051489472 0.69364893
0.0019769913 0.049424797 0.69324183
0.0019741599 0.047379822 0.69290012
0.0019714374 0.045343071 0.6925714
0.0019687226 0.043311894 0.69224375
0.001966015 0.04128629 0.69191694
0.0019633921 0.039267868 0.69160032
0.0019608685 0.037256479 0.69129568
0.0019581059 0.035245895 0.6909622
0.0019551066 0.033236802 0.69060016
0.0019519642 0.031231433 0.69022083
0.0019486573 0.02922985 0.68982166
0.0019452861 0.027234048 0.68941474
0.0019416928 0.025242001 0.688981
0.0019380227 0.023256272 0.68853796
0.0019342991 0.021277338 0.68808842
0.0019303887 0.019303918 0.68761647
0.0019263978 0.01733759 0.68713468
0.001922342 0.015378714 0.68664515
0.0019182737 0.013427943 0.68615401
0.0019142227 0.011485368 0.68566501
0.0019101888 0.0095509589 0.6851781
0.0019061719 0.0076246858 0.68469322
0.0019021718 0.0057064891 0.68421036
0.0018981885 0.0037963688 0.68372953
0.0018942219 0.0018942356 0.68325073
0.0018902717 -2.9802322e-08 0.68277395
0.001886338 -0.0018863082 0.68229902
0.0018824773 -0.0037649274 0.68183303
0.0018787028 -0.0056361258 0.68137741
0.0018749435 -0.0074997544 0.68092364
0.0018711992 -0.0093560219 0.68047166
0.0018674699 -0.011204779 0.68002146
0.0018637553 -0.013046265 0.67957306
0.0018600555 -0.014880478 0.6791265
0.0018563705 -0.016707301 0.67868161
0.0018526999 -0.018527001 0.67823857
0.0018490439 -0.020339459 0.67779732
0.0018454568 -0.02214548 0.67736423
0.0018419444 -0.023945272 0.67694026
0.0018384522 -0.025738299 0.67651874
0.0018349665 -0.027524501 0.67609799
0.001831494 -0.029303908 0.67567879
0.0018280414 -0.031076699 0.67526209
0.0018245949 -0.032842696 0.67484599
0.0018236174 -0.034648687 0.67472798
0.0018201942 -0.036403865 0.6743148
0.0018167839 -0.038152456 0.67390317
0.0018134193 -0.039895266 0.67349696
0.0018101195 -0.041632771 0.67309874
0.0018068578 -0.043364584 0.67270494
0.0018036078 -0.045090199 0.67231262
0.001800363 -0.046809405 0.67192096
0.0017971363 -0.048522681 0.67153144
0.0017939146 -0.050229609 0.67114258
0.0017907108 -0.051930606 0.67075586
0.0017875123 -0.053625375 0.67036974
0.0017843314 -0.055314302 0.66998577
0.001781238 -0.056999594 0.66961241
0.0017781553 -0.058679104 0.66924024
0.0017750767 -0.060352594 0.66886866
0.0017720154 -0.06202054 0.66849911
0.0017689582 -0.063682497 0.66813004
0.0017659365 -0.065339625 0.66776526
0.0017629374 -0.066991612 0.66740334
0.0017599424 -0.068637744 0.66704178
0.0017569821 -0.070279285 0.66668439
0.0017540749 -0.071917072 0.66633356
0.0017511713 -0.073549226 0.66598308
0.0017482832 -0.07517615 0.66563439
0.0017454047 -0.076797813 0.6652869
0.0017425296 -0.078413829 0.66493988
0.0017396699 -0.080024838 0.66459465
0.0017409836 -0.08182621 0.6647532
0.0041876803 0.092128962 0.7073468
0.0041493243 0.08921051 0.70503181
0.0041288491 0.086705834 0.70379603
0.0041135405 0.084327608 0.70287204
0.0040983278 0.081966579 0.70195395
0.004084778 0.079653174 0.70113605
0.0040724766 0.077377051 0.70039362
0.0040602488 0.075114608 0.69965559
0.0040480783 0.072865397 0.69892108
0.0040373811 0.070654184 0.69827545
0.0040269671 0.068458468 0.69764692
0.0040166224 0.066274315 0.69702256
0.004006315 0.06410107 0.6964004
0.0039964435 0.061944872 0.69580466
0.0039874306 0.059811473 0.69526064
0.0039784578 0.05768764 0.69471914
0.0039695255 0.055573374 0.69417995
0.0039606337 0.053468555 0.69364333
0.0039520152 0.051376194 0.69312316
0.0039442577 0.049303234 0.69265497
0.0039365157 0.047238201 0.69218767
0.0039288038 0.045181215 0.69172221
0.0039211223 0.043132335 0.69125861
0.0039134701 0.041091472 0.69079673
0.0039067939 0.039067954 0.69039381
0.0039002311 0.037052244 0.68999767
0.0038936906 0.03504324 0.68960291
0.0038871719 0.033040971 0.68920946
0.0038806747 0.031045407 0.68881738
0.0038751448 0.029063612 0.6884836
0.0038698998 0.027089298 0.68816704
0.003864669 0.025120348 0.68785131
0.0038594522 0.023156703 0.68753648
0.0038543388 0.021198839 0.68722785
0.0038495646 0.01924783 0.68693966
0.0038442407 0.017299086 0.68661839
0.0038385638 0.015354276 0.68627572
0.0038326096 0.013414145 0.68591642
0.0038262936 0.011478871 0.68553519
0.0038198382 0.009549588 0.6851455
0.00381307 0.0076261759 0.68473709
0.0038059787 0.0057089627 0.68430907
0.0037988846 0.0037988722 0.68388093
0.0037914291 0.0018957257 0.68343091
0.0037838025 -0 0.68297058
0.0037759929 -0.0018879771 0.68249923
0.0037681726 -0.003768146 0.68202722
0.0037603567 -0.0056405067 0.68155551
0.0037525729 -0.0075051486 0.68108571
0.0037448213 -0.009362042 0.68061787
0.0037371018 -0.011211276 0.68015194
0.0037294 -0.013052881 0.67968714
0.0037217438 -0.014886945 0.67922503
0.0037141191 -0.01671353 0.67876482
0.0037065253 -0.018532604 0.67830652
0.0036989625 -0.020344287 0.67785007
0.0036916621 -0.02214998 0.67740941
0.0036844041 -0.02394864 0.67697144
0.0036771747 -0.025740206 0.67653507
0.0036699602 -0.02752471 0.6760996
0.0036627869 -0.029302329 0.67566669
0.0036556418 -0.031072944 0.67523539
0.0036485246 -0.032836705 0.67480588
0.0036463442 -0.034640282 0.67467427
0.0036392633 -0.036392629 0.67424691
0.0036322228 -0.03813833 0.67382193
0.003625354 -0.039878875 0.67340744
0.0036185763 -0.041613638 0.67299837
0.0036118373 -0.043342024 0.67259157
0.0036051234 -0.045064062 0.67218637
0.0035984213 -0.046779484 0.6717819
0.003591757 -0.048488706 0.67137963
0.0035851172 -0.050191641 0.6709789
0.0035784892 -0.051888078 0.67057884
0.0035718982 -0.053578466 0.67018104
0.0035653319 -0.055262625 0.66978467
0.0035589666 -0.056943476 0.66940057
0.0035526238 -0.058618277 0.66901779
0.0035462913 -0.060286939 0.66863549
0.0035399937 -0.061949909 0.66825551
0.0035337186 -0.063606948 0.66787672
0.0035274657 -0.065258116 0.66749936
0.0035212717 -0.066904172 0.66712546
0.0035150878 -0.068544194 0.66675222
0.0035089371 -0.070178747 0.66638106
0.0035029433 -0.07181035 0.66601926
0.0034969817 -0.073436618 0.66565949
0.0034910287 -0.075057089 0.66530013
0.0034851076 -0.076672345 0.6649428
0.0034792067 -0.078282163 0.6645866
0.003473314 -0.079886243 0.66423094
0.003476789 -0.081704542 0.66444069
0.0063574486 0.091123402 0.71040189
0.0063376389 0.088726968 0.70960486
0.0063179797 0.086345732 0.70881379
0.0062984158 0.083978862 0.70802665
0.0062780268 0.081614375 0.70720619
0.0062570395 0.079255849 0.70636177
0.0062342747 0.076889426 0.70544577
0.0062052296 0.074462771 0.7042771
0.0061278916 0.071492076 0.70116526
0.0060957158 0.069084764 0.69987059
0.0060704234 0.066774666 0.6988529
0.0060483608 0.064515829 0.69796515
0.0060264338 0.062273115 0.69708288
0.0060084141 0.060084164 0.69635785
0.0059906696 0.057909817 0.69564384
0.0059730294 0.055748284 0.69493407
0.0059558717 0.053602844 0.69424367
0.0059407619 0.051486611 0.6936357
0.0059257532 0.049381256 0.69303179
0.0059107956 0.047286391 0.6924299
0.0058959369 0.045202196 0.69183213
0.0058820518 0.043135077 0.69127339
0.0058690351 0.041083217 0.69074965
0.0058560753 0.039040506 0.69022822
0.0058431961 0.037006915 0.68970996
0.0058303503 0.034982085 0.68919307
0.005818102 0.032969266 0.68870026
0.0058068931 0.030970097 0.68824929
0.0057957056 0.028978556 0.6877991
0.00578456 0.026994616 0.68735063
0.0057734586 0.025018364 0.68690395
0.0057623992 0.023049623 0.68645895
0.0057527921 0.021093577 0.68607235
0.0057433057 0.019144356 0.6856907
0.0057338504 0.017201543 0.68531024
0.0057244259 0.015265137 0.68493104
0.0057150321 0.013335049 0.68455309
0.0057069492 0.011413902 0.68422782
0.0056993649 0.0094989538 0.68392271
0.0056918012 0.007589072 0.68361831
0.0056842575 0.0056842566 0.6833148
0.0056767771 0.0037845373 0.68301374
0.0056698937 0.0018899739 0.68273681
0.0056623011 2.9802322e-08 0.68243128
0.0056542177 -0.0018847287 0.68210602
0.0056457324 -0.0037637949 0.68176466
0.0056367223 -0.0056367218 0.68140215
0.0056274035 -0.0075031817 0.68102711
0.0056177154 -0.0093628764 0.68063736
0.0056076213 -0.01121524 0.68023115
0.0055973539 -0.01306048 0.67981803
0.0055867089 -0.014897913 0.67938972
0.0055758553 -0.016727597 0.67895305
0.0055645695 -0.018548578 0.67849892
0.0055532884 -0.020362049 0.67804497
0.005541971 -0.022167891 0.67758965
0.0055306791 -0.023966253 0.67713523
0.0055194534 -0.025757462 0.6766836
0.0055082734 -0.027541339 0.67623371
0.005497138 -0.029318064 0.67578566
0.0054860478 -0.031087607 0.67533946
0.0054750028 -0.032849997 0.67489505
0.0054714303 -0.034652382 0.67475128
0.0054604439 -0.036402941 0.67430919
0.0054496001 -0.038147181 0.67387289
0.0054390556 -0.039886415 0.67344862
0.0054285517 -0.041618913 0.67302597
0.0054180888 -0.043344676 0.67260492
0.0054076654 -0.045063853 0.6721856
0.0053972825 -0.046776444 0.67176783
0.0053869393 -0.048482448 0.67135161
0.0053766547 -0.050182134 0.67093778
0.0053664097 -0.051875293 0.67052555
0.0053562224 -0.053562224 0.67011565
0.0053460929 -0.055242956 0.66970813
0.0053362483 -0.056919962 0.66931194
0.0053264396 -0.0585908 0.6689173
0.0053166864 -0.060255796 0.66852486
0.0053069494 -0.061914414 0.66813302
0.0052972673 -0.063567191 0.6677435
0.0052876011 -0.06521377 0.66735458
0.0052780081 -0.06685476 0.66696858
0.0052684308 -0.068489581 0.66658318
0.0052589066 -0.07011874 0.66619992
0.0052495818 -0.071744278 0.66582477
0.0052403817 -0.073365331 0.66545463
0.0052312142 -0.074980736 0.66508567
0.0052220598 -0.076590225 0.66471738
0.0052129561 -0.07819435 0.66435111
0.0052038841 -0.079792887 0.66398603
0.0052106581 -0.081633627 0.6642586
0.0085566519 0.091984004 0.71281767
0.0085269045 0.089532524 0.71192002
0.008497363 0.087097973 0.71102852
0.0084692091 0.084692061 0.71017891
0.0084415963 0.08230558 0.70934564
0.0084141633 0.079934567 0.70851773
0.0083869081 0.077578932 0.70769525
0.008360073 0.075240642 0.70688546
0.008334416 0.072926134 0.70611119
0.008308881 0.070625484 0.70534056
0.0082835359 0.068339169 0.70457578
0.008258312 0.066066474 0.70381451
0.0082332063 0.063807368 0.70305687
0.0082062008 0.061546504 0.70224196
0.0081792381 0.059299469 0.70142829
0.0081448201 0.05701372 0.70038962
0.0080880104 0.05459407 0.69867522
0.0080046831 0.052030474 0.69616055
0.0079649901 0.049781203 0.69496274
0.0079364693 0.047618836 0.69410211
0.0079081841 0.045472056 0.69324845
0.0078817746 0.043349743 0.69245148
0.0078589031 0.041259229 0.69176137
0.0078361332 0.039180666 0.69107419
0.0078134658 0.037113965 0.69039011
0.0077924142 0.03506586 0.68975478
0.0077730455 0.033035427 0.68917036
0.0077537424 0.031014949 0.68858778
0.0077345357 0.029004514 0.68800819
0.0077154529 0.027004093 0.68743229
0.0076981513 0.02501899 0.68691021
0.0076814294 0.023044288 0.68640554
0.0076647787 0.02107814 0.68590307
0.0076482301 0.019120604 0.6854037
0.0076317238 0.017171413 0.68490553
0.0076162443 0.015232474 0.68443847
0.0076018381 0.01330322 0.68400371
0.0075874571 0.011381209 0.68356973
0.0075731315 0.0094664395 0.68313742
0.007558859 0.0075588524 0.68270671
0.0075446405 0.0056584775 0.68227762
0.007532374 0.0037662089 0.68190742
0.007520176 0.0018800497 0.6815393
0.0075080176 -0 0.68117243
0.0074958983 -0.00187397 0.68080664
0.0074838176 -0.00374192 0.68044209
0.0074732825 -0.0056049526 0.68012416
0.0074635283 -0.0074635446 0.67982984
0.0074538002 -0.0093172193 0.67953622
0.0074440967 -0.011166126 0.67924345
0.0074344184 -0.013010234 0.67895138
0.0074255094 -0.014851004 0.67868251
0.0074159075 -0.016685784 0.67839277
0.0074056718 -0.018514156 0.67808384
0.0073949182 -0.020336032 0.67775935
0.0073834606 -0.022150367 0.67741358
0.007371495 -0.023957342 0.6770525
0.0073591624 -0.025757074 0.67668033
0.0073464131 -0.027549028 0.67629552
0.0073331697 -0.029332697 0.67589587
0.0073196795 -0.031108648 0.67548883
0.007305786 -0.032876015 0.67506945
0.0073020542 -0.034684777 0.67495692
0.0072870068 -0.036435038 0.67450279
0.0072722058 -0.0381791 0.67405611
0.0072576497 -0.039917052 0.67361689
0.0072431508 -0.04164812 0.67317939
0.0072287098 -0.043372273 0.67274356
0.0072143273 -0.045089543 0.67230952
0.0072000008 -0.046799988 0.67187715
0.0071857315 -0.048503697 0.67144656
0.0071715447 -0.05020079 0.67101842
0.0071574897 -0.051891774 0.67059427
0.0071435161 -0.05357635 0.67017257
0.007129597 -0.05525437 0.66975254
0.0071160602 -0.056928486 0.66934401
0.0071025747 -0.058596253 0.66893715
0.0070891413 -0.060257703 0.66853166
0.0070757824 -0.061913103 0.66812855
0.0070624747 -0.063562274 0.66772693
0.0070492411 -0.065205485 0.66732758
0.0070360573 -0.066842541 0.66692972
0.0070228977 -0.068473235 0.66653264
0.0070098122 -0.070098117 0.6661377
0.006996898 -0.071718201 0.665748
0.0069842739 -0.073334843 0.66536701
0.0069716722 -0.074945465 0.66498673
0.0069591156 -0.076550275 0.66460776
0.006946628 -0.078149572 0.66423094
0.0069341608 -0.079742864 0.66385472
0.0069456878 -0.081611827 0.66420257
0.0107922 0.090654492 0.71514463
0.010749076 0.088142425 0.71410358
0.010707213 0.085657656 0.71309292
0.01066763 0.083207488 0.71213722
0.010628337 0.08077538 0.71118867
0.010589289 0.078360736 0.71024597
0.01055204 0.075974703 0.70934671
0.010515847 0.073610932 0.70847297
0.010479902 0.071263343 0.70760518
0.010444202 0.068931758 0.70674324
0.010409653 0.06662178 0.70590919
0.010376236 0.064332634 0.70510244
0.010343077 0.062058479 0.70430183
0.010310127 0.059798747 0.70350647
0.010277387 0.057553381 0.70271599
0.010246114 0.055329025 0.70196098
0.01021528 0.053119451 0.70121664
0.01018459 0.05092296 0.70047569
0.010154125 0.048739791 0.69974017
0.0101238 0.046569467 0.69900811
0.010092638 0.044407636 0.69825578
0.01006005 0.042252213 0.697469
0.010024657 0.040098637 0.69661456
0.0099799084 0.037923664 0.69553423
0.0098567596 0.035484344 0.69256115
0.0098068016 0.033343107 0.69135511
0.009765612 0.03124997 0.69036067
0.0097313104 0.029193938 0.68953252
0.0096972492 0.0271523 0.68871027
0.0096678706 0.025136501 0.68800098
0.0096403025 0.023136735 0.68733537
0.0096128909 0.021148354 0.68667364
0.0095856357 0.019171268 0.68601567
0.0095614567 0.017210633 0.6854319
0.0095380908 0.015260935 0.68486774
0.0095148375 0.013320804 0.68430644
0.0094917342 0.01139006 0.68374866
0.0094687073 0.0094687045 0.68319273
0.0094484668 0.0075587928 0.68270409
0.0094283484 0.0056570172 0.68221843
0.0094082803 0.0037633181 0.68173391
0.0093883323 0.0018776953 0.68125224
0.0093684345 -0 0.68077189
0.0093500875 -0.0018700361 0.68032897
0.009332682 -0.0037330687 0.67990881
0.0093153771 -0.0055892169 0.67949098
0.0092981001 -0.0074384809 0.67907393
0.0092808884 -0.0092808902 0.67865837
0.0092637744 -0.011116505 0.67824519
0.0092490138 -0.012948602 0.67788887
0.0092342999 -0.014774889 0.67753369
0.0092196325 -0.016595334 0.67717952
0.0092050117 -0.018409997 0.6768266
0.0091904374 -0.020218968 0.67647475
0.0091775591 -0.022026122 0.67616379
0.0091657909 -0.023831069 0.67587972
0.0091540525 -0.025631338 0.6755963
0.0091423439 -0.027427047 0.67531365
0.009130666 -0.029218107 0.67503166
0.0091197817 -0.03100726 0.67476898
0.009108427 -0.032790333 0.6744948
0.0091425106 -0.034741521 0.67531765
0.0091231745 -0.036492676 0.67485082
0.0091039184 -0.038236439 0.67438602
0.0090847779 -0.039973021 0.67392385
0.0090656839 -0.041702151 0.67346293
0.00904667 -0.04342401 0.67300385
0.009027997 -0.045139968 0.67255306
0.009009595 -0.046849906 0.67210877
0.0089913001 -0.04855302 0.6716671
