# .PCD v0.7 - Point Cloud Data file format
VERSION 0.7
FIELDS x y z
SIZE 4 4 4
TYPE F F F
COUNT 1 1 1
WIDTH 255
HEIGHT 1
VIEWPOINT 0 0 0 1 0 0 0
POINTS 255
DATA ascii
0.036040269 -0.014416099 0.62861574
0.043539099 -0.0058052242 0.62978572
0.045297716 -0.0014611781 0.6309824
0.03388536 -0.011786193 0.63243818
0.047115717 -0.0029447377 0.63232821
0.03726444 -0.023849219 0.63452649
0.050659113 0.0044699311 0.63445365
0.039025787 -0.028518796 0.63578361
0.052510612 0.003000617 0.63570052
0.037599802 -0.0030079782 0.63614583
0.046803262 0.0045293272 0.63684481
0.033414856 -0.021263987 0.63794023
0.027315961 -0.012140423 0.63778281
0.041377664 -0.033715129 0.63958776
0.032300949 -0.023072094 0.64026791
0.030725215 -0.0076813102 0.64004099
0.031045586 -0.023284197 0.64197463
0.023276752 -0.012414277 0.64191473
0.035587162 0.0015472472 0.6413697
0.021910477 -0.012520254 0.64351428
0.025488349 -0.0031860173 0.64689267
0.033348452 0.0047641098 0.64628911
0.02717898 -0.023981482 0.64758575
0.053157322 -0.041881502 0.64904207
0.05504353 -0.035616428 0.65001971
0.05504353 -0.035616428 0.65001971
0.025971321 0.0032463968 0.65053642
0.032539099 0.0081347823 0.65098876
0.013133591 -0.0082084835 0.65276849
0.014733041 -0.0065480173 0.65220183
0.019725498 -0.018081725 0.6530211
0.024661411 0.0049322844 0.65305763
0.046430226 0.01492402 0.65476304
0.014991619 -0.01332587 0.65566999
0.063874856 -0.031937391 0.65750253
0.06073235 -0.033740222 0.65823799
0.0608752 -0.032128572 0.65871704
0.016873566 0.0033746958 0.6582799
0.034058969 0.013623595 0.66016197
0.034058969 0.013623595 0.66016197
0.070708662 -0.015521407 0.6627757
0.010328989 -0.013772011 0.66240114
0.01033219 -0 0.66246545
0.072686046 -0.0086530745 0.66350222
0.054093018 -0.031408846 0.66523033
0.054093018 -0.031408846 0.66523033
0.071485788 -0.01046133 0.66506374
0.0070220847 -0.014044166 0.66650808
0.0052821497 -0 0.66713518
0 -0.0017691851 0.66815573
0.014196284 0.012421757 0.66880333
0.0035535197 -0.010660529 0.66907179
0.067586474 -0.0088929534 0.66929293
0.033785067 0.019559801 0.66924101
0.030465093 -0.035841286 0.67091924
0.030465093 -0.035841286 0.67091924
0.007165716 -0.019705713 0.67084253
0.066178381 -0.017886043 0.67050165
0.066178381 -0.017886043 0.67050165
0.0089539075 0.010744721 0.67076433
0.060041294 -0.012736052 0.67422295
0.0036535598 0.010960668 0.67510974
0.025666941 0.020166874 0.6759032
-0.0073981988 0.0018495321 0.67785829
0.0018661048 -0.020527154 0.67985666
0.057696685 -0.014889479 0.67926264
-0.0074902596 0.0037451386 0.68063653
0.0093922792 0.018784553 0.68134761
0.018830582 0.020713657 0.68190312
-0.0056997333 -0.015199304 0.68393749
-0.003785148 0.013247997 0.68305182
-0.0076280874 0.011442155 0.6847958
-0.0095790299 -0.011494815 0.68585616
0.017266119 -0.032613814 0.68617624
0.015381985 0.023072988 0.68669415
-0.0077016177 -0.015403241 0.68701476
-0.015608164 -0.0058530569 0.69010693
-0.015679695 -0.0078398585 0.69118631
0.011785717 0.025535703 0.69170821
-0.017973157 -0.0099850893 0.69565928
-0.025962159 0.0059912801 0.69566792
-0.025962159 0.0059912801 0.69566792
-0.028987458 -0.0020705462 0.70453334
-0.029272115 0.016726911 0.70698774
-0.018866353 0.025155157 0.7076391
-0.031611055 -0.0042147934 0.70898408
-0.040163141 0.0084553957 0.7097621
-0.045627795 0.0065182447 0.71687233
-0.043825574 0.0043825805 0.71910864
-0.04411304 0.0022056401 0.72084367
-0.044350971 0.0199579 0.72227973
-0.022520019 0.033780038 0.72643858
-0.047834355 -0.0022778213 0.7295559
-0.050447483 0.025223762 0.7313956
-0.058117457 0.0092988312 0.73521388
-0.058117457 0.0092988312 0.73521388
-0.064125121 0.019000053 0.74128628
-0.054916263 0.033427298 0.74281442
-0.068779536 0.0049128234 0.75111306
-0.069000393 0.032035917 0.75206524
-0.069000393 0.032035917 0.75206524
-0.067393437 2.9802322e-08 0.75589818
0.038361419 -0.022870451 0.63269919
0.043532416 -0.027020127 0.63579893
0.035180613 -0.008982867 0.63531941
0.037368268 -0.0052301437 0.63502789
0.033367757 -0.0075835884 0.63768172
0.032910906 -0.0045925379 0.63938844
0.052883975 0.0076644868 0.63963509
0.032467429 -0.02473709 0.6412248
0.037190668 0.0030992031 0.64165258
0.023297779 -0.010872275 0.64208394
0.056908719 0.01091443 0.64281052
0.048660193 -0.039242089 0.64407545
0.02673007 -0.0062894523 0.64439821
0.03175519 -0.028579623 0.6462574
0.023127712 -0.0063805878 0.6471498
0.025251856 0.00053793192 0.64917302
0.036872175 0.0080156922 0.64811379
0.05083045 0.012909934 0.64939374
0.02268818 -0.0016205609 0.65021974
0.035892911 0.0097889602 0.65153694
0.02474067 -0.026390046 0.65369546
0.022935996 -0.022935987 0.65235651
0.013137493 -0.0090322644 0.65282738
0.013220606 -0.01156804 0.65408146
0.02163893 0.0049936175 0.65552485
0.029009659 0.0091189891 0.65468282
0.044765178 0.013263732 0.65473258
0.063971132 -0.037035942 0.65780848
0.020098694 -0.023448497 0.65677518
0.01841566 -0.020929724 0.65668577
0.028400136 0.010023594 0.65625674
0.020239681 0.0067465305 0.65819341
0.072816029 -0.01713343 0.66141665
0.075063609 -0.0085299611 0.66052926
0.012814887 0.001709044 0.66090024
0.022186659 0.010240018 0.66061074
0.030854063 0.013712943 0.66150987
0.070522711 -0.030961215 0.66222829
0.06586837 -0.027734041 0.66383517
0.065754466 -0.0017303824 0.66347337
0.010409428 0.003469795 0.66401947
0.061674561 -0.024669796 0.66730589
0.051692892 -0.028520197 0.66976631
0.031947188 0.017748475 0.66884053
0.028757278 -0.034149259 0.6715548
0.007165716 -0.019705713 0.67084253
0.062811337 -0.012562245 0.67122644
0.062811337 -0.012562245 0.67122644
0.055148609 -0.028931424 0.67286873
-0.0054165046 -0.0036109984 0.67254126
0.059003036 -0.020282298 0.67716968
0.060664468 -0.007353276 0.67650247
0.060664468 -0.007353276 0.67650247
0.0018661048 -0.020527154 0.67985666
0.057696685 -0.014889479 0.67926264
0.013030563 0.018615097 0.67930192
0.01893118 -0.032183021 0.68311745
-0.0018958079 0.015166461 0.68344218
-0.0095561612 0.0095561147 0.68530405
-0.0038460731 -0.019230366 0.68672895
-0.0096082026 0.011529863 0.68656045
-0.019383606 0.0038767159 0.68857872
-0.015740614 0.011805445 0.69210547
-0.015912123 -0.011934072 0.69469327
-0.023802707 0.0059506893 0.69403464
0.0039832718 0.023899645 0.69500959
-0.020237938 0.01619035 0.6988914
0.0040426985 0.026277512 0.69859636
-0.03278904 0.0040985942 0.70197213
-0.00206468 0.026840806 0.7038269
-0.029272115 0.016726911 0.70698774
-0.0083524678 0.027145505 0.70665598
-0.037851639 0.0042057335 0.70843667
-0.0063417628 0.029594928 0.70977074
-0.029705836 0.021218449 0.71072733
-0.032081958 0.021387964 0.71277356
-0.034488026 -0.0064664781 0.71478999
-0.032837398 -0.010945797 0.71885288
-0.04160678 2.9802322e-08 0.71893388
-0.035189759 0.026392341 0.72008413
-0.0467178 0.015572608 0.7231378
-0.038155235 0.029177517 0.72552407
-0.047732662 0.025002867 0.72897136
-0.052861679 0.022983372 0.73203135
-0.058117457 0.0092988312 0.73521388
-0.034776278 0.0347763 0.73445576
-0.056628898 2.9802322e-08 0.73941928
-0.064290822 0.021430254 0.74202716
-0.067189954 0.016797513 0.74426025
-0.070509031 0.014588088 0.74808735
-0.058647826 0.03665489 0.74957371
-0.069000393 0.032035917 0.75206524
-0.057008799 0.039658308 0.7537967
0.041068543 -0.020534307 0.63164836
0.038812064 -0.026002325 0.63396031
0.034224954 -0.010412551 0.63422573
0.047115717 -0.0029447377 0.63232821
0.034630775 -0.002545943 0.63903022
0.035066158 -0.029615268 0.64274949
0.036616635 -0.031167313 0.64270943
0.027221218 -0.017114148 0.6424036
0.019137343 -0.012758225 0.64710474
0.04317848 0.0095952153 0.6476388
0.057423741 0.012586415 0.64451182
0.021495847 -0.0053718886 0.64921248
0.029915325 0.0056634322 0.64980757
0.032871079 -0.032871068 0.65299237
0.01401796 -0.005769439 0.65370184
0.02270939 0.0055406592 0.65518665
0.041796349 0.01147382 0.652457
0.032016374 -0.03370145 0.65800416
0.017725244 -0.021741569 0.65839422
0.022825932 0.009020905 0.65872335
0.066363819 -0.026719823 0.66268122
0.068941042 -0.0022768776 0.66092771
0.06692788 -0.013649322 0.66720086
0.069361053 -0.013364225 0.66502547
0.059127353 -0.025982395 0.67087984
0.008847543 -0.019464612 0.6681965
0.065011322 -0.013624191 0.66911817
0.062978357 0.00088866055 0.66873759
0.01975289 0.016161472 0.67136019
0.01975289 0.016161472 0.67136019
-0.0027324609 0.0018279925 0.67459434
0.058489777 -0.017639764 0.67874724
-0.010183833 -0.0027776584 0.67799771
0.01014082 0.01659815 0.67721725
-0.010672666 0.0031435788 0.68195593
-0.0096553331 -0.013517439 0.68769825
-0.010830991 0.0070062778 0.68526053
-0.010830991 0.0070062778 0.68526053
-0.0079835765 -0.019958943 0.69552362
-0.015845355 -0.01089783 0.69368583
-0.028154779 0.0020110607 0.69735384
-0.026102703 -0 0.69697297
-0.026580242 0.01022318 0.70140707
-0.026580242 0.01022318 0.70140707
0.0020523581 0.028733045 0.70233941
-0.026052713 -0.0093768984 0.70617038
-0.037692279 0.0083760619 0.70736796
-0.040281761 0.0095435381 0.71051574
-0.034811199 0.023932725 0.71722811
-0.021968395 0.030755758 0.71977997
-0.044240758 0.0011028349 0.72161448
-0.044241343 0.018805295 0.72161806
-0.053128168 0.014417073 0.72941983
-0.053128168 0.014417073 0.72941983
-0.039758902 0.035081416 0.73691112
-0.067317724 0.013221771 0.74481112
-0.065350696 0.029044777 0.74676555
-0.050179116 0.039162159 0.75005341
-0.07415323 0.012358874 0.75296748
-0.074200675 0.025972888 0.75315833
