# .PCD v0.7 - Point Cloud Data file format
VERSION 0.7
FIELDS x y z
SIZE 4 4 4
TYPE F F F
COUNT 1 1 1
WIDTH 1345
HEIGHT 1
VIEWPOINT 0 0 0 1 0 0 0
POINTS 1345
DATA ascii
-0.010839777 0.046972394 0.6726774
-0.010862289 0.045259565 0.67313033
-0.010884934 0.043539762 0.67358589
-0.010907635 0.041812599 0.67404258
-0.010930431 0.040078253 0.67450118
-0.010953401 0.038336903 0.67496336
-0.010977031 0.03659007 0.67543876
-0.010982652 0.034778416 0.67555177
-0.011006449 0.033019364 0.67603058
-0.011030348 0.031252652 0.67651141
-0.011054393 0.029478401 0.6769951
-0.011078501 0.027696282 0.67748016
-0.011102716 0.025906324 0.67796731
-0.011127035 0.024108559 0.6784566
-0.011151462 0.022302896 0.67894804
-0.011176163 0.020489633 0.67944497
-0.011201433 0.018669069 0.67995334
-0.011226817 0.016840279 0.68046403
-0.011252275 0.015003055 0.68097621
-0.011277892 0.013157547 0.68149155
-0.011303624 0.011303604 0.68200928
-0.011329474 0.0094412267 0.68252933
-0.011355444 0.0075702965 0.68305176
-0.011381532 0.0056907833 0.6835767
-0.011407697 0.0038025677 0.68410307
-0.011434025 0.0019056797 0.68463278
-0.01146052 -2.9802322e-08 0.68516582
-0.01148771 -0.0019146204 0.68571281
-0.011515028 -0.0038383007 0.68626237
-0.011542432 -0.0057712197 0.68681371
-0.011570012 -0.0077133477 0.68736857
-0.011597725 -0.0096647739 0.68792611
-0.011625568 -0.011625558 0.68848634
-0.011653548 -0.01359579 0.68904918
-0.011681617 -0.015575469 0.68961394
-0.011709866 -0.017564803 0.69018227
-0.011738254 -0.019563764 0.69075334
-0.011766825 -0.02157253 0.69132817
-0.01179609 -0.023592174 0.69191694
-0.011825548 -0.02562201 0.69250959
-0.01185511 -0.02766192 0.69310433
-0.011884863 -0.029712141 0.69370294
-0.01191472 -0.031772584 0.69430357
-0.011944729 -0.033843368 0.69490731
-0.011974935 -0.035924792 0.69551504
-0.012005247 -0.038016617 0.69612479
-0.012035714 -0.040119022 0.69673777
-0.012066383 -0.042232364 0.69735479
-0.012097404 -0.044357121 0.69797891
-0.012128976 -0.046494395 0.69861406
-0.012160715 -0.048642844 0.69925261
-0.012192669 -0.050802797 0.6998955
-0.012224742 -0.052973896 0.70054078
-0.012257035 -0.055156648 0.70119041
-0.012289448 -0.057350755 0.70184255
-0.012322033 -0.059556484 0.70249808
-0.012354841 -0.061774224 0.70315814
-0.012387775 -0.064003497 0.70382065
-0.012420935 -0.06624499 0.70448786
-0.012454842 -0.068501621 0.70517004
-0.012488985 -0.070770919 0.70585692
-0.01252337 -0.073052973 0.70654869
-0.012557891 -0.075347334 0.7072432
-0.012592657 -0.07765469 0.70794261
-0.012627562 -0.079974532 0.70864487
-0.012662714 -0.082307667 0.70935208
-0.01269801 -0.084653407 0.71006215
-0.012733502 -0.087012231 0.71077621
-0.012769248 -0.089384735 0.71149534
-0.0086187897 0.082740396 0.66267395
-0.0086054783 0.08089149 0.66235256
-0.0086220568 0.079322904 0.66275281
-0.0086391466 0.077752322 0.66316533
-0.0086563649 0.076175988 0.66358101
-0.0086736511 0.074593395 0.66399837
-0.0086910063 0.073004484 0.66441739
-0.0087084025 0.071408898 0.66483736
-0.0087258974 0.069807202 0.66525972
-0.0087434622 0.068199009 0.66568381
-0.0087610995 0.066584319 0.66610962
-0.008778777 0.064962953 0.66653633
-0.0087965559 0.06333521 0.66696554
-0.0088145314 0.061701715 0.66739953
-0.0088328924 0.06006369 0.66784286
-0.0088513307 0.058418781 0.66828799
-0.0088698464 0.056767017 0.66873497
-0.00888847 0.055108517 0.66918457
-0.0089071412 0.053442836 0.66963536
-0.0089258915 0.051770151 0.67008799
-0.0089447517 0.050090581 0.67054331
-0.0089636603 0.04840377 0.67099983
-0.0089826807 0.046709925 0.67145902
-0.0090017822 0.045008928 0.67192018
-0.009021095 0.043301284 0.67238641
-0.0090408185 0.0415878 0.67286259
-0.0090606278 0.039866745 0.6733408
-0.0090805236 0.038138211 0.67382121
-0.0091005079 0.036402017 0.67430359
-0.0091062048 0.034603596 0.67444116
-0.0091263363 0.032854825 0.67492718
-0.0091465553 0.031098306 0.67541528
-0.0091668656 0.029333949 0.67590559
-0.0091872318 0.027561724 0.67639732
-0.0092077898 0.02578178 0.67689365
-0.0092288489 0.023995012 0.67740208
-0.0092500048 0.022200018 0.67791283
-0.0092712231 0.020396709 0.67842507
-0.0092925746 0.018585116 0.67894053
-0.0093140239 0.016765237 0.67945838
-0.0093355719 0.014936924 0.67997861
-0.0093572214 0.013100117 0.68050122
-0.0093789352 0.011254758 0.68102545
-0.0094007859 0.009400785 0.68155295
-0.0094227372 0.0075381696 0.68208289
-0.0094447937 0.0056668818 0.6826154
-0.009467274 0.0037868917 0.68315816
-0.009490042 0.0018980205 0.68370783
-0.0095128845 -0 0.6842593
-0.0095358733 -0.00190714 0.68481421
-0.0095589356 -0.0038235784 0.68537104
-0.0095821116 -0.0057492554 0.68593055
-0.0096054357 -0.0076843202 0.68649364
-0.0096288379 -0.0096288025 0.68705863
-0.0096523529 -0.011582792 0.68762636
-0.0096760215 -0.013546437 0.68819773
-0.0096997684 -0.015519619 0.68877107
-0.0097239353 -0.017503053 0.68935442
-0.0097484123 -0.019496828 0.68994546
-0.0097730504 -0.021500707 0.69054025
-0.0097977761 -0.023514628 0.69113714
-0.0098226648 -0.025538892 0.69173801
-0.0098476419 -0.027573377 0.69234103
-0.0098727467 -0.029618233 0.69294715
-0.009898019 -0.03167367 0.69355726
-0.0099233808 -0.033739477 0.69416952
-0.009948913 -0.035816073 0.69478595
-0.0099745374 -0.037903219 0.69540459
-0.010000734 -0.040002912 0.69603699
-0.010027149 -0.042114019 0.6966747
-0.010053703 -0.044236302 0.69731581
-0.010080439 -0.04637 0.69796121
-0.010107277 -0.048514932 0.69860923
-0.010134298 -0.050671488 0.69926155
-0.010161425 -0.052839398 0.69991642
-0.010188696 -0.055018991 0.70057482
-0.010216156 -0.057210445 0.70123774
-0.010243723 -0.059413582 0.70190328
-0.010271649 -0.061629891 0.70257747
-0.010300109 -0.063860685 0.70326459
-0.010328686 -0.066103607 0.70395446
-0.010357421 -0.068358958 0.70464814
-0.01038636 -0.070627242 0.70534682
-0.010415417 -0.072907925 0.70604831
-0.010444637 -0.075201392 0.70675385
-0.010474022 -0.077507764 0.70746315
-0.010503617 -0.079827487 0.70817775
-0.010533336 -0.082159996 0.70889515
-0.010563445 -0.084507555 0.70962209
-0.010594132 -0.086871892 0.71036291
-0.010624952 -0.089249551 0.7111069
-0.0068545798 0.082254946 0.66145319
-0.0068451795 0.080430895 0.66116947
-0.0068590436 0.078879029 0.66158783
-0.0068729636 0.077320844 0.66200799
-0.0068869409 0.075756311 0.66242975
-0.0069009745 0.074185461 0.66285324
-0.0069150664 0.072608173 0.66327852
-0.0069292155 0.071024477 0.66370547
-0.0069434228 0.069434226 0.66413426
-0.0069576879 0.067837447 0.66456479
-0.0069721336 0.066235304 0.66500068
-0.0069868593 0.064628482 0.66544503
-0.0070016459 0.063014865 0.66589129
-0.0070164967 0.061394334 0.66633946
-0.00703141 0.059767008 0.66678947
-0.0070463866 0.058132678 0.66724145
-0.0070614279 0.056491435 0.6676954
-0.0070765335 0.054843128 0.6681512
-0.007091728 0.053187996 0.66860974
-0.0071069635 0.051525503 0.66906953
-0.0071222899 0.049856067 0.66953206
-0.0071376567 0.048179179 0.66999578
-0.007153423 0.046497256 0.67047155
-0.0071692839 0.04480806 0.67095017
-0.0071852156 0.043111295 0.67143101
-0.0072012185 0.041407019 0.67191386
-0.0072172931 0.039695114 0.67239892
-0.0072334385 0.03797555 0.67288625
-0.0072496571 0.036248267 0.67337573
-0.0072548869 0.034460723 0.6735335
-0.0072712284 0.032720536 0.67402667
-0.0072876434 0.030972451 0.67452204
-0.0073042396 0.029216975 0.67502284
-0.0073211789 0.027454436 0.67553401
-0.0073381709 0.025683612 0.67604679
-0.0073552411 0.023904562 0.67656195
-0.0073724184 0.022117287 0.67708033
-0.0073896493 0.020321518 0.67760026
-0.0074069877 0.018517494 0.67812353
-0.0074243802 0.016704887 0.67864835
-0.007441855 0.014883727 0.67917573
-0.0074594393 0.013053983 0.67970645
-0.0074770795 0.011215627 0.68023878
-0.0074948031 0.0093685091 0.68077362
-0.0075129215 0.0075129569 0.68132037
-0.0075312122 0.0056484342 0.68187237
-0.0075495644 0.003774792 0.68242615
-0.0075680339 0.0018920004 0.68298358
-0.0075865663 -2.9802322e-08 0.68354279
-0.0076052174 -0.0019012988 0.68410569
-0.0076239328 -0.0038119555 0.68467045
-0.0076427395 -0.0057320595 0.685238
-0.0076616686 -0.0076616704 0.68580925
-0.0076806629 -0.0096008182 0.68638241
-0.0076997806 -0.011549652 0.68695939
-0.007719202 -0.013508588 0.68754542
-0.0077389018 -0.015477806 0.68813992
-0.0077586719 -0.017457008 0.68873656
-0.007778543 -0.019446373 0.68933618
-0.0077985474 -0.021446019 0.68993998
-0.0078186244 -0.023455858 0.6905458
-0.007838835 -0.025476217 0.69115567
-0.0078591192 -0.027506888 0.69176781
-0.0078795403 -0.029548258 0.69238406
-0.0079000369 -0.031600147 0.69300264
-0.0079206396 -0.033662707 0.69362438
-0.0079416977 -0.035737664 0.69425982
-0.0079629626 -0.037824094 0.69490159
-0.0079843095 -0.039921552 0.69554579
-0.0080057709 -0.042030305 0.69619346
-0.0080273813 -0.044150591 0.69684559
-0.0080490755 -0.046282172 0.69750023
-0.0080708871 -0.048425317 0.6981585
-0.0080928188 -0.050580114 0.69882035
-0.0081149014 -0.052746862 0.69948673
-0.0081370724 -0.054925233 0.70015579
-0.0081595965 -0.057117164 0.70083553
-0.0081824474 -0.059322745 0.70152509
-0.0082054269 -0.061540693 0.70221853
-0.0082285693 -0.063771427 0.70291698
-0.0082518086 -0.066014469 0.70361829
-0.0082751801 -0.068270206 0.70432353
-0.0082987174 -0.070539087 0.70503384
-0.0083223553 -0.072820604 0.70574719
-0.0083461627 -0.075115472 0.70646566
-0.0083700726 -0.077423155 0.70718718
-0.0083944006 -0.079746783 0.70792139
-0.0084190825 -0.082086027 0.70866621
-0.0084439116 -0.084439129 0.7094155
-0.0084688505 -0.086805731 0.71016812
-0.0084939739 -0.089186698 0.71092623
-0.005116595 0.081865549 0.66047382
-0.0051097153 0.080052197 0.66019696
-0.0051202602 0.078510672 0.66062123
-0.0051308484 0.076962739 0.66104734
-0.0051414985 0.075408638 0.66147584
-0.0051521752 0.07384783 0.66190547
-0.0051629138 0.072280824 0.66233754
-0.0051736794 0.070706964 0.66277075
-0.0051846695 0.06912896 0.66321295
-0.0051957783 0.067545176 0.66365987
-0.0052069346 0.065954506 0.66410881
-0.0052181389 0.064357072 0.66455966
-0.0052293916 0.062752724 0.66501236
-0.0052407109 0.06114161 0.66546786
-0.0052520614 0.059523374 0.66592455
-0.0052634613 0.057898074 0.66638327
-0.00527491 0.056265712 0.66684389
-0.0052864281 0.054626435 0.66730738
-0.0052979775 0.052979767 0.66777205
-0.0053095776 0.051325947 0.66823882
-0.0053214924 0.049667269 0.66871822
-0.0053334422 0.048000991 0.66919905
-0.0053454456 0.046327204 0.66968203
-0.0053575221 0.044646025 0.67016798
-0.0053696344 0.042957097 0.67065531
-0.0053818212 0.04126063 0.67114568
-0.0053940434 0.039556324 0.67163742
-0.005406341 0.03784439 0.67213225
-0.0054186755 0.036124498 0.67262858
-0.0054281005 0.034377962 0.67300779
-0.005435491 0.03261295 0.67330515
-0.0054482552 0.030873418 0.67381877
-0.0054610595 0.029125661 0.67433399
-0.0054739444 0.027369738 0.67485237
-0.0054868702 0.02560544 0.67537254
-0.005499877 0.023832828 0.67589587
-0.0055129258 0.022051692 0.67642093
-0.005526037 0.020262122 0.67694849
-0.0055392301 0.018464118 0.67747939
-0.0055524665 0.016657382 0.67801195
-0.0055657867 0.014842123 0.67854786
-0.0055791507 0.013018042 0.67908561
-0.0055927243 0.011185467 0.67963177
-0.0056064902 0.0093441606 0.68018568
-0.0056203236 0.007493794 0.68074232
-0.0056342473 0.0056342781 0.68130249
-0.0056482181 0.0037655234 0.68186462
-0.0056622797 0.0018874407 0.68243045
-0.0056763906 -0 0.68299824
-0.0056905928 -0.0018968582 0.68356973
-0.0057048458 -0.0038032532 0.68414319
-0.005719169 -0.0057191551 0.6847195
-0.0057335873 -0.0076447725 0.68529963
-0.0057481439 -0.0095802546 0.68588537
-0.0057629738 -0.011525959 0.68648207
-0.0057779029 -0.013481796 0.68708283
-0.005792887 -0.015447706 0.68768573
-0.0058079492 -0.017423809 0.68829173
-0.0058231121 -0.019410342 0.68890184
-0.0058383322 -0.021407187 0.68951428
-0.0058536315 -0.023414522 0.69012988
-0.0058690123 -0.025432378 0.69074869
-0.005884496 -0.027460963 0.69137174
-0.0059000389 -0.029500157 0.69199717
-0.0059158509 -0.031551212 0.69263339
-0.0059318645 -0.03361389 0.69327772
-0.0059479889 -0.035687923 0.69392645
-0.0059641777 -0.037773103 0.69457787
-0.0059804549 -0.039869696 0.69523281
-0.0059968443 -0.041977942 0.69589233
-0.0060133003 -0.044097513 0.69655442
-0.0060298466 -0.046228826 0.69722021
-0.0060465094 -0.04837209 0.6978907
-0.0060632392 -0.050527006 0.69856387
-0.0060802102 -0.052695155 0.6992467
-0.0060974495 -0.054877013 0.69994032
-0.0061148112 -0.057071567 0.70063889
-0.0061322474 -0.059278369 0.70134056
-0.0061498093 -0.061498106 0.70204711
-0.0061674463 -0.06373027 0.70275682
-0.0061852098 -0.065975577 0.7034716
-0.0062030503 -0.06823352 0.70418936
-0.0062210201 -0.070504934 0.70491248
-0.0062390938 -0.07278946 0.70563966
-0.0062569086 -0.075082928 0.70635647
-0.0062745106 -0.077385604 0.70706469
-0.0062922374 -0.079701692 0.70777798
-0.0063100392 -0.082030535 0.70849431
-0.0063279676 -0.084372908 0.7092157
-0.0063445773 -0.086709201 0.70988393
-0.0063608699 -0.089052171 0.71053958
-0.0033980676 0.081553608 0.65968943
-0.0033931823 0.079739809 0.65939456
-0.003400319 0.078207374 0.65982533
-0.0034074858 0.076668471 0.66025794
-0.0034146833 0.075123072 0.66069221
-0.0034219224 0.073571354 0.66112924
-0.0034292631 0.07201454 0.66157222
-0.0034367179 0.07045272 0.66202223
-0.0034441936 0.068883866 0.66247338
-0.0034517015 0.067308217 0.66292655
-0.0034592424 0.065725595 0.66338164
-0.003466828 0.064136356 0.66383952
-0.0034744355 0.062539876 0.66429859
-0.0034820761 0.060936332 0.66475981
-0.0034897625 0.059325963 0.66522372
-0.0034974706 0.057708263 0.66568893
-0.0035052253 0.05608359 0.66615701
-0.0035130023 0.054451555 0.66662639
-0.0035209248 0.052813888 0.66710454
-0.0035289212 0.051169336 0.66758716
-0.0035369657 0.049517512 0.6680727
-0.0035450601 0.047858298 0.66856122
-0.0035531791 0.046191335 0.66905123
-0.0035613477 0.044516832 0.66954428
-0.0035695413 0.04283452 0.67003876
-0.0035777853 0.04114455 0.6705364
-0.0035860676 0.039446741 0.67103624
-0.0035943759 0.037740916 0.6715377
-0.0036027352 0.036027342 0.67204225
-0.003610912 0.034303665 0.67253572
-0.0036145637 0.032531083 0.6727562
-0.003623188 0.030797064 0.67327666
-0.0036318668 0.02905494 0.67380053
-0.0036405739 0.027304322 0.67432594
-0.0036493228 0.025545239 0.67485404
-0.0036581275 0.023777843 0.67538542
-0.0036669611 0.022001773 0.67591864
-0.003675851 0.02021718 0.67645514
-0.0036847705 0.018423855 0.67699349
-0.0036937469 0.016621888 0.6775353
-0.0037027539 0.014811039 0.67807889
-0.0037119421 0.012991816 0.67863345
-0.0037212316 0.011163741 0.67919409
-0.0037305539 0.0093263686 0.67975676
-0.0037399228 0.0074798763 0.68032229
-0.0037493391 0.0056240261 0.68089056
-0.003758817 0.0037587881 0.68146265
-0.0037683288 0.0018841624 0.6820367
-0.0037778886 -0 0.68261367
-0.0037874973 -0.0018937588 0.68319362
-0.0037971693 -0.0037971437 0.68377733
-0.0038068763 -0.0057103038 0.68436325
-0.0038167641 -0.0076334774 0.68496001
-0.0038267765 -0.0095669329 0.68556428
-0.0038368271 -0.011510491 0.68617094
-0.003846945 -0.013464302 0.68678164
-0.0038571018 -0.015428424 0.68739468
-0.0038673123 -0.017402917 0.68801087
-0.0038775771 -0.019387901 0.6886304
-0.0038879118 -0.021383524 0.68925416
-0.0038982863 -0.023389727 0.68988037
-0.0039087161 -0.025406659 0.6905098
-0.0039192485 -0.027434707 0.69114554
-0.0039299917 -0.029474944 0.69179392
-0.0039408095 -0.031526446 0.69244683
-0.003951672 -0.033589154 0.69310242
-0.0039626095 -0.035663515 0.6937626
-0.0039735921 -0.037749141 0.69442546
-0.003984652 -0.03984651 0.69509292
-0.0039957729 -0.04195562 0.69576418
-0.0040069409 -0.044076324 0.69643819
-0.0040181871 -0.046209157 0.69711697
-0.0040294803 -0.048353761 0.69779861
-0.0040405928 -0.050507426 0.69846928
-0.0040516024 -0.052670836 0.69913375
-0.0040626889 -0.054846287 0.69980288
-0.0040738191 -0.057033479 0.70047474
-0.0040848111 -0.059229761 0.70113808
-0.0040950747 -0.061426103 0.70175749
-0.004105255 -0.063631445 0.70237195
-0.0041154856 -0.065847754 0.70298946
-0.0041257511 -0.068074882 0.70360899
-0.0041354182 -0.070302099 0.70419252
-0.0041442211 -0.072523862 0.70472378
-0.0041530612 -0.074755102 0.70525736
-0.0041619218 -0.076995552 0.70579219
-0.0041706292 -0.079241961 0.70631766
-0.0041794078 -0.081498444 0.70684749
-0.0041882237 -0.083764464 0.70737958
-0.0041970946 -0.086040467 0.70791501
-0.0042065685 -0.088337928 0.7084868
-0.0042169741 -0.090664953 0.70911485
-0.0016938342 0.081304014 0.65906179
-0.0016911721 0.079485118 0.6587404
-0.0016947981 0.07796073 0.65917814
-0.001698434 0.076429516 0.65961707
-0.0017020854 0.074891746 0.66005784
-0.0017058281 0.073350608 0.66050959
-0.0017095874 0.071802706 0.66096342
-0.0017133633 0.070247918 0.66141915
-0.001717156 0.068686247 0.66187692
-0.0017209654 0.067117631 0.66233683
-0.0017247917 0.065542102 0.6627987
-0.0017286352 0.063959479 0.66326267
-0.0017324958 0.062369823 0.66372871
-0.0017363797 0.060773313 0.66419744
-0.001740275 0.059169382 0.66466773
-0.001744194 0.057558417 0.66514075
-0.0017481304 0.055940181 0.66561598
-0.00175214 0.054316342 0.66609997
-0.0017561804 0.052685469 0.66658765
-0.0017602457 0.051047117 0.66707838
-0.0017643237 0.049401075 0.66757059
-0.0017684329 0.047747731 0.66806668
-0.0017725616 0.046086609 0.66856503
-0.0017767095 0.044417769 0.66906571
-0.0017808704 0.042740911 0.669568
-0.0017850571 0.041056335 0.67007339
-0.0017892638 0.039363801 0.67058116
-0.0017934901 0.037663281 0.67109132
-0.0017977367 0.035954744 0.67160392
-0.0018020682 0.034239292 0.67212683
-0.0018039134 0.032470465 0.67234951
-0.0018082944 0.030741006 0.67287838
-0.0018126966 0.029003173 0.67340976
-0.0018171206 0.027256846 0.67394376
-0.0018215725 0.025501996 0.67448115
-0.00182604 0.023738563 0.6750204
-0.0018305291 0.021966338 0.67556238
-0.0018350406 0.020185441 0.67610693
-0.0018395811 0.018395811 0.67665493
-0.0018441371 0.016597241 0.67720497
-0.0018487911 0.014790356 0.67776674
-0.0018534823 0.012974381 0.67833304
-0.0018581974 0.011149198 0.67890221
-0.0018629434 0.0093147159 0.67947507
-0.0018677069 0.0074708164 0.68005013
-0.0018724948 0.0056174695 0.68062806
-0.0018773142 0.0037546456 0.6812098
-0.0018821516 0.0018821359 0.68179375
-0.0018870138 -0 0.68238062
-0.0018919013 -0.0018918812 0.68297064
-0.0018968212 -0.0037936568 0.68356454
-0.0019018465 -0.0057055354 0.68417108
-0.0019069129 -0.0076276362 0.68478268
-0.0019119991 -0.009559989 0.68539667
-0.0019171198 -0.011502683 0.68601477
-0.0019222681 -0.013455868 0.68663621
-0.0019274367 -0.015419483 0.68726009
-0.0019326404 -0.017393768 0.68788832
-0.001937865 -0.019378692 0.688519
-0.0019431254 -0.021374375 0.68915391
-0.001948407 -0.023380876 0.68979144
-0.001953702 -0.025398135 0.69043064
-0.0019589262 -0.027424961 0.6910612
-0.0019641011 -0.029461503 0.69168586
-0.0019693114 -0.031508982 0.69231486
-0.0019745105 -0.033566654 0.69294238
-0.0019795645 -0.035632133 0.69355249
-0.0019843613 -0.037702858 0.69413149
-0.0019891497 -0.039783001 0.69470954
-0.0019939456 -0.041872859 0.69528842
-0.0019987726 -0.043972999 0.69587111
-0.0020032458 -0.046074659 0.69641107
-0.0020073766 -0.048177063 0.69690973
-0.0020115245 -0.050288111 0.69741046
-0.0020156004 -0.052405596 0.69790244
-0.0020196766 -0.054531276 0.69839454
-0.0020237938 -0.056666195 0.6988914
-0.002027936 -0.058810115 0.69939142
-0.002032087 -0.060962617 0.69989258
-0.0020364372 -0.063129574 0.70041764
-0.002041314 -0.065322042 0.70100629
-0.0020462142 -0.067525089 0.70159781
-0.0020511381 -0.069738686 0.70219219
-0.0020560774 -0.071962684 0.70278835
-0.0020610488 -0.07419771 0.70338851
-0.0020665647 -0.076462895 0.70405436
-0.0020721275 -0.078740835 0.7047258
-0.0020777206 -0.081031114 0.70540094
-0.0020833437 -0.083333731 0.70607972
-0.0020889973 -0.085648865 0.70676219
-0.0020948397 -0.08798328 0.70746744
-0.0021010588 -0.090345532 0.70821822
0 0.081109941 0.65857363
0 0.079282492 0.65822017
0 0.07776472 0.65866393
0 0.076240361 0.65910959
0 0.074712336 0.65956557
0 0.073177725 0.66002429
0 0.071635962 0.66048437
0 0.070087612 0.66094714
0 0.06853199 0.66141135
0 0.066969335 0.66187763
0 0.065399826 0.66234684
0 0.063823014 0.66281736
0 0.062239468 0.66329145
0 0.06064868 0.66376781
0 0.059050649 0.6642462
0 0.057445079 0.66472614
0 0.055834085 0.66521561
0 0.054215938 0.6657089
0 0.052590191 0.66620445
0 0.050956815 0.66670227
0 0.04931587 0.66720331
0 0.047667325 0.66770744
0 0.046010792 0.66821313
0 0.044346571 0.66872203
0 0.042674214 0.66923261
0 0.040994048 0.6697464
0 0.039305627 0.67026186
0 0.037609249 0.67078066
0 0.035905689 0.67130804
0 0.034194469 0.67184198
0 0.032429755 0.67207664
0 0.030703813 0.67261446
0 0.028969347 0.67315483
0 0.027226359 0.67369872
0 0.025474608 0.67424446
0 0.023714036 0.674793
0 0.021944672 0.67534429
0 0.020166516 0.67589915
0 0.018379331 0.67645597
0 0.016583651 0.67702299
0 0.014779091 0.67759705
0 0.012965143 0.67817408
0 0.011141777 0.6787532
0 0.009308964 0.67933619
0 0.0074665546 0.67992145
0 0.0056145489 0.68051058
0 0.0037528276 0.68110186
0 0.001881361 0.68169719
0 -2.9802322e-08 0.68229562
0 -0.0018912554 0.68289638
0 -0.0037924945 0.68349683
0 -0.0057035387 0.68408996
0 -0.0076241493 0.68467832
0 -0.0095546246 0.68526703
0 -0.011494488 0.68584907
0 -0.013443112 0.68641627
0 -0.015399665 0.68696117
0 -0.017365277 0.68750596
0 -0.019339919 0.68805146
0 -0.021322489 0.68858504
0 -0.023311436 0.68909287
0 -0.025305331 0.68956912
0 -0.027306378 0.69003898
0 -0.029313207 0.69049239
0 -0.031328708 0.6909548
0 -0.033352673 0.69142282
0 -0.035384536 0.69189179
0 -0.037424415 0.69236255
0 -0.039474159 0.69284558
0 -0.04154405 0.69339848
0 -0.043623596 0.69395405
0 -0.045712829 0.69451213
0 -0.047811806 0.69507277
0 -0.049920648 0.69563615
0 -0.052048117 0.69624275
0 -0.054190934 0.69687283
0 -0.056344897 0.69750607
0 -0.058510154 0.69814283
0 -0.060686827 0.6987828
0 -0.062874913 0.69942617
0 -0.06508705 0.70011985
0 -0.067314446 0.70082748
0 -0.069554806 0.70153928
0 -0.07180804 0.70225513
0 -0.074074447 0.70297515
0 -0.076354384 0.70370042
0 -0.078666568 0.70448995
0 -0.080993116 0.70528334
0 -0.083334446 0.70608187
0 -0.085691124 0.70688653
0 -0.088062525 0.70769525
0 -0.090465933 0.70855623
0.001686822 0.080967456 0.65821534
0.0016835585 0.079127252 0.65782136
0.0016872884 0.077615291 0.65827167
0.0016910922 0.076099128 0.6587308
0.0016949301 0.074576914 0.65919411
0.0016987857 0.073047817 0.6596595
0.0017026588 0.071511656 0.66012704
0.0017065497 0.069968551 0.66059667
0.0017104583 0.068418354 0.6610685
0.0017143848 0.066861004 0.66154253
0.0017183295 0.065296531 0.6620186
0.0017222983 0.063724995 0.66249776
0.0017262914 0.062146515 0.66297972
0.001730297 0.060560375 0.66346323
0.0017343273 0.058967113 0.66394979
0.0017384068 0.057367414 0.66444218
0.0017425355 0.055761129 0.6649406
0.0017466842 0.054147243 0.66544139
0.0017508587 0.052525789 0.66594529
0.001755047 0.050896376 0.66645086
0.001759274 0.049259633 0.66696107
0.0017635215 0.047615081 0.66747379
0.0017677832 0.045962334 0.66798824
0.0017720718 0.044301778 0.66850591
0.001776375 0.042633027 0.6690253
0.0017807055 0.040956229 0.66954809
0.0017850571 0.039271265 0.67007339
0.0017894622 0.037578702 0.67060506
0.0017939339 0.035878658 0.6711449
0.0017984346 0.03417024 0.67168814
0.0018004666 0.032408386 0.67193347
0.0018050065 0.030685127 0.67248154
0.0018095631 0.028953016 0.67303151
0.0018141492 0.027212232 0.67358512
0.0018187586 0.025462627 0.67414153
0.0018233849 0.023703992 0.6746999
0.0018280414 0.021936476 0.67526203
0.0018327149 0.0201599 0.67582619
0.0018374058 0.018374056 0.67639244
0.0018420937 0.016578883 0.67695832
0.0018467236 0.014773816 0.67751712
0.0018513015 0.012959093 0.67806977
0.0018558954 0.01113537 0.67862433
0.0018603529 0.0093017817 0.67916238
0.0018647556 0.0074590445 0.67969382
0.0018690046 0.0056070685 0.68020672
0.0018732798 0.0037465692 0.68072277
0.0018775397 0.0018775463 0.68123698
0.0018815853 2.9802322e-08 0.68172538
0.0018855559 -0.0018855631 0.68220466
0.0018893223 -0.0037786663 0.68265927
0.0018929247 -0.0056787729 0.68309414
0.0018964546 -0.0075858235 0.6835202
0.0019000699 -0.0095003545 0.68395662
0.0019037133 -0.011422276 0.68439645
0.0019073709 -0.01335156 0.68483794
0.0019110425 -0.015288353 0.68528116
0.0019147355 -0.017232597 0.685727
0.0019190389 -0.019190371 0.6862464
0.0019233691 -0.021157056 0.68676913
0.0019277188 -0.023132622 0.68729419
0.0019320883 -0.025117129 0.68782163
0.0019364775 -0.027110696 0.68835139
0.0019410601 -0.029115915 0.68890458
0.001945967 -0.03113547 0.68949693
0.0019508988 -0.033165276 0.69009221
0.0019558554 -0.035205364 0.69069058
0.0019608377 -0.037255913 0.69129193
0.0019658452 -0.039316893 0.69189644
0.0019710336 -0.041391701 0.69252276
0.0019765384 -0.043483824 0.69318724
0.001982074 -0.045587718 0.6938554
0.0019876407 -0.047703356 0.69452739
0.0019932387 -0.049830943 0.69520313
0.0019988683 -0.051970571 0.69588268
0.0020046986 -0.054126859 0.69658637
0.0020108698 -0.056304365 0.69733137
0.0020170712 -0.058495045 0.69808
0.0020233109 -0.060699314 0.69883317
0.0020295975 -0.062917531 0.69959205
0.0020359152 -0.065149277 0.70035464
0.0020427392 -0.06741038 0.70117831
0.0020497264 -0.069690704 0.70202184
0.0020567616 -0.071986675 0.70287102
0.0020638371 -0.074298114 0.7037251
0.0020709697 -0.076625884 0.70458609
0.0020789723 -0.07900095 0.7055521
0.0020870455 -0.081394762 0.70652658
0.0020951817 -0.08380726 0.7075088
0.002103647 -0.086249501 0.70853055
0.0021134119 -0.088763297 0.70970935
0.0033697023 0.080872864 0.6579774
0.00336258 0.079020649 0.65754759
0.0033700312 0.077510685 0.65799725
0.0033778006 0.076000482 0.65846622
0.0033855939 0.074483067 0.65893662
0.0033934237 0.072958648 0.65940917
0.0034013013 0.071427375 0.65988463
0.0034092041 0.069888681 0.66036159
0.0034171552 0.068343103 0.66084146
0.0034251318 0.066790074 0.66132295
0.0034331572 0.065230042 0.6618073
0.0034412325 0.063662797 0.66229469
0.0034493576 0.06208843 0.66278505
0.0034575094 0.060506463 0.66327703
0.0034657116 0.058917105 0.66377211
0.0034740854 0.057322443 0.66427749
0.0034824882 0.055719793 0.66478467
0.0034909311 0.054109454 0.66529423
0.0034994152 0.052491218 0.66580629
0.0035079655 0.050865471 0.66632241
0.00351657 0.049231976 0.66684169
0.0035252164 0.047590435 0.66736358
0.0035338933 0.045940608 0.66788727
0.0035426256 0.044282824 0.66841429
0.0035514012 0.042616844 0.66894394
0.0035602199 0.04094255 0.66947621
0.0035691212 0.039260358 0.67001343
0.0035781565 0.037570655 0.67055881
0.0035872373 0.03587237 0.67110693
0.003596365 0.034165442 0.67165774
0.0035992234 0.032393008 0.6718303
0.0036077485 0.030665874 0.6723448
0.0036161575 0.028929263 0.67285228
0.0036244085 0.027183056 0.67335033
0.0036324337 0.025427043 0.67383468
0.0036405078 0.023663342 0.67432201
0.0036485379 0.021891207 0.67480671
0.0036560027 0.020108014 0.67525721
0.0036634842 0.018317401 0.67570877
0.0036707139 0.016518235 0.67614508
0.0036773637 0.014709473 0.67654645
0.0036840243 0.012894094 0.67694849
0.0036908456 0.011072516 0.67736018
0.003697719 0.0092443228 0.67777503
0.003704618 0.0074092746 0.67819136
0.0037115568 0.005567342 0.67861015
0.0037185077 0.0037184954 0.6790297
0.0037264836 0.001863271 0.67951113
0.0037346333 -0 0.68000299
0.0037428325 -0.0018714368 0.68049783
0.0037510677 -0.0037510693 0.68099487
0.0037593395 -0.0056390166 0.68149412
0.0037677186 -0.0075354576 0.68199992
0.0037769619 -0.0094423592 0.6825577
0.0037862507 -0.011358738 0.68311834
0.0037955851 -0.013284564 0.68368179
0.003804951 -0.015219808 0.68424702
0.0038143783 -0.017164707 0.684816
0.0038238522 -0.019119263 0.68538779
0.0038341072 -0.021087557 0.68600672
0.0038445212 -0.023067117 0.68663538
0.0038549919 -0.025057435 0.6872673
0.00386552 -0.027058631 0.68790269
0.0038761054 -0.029070795 0.68854153
0.003886749 -0.031094015 0.68918395
0.0038980737 -0.033133626 0.6898675
0.0039097397 -0.035187632 0.69057155
0.0039214604 -0.037253857 0.69127905
0.0039332667 -0.039332658 0.69199157
0.0039451285 -0.041423827 0.69270748
0.0039570783 -0.043527871 0.69342875
0.0039701555 -0.0456568 0.69421804
0.0039833509 -0.047800243 0.69501448
0.003996619 -0.049957752 0.69581521
0.0040099914 -0.052129894 0.69662231
0.0040234858 -0.054317057 0.69743681
0.0040386035 -0.056540459 0.69834924
0.0040538344 -0.058780611 0.69926846
0.0040691812 -0.061037719 0.70019472
0.0040849275 -0.063316375 0.70114511
0.0041033356 -0.065653354 0.70225614
0.0041219275 -0.068011791 0.7033782
0.004142351 -0.070419967 0.70461094
0.0041711857 -0.072995722 0.70635122
0.0042030704 -0.075655252 0.70827568
0.0042231847 -0.078128934 0.7094897
0.0042423597 -0.080604821 0.71064699
0.0042593144 -0.083056629 0.71167028
0.0042754193 -0.085508406 0.71264231
0.0042916462 -0.087978721 0.71362162
0.0050515421 0.080824703 0.65785629
0.0050412612 0.07897976 0.65744257
0.0050509647 0.0774481 0.65783304
0.0050628041 0.075942069 0.65830946
0.0050746999 0.074428916 0.65878808
0.0050866515 0.07290867 0.65926898
0.0050986768 0.07138148 0.65975285
0.0051107416 0.069846839 0.66023827
0.0051228637 0.068304867 0.66072607
0.0051350435 0.066755593 0.66121614
0.0051472993 0.065199137 0.66170925
0.0051596486 0.063635647 0.66220617
0.0051720575 0.062064707 0.66270542
0.0051845266 0.060486138 0.66320717
0.0051971455 0.058900982 0.66371489
0.0052099167 0.057309091 0.6642288
0.0052227508 0.055709332 0.66474515
0.0052356478 0.054101706 0.66526413
0.005248609 0.052486122 0.66578567
0.0052616531 0.05086267 0.66631049
0.0052747438 0.049230963 0.66683722
0.0052878992 0.04759109 0.66736656
0.0053011957 0.045943677 0.66790158
0.0053146905 0.044289112 0.66844451
0.0053282739 0.042626202 0.66899115
0.0053419075 0.040954649 0.66953969
0.0053556301 0.039274603 0.67009187
0.0053694043 0.037585825 0.67064607
0.0053832685 0.035888463 0.67120397
0.0053971857 0.034182191 0.67176384
0.0053718253 0.032230973 0.67074347
0.0053814929 0.030495137 0.67113245
0.0053912345 0.028753251 0.67152447
0.0054010302 0.027005166 0.67191863
0.0054108426 0.025250614 0.67231339
0.0054206909 0.023489654 0.6727097
0.0054317731 0.021727085 0.67315561
0.0054433355 0.019958884 0.67362088
0.0054549472 0.018183142 0.674088
0.0054666083 0.016399831 0.67455727
0.0054783197 0.01460886 0.67502844
0.0054900609 0.012810141 0.67550093
0.0055028615 0.011005759 0.67601597
0.0055160052 0.009193331 0.67654485
0.0055292123 0.0073722899 0.67707622
0.0055424822 0.0055424869 0.67761022
0.0055558165 0.0037038922 0.67814672
0.0055692145 0.0018564165 0.67868578
0.0055831345 -0 0.67924595
0.005597855 -0.0018659532 0.67983818
0.0056126532 -0.003741771 0.68043363
0.0056275297 -0.0056275427 0.68103224
0.0056424853 -0.0075233281 0.68163395
0.0056575206 -0.0094292164 0.682239
0.0056727007 -0.011345387 0.68284976
0.0056891479 -0.01327467 0.68351156
0.0057057124 -0.015215218 0.68417805
0.0057223523 -0.017167032 0.68484759
0.0057391115 -0.019130379 0.68552196
0.005755947 -0.02110517 0.68619931
0.0057731476 -0.023092598 0.68689144
0.0057917251 -0.02509746 0.68763894
0.0058104447 -0.027115405 0.68839216
0.0058292858 -0.029146403 0.68915021
0.0058482271 -0.031190544 0.68991244
0.0058674519 -0.033248901 0.69068593
0.0058888821 -0.035333276 0.69154829
0.0059104697 -0.037432969 0.69241685
0.0059322165 -0.039548099 0.6932919
0.0059542414 -0.04167968 0.69417804
0.0059803119 -0.043855637 0.69522709
0.006006611 -0.046050668 0.69628531
0.006034574 -0.048276603 0.69741046
0.0060712583 -0.050593793 0.69888651
0.0061199726 -0.053039789 0.70084661
0.006151346 -0.055362135 0.70210898
0.0061784633 -0.057665646 0.70320004
0.0062037678 -0.059969783 0.70421827
0.0062265424 -0.062265426 0.70513463
0.0062494841 -0.064577997 0.70605773
0.0062721246 -0.066902667 0.70696872
0.0062943748 -0.069238126 0.70786405
0.0063167568 -0.071589887 0.70876461
0.0063392986 -0.073958457 0.70967162
0.0063620289 -0.076344311 0.71058619
0.0063848956 -0.078747064 0.71150625
0.0064079277 -0.081167102 0.71243304
0.0064311535 -0.083604991 0.71336758
0.0064545204 -0.086060256 0.71430773
0.0064785052 -0.088539571 0.71527284
0.0067351176 0.080821425 0.65784812
0.0067218174 0.07898134 0.65744674
0.0067326934 0.077425957 0.65777493
0.0067487666 0.075923651 0.65825999
0.0067649172 0.074414134 0.65874732
0.006781145 0.072897315 0.65923709
0.0067974511 0.071373224 0.65972912
0.0068138577 0.06984207 0.66022426
0.0068303221 0.068303227 0.66072112
0.0068468652 0.066756964 0.66122031
0.0068634888 0.06520316 0.66172206
0.0068802172 0.063642025 0.66222686
0.0068971701 0.062074512 0.66273844
0.006914326 0.060500354 0.66325617
0.0069315671 0.058918327 0.66377646
0.0069488711 0.057328194 0.66429865
0.0069662849 0.055730313 0.66482419
0.0069838115 0.054124534 0.66535306
0.0070014261 0.052510738 0.66588461
0.0070191543 0.050888866 0.66641968
0.0070369728 0.049258828 0.66695738
0.0070549068 0.047620624 0.66749853
0.0070731821 0.045975715 0.66805005
0.0070915525 0.044322222 0.66860449
0.0071100434 0.042660266 0.66916251
0.0071286066 0.040989488 0.66972262
0.0071472661 0.039309978 0.6702857
0.0071660494 0.037621826 0.67085254
0.0071849059 0.035924554 0.67142165
0.0072038625 0.034218371 0.67199373
0.0071291905 0.032081366 0.66974026
0.0071324673 0.030312985 0.66983914
0.0071490272 0.028596133 0.67033887
0.0071656643 0.026871264 0.67084098
0.0071823793 0.025138319 0.67134535
0.0071991719 0.023397326 0.67185217
0.0072160438 0.021648139 0.67236125
0.0072329948 0.019890726 0.67287284
0.0072513912 0.018128484 0.673428
0.007270013 0.016357541 0.67399001
0.0072887316 0.014577478 0.67455482
0.0073075467 0.012788206 0.67512262
0.007326459 0.010989726 0.67569339
0.0073454692 0.0091818571 0.67626709
0.0073652021 0.0073651969 0.67686254
0.0073859948 0.0055395067 0.67749
0.0074069328 0.003703475 0.67812186
0.0074279625 0.0018570125 0.67875654
0.0074491389 -0 0.67939562
0.0074704089 -0.0018675923 0.6800375
0.0074924743 -0.0037462413 0.68070334
0.0075159683 -0.0056369901 0.68141234
0.0075396099 -0.0075396001 0.68212575
0.0075633726 -0.0094542205 0.68284285
0.0075873137 -0.01138097 0.68356538
0.0076116677 -0.013320416 0.6843003
0.0076387143 -0.015277445 0.68511653
0.0076659536 -0.017248362 0.68593854
0.0076933876 -0.019233465 0.68676639
0.0077210488 -0.021232843 0.68760109
0.0077536525 -0.023260951 0.68858504
0.0077868351 -0.025307208 0.68958652
0.0078208847 -0.027373105 0.69061399
0.0078653581 -0.02949512 0.6919561
0.0079277931 -0.031711191 0.69384027
0.007970986 -0.033876687 0.6951437
0.0080050984 -0.036022931 0.69617319
0.0080380198 -0.03818059 0.69716668
0.0080673415 -0.040336668 0.69805145
0.0080962228 -0.042505175 0.69892311
0.0081249485 -0.044687212 0.69979
0.0081529161 -0.046879262 0.70063394
0.0081810765 -0.049086452 0.70148379
0.0082094325 -0.0513089 0.70233941
0.0082380185 -0.053547114 0.70320213
0.0082667712 -0.055800676 0.70406979
0.0082957251 -0.058070093 0.70494354
0.0083249165 -0.060355604 0.70582449
0.00835435 -0.062657624 0.70671272
0.0083839912 -0.064975947 0.70760727
0.0084145879 -0.067316711 0.70853055
0.0084459782 -0.06967932 0.7094779
0.0084775668 -0.072059304 0.71043116
0.0085094301 -0.074457496 0.7113927
0.0085415328 -0.076873779 0.71236145
0.0085738795 -0.079308391 0.71333766
0.0086064348 -0.081761122 0.71432006
0.0086393496 -0.084233642 0.71531332
0.0086739836 -0.086739808 0.71635854
0.0087091234 -0.089268506 0.71741903
0.0084070433 0.079026222 0.6575619
0.0084178206 0.077443987 0.65782207
0.0084383208 0.075944901 0.65831697
0.008458891 0.074438244 0.6588136
0.0084795915 0.072924525 0.65931338
0.0085003935 0.071403295 0.65981561
0.0085212681 0.069874376 0.66031957
0.0085422751 0.068338215 0.66082668
0.0085633853 0.066794455 0.6613363
0.0085846018 0.065243006 0.66184855
0.0086059812 0.063684285 0.66236472
0.008627736 0.062119722 0.6628899
0.0086496305 0.060547411 0.66341847
0.0086716069 0.058966964 0.66394901
0.0086936951 0.057378381 0.6644823
0.0087159863 0.055782348 0.66502047
0.0087383632 0.054177821 0.66556066
0.0087608853 0.052565306 0.66610438
0.008783523 0.050944448 0.66665089
0.0088062789 0.049315184 0.66720027
0.0088295257 0.047679424 0.66776156
0.0088529279 0.04603523 0.6683265
0.0088764234 0.044382155 0.66889369
0.0089000436 0.042720228 0.66946399
0.0089237895 0.041049421 0.67003721
0.008947663 0.039369762 0.67061359
0.0089716958 0.037681133 0.67119384
0.0089958264 0.035983324 0.67177635
0.0090203146 0.034277201 0.67236757
0.008948015 0.032212853 0.67062211
0.0089021018 0.030267149 0.6695137
0.0089245532 0.028558582 0.67005575
0.0089471191 0.026841372 0.67060047
0.0089711817 0.025119305 0.67118132
0.008995859 0.02338922 0.67177713
0.0090207048 0.021649688 0.67237699
0.0090456568 0.019900471 0.67297935
0.0090707783 0.018141598 0.67358589
0.0090960413 0.016372889 0.67419577
0.0091226092 0.014596134 0.67483723
0.0091504361 0.012810647 0.67550898
0.009178468 0.011014163 0.67618573
0.0092066722 0.0092066824 0.67686665
0.0092350161 0.0073880255 0.67755091
0.0092640147 0.0055584013 0.67825103
0.0092960624 0.0037184358 0.6790247
0.0093283327 0.0018656552 0.67980379
0.0093608275 -0 0.68058825
0.0093935849 -0.0018786788 0.68137908
0.0094317608 -0.0037727356 0.68230081
0.0094710011 -0.0056826174 0.68324816
0.0095105693 -0.0076084435 0.68420339
0.0095605068 -0.0095604956 0.68540895
0.0096348077 -0.011561781 0.68720269
0.0096902261 -0.013566285 0.68854064
0.0097313486 -0.015570164 0.68953341
0.0097712185 -0.017588198 0.69049597
0.0098068779 -0.019613773 0.6913569
0.0098410565 -0.021650344 0.69218206
0.0098752407 -0.023700595 0.69300735
0.0099082887 -0.025761545 0.69380522
0.0099415602 -0.027836382 0.69460845
0.0099750543 -0.029925168 0.69541705
0.010008816 -0.032028198 0.69623214
0.010042765 -0.034145385 0.6970517
0.010076988 -0.036277175 0.69787794
0.010111485 -0.038423628 0.69871068
0.010146259 -0.040585041 0.69955033
0.010181232 -0.042761147 0.70039463
0.010216448 -0.044952333 0.70124477
0.010253042 -0.047163993 0.70212823
0.010290323 -0.049393564 0.70302832
0.010327833 -0.05163914 0.70393389
0.01036566 -0.053901434 0.70484716
0.010403766 -0.056180328 0.70576704
0.010442153 -0.058476061 0.70669383
0.010481087 -0.0607903 0.70763373
0.010520402 -0.063122392 0.70858288
0.010561126 -0.065478981 0.70956612
0.010602797 -0.067857891 0.71057212
0.010644798 -0.070255667 0.71158606
0.010687132 -0.072672486 0.71260816
0.010729806 -0.075108647 0.71363837
0.010772821 -0.077564299 0.71467674
0.01081665 -0.080043197 0.71573496
0.010861874 -0.082550228 0.7168268
0.010908049 -0.085082769 0.71794152
0.010099923 0.079116076 0.65779269
0.010109073 0.077502877 0.65797675
0.010134188 0.076006413 0.65848202
0.010159394 0.07450223 0.65898919
0.010184761 0.072990805 0.65949947
0.010210255 0.07147181 0.66001236
0.010235877 0.069945186 0.66052783
0.010261627 0.068410873 0.66104591
0.010287472 0.066868573 0.6615659
0.010313484 0.065318763 0.66208917
0.010340018 0.063763469 0.66262305
0.010366726 0.062200338 0.66316032
0.010393607 0.060629368 0.66370118
0.010420593 0.059050024 0.66424406
0.010447827 0.05746305 0.664792
0.010475205 0.055867732 0.66534281
0.01050269 0.05426392 0.66589576
0.010530356 0.052651823 0.66645229
0.010558168 0.051031172 0.66701186
0.010586614 0.049404204 0.66758412
0.010615176 0.047768295 0.66815877
0.010643928 0.046123654 0.66873723
0.0106728 0.044470012 0.66931808
0.010701867 0.04280749 0.66990286
0.010731054 0.041135699 0.67049009
0.010760401 0.039454788 0.67108047
0.010790065 0.037765265 0.67167723
0.010820281 0.036067605 0.6722852
0.010850786 0.034360886 0.67289889
0.010781849 0.032345533 0.67151201
0.01070202 0.030322403 0.6699059
0.010733932 0.028623819 0.67054796
0.010766073 0.026915222 0.67119461
0.010798409 0.025196284 0.67184514
0.010831564 0.023468405 0.67251217
0.01086807 0.021736145 0.67324662
0.010904822 0.019992173 0.67398602
0.010941864 0.018236458 0.67473125
0.010979118 0.016468704 0.67548072
0.011022047 0.014696091 0.67634439
0.011066739 0.012911201 0.67724353
0.011111756 0.011111766 0.67814916
0.011165314 0.0093044341 0.67922676
0.011246332 0.0074975193 0.68085665
0.011315553 0.0056577623 0.68224925
0.011365201 0.0037883818 0.68324816
0.011410862 0.0019017756 0.68416673
0.011452608 -2.9802322e-08 0.68500662
0.011492152 -0.0019153357 0.6858021
0.011531172 -0.0038437247 0.68658721
0.011568854 -0.0057843924 0.68734527
0.011606647 -0.0077377558 0.68810564
0.011644734 -0.0097039342 0.68887186
0.011683025 -0.011683017 0.68964231
0.011721618 -0.013675213 0.6904186
0.011760555 -0.01568076 0.69120204
0.011799707 -0.017699599 0.69198972
0.01183912 -0.01973182 0.69278264
0.011878844 -0.021777898 0.69358182
0.011918789 -0.023837596 0.69438547
0.011959003 -0.025911182 0.69519448
0.012001073 -0.028002471 0.69604087
0.012043632 -0.030109078 0.69689703
0.012086494 -0.032230645 0.69775939
0.012129613 -0.034367263 0.69862694
0.012173192 -0.036519587 0.6995036
0.012217379 -0.038688362 0.7003926
0.012261891 -0.040872961 0.7012881
0.012306727 -0.043073565 0.70219022
0.012352808 -0.045293629 0.70311719
0.01240031 -0.047534496 0.70407283
0.01244818 -0.049792707 0.70503592
0.01249642 -0.052068412 0.70600653
0.012545035 -0.05436182 0.70698458
0.012594454 -0.056675017 0.70797873
0.012644795 -0.059009045 0.70899153
0.012695916 -0.061363608 0.71002007
0.01274821 -0.063741028 0.71107209
0.013308475 -0.068760484 0.7223438
0.013341063 -0.0711523 0.72299933
0.013376072 -0.073568404 0.7237038
0.013412586 -0.076004684 0.72443837
0.013448154 -0.078447551 0.72515392
0.013477617 -0.080865711 0.72574663
0.013498888 -0.083243102 0.72617459
0.013531682 -0.085700631 0.7268343
0.011803496 0.079252034 0.65814197
0.011809347 0.077604264 0.65824282
0.011839325 0.076109946 0.65875977
0.011869417 0.07460776 0.65927869
0.011899701 0.073098183 0.65980095
0.011930142 0.071580857 0.66032583
0.011960737 0.070055753 0.66085351
0.011991449 0.068522602 0.66138303
0.012022361 0.066981763 0.66191608
0.012053806 0.065434933 0.6624583
0.012085541 0.063880742 0.66300559
0.012117485 0.062318474 0.66355646
0.012149598 0.060748011 0.66411018
0.01218201 0.059169739 0.66466916
0.012214594 0.057583064 0.66523111
0.012247355 0.055987895 0.66579598
0.012280246 0.054383934 0.66636318
0.01231349 0.052772135 0.6669364
0.012347349 0.051153302 0.66752034
0.012381393 0.049525589 0.66810739
0.012415627 0.047888875 0.66869771
0.012450051 0.046243072 0.66929138
0.01248471 0.044588238 0.66988909
0.012519518 0.042924047 0.67048931
0.012554657 0.041251034 0.67109525
0.012590218 0.039569259 0.67170846
0.012626483 0.037879467 0.67233384
0.012662912 0.036179781 0.67296201
0.012699551 0.03447023 0.67359388
0.012630808 0.032479227 0.67240846
0.012580766 0.030553281 0.67154551
0.012630626 0.028870016 0.67240524
0.012688188 0.027189016 0.6733979
0.012769325 0.025538683 0.674797
0.012855797 0.023875058 0.67628825
0.012913957 0.022138238 0.67729115
0.012964435 0.020372659 0.67816162
0.013011876 0.018588394 0.67897969
0.013056939 0.016787499 0.67975682
0.013100109 0.014971584 0.68050122
0.013142087 0.013142109 0.68122506
0.013183888 0.011300534 0.68194592
0.013226005 0.0094471574 0.68267226
0.013268393 0.0075819492 0.68340319
0.013311155 0.0057048202 0.68414056
0.013354141 0.0038155019 0.68488181
0.013397457 0.0019139349 0.68562877
0.013441005 -0 0.68637979
0.013484836 -0.0019263923 0.68713558
0.013529006 -0.0038654208 0.68789726
0.013573415 -0.0058171749 0.68866307
0.01361822 -0.0077818334 0.68943572
0.013665189 -0.0097608566 0.69024569
0.013712483 -0.011753559 0.69106126
0.013760106 -0.01376012 0.69188243
0.013808385 -0.015781015 0.69271499
0.013857117 -0.017816275 0.6935553
0.013906192 -0.01986596 0.69440162
0.013955617 -0.021930248 0.69525391
0.014005394 -0.024009228 0.69611233
0.014056091 -0.026104152 0.69698656
0.014108806 -0.028217584 0.69789553
0.014161916 -0.03034693 0.69881141
0.014215428 -0.032492399 0.69973421
0.014269696 -0.034654975 0.70067
0.01432508 -0.036835909 0.70162511
0.014380958 -0.039034039 0.70258868
0.014437212 -0.041249186 0.70355874
0.014494929 -0.043484747 0.70455402
0.015132907 -0.047560573 0.71555549
0.015168888 -0.049840599 0.71617597
0.015207152 -0.052138776 0.71683586
0.015247668 -0.054455966 0.71753454
0.015287867 -0.056783497 0.71822774
0.015322175 -0.059099793 0.71881932
0.015343789 -0.061375141 0.71919203
0.015380105 -0.063717574 0.71981835
0.015416525 -0.066070825 0.72044635
0.015453187 -0.06843552 0.72107863
0.015490024 -0.07081154 0.72171384
0.015527036 -0.073198885 0.72235209
0.015564227 -0.075597674 0.72299337
0.015601595 -0.078007996 0.72363782
0.015639143 -0.080429882 0.72428536
0.015676873 -0.08286345 0.72493589
0.015780561 -0.085665911 0.72672391
0.013521334 0.079437852 0.65861911
0.013521881 0.077750802 0.65862733
0.013556962 0.076257914 0.65915668
0.01359227 0.074757516 0.65968937
0.013627763 0.073249251 0.66022497
0.013663394 0.071732849 0.66076267
0.013699261 0.070208728 0.66130382
0.013735316 0.068676561 0.66184783
0.013771939 0.067138225 0.66240042
0.013808997 0.065592736 0.66295958
0.013846254 0.064038932 0.66352177
0.013883907 0.062477618 0.66408986
0.013921764 0.060907722 0.66466117
0.01395978 0.059329063 0.66523468
0.013998052 0.057742 0.66581219
0.014036537 0.056146145 0.66639292
0.014075628 0.054543078 0.66698277
0.014115236 0.052932113 0.66758037
0.014155068 0.051312119 0.66818142
0.014195125 0.049682945 0.66878581
0.014235411 0.048044503 0.66939366
0.014275975 0.046396941 0.67000574
0.014316926 0.044740379 0.67062366
0.014358215 0.043074667 0.67124665
0.014400468 0.041401356 0.67188418
0.014442918 0.039718032 0.67252475
0.014485673 0.038024902 0.67316985
0.014528681 0.03632167 0.67381877
0.014571944 0.034608394 0.67447156
0.014588833 0.032824874 0.67472643
0.014634756 0.031098902 0.67541933
0.014680055 0.029360116 0.67610282
0.014725851 0.027610987 0.67679387
0.014771881 0.025850803 0.67748833
0.014818198 0.024079591 0.67818725
0.014864862 0.022297293 0.67889136
0.014911764 0.02050373 0.67959905
0.014959021 0.018698782 0.6803121
0.015006522 0.0168823 0.68102884
0.015054324 0.015054315 0.68175012
0.01510249 0.013214707 0.68247688
0.015150907 0.011363208 0.68320739
0.015200096 0.0095000863 0.68394965
0.015251293 0.0076256394 0.68472219
0.015302951 0.005738616 0.68550158
0.015355315 0.0038388669 0.68629169
0.015408037 0.0019260049 0.6870873
0.015461124 -0 0.68788826
0.015514578 -0.0019393265 0.68869483
0.015568402 -0.0038920939 0.68950695
0.015622661 -0.0058585405 0.69032568
0.015677363 -0.0078386962 0.69115102
0.015734736 -0.0098342001 0.69201672
0.01579253 -0.011844367 0.6928888
0.015851066 -0.013869703 0.69377208
0.015910858 -0.015910834 0.69467419
0.015971104 -0.017967463 0.69558328
0.016031807 -0.020039767 0.69649923
0.016092973 -0.022127837 0.69742215
0.016155131 -0.024232715 0.69836003
0.016867187 -0.027409166 0.70910412
0.016906083 -0.02958563 0.70969093
0.01694731 -0.03177619 0.71031308
0.01699112 -0.033982247 0.7109741
0.017035229 -0.036199868 0.71163964
0.017074468 -0.038417548 0.71223176
0.017102554 -0.040618598 0.71265554
0.017135646 -0.04283908 0.71315485
0.017175203 -0.045084894 0.71375173
0.017215015 -0.047341257 0.71435249
0.017255014 -0.049608171 0.71495599
0.017295199 -0.051885605 0.71556234
0.017335571 -0.054173648 0.7161715
0.01737613 -0.05647245 0.71678352
0.017416883 -0.058782011 0.71739841
0.017457826 -0.06110242 0.71801627
0.017531842 -0.063552916 0.71913302
0.017666476 -0.066249281 0.72116446
0.017825551 -0.069074035 0.72356474
0.018074749 -0.072299033 0.72732484
0.018623717 -0.076822817 0.7356081
0.018703777 -0.079491079 0.73681617
0.018780209 -0.082163423 0.73796946
0.015257627 0.079678684 0.65923774
0.01525029 0.077945948 0.65913939
0.015290888 0.076454461 0.65968394
0.015331703 0.074954957 0.66023129
0.015372683 0.073447287 0.66078091
0.015413937 0.07193169 0.66133428
0.015455412 0.070407987 0.66189051
0.015497697 0.06887868 0.66245759
0.015540375 0.067341626 0.66303009
0.015583505 0.065797031 0.66360849
0.015626876 0.064243823 0.66419023
0.015670488 0.062681943 0.66477519
0.015714344 0.061111331 0.66536343
0.015758445 0.059531927 0.66595483
0.015802963 0.057944179 0.66655195
0.0158484 0.056349844 0.66716141
0.015894158 0.054746538 0.66777509
0.015940178 0.053133935 0.66839236
0.015986467 0.051511943 0.6690132
0.016033255 0.04988122 0.66964072
0.016080316 0.04824096 0.67027187
0.016127769 0.046591341 0.67090833
0.016176434 0.044934571 0.671561
0.016225334 0.043267578 0.67221689
