# .PCD v0.7 - Point Cloud Data file format
VERSION 0.7
FIELDS x y z
SIZE 4 4 4
TYPE F F F
COUNT 1 1 1
WIDTH 1338
HEIGHT 1
VIEWPOINT 0 0 0 1 0 0 0
POINTS 1338
DATA ascii
-0.03644307 0.028520674 0.64586174
-0.036689382 0.027118236 0.64715445
-0.036963366 0.025713652 0.64859235
-0.031816576 0.020749927 0.62158054
-0.031685613 0.019286931 0.62089324
-0.031555727 0.017835826 0.62021154
-0.031663295 0.016519964 0.62077612
-0.03212925 0.015366167 0.62322158
-0.033311762 0.014483392 0.62942773
-0.033095982 0.052652717 0.63619053
-0.033388402 0.051600248 0.63779509
-0.03372784 0.050591767 0.63965744
-0.033973604 0.049416184 0.64100593
-0.034215957 0.048213392 0.64233571
-0.033666153 0.045908391 0.63931906
-0.033823285 0.044585258 0.64018118
-0.034168269 0.043486923 0.64207411
-0.034665059 0.042543501 0.64479983
-0.035077415 0.04145512 0.64706242
-0.035424758 0.040255427 0.64896822
-0.03571393 0.038960665 0.65055484
-0.035925008 0.03755796 0.65171301
-0.036093216 0.036093235 0.65263593
-0.036246412 0.034598827 0.65347654
-0.036333147 0.033030152 0.65395236
-0.035388317 0.030562669 0.64876825
-0.035352971 0.028925151 0.64857435
-0.035477847 0.027414739 0.64925951
-0.035689842 0.025956243 0.65042269
-0.03596421 0.024521053 0.65192813
-0.030657604 0.019509405 0.62281156
-0.030729664 0.018158436 0.62320697
-0.030090092 0.016412795 0.61969769
-0.030297387 0.015148729 0.62083507
-0.031097839 0.014135391 0.62522703
-0.032180034 0.01316458 0.63116491
-0.031658247 0.054271311 0.63657355
-0.031516194 0.05252701 0.63575709
-0.031769566 0.051436424 0.63721347
-0.032136656 0.050500482 0.63932353
-0.032624483 0.049713492 0.64212763
-0.032915443 0.048589468 0.64380008
-0.033158813 0.047369719 0.645199
-0.033398274 0.046121448 0.64657545
-0.032808658 0.043744862 0.64318627
-0.033044212 0.042485416 0.64454031
-0.033461768 0.041428894 0.64694047
-0.033925354 0.040387332 0.64960515
-0.034308739 0.039209992 0.65180892
-0.034628835 0.037926823 0.65364885
-0.034888342 0.036549717 0.65514052
-0.03506859 0.035068601 0.65617669
-0.035229672 0.03355208 0.65710258
-0.035360914 0.03199321 0.65785694
-0.035236761 0.030202955 0.65714329
-0.034405235 0.02785185 0.65236366
-0.034477711 0.026268721 0.65278023
-0.034661047 0.024757892 0.6538341
-0.034923475 0.023282319 0.65534252
-0.029833818 0.018468559 0.62608647
-0.028569996 0.016325742 0.61882186
-0.028758205 0.015063792 0.6199038
-0.029257558 0.013932198 0.62277406
-0.030051567 0.012879282 0.62733811
-0.031033656 0.011822373 0.63298333
-0.03264435 0.010881454 0.64224184
-0.030214343 0.05589655 0.63695765
-0.030236345 0.054425418 0.63709038
-0.030387379 0.053177953 0.63800198
-0.030469168 0.051797628 0.63849562
-0.030668059 0.050602317 0.63969606
-0.030952727 0.049524367 0.64141417
-0.031350203 0.048592806 0.64381313
-0.03180515 0.047707736 0.646559
-0.032065742 0.046495318 0.64813179
-0.032306109 0.045228541 0.64958256
-0.032542065 0.043931782 0.65100664
-0.031954035 0.041540265 0.6474576
-0.032249369 0.040311724 0.64924008
-0.032716755 0.039260119 0.65206105
-0.033146214 0.038118154 0.65465301
-0.033500399 0.036850452 0.65679073
-0.03378918 0.035478622 0.65853363
-0.034002498 0.034002513 0.65982115
-0.034168404 0.032459944 0.66082251
-0.034319211 0.030887306 0.66173267
-0.034388319 0.029230088 0.66214979
-0.033489641 0.026791722 0.65672576
-0.033479888 0.025109887 0.65666699
-0.033621844 0.023535281 0.65752375
-0.033849411 0.022002101 0.65889722
-0.027150756 0.016290456 0.61846721
-0.027259696 0.014992833 0.61912477
-0.027588181 0.013794094 0.62110734
-0.028234471 0.012705535 0.62500799
-0.028980255 0.01159212 0.62950921
-0.029904202 0.010466456 0.6350857
-0.031230446 0.0093691051 0.64309037
-0.028674969 0.055840731 0.63677561
-0.028931528 0.054817617 0.6384055
-0.029164687 0.053724408 0.63988686
-0.029358599 0.052536428 0.64111876
-0.029489556 0.051218688 0.64195079
-0.029584445 0.049826413 0.64255369
-0.029801175 0.048622996 0.64393055
-0.030106099 0.047535986 0.64586776
-0.030546827 0.046624124 0.64866781
-0.030931657 0.045583487 0.65111274
-0.031175196 0.044301599 0.65266001
-0.031412221 0.042985141 0.65416586
-0.030914858 0.040677458 0.65100598
-0.031082748 0.039262444 0.65207261
-0.031444013 0.038063794 0.6543678
-0.031914912 0.036954105 0.65735948
-0.032301493 0.035701662 0.65981555
-0.032623388 0.034340411 0.66186064
-0.032884516 0.032884508 0.66351962
-0.033064537 0.031324297 0.66466337
-0.033222951 0.02972582 0.66566974
-0.033348817 0.028083205 0.66646945
-0.032664526 0.025787801 0.66212201
-0.032446355 0.02390784 0.66073585
-0.032543428 0.022266537 0.66135263
-0.025737634 0.016255379 0.61811405
-0.025795108 0.014934033 0.61847919
-0.026027307 0.013698548 0.61995447
-0.026579399 0.01259023 0.62346196
-0.027195422 0.011450738 0.62737572
-0.027901391 0.010279447 0.63186091
-0.028749371 0.0090787709 0.63724822
-0.029905798 0.0078698993 0.64459527
-0.027184948 0.057390451 0.63690424
-0.027274188 0.056063592 0.63750267
-0.027522054 0.055044115 0.63916492
-0.027773613 0.054004252 0.64085191
-0.028026234 0.052938461 0.642546
-0.028252974 0.051797122 0.64406657
-0.028437724 0.050555944 0.64530557
-0.028552309 0.049173445 0.64607394
-0.028665267 0.047775477 0.64683145
-0.028897965 0.046557844 0.64839196
-0.02921821 0.045450568 0.65053958
-0.029691644 0.044537455 0.65371454
-0.030004615 0.043340027 0.65581334
-0.030241575 0.042002171 0.6574024
-0.030474471 0.040632665 0.65896428
-0.029947249 0.038265944 0.65542865
-0.030189069 0.036897779 0.65705025
-0.030613897 0.035716236 0.65989923
-0.031049676 0.034499645 0.66282165
-0.031407423 0.033152282 0.66522074
-0.03170104 0.031701028 0.66718984
-0.031914923 0.03014189 0.66862416
-0.032077584 0.028513402 0.66971499
-0.032225184 0.026854336 0.67070484
-0.032276694 0.025104076 0.67105025
-0.024429252 0.017643362 0.61842406
-0.02433059 0.016220391 0.61776251
-0.02435882 0.014885932 0.61795181
-0.024534395 0.013630211 0.61912924
-0.025015982 0.012508005 0.6223588
-0.025541674 0.011351883 0.62588418
-0.026127096 0.010160536 0.62981009
-0.026796233 0.0089320838 0.63429749
-0.027590601 0.0076640844 0.6396246
-0.028632006 0.0063627064 0.64660841
-0.025613133 0.057252884 0.63646722
-0.025841748 0.056243777 0.63809061
-0.026087597 0.055244327 0.63983631
-0.026338169 0.054225653 0.64161545
-0.026582465 0.053164929 0.64335012
-0.026830995 0.052083701 0.64511484
-0.02707913 0.050972492 0.64687675
-0.027298389 0.049779415 0.64843363
-0.027470835 0.048477948 0.64965808
-0.027572794 0.047035933 0.65038204
-0.027707515 0.045635879 0.6513387
-0.027956761 0.044401914 0.65310848
-0.028300827 0.043283612 0.65555155
-0.028760813 0.042295367 0.65881777
-0.029028868 0.040981948 0.66072112
-0.029261446 0.039589018 0.66237259
-0.029489698 0.038163126 0.6639933
-0.028970141 0.035786659 0.66030413
-0.029272018 0.034437627 0.66244763
-0.029736295 0.033234686 0.6657443
-0.030124476 0.031896502 0.6685006
-0.030445356 0.030445367 0.67077905
-0.030705824 0.02889958 0.67262858
-0.030884432 0.027250946 0.67389679
-0.023115959 0.01903671 0.61873573
-0.023022426 0.017605424 0.61807156
-0.022929583 0.016185582 0.61741239
-0.022946035 0.014847457 0.61752915
-0.023090923 0.013582915 0.61855793
-0.023516925 0.012450159 0.62158287
-0.023974814 0.011282295 0.62483412
-0.024473747 0.010077447 0.6283769
-0.025030445 0.0088342726 0.63232982
-0.025662666 0.0075478256 0.63681895
-0.026408901 0.0062138736 0.64211768
-0.027342265 0.0048250854 0.64874518
-0.029000564 0.0034118295 0.66052008
-0.024148509 0.057352722 0.63678432
-0.024386769 0.056394428 0.63858187
-0.024629779 0.055417031 0.64041525
-0.024870342 0.054403871 0.64223015
-0.025112338 0.05336374 0.64405584
-0.02535893 0.052302837 0.64591628
-0.025599275 0.051198572 0.64772952
-0.02584422 0.050073177 0.6495775
-0.02608718 0.048913479 0.65141046
-0.026295826 0.047661215 0.65298462
-0.026458863 0.046303034 0.65421462
-0.026548538 0.044800669 0.65489113
-0.026707605 0.0433999 0.65609121
-0.026968604 0.042138457 0.65806031
-0.027341349 0.041011989 0.66087246
-0.027763287 0.03990975 0.66405571
-0.028003452 0.03850475 0.66586763
-0.028231267 0.037053496 0.66758639
-0.027793841 0.034742266 0.66428626
-0.027966863 0.033210635 0.66559166
-0.028337194 0.031879336 0.66838557
-0.028774744 0.030573189 0.67168659
-0.029131694 0.029131681 0.67437959
-0.029423993 0.02758497 0.67658484
-0.029640235 0.025935233 0.67821622
-0.021621583 0.017567545 0.61772019
-0.021534633 0.016150981 0.61706418
-0.021552954 0.014817685 0.6172024
-0.021684071 0.013552547 0.6181916
-0.022064645 0.012411386 0.62106282
-0.022468712 0.011234373 0.62411124
-0.022904357 0.010020643 0.62739801
-0.02338377 0.0087689161 0.63101482
-0.023913072 0.0074728429 0.6350081
-0.024509136 0.0061272979 0.63950509
-0.02519913 0.0047248304 0.64471066
-0.026065266 0.0032581389 0.65124518
-0.027346952 0.0017091632 0.66091478
-0.02259336 0.058742732 0.63641524
-0.022642711 0.057361543 0.63681239
-0.022904599 0.056498051 0.63891989
-0.023146104 0.055550665 0.64086342
-0.023379643 0.054552495 0.64274275
-0.023617938 0.053534001 0.64466047
-0.02385409 0.052478969 0.64656079
-0.024091685 0.051395595 0.64847285
-0.024333274 0.050288767 0.65041697
-0.024569375 0.049138755 0.65231705
-0.024810024 0.047966033 0.6542536
-0.025045648 0.046751857 0.65614974
-0.025245054 0.045441121 0.65775442
-0.0253984 0.044023931 0.65898848
-0.025478672 0.042464465 0.65963447
-0.02566319 0.041061103 0.66111934
-0.025939476 0.039773881 0.66334271
-0.026351124 0.038648307 0.66665542
-0.026698895 0.03737846 0.66945404
-0.026925227 0.035900295 0.67127544
-0.027147178 0.034386456 0.67306155
-0.026688641 0.03202638 0.66937149
-0.026931314 0.030522168 0.67132437
-0.02735466 0.029178321 0.67473119
-0.027755044 0.027755022 0.67795324
-0.028071454 0.026200056 0.68049949
-0.020226751 0.017529845 0.61737025
-0.020145584 0.01611647 0.6167171
-0.02017602 0.01479575 0.61696196
-0.020307967 0.013538688 0.61802381
-0.020646682 0.012388021 0.62074959
-0.021006523 0.011203468 0.62364542
-0.021389853 0.0099819303 0.6267302
-0.02180839 0.0087233484 0.63009828
-0.022262633 0.0074208677 0.63375378
-0.022762405 0.006069988 0.6377756
-0.023324786 0.0046649575 0.64230132
-0.023972949 0.0031964183 0.64751732
-0.024756666 0.0016504526 0.65382421
-0.025862249 -0 0.66272122
-0.021036666 0.058602154 0.63598007
-0.020942641 0.056844324 0.63516939
-0.021303058 0.056300938 0.63827693
-0.021601234 0.055546016 0.64084786
-0.021860426 0.054651052 0.64308274
-0.022097858 0.053666234 0.64512986
-0.022325976 0.052625537 0.64709675
-0.022558853 0.051563114 0.64910465
-0.022789894 0.050463349 0.6510967
-0.023022233 0.049333364 0.65310001
-0.0232582 0.048177719 0.65513456
-0.023489283 0.046978533 0.65712702
-0.023725083 0.045755535 0.65916014
-0.023952803 0.044483781 0.66112351
-0.024142507 0.043111652 0.66275924
-0.02428437 0.041630328 0.66398245
-0.024366647 0.040030926 0.66469181
-0.024565315 0.03860262 0.66640478
-0.024856985 0.037285477 0.66891962
-0.02529126 0.036130399 0.67266399
-0.025569223 0.034701109 0.67506069
-0.025789309 0.033157676 0.67695832
-0.026005106 0.031577617 0.67881894
-0.02556036 0.029211849 0.67498428
-0.025863675 0.027711093 0.67759943
-0.026297495 0.02629751 0.68133998
-0.018837839 0.017492294 0.61702138
-0.018762406 0.016082078 0.61637098
-0.018812191 0.014780968 0.61680025
-0.01895313 0.013537973 0.61801541
-0.019254081 0.01237762 0.6206103
-0.019576337 0.01118651 0.62338883
-0.019915054 0.0099575222 0.62630934
-0.020283358 0.0086928904 0.62948489
-0.0206786 0.0073852241 0.63289273
-0.021106198 0.0060303211 0.63657963
-0.021577477 0.0046237707 0.64064306
-0.022106225 0.0031580329 0.64520204
-0.022712676 0.001622349 0.65043098
-0.02343812 -0 0.65668589
-0.024404764 -0.0017431974 0.66502047
-0.025939142 -0.0037056208 0.67825019
-0.019487463 0.058462381 0.63554752
-0.019400569 0.056709349 0.63474065
-0.019499673 0.055499077 0.63566089
-0.019823853 0.054896802 0.63867104
-0.020216824 0.054429948 0.64231992
-0.020512579 0.053648293 0.6450662
-0.020768067 0.052718937 0.64743847
-0.021000395 0.05169329 0.64959574
-0.021222319 0.050607055 0.65165639
-0.021448985 0.049497664 0.65376115
-0.021674115 0.048350006 0.65585154
-0.021900482 0.047170281 0.65795344
-0.022129972 0.045962214 0.66008437
-0.022355404 0.044710785 0.66217762
-0.022585478 0.043433607 0.66431397
-0.022804655 0.042100906 0.66634905
-0.022984268 0.040664464 0.66801685
-0.023105754 0.039102077 0.66914493
-0.023201851 0.037479907 0.67003727
-0.023416849 0.036025941 0.67203361
-0.023726223 0.03467682 0.67490625
-0.024142221 0.033427715 0.67876899
-0.024378559 0.031879663 0.68096352
-0.024591647 0.030266672 0.68294215
-0.024221512 0.027947903 0.67950529
-0.024393097 0.026269495 0.68109852
-0.024761274 0.02476126 0.6845172
-0.017385216 0.016047895 0.61602724
-0.017460726 0.014774472 0.61672837
-0.017612677 0.013548225 0.61813933
-0.017880904 0.01237908 0.62062991
-0.018169394 0.011181176 0.62330866
-0.018471386 0.0099461377 0.62611282
-0.018794982 0.0086746216 0.62911749
-0.019141773 0.0073622465 0.63233769
-0.019512249 0.0060037374 0.63577771
-0.019918123 0.0045964718 0.63954639
-0.020362703 0.0031327009 0.64367449
-0.020855628 0.001604259 0.64825153
-0.021417204 2.9802322e-08 0.65346599
-0.022086388 -0.001698941 0.65967965
-0.022738963 -0.0034983158 0.66573912
-0.023992529 -0.0055367351 0.67737901
-0.01794563 0.058323294 0.63511705
-0.017865855 0.056575209 0.63431454
-0.01792019 0.055253923 0.63486111
-0.018146686 0.054440051 0.6371395
-0.018390805 0.053639829 0.63959515
-0.018688286 0.052950114 0.64258754
-0.01907442 0.05245468 0.6464718
-0.019373408 0.051662415 0.64947933
-0.019624023 0.050695419 0.65200031
-0.019850248 0.049625635 0.65427601
-0.02006511 0.048490644 0.6564374
-0.020284673 0.047330916 0.65864599
-0.020503001 0.04613173 0.66084218
-0.020722503 0.044898748 0.66305017
-0.020944709 0.043634802 0.66528547
-0.021163525 0.042327076 0.66748655
-0.021386962 0.040991694 0.66973412
-0.021595653 0.039592057 0.6718334
-0.021766003 0.038090497 0.67354703
-0.021867547 0.036445916 0.67456847
-0.021981468 0.034803987 0.67571443
-0.022207566 0.033311367 0.67798877
-0.022537917 0.031928748 0.68131185
-0.02290871 0.030544937 0.68504179
-0.023121491 0.028901875 0.68718219
-0.023326926 0.027214766 0.68924868
-0.022943813 0.024855793 0.68539488
-0.016030027 0.016030043 0.61584759
-0.016117245 0.014774173 0.61672491
-0.016282104 0.013568431 0.61838323
-0.016524117 0.012393087 0.62081772
-0.016779061 0.011186033 0.62338221
-0.017048864 0.009945184 0.62609625
-0.017333638 0.0086668432 0.62896085
-0.017638911 0.0073495507 0.63203168
-0.017962327 0.0059874356 0.63528496
-0.018313562 0.0045783818 0.63881814
-0.018693116 0.0031154752 0.64263618
-0.01910805 0.0015923381 0.64681005
-0.019568445 -0 0.65144128
-0.020092841 -0.0016743839 0.65671629
-0.020701783 -0.0034503043 0.6628418
-0.021288233 -0.0053220391 0.66874105
-0.022333868 -0.0074446201 0.6792593
-0.016411118 0.058184892 0.63468862
-0.016338289 0.056441367 0.63388932
-0.016375231 0.055080324 0.63429475
-0.016583441 0.054273069 0.63657963
-0.016792759 0.053431481 0.63887662
-0.017006906 0.052566826 0.64122653
-0.0172364 0.051709235 0.64374495
-0.017510753 0.050940394 0.64675564
-0.017874246 0.050372869 0.6507445
-0.018180255 0.049582511 0.65410256
-0.018424481 0.048573613 0.65678263
-0.018643599 0.047456443 0.6591872
-0.018850418 0.046269208 0.66145676
-0.019061875 0.04505533 0.66377717
-0.019272394 0.04380089 0.66608733
-0.019484026 0.042510629 0.66840976
-0.01969789 0.041186512 0.67075664
-0.019909082 0.039818197 0.67307419
-0.020124851 0.038420171 0.67544198
-0.020321609 0.036948383 0.67760116
-0.020477511 0.03537026 0.67931199
-0.020565273 0.033652276 0.68027496
-0.020698916 0.031989247 0.6817416
-0.020934952 0.030450851 0.68433177
-0.02129812 0.0290429 0.68831706
-0.02159223 0.027481019 0.69154453
-0.021792799 0.025755137 0.69374555
-0.014702473 0.016039044 0.61593843
-0.014779617 0.014779627 0.61678493
-0.014957752 0.013597965 0.61873978
-0.015175592 0.012416393 0.62113029
-0.015400474 0.011200339 0.6235981
-0.015640914 0.0099532604 0.62623662
-0.015891463 0.0086680651 0.628986
-0.016160171 0.0073455572 0.63193476
-0.016443577 0.0059794784 0.63504475
-0.016748099 0.0045676529 0.63838649
-0.017074861 0.0031045377 0.6419723
-0.017427806 0.0015843511 0.64584541
-0.017813446 -0 0.65007728
-0.018241895 -0.0016583502 0.65477902
-0.018725296 -0.0034045875 0.66008365
-0.019164488 -0.0052266717 0.66490322
-0.019821823 -0.0072079301 0.67211664
-0.02070982 -0.0094135702 0.68186122
-0.014883917 0.058047235 0.63426268
-0.014824122 0.056331664 0.63354093
-0.014933046 0.055252284 0.63485575
-0.015056168 0.054202199 0.63634199
-0.015217118 0.053259909 0.63828474
-0.015413481 0.052405834 0.6406551
-0.015613713 0.051525265 0.64307213
-0.015814966 0.05060789 0.64550143
-0.016033281 0.049703181 0.64813673
-0.016286496 0.048859507 0.65119332
-0.016619401 0.048196286 0.65521181
-0.016925395 0.047391087 0.65890551
-0.017165434 0.046346664 0.66180307
-0.017376037 0.045177728 0.66434526
-0.017573709 0.043934286 0.66673136
-0.01777593 0.042662263 0.66917241
-0.017977497 0.041348249 0.67160547
-0.018180119 0.039996266 0.67405134
-0.018384589 0.038607657 0.67651957
-0.018587014 0.037174046 0.67896301
-0.018792955 0.035706639 0.68144894
-0.018978141 0.034160644 0.68368435
-0.019118676 0.032501757 0.68538076
-0.019193776 0.030710012 0.68628728
-0.019348226 0.029022366 0.68815172
-0.019592866 0.027430028 0.69110471
-0.013341435 0.017343849 0.61564332
-0.013378392 0.016054064 0.61608934
-0.0134573 0.014803052 0.61704189
-0.013640178 0.013640225 0.6192494
-0.013831459 0.012448311 0.62155837
-0.014031328 0.011225075 0.62397105
-0.014242489 0.0099697411 0.62651992
-0.014463613 0.0086781681 0.62918913
-0.014698185 0.0073491037 0.63202077
-0.014946474 0.0059786141 0.63501781
-0.015210317 0.0045630932 0.63820267
-0.015492368 0.0030984581 0.6416074
-0.015794197 0.0015794337 0.64525074
-0.016122295 -0 0.64921123
-0.016480254 -0.0016480386 0.65353215
-0.016874591 -0.0033748746 0.65829223
-0.017212911 -0.0051638782 0.66237611
-0.017719965 -0.0070880055 0.66849685
-0.018309377 -0.0091546774 0.67561162
-0.019075381 -0.011445224 0.68485808
-0.013372692 0.057948321 0.63395649
-0.013508399 0.057035446 0.63577658
-0.013588208 0.055862665 0.63684702
-0.013662248 0.054648995 0.63784003
-0.013760145 0.053511709 0.63915306
-0.01387115 0.052402139 0.64064193
-0.014009673 0.051368773 0.6424998
-0.014189382 0.050451159 0.6449101
-0.014378993 0.049527645 0.64745325
-0.014569686 0.048565596 0.65001088
-0.014772963 0.047601789 0.65273726
-0.015004307 0.046680063 0.65584016
-0.015305751 0.045917243 0.6598832
-0.015606728 0.045086116 0.66391999
-0.015839761 0.043999374 0.66704547
-0.016041879 0.042778343 0.66975641
-0.016230188 0.041477174 0.67228204
-0.016421894 0.040142387 0.67485321
-0.016613215 0.038764149 0.6774193
-0.016805535 0.037345648 0.67999876
-0.016999343 0.035887539 0.68259823
-0.017191701 0.034383386 0.6851781
-0.017386377 0.032840997 0.6877892
-0.017557129 0.031212658 0.69007939
-0.017684339 0.029473931 0.69178551
-0.0177556 0.027619809 0.69274133
-0.011998303 0.017330885 0.61552268
-0.012055994 0.016074687 0.61629647
-0.012159809 0.014861971 0.61768889
-0.012321978 0.013691068 0.61986399
-0.01248867 0.012488693 0.62209964
-0.012665916 0.011258602 0.62447691
-0.012849475 0.00999403 0.62693894
-0.013044099 0.0086960793 0.62954926
-0.01324767 0.0073598027 0.63227963
-0.013463731 0.0059838891 0.63517749
-0.01369145 0.0045638084 0.63823169
-0.01393459 0.0030965805 0.64149278
-0.014192915 0.0015769899 0.64495754
-0.014471827 2.9802322e-08 0.64869839
-0.014772575 -0.0016413927 0.65273207
-0.015099089 -0.0033553541 0.65711141
-0.015441262 -0.0051470697 0.66170073
-0.015404392 -0.0068463981 0.66120625
-0.016230891 -0.0090171695 0.67229146
-0.016758816 -0.011172563 0.67937219
-0.017432414 -0.013558537 0.68840665
-0.018587567 -0.016522288 0.70389992
-0.011851011 0.057773709 0.63341582
-0.011984781 0.056927711 0.63543427
-0.012138954 0.056142688 0.63776058
-0.012285598 0.055285186 0.63997328
-0.012387031 0.054193258 0.64150381
-0.01244739 0.052901417 0.64241451
-0.012532502 0.051696539 0.64369881
-0.012631651 0.050526559 0.64519483
-0.01274933 0.049403667 0.64697051
-0.012907984 0.048404932 0.64936435
-0.013085548 0.047435105 0.65204358
-0.013264151 0.046424568 0.65473849
-0.013451269 0.045398027 0.6575619
-0.013660038 0.044395149 0.660712
-0.013928692 0.043527186 0.66476566
-0.014221653 0.042665005 0.66918606
-0.014444691 0.041528463 0.67255145
-0.014636843 0.040251344 0.6754508
-0.014814524 0.038888127 0.67813182
-0.014994266 0.037485689 0.68084395
-0.015173822 0.036037862 0.68355322
-0.015354372 0.034547299 0.68627751
-0.015536075 0.033014208 0.6890192
-0.015716821 0.031433612 0.69174641
-0.015898913 0.029810518 0.69449401
-0.010670389 0.018673182 0.61560166
-0.010684659 0.017362565 0.61581695
-0.01073371 0.016100585 0.61655712
-0.010860538 0.014933258 0.61847073
-0.011000367 0.013750464 0.62058067
-0.011146512 0.012539834 0.62278581
-0.011299877 0.011299908 0.6250999
-0.011458899 0.010026515 0.62749934
-0.011627762 0.0087207854 0.63004732
-0.011803103 0.0073769391 0.63269299
-0.011989626 0.0059948564 0.6355074
-0.012184663 0.0045692623 0.63845026
-0.01239332 0.003098309 0.6415987
-0.0126133 0.0015766621 0.64491796
-0.012849312 2.9802322e-08 0.6484791
-0.013101995 -0.0016377866 0.65229177
-0.013373075 -0.0033432841 0.65638208
-0.013668993 -0.0051258802 0.66084713
-0.013665726 -0.0068328679 0.66079783
-0.013615062 -0.0085094273 0.66003335
-0.014688028 -0.011016011 0.67622316
-0.015160948 -0.013265818 0.68335897
-0.015740799 -0.015740782 0.69210827
-0.016625285 -0.018703461 0.70545411
-0.010345254 0.05763787 0.63299543
-0.010430284 0.056621552 0.63446176
-0.010568798 0.055863649 0.6368503
-0.010710254 0.055081338 0.63928968
-0.010851244 0.054256231 0.64172095
-0.010994752 0.053403109 0.64419562
-0.011109839 0.052374989 0.64618021
-0.011173957 0.051080942 0.64728594
-0.011242895 0.049789965 0.64847469
-0.011331649 0.048564225 0.65000522
-0.011432289 0.047362357 0.65174067
-0.01156612 0.046264499 0.65404856
-0.011728988 0.045240402 0.65685707
-0.011893842 0.044177115 0.65969992
-0.012063605 0.043084294 0.66262734
-0.012249067 0.041996837 0.66582549
-0.012484577 0.041020781 0.66988671
-0.012765137 0.040118992 0.67472482
-0.012975338 0.038925976 0.67834961
-0.013155365 0.037586749 0.68145406
-0.013320622 0.036155999 0.68430382
-0.013486758 0.034680247 0.68716872
-0.013652991 0.033157259 0.69003534
-0.0138201 0.031588823 0.69291699
-0.013987944 0.029974163 0.69581139
-0.0093287071 0.018657416 0.6154657
-0.009369133 0.017399848 0.61616278
-0.009437955 0.016179353 0.61734962
-0.0095539847 0.015013427 0.61935043
-0.0096733039 0.013818979 0.62140805
-0.0098000541 0.012600094 0.62359381
-0.0099303387 0.011348963 0.62584049
-0.010067837 0.01006785 0.62821156
-0.010210923 0.0087522268 0.63067901
-0.010361352 0.0074009597 0.63327307
-0.010519502 0.0060111582 0.63600022
-0.010685617 0.0045795739 0.63886476
-0.010861709 0.0031033456 0.64190137
-0.011047255 0.001578182 0.64510101
-0.011245097 -0 0.64851272
-0.011456108 -0.0016365945 0.65215147
-0.011680602 -0.0033372641 0.65602267
-0.011924902 -0.0051107109 0.66023546
-0.011933881 -0.0068193674 0.66039032
-0.011889764 -0.0084927082 0.65962958
-0.01205053 -0.010329008 0.66240185
-0.012481196 -0.012481242 0.66982847
-0.013507145 -0.015436739 0.68752033
-0.014015257 -0.018019646 0.69628239
-0.014718907 -0.021026999 0.70841634
-0.0088569233 0.056093812 0.63278544
-0.0087693231 0.054077506 0.63102305
-0.009125636 0.05475384 0.63819152
-0.0092517938 0.053968787 0.64072967
-0.0093782954 0.05314371 0.64327461
-0.0095065869 0.052286237 0.64585567
-0.0096360249 0.051392168 0.64845979
-0.009757733 0.050414979 0.65090835
-0.0098368321 0.049184173 0.65249968
-0.0098905629 0.047804385 0.65358067
-0.0099650202 0.046503425 0.65507865
-0.010051365 0.045231134 0.65681577
-0.010160495 0.044028848 0.65901124
-0.010303926 0.042933047 0.66189694
-0.010453649 0.041814566 0.66490912
-0.010604901 0.040652126 0.66795206
-0.010768816 0.039485663 0.67124975
-0.010968288 0.038389027 0.67526281
-0.011231437 0.037438154 0.68055701
-0.011425715 0.03618145 0.68446553
-0.011591143 0.034773409 0.68779373
-0.011741926 0.03326878 0.69082725
-0.011892585 0.031713545 0.69385827
-0.0080007231 0.020001799 0.61556005
-0.0080175176 0.018707544 0.61589789
-0.008050886 0.017443627 0.61656922
-0.0081411628 0.01628235 0.61838549
-0.0082380055 0.015103012 0.62033379
-0.0083399815 0.013899922 0.62238538
-0.0084457258 0.01266861 0.62451279
-0.0085553555 0.011407167 0.6267184
-0.0086711245 0.010116309 0.62904745
-0.0087908423 0.0087908208 0.63145602
-0.008917246 0.0074310601 0.63399911
-0.009049085 0.0060327351 0.63665146
-0.0091879722 0.0045939982 0.63944566
-0.0093341488 0.0031113923 0.64238644
-0.0094882296 0.0015813708 0.64548635
-0.0096515138 -0 0.64877141
-0.0098254671 -0.001637578 0.65227103
-0.010009241 -0.0033363998 0.65596831
-0.01020838 -0.0051041842 0.65997469
-0.010208901 -0.0068059266 0.65998513
-0.0101712 -0.0084759891 0.65922666
-0.010324407 -0.010324419 0.66230899
-0.010541894 -0.012298912 0.66668445
-0.010842243 -0.014456332 0.67272699
-0.011801517 -0.017702252 0.69202614
-0.01222793 -0.020379871 0.70060486
-0.012802301 -0.023470879 0.71216035
-0.0073226993 0.055652499 0.63138354
-0.0072907964 0.053951889 0.63061333
-0.0072591905 0.052266151 0.62985027
-0.0073594265 0.051515967 0.63227022
-0.0074813934 0.050873488 0.63521475
-0.0078762649 0.051983356 0.64474773
-0.0079875896 0.051120579 0.64743543
-0.0081007695 0.050224781 0.65016782
-0.0082140192 0.04928413 0.65290189
-0.0083288997 0.048307627 0.65567535
-0.0084189819 0.047146291 0.65785015
-0.008466362 0.045718342 0.65899402
-0.0085268738 0.044339776 0.66045487
-0.0085997395 0.042998731 0.66221398
-0.0086867223 0.04169625 0.66431397
-0.0088059688 0.040507466 0.66719282
-0.0089379763 0.039327115 0.67037976
-0.0090708444 0.038097531 0.67358744
-0.0092134867 0.036853969 0.67703116
-0.0093812207 0.035648644 0.68108058
-0.009609052 0.034592599 0.68658096
-0.0097889975 0.033282608 0.69092524
-0.0066797128 0.02137509 0.61586046
-0.0066757202 0.02002719 0.61576402
-0.006701183 0.018763334 0.61637878
-0.0067547923 0.017562479 0.61767304
-0.0068316166 0.016395867 0.61952776
-0.0069114305 0.015205175 0.6214546
-0.0069951848 0.013990372 0.62347662
-0.0070811938 0.012746155 0.62555301
-0.0071718926 0.011475027 0.62774271
-0.0072657685 0.010172069 0.63000911
-0.0073639327 0.0088367164 0.63237894
-0.0074669244 0.0074669719 0.6348654
-0.0075740758 0.006059289 0.6374523
-0.0076872748 0.0046123564 0.64018518
-0.0078056874 0.0031222701 0.64304388
-0.0079309205 0.0015861988 0.64606726
-0.008062264 -0 0.64923823
-0.0082025472 -0.0016404986 0.65262491
-0.0083497474 -0.0033398867 0.65617865
-0.0085053351 -0.0051032007 0.65993488
-0.0084906425 -0.0067925453 0.65958017
-0.0085402336 -0.0085402429 0.66077739
-0.0086548077 -0.010385752 0.66354346
-0.0087955045 -0.012313694 0.66694015
-0.0089697661 -0.014351606 0.67114723
-0.0092074173 -0.01657331 0.67688459
-0.010028636 -0.020057261 0.69671065
-0.010387179 -0.022851795 0.70536661
-0.010849485 -0.026038766 0.71652764
-0.00584456 0.055523306 0.6309731
-0.0058191554 0.053827226 0.63020647
-0.0058356128 0.052520484 0.63070309
-0.0058838376 0.051483572 0.6321584
-0.005940103 0.050490886 0.63385642
-0.0060106199 0.049587637 0.63598442
-0.006104093 0.048832744 0.63880521
-0.0064393315 0.049904823 0.64892197
-0.0065341652 0.049006224 0.65178382
-0.0066288691 0.048059314 0.65464175
-0.0067252954 0.04707706 0.65755165
-0.0068225684 0.046052337 0.66048712
-0.0069126301 0.044932127 0.66320503
-0.0069678128 0.043548852 0.66487026
-0.0070104999 0.042062998 0.66615844
-0.0070693591 0.040648848 0.66793472
-0.0071374783 0.039256155 0.66999042
-0.0072296239 0.037955523 0.6727711
-0.0073413197 0.036706656 0.67614186
-0.0074539939 0.03540647 0.67954212
-0.0075728735 0.034077942 0.68312961
-0.0077100731 0.032767802 0.68726993
-0.0053406041 0.021362424 0.61576492
-0.0053593959 0.020097762 0.61633199
-0.0053883689 0.018859297 0.61720634
-0.005447058 0.017702937 0.61897743
-0.0055071148 0.016521335 0.62078983
-0.0055708671 0.015319914 0.62271369
-0.0056362241 0.014090568 0.624686
-0.0057043345 0.012834787 0.62674147
-0.0057756789 0.01155135 0.62889445
-0.0058493079 0.010236263 0.63111645
-0.0059267338 0.0088900924 0.63345301
-0.0060072825 0.0075091124 0.63588369
-0.0060914787 0.0060914755 0.63842452
-0.0061799753 0.0046349764 0.64109522
-0.0062722019 0.0031360984 0.64387834
-0.0063700597 0.0015925467 0.64683151
-0.0064720032 -0 0.64990783
-0.0065809605 -0.0016452074 0.65319598
-0.0066949027 -0.0033474267 0.65663451
-0.0068002222 -0.0051001608 0.65981281
-0.0068663615 -0.0068663657 0.66180873
-0.006934281 -0.0086678267 0.66385835
-0.0070034349 -0.01050517 0.66594523
-0.0070949211 -0.012416095 0.66870612
-0.0072057815 -0.014411569 0.67205161
-0.0073421276 -0.016519815 0.67616624
-0.0075164195 -0.01879102 0.68142593
-0.007831106 -0.021535546 0.69092244
-0.0084745158 -0.025423557 0.71033907
-0.0088349925 -0.028713733 0.72121745
-0.0094138226 -0.032948345 0.73868513
-0.004358714 0.053757459 0.62997901
-0.0044166693 0.053000033 0.63231099
-0.0044595636 0.052028269 0.6340369
-0.0044895075 0.050881088 0.63524175
-0.0045249928 0.049774945 0.63666958
-0.0045644552 0.048687547 0.63825738
-0.0046124645 0.047662169 0.64018911
-0.0046735406 0.046735436 0.64264667
-0.0047525112 0.045940936 0.64582419
-0.0050124084 0.046782464 0.65628165
-0.0050880481 0.04579246 0.65932512
-0.0051646545 0.044760346 0.66240764
-0.0052416078 0.043680072 0.66550398
-0.0053194179 0.042555362 0.66863477
-0.0053782924 0.041233569 0.6710037
-0.0054100039 0.039673358 0.67227972
-0.0054531042 0.038171738 0.67401385
-0.0040553394 0.027035594 0.61777216
-0.0040390366 0.025580555 0.61711621
-0.0041022077 0.024613202 0.61965805
-0.0040089409 0.022717357 0.61590523
-0.0040218299 0.021449775 0.61642385
-0.0040358766 0.020179361 0.61698908
-0.0040779351 0.019030392 0.61868137
-0.004120891 0.017857194 0.62040979
-0.0041658822 0.016663522 0.62222004
-0.004212671 0.015446454 0.62410271
-0.0042606555 0.014202178 0.62603348
-0.0043114163 0.012934297 0.6280759
-0.0043636304 0.011636347 0.6301769
-0.0044182423 0.010309219 0.63237429
-0.0044753328 0.0089507103 0.63467133
-0.0045345337 0.0075575709 0.63705349
-0.004596659 0.0061288774 0.63955319
-0.0046616104 0.0046616197 0.64216661
-0.0047294516 0.0031529665 0.64489639
-0.004801 0.0016003251 0.64777529
-0.0048756176 -0 0.65077764
-0.0049550105 -0.0016516745 0.65397215
-0.0050381478 -0.0033587515 0.65731734
-0.0051093847 -0.0051093698 0.66018367
-0.0051988373 -0.0069317818 0.66378301
-0.0052778036 -0.0087963641 0.66696036
-0.0053413371 -0.010682672 0.66951674
-0.0053919703 -0.012581259 0.67155409
-0.0054573072 -0.014552802 0.67418301
-0.0055376361 -0.016612887 0.67741519
-0.0056372727 -0.018790901 0.68142432
-0.0057643685 -0.021136045 0.68653822
-0.0059428788 -0.023771524 0.69372088
-0.0064890357 -0.028119117 0.71569651
-0.0067572827 -0.031533986 0.72648996
-0.0071438667 -0.035719335 0.74204487
-0.002896172 0.053579152 0.62939739
-0.0029044349 0.05227983 0.62989604
-0.0029559182 0.051728576 0.63300335
-0.0030071072 0.051120818 0.6360929
-0.0030461748 0.050261855 0.63845086
-0.0030752316 0.049203724 0.64020455
-0.0030962883 0.047992468 0.64147544
-0.0031224501 0.046836793 0.64305449
-0.0031515479 0.045697451 0.64481068
-0.0031878706 0.0446302 0.64700294
-0.003236305 0.043690085 0.64992619
-0.0032960398 0.042848527 0.65353149
-0.0034731571 0.043414474 0.66422147
-0.0035269186 0.042323053 0.66746628
-0.0035816911 0.041189432 0.67077208
-0.003636909 0.040006012 0.67410481
-0.0036872821 0.038716465 0.67714512
-0.0026977579 0.026977599 0.61742198
-0.002686929 0.025525838 0.61676842
-0.0026775757 0.024098188 0.6162039
-0.0026851266 0.022823542 0.61665964
-0.0026929085 0.021543235 0.61712933
-0.0027180843 0.020385623 0.61864883
-0.0027454516 0.019218177 0.62030053
-0.0027735985 0.018028408 0.62199938
-0.0028033962 0.016820401 0.62379783
-0.0028338491 0.015586197 0.62563586
-0.0028656109 0.014328033 0.62755287
-0.0028988314 0.013044715 0.62955791
-0.0029329772 0.011731923 0.63161874
-0.0029689849 0.010391444 0.63379198
-0.0030061768 0.0090185404 0.63603675
-0.0030451368 0.0076128244 0.63838822
-0.003085881 0.0061717629 0.64084733
-0.0031282383 0.0046923459 0.64340377
-0.0031726903 0.0031727254 0.64608669
-0.0032193137 0.0016096532 0.64890069
-0.0032681176 -0 0.65184629
-0.0033195692 -0.0016597509 0.65495157
-0.0033736669 -0.0033736527 0.65821671
-0.0034197124 -0.0051295757 0.66099584
-0.0034801748 -0.0069603622 0.66464502
-0.0035428137 -0.0088570118 0.66842562
-0.0036047597 -0.010814279 0.67216444
-0.0036564032 -0.012797415 0.67528141
-0.0036953429 -0.014781386 0.67763162
-0.0037349118 -0.016807109 0.6800198
-0.0037875834 -0.018937916 0.68319881
-0.003852499 -0.021188706 0.68711674
-0.0039334674 -0.023600787 0.69200367
-0.004044855 -0.026291549 0.69872653
-0.0044200523 -0.030940354 0.72137165
-0.0045971111 -0.034478337 0.73205817
-0.0048414948 -0.038731962 0.74680799
-0.0014385519 0.051787883 0.62824649
-0.0014323912 0.050133705 0.6275028
-0.0014262911 0.048493892 0.6267665
-0.0014202346 0.046867758 0.62603539
-0.0014247275 0.045591265 0.62657773
-0.0014456843 0.044816256 0.62910742
-0.0015775922 0.047327757 0.64503014
-0.0015920234 0.046168685 0.64677215
-0.0016037032 0.044903696 0.64818203
-0.0016179692 0.043685168 0.64990413
-0.0016344913 0.042496771 0.65189838
-0.0016554462 0.041386157 0.65442795
-0.0016838134 0.040411502 0.65785217
-0.0017786988 0.040910065 0.6693058
-0.0018074582 0.039764076 0.67277741
-0.0018364954 0.038566411 0.67628253
-0.0013459942 0.026919872 0.61707383
-0.0013427073 0.025511444 0.61667705
-0.0013457915 0.024224281 0.61704928
-0.0013492173 0.022936702 0.61746287
-0.0013610977 0.02177757 0.61889696
-0.0013741849 0.020612776 0.62047672
-0.0013875223 0.019425333 0.62208664
-0.0014015293 0.018219888 0.62377745
-0.0014160863 0.016993046 0.62553465
-0.0014310187 0.015741199 0.62733722
-0.0014468131 0.014468133 0.62924373
-0.0014630412 0.013167351 0.63120258
-0.0014799131 0.01183933 0.63323921
-0.0014976133 0.010483295 0.63537586
-0.0015158753 0.0090952814 0.63758028
-0.0015350684 0.0076753497 0.63989711
-0.0015550002 0.0062200129 0.64230305
-0.0015758731 0.0047276318 0.6448226
-0.0015977985 0.0031956136 0.64746928
-0.0016205265 0.0016205311 0.65021276
-0.0016445316 -0 0.65311044
-0.0016695985 -0.0016696155 0.65613627
-0.0016949015 -0.0033897758 0.6591906
-0.0017184358 -0.0051553249 0.66203141
-0.0017471111 -0.006988436 0.66549289
-0.0017786862 -0.0088934302 0.66930437
-0.0018114236 -0.010868579 0.6732561
-0.0018454704 -0.012918293 0.6773659
-0.0018762794 -0.015010238 0.68108487
-0.0019009938 -0.017108917 0.6840682
-0.0019203057 -0.019203037 0.68639928
-0.0019455962 -0.021401554 0.68945217
-0.0019771396 -0.023725659 0.69325978
-0.0020168354 -0.026218891 0.69805151
-0.0020684784 -0.028958708 0.70428538
-0.0022579571 -0.033869386 0.72715747
-0.0023490912 -0.037585437 0.73815829
-0.0024665715 -0.041931719 0.75233948
0 0.05001986 0.62711024
0 0.0483841 0.62637675
0 0.046771109 0.62568188
0 0.045748115 0.62716937
0 0.044725746 0.62875521
0 0.04375124 0.63063949
0 0.042820483 0.63283539
0 0.041993529 0.63563591
0 0.03731221 0.62141222
0 0.035782546 0.62072629
0 0.041586906 0.65539724
0 0.040300041 0.65729153
0 0.039054036 0.65956485
0 0.037897348 0.66253495
0 0.02831915 0.6173799
0 0.026961356 0.61732417
0 0.02565822 0.61760962
0 0.024378598 0.61808443
0 0.023221582 0.61948586
0 0.022052258 0.6209693
0 0.020865291 0.62250853
0 0.019656062 0.62407607
0 0.018431902 0.62574637
0 0.017184556 0.62746125
0 0.015914619 0.62924016
0 0.014622808 0.63111073
0 0.013303757 0.63303232
0 0.011959463 0.63505232
0 0.010585785 0.63714337
0 0.0091816485 0.639319
0 0.0077456236 0.64159405
0 0.0062748194 0.64395726
0 0.0047676861 0.64643395
0 0.0032212734 0.64901829
0 0.0016330183 0.65172398
0 -0 0.65457946
0 -0.001681149 0.65753055
0 -0.003403008 0.65999001
0 -0.0051857829 0.66325831
0 -0.0070298314 0.6667425
0 -0.0089365244 0.67034507
0 -0.010914236 0.67417502
0 -0.012973011 0.6783098
0 -0.01511091 0.68260419
0 -0.017324775 0.6869629
0 -0.019553363 0.69062787
0 -0.021756351 0.69334567
0 -0.024008393 0.69610357
0 -0.026406497 0.69979393
0 -0.028974861 0.70442474
0 -0.031798542 0.71049297
0 -0.035079986 0.71925586
0 -0.040843278 0.74461079
0 -0.045310497 0.75845695
0.0014253281 0.048461139 0.62665021
0.0014138498 0.046657085 0.62526464
0.0014332528 0.045864135 0.62760681
0.0014534364 0.045056552 0.63004321
0.0014683866 0.044051617 0.63184786
0.0013903561 0.040320307 0.62242877
0.001384608 0.038769037 0.62173492
0.0013789035 0.037230402 0.6210463
0.0013732457 0.035704404 0.6203633
0.0013676343 0.034190834 0.61968595
0.0013620722 0.03268972 0.61901462
0.0013565477 0.031200588 0.6183477
0.0013538866 0.029785514 0.61802649
0.0013550122 0.028455287 0.61816233
0.0013567758 0.027135521 0.61837524
0.0013631928 0.025900662 0.61914986
0.0013742074 0.024735749 0.6204794
0.0013854016 0.023551822 0.6218307
0.001397392 0.022358268 0.62327808
0.0014097547 0.021146327 0.62477034
0.0014224835 0.019914776 0.62630689
0.0014360994 0.018669277 0.62795049
0.0014499449 0.017399371 0.62962174
0.0014643641 0.016108006 0.63136232
0.0014795192 0.014795214 0.6331917
0.0014951162 0.013456047 0.63507444
0.0015115843 0.01209268 0.63706231
0.0015285966 0.010700136 0.63911587
0.0015463786 0.0092782974 0.64126235
0.0015649019 0.0078245103 0.6434983
0.0015841953 0.0063367784 0.64582723
0.0016043202 0.0048129857 0.64825654
0.0016253483 0.0032506883 0.6507948
0.0016473742 0.0016473532 0.65345359
0.0025615029 2.9802322e-08 0.76379865
0.0026013206 -0.0026013255 0.76860511
0.001714661 -0.0034293234 0.66157585
0.0017412318 -0.0052236915 0.66478324
0.0017686455 -0.0070745349 0.66809225
0.0017983052 -0.0089915097 0.67167258
0.0018295654 -0.010977387 0.67544603
0.0018619591 -0.013033688 0.67935628
0.0018971305 -0.015177041 0.68360186
0.0019344188 -0.017409742 0.6881029
0.0019733191 -0.019733191 0.69279861
0.0020099571 -0.022109509 0.69722122
0.0020388768 -0.024466515 0.70071208
0.0020613458 -0.026797473 0.70342439
0.0020909964 -0.029273957 0.70700353
0.0021284977 -0.031927466 0.71153033
0.0021763623 -0.034821779 0.7173081
0.0022428057 -0.03812772 0.72532856
0.0024606762 -0.044292152 0.7516278
0.0025741537 -0.048908889 0.76532578
0.0028574448 0.04714784 0.62705994
0.0028203912 0.045126289 0.62482357
0.0027977687 0.043365449 0.62345821
0.0027861316 0.041792005 0.62275583
0.0027745829 0.040231496 0.62205881
0.0027631298 0.038683832 0.62136751
0.0027517704 0.037148952 0.62068194
0.0027405045 0.03562656 0.62000203
0.0027307007 0.034133762 0.61941028
0.0027283556 0.032740265 0.61926872
0.0027275893 0.031367272 0.61922252
0.0027281323 0.030009449 0.6192553
0.002734551 0.028712809 0.61964262
0.0027532317 0.027532339 0.6207701
0.0027724612 0.026338369 0.62193078
0.0027935435 0.025141925 0.62320322
0.0028149409 0.023927033 0.62449461
0.0028379399 0.022703558 0.62588274
0.0028618164 0.021463633 0.62732381
0.002886523 0.020205677 0.628815
0.0029128634 0.018933594 0.63040483
0.002939732 0.017638385 0.63202649
0.0029683423 0.016325891 0.63375318
0.0029979993 0.014990002 0.63554323
0.0030281909 0.013626844 0.63736546
0.0030605032 0.012242019 0.63931561
0.0030937707 0.010828197 0.64132345
0.0031287274 0.0093861818 0.64343333
0.0031650939 0.0079127252 0.64562821
0.0032029718 0.0064059198 0.64791441
0.0032427125 0.0048640966 0.6503129
0.0032840981 0.0032841265 0.65281075
0.0050644889 0.0025322437 0.7602669
0.00514889 2.9802322e-08 0.76536089
0.0052344813 -0.0026172101 0.77052677
0.0053208154 -0.0053208172 0.77573752
0.0035099834 -0.0052649379 0.66644412
0.0035656875 -0.0071313977 0.66980618
0.003623175 -0.0090579391 0.67327589
0.0036828043 -0.011048406 0.67687482
0.0037477526 -0.013117135 0.68079484
0.0038156873 -0.015262753 0.68489504
0.0038865982 -0.017489702 0.68917489
0.0039644777 -0.019822389 0.69387531
0.0040460327 -0.022253126 0.69879758
0.0041298033 -0.024778783 0.70385361
0.0042023114 -0.027315021 0.70822984
0.0042555295 -0.029788703 0.71144187
0.0043088314 -0.032316208 0.71465892
0.0043816171 -0.035052896 0.7190519
0.0044757412 -0.038043827 0.72473276
0.0046005771 -0.041405171 0.73226738
0.0050417543 -0.047896624 0.75889468
0.0052716522 -0.052716494 0.77277029
0.0042166943 0.042166919 0.6242646
0.0041897306 0.04050076 0.62317961
0.0041691917 0.038912505 0.62235326
0.0041537206 0.037383497 0.62173074
0.0041422923 0.035899878 0.6212709
0.004134147 0.034451216 0.62094313
0.0041287118 0.033029675 0.62072444
0.0041449461 0.031777948 0.62137771
0.0041660904 0.030551344 0.62222844
0.0041880007 0.029316008 0.62311006
0.0042133802 0.028089225 0.6241312
0.0042396565 0.026851147 0.62518847
0.0042685308 0.025611192 0.62635034
0.004298884 0.024360359 0.62757164
0.0043309466 0.023098379 0.62886178
0.0043652039 0.021826029 0.63024014
0.0044005103 0.020535707 0.63166082
0.004438505 0.019233525 0.63318956
0.0044774548 0.017909825 0.6347568
0.0045189848 0.016569644 0.63642782
0.0045620413 0.015206814 0.63816023
0.0046066605 0.013819993 0.63995564
0.0046543544 0.012411594 0.64187467
0.0047029867 0.010973632 0.64383149
0.0047537452 0.0095074773 0.64587384
0.00480715 0.0080119371 0.64802265
0.0048630917 0.0064841509 0.65027362
0.0049213506 0.0049213767 0.65261781
0.0073274714 0.0048849583 0.74943262
0.0075401426 0.0025134087 0.75798976
0.0077360324 -0 0.76587182
0.0078864973 -0.0026288629 0.77192616
0.0080230283 -0.0053486824 0.77741969
0.0081617516 -0.0081617236 0.78300148
0.0083017722 -0.01106903 0.78863543
0.0054794597 -0.0091324151 0.67507434
0.00557 -0.011139959 0.67871743
0.0056636045 -0.013215065 0.68248379
0.0057614916 -0.015363961 0.68642247
0.0058682091 -0.017604649 0.69071645
0.0059793349 -0.019931078 0.69518781
0.0060974495 -0.022357285 0.69994032
0.0062260255 -0.024904102 0.70511389
0.0063606002 -0.027562588 0.71052867
0.0064924322 -0.030298024 0.71583325
0.0065949489 -0.03297472 0.71995813
0.0066742683 -0.035596073 0.72314978
0.0067796838 -0.038418233 0.7273913
0.0069148531 -0.041489124 0.73283017
0.0070921909 -0.044917226 0.73996568
0.0073645716 -0.049097151 0.75092536
0.0057512973 0.03882125 0.62815869
0.0056990231 0.037043661 0.62658119
0.0056826966 0.035516858 0.6260885
0.005682148 0.034092933 0.62607193
0.0056901928 0.032718599 0.6263147
0.0057064979 0.03138575 0.62680674
0.0057280394 0.030072242 0.62745684
0.005752868 0.028764337 0.62820607
0.0057831388 0.027469903 0.62911958
0.0058152829 0.026168793 0.63008964
0.0058518904 0.024870545 0.63119429
0.0058901748 0.023560703 0.63234967
0.0059324959 0.022246897 0.63362682
0.0059764651 0.020917624 0.63495368
0.0060241162 0.019578397 0.6363917
0.0060737687 0.018221319 0.63789016
0.0061264774 0.016847819 0.63948071
0.0061817318 0.015454352 0.64114821
0.0062391772 0.014038146 0.64288175
0.0063006347 0.012601256 0.64473641
0.0063634566 0.011136085 0.64663219
0.0064307451 0.0096461177 0.64866281
0.0065004854 0.0081256032 0.65076745
0.0065719709 0.0065719783 0.65292466
0.0068110521 0.0051082969 0.66013956
0.0070435107 0.0035217404 0.66715467
0.009910401 0.0024776161 0.75367075
0.010123342 -0 0.76009685
0.010411507 -0.002602905 0.76879299
0.010711112 -0.0053555369 0.7778343
0.01093131 -0.0081984699 0.78447938
0.011129288 -0.01112932 0.79045391
0.011329757 -0.014162213 0.7965036
0.0076162154 -0.013328373 0.68443757
0.0077474993 -0.015494972 0.68839937
0.0078834202 -0.017737687 0.69250119
0.0080271885 -0.02006796 0.69683969
0.0081832167 -0.022503883 0.70154834
0.008346268 -0.025038779 0.70646876
0.0085219303 -0.027696282 0.71176994
0.0087106777 -0.030487359 0.71746588
0.0089069838 -0.033401161 0.72338992
0.0090809623 -0.036323845 0.72864014
0.0092090713 -0.039138556 0.73250622
0.0093362276 -0.042013019 0.73634356
0.0095127961 -0.045185775 0.74167192
0.0097440388 -0.048720211 0.74865031
0.010068291 -0.052858531 0.75843549
0.0075511006 0.036245316 0.63689762
0.0074407412 0.034227431 0.63423336
0.0074101072 0.032604456 0.63349378
0.0074049965 0.031100959 0.63337034
0.0074143233 0.029657334 0.63359553
0.0074358312 0.028256148 0.63411474
0.007464095 0.026870728 0.6347971
0.0074984804 0.025494814 0.63562727
0.0075388364 0.024124265 0.63660157
0.0075834892 0.022750467 0.63767958
0.0076328865 0.02137211 0.63887209
0.0076862364 0.019984245 0.64016008
0.0077436673 0.018584818 0.64154661
0.0078046885 0.01717034 0.6430198
0.0078702187 0.015740454 0.64460182
0.0079379417 0.014288306 0.64623678
0.0080119679 0.012819141 0.64802396
0.0080875717 0.011322588 0.64984918
0.0081685865 0.0098023117 0.6518051
0.0082529029 0.0082528889 0.65384066
0.0083407564 0.0066726208 0.65596163
0.0084346216 0.0050607622 0.65822774
0.0085076485 0.0034030676 0.65999073
0.0087842634 0.0017569065 0.66666877
0.009097199 2.9802322e-08 0.67422366
0.012852651 -0.0025705099 0.76488835
0.013135605 -0.0052542388 0.77171952
0.013494254 -0.0080965459 0.78037804
0.013924076 -0.011139244 0.79075485
0.0099425083 -0.017896533 0.69463134
0.01012163 -0.020243257 0.69895566
0.010307918 -0.022677392 0.70345306
0.010506794 -0.025216311 0.7082544
0.010720885 -0.027874321 0.71342301
0.010946278 -0.030649573 0.71886444
0.011192006 -0.033576012 0.72479683
0.011453474 -0.036651134 0.73110926
0.011716907 -0.03983748 0.73746914
0.011924037 -0.04292655 0.74246967
0.012081525 -0.045909822 0.74627173
0.012292258 -0.049169064 0.75135934
0.012566651 -0.052779943 0.7579838
0.012953066 -0.056993484 0.76731265
0.009346907 0.031156361 0.64264315
0.0092934361 0.029429227 0.64156741
0.0092810253 0.027843088 0.64131773
0.0092933206 0.026331097 0.64156514
0.0093184169 0.024849117 0.64207
0.0093541294 0.023385316 0.64278853
0.0093999952 0.021933317 0.64371121
0.0094518447 0.020479023 0.64475429
0.0095115565 0.01902312 0.64595568
0.0095757525 0.017555565 0.6472472
0.0096473889 0.016078979 0.64868844
0.0097224973 0.014583737 0.65019953
0.0098047378 0.013072968 0.65185398
0.009890954 0.011539429 0.65358853
0.0099825161 0.0099824965 0.65543061
0.01008012 0.0084001124 0.65739429
0.010180755 0.0067872107 0.65941888
0.010249365 0.0051246583 0.66079926
0.01036118 0.0034537315 0.66304874
0.010481678 0.0017469823 0.66547298
0.010605763 -0 0.66796941
0.010886948 -0.0018144846 0.67362642
0.011313762 -0.0037712455 0.68221325
0.016023019 -0.0080114901 0.7769562
0.016386136 -0.010924131 0.78426158
0.016818691 -0.014015585 0.79296392
0.012484675 -0.022888571 0.70577013
0.012720284 -0.025440574 0.71051025
0.012967477 -0.028096199 0.71548343
0.013231696 -0.030873924 0.72079909
0.013515782 -0.033789426 0.72651446
0.013816086 -0.036842883 0.7325561
0.014147551 -0.04008472 0.73922467
0.014496501 -0.043489516 0.74624503
0.014813595 -0.04690972 0.75262445
0.015047707 -0.050159007 0.75733441
0.015278987 -0.053476453 0.76198739
0.015603868 -0.057214171 0.76852351
0.011467549 0.027849734 0.65234876
0.011361532 0.025969207 0.65052056
0.011337297 0.024294227 0.65010262
0.011347434 0.022694886 0.65027738
0.011375961 0.021126777 0.65076935
0.011420434 0.01957792 0.65153629
0.011479274 0.018038869 0.65255094
0.011544239 0.016491771 0.65367115
0.011622231 0.014942855 0.65501612
0.01170363 0.01337558 0.65641981
0.011797493 0.011797488 0.65803838
0.011893438 0.010194361 0.65969294
0.011987345 0.0085624158 0.66131228
0.012060198 0.0068915188 0.66256857
0.012181628 0.0052207112 0.6646626
0.012307908 0.0035165548 0.6668402
0.012442974 0.0017775893 0.66916931
0.012584248 2.9802322e-08 0.67160553
0.012731819 -0.0018188357 0.67415029
0.012888771 -0.0036824942 0.67685682
0.013132331 -0.0056281388 0.68105686
0.013605525 -0.0077745914 0.68921679
0.014139391 -0.01009959 0.69842303
0.015274399 -0.028366745 0.71799552
0.015576893 -0.031153798 0.72321188
0.015897166 -0.034065366 0.72873473
0.016240066 -0.037120134 0.73464787
0.016609499 -0.040337354 0.74101853
0.017004961 -0.04372704 0.7478379
0.017437056 -0.047329128 0.75528914
0.017878897 -0.051082551 0.76290846
0.018241204 -0.05472362 0.76915622
0.018507622 -0.058166832 0.77375048
