# .PCD v0.7 - Point Cloud Data file format
VERSION 0.7
FIELDS x y z
SIZE 4 4 4
TYPE F F F
COUNT 1 1 1
WIDTH 1350
HEIGHT 1
VIEWPOINT 0 0 0 1 0 0 0
POINTS 1350
DATA ascii
-0.029620796 -0.023273468 0.70999408
-0.029786423 -0.025531203 0.7114222
-0.029967241 -0.027826726 0.71298122
-0.030163767 -0.030163765 0.71467566
-0.030379219 -0.032549143 0.71653336
-0.03061823 -0.034992248 0.71859419
-0.030936541 -0.037565768 0.72133863
-0.031220434 -0.040140569 0.72378647
-0.031531148 -0.04279229 0.72646558
-0.031872887 -0.045532674 0.72941208
-0.032251932 -0.048377872 0.7326802
-0.032675579 -0.051347315 0.73633301
-0.03315375 -0.054466873 0.74045593
-0.033702627 -0.057775885 0.74518836
-0.034360416 -0.061357826 0.75085998
-0.035191927 -0.065356463 0.75802946
-0.027483178 0.0084563792 0.70979124
-0.027014293 0.0062340796 0.70543742
-0.026784586 0.0041207075 0.70330453
-0.02581236 0.0019855797 0.69427699
-0.025746053 -0 0.69366127
-0.025806727 -0.0019851327 0.69422466
-0.02594259 -0.0039911866 0.69548619
-0.026140783 -0.0060324669 0.69732654
-0.026393117 -0.008120954 0.6996696
-0.026599806 -0.01023066 0.70158875
-0.026712319 -0.012328774 0.7026335
-0.026800035 -0.014430761 0.70344794
-0.026906125 -0.016557604 0.70443302
-0.027025068 -0.01870966 0.7055375
-0.027156852 -0.020889878 0.70676118
-0.027306996 -0.02310589 0.70815533
-0.0274725 -0.025359243 0.70969212
-0.027652001 -0.027652025 0.71135885
-0.027846977 -0.029989064 0.71316928
-0.028064318 -0.032381862 0.71518737
-0.028300095 -0.034830898 0.71737671
-0.0286118 -0.037415415 0.72027093
-0.028893052 -0.040005773 0.72288251
-0.029202025 -0.042679876 0.72575152
-0.029544093 -0.045452446 0.72892773
-0.029925764 -0.048341602 0.7324717
-0.030356051 -0.051371783 0.73646712
-0.030847676 -0.054576635 0.741032
-0.031436712 -0.058037013 0.74650156
-0.032173436 -0.061871976 0.75334233
-0.024862649 0.010359436 0.70469683
-0.024535706 0.0081785619 0.70140803
-0.024363868 0.0060909986 0.69967949
-0.023483116 0.0039138794 0.69081986
-0.023456514 0.0019547343 0.69055223
-0.023535585 -0 0.6913476
-0.023670865 -0.0019726157 0.69270849
-0.023860123 -0.0039767027 0.69461215
-0.024087263 -0.0060218275 0.69689709
-0.024256287 -0.0080853999 0.69859731
-0.024347465 -0.01014477 0.69951451
-0.024427205 -0.012213618 0.70031661
-0.024524683 -0.014306068 0.70129722
-0.024634056 -0.016422689 0.70239735
-0.024754712 -0.018566012 0.70361108
-0.024889857 -0.020741552 0.7049706
-0.025040474 -0.022953779 0.70648563
-0.025203392 -0.025203377 0.70812452
-0.025379382 -0.027494341 0.70989478
-0.025575591 -0.029838175 0.71186846
-0.025788475 -0.032235563 0.71401
-0.026019469 -0.034692645 0.71633357
-0.026270954 -0.03721717 0.71886331
-0.026601385 -0.039902061 0.72218722
-0.026908241 -0.042604744 0.72527397
-0.027250182 -0.045416951 0.72871363
-0.027635479 -0.048362076 0.73258936
-0.02807482 -0.051470518 0.73700881
-0.028597785 -0.054812431 0.74226946
-0.029246781 -0.058493555 0.74879777
-0.030193634 -0.062903404 0.75832242
-0.022385685 0.012210369 0.70025164
-0.022148855 0.010067642 0.6976527
-0.022012701 0.0080046058 0.69615865
-0.021221424 0.0057876706 0.68747538
-0.021238536 0.0038615465 0.68766326
-0.021320315 0.0019382238 0.68856061
-0.021450937 -0 0.68999404
-0.021629905 -0.0019663572 0.69195795
-0.02182832 -0.0039687455 0.69413531
-0.021965263 -0.005990535 0.69563812
-0.022041351 -0.0080150068 0.696473
-0.022115124 -0.010052353 0.69728261
-0.022202192 -0.012110293 0.69823807
-0.022302143 -0.014192283 0.69933492
-0.022411754 -0.016299456 0.70053774
-0.022532592 -0.018435746 0.70186377
-0.022668827 -0.020608008 0.70335883
-0.022815702 -0.022815734 0.70497054
-0.022974079 -0.02506265 0.70670855
-0.023149461 -0.027358443 0.70863312
-0.023340398 -0.029705971 0.71072835
-0.023547301 -0.032109946 0.71299887
-0.023772269 -0.034577847 0.71546763
-0.024018234 -0.037119091 0.71816671
-0.024341788 -0.039831996 0.72171742
-0.024646116 -0.042570561 0.72505701
-0.024988748 -0.045434088 0.72881693
-0.025378663 -0.048450172 0.73309571
-0.025840003 -0.051679969 0.73815829
-0.026407959 -0.05521664 0.74439085
-0.027210757 -0.059368908 0.75320053
-0.020389019 0.016311228 0.70071512
-0.020010907 0.014007658 0.69615096
-0.019837083 0.011902243 0.6940527
-0.019160993 0.0095805228 0.68589157
-0.019045467 0.0076181591 0.68449706
-0.019074291 0.0057222843 0.68484491
-0.019156592 0.0038312972 0.68583846
-0.019280978 0.001928091 0.6873399
-0.0194484 -2.9802322e-08 0.68936086
-0.019618601 -0.0019618571 0.69141537
-0.019727821 -0.0039455891 0.69273382
-0.01979181 -0.0059375167 0.69350624
-0.019859366 -0.0079437196 0.69432163
-0.019936675 -0.0099683106 0.69525492
-0.020027166 -0.012016296 0.69634724
-0.020126007 -0.014088213 0.69754034
-0.020233274 -0.016186595 0.69883513
-0.020355342 -0.018319845 0.70030862
-0.02048669 -0.020486683 0.70189416
-0.020628074 -0.022690862 0.70360076
-0.02078359 -0.024940312 0.70547807
-0.020953571 -0.027239621 0.70752996
-0.021137422 -0.029592365 0.70974916
-0.021336988 -0.032005489 0.71215814
-0.021554831 -0.034487724 0.71478772
-0.021794338 -0.037050366 0.71767884
-0.022060895 -0.039709628 0.72089648
-0.022412989 -0.042584687 0.72514659
-0.0227562 -0.045512408 0.72928959
-0.023160042 -0.048636079 0.73416436
-0.02365293 -0.052036434 0.74011403
-0.024336874 -0.055974782 0.74836993
-0.017979041 0.017979056 0.6957382
-0.017731059 0.015760958 0.69241214
-0.01759816 0.013687462 0.69062972
-0.01696342 0.011308968 0.68211639
-0.016924657 0.0094025731 0.68159646
-0.016961696 0.0075385571 0.68209326
-0.017042577 0.0056808889 0.68317801
-0.017159469 0.0038132668 0.68474579
-0.017314581 0.0019238591 0.68682623
-0.017455252 -0 0.68871295
-0.017542016 -0.0019491017 0.68987668
-0.017596852 -0.0039103925 0.69061214
-0.017658057 -0.0058859885 0.69143301
-0.017726524 -0.0078784525 0.69235134
-0.017807133 -0.0098928511 0.69343245
-0.017895306 -0.011930227 0.69461513
-0.017990679 -0.013992727 0.69589424
-0.018097902 -0.016086996 0.69733238
-0.018214291 -0.018214315 0.69889343
-0.018339206 -0.020376921 0.7005688
-0.018475693 -0.022581398 0.70239937
-0.018625546 -0.024834037 0.7044093
-0.018787328 -0.02713725 0.70657915
-0.01896272 -0.029497564 0.70893157
-0.019153791 -0.031922996 0.71149421
-0.019363895 -0.034424692 0.7143122
-0.019597404 -0.037017345 0.71744418
-0.019857345 -0.039714694 0.72093058
-0.020204453 -0.042653859 0.72558612
-0.020554429 -0.045676529 0.73028004
-0.020978721 -0.048950344 0.73597074
-0.021558413 -0.052698344 0.7437458
-0.015697343 0.01962167 0.6914525
-0.015523602 0.017464072 0.68883103
-0.015426267 0.015426248 0.68736231
-0.014872869 0.01301378 0.67901218
-0.014857523 0.011143148 0.67878067
-0.014903215 0.0093145072 0.67947006
-0.014981416 0.0074907243 0.68065
-0.015090305 0.0056588948 0.68229306
-0.01522681 0.0038066804 0.68435276
-0.015340427 0.0019175708 0.6860671
-0.015406911 -0 0.68707025
-0.015454319 -0.0019318163 0.68778557
-0.015509168 -0.0038773119 0.68861318
-0.015569976 -0.005838722 0.68953067
-0.015639937 -0.0078199804 0.69058633
-0.015717683 -0.0098235309 0.69175947
-0.015801445 -0.011851072 0.69302332
-0.015894495 -0.013907671 0.69442731
-0.015996315 -0.015996307 0.69596362
-0.016105341 -0.018118531 0.69760877
-0.016223816 -0.020279735 0.69939637
-0.016354265 -0.022487074 0.7013647
-0.016494911 -0.024742365 0.70348692
-0.016647134 -0.027051628 0.70578384
-0.016812848 -0.029422492 0.70828414
-0.016994942 -0.031865507 0.71103179
-0.017196897 -0.034393787 0.71407902
-0.017421508 -0.037020683 0.71746814
-0.017674042 -0.03976658 0.72127861
-0.018020231 -0.042798042 0.72650224
-0.018384138 -0.045960337 0.73199314
-0.018867135 -0.049526215 0.73928106
-0.013783715 0.023629218 0.69228959
-0.013512043 0.021233231 0.68760478
-0.013389162 0.019127429 0.68548572
-0.013313684 0.01711759 0.68418419
-0.012839633 0.014673918 0.67600942
-0.012849053 0.012849092 0.6761719
-0.012894371 0.01105231 0.67695338
-0.012966739 0.0092619658 0.67820132
-0.013065414 0.0074659884 0.67990291
-0.013181754 0.0056492984 0.68190908
-0.013272114 0.0037920177 0.68346733
-0.01332204 0.0019031465 0.68432826
-0.013362547 -0 0.68502682
-0.013410795 -0.0019158125 0.68585879
-0.013463998 -0.0038468838 0.68677628
-0.013523783 -0.0057958663 0.6878072
-0.013591216 -0.0077663958 0.68897003
-0.013663696 -0.0097597837 0.69021988
-0.013743205 -0.011779904 0.69159108
-0.013830905 -0.01383087 0.69310337
-0.013924657 -0.015913874 0.69472003
-0.014025866 -0.018033266 0.69646531
-0.014137737 -0.020196736 0.69839442
-0.014258078 -0.022405565 0.70046973
-0.014388224 -0.024665505 0.70271391
-0.014529623 -0.026983589 0.70515227
-0.014685026 -0.02937004 0.7078321
-0.014857139 -0.031836748 0.71080011
-0.015048254 -0.034395993 0.71409577
-0.015262883 -0.037067026 0.71779692
-0.015428003 -0.039671987 0.7206443
-0.0155183 -0.042121083 0.72220147
-0.016260877 -0.046459675 0.73500675
-0.017160932 -0.051482797 0.75052762
-0.011571439 0.025071472 0.6873973
-0.01140501 0.022809982 0.68404901
-0.011314785 0.020743787 0.68223387
-0.010927686 0.018212825 0.67444599
-0.010871612 0.016307443 0.67331779
-0.01088675 0.014515668 0.67362243
-0.010930032 0.012751728 0.67449319
-0.010995283 0.010995299 0.67580593
-0.011082591 0.0092355013 0.67756242
-0.011178743 0.0074525177 0.67949688
-0.011247301 0.0056236684 0.68087614
-0.011285777 0.0037619472 0.68165016
-0.011319692 0.001886636 0.68233252
-0.011361288 -0 0.68316942
-0.01140683 -0.0019011199 0.68408561
-0.01145689 -0.003818959 0.68509281
-0.011514232 -0.0057571232 0.6862464
-0.011575634 -0.007717073 0.68748164
-0.011642206 -0.009701848 0.68882096
-0.011716265 -0.011716276 0.69031096
-0.011795211 -0.013761073 0.69189924
-0.011879926 -0.015839905 0.69360358
-0.011973885 -0.017960817 0.69549388
-0.012074877 -0.020124793 0.69752562
-0.012183861 -0.022337079 0.6997183
-0.012302088 -0.024604172 0.70209688
-0.012432044 -0.026936114 0.70471138
-0.012575724 -0.029343367 0.70760202
-0.012735069 -0.031837702 0.71080774
-0.012913762 -0.034436703 0.71440274
-0.013056697 -0.03699398 0.71727836
-0.013134039 -0.039402157 0.7188344
-0.01322843 -0.041890025 0.7207334
-0.013392064 -0.044640243 0.72402549
-0.0094734402 0.026525646 0.68330693
-0.0093643311 0.024347305 0.68067288
-0.0093026645 0.02232641 0.67918408
-0.0089695407 0.019733012 0.67114174
-0.008950864 0.017901719 0.67069089
-0.0089690909 0.016144365 0.67113096
-0.0090086861 0.014413923 0.67208689
-0.0090655852 0.012691796 0.67346054
-0.0091405399 0.010968655 0.67527008
-0.0092165424 0.009216547 0.67710495
-0.0092667257 0.0074133873 0.67831647
-0.0092964424 0.0055778921 0.67903388
-0.0093248207 0.0037299395 0.67971897
-0.0093589015 0.0018717945 0.68054181
-0.0093967952 2.9802322e-08 0.68145663
-0.0094378451 -0.0018875599 0.68244767
-0.0094849691 -0.0037939847 0.68358529
-0.0095355455 -0.0057213306 0.68480635
-0.0095897513 -0.0076718032 0.68611503
-0.0096505284 -0.0096504986 0.68758225
-0.0097152125 -0.011658221 0.6891439
-0.0097844023 -0.013698131 0.69081426
-0.009860917 -0.015777439 0.69266152
-0.009943299 -0.017897934 0.69465029
-0.010032053 -0.020064116 0.69679314
-0.010128227 -0.022282124 0.69911498
-0.010233917 -0.024561375 0.70166659
-0.010350607 -0.026911587 0.70448369
-0.010479771 -0.029343367 0.70760202
-0.010624411 -0.031873226 0.71109384
-0.010744644 -0.03438285 0.71399659
-0.010808986 -0.036750555 0.71554995
-0.010883468 -0.039180428 0.7173481
-0.011008897 -0.041833818 0.72037619
-0.0076285815 0.030514359 0.68481076
-0.0074583828 0.027968943 0.67967451
-0.0073866765 0.025853366 0.67751062
-0.007344014 0.023868054 0.6762231
-0.0070824181 0.021247268 0.66832876
-0.0070757824 0.019458413 0.66812849
-0.0070956 0.017739028 0.66872656
-0.0071296222 0.016041666 0.66975331
-0.0071767904 0.014353603 0.67117673
-0.0072381478 0.012666762 0.67302835
-0.007294124 0.010941178 0.67471761
-0.0073303496 0.0091629624 0.67581081
-0.0073524583 0.0073524415 0.67647797
-0.007375353 0.0055314898 0.67716891
-0.0074020019 0.0037010312 0.67797303
-0.0074322927 0.0018580854 0.67888719
-0.0074649206 -0 0.6798718
-0.0075017982 -0.0018754303 0.68098474
-0.0075417976 -0.003770858 0.68219179
-0.0075844098 -0.0056883097 0.68347776
-0.0076320725 -0.0076320767 0.68491614
-0.007682933 -0.0096036792 0.68645096
-0.0077372864 -0.011605918 0.68809116
-0.0077970894 -0.013644904 0.68989593
-0.0078616198 -0.015723258 0.69184327
-0.0079310285 -0.017844796 0.6939379
-0.0080061555 -0.020015389 0.69620496
-0.0080886967 -0.022243917 0.6986959
-0.0081796721 -0.024539024 0.70144135
-0.0082802121 -0.026910692 0.7044754
-0.0083926404 -0.029374242 0.70786822
-0.0084892176 -0.031834573 0.71078277
-0.0085410587 -0.03416422 0.71234715
-0.0085974503 -0.036539167 0.71404898
-0.0086894613 -0.039102584 0.7168256
-0.005595664 0.031708747 0.67975008
-0.0055087986 0.029380262 0.67625487
-0.0054646581 0.027323276 0.67447877
-0.0054362784 0.025369287 0.67333686
-0.0052445377 0.022726327 0.66562188
-0.0052479669 0.020991862 0.6657598
-0.0052649751 0.019304901 0.66644418
-0.0052920752 0.017640263 0.66753459
-0.0053288224 0.015986472 0.6690132
-0.0053740563 0.014330804 0.67083329
-0.0054125208 0.012629271 0.67238092
-0.0054364554 0.0108729 0.67334402
-0.0054522129 0.0090870559 0.67397803
-0.0054695765 0.0072927773 0.67467666
-0.0054891175 0.0054891109 0.6754629
-0.0055118129 0.0036745667 0.67637616
-0.005536125 0.0018453896 0.6773544
-0.0055631464 -0 0.6784417
-0.0055928286 -0.0018642843 0.679636
-0.0056243669 -0.0037495792 0.68090492
-0.0056593125 -0.0056592822 0.68231106
-0.0056968131 -0.0075957775 0.68382001
-0.0057368083 -0.0095613599 0.68542928
-0.0057806401 -0.011561275 0.68719292
-0.0058280407 -0.01359874 0.68910015
-0.0058789644 -0.015677214 0.69114918
-0.0059339753 -0.017801911 0.69336271
-0.0059944256 -0.019981444 0.695795
-0.0060609379 -0.022223413 0.69847119
-0.0061343531 -0.024537385 0.70142519
-0.0062163314 -0.026937395 0.70472378
-0.0062889424 -0.029348373 0.70764542
-0.0063281013 -0.0316405 0.70922107
-0.0063681016 -0.033963233 0.71083057
-0.006431181 -0.036443353 0.71336865
-0.0065763127 -0.039457887 0.7192083
-0.0036648526 0.032983661 0.67579138
-0.0036203044 0.030772567 0.67310262
-0.0035947631 0.028758079 0.67156106
-0.0034707959 0.026030988 0.66407901
-0.0034558256 0.024190813 0.66317546
-0.0034602589 0.022491693 0.66344297
-0.0034729643 0.020837784 0.66420984
-0.0034920399 0.019206226 0.66536117
-0.0035174105 0.017587036 0.66689241
-0.0035468319 0.015960753 0.66866815
-0.0035703818 0.014281571 0.67008948
-0.0035840641 0.012544185 0.67091537
-0.0035943242 0.010782987 0.6715346
-0.0036060065 0.0090150535 0.67223966
-0.0036187468 0.0072374642 0.67300862
-0.0036338451 0.0054507554 0.67391992
-0.0036499619 0.0036499798 0.67489254
-0.0036675793 0.0018337965 0.67595595
-0.0036871464 -0 0.6771369
-0.0037078848 -0.0018539429 0.67838854
-0.0037306652 -0.0037306547 0.6797635
-0.0037552624 -0.0056329072 0.68124807
-0.0037814432 -0.0075629056 0.68282825
-0.0038099925 -0.009525001 0.6845513
-0.0038409503 -0.011522859 0.68641979
-0.0038741699 -0.01355961 0.68842477
-0.0039099841 -0.015639931 0.69058633
-0.0039493479 -0.017772079 0.69296217
-0.0039926008 -0.019962996 0.69557267
-0.0040402501 -0.022221386 0.69844854
-0.0040933825 -0.024560332 0.70165545
-0.0041419053 -0.026922375 0.704584
-0.0041681798 -0.029177278 0.70616984
-0.0041933837 -0.031450361 0.70769095
-0.0042330995 -0.033864766 0.71008813
-0.0043127681 -0.036658525 0.7148965
-0.0018497959 0.036995918 0.67788804
-0.0018032177 0.034261107 0.67226559
-0.0017850188 0.032130361 0.67006874
-0.0017744788 0.030166119 0.66879642
-0.0017113651 0.027381837 0.66117799
-0.0017081109 0.025621682 0.66078514
-0.0017113592 0.023959041 0.66117728
-0.0017183531 0.022338599 0.66202152
-0.0017283725 0.020740479 0.6632309
-0.0017414803 0.019156277 0.66481316
-0.001755823 0.017558247 0.6665445
-0.0017663667 0.015897304 0.66781723
-0.001772348 0.014178783 0.66853929
-0.0017773657 0.012441546 0.66914493
-0.0017832567 0.01069957 0.66985607
-0.0017896286 0.0089481473 0.67062521
-0.0017970201 0.0071881115 0.67151743
-0.0018050327 0.005415082 0.67248464
-0.0018136494 0.0036273003 0.67352474
-0.0018233251 0.0018233359 0.67469275
-0.0018335545 -0 0.67592752
-0.0018446947 -0.0018446743 0.67727226
-0.0018567976 -0.0037136078 0.67873323
-0.0018696471 -0.0056088865 0.68028426
-0.0018836111 -0.0075344145 0.68196988
-0.0018987791 -0.0094939172 0.68380082
-0.0019150213 -0.011490136 0.68576145
-0.0019325211 -0.013527632 0.68787384
-0.0019517511 -0.015614003 0.69019508
-0.0019728444 -0.017755598 0.69274133
-0.0019960534 -0.019960523 0.69554293
-0.0020218883 -0.022240758 0.69866145
-0.0020460971 -0.02455315 0.70158368
-0.0020594622 -0.026772976 0.70319706
-0.0020713126 -0.028998405 0.70462751
-0.0020901579 -0.031352371 0.70690227
-0.0021241514 -0.03398639 0.71100569
0 0.037935376 0.67265534
0 0.035525203 0.66901165
0 0.03346917 0.66723394
0 0.031538844 0.66610217
0 0.028732479 0.6586163
0 0.027020097 0.65844899
0 0.025395304 0.65896356
0 0.02380845 0.65987897
0 0.022244096 0.66114402
0 0.02069506 0.66277432
0 0.019120961 0.66442537
0 0.017475456 0.66554517
0 0.015777916 0.66621554
0 0.014063984 0.66680741
0 0.012347519 0.66752332
0 0.010621905 0.66829395
0 0.008887738 0.66916704
0 0.007142067 0.67012876
0 0.0053818822 0.67114645
0 0.0036070645 0.67230242
0 0.0018135905 0.6735208
0 -0 0.6748364
0 -0.0018364191 0.67627275
0 -0.0036980808 0.67779642
0 -0.0055880845 0.67944497
0 -0.0075102448 0.6812396
0 -0.0094673038 0.68315899
0 -0.011463434 0.68522394
0 -0.013505548 0.68749249
0 -0.015599549 0.68997657
0 -0.017752975 0.69270653
0 -0.019976884 0.6957401
0 -0.022240072 0.69865358
0 -0.024425566 0.70030057
0 -0.02660501 0.70163721
0 -0.028901815 0.70379502
0 -0.031428397 0.70751405
0.0017741264 0.039030761 0.66875398
0.0017514961 0.0367814 0.66602224
0.0017386664 0.03477335 0.66447353
0.0016832583 0.031981885 0.65778518
0.0016698381 0.030057102 0.65616524
0.0016708083 0.028403729 0.65628231
0.0016757885 0.026812643 0.65688354
0.0016837058 0.02525562 0.65783918
0.0016943791 0.023721308 0.65912753
0.0017080469 0.022204638 0.66077745
0.0017206696 0.020648032 0.66230106
0.0017290772 0.019019872 0.66331601
0.0017342492 0.017342478 0.66394031
0.0017391015 0.015651941 0.6645261
0.0017450274 0.013960212 0.66524136
0.0017514225 0.01225996 0.66601336
0.001758495 0.010551006 0.66686702
0.0017664102 0.0088320673 0.66782248
0.0017747619 0.0070990622 0.66883063
0.0017841406 0.0053524673 0.6699627
0.0017941012 0.0035881996 0.67116511
0.0018047657 0.0018047988 0.67245239
0.0018164805 2.9802322e-08 0.67386651
0.0018288766 -0.0018288791 0.67536288
0.0018422359 -0.0036844909 0.67697549
0.0018568113 -0.0055704415 0.6787349
0.0018723826 -0.0074895322 0.68061447
0.0018891012 -0.0094455183 0.68263268
0.0019074726 -0.011444837 0.68485028
0.0019275629 -0.013492942 0.68727535
0.0019495989 -0.015596747 0.68993533
0.0019740507 -0.017766446 0.69288695
0.0019979982 -0.019979984 0.69577765
0.0020120181 -0.022132188 0.69746995
0.0020223542 -0.02426824 0.69871765
0.0020393005 -0.026510924 0.70076323
0.002067077 -0.028939039 0.70411617
0.0034915037 0.040152282 0.66532886
0.003455444 0.038009882 0.66315246
0.0034338995 0.036055952 0.66185206
0.0033145114 0.0331451 0.6546464
0.0033026754 0.031375438 0.65393198
0.0033065933 0.029759347 0.65416849
0.0033177971 0.028201282 0.65484464
0.0033345793 0.026676625 0.65585756
0.0033567713 0.02517578 0.657197
0.0033836134 0.023685306 0.65881711
0.0034068478 0.022144526 0.66021937
0.0034219925 0.020532012 0.66113341
0.003431615 0.01887387 0.6617142
0.0034414337 0.017207205 0.66230679
0.0034530472 0.015538692 0.66300774
0.0034658436 0.013863385 0.66378009
0.0034796905 0.012178898 0.66461581
0.0034954303 0.010486305 0.66556579
0.003511979 0.008779943 0.66656458
0.0035303405 0.0070607066 0.66767281
0.0035500026 0.0053249598 0.66885954
0.0035708786 0.0035708845 0.67011952
0.0035939496 0.0017969906 0.67151195
0.0036183149 -0 0.67298257
0.0036444587 -0.001822263 0.67456049
0.0036730312 -0.003673017 0.67628497
0.0037035351 -0.0055552721 0.67812598
0.0037362229 -0.0074724257 0.68009889
0.0037721496 -0.0094303489 0.68226731
0.0038113708 -0.011434108 0.68463451
0.0038543388 -0.01349017 0.68722785
0.0039019494 -0.015607804 0.69010139
0.0039494727 -0.017772615 0.69296968
0.0039781099 -0.019890547 0.6946981
0.0039978805 -0.021988362 0.69589138
0.0040295776 -0.024177521 0.69780451
0.0040795659 -0.026517153 0.70082152
0.0052537895 0.043781579 0.66599411
0.0051614228 0.041291386 0.66227752
0.0051160371 0.039222926 0.66045141
0.005088117 0.037312895 0.65932786
0.0049082516 0.034357786 0.65209073
0.0048997281 0.032664865 0.6517477
0.0049084281 0.031086743 0.65209782
0.0049270527 0.029562324 0.65284717
0.0049535879 0.028070331 0.65391493
0.0049880734 0.026603073 0.65530252
0.0050273826 0.025136948 0.65688419
0.0050595622 0.023611277 0.65817899
0.0050795255 0.02201128 0.65898222
0.0050932616 0.020373046 0.65953493
0.0051081679 0.018729955 0.66013467
0.0051252074 0.017084032 0.66082036
0.0051444233 0.015433282 0.66159356
0.0051647611 0.013772726 0.66241187
0.0051882355 0.012105912 0.66335642
0.0052128294 0.010425687 0.66434598
0.0052397964 0.0087330043 0.66543102
0.00526893 0.0070252419 0.66660327
0.0052995672 0.0052995682 0.66783607
0.0053336504 0.0035558045 0.66920745
0.0053695575 0.0017898381 0.67065227
0.0054079383 2.9802322e-08 0.67219651
0.0054499959 -0.0018166602 0.6738888
0.0054947836 -0.0036631823 0.67569095
0.0055427481 -0.0055427551 0.67762089
0.0055954554 -0.0074605644 0.67974162
0.0056529185 -0.0094215572 0.6820538
0.0057157502 -0.011431485 0.68458194
0.0057852734 -0.013498992 0.68737936
0.0058559841 -0.01561594 0.69022453
0.0058996216 -0.017698884 0.69198042
0.0059287013 -0.019762307 0.69315046
0.0059725782 -0.021899432 0.69491583
0.0060435147 -0.024174064 0.69777012
0.0068776878 0.044704974 0.6621505
0.0067860885 0.042413056 0.65938622
0.0067356164 0.040413707 0.65786314
0.0067025484 0.038539618 0.65686524
0.0064666914 0.035566807 0.64974761
0.0064621605 0.033926368 0.64961088
0.0064773648 0.032386839 0.65006971
0.0065045208 0.030896485 0.65088916
0.0065416405 0.029437363 0.65200943
0.0065891496 0.028003901 0.6534431
0.006640349 0.026561379 0.65498817
0.0066795973 0.025048494 0.65617257
0.0067023686 0.023458302 0.65685982
0.006720305 0.02184099 0.65740108
0.0067404029 0.020221233 0.65800756
0.0067626541 0.018597305 0.65867907
0.0067882752 0.016970724 0.6594522
0.0068152272 0.015334278 0.66026556
0.006845952 0.013691902 0.66119283
0.006878444 0.012037277 0.66217333
0.0069136568 0.010370523 0.66323596
0.0069520082 0.0086899996 0.66439337
0.006992131 0.0069921315 0.66560417
0.0070367502 0.0052775741 0.66695058
0.0070838216 0.0035419166 0.66837114
0.0071339165 0.0017834902 0.66988289
0.007188932 -0 0.67154312
0.0072474526 -0.001811862 0.67330915
0.0073100282 -0.0036550164 0.6751976
0.0073787789 -0.0055340827 0.67727226
0.0074536055 -0.0074535906 0.67953038
0.0075352951 -0.0094191432 0.68199557
0.0076255593 -0.01143831 0.68471956
0.0077190832 -0.013508379 0.68754184
0.0077781202 -0.015556246 0.68932348
0.0078161201 -0.017586261 0.69047022
0.0078699663 -0.019674927 0.69209516
0.0079594152 -0.021888405 0.69479454
0.0084621813 0.045695812 0.65889305
0.0083710365 0.043529391 0.65669262
0.0083151413 0.04157573 0.65534317
0.0080429027 0.038605928 0.64877081
0.0079910858 0.036759019 0.64751977
0.0079952227 0.035178989 0.64761966
0.0080171032 0.033671856 0.64814794
0.0080518853 0.032207578 0.64898759
0.0080995895 0.030778438 0.65013933
0.0081608333 0.02937898 0.65161788
0.0082225502 0.027956694 0.65310782
0.0082658548 0.026450753 0.65415335
0.0082918536 0.024875581 0.65478098
0.0083138151 0.023278683 0.65531111
0.0083391992 0.021681905 0.65592402
0.008366446 0.020079494 0.65658176
0.008398463 0.018476635 0.65735477
0.0084320344 0.016864091 0.65816528
0.0084696589 0.015245408 0.65907359
0.008509906 0.013615847 0.66004521
0.0085530225 0.011974245 0.66108614
0.0086003598 0.010320455 0.66222894
0.0086498102 0.008649826 0.66342282
0.0087044323 0.0069635808 0.66474152
0.0087622963 0.0052573681 0.66613841
0.0088236099 0.003529489 0.66761869
0.0088910917 0.0017782152 0.66924787
0.0089627607 -0 0.67097807
0.0090392828 -0.0018078387 0.67282552
0.0091233738 -0.003649354 0.67485565
0.0092147421 -0.0055288374 0.67706144
0.0093143713 -0.0074515045 0.67946672
0.0094242999 -0.009424299 0.68212068
0.0095399087 -0.011447877 0.68491173
0.0096148122 -0.013460755 0.68672007
0.0096615972 -0.015458584 0.68784952
0.0097252205 -0.017505378 0.68938547
0.0098289941 -0.019657999 0.69189084
0.01020602 0.049329102 0.65992719
0.010008507 0.046706378 0.65595353
0.0099158147 0.04462117 0.65408874
0.0098604169 0.042728454 0.65297419
0.0095150843 0.039646178 0.64602667
0.0094875693 0.037950307 0.64547306
0.0094979554 0.036408812 0.64568204
0.0095277363 0.034935027 0.64628118
0.0095721502 0.033502549 0.64717472
0.0096305227 0.03210175 0.64834911
0.0097040506 0.030729473 0.64982831
0.0097727561 0.029318273 0.65121061
0.0098198103 0.027822822 0.65215731
0.0098489979 0.026264042 0.65274447
0.0098747853 0.024686962 0.65326321
0.0099055422 0.023112953 0.65388203
0.0099380696 0.021532476 0.65453643
0.0099760145 0.019952029 0.65529984
0.010016154 0.018362939 0.65610737
0.010060358 0.016767293 0.65699673
0.010108255 0.015162408 0.6579603
0.010158948 0.013545305 0.65898013
0.010215084 0.011917591 0.66010952
0.010273566 0.010273546 0.66128612
0.010337775 0.0086148083 0.66257787
0.010406037 0.0069373548 0.66395122
0.010478093 0.0052390397 0.66540086
0.010557575 0.0035192072 0.66699994
0.010641853 0.0017736554 0.66869545
0.010731745 2.9802322e-08 0.67050391
0.010830509 -0.0018050671 0.67249095
0.010937678 -0.0036458969 0.67464703
0.011054312 -0.0055271387 0.67699349
0.011182824 -0.0074552 0.67957896
0.011319607 -0.0094330013 0.68233079
0.011410775 -0.011410773 0.684165
0.011466561 -0.013377637 0.68528736
0.011539105 -0.015385449 0.68674678
0.01165391 -0.01748085 0.68905652
0.011681382 0.050063103 0.65603608
0.011514976 0.047704905 0.65316665
0.011427403 0.04570964 0.65165639
0.011369683 0.043854475 0.65066111
0.010970027 0.040745825 0.64376926
0.010952635 0.039116561 0.64346939
0.010970817 0.037614226 0.64378285
0.01100951 0.036174119 0.64445013
0.011064321 0.034773588 0.64539528
0.011135058 0.033405185 0.64661515
0.011219162 0.032054782 0.64806545
0.011293321 0.030653328 0.64934427
0.011342987 0.029167682 0.65020072
0.011374778 0.027624458 0.65074897
0.01140426 0.026066869 0.65125734
0.011440467 0.024515271 0.65188169
0.011478522 0.022957057 0.652538
0.011521908 0.021397829 0.65328616
0.011568565 0.019831806 0.6540907
0.011619109 0.018258601 0.65496224
0.01167449 0.016677856 0.65591729
0.011732445 0.015084594 0.65691662
0.011797135 0.013482451 0.65803224
0.01186439 0.011864394 0.65919203
0.011937826 0.010232419 0.66045833
0.012016133 0.0085829496 0.66180873
0.012098566 0.0069134831 0.66323024
0.012189514 0.0052240789 0.66479862
0.012285933 0.0035102665 0.66646123
0.012388576 0.0017697811 0.66823131
0.012501421 2.9802322e-08 0.67017722
0.012623571 -0.0018033385 0.67228365
0.012756442 -0.0036447048 0.67457485
0.012902494 -0.0055296421 0.67709351
0.013059519 -0.0074625909 0.67980129
0.013167681 -0.0094054937 0.68166649
0.013232251 -0.011341929 0.68277997
0.013312671 -0.013312668 0.68416673
0.013435746 -0.01535514 0.68628907
0.013685104 -0.017595112 0.69058913
0.013140619 0.05091992 0.65287453
0.012991266 0.04871726 0.65062094
0.012902617 0.046771973 0.64928329
0.012844158 0.044954568 0.64840126
0.012394625 0.041831881 0.64161837
0.01238726 0.040258616 0.64150727
0.012414729 0.038796037 0.64192176
0.012463203 0.037389606 0.64265311
0.01252913 0.036021233 0.64364791
0.012612944 0.034685582 0.6449126
0.012706915 0.033355653 0.64633048
0.012785288 0.031963229 0.64751297
0.012836291 0.030486196 0.64828265
0.012870134 0.028957784 0.64879322
0.012904113 0.027421236 0.64930594
0.012944885 0.025889754 0.64992112
0.012988484 0.024353415 0.65057904
0.013037089 0.022814929 0.65131241
0.013090169 0.021271527 0.65211332
0.013146834 0.019720256 0.65296829
0.013209568 0.018163174 0.65391493
0.013274577 0.016593218 0.65489584
0.013347524 0.01501599 0.6559965
0.013423348 0.013423353 0.65714055
0.013505549 0.011817366 0.65838093
0.013593654 0.010195255 0.65971041
0.013686145 0.0085538626 0.66110587
0.013788021 0.0068940222 0.66264307
0.013896054 0.0052110255 0.66427314
0.014010939 0.0035027564 0.66600668
0.01413717 0.0017671585 0.66791135
0.014273684 -0 0.66997117
0.014421896 -0.0018027425 0.67220759
0.014584634 -0.0036461651 0.67466307
0.014760768 -0.0055352747 0.67732072
0.014886698 -0.0074433386 0.6792208
0.014959971 -0.009349972 0.68032646
0.015047249 -0.011285424 0.68164337
0.015179001 -0.013281584 0.6836313
0.015417177 -0.015417159 0.68722516
0.014891232 0.054601163 0.65432358
0.01456912 0.051801324 0.65000331
0.014431063 0.049706995 0.64815164
0.014345419 0.047818094 0.64700294
0.013870937 0.044695258 0.64063907
0.013792384 0.042909652 0.63958549
0.013798683 0.041396052 0.63967001
0.01383344 0.039963275 0.64013612
0.013889677 0.038582414 0.64089036
0.013967394 0.037246376 0.64193279
0.01406485 0.035943538 0.64323986
0.014168177 0.034633338 0.64462572
0.014249457 0.033248723 0.64571589
0.014299683 0.031777084 0.64638948
0.014335965 0.030264825 0.64687616
0.014374679 0.028749347 0.64739537
0.014419695 0.027237207 0.64799917
0.014468851 0.025722414 0.64865851
0.014522465 0.024204105 0.64937752
0.014581952 0.022683054 0.65017545
0.014644452 0.021153122 0.65101367
0.014714411 0.019619197 0.65195191
0.01478674 0.018072665 0.65292203
0.014867241 0.016519159 0.65400171
0.014951352 0.014951378 0.65512991
0.015041997 0.013370663 0.65634561
0.015139495 0.011775166 0.65765333
0.015241774 0.010161161 0.65902513
0.015354024 0.0085300207 0.66053069
0.015473255 0.0068770349 0.66212982
0.015599809 0.005199939 0.66382718
0.015738893 0.003497541 0.66569263
0.015889108 0.0017654896 0.66770738
0.016051887 2.9802322e-08 0.66989052
0.016230363 -0.0018033683 0.67228436
0.016425008 -0.0036500096 0.67489505
0.01656829 -0.0055227578 0.6768167
0.016650995 -0.0074004531 0.67792606
0.016744111 -0.0093022883 0.67917496
0.016885249 -0.011256844 0.68106788
0.017129837 -0.013323218 0.68434834
0.016215663 0.055133253 0.65033829
0.015970387 0.052702308 0.64737755
0.015841203 0.050691873 0.64581811
0.015759028 0.04885298 0.64482617
0.015205603 0.045616806 0.6381458
0.015168909 0.043989837 0.63770282
0.015184283 0.042515993 0.63788843
0.015228326 0.041116476 0.6384201
0.015293769 0.039763808 0.63921005
0.015379749 0.038449377 0.64024788
0.015491459 0.0371795 0.64159638
0.015603439 0.035887927 0.64294809
0.015684633 0.034506172 0.64392817
0.015733607 0.033040583 0.64451939
0.015773136 0.031546295 0.64499652
0.015816715 0.030051738 0.64552259
0.015865713 0.028558284 0.64611405
0.015920486 0.02706483 0.64677519
0.015978904 0.02556625 0.64748037
0.016044745 0.024067134 0.64827514
0.016112793 0.022557914 0.64909655
0.016189901 0.021046877 0.65002728
0.016269444 0.019523352 0.65098751
0.016357094 0.017992795 0.65204555
0.016449317 0.016449332 0.65315872
0.016548056 0.014893264 0.65435064
0.016654639 0.013323665 0.6556372
0.01676631 0.011736423 0.65698516
0.016888546 0.010133147 0.65846068
0.01701848 0.0085092783 0.66002911
0.017156253 0.0068624914 0.66169226
0.017307639 0.0051923096 0.66351962
0.017470866 0.0034941733 0.66548991
0.017647531 0.0017647445 0.66762245
0.017840896 -0 0.66995662
0.018053321 -0.0018053353 0.67252082
0.01821387 -0.0036427677 0.67445874
0.018306363 -0.0054919124 0.67557526
0.018404471 -0.0073617697 0.67675948
0.018553725 -0.0092768669 0.67856115
0.018800581 -0.011280328 0.68154097
0.017551348 0.055845201 0.64720112
0.017342033 0.053602606 0.64490414
0.017221568 0.05166468 0.64358222
0.017141011 0.049864769 0.64269823
0.016541576 0.04661718 0.6361202
0.016517697 0.045048237 0.63585818
0.016543414 0.043614447 0.63614035
0.016597593 0.042248428 0.63673496
0.016674021 0.040927172 0.6375736
0.016772036 0.039643019 0.63864923
0.016893631 0.03839463 0.63998353
0.017008534 0.037109524 0.64124441
0.017089333 0.035732269 0.64213109
0.017139837 0.034279704 0.64268529
0.01718243 0.03280282 0.64315271
0.017231004 0.031329125 0.64368576
0.01728387 0.02985394 0.64426589
0.017344218 0.028381467 0.6449281
0.017407302 0.026902169 0.64562041
0.017479388 0.0254246 0.64641142
0.017553531 0.023936659 0.64722508
0.017636891 0.02244696 0.64813983
0.017723445 0.020945877 0.64908963
0.017818 0.01943782 0.65012729
0.017918061 0.01791808 0.65122533
0.018024623 0.016386062 0.65239465
0.01814005 0.014841884 0.65366131
0.018260719 0.013280511 0.65498555
0.018392587 0.011704385 0.65643257
0.0185328 0.010108799 0.65797126
0.018681251 0.0084914863 0.65960032
0.01884448 0.0068525672 0.66139156
0.019020112 0.0051873028 0.66331887
0.019209905 0.003492713 0.66540158
0.01941742 0.0017652512 0.66767877
0.019646352 -2.9802322e-08 0.67019105
0.019824607 -0.0018022358 0.67214715
0.019927246 -0.0036231279 0.6732735
0.020029496 -0.0054625869 0.67439556
0.020185668 -0.0073402524 0.67610931
0.02043099 -0.0092867911 0.67880148
0.019363599 0.059704453 0.64938068
0.018867929 0.056603789 0.64439464
0.018687066 0.054503947 0.64257532
0.018570088 0.052615255 0.64139855
0.018491393 0.050851315 0.640607
0.017848436 0.047595859 0.6341393
0.017839579 0.046085596 0.63405025
0.017876865 0.044692159 0.63442534
0.017942039 0.043359965 0.63508087
0.018030073 0.04207018 0.63596642
0.018141204 0.040817708 0.63708436
0.018270988 0.03958714 0.63838989
0.018387482 0.03830725 0.63956171
0.018467562 0.036935121 0.64036727
0.018519169 0.035495073 0.64088637
0.018564748 0.034035385 0.64134479
0.018618284 0.032581985 0.64188337
0.018674918 0.03112486 0.64245307
0.018740842 0.02967298 0.64311624
0.018808706 0.028213054 0.64379889
0.018886684 0.026756138 0.64458328
0.018966988 0.025289327 0.64539105
0.019056199 0.023820251 0.64628845
0.019149613 0.022341192 0.64722812
0.019250857 0.020855069 0.64824659
0.019358542 0.019358546 0.64932978
0.019472491 0.017849803 0.65047598
0.019596484 0.016330451 0.65172327
0.019725952 0.014794499 0.65302563
0.019866932 0.013244629 0.65444386
0.020017082 0.011676639 0.65595418
0.02017582 0.010087907 0.65755099
0.020350261 0.0084792972 0.65930569
0.020537715 0.0068459213 0.66119134
0.02074011 0.0051850379 0.66322732
0.020960869 0.0034935176 0.66544795
0.021205608 0.0017671287 0.66790986
0.021401826 -0 0.66988367
0.021514788 -0.0017928779 0.67101991
0.02162038 -0.003603369 0.67208219
0.021782348 -0.0054455996 0.67371142
0.022027595 -0.0073425174 0.67617846
0.020500556 0.059924692 0.6449545
0.020173373 0.057416499 0.64191651
0.020000927 0.055387169 0.64031523
0.019894671 0.053562582 0.63932866
0.019230509 0.050295174 0.6331616
0.019135296 0.048574209 0.63227749
0.019143069 0.047121435 0.63234961
0.019187396 0.045754522 0.6327613
0.019262226 0.044451296 0.63345611
0.019362455 0.043193191 0.63438678
0.01948723 0.041972518 0.63554537
0.019624807 0.040759206 0.63682282
0.019741787 0.039483577 0.63790905
0.019820107 0.038115591 0.63863623
0.019872364 0.036687434 0.63912153
0.019920809 0.035244524 0.63957131
0.019979427 0.033811361 0.64011562
0.020039933 0.032372206 0.64067745
0.020111125 0.030940205 0.64133847
0.020184515 0.029500455 0.64201993
0.020267343 0.028062493 0.64278907
0.020353783 0.026616484 0.64359164
0.02044861 0.025167495 0.64447224
0.020548804 0.023710161 0.64540255
0.020656344 0.022245288 0.64640111
0.020771515 0.020771503 0.64747047
0.020892605 0.01928553 0.64859486
0.021024831 0.017790228 0.64982271
0.021162732 0.016279042 0.65110314
0.021312507 0.014754802 0.65249383
0.021472137 0.013213634 0.65397614
0.021640729 0.011652708 0.65554154
0.021825969 0.010073543 0.65726155
0.022024766 0.0084710717 0.65910751
0.022238998 0.006842792 0.66109669
0.022472335 0.0051859319 0.66326332
0.022731971 0.0034972131 0.66567421
0.022946564 0.001765132 0.66766679
0.023070514 -0 0.66881776
0.023178041 -0.0017828941 0.66981614
0.02334466 -0.0035914779 0.67136323
0.023596859 -0.0054454505 0.6737051
0.021773927 0.060655922 0.64233691
0.021562932 0.058527946 0.64051765
0.021355858 0.056440473 0.63873219
0.021192206 0.054494232 0.63732123
0.020953417 0.052383542 0.63526225
0.020757891 0.050412029 0.63357645
0.0205658 0.048476547 0.63192022
0.020479701 0.046810776 0.63117778
0.020560851 0.045527577 0.63187754
0.020671885 0.04429689 0.63283491
0.020810803 0.043108076 0.63403267
0.020955736 0.041911483 0.63528228
0.021072103 0.040639073 0.63628566
0.021147678 0.039274305 0.63693726
0.02120016 0.037857443 0.63738972
0.021251936 0.036431879 0.63783616
0.021315113 0.035017669 0.63838089
0.021380562 0.033598006 0.63894522
0.021455806 0.032183737 0.63959402
0.021534627 0.030763775 0.64027357
0.021622237 0.029344469 0.641029
0.021714665 0.027918845 0.64182597
0.021814883 0.026489496 0.64269006
0.021921653 0.025053322 0.6436106
0.022035297 0.023609221 0.6445905
0.022157758 0.022157788 0.64564639
0.022285704 0.020693868 0.64674956
0.02242597 0.01922226 0.64795893
0.022571938 0.017735124 0.64921749
0.022730215 0.016235858 0.65058219
0.022898961 0.014720768 0.65203708
0.023076914 0.013186812 0.65357149
0.02327257 0.011636287 0.65525848
0.023482118 0.010063767 0.65706527
0.02370758 0.0084669888 0.65900922
0.023952885 0.0068437159 0.66112423
0.024226757 0.0051914752 0.66348565
0.024459727 0.0034942329 0.66549438
0.024595331 0.0017568469 0.66666353
0.024704624 -0 0.66760594
0.024874019 -0.0017766953 0.66906643
0.025131473 -0.0035902262 0.67128628
0.023777762 0.063407362 0.64594656
0.023542818 0.061211318 0.64405584
0.023312541 0.059058458 0.64220273
0.023086654 0.056947052 0.64038497
0.022865104 0.054876238 0.63860208
0.022647766 0.052844763 0.6368531
0.022434587 0.050851732 0.63513756
0.022576505 0.049668342 0.63627958
0.022019917 0.046975791 0.63180059
0.021959871 0.045383722 0.63131732
0.022112429 0.044224888 0.63254505
0.022264415 0.043044537 0.63376814
0.022379065 0.041774273 0.6346907
0.022449685 0.040409416 0.63525903
0.022503264 0.039005697 0.63569021
0.02255954 0.037599266 0.63614309
0.022626054 0.036201715 0.63667834
0.02269646 0.034801215 0.63724494
0.022775596 0.033404201 0.63788176
0.022859881 0.03200385 0.63856006
0.02295202 0.030602694 0.63930154
0.023050353 0.029197097 0.64009285
0.023155745 0.027786881 0.64094096
0.023268959 0.026371509 0.64185202
0.023388527 0.024947792 0.64281422
0.023517955 0.023517966 0.64385581
0.023652548 0.022075713 0.64493895
0.023800535 0.020627141 0.64612985
0.023954434 0.019163579 0.64736831
0.02412072 0.017688543 0.64870644
0.024298295 0.016198874 0.65013552
0.024485214 0.014691144 0.6516397
0.024690779 0.013168424 0.65329397
0.024910567 0.011624932 0.65506268
0.025146767 0.010058701 0.65696347
0.025404161 0.0084680617 0.65903479
0.025690774 0.0068508983 0.66134131
0.025941806 0.0051883459 0.66336143
0.026089789 0.0034786761 0.66455233
0.026203373 0.0017468929 0.66546637
0.026371215 -2.9802322e-08 0.66681707
0.026632577 -0.0017754734 0.66892034
0.025860082 0.066266477 0.64969718
0.025599683 0.063999206 0.64773262
0.025850646 0.063010931 0.64962602
0.025094233 0.059598804 0.64391929
0.024848804 0.057462871 0.64206761
0.024943413 0.056122661 0.64278144
0.027686093 0.060563326 0.66347337
0.024140788 0.051299185 0.63672614
0.024032665 0.049567372 0.63591039
0.024111271 0.048222572 0.6365034
0.023471937 0.045476884 0.63168001
0.023546148 0.044149011 0.63223988
0.023656636 0.042877674 0.63307345
0.023726186 0.041520834 0.63359815
0.023782291 0.040132642 0.6340214
0.023843275 0.038745344 0.63448155
0.023912856 0.037363827 0.63500649
0.023988308 0.03598246 0.63557571
0.024071252 0.034602433 0.6362015
0.024160897 0.033221245 0.63687783
0.024257384 0.031837821 0.63760579
0.02436154 0.030451924 0.63839155
0.024471901 0.029060394 0.63922417
0.0245915 0.027665466 0.64012641
0.024716619 0.026261419 0.64107037
0.024852969 0.024852991 0.64209908
0.024993796 0.023431718 0.64316154
0.025149336 0.022005677 0.64433503
0.025310824 0.020565063 0.64555335
0.025484862 0.01911363 0.64686638
0.025670934 0.017648757 0.64827013
0.025866514 0.016166568 0.6497457
0.026081486 0.014670849 0.65136755
0.026311122 0.01315558 0.65310001
0.026557432 0.011618882 0.65495825
0.026826544 0.010059953 0.65698856
0.027125038 0.0084765851 0.65924054
0.027392989 0.0068482459 0.66126209
0.027554402 0.0051664412 0.66247982
0.027672311 0.0034590662 0.66336942
0.027841205 0.001740098 0.66464359
0.028101256 -0 0.66660553
0.028608577 -0.0017880201 0.67043293
0.027737875 0.066897243 0.65155429
0.027455937 0.064602226 0.64955235
0.027343934 0.062730223 0.64875698
0.027523277 0.061522603 0.65003049
0.029080473 0.063292801 0.66108751
0.029159829 0.061750203 0.66165102
0.029296415 0.060316175 0.6626209
0.0295485 0.059097022 0.66441077
0.025631735 0.049755722 0.6365993
0.025390649 0.047794163 0.63488746
0.025154205 0.04586944 0.63320857
0.024922052 0.043980092 0.63156015
0.024979504 0.042612076 0.63196808
0.025038034 0.041239142 0.6323837
0.025103725 0.03987062 0.63285017
0.025176316 0.038504958 0.63336563
0.025256755 0.037142336 0.63393676
0.025343293 0.035778761 0.63455117
0.025438337 0.034416556 0.63522613
0.025539 0.033050478 0.63594085
0.025648894 0.031683922 0.63672119
0.025764028 0.030310631 0.63753867
0.025889806 0.028935671 0.63843179
0.026020326 0.027550936 0.63935858
0.026163427 0.026163429 0.64037472
0.026310796 0.024763107 0.64142108
0.026473176 0.023358673 0.64257407
0.026641911 0.02194041 0.64377224
0.026823465 0.020512074 0.64506137
0.027017547 0.019071192 0.64643949
0.027221425 0.017613858 0.64788717
0.027445486 0.016144425 0.64947808
0.02768443 0.014656514 0.65117478
0.027940508 0.013148487 0.65299308
0.028220737 0.011620343 0.65498292
0.028530546 0.010069609 0.65718269
0.028814202 0.008474797 0.65919685
0.028989196 0.0068210065 0.66043943
0.029112322 0.0051374733 0.66131371
0.029283507 0.0034451187 0.66252917
0.029538445 0.0017375648 0.66433942
0.029991282 -0 0.66755486
0.029651664 0.06753993 0.65344638
0.029930629 0.066512495 0.65531719
0.029049145 0.062939823 0.64940584
0.030517841 0.064426541 0.65925509
0.03061525 0.062931359 0.65990835
0.030765953 0.061531901 0.66091901
0.031085256 0.06044358 0.66306031
0.031506527 0.059512347 0.66588539
0.032379504 0.059362411 0.6717397
0.032700688 0.058134556 0.67389357
0.026865613 0.046268523 0.63476276
0.026615685 0.044359475 0.63308662
0.02637013 0.042485207 0.63143992
0.02634144 0.0409756 0.63124752
0.026417002 0.039625525 0.63175428
0.026502434 0.038281322 0.6323272
0.026592422 0.036933929 0.6329307
0.02669283 0.03559047 0.63360399
0.026797507 0.034241289 0.63430601
0.026913058 0.032893747 0.63508087
0.027032774 0.031538248 0.63588375
0.027164614 0.030182898 0.63676792
0.027300393 0.028817087 0.63767844
0.027449999 0.027450025 0.63868171
0.027603792 0.026070237 0.63971305
0.027772585 0.024686784 0.640845
0.027948486 0.023290366 0.64202464
0.028137082 0.021884412 0.64328939
0.028339028 0.020467103 0.64464366
0.028550772 0.019033819 0.64606363
0.028783629 0.017590016 0.64762521
0.029031448 0.01612857 0.6492871
0.029296622 0.014648318 0.65106547
0.029587567 0.013150066 0.65301657
0.029907968 0.011630923 0.6551652
0.030207193 0.010069072 0.65717185
0.0303961 0.0084433556 0.65843868
0.030524354 0.0067831874 0.65929884
0.030697057 0.0051161945 0.66045702
0.030948 0.0034386814 0.66213977
0.031384878 0.0017435849 0.66506958
0.031936999 0.070597589 0.65749985
0.03160258 0.068195015 0.65537524
0.031820904 0.066991389 0.6567623
0.031929273 0.065539032 0.6574508
0.032046486 0.064092994 0.65819544
0.032219391 0.062743008 0.65929395
0.032598216 0.061765045 0.66170073
0.033045802 0.060873866 0.66454434
0.033941273 0.060737044 0.67023337
0.034248427 0.059484124 0.67218477
0.03453131 0.05815801 0.67398202
0.034803737 0.056785047 0.67571276
0.035060313 0.05535838 0.67734289
0.035314932 0.053901732 0.6789605
0.027816324 0.040992498 0.63132042
0.027726034 0.03940016 0.63074678
0.027819255 0.038068444 0.63133907
0.027924994 0.036743402 0.63201088
0.028033445 0.035410672 0.63269985
0.028154656 0.034081936 0.63346994
0.02827877 0.032743812 0.63425839
0.028416635 0.031407863 0.63513434
0.028557306 0.030060321 0.63602805
0.028713251 0.028713256 0.63701874
0.02887336 0.027353704 0.63803601
0.029048307 0.025990605 0.6391474
0.029231047 0.024615616 0.64030844
0.029426482 0.023231447 0.64155006
0.029635999 0.021837056 0.64288116
0.02985527 0.020427316 0.64427423
0.030096473 0.019008309 0.64580661
0.030352842 0.017572701 0.64743543
0.030626636 0.016119272 0.64917487
0.030927831 0.014650047 0.65108848
0.031258225 0.013161361 0.65318751
0.031572983 0.011632174 0.65518719
0.031775918 0.010034531 0.6564765
0.031909022 0.0083971322 0.65732211
0.032082714 0.0067542493 0.65842563
0.032335661 0.0051056743 0.66003263
0.032757267 0.0034481287 0.6627112
0.033950701 0.071296483 0.65950853
0.033591937 0.068863481 0.65734321
0.033323251 0.066646487 0.65572155
0.033457838 0.065242797 0.65653384
0.033661772 0.063957363 0.65776467
0.034090064 0.063066602 0.66034967
0.034628574 0.062331408 0.66359985
0.035464045 0.062062114 0.6686424
0.035772353 0.06081304 0.6705032
0.036061756 0.059501916 0.67224985
0.03634109 0.058145732 0.67393577
0.036606833 0.056740612 0.67553973
0.036867253 0.055300832 0.67711151
0.029260479 0.039501637 0.63120055
0.029135335 0.03787595 0.63044524
0.029247567 0.036559463 0.63112265
0.029374283 0.035249144 0.63188744
0.029502625 0.033928007 0.632662
0.029646313 0.032610953 0.63352925
0.029792117 0.031281739 0.63440919
0.02995397 0.029953957 0.63538611
0.030120218 0.028614223 0.63638949
0.030301075 0.027271003 0.63748109
0.030490337 0.025916785 0.63862336
0.030692423 0.024553925 0.63984311
0.030909037 0.023181796 0.64115047
0.031135708 0.021795005 0.64251852
0.031384811 0.020400137 0.64402199
0.031649236 0.018989563 0.64561796
0.031931296 0.017562211 0.64732033
0.032242302 0.016121149 0.64919746
0.03258222 0.014662027 0.65124899
0.032912266 0.013164908 0.65324104
0.033128433 0.011594951 0.65454566
0.0332672 0.0099801719 0.65538323
0.033441294 0.0083603263 0.65643394
0.033695545 0.0067391098 0.65796858
0.03409924 0.0051148832 0.66040504
0.036004797 0.072009623 0.66155809
0.035933133 0.070155174 0.66114616
0.035243969 0.06713137 0.65718478
0.035101976 0.065189421 0.65636855
0.035559203 0.064345241 0.65899676
0.036487777 0.06428802 0.6643343
0.036964379 0.063367516 0.66707385
0.037272781 0.062121302 0.66884661
0.037568226 0.060824752 0.67054486
0.037852976 0.05948326 0.67218173
0.038128376 0.058100373 0.67376471
0.030702764 0.038012981 0.63108134
0.030572519 0.036395878 0.63033265
0.030705726 0.035092264 0.63109833
0.030854318 0.033792853 0.63195252
0.031005634 0.032482117 0.63282228
0.031172678 0.031172663 0.63378245
0.031344801 0.029852182 0.63477182
0.031531326 0.028528363 0.63584399
0.031727076 0.027194649 0.63696921
0.031935357 0.025852442 0.63816643
0.032158986 0.024502069 0.63945186
0.032392558 0.02313754 0.64079452
0.03264932 0.021766216 0.64227039
0.032921527 0.02037999 0.64383507
0.033211429 0.01897797 0.64550143
0.033531819 0.017564327 0.6473431
0.033880506 0.016133577 0.64934736
0.034225706 0.014668196 0.65133166
0.034454536 0.013125539 0.65264696
0.034599759 0.01153329 0.65348172
0.034773689 0.0099353194 0.65448153
0.035028256 0.0083400607 0.65594482
0.035411801 0.0067451 0.65814948
0.037689347 0.070239246 0.66139364
0.037287325 0.067795157 0.65918779
0.037014622 0.065616846 0.65769154
0.038030237 0.06568861 0.6632641
0.038437117 0.064644277 0.66549659
0.038750354 0.063409686 0.66721523
0.039051414 0.062127262 0.66886711
0.039341714 0.060800821 0.67045999
0.039625522 0.059438288 0.67201716
0.032441407 0.038339883 0.632599
0.032142919 0.036526054 0.6309613
0.032041311 0.03495416 0.63040376
0.032198012 0.033661544 0.63126355
0.032369956 0.032369971 0.63220698
0.032547787 0.031068355 0.6331827
0.032739747 0.029763401 0.63423598
0.032941673 0.028449625 0.63534391
0.033155993 0.027127653 0.63651985
0.033386376 0.025798559 0.63778394
0.033626556 0.024455667 0.6391018
0.033890765 0.02310735 0.64055145
0.034170181 0.021744698 0.64208448
0.034467511 0.020367175 0.64371598
0.034796882 0.018980116 0.64552313
0.035153925 0.017576933 0.64748216
0.035514247 0.016142815 0.64945924
