# .PCD v0.7 - Point Cloud Data file format
VERSION 0.7
FIELDS x y z
SIZE 4 4 4
TYPE F F F
COUNT 1 1 1
WIDTH 249
HEIGHT 1
VIEWPOINT 0 0 0 1 0 0 0
POINTS 249
DATA ascii
0.028461089 0.060084522 0.64546221
0.044745646 0.046343714 0.64750063
0.039897572 0.047877073 0.6472404
0.039897572 0.047877073 0.6472404
0.032034025 0.054457843 0.6479404
0.032088567 0.052946121 0.64826959
0.038797263 0.043646961 0.64973313
0.027471101 0.053326279 0.64965999
0.047114596 0.042240679 0.65070945
0.048812617 0.042304248 0.65100479
0.02611688 0.050601453 0.65163457
0.042611193 0.039333403 0.6524297
0.034934971 0.034934968 0.65540856
0.028314864 0.03664276 0.65565121
0.019956205 0.04490149 0.65534186
0.019956205 0.04490149 0.65534186
0.023395224 0.040106148 0.65631598
0.045518413 0.033717334 0.65810013
0.027207822 0.028908312 0.65986508
0.027207822 0.028908312 0.65986508
0.049127515 0.033881038 0.65908813
0.020347364 0.06104207 0.6592766
0.018795187 0.032464415 0.66085064
0.011992763 0.035978317 0.66140574
0.02247086 0.024199426 0.66324967
0.012314918 0.02287057 0.66696107
0.0052754106 0.028135508 0.6668641
0.019492997 0.015948862 0.66850817
0.012387656 0.019466311 0.66821539
0.035440683 0.019492388 0.66850138
0.0390081 0.01950404 0.66862947
0.008845822 0.024768293 0.66815501
0.014285044 0.014285028 0.67014259
0.032204904 0.016102433 0.67056882
0.0071670245 0.044793904 0.67088199
0.0017966586 0.021559894 0.6714738
0.0036294695 0.014517874 0.67365575
0.016390633 0.0072847605 0.67443395
0.0018187388 0.016368687 0.67413908
-0.0036369355 0.025458574 0.67410636
0.0036498553 0.041973352 0.67488623
0.010991015 0.0054954886 0.6757201
-0.0073386547 0.018346637 0.67606139
0.003699701 0.0036997199 0.67789459
0.024054104 0.0055509508 0.6779508
-0.0093271844 0.0093272328 0.67977607
0.020749249 2.9802322e-08 0.68229389
-0.015124402 0.0075622201 0.68280751
-0.0075644874 0.024584591 0.68287647
-0.0075644874 0.024584591 0.68287647
-0.015192885 0.0037982166 0.68384087
0.03825153 0.074590474 0.68546629
-0.005771616 -0.0096193552 0.68682986
0.015453842 -0.0077269375 0.68777835
0.007756507 -0.011634767 0.68867123
-0.013578571 -0.0077591538 0.68875194
-0.021309666 -0.0019372106 0.68844372
-0.021309666 -0.0019372106 0.68844372
-0.013617267 -0.0097266138 0.68941927
0.054376259 0.066028297 0.6890192
-0.015624674 -0.0097654164 0.69035602
0.052719485 0.064434946 0.69029438
-0.01566736 -0.011750519 0.69100016
-0.023568476 -0.0078561604 0.69167846
0.0059006186 -0.015734971 0.69202048
0.011831235 -0.015774995 0.69262397
0.01378057 -0.015749246 0.69223535
-0.021749826 -0.0098862946 0.69327396
-0.0039806734 -0.02189371 0.69485283
-0.01589033 -0.01986292 0.69436443
0.0060054334 -0.020018101 0.69623792
-0.022009091 0.0080033243 0.69611907
-0.018060666 0.018060654 0.69683295
-0.018060666 0.018060654 0.69683295
-0.020081904 0.014057338 0.69700795
-0.0081159547 -0.028405815 0.6995185
-0.022287874 -0.026340216 0.69917834
0.0040611555 -0.026397526 0.69971037
-0.034504417 -0.016237348 0.69960093
0.0040841778 -0.028589219 0.70109987
-0.028669393 -0.02662155 0.70179093
-0.01856236 -0.035062224 0.70356184
-0.0041234223 -0.030925691 0.7034685
-0.012419804 -0.03518945 0.70446509
-0.0020959366 -0.03772682 0.70759988
-0.0020959366 -0.03772682 0.70759988
-0.035732705 -0.035732716 0.70832258
-0.035964917 -0.040196091 0.70997143
-0.038050897 -0.01268366 0.70977288
-0.010584809 -0.040222287 0.71013784
-0.04279387 -0.038514495 0.7128818
-0.036416523 -0.047127277 0.71317816
-0.045166496 -0.030110985 0.7142207
-0.047821939 -0.043474495 0.71698964
-0.045750767 -0.050107956 0.71757919
-0.015235397 -0.047882706 0.71732295
-0.03504879 -0.056954265 0.71902061
-0.050401397 -0.04601866 0.71911907
-0.044446506 -0.062225103 0.72285634
-0.051043883 -0.057701796 0.72249103
-0.04700033 -0.064905226 0.72476184
-0.054088451 -0.06535688 0.72664183
-0.058485188 -0.05623576 0.72612822
-0.034168176 -0.068336338 0.72956216
0.036784925 0.048778817 0.6476559
0.048508335 0.043657541 0.64978039
0.03554349 0.045237184 0.6496197
0.032088567 0.052946121 0.64826959
0.032088567 0.052946121 0.64826959
0.053018011 0.043229759 0.65152276
0.022936147 0.049148887 0.65235782
0.038891502 0.036408991 0.65436846
0.041405335 0.036436707 0.65452057
0.031412009 0.038025081 0.65416449
0.033444982 0.033445001 0.65645623
0.023446748 0.038519651 0.65676028
0.023363153 0.063414276 0.65603954
0.027093552 0.030480266 0.65900296
0.016884957 0.040523887 0.65841734
0.016884957 0.040523887 0.65841734
0.029165527 0.025734305 0.66169143
0.037699416 0.027417749 0.66144896
0.015564546 0.029399693 0.66335428
0.012925463 0.034467503 0.6626277
0.012925463 0.034467503 0.6626277
0.031461842 0.020974547 0.66558576
0.015666835 0.057445079 0.66472614
0.019398052 0.017634571 0.66746628
0.035135325 0.021081209 0.6666584
0.014028861 0.022796899 0.66627711
0.0087984428 0.028155029 0.66701114
0.010681686 0.017802835 0.66949683
0.010681686 0.017802835 0.66949683
0.012450447 0.016895398 0.66929817
0.042438492 0.019450963 0.66804707
0.042438492 0.019450963 0.66804707
0.027012246 0.012605727 0.67197573
0.0089841643 0.014374673 0.67149484
0.00089832931 0.021556333 0.67143798
0.0053611198 0.023231506 0.67031276
0.019026617 0.0090601444 0.67332864
0.037058908 0.012654096 0.6728102
0.030843668 0.079830647 0.67360735
0.0054584583 0.045487195 0.67422932
0.018481219 0.003696233 0.67768598
0.029471545 0.007367909 0.67694354
0 0.012839705 0.67601025
-0.0018364347 0.014691502 0.67627519
0 0.034958631 0.67669666
0 0.034958631 0.67669666
0.0074314331 0.0009265393 0.67886126
-0.003708998 0.011127025 0.67845571
-0.0075350115 0.0056512654 0.68198705
-0.013164167 0.0075223744 0.68160588
-0.0056841932 -0.0018947124 0.68331218
0.016993377 -0.0018881559 0.68251818
0.058835361 0.058835387 0.68369651
0.060402662 0.060402662 0.68244934
0.0057213493 -0.0076284707 0.68480724
0.019164737 -0.0057494342 0.68593681
-0.011465749 0.00095421076 0.68527102
0.051689159 0.068918884 0.68568802
-0.0038603456 -0.011581004 0.68759036
0.00095857831 -0.0095861554 0.68602806
-0.019199152 0.0019198954 0.68635219
-0.0095889429 0.024931252 0.68609548
-0.021374879 -0.003886342 0.68915939
0.05617024 0.061980963 0.68840301
0.056121144 0.06579721 0.68819869
-0.017656604 -0.0098092258 0.69141352
0.0059006186 -0.015734971 0.69202048
-0.019757422 -0.01185444 0.69309109
-0.023704415 -0.0098768175 0.69304591
-0.023704415 -0.0098768175 0.69304591
-0.019745182 0.0078980923 0.69294333
-0.019976553 -0.019976586 0.69573629
-0.019913189 -0.017921865 0.69497144
0.013883482 -0.01785019 0.69400996
-0.018070668 -0.024094224 0.69696712
-0.014010043 -0.024017215 0.6961925
-0.020304294 -0.028426021 0.69969243
-0.020403733 -0.030605555 0.70089275
-0.028528698 -0.022415429 0.7005778
-0.022590671 -0.032859147 0.70250112
-0.030858783 -0.026744246 0.70293021
-0.033044022 -0.010326236 0.70389581
-0.03112871 -0.033203959 0.70510244
-0.031410102 -0.0376921 0.70736694
-0.0020959366 -0.03772682 0.70759988
-0.038228396 -0.040352225 0.71096325
-0.030060604 -0.04938525 0.71378618
-0.036596548 -0.049512982 0.71445632
-0.046502158 -0.059788465 0.7218982
-0.052933313 -0.041905522 0.72083193
-0.044446506 -0.062225103 0.72285634
-0.02892736 -0.060079873 0.7232011
-0.02892736 -0.060079873 0.7232011
-0.055616919 -0.04671824 0.72314018
-0.051682297 -0.065164626 0.72584158
-0.051682297 -0.065164626 0.72584158
-0.056544866 -0.065591991 0.72762066
-0.029659543 -0.06616357 0.72999972
-0.061431404 -0.045504719 0.72924334
0.030109892 0.06060525 0.6458627
0.042178303 0.044990987 0.64855838
0.050768457 0.045664065 0.64914
0.022122372 0.0491613 0.65240765
0.026580712 0.029972494 0.65939915
0.014985733 0.030550271 0.66333854
0.014220138 0.033616226 0.66270065
0.047681749 0.032355428 0.66015851
0.025714446 0.020920068 0.66503751
0.0099815615 0.025838088 0.66725159
0.0099815615 0.025838088 0.66725159
0.0061158342 0.037596107 0.66570938
0.0064034215 0.0073192716 0.67547655
0.0064034215 0.0073192716 0.67547655
0.018380199 0.0096411109 0.67285681
0.037418783 0.010950804 0.6749109
-0.0036166674 0.022604361 0.67288309
0.025625955 0.0037277639 0.67958724
0.021171931 0.0055227578 0.6768176
0.0023687691 -0.005687207 0.68343377
0.058796566 0.061641961 0.68354547
0.058796566 0.061641961 0.68354547
0.0068370719 -0.013670832 0.6903429
-0.018800378 -0.01484222 0.69345713
-0.019745182 0.0078980923 0.69294333
-0.020304294 -0.028426021 0.69969243
-0.017222915 -0.028366283 0.69917738
0.001013077 -0.024268329 0.69871849
-0.025136854 -0.017092898 0.69731915
-0.017478358 -0.033932082 0.70281398
-0.017478358 -0.033932082 0.70281398
0.0010245971 -0.029749215 0.70223784
-0.0052037332 -0.034346536 0.70584726
-0.04163117 -0.026019916 0.70586431
-0.034178779 -0.026927397 0.70463073
-0.034372307 -0.0093779266 0.70602179
-0.022103343 -0.042100728 0.70869827
-0.034726992 -0.037881866 0.70863932
-0.047719222 -0.033619896 0.71642613
-0.04566234 -0.058921091 0.72130507
-0.054365404 -0.04992453 0.7224353
-0.05841168 -0.046054691 0.72578692
-0.046807777 -0.073066562 0.73022032
-0.037721653 -0.070875958 0.73058128
-0.036266092 -0.067998946 0.72820449
-0.038168263 -0.074030697 0.73385715
