# .PCD v0.7 - Point Cloud Data file format
VERSION 0.7
FIELDS x y z
SIZE 4 4 4
TYPE F F F
COUNT 1 1 1
WIDTH 1338
HEIGHT 1
VIEWPOINT 0 0 0 1 0 0 0
POINTS 1338
DATA ascii
-0.018778643 0.046093017 0.66066909
-0.018841125 0.044533581 0.66135478
-0.018912274 0.042982459 0.66213554
-0.018984031 0.041419685 0.66292292
-0.019056333 0.039845079 0.66371632
-0.019137567 0.038275123 0.66460782
-0.019222518 0.036697537 0.66554004
-0.019309649 0.035108447 0.66649616
-0.019415295 0.03353551 0.66765547
-0.019529587 0.031957507 0.66890967
-0.019724503 0.030483335 0.67104864
-0.019991083 0.029077917 0.67397404
-0.020103166 0.027413428 0.67520392
-0.020200262 0.02570942 0.67626953
-0.020294784 0.02398476 0.67730677
-0.020390194 0.022243828 0.67835379
-0.020486506 0.020486504 0.67941064
-0.020584347 0.018713057 0.68048429
-0.020688025 0.016926557 0.68162209
-0.020792831 0.015122026 0.68277216
-0.020898625 0.013299108 0.68393314
-0.021010151 0.011460125 0.68515694
-0.021125145 0.0096023381 0.68641889
-0.02124157 0.0077242255 0.68769652
-0.02136484 0.0058267713 0.68904918
-0.021492986 0.0039078295 0.69045544
-0.021622682 0.0019657016 0.69187868
-0.021765998 -0 0.6934514
-0.02191131 -0.0019919276 0.69504601
-0.022071669 -0.0040130317 0.69680572
-0.022238525 -0.0060650408 0.69863677
-0.022431757 -0.008156985 0.70075727
-0.022650542 -0.010295689 0.7031582
-0.022930434 -0.012507468 0.70622957
-0.024438523 -0.015551805 0.72277892
-0.020017711 0.088077933 0.69623309
-0.016423725 0.070622027 0.65284979
-0.016472386 0.069184035 0.6534372
-0.016521282 0.067737252 0.65402746
-0.016566357 0.066265404 0.65457153
-0.016608754 0.064774156 0.6550833
-0.01665137 0.063275218 0.65559775
-0.016689748 0.061752051 0.65606099
-0.01672411 0.060206831 0.65647578
-0.016758448 0.058654577 0.65689027
-0.016792137 0.057093263 0.65729696
-0.016826017 0.055525839 0.65770596
-0.016860036 0.053952098 0.65811658
-0.016899383 0.052388132 0.65859151
-0.016941726 0.050825208 0.65910268
-0.016984224 0.049254268 0.65961564
-0.01702711 0.047675908 0.6601333
-0.017076854 0.046107531 0.66073376
-0.01712689 0.044529915 0.66133773
-0.017177278 0.04294318 0.661946
-0.017229684 0.041351229 0.66257864
-0.017287547 0.039761394 0.66327709
-0.017345678 0.038160503 0.66397876
-0.017404264 0.036548972 0.66468596
-0.01746849 0.034936994 0.66546118
-0.01753577 0.033317983 0.66627342
-0.017603634 0.031686544 0.66709256
-0.017676832 0.030050665 0.66797614
-0.017756565 0.028410494 0.66893858
-0.017837018 0.026755542 0.66990972
-0.017933231 0.025106549 0.67107117
-0.018033607 0.023443699 0.67228281
-0.018177345 0.021812797 0.67401791
-0.018466759 0.020313472 0.67751139
-0.018576663 0.018576682 0.67883807
-0.018669056 0.016802162 0.6799534
-0.018758081 0.015006453 0.68102801
-0.018847676 0.013193399 0.68210953
-0.018938202 0.01136294 0.68320227
-0.01902982 0.0095148981 0.68430817
-0.019127373 0.0076509416 0.68548572
-0.019225856 0.0057677627 0.68667454
-0.019325359 0.0038651228 0.68787563
-0.019430198 0.001943022 0.68914115
-0.01953847 2.9802322e-08 0.69044811
-0.019647952 -0.0019648075 0.69176972
-0.019764289 -0.0039528012 0.693174
-0.019885017 -0.0059654713 0.69463128
-0.020007946 -0.0080031753 0.6961152
-0.020143021 -0.010071486 0.69774568
-0.020280017 -0.01216799 0.69939935
-0.020433065 -0.014303118 0.7012468
-0.020592166 -0.016473711 0.70316732
-0.020776428 -0.018698782 0.70539159
-0.020990226 -0.020990252 0.70797241
-0.021270953 -0.023398012 0.71136099
-0.022646816 -0.027176172 0.72796917
-0.017865203 0.087341011 0.69421136
-0.014775145 0.070592374 0.65276659
-0.014821294 0.069166064 0.65338552
-0.014867732 0.067730814 0.65400839
-0.014914461 0.066286534 0.65463513
-0.014961436 0.064832926 0.65526515
-0.015008708 0.063370138 0.65589917
-0.015053864 0.061888099 0.65650481
-0.015099291 0.060397148 0.65711409
-0.015144943 0.058896989 0.65772641
-0.01518493 0.057365298 0.65826273
-0.015224562 0.055823386 0.65879428
-0.015264352 0.054273248 0.65932792
-0.015297225 0.052690446 0.65976882
-0.015329302 0.051097661 0.66019905
-0.015360727 0.049495697 0.66062057
-0.015392282 0.047887117 0.66104376
-0.015423914 0.046271741 0.66146803
-0.015456579 0.044652373 0.66190612
-0.015495937 0.043044299 0.66243404
-0.015535444 0.041427851 0.66296393
-0.015575205 0.039803326 0.66349721
-0.015618583 0.038178742 0.66407895
-0.01566509 0.036551893 0.66470277
-0.01571193 0.034915388 0.66533101
-0.015758997 0.033268988 0.66596228
-0.01581184 0.031623691 0.66667104
-0.015865989 0.029969096 0.66739732
-0.015920399 0.028302908 0.66812706
-0.015977619 0.026629359 0.66889453
-0.016040165 0.024951369 0.66973335
-0.016103258 0.023260236 0.67057961
-0.016168535 0.021558076 0.67145509
-0.016242659 0.019852161 0.67244923
-0.016317403 0.018130451 0.67345178
-0.016402872 0.0164029 0.6745981
-0.016496127 0.01466319 0.67584884
-0.016621249 0.012927651 0.67752707
-0.016889999 0.011260003 0.68113154
-0.01699838 0.0094435513 0.68258524
-0.017086094 0.0075938404 0.68376172
-0.017169086 0.0057230294 0.68487483
-0.017252557 0.0038339198 0.68599433
-0.017336778 0.0019263327 0.68712395
-0.017421892 -0 0.68826556
-0.017512612 -0.0019458532 0.68948233
-0.017604351 -0.0039120615 0.69071269
-0.017697057 -0.0058990121 0.6919561
-0.01779468 -0.0079087317 0.69326544
-0.017895589 -0.0099419951 0.69461894
-0.017997652 -0.011998445 0.69598776
-0.018106416 -0.01408276 0.69744653
-0.018219007 -0.016194671 0.69895667
-0.018334651 -0.018334657 0.7005077
-0.018460697 -0.020511895 0.70219827
-0.018588565 -0.022719353 0.70391333
-0.018733244 -0.024977654 0.70585382
-0.018885262 -0.027278692 0.70789272
-0.019057494 -0.029644996 0.71020269
-0.019264244 -0.032107055 0.71297568
-0.019556044 -0.034766316 0.71688938
-0.016017245 0.09009704 0.69627953
-0.013092224 0.072007239 0.65214431
-0.013131825 0.070583582 0.65274185
-0.013171623 0.069151014 0.65334231
-0.013211705 0.067709982 0.65394711
-0.013251988 0.066259921 0.65455496
-0.013292561 0.064801276 0.65516716
-0.013333652 0.063334852 0.65578723
-0.013375935 0.06186372 0.65642524
-0.013418444 0.060382992 0.65706658
-0.013461266 0.058892995 0.65771276
-0.013504364 0.057393551 0.65836304
-0.013547739 0.055884391 0.65901756
-0.013590932 0.054363698 0.65966928
-0.013632589 0.052826285 0.66029781
-0.013674458 0.051279247 0.66092956
-0.013715173 0.049717516 0.66154391
-0.013751595 0.048130602 0.66209346
-0.013788116 0.046534896 0.66264451
-0.013823064 0.044924974 0.66317183
-0.013852532 0.043289185 0.66361648
-0.013881933 0.041645795 0.66406012
-0.013910588 0.039992929 0.66449249
-0.013939702 0.038334161 0.66493177
-0.013968891 0.03666836 0.66537219
-0.014002264 0.035005689 0.66587579
-0.014038555 0.033341557 0.66642332
-0.014075083 0.031668961 0.66697454
-0.014112201 0.029988438 0.66753459
-0.014154969 0.028309971 0.66817987
-0.014197946 0.026621163 0.66882837
-0.014241184 0.024922073 0.6694808
-0.014287389 0.023217022 0.670178
-0.014337079 0.021505624 0.67092776
-0.014387115 0.019782245 0.67168278
-0.014437501 0.018046856 0.67244297
-0.014494852 0.016306728 0.67330831
-0.01455282 0.014552802 0.67418301
-0.014611253 0.012784839 0.67506468
-0.014678278 0.011008739 0.67607605
-0.01474701 0.0092168748 0.67711312
-0.014821819 0.0074109137 0.67824185
-0.014907489 0.0055903196 0.67953455
-0.015014571 0.0037536323 0.68115032
-0.015260711 0.0019075871 0.68486428
-0.01536563 -0 0.68644738
-0.015448712 -0.0019311011 0.68770105
-0.015525168 -0.0038813055 0.68885463
-0.015601958 -0.0058507323 0.69001329
-0.015679451 -0.0078397095 0.69118261
-0.015757779 -0.0098486245 0.69236445
-0.015840966 -0.011880726 0.69361967
-0.015925419 -0.013934761 0.69489396
-0.016010838 -0.016010851 0.69618285
-0.016100612 -0.018113166 0.69753736
-0.016193559 -0.020241946 0.69893986
-0.016287586 -0.022395432 0.70035863
-0.016388144 -0.024582237 0.70187593
-0.016491855 -0.026799262 0.70344079
-0.016599294 -0.029048771 0.70506191
-0.016715538 -0.031341642 0.7068159
-0.016835192 -0.033670396 0.70862138
-0.016968718 -0.036058545 0.71063614
-0.017112277 -0.038502634 0.71280229
-0.017271319 -0.04101938 0.71520197
-0.01761036 -0.044025898 0.72031772
-0.014052032 0.090334505 0.69691652
-0.011460981 0.072040468 0.65223545
-0.011494607 0.070609748 0.65281534
-0.011528469 0.069170833 0.65339923
-0.011562532 0.067723393 0.65398663
-0.011596795 0.066267401 0.65457749
-0.011631224 0.064802527 0.65517122
-0.011666362 0.063331693 0.6557771
-0.011702263 0.061854839 0.65639615
-0.011738422 0.060369045 0.65701979
-0.011774766 0.058873802 0.65764654
-0.011811377 0.05736956 0.65827787
-0.011848176 0.055855691 0.65891242
-0.01188565 0.054334372 0.65955853
-0.011924049 0.052806526 0.66022074
-0.011962698 0.051268697 0.66088724
-0.012001598 0.049720943 0.66155809
-0.012040753 0.048163027 0.66223323
-0.012080163 0.046594948 0.66291285
-0.012118994 0.045013428 0.6635825
-0.012156852 0.043417335 0.66423535
-0.012194904 0.041811109 0.66489148
-0.012230204 0.040184975 0.66550022
-0.012263263 0.038541675 0.66607034
-0.012296458 0.036889374 0.66664273
-0.012325795 0.03521657 0.66714865
-0.012352574 0.033528447 0.66761041
-0.012378594 0.031830668 0.66805917
-0.012404942 0.030126303 0.66851348
-0.012431359 0.028414547 0.66896904
-0.012458287 0.026696354 0.66943336
-0.012491122 0.024982244 0.66999966
-0.01252413 0.023259103 0.67056882
-0.012557358 0.021526873 0.6711418
-0.012593976 0.01979056 0.67177331
-0.012632859 0.018046945 0.67244375
-0.012671983 0.016292542 0.67311847
-0.012711673 0.014527649 0.67380285
-0.012756628 0.012756646 0.67457807
-0.012801901 0.010973066 0.67535877
-0.012847499 0.0091767907 0.67614508
-0.012897361 0.0073699057 0.67700493
-0.012949768 0.0055498779 0.67790872
-0.01300265 0.0037150383 0.67882061
-0.013060931 0.001865834 0.67982566
-0.013123129 2.9802322e-08 0.68089819
-0.013187512 -0.001883924 0.68200845
-0.013265026 -0.0037899911 0.68334508
-0.013354753 -0.0057234764 0.68489236
-0.013571678 -0.0077552497 0.6886332
-0.013676555 -0.0097689629 0.69044167
-0.013753837 -0.011788964 0.69177437
-0.013823427 -0.01382339 0.69297439
-0.013893009 -0.015877724 0.69417423
-0.013963295 -0.01795283 0.69538629
-0.01403424 -0.020048916 0.69660974
-0.014109373 -0.022171885 0.69790536
-0.014185949 -0.024318784 0.6992259
-0.014263419 -0.026489198 0.70056176
-0.014344794 -0.028689563 0.70196509
-0.014429124 -0.030919552 0.70341921
-0.01451445 -0.033175856 0.70489061
-0.014605968 -0.035471648 0.70646876
-0.014700189 -0.037800491 0.70809364
-0.014798447 -0.040167242 0.70978802
-0.014904049 -0.042583019 0.71160907
-0.015066443 -0.045199335 0.71440947
-0.015191387 -0.047744393 0.71656406
-0.015333779 -0.050382406 0.71901947
-0.015505109 -0.053160369 0.72197396
-0.015758764 -0.056281328 0.7263481
-0.012041459 0.090310961 0.69685334
-0.0098330295 0.072108865 0.6524232
-0.0098610967 0.070671201 0.65298784
-0.0098892925 0.069225073 0.6535551
-0.009917682 0.067770839 0.65412629
-0.0099462019 0.066308022 0.6547001
-0.0099749202 0.064837009 0.65527785
-0.010004371 0.063361079 0.65587032
-0.010034299 0.061878204 0.65647244
-0.010064405 0.060386449 0.65707815
-0.010094659 0.058885545 0.65768677
-0.01012513 0.057375729 0.6582998
-0.010155786 0.055856854 0.65891659
-0.010187076 0.054331064 0.65954608
-0.010219013 0.052798241 0.66018862
-0.01025115 0.051255763 0.66083515
-0.010283525 0.049703747 0.66148651
-0.010316071 0.048141688 0.6621412
-0.010348858 0.046569854 0.66280085
-0.010382357 0.044990242 0.6634748
-0.010416543 0.043402284 0.66416258
-0.010450955 0.041803867 0.66485488
-0.010485596 0.04019478 0.66555184
-0.010520467 0.038575053 0.66625333
-0.01055557 0.036944479 0.66695958
-0.010589788 0.035299301 0.66764802
-0.010623514 0.03364113 0.6683265
-0.010657153 0.031971455 0.66900331
-0.010687352 0.030280828 0.66961086
-0.010716766 0.028578073 0.67020255
-0.010745535 0.026863843 0.67078137
-0.010770322 0.025130749 0.67128009
-0.010793983 0.023386985 0.67175609
-0.010816968 0.021633923 0.6722185
-0.010840442 0.019874156 0.67269081
-0.010863979 0.018106639 0.67316431
-0.010890542 0.016335815 0.67369866
-0.010919815 0.014559776 0.67428762
-0.010949287 0.012774199 0.67488056
-0.01097956 0.010979593 0.6754896
-0.011014041 0.0091783702 0.67618334
-0.011048738 0.0073658228 0.67688137
-0.011083696 0.0055418611 0.67758465
-0.011121924 0.0037072897 0.67835379
-0.011162076 0.0018603504 0.67916155
-0.01120252 2.9802322e-08 0.67997521
-0.0112449 -0.001874119 0.68082786
-0.01129138 -0.0037638247 0.68176293
-0.01133829 -0.0056691468 0.68270671
-0.011387878 -0.0075919032 0.68370432
-0.011443047 -0.0095358789 0.68481427
-0.011498754 -0.011498749 0.68593502
-0.011565913 -0.013493568 0.68728614
-0.011639226 -0.015518963 0.68876112
-0.01178308 -0.017674655 0.69165522
-0.011928213 -0.019880354 0.69457507
-0.011998675 -0.021997571 0.69599259
-0.012060808 -0.024121642 0.69724268
-0.01212256 -0.026265532 0.69848502
-0.012185 -0.028431684 0.69974113
-0.012248084 -0.030620247 0.70101035
-0.012314552 -0.032838851 0.70234758
-0.012382665 -0.035084188 0.70371789
-0.012451484 -0.037354469 0.70510244
-0.012523788 -0.039658666 0.70655704
-0.012598787 -0.041995943 0.70806587
-0.012674689 -0.044361413 0.70959306
-0.012789211 -0.046893775 0.71189702
-0.012873502 -0.049348444 0.71359277
-0.012966133 -0.051864535 0.71545637
-0.013061185 -0.054421604 0.71736872
-0.013166816 -0.057056159 0.71949381
-0.013280453 -0.059762001 0.72177994
-0.013409231 -0.062576413 0.72437084
-0.013566415 -0.06557101 0.7275331
-0.013849484 -0.069247425 0.73322803
-0.010016189 0.090145707 0.69641012
-0.0082060713 0.072213441 0.65270996
-0.0082288245 0.070767879 0.65325928
-0.0082517052 0.069314361 0.65381169
-0.0082746847 0.067852437 0.65436649
-0.0082978215 0.066382557 0.65492505
-0.0083210869 0.064904511 0.6554867
-0.0083450964 0.06342274 0.65606636
-0.0083693564 0.061933249 0.65665203
-0.00839373 0.060434878 0.65724045
-0.0084182741 0.058927953 0.65783298
-0.0084429337 0.057411939 0.65842837
-0.0084677665 0.055887282 0.65902787
-0.0084931785 0.054356366 0.65964139
-0.0085190628 0.052818209 0.66026628
-0.0085451053 0.051270634 0.66089499
-0.0085713081 0.049713582 0.66152757
-0.0085976701 0.048146963 0.66216403
-0.0086241663 0.04657051 0.66280371
-0.0086512761 0.044986665 0.66345817
-0.0086789168 0.043394625 0.6641255
-0.0087067652 0.041792482 0.66479784
-0.0087347627 0.040179908 0.6654737
-0.0087629706 0.038557082 0.6661548
-0.0087913321 0.036923587 0.66683948
-0.0088204984 0.035281986 0.66754359
-0.0088501098 0.033630431 0.66825843
-0.0088799205 0.031967729 0.66897815
-0.0089099323 0.030293792 0.66970271
-0.0089401165 0.028608382 0.67043144
-0.0089705056 0.026911527 0.67116511
-0.0089999363 0.025199831 0.6718756
-0.009029137 0.023475736 0.6725806
-0.0090576094 0.021738291 0.67326796
-0.0090831285 0.019982934 0.67388403
-0.0091086263 0.018217295 0.67449957
-0.0091324328 0.016438365 0.6750744
-0.0091532152 0.014645129 0.67557609
-0.0091730496 0.012842298 0.67605489
-0.0091932742 0.011031926 0.67654324
-0.0092136227 0.0092136264 0.6770345
-0.009234027 0.0073872507 0.67752701
-0.0092592826 0.0055555403 0.67813677
-0.0092847114 0.0037139058 0.67875063
-0.0093102455 0.0018620491 0.67936713
-0.0093387086 -0 0.68005425
-0.0093686441 -0.0018737316 0.68077701
-0.0093987724 -0.0037595034 0.68150437
-0.0094301254 -0.0056580901 0.68226129
-0.0094647668 -0.0075718164 0.6830976
-0.0094996635 -0.0094996393 0.68394011
-0.0095348191 -0.011441767 0.68478882
-0.0095747774 -0.013404667 0.68575346
-0.0096152192 -0.015384376 0.68672991
-0.0096562281 -0.017381191 0.68771988
-0.0097037945 -0.01940757 0.68886828
-0.0097518703 -0.021454096 0.69002885
-0.0098072626 -0.023537427 0.6913662
-0.0098673347 -0.025655061 0.6928165
-0.0099524753 -0.02786693 0.6948719
-0.010116596 -0.030349761 0.69883412
-0.010179576 -0.032574624 0.70035458
-0.010233875 -0.034795165 0.70166552
-0.010287235 -0.037034035 0.7029537
-0.010341194 -0.039296538 0.70425642
-0.010395725 -0.041582912 0.7055729
-0.010452974 -0.043902487 0.70695508
-0.010532626 -0.046343565 0.70887798
-0.010594087 -0.048732817 0.71036178
-0.010658313 -0.051159889 0.71191233
-0.010723321 -0.053616613 0.71348184
-0.010791222 -0.056114376 0.71512115
-0.010862911 -0.058659703 0.71685183
-0.010936899 -0.061246634 0.71863806
-0.011016459 -0.063895464 0.72055876
-0.011100238 -0.066601455 0.72258139
-0.011191355 -0.069386393 0.7247811
-0.011291876 -0.072268009 0.7272079
-0.011406321 -0.075281709 0.72997087
-0.011552748 -0.078558683 0.73350596
-0.0079049664 0.088930905 0.69315141
-0.0065777805 0.072355598 0.65310001
-0.0065954905 0.070901513 0.65363443
-0.0066132736 0.069439411 0.65417111
-0.0066311755 0.067969561 0.65471137
-0.0066491738 0.066491723 0.65525454
-0.0066672927 0.065006107 0.6558013
-0.0066860467 0.063517481 0.65636718
-0.0067049288 0.06202057 0.65693706
-0.0067239176 0.060515285 0.65751004
-0.006742992 0.059001207 0.6580857
-0.0067621972 0.057478726 0.65866524
-0.0067815124 0.055947483 0.65924817
-0.0068013542 0.054410845 0.6598469
-0.0068214755 0.052866429 0.66045415
-0.0068417396 0.051313043 0.6610657
-0.0068621007 0.049750268 0.6616801
-0.006882607 0.048178226 0.66229898
-0.0069032125 0.046596706 0.66292083
-0.0069243014 0.045007944 0.66355717
-0.006945808 0.043411285 0.66420621
-0.0069674491 0.041804701 0.66485929
-0.0069892011 0.040187895 0.66551572
-0.0070111137 0.038561136 0.66617697
-0.0070331641 0.036924094 0.66684246
-0.0070557273 0.035278648 0.66752332
-0.0070787105 0.033623874 0.66821694
-0.0071018441 0.031958282 0.66891503
-0.0071251551 0.030281872 0.66961849
-0.0071485937 0.028594375 0.67032582
-0.0071722125 0.026895791 0.67103857
-0.0071965577 0.025187969 0.67177325
-0.0072211991 0.023468912 0.67251688
-0.0072460095 0.021738023 0.67326558
-0.0072709909 0.019995213 0.67401946
-0.0072961445 0.018240362 0.67477852
-0.0073213666 0.016473085 0.67553973
-0.0073456848 0.014691383 0.67627352
-0.0073699481 0.012897462 0.67700577
-0.0073926244 0.011088938 0.67769015
-0.0074138464 0.0092673004 0.67833048
-0.0074349162 0.0074348748 0.67896634
-0.0074535226 0.0055901706 0.67952782
-0.0074704653 0.0037352443 0.68003917
-0.0074868966 0.0018717349 0.68053502
-0.0075037386 2.9802322e-08 0.68104327
-0.007520685 -0.0018801987 0.68155468
-0.0075395247 -0.0037697554 0.68212324
-0.007560601 -0.0056704581 0.68275928
-0.0075817662 -0.0075818002 0.68339801
-0.0076037734 -0.0095047057 0.68406206
-0.0076285815 -0.01144287 0.6848107
-0.007653553 -0.01339373 0.68556434
-0.0076787183 -0.015357405 0.68632376
-0.0077068969 -0.017340541 0.68717408
-0.007735821 -0.019339532 0.68804693
-0.0077649634 -0.021353632 0.6889264
-0.0077967546 -0.023390263 0.68988585
-0.007830278 -0.025448412 0.69089746
-0.0078641213 -0.027524412 0.69191879
-0.0079022199 -0.029633313 0.6930685
-0.0079420442 -0.031768143 0.69427031
-0.0079858387 -0.033939838 0.69559193
-0.0080356319 -0.03616035 0.69709462
-0.00810163 -0.038482755 0.69908625
-0.0082388669 -0.04119435 0.70322776
-0.008293353 -0.04354009 0.70487195
-0.0083391033 -0.045865029 0.70625263
-0.0083995434 -0.048297375 0.7080766
-0.0084443744 -0.050666213 0.70942944
-0.0084901182 -0.053063244 0.71080995
-0.0085385814 -0.055500746 0.71227247
-0.0085875643 -0.057966053 0.7137506
-0.0086376723 -0.060463697 0.71526271
-0.0086908573 -0.063008726 0.7168678
-0.0087448936 -0.065586686 0.71849835
-0.0088017331 -0.068213433 0.72021371
-0.0088609653 -0.070887715 0.72200119
-0.0089233452 -0.073617607 0.72388369
-0.0089889923 -0.076406449 0.72586477
-0.0090599563 -0.079274595 0.72800624
-0.0091367196 -0.082230449 0.73032284
-0.009221334 -0.085297316 0.7328763
-0.0060639251 0.092980176 0.69859147
-0.0059191165 0.088786781 0.69276482
-0.0049457541 0.07253775 0.65359974
-0.0049586608 0.071074158 0.65411901
-0.0049716351 0.069602907 0.65464109
-0.0049846941 0.068124145 0.65516657
-0.0049978057 0.066637397 0.65569407
-0.0050110193 0.065143287 0.6562258
-0.0050247237 0.063646495 0.65677726
-0.0050385031 0.062141538 0.65733165
-0.0050523584 0.060628295 0.65788913
-0.0050662728 0.059106529 0.65844899
-0.0050802818 0.057576507 0.65901268
-0.005094368 0.056038052 0.65957946
-0.0051088454 0.054494321 0.66016197
-0.0051235459 0.052943289 0.66075349
-0.0051383306 0.051383287 0.66134834
-0.0051531834 0.049814105 0.66194606
-0.0051681399 0.048235983 0.66254783
-0.0051831836 0.046648681 0.66315311
-0.0051985495 0.045054078 0.66377139
-0.0052142236 0.043451875 0.66440207
-0.005230011 0.041840106 0.66503727
-0.005245876 0.040218383 0.6656757
-0.0052618561 0.038586974 0.66631866
-0.0052779149 0.036945403 0.66696483
-0.0052943151 0.035295457 0.66762471
-0.0053110807 0.033636868 0.66829932
-0.0053279521 0.031967729 0.66897815
-0.0053449315 0.030287981 0.66966134
-0.0053620199 0.028597414 0.67034894
-0.0053791981 0.02689597 0.67104018
-0.0053968169 0.025185168 0.67174906
-0.0054147467 0.023463935 0.67247051
-0.0054328153 0.021731228 0.67319757
-0.0054509854 0.019986957 0.67392862
-0.0054692975 0.018231034 0.67466545
-0.0054877126 0.016463161 0.67540646
-0.0055068182 0.014684856 0.67617512
-0.005526057 0.012894154 0.67694926
-0.0055454308 0.011090875 0.67772889
-0.0055649411 0.0092749298 0.67851382
-0.0055845887 0.0074461102 0.67930442
-0.0056042084 0.0056042075 0.68009382
-0.0056230817 0.0037487447 0.68085325
-0.0056417645 0.0018805861 0.68160498
-0.0056589074 2.9802322e-08 0.68229473
-0.0056754672 -0.0018918216 0.68296111
-0.0056911758 -0.0037941337 0.68359315
-0.0057052574 -0.0057052374 0.68415976
-0.0057181017 -0.0076241493 0.68467659
-0.0057311137 -0.0095518529 0.6852001
-0.0057442728 -0.011488557 0.68572962
-0.0057575139 -0.013434201 0.68626243
-0.0057737026 -0.015396535 0.68691379
-0.0057901614 -0.017370492 0.68757606
-0.0058067134 -0.019355685 0.68824202
-0.0058253272 -0.021359503 0.68899095
-0.005844743 -0.023378998 0.68977225
-0.0058643115 -0.025411993 0.69055957
-0.0058851652 -0.027464092 0.69139868
-0.0059076552 -0.029538274 0.6923036
-0.005930318 -0.03162834 0.69321549
-0.0059540053 -0.033739328 0.69416857
-0.005980073 -0.035880446 0.69521749
-0.006006395 -0.038040489 0.69627655
-0.0060348413 -0.040232271 0.69742119
-0.006065812 -0.04246068 0.69866741
-0.0060982169 -0.044720232 0.6999712
-0.0061369361 -0.04704982 0.70152915
-0.0062872828 -0.050298274 0.70757866
-0.0063188844 -0.052657336 0.70885015
-0.0063515035 -0.05504638 0.7101627
-0.0063848146 -0.057463288 0.71150297
-0.0064193271 -0.059913695 0.7128917
-0.0064542433 -0.062391043 0.71429664
-0.0064899335 -0.064899325 0.71573269
-0.0065275533 -0.067451417 0.71724641
-0.0065657846 -0.07003507 0.71878469
-0.0066048442 -0.072653264 0.72035635
-0.0066462238 -0.07532382 0.72202128
-0.0066882749 -0.078029871 0.72371334
-0.0067329444 -0.080795348 0.72551072
-0.0067788269 -0.083605528 0.72735685
-0.0068281949 -0.086490482 0.7293433
-0.0039388863 0.090594411 0.69233072
-0.0032990824 0.074229389 0.65371513
-0.0033074126 0.072763085 0.65421796
-0.0033157745 0.071289152 0.65472263
-0.003324178 0.069807738 0.65522981
-0.0033326361 0.068319052 0.65574026
-0.0033411256 0.066822499 0.65625268
-0.0033496588 0.065318376 0.65676773
-0.0033585399 0.063812286 0.65730375
-0.0033674682 0.062298179 0.65784258
-0.0033764443 0.060776025 0.65838432
-0.0033854796 0.059245914 0.65892971
-0.0033945518 0.057707369 0.65947723
-0.0034036732 0.056160599 0.66002774
-0.0034130411 0.054608673 0.66059315
-0.0034225779 0.053049982 0.66116875
-0.0034321682 0.051482499 0.66174757
-0.0034418125 0.049906284 0.66232967
-0.0034514992 0.048320979 0.66291434
-0.0034612524 0.046726912 0.66350299
-0.0034711934 0.045125514 0.66410297
-0.0034813613 0.043517023 0.6647166
-0.003491601 0.041899234 0.6653347
-0.0035019012 0.040271848 0.66595638
-0.00351225 0.038634777 0.66658098
-0.0035226727 0.03698805 0.66721004
-0.0035332569 0.035332561 0.66784883
-0.0035441185 0.033669114 0.66850442
-0.0035550597 0.031995535 0.66916478
-0.0035660688 0.030311584 0.66982919
-0.0035771332 0.028617054 0.670497
-0.0035882795 0.026912093 0.67116976
-0.0035996118 0.025197297 0.67185372
-0.0036112377 0.023473084 0.67255539
-0.0036229389 0.021737635 0.67326164
-0.0036347162 0.019990921 0.67397249
-0.0036465703 0.018232882 0.67468786
-0.0036585017 0.01646328 0.67540801
-0.0036707406 0.014682949 0.67614675
-0.0036831838 0.012891114 0.67689776
-0.0036957113 0.01108712 0.67765379
-0.0037083381 0.0092708468 0.67841595
-0.0037210381 0.0074421167 0.67918241
-0.0037338946 0.0056008399 0.6799584
-0.0037471631 0.0037471652 0.68075925
-0.0037605262 0.0018802583 0.68156576
-0.003773985 2.9802322e-08 0.68237805
-0.0037875401 -0.0018937588 0.68319619
-0.0038011933 -0.0038011968 0.68402016
-0.0038146833 -0.0057220459 0.68483448
-0.0038277719 -0.0076555312 0.68562442
-0.0038404788 -0.0096011758 0.68639129
-0.0038521134 -0.011556327 0.68709356
-0.0038636248 -0.013522685 0.68778831
-0.0038740048 -0.015496016 0.68841475
-0.0038833704 -0.017475188 0.6889801
-0.0038921761 -0.019460887 0.68951154
-0.0039012954 -0.021457136 0.69006199
-0.0039104577 -0.023462772 0.69061494
-0.0039205076 -0.02548328 0.69122148
-0.0039319065 -0.027523369 0.69190949
-0.0039433562 -0.029575169 0.69260055
-0.0039553889 -0.031643122 0.69332683
-0.0039688172 -0.033734918 0.69413722
-0.0039823367 -0.035841048 0.6949532
-0.0039960286 -0.037962228 0.69577956
-0.0040115826 -0.040115803 0.69671834
-0.0040272591 -0.042286217 0.6976645
-0.0040430576 -0.044473648 0.69861805
-0.0040609743 -0.046701223 0.6996994
-0.0041683186 -0.05001983 0.70617825
-0.0041881185 -0.052351475 0.70737326
-0.0042081252 -0.05470565 0.70858079
-0.0042287349 -0.057087928 0.70982468
-0.0042499085 -0.059498727 0.7111026
-0.0042713135 -0.061934024 0.71239448
-0.0042931004 -0.06439653 0.71370947
-0.0043157255 -0.066893756 0.71507502
-0.0043386654 -0.069418639 0.71645957
-0.0043624397 -0.071980268 0.71789443
-0.0043867454 -0.074574679 0.71936148
-0.0044114986 -0.077201217 0.72085541
-0.004437339 -0.079872102 0.72241503
-0.0044639017 -0.082582176 0.72401828
-0.0044909664 -0.085328341 0.72565168
-0.0045196875 -0.088133931 0.72738522
-0.0019720667 0.09071508 0.69264746
-0.0016558846 0.074514806 0.65448087
-0.0016599166 0.073036313 0.65496761
-0.001663974 0.071550876 0.65545732
-0.0016680455 0.070057929 0.65594882
-0.0016721428 0.068557829 0.65644342
-0.0016762601 0.067050397 0.65694046
-0.0016803978 0.065535516 0.65743989
-0.0016846695 0.064017475 0.65795553
-0.0016890086 0.062493324 0.65847933
-0.0016933699 0.060961336 0.65900576
-0.0016977597 0.059421569 0.65953565
-0.0017021665 0.057873666 0.66006756
-0.0017065961 0.056317687 0.66060233
-0.0017111192 0.054755777 0.66114831
-0.0017157545 0.053188413 0.66170782
-0.0017204151 0.051612467 0.66227043
-0.001725101 0.050027937 0.66283607
-0.0017298185 0.048434943 0.66340548
-0.0017345558 0.046833009 0.66397732
-0.0017393555 0.045223266 0.66455668
-0.0017443033 0.043607593 0.66515398
-0.0017492856 0.041982859 0.66575539
-0.0017542964 0.040348828 0.66636026
-0.0017593359 0.038705349 0.66696858
-0.0017643982 0.037052393 0.66757959
-0.0017695149 0.035390317 0.66819727
-0.0017747999 0.033721209 0.66883522
-0.0017801226 0.032042235 0.6694777
-0.0017854775 0.030353099 0.67012411
-0.0017908583 0.028653741 0.67077368
-0.0017962782 0.02694419 0.67142785
-0.0018017504 0.025224537 0.67208838
-0.001807406 0.0234963 0.6727711
-0.0018130908 0.021757096 0.67345738
-0.001818818 0.020007014 0.67414868
-0.0018245749 0.018245757 0.67484361
-0.0018303752 0.016473413 0.67554379
-0.0018362661 0.014690131 0.67625487
-0.0018423174 0.01289624 0.67698526
-0.0018484087 0.011090457 0.67772061
-0.0018545402 0.0092727244 0.67846072
-0.0018607058 0.007442832 0.679205
-0.0018669195 0.0056007504 0.67995507
-0.001873308 0.0037466586 0.68072617
-0.0018797898 0.0018797815 0.68150866
-0.0018863166 -0 0.68229645
-0.0018928889 -0.0018928945 0.68308979
-0.0018995143 -0.0037990212 0.68388963
-0.0019062445 -0.005718708 0.68470198
-0.0019131615 -0.0076526403 0.68553698
-0.0019201288 -0.0096006691 0.686378
-0.0019271472 -0.011562914 0.68722516
-0.0019342094 -0.013539433 0.68807763
-0.0019413236 -0.015530556 0.68893635
-0.0019483007 -0.017534703 0.68977863
-0.0019551066 -0.019551069 0.69060016
-0.0019615218 -0.021576732 0.69137454
-0.0019675225 -0.023610294 0.69209898
-0.0019733035 -0.025652915 0.69279671
-0.0019786174 -0.027700633 0.69343817
-0.0019832368 -0.029748529 0.69399577
-0.001987909 -0.031806529 0.69455981
-0.0019926592 -0.033875197 0.69513315
-0.0019974399 -0.035953909 0.69571024
-0.0020032139 -0.038061053 0.6964072
-0.002009158 -0.040183127 0.69712472
-0.002015146 -0.042318046 0.69784755
-0.0020219292 -0.04448244 0.69866633
-0.0020289475 -0.046665758 0.69951349
-0.0020751783 -0.0498043 0.70509416
-0.002084611 -0.052115291 0.70623273
-0.0020941733 -0.054448515 0.70738703
-0.0021038237 -0.056803226 0.70855194
-0.0021135637 -0.059179783 0.70972764
-0.0021237277 -0.061588109 0.71095449
-0.0021340081 -0.064020276 0.71219552
-0.0021443884 -0.066476047 0.71344852
-0.0021550094 -0.068960309 0.71473062
-0.0021659988 -0.07147795 0.71605712
-0.0021771009 -0.074021429 0.71739727
-0.0021883843 -0.076593459 0.7187593
-0.0022001625 -0.079205841 0.72018105
-0.0022120879 -0.081847221 0.72162044
-0.0022242912 -0.084523082 0.72309369
-0.0022370103 -0.087243408 0.72462893
-0.0022530765 -0.090123087 0.72656834
0 0.090364248 0.69172686
0 0.074860692 0.65540856
0 0.073363185 0.6558643
0 0.071864903 0.65633893
0 0.070359349 0.65681505
0 0.068846852 0.65729427
0 0.067326963 0.65777493
0 0.065800041 0.65825862
0 0.064266503 0.65874666
0 0.062731147 0.65925509
0 0.061188102 0.65976608
0 0.059637308 0.66027963
0 0.058078766 0.66079569
0 0.056512386 0.66131437
0 0.054938048 0.66183573
0 0.053360939 0.66237968
0 0.051775515 0.66292655
0 0.050181895 0.66347694
0 0.048579663 0.6640296
0 0.046968937 0.66458517
0 0.045349836 0.66514444
0 0.043725431 0.66572291
0 0.042092621 0.66630751
0 0.040450811 0.66689539
0 0.038799793 0.66748655
0 0.037139744 0.66808176
0 0.035470217 0.66867954
0 0.033793867 0.66929668
0 0.032108366 0.66992128
0 0.030413181 0.67055029
0 0.028707981 0.67118299
0 0.026992828 0.67181933
0 0.025267452 0.67245871
0 0.023533762 0.67311925
0 0.021789849 0.673787
0 0.020035326 0.67445958
0 0.018269956 0.67513555
0 0.016493738 0.67581642
0 0.014706492 0.67650157
0 0.012909323 0.67721069
0 0.01110062 0.67792517
0 0.009280324 0.67864513
0 0.007448256 0.67936885
0 0.0056042969 0.68009812
0 0.0037484467 0.68083715
0 0.0018805265 0.68159813
0 -0 0.68236434
0 -0.0018932819 0.68313569
0 -0.0037994087 0.68391222
0 -0.0057185292 0.68469411
0 -0.0076513886 0.68549812
0 -0.0095980167 0.68631399
0 -0.011558414 0.68713558
0 -0.013532877 0.68796396
0 -0.015521348 0.68879735
0 -0.017525017 0.68964869
0 -0.019544423 0.69051999
0 -0.021578848 0.69139773
0 -0.023628473 0.69228202
0 -0.025693476 0.69317305
0 -0.027773559 0.69406694
0 -0.029865712 0.69493884
0 -0.031968355 0.69578052
0 -0.034077406 0.69656903
0 -0.036194801 0.69732553
0 -0.03831476 0.69801909
0 -0.040437281 0.69865847
0 -0.042558879 0.6992318
0 -0.044694304 0.69982874
0 -0.046839952 0.70042759
0 -0.049650669 0.7043215
0 -0.051939547 0.70538431
0 -0.054252565 0.70647722
0 -0.056589097 0.70759457
0 -0.058946222 0.70872074
0 -0.061324954 0.70985919
0 -0.063729137 0.71102417
0 -0.066161305 0.71222293
0 -0.068616331 0.71343303
0 -0.071094781 0.71465558
0 -0.073604137 0.71591574
0 -0.076142848 0.71720529
0 -0.078706801 0.71850765
0 -0.081298053 0.71982884
0 -0.083929449 0.72120804
0 -0.086588383 0.72260159
0 -0.089274824 0.72400862
0.001951652 0.089776009 0.69018316
0.0016727577 0.07527408 0.65651762
0.0016763445 0.073759139 0.65695059
0.0016799861 0.072239399 0.65739018
0.0016837965 0.070719451 0.65785015
0.0016876241 0.069192588 0.6583122
0.0016914695 0.067658782 0.65877628
0.0016953322 0.066117942 0.65924263
0.0016992068 0.064569861 0.65971035
0.001703163 0.06301707 0.66018784
0.0017072659 0.061461598 0.66068316
0.0017113825 0.059898376 0.66118008
0.0017155193 0.058327645 0.66167939
0.0017196819 0.056749493 0.66218191
0.0017238589 0.055163503 0.66268605
0.0017281158 0.053571612 0.66319996
0.0017325138 0.051975429 0.66373086
0.0017369343 0.05037111 0.66426444
0.0017413773 0.048758537 0.66480076
0.0017458432 0.047137767 0.66533983
0.0017503321 0.045508623 0.66588163
0.0017548931 0.043872297 0.66643226
0.0017596082 0.042230576 0.66700137
0.0017643422 0.040579885 0.66757286
0.0017691019 0.038920254 0.66814744
0.0017738874 0.037251651 0.66872507
0.0017787052 0.035574138 0.66930664
0.0017835937 0.03388831 0.66989672
0.0017886305 0.032195359 0.67050469
0.001793696 0.030492812 0.67111617
0.0017987902 0.028780639 0.67173111
0.0018039199 0.02705881 0.67235029
0.0018090724 0.025327027 0.67297226
0.0018143136 0.023586065 0.67360497
0.0018197044 0.02183646 0.67425567
0.0018251208 0.020076334 0.67490947
0.001830576 0.018305779 0.67556798
0.001836064 0.016524583 0.67623049
0.0018415852 0.014732689 0.67689693
0.0018472213 0.012930542 0.67757726
0.0018529812 0.011117905 0.67827255
0.0018587841 0.0092939138 0.67897308
0.0018646166 0.0074584782 0.67967707
0.0018704927 0.0056114793 0.68038642
0.0018764061 0.0037528276 0.68110019
0.0018824914 0.0018824935 0.6818347
0.0018886591 -0 0.68257922
0.0018948746 -0.0018948615 0.68332946
0.001901131 -0.0038022697 0.68408471
0.0019074216 -0.0057222545 0.68484408
0.0019137907 -0.0076551437 0.68561286
0.0019203647 -0.0096018016 0.68640637
0.0019269838 -0.0115619 0.68720543
0.0019336488 -0.013535529 0.68800998
0.0019403601 -0.015522867 0.68882006
0.0019471181 -0.017524064 0.68963587
0.0019540833 -0.019540817 0.69047666
0.0019611372 -0.02157253 0.69132817
0.0019682425 -0.023618907 0.69218576
0.001975399 -0.025680184 0.69304973
0.0019826158 -0.027756602 0.69392085
0.0019900121 -0.029850185 0.69481367
0.0019975516 -0.031960815 0.69572371
0.0020051482 -0.034087509 0.69664073
0.0020128032 -0.036230445 0.69756478
0.0020205167 -0.038389802 0.69849586
0.0020282236 -0.040564477 0.69942611
0.0020356914 -0.042749524 0.70032763
0.0020428393 -0.044942468 0.70119047
0.0020558492 -0.047284514 0.70276082
0.0020642714 -0.049542516 0.70377755
0.0020727627 -0.051819056 0.70480251
0.0020813332 -0.05411464 0.70583701
0.0020900881 -0.056432396 0.70689386
0.0020990756 -0.058774084 0.70797873
0.0021081318 -0.061135828 0.70907193
0.0021172932 -0.063518792 0.71017784
0.0021265619 -0.065923423 0.71129668
0.002136149 -0.068356752 0.7124539
0.0021458415 -0.070812792 0.71362394
0.0021556688 -0.073292732 0.71481013
0.0021655771 -0.075795174 0.71600616
0.0021758606 -0.078330964 0.71724755
0.0021862902 -0.080892742 0.71850652
0.0021968202 -0.083479166 0.71977758
0.0022075495 -0.086094439 0.72107267
0.0022186595 -0.088746369 0.72241384
0.0038714118 0.089042485 0.68825835
0.0033675362 0.075769544 0.65784669
0.0033743719 0.074236184 0.65825927
0.0033812358 0.072696596 0.65867352
0.0033881273 0.071150661 0.65908951
0.0033953697 0.069605052 0.65952665
0.0034027584 0.068055153 0.65997255
0.0034101799 0.066498518 0.66042048
0.0034176337 0.064935058 0.66087031
0.0034251201 0.063364714 0.66132218
0.0034326862 0.06178835 0.66177893
0.0034406409 0.060211241 0.66225898
0.0034486325 0.058626741 0.6627413
0.0034566615 0.05703491 0.66322589
0.0034647274 0.055435658 0.66371274
0.0034728197 0.053828686 0.66420114
0.0034811071 0.052216619 0.66470128
0.003489665 0.050600141 0.66521788
0.0034982776 0.048975855 0.66573769
0.0035069203 0.047343433 0.66625929
0.0035156184 0.045703053 0.66678429
0.0035243474 0.044054329 0.66731113
0.003533307 0.042399704 0.66785192
0.0035425003 0.040738761 0.66840667
0.0035517414 0.039069116 0.66896451
0.0035610308 0.037390828 0.66952515
0.003570369 0.035703689 0.67008877
0.0035797565 0.034007668 0.67065537
0.003589412 0.032304704 0.67123806
0.0035992626 0.030593753 0.67183262
0.0036091669 0.028873354 0.6724304
0.0036191393 0.027143538 0.67303234
0.0036291536 0.025404066 0.67363673
0.0036392238 0.023654938 0.67424452
0.0036496159 0.021897703 0.67487174
0.003660161 0.020130903 0.6755082
0.0036707679 0.01835385 0.6761483
0.0036814495 0.016566485 0.67679304
0.0036921799 0.01476872 0.6774407
0.003702973 0.012960404 0.67809212
0.0037141603 0.011142492 0.67876732
0.003725457 0.009313643 0.67944914
0.0037368084 0.0074736178 0.6801343
0.0037482437 0.0056223571 0.68082446
0.003759749 0.0037597418 0.68151891
0.0037713822 0.0018856823 0.68222094
0.0037833878 -0 0.68294549
0.0037954841 -0.0018977821 0.68367565
0.0038076439 -0.0038076341 0.68440956
0.0038198966 -0.0057298541 0.68514907
0.003832228 -0.0076644719 0.68589336
0.0038448463 -0.0096121132 0.68665493
0.0038577113 -0.011573136 0.6874314
0.0038706781 -0.013547361 0.688214
0.0038837322 -0.015534937 0.68900192
0.0038968592 -0.017535895 0.68979418
0.0039101369 -0.019550681 0.69059557
0.0039238585 -0.021581203 0.69142377
0.0039376775 -0.023626059 0.69225776
0.0039515938 -0.02568534 0.69309771
0.0039656088 -0.027759254 0.69394362
0.0039797234 -0.02984792 0.69479549
0.003994274 -0.031954199 0.6956737
0.0040090275 -0.03407672 0.6965642
0.0040238742 -0.036214858 0.69746017
0.0040388317 -0.038368881 0.69836301
0.0040539005 -0.040538996 0.69927245
0.0040694461 -0.042729169 0.70021075
0.0040852115 -0.044937313 0.70116222
0.0041069733 -0.047230184 0.70247579
0.0041229972 -0.049475968 0.70344281
0.0041392157 -0.051740199 0.70442164
0.0041559068 -0.054026753 0.70542908
0.0041727335 -0.056331873 0.70644462
0.004189732 -0.058656245 0.70747066
0.0042072409 -0.061004966 0.70852739
0.0042248787 -0.063373178 0.70959193
0.0042427015 -0.065761864 0.71066761
0.0042607659 -0.068172246 0.7117579
0.0042792037 -0.070606858 0.71287072
0.0042980425 -0.073066711 0.71400774
0.004317122 -0.075549632 0.7151593
0.0043363906 -0.078055084 0.7163223
0.0043559647 -0.080585361 0.71750367
0.0043761753 -0.083147287 0.71872348
0.0043965937 -0.085733593 0.71995586
0.0044172038 -0.088344067 0.72119981
0.0044578169 -0.091385245 0.72365093
0.0050823116 0.077928782 0.65909433
0.0050911196 0.076366812 0.65944874
0.005100756 0.074811101 0.65983647
0.0051104808 0.073250234 0.66022778
0.0051202425 0.071683377 0.66062057
0.0051300423 0.070110589 0.66101491
0.005139879 0.068531752 0.66141069
0.0051503899 0.06695506 0.66183364
0.0051610502 0.065373302 0.66226256
0.0051717549 0.063784987 0.66269326
0.0051825037 0.062190026 0.66312575
0.0051932978 0.060588449 0.66356009
0.0052044974 0.058984309 0.6640107
0.0052160718 0.057376802 0.66447645
0.005227698 0.055762112 0.66494423
0.0052393759 0.05414024 0.66541415
0.0052511063 0.052511066 0.6658861
0.0052629071 0.05087477 0.66636097
0.0052753924 0.049236983 0.66686332
0.0052879178 0.047591269 0.66736728
0.0053005032 0.045937687 0.66787368
0.0053131292 0.044276118 0.66838175
0.0053258352 0.042606711 0.66889298
0.0053388486 0.040931135 0.66941661
0.0053522885 0.039250106 0.6699574
0.0053657764 0.037560433 0.6705001
0.0053793523 0.035862386 0.67104638
0.005392978 0.034155548 0.67159462
0.0054066917 0.032440156 0.67214638
0.0054208473 0.030718148 0.67271596
0.005435274 0.028988123 0.67329651
0.0054497784 0.027248919 0.6738801
0.0054643597 0.025500327 0.67446673
0.0054790191 0.023742437 0.6750567
0.0054937582 0.02197504 0.67564964
0.0055090813 0.020199955 0.67626625
0.005524552 0.018415153 0.6768887
0.0055401297 0.016620398 0.67751557
0.005555775 0.01481542 0.67814505
0.0055715092 0.01300019 0.67877811
0.0055874367 0.011174887 0.67941904
0.0056039155 0.0093398988 0.68008208
0.0056204922 0.0074939728 0.68074906
0.0056371666 0.0056371689 0.68142003
0.005653962 0.0037693381 0.68209577
0.0056708367 0.0018902719 0.68277478
0.0056880703 -0 0.68346816
0.0057057347 -0.0019018948 0.68417895
0.005723509 -0.0038156509 0.68489414
0.0057413727 -0.0057413578 0.68561292
0.0057593696 -0.0076791644 0.68633705
0.0057774805 -0.0096291304 0.68706578
0.0057961978 -0.011592388 0.68781894
0.0058151037 -0.01356858 0.68857968
0.0058341566 -0.015557766 0.68934625
0.0058533126 -0.017559946 0.690117
0.005872617 -0.019575387 0.69089383
0.0058922577 -0.021604925 0.69168407
0.0059124022 -0.023649603 0.69249463
0.0059327087 -0.025708407 0.69331169
0.005953155 -0.027781397 0.69413441
0.0059737433 -0.029868722 0.69496274
0.005994474 -0.031970531 0.69579697
0.006015976 -0.034090519 0.69666207
0.006037632 -0.036225766 0.69753349
0.0060594459 -0.03837648 0.69841117
0.0060814172 -0.040542781 0.69929522
0.0061035487 -0.042724848 0.70018572
0.0061264164 -0.044927061 0.70110589
0.0061583119 -0.047213703 0.70238924
0.0061816182 -0.049452931 0.70332706
0.0062051271 -0.051709384 0.70427293
0.0062288679 -0.05398348 0.70522821
0.0062533636 -0.056280255 0.70621383
0.0062781316 -0.058595896 0.70721042
0.0063030967 -0.060929924 0.70821494
0.0063282615 -0.063282579 0.7092275
0.0063540577 -0.065658599 0.71026546
0.0063802823 -0.068056375 0.7113207
0.006406724 -0.070473969 0.71238458
0.0064334692 -0.072912663 0.71346074
0.0064609656 -0.075377911 0.71456707
0.0064888117 -0.07786572 0.71568757
0.0065169828 -0.080376089 0.71682107
0.0065454002 -0.082908422 0.71796447
0.0065745846 -0.085469604 0.71913874
0.0066043786 -0.088058382 0.72033763
0.0066467538 -0.090838939 0.72204262
0.0068457178 0.078725755 0.66118574
0.0068563884 0.077134341 0.66150773
0.0068670684 0.075537771 0.66183007
0.0068778056 0.073936433 0.66215408
0.0068888138 0.072332591 0.66248626
0.0069009513 0.070734769 0.66285253
0.0069131553 0.069131553 0.66322088
0.0069253794 0.067522436 0.66358972
0.0069376458 0.065907657 0.66395992
0.0069505842 0.064292908 0.66435033
0.006964128 0.062677175 0.66475904
0.0069777239 0.061055094 0.66516936
0.0069913738 0.059426695 0.66558129
0.0070050773 0.057791889 0.66599482
0.0070193755 0.056155026 0.6664263
0.0070342277 0.054515243 0.66687453
0.0070491419 0.052868545 0.6673246
0.0070641194 0.051214874 0.66777658
0.0070791612 0.049554169 0.66823053
0.0070945942 0.047888517 0.66869622
0.0071107256 0.046219707 0.66918302
0.0071269306 0.044543296 0.66967213
0.007143185 0.042859137 0.67016262
0.0071595381 0.041167349 0.67065609
0.0071759666 0.039467871 0.67115188
0.0071933246 0.037764966 0.67167568
0.0072108181 0.036054105 0.6722036
0.0072283703 0.034334749 0.67273331
0.0072459825 0.03260693 0.6732648
0.0072637075 0.030870765 0.67379963
0.0072819162 0.029127687 0.67434919
0.0073006428 0.027377367 0.6749143
0.0073194928 0.025618225 0.67548311
0.007338413 0.023849845 0.67605412
0.0073574586 0.022072375 0.67662883
0.0073765758 0.020285577 0.6772058
0.0073965034 0.018491238 0.67780715
0.0074166488 0.016687453 0.67841506
0.0074369051 0.014873803 0.67902637
0.0074572717 0.013050258 0.67964101
0.0074777221 0.011216581 0.68025815
0.0074985097 0.0093731582 0.68088549
0.0075200065 0.00752002 0.68153417
0.0075416272 0.0056562424 0.68218666
0.0075633726 0.0037817061 0.68284285
0.0075852433 0.0018963218 0.68350285
0.00760727 -2.9802322e-08 0.68416762
0.0076298616 -0.0019074678 0.68484938
0.007652909 -0.0038264394 0.68554485
0.0076760971 -0.0057570338 0.68624461
0.0076994253 -0.0076994002 0.6869486
0.0077229254 -0.0096536875 0.68765783
0.00774654 -0.011619806 0.68837047
0.0077711134 -0.013599455 0.68911201
0.0077958442 -0.015591711 0.68985832
0.007820732 -0.017596662 0.69060934
0.0078457482 -0.019614339 0.69136429
0.0078709563 -0.021645129 0.69212508
0.0078967633 -0.023690253 0.69290388
0.0079230852 -0.025750011 0.69369817
0.0079496149 -0.027823657 0.69449878
0.0079762908 -0.029911131 0.69530386
0.0080031781 -0.032012671 0.6961152
0.0080303764 -0.034129113 0.69693601
0.0080584744 -0.036263138 0.69778389
0.0080867363 -0.038411975 0.69863677
0.0081152301 -0.04057613 0.69949669
0.008143926 -0.042755634 0.70036268
0.0081727915 -0.044950366 0.70123374
0.0082144188 -0.047232896 0.70248991
0.00824467 -0.049468011 0.70340288
0.0082751103 -0.051719457 0.7043215
0.0083057778 -0.053987563 0.70524693
0.0083367415 -0.056273013 0.70618141
0.0083687073 -0.058580965 0.70714605
0.0084009897 -0.060907155 0.70812023
0.0084335571 -0.063251674 0.70910305
0.0084663425 -0.065614164 0.71009243
0.008499817 -0.067998558 0.7111026
0.0085340301 -0.070405751 0.71213508
0.0085684834 -0.072832108 0.71317482
0.0086033642 -0.075279474 0.71422744
0.0086386409 -0.077747762 0.71529198
0.0086749988 -0.080243737 0.71638918
0.008711664 -0.082760811 0.71749562
0.0087486394 -0.085299224 0.71861148
0.0087860469 -0.087860495 0.71974039
0.0088345241 -0.09055388 0.72120327
0.0086084092 0.079197377 0.66242325
0.0086321719 0.077689528 0.66299701
0.0086532505 0.076148599 0.66350585
0.0086744027 0.074599892 0.66401649
0.0086956592 0.073043555 0.66452968
0.0087144682 0.071458668 0.66498381
0.0087311966 0.069849581 0.66538763
0.0087479576 0.068234086 0.66579229
0.0087620812 0.066591799 0.66613328
0.0087760659 0.064942926 0.66647089
0.0087900963 0.063288689 0.66680962
0.0088041406 0.061628968 0.66714871
0.0088193789 0.05997178 0.66751653
0.0088353259 0.058313161 0.66790158
0.0088512991 0.056648344 0.66828716
0.0088673625 0.054977655 0.66867501
0.0088835778 0.053301483 0.66906649
0.0089012785 0.051627427 0.66949379
0.0089190491 0.049946666 0.66992283
0.0089368904 0.048259228 0.67035359
0.0089548044 0.046564966 0.67078602
0.0089730797 0.0448654 0.67122722
0.0089924959 0.043164015 0.67169601
0.0090119969 0.041455179 0.67216676
0.0090315817 0.039738923 0.67263961
0.0090512522 0.038015276 0.67311448
0.0090711731 0.036284685 0.67359543
0.0090922723 0.034550637 0.67410481
0.0091134701 0.032808483 0.67461658
0.0091347666 0.031058192 0.67513067
0.0091561629 0.029299736 0.67564726
0.0091776596 0.027533025 0.67616624
0.0092002731 0.02576077 0.67671216
0.0092231333 0.0239802 0.67726403
0.0092461426 0.02219072 0.67781955
0.0092691975 0.020392239 0.67837614
0.0092924023 0.018584818 0.67893636
0.0093162786 0.01676929 0.67951274
0.0093408357 0.014945358 0.68010569
0.0093654878 0.013111681 0.68070078
0.0093903057 0.011268377 0.68129998
0.0094152195 0.0094152391 0.68190145
0.0094403382 0.0075522959 0.68250781
0.0094665932 0.0056799352 0.68314171
0.0094929952 0.0037971735 0.68377912
0.0095195081 0.0019039214 0.68441916
0.0095462063 -2.9802322e-08 0.68506372
0.0095730554 -0.0019146204 0.68571192
0.0096006077 -0.0038402379 0.68637711
0.0096287997 -0.0057772994 0.68705773
0.0096571594 -0.0077257156 0.68774235
0.009685724 -0.009685725 0.68843198
0.00971442 -0.011657327 0.68912482
0.0097433245 -0.013640642 0.68982261
0.0097733941 -0.015637398 0.69054854
0.00980365 -0.017646551 0.69127899
0.009834094 -0.019668162 0.69201392
0.009864727 -0.021702379 0.69275355
0.0098955911 -0.023749411 0.69349861
0.0099272011 -0.025810719 0.69426173
0.0099594882 -0.027886599 0.69504124
0.0099919857 -0.029975951 0.69582587
0.010024698 -0.032079041 0.69661558
0.010057623 -0.03419593 0.69741046
0.01009097 -0.036327451 0.69821548
0.010125358 -0.038476348 0.69904566
0.010160021 -0.040640056 0.69988251
0.010194883 -0.042818516 0.70072412
0.010230025 -0.045012087 0.7015726
0.010280217 -0.047289014 0.70278424
0.010316802 -0.049520642 0.70366758
0.010353863 -0.051769316 0.70456231
0.010391149 -0.054033965 0.70546246
0.010428702 -0.056314945 0.70636904
0.01046653 -0.058612555 0.7072823
0.010505646 -0.060932755 0.70822668
0.010545146 -0.063270867 0.7091803
0.010584989 -0.065626919 0.71014214
0.010625178 -0.068001121 0.71111238
0.010665901 -0.070394933 0.71209556
0.010707808 -0.072813094 0.71310729
0.010749999 -0.07524997 0.71412581
0.010792525 -0.077706158 0.7151525
0.010835529 -0.08018294 0.71619076
0.010879776 -0.082686305 0.71725893
0.010924625 -0.085212082 0.71834171
0.010969797 -0.087758362 0.71943223
0.011031468 -0.090458035 0.72092122
0.010945494 0.085739702 0.67480421
0.010345898 0.079318553 0.6627413
0.010375037 0.077812761 0.66332757
0.010404342 0.076298505 0.66391712
0.010433812 0.074775666 0.66451001
0.010463413 0.073243916 0.66510552
0.010493255 0.071703911 0.66570592
0.010523048 0.070153683 0.6663053
0.010552973 0.068594337 0.66690731
0.010583068 0.067026049 0.66751283
0.010612136 0.065441549 0.66809762
0.010638685 0.063832134 0.66863173
0.01066533 0.062214464 0.66916782
0.010692034 0.060588181 0.66970503
0.010714128 0.058927685 0.67014956
0.010735161 0.057254195 0.6705727
0.010754966 0.055567324 0.67097116
0.010772525 0.053862631 0.67132437
0.010790103 0.052152216 0.67167801
0.010807777 0.050436288 0.67203367
0.010825705 0.048715681 0.67239428
0.010845729 0.046998143 0.67279714
0.010865827 0.045274317 0.67320144
0.010885961 0.043543845 0.67360651
0.010906208 0.041807145 0.67401385
