# .PCD v0.7 - Point Cloud Data file format
VERSION 0.7
FIELDS x y z
SIZE 4 4 4
TYPE F F F
COUNT 1 1 1
WIDTH 231
HEIGHT 1
VIEWPOINT 0 0 0 1 0 0 0
POINTS 231
DATA ascii
0.0162105 -0.079251304 0.67201793
0.01083653 -0.074049622 0.67261207
0.0036285219 -0.078013211 0.67359859
0.023678891 -0.07832247 0.67446679
0.0036488438 -0.065679222 0.67482513
0.0054678032 -0.063791037 0.67460537
0.010927089 -0.061920166 0.67443395
-0.001830864 -0.080558002 0.67560273
0.0091488976 -0.054893374 0.67547184
0.0055009252 -0.053175569 0.67593801
0.010997136 -0.053152829 0.67584318
-0.0073397318 -0.078902081 0.67609388
-0.0073397318 -0.078902081 0.67609388
0.023857892 -0.071573675 0.67612886
0.0073551061 -0.04780817 0.6765579
0.0073551061 -0.04780817 0.6765579
-0.0092462786 -0.072120965 0.67782283
-0.001842738 -0.066338569 0.67703605
-0.001843743 -0.064530998 0.6771574
0.027740989 -0.062879562 0.67784011
0.0036942791 -0.042484194 0.67756736
-0.0092836432 -0.057558566 0.67872494
-0.0018583836 -0.042742819 0.67892474
0.0055699795 -0.033419877 0.6787166
0.0074284859 -0.033428192 0.67877233
0 -0.035342634 0.67913651
-0.0056029325 -0.050426394 0.68004245
0.022453047 -0.048648238 0.68045813
-0.0075017982 -0.045010805 0.68098474
-0.0075017982 -0.045010805 0.68098474
0.018677277 -0.042957723 0.68005264
0.0075004767 -0.020626277 0.6809448
0.02250725 -0.045014471 0.68100333
-0.011269594 -0.039443552 0.6813246
0.018788438 -0.037576854 0.68139446
-0.0018777158 -0.020654827 0.68125826
0 -0.015048057 0.68165535
0 -0.015048057 0.68165535
0.0056431643 -0.015048414 0.68166131
0.0056431643 -0.015048414 0.68166131
-0.01134506 -0.0302535 0.68284285
0.016965145 -0.030160248 0.68213946
0 -0.009436518 0.6824159
0 -0.0056751966 0.68294907
0.018932041 -0.030291229 0.68312782
0.020821461 -0.030285716 0.68308634
-0.0094976444 -0.024693847 0.6838913
0 -2.9802322e-08 0.68377823
0 -2.9802322e-08 0.68377823
-0.011473836 -0.015298486 0.68543375
-0.0095503246 -0.0076402426 0.68516314
-0.001910663 0.0095533431 0.68523532
0.017275194 -0.0095973015 0.68629795
-0.01345417 -0.0076881051 0.68660676
0.017305864 -0.0057685971 0.68670934
0.0095973294 0.0038389266 0.68629795
0.0096146278 0.0057688057 0.6867156
-0.0038410684 0.01728484 0.68642688
-0.01160019 0.015466928 0.6879757
0 0.021190643 0.68713737
-0.013537738 0.0038679242 0.68804789
-0.017415021 0.0058050156 0.68817335
0.015513075 0.0077565312 0.68867213
0.017443554 0.0077526867 0.68855608
-0.019401042 0.0097005367 0.68878925
-0.019495685 0.017546088 0.68993163
0.013652458 0.015602797 0.69002616
0.015623576 0.019529492 0.69033945
0.0097884992 0.023492396 0.6909132
-0.0019554505 0.043019921 0.69064164
-0.0097825667 0.044999808 0.69076997
-0.017649405 0.02353254 0.69131702
0.013755025 0.029475093 0.69179481
0.0058788038 0.033313215 0.69114274
0.0138213 0.035540491 0.69293773
-0.021771764 0.039585054 0.69351465
-0.021771764 0.039585054 0.69351465
0 0.051350236 0.69300258
-0.015827375 0.053417385 0.69341457
-0.0059385523 0.061365008 0.69354683
0.0099203121 0.043649375 0.69409543
0.0059507713 0.045622557 0.69403851
-0.017863007 0.053589016 0.69418192
-0.0099544553 0.071672082 0.69491976
-0.0099544553 0.071672082 0.69491976
-0.019919215 0.051789939 0.6950441
-0.019919215 0.051789939 0.6950441
-0.017965771 0.067870677 0.69556022
0.0060274014 0.056255728 0.6971218
-0.022134246 0.07042715 0.69749248
0 0.076775908 0.69848406
0.0020357743 0.079395235 0.70033759
0 0.083368093 0.70004702
-0.028725 0.065657169 0.70227033
0.010317143 0.063966304 0.70367581
0.0041462989 0.089145422 0.70484912
-0.031301245 0.056342244 0.70649087
-0.03126239 0.058356494 0.70617825
-0.036273032 0.083214581 0.71215928
0.0090458198 -0.072366536 0.67298335
-0.0018285892 -0.082286507 0.67532814
0.020141937 -0.065919042 0.67562944
0.00183195 -0.062286288 0.67573386
0.01649667 -0.058654815 0.67585617
-0.003671845 -0.075272828 0.67621338
-0.003671845 -0.075272828 0.67621338
0.027554814 -0.075316504 0.67634195
0.027554814 -0.075316504 0.67634195
-0.0055071008 -0.07342802 0.67618656
0.029378749 -0.07344687 0.67624348
-0.0036923706 -0.06830883 0.67745221
-0.0036964624 -0.066536307 0.67769915
-0.0073957383 -0.062863737 0.67778403
0.02213658 -0.062720329 0.6772747
0.027740989 -0.062879562 0.67784011
-0.0018480537 -0.05728969 0.67767775
-0.0018492489 -0.05547744 0.67782199
0.0073723909 -0.044234335 0.67707956
0.011087953 -0.042503834 0.6776703
0.0055502905 -0.038852036 0.67792439
-0.0093062147 -0.05304487 0.67926985
0.022389667 -0.052242547 0.67982054
0.022389667 -0.052242547 0.67982054
0.012956809 -0.042572379 0.67803013
0.0074284859 -0.033428192 0.67877233
-0.0056145005 -0.044916004 0.68050796
-0.0094018448 -0.039487779 0.68157852
0.022567738 -0.039493561 0.68161178
-0.0037424404 -0.033681959 0.68047416
-0.0037571094 -0.024421215 0.68135953
0.0056125061 -0.02245003 0.68042773
-0.01319576 -0.035817057 0.68215066
-0.01134506 -0.0302535 0.68284285
-0.0094897542 -0.026571333 0.68370086
0.017067509 -0.024653047 0.68351245
0.0094495378 -0.01322937 0.68272996
-0.0018910361 -0.0075641274 0.68286616
-0.0056985002 -0.0056985319 0.68388784
0.022814527 -0.022814542 0.68409431
0.022814527 -0.022814542 0.68409431
-0.011432284 -0.020959198 0.68459773
-0.0095218997 -0.017139435 0.68447691
0.015314133 -0.011485606 0.68567038
-0.0076071252 -0.0095089078 0.68416321
0.0095459148 -0.0019091666 0.68505669
0.0038117629 0.0038117766 0.68465817
0.0076541095 0.0038270354 0.68558109
0.0057361946 0.0057362318 0.68540454
-0.0019129933 0.011477947 0.68551666
-0.011503953 -0.0095866323 0.68603957
0.017275194 -0.0095973015 0.68629795
-0.019300165 -0.0077200532 0.68757153
-0.011543852 0.0019239783 0.68684232
-0.009637963 0.015420735 0.68727899
0.015499018 0.0058121383 0.68846005
0.013592218 0.0077669621 0.68898737
-0.015550258 0.0097189248 0.68923318
0.0077793901 0.021393299 0.68936181
-0.011646586 0.025234252 0.68890917
-0.013641506 0.027283013 0.68983728
-0.0097197415 0.03304714 0.68925327
-0.017605659 0.019561827 0.69073027
-0.021582155 0.027468204 0.69143397
0.0078576077 0.031430423 0.69172221
-0.0019524822 0.041002125 0.69028336
-0.0039064889 0.042971373 0.69037539
-0.0098296888 0.05111438 0.69190764
-0.019709716 0.031535566 0.69251525
-0.019786173 0.037593722 0.69343817
-0.015800199 0.049375623 0.69300449
-0.0019735759 0.053286552 0.69282955
-0.011834219 0.055226386 0.69268405
-0.0039463891 0.055249453 0.69278359
-0.0099021317 0.063373655 0.69365656
-0.017905409 0.059684724 0.69475061
-0.015884403 0.061552048 0.69427502
-0.019996911 0.063990116 0.69598198
-0.0039777304 0.065632612 0.69467521
-0.0039777304 0.065632612 0.69467521
-0.017981913 0.069929689 0.6957767
-0.011930916 0.069597006 0.69462937
-0.015963396 0.071835309 0.695467
-0.0059933728 0.073918283 0.69575262
-0.0059933728 0.073918283 0.69575262
-0.0099953394 0.07796365 0.69590676
0.0040040067 0.058058113 0.69626117
-0.018085908 0.082391351 0.69717151
-0.0080289589 0.082296818 0.69689322
-0.016105341 0.088579357 0.69760877
-0.024210319 0.058508307 0.6981349
-0.024210319 0.058508307 0.6981349
-0.024210319 0.058508307 0.6981349
-0.020199375 0.088877261 0.69842595
-0.026437314 0.0650765 0.70007992
0.010317143 0.063966304 0.70367581
0.0082111163 0.067741722 0.70239031
0.0061701075 0.076098025 0.70286393
-0.028744096 0.084179163 0.70243496
0.0041344445 0.086823344 0.70413369
0.0020665817 0.09299618 0.70405644
0.012593079 0.065064251 0.70795113
0.013627524 -0.06631799 0.67392302
0.012824683 -0.054962933 0.67575169
-0.0018348926 -0.077065468 0.67608905
0.025190817 -0.050382569 0.67984664
0.013860729 -0.045735244 0.67766756
0.01304841 -0.034484282 0.67960972
-0.0065546632 -0.045876592 0.68063271
0.0065742508 -0.01784233 0.68131799
0.005696265 -0.0028474331 0.6837979
0.015221425 -0.017124087 0.68427151
-0.01828282 -0.010582827 0.68686241
-0.006666922 -0.0028562918 0.68449003
-0.019348377 -0.013543874 0.68815351
-0.021609524 0.029467523 0.69173431
0.013755025 0.029475093 0.69179481
0.00098115206 0.042137846 0.69117409
0.00098115206 0.042137846 0.69117409
0.015117238 0.030889403 0.69259751
0.010931611 0.046707079 0.69451129
-0.014800893 0.05031915 0.69279408
-0.024262024 0.069753572 0.69865501
-0.0020064646 0.073236927 0.69679964
-0.024312718 0.078003585 0.69916499
-0.017365156 0.077472679 0.69645417
-0.01709524 0.085472994 0.69736111
-0.01709524 0.085472994 0.69736111
0.0092250071 0.062489018 0.70190603
0.0013620922 0.082954936 0.70083344
-0.033862486 0.066665471 0.71007067
0.010528992 0.075808764 0.7087903
