# .PCD v0.7 - Point Cloud Data file format
VERSION 0.7
FIELDS x y z
SIZE 4 4 4
TYPE F F F
COUNT 1 1 1
WIDTH 1351
HEIGHT 1
VIEWPOINT 0 0 0 1 0 0 0
POINTS 1351
DATA ascii
-0.013184452 -0.026368886 0.71984863
-0.013357504 -0.028941244 0.7233302
-0.010860648 0.026065588 0.71679717
-0.010178706 0.022393137 0.70033365
-0.0099038575 0.019807726 0.69369817
-0.0097386595 0.017529607 0.68971002
-0.0096190264 0.015390456 0.6868217
-0.0095327115 0.013345778 0.68473798
-0.0094667729 0.011360109 0.68314606
-0.0094173821 0.0094173849 0.68195367
-0.0093596019 0.0074876547 0.68055868
-0.0091446834 0.0054868162 0.67537016
-0.0090821059 0.0036328435 0.67385936
-0.0090848431 0.001816988 0.67392546
-0.009139806 -2.9802322e-08 0.67525238
-0.0092947837 -0.0018589497 0.67899382
-0.0093944659 -0.0037577748 0.68140042
-0.0094332546 -0.0056599379 0.68233681
-0.0094832079 -0.0075865686 0.68354285
-0.0095458794 -0.0095458925 0.68505585
-0.0096230228 -0.011547625 0.68691826
-0.0097173629 -0.013604283 0.68919581
-0.0098373415 -0.015739739 0.69209242
-0.0099884756 -0.017979294 0.69574106
-0.010193096 -0.020386159 0.70068103
-0.010513505 -0.023129702 0.7084164
-0.010860648 -0.026065528 0.71679717
-0.011000377 -0.028600991 0.7201705
-0.0086692879 0.028175175 0.7162168
-0.008552081 0.025656253 0.7126798
-0.0079760049 0.021934003 0.69529521
-0.0077946601 0.019486636 0.68982255
-0.0076751844 0.017269164 0.68621713
-0.0075907381 0.015181512 0.68366867
-0.0075265677 0.013171494 0.68173218
-0.0074777496 0.01121664 0.68025899
-0.0074413843 0.0093016922 0.67916155
-0.0073815817 0.0073815882 0.67735684
-0.0072193751 0.0054145157 0.67246187
-0.0071790046 0.0035895109 0.67124355
-0.0071889837 0.0017972589 0.67154467
-0.007241054 -0 0.67311603
-0.0073692426 -0.0018422902 0.67698449
-0.0074335346 -0.003716737 0.67892468
-0.0074645304 -0.0055983961 0.67986006
-0.0075044143 -0.0075044036 0.68106365
-0.0075542373 -0.0094427764 0.68256724
-0.0076153455 -0.011423022 0.68441129
-0.0076906383 -0.01345861 0.68668342
-0.0077852607 -0.015570521 0.68953896
-0.007904998 -0.017786235 0.69315237
-0.0080667241 -0.020166814 0.69803286
-0.0083205905 -0.022881597 0.70569396
-0.0085896654 -0.025768965 0.71381402
-0.0086980341 -0.028268605 0.71708429
-0.0063960226 0.02771613 0.711954
-0.0061166799 0.024466753 0.70071411
-0.0058718813 0.021530241 0.69086421
-0.005754645 0.019182146 0.68614697
-0.0056752311 0.017025709 0.68295163
-0.0056167697 0.014978081 0.68059927
-0.0055721505 0.01300168 0.67880392
-0.0055383309 0.011076659 0.67744315
-0.0055133309 0.0091888905 0.67643726
-0.0054465551 0.0072620809 0.6737504
-0.0053452174 0.0053451955 0.66967285
-0.005323512 0.0035489798 0.66879952
-0.0053338399 0.0017779171 0.66921508
-0.0053789858 -0 0.67103165
-0.0054753623 -0.0018250942 0.67490947
-0.0055148299 -0.0036765039 0.67649752
-0.0055381679 -0.0055381656 0.67743659
-0.0055680168 -0.0074240267 0.67863756
-0.0056051295 -0.0093418658 0.6801309
-0.0056505357 -0.01130107 0.68195796
-0.0057068625 -0.013316035 0.68422437
-0.0057768356 -0.01540491 0.68703985
-0.0058658011 -0.017597377 0.69061953
-0.0059856535 -0.019952148 0.69544196
-0.0061741942 -0.022638738 0.70302832
-0.0063697505 -0.025479019 0.71089685
-0.0064485865 -0.027943909 0.71406901
-0.0042045009 0.027329266 0.70836198
-0.0039667403 0.023800462 0.69401193
-0.0038474184 0.021160841 0.68681014
-0.0037788015 0.018894017 0.68266881
-0.0037311241 0.016790062 0.67979121
-0.0036950156 0.014780074 0.67761183
-0.0036676731 0.012836874 0.67596155
-0.0036471949 0.010941595 0.67472565
-0.0036313527 0.0090783834 0.67376947
-0.0035683955 0.0071368217 0.66996968
-0.0035184491 0.0052776635 0.66695511
-0.0035094172 0.0035094023 0.66640997
-0.0035185232 0.0017592609 0.66695964
-0.0035521069 2.9802322e-08 0.6689865
-0.0036148119 -0.0018074214 0.6727711
-0.0036372 -0.0036371946 0.67412239
-0.0036528131 -0.0054792166 0.67506474
-0.0036726671 -0.0073453486 0.67626297
-0.0036972542 -0.0092431605 0.67774701
-0.003727233 -0.011181682 0.67955637
-0.0037646713 -0.013176352 0.68181592
-0.0038106889 -0.015242755 0.68459338
-0.003869436 -0.017412454 0.68813902
-0.0039483975 -0.019741982 0.69290477
-0.0040728911 -0.022400886 0.70041865
-0.0041992432 -0.02519542 0.70804465
-0.0042502335 -0.027626514 0.71112216
-0.0021058694 0.029482156 0.70879883
-0.0020733727 0.026953846 0.70487618
-0.0019407137 0.023288578 0.6888628
-0.0018921372 0.020813495 0.68299907
-0.0018621669 0.018621653 0.67938137
-0.0018400952 0.016560882 0.67671704
-0.0018238301 0.014590621 0.67475373
-0.0018113841 0.012679666 0.67325133
-0.0018018995 0.010811418 0.67210639
-0.0017935738 0.0089678764 0.67110145
-0.0017564641 0.0070258677 0.66662192
-0.0017384912 0.0052154958 0.66445237
-0.0017353499 0.0034706891 0.66407323
-0.0017417532 0.0017417669 0.66484618
-0.0017598619 2.9802322e-08 0.667032
-0.0017898525 -0.0017898679 0.67065227
-0.0017993335 -0.0035986304 0.67179668
-0.001807171 -0.0054215193 0.67274272
-0.0018170743 -0.0072682798 0.67393821
-0.0018292911 -0.0091464221 0.67541289
-0.0018441983 -0.011065215 0.67721236
-0.0018628048 -0.013039619 0.67945838
-0.0018854991 -0.015083998 0.68219781
-0.0019146036 -0.017231435 0.68571109
-0.0019536258 -0.019536227 0.6904214
-0.0020152838 -0.02216813 0.69786417
-0.002076522 -0.024918258 0.70525634
-0.0021012528 -0.027316302 0.70824158
0 0.028928965 0.70402861
0 0.026481748 0.70049268
0 0.022844583 0.68439651
0 0.02049315 0.67948347
0 0.018357098 0.67618734
0 0.016344249 0.67381167
0 0.014408231 0.67200148
0 0.012526333 0.67060667
0 0.010684311 0.66954964
0 0.0088557899 0.6683954
0 0.0069292784 0.66370761
0 0.0051553249 0.66203076
0 0.0034328997 0.66179234
0 0.0017246306 0.66277504
0 -2.9802322e-08 0.66527444
0 -0.0017722249 0.66852784
0 -0.0035609305 0.6695205
0 -0.0053650141 0.67046922
0 -0.0071928799 0.67166167
0 -0.0090517998 0.67312717
0 -0.010951698 0.67492956
0 -0.012905717 0.67714924
0 -0.01492849 0.67985165
0 -0.017054051 0.68333209
0 -0.019334704 0.68798834
0 -0.021940053 0.69536138
0 -0.024646997 0.70252758
0 -0.027012914 0.7054249
0.0020371503 0.028520077 0.70050371
0.0019373248 0.025185198 0.68845373
0.0018702272 0.022442728 0.68035424
0.0018351616 0.020186812 0.67612153
0.0018108073 0.01810807 0.67318165
0.0017927255 0.01613456 0.67099899
0.0017787936 0.0142304 0.66931731
0.0017680892 0.012376606 0.6680252
0.0017600228 0.010560155 0.66705143
0.0017477702 0.0087388456 0.66557246
0.0017092371 0.0068369508 0.6609211
0.0017030414 0.0051091313 0.66017318
0.0017015007 0.003403008 0.65998727
0.0017077669 0.0017077625 0.66074359
0.0017309855 2.9802322e-08 0.66354632
0.0017546593 -0.0017547011 0.66640401
0.0017620124 -0.0035240352 0.66729164
0.0017698967 -0.0053096712 0.66824335
0.0017797428 -0.0071189702 0.66943192
0.0017918011 -0.0089589953 0.67088741
0.0018067599 -0.010840565 0.67269313
0.0018249344 -0.012774527 0.67488694
0.0018470304 -0.0147762 0.67755419
0.0018755971 -0.016880393 0.68100256
0.0019137323 -0.019137353 0.68560588
0.0019742455 -0.021716714 0.69291043
0.002031798 -0.024381578 0.69985759
0.0020550976 -0.026716292 0.70267016
0.0040206895 0.028144836 0.69726801
0.003782358 0.024585307 0.68288344
0.0036800143 0.022080123 0.67670643
0.0036175691 0.019896656 0.67293751
0.0035736074 0.017868042 0.67028421
0.003540044 0.015930206 0.66825843
0.0035141988 0.014056832 0.66669858
0.0034944296 0.012230515 0.66550535
0.0034796181 0.010438859 0.66461152
0.0034459964 0.0086149871 0.66258222
0.0034308857 0.0068617463 0.66167021
0.0034277597 0.0051416159 0.66148156
0.0034246393 0.0034246743 0.66129315
0.0034215362 0.0017107725 0.66110587
0.0034339465 -0 0.66185498
0.0034742907 -0.0017371178 0.66428989
0.0034878529 -0.0034878552 0.66510844
0.0035036544 -0.0052554607 0.66606218
0.0035232925 -0.0070465803 0.66724741
0.003547536 -0.0088688433 0.66871065
0.00357721 -0.010731637 0.67050165
0.0036131286 -0.01264593 0.67266953
0.0036568975 -0.014627576 0.67531121
0.003713361 -0.016710132 0.67871904
0.0037887737 -0.018943906 0.68327069
0.0039086859 -0.021497756 0.69050801
0.0040203179 -0.024121881 0.6972456
0.0040655439 -0.026425987 0.69997519
0.0060183876 0.030091971 0.6967591
0.0059467163 0.027751356 0.69387531
0.0055625075 0.024104208 0.67841595
0.0054332875 0.021733135 0.67321652
0.0053514298 0.019621938 0.66992283
0.0052902848 0.017634302 0.66746253
0.0052439701 0.015731931 0.66559893
0.0052086329 0.01388967 0.66417718
0.0051891147 0.012107939 0.66339177
0.005173252 0.010346502 0.66275352
0.0051588151 0.0085980296 0.66217262
0.0051491531 0.0068655312 0.66178387
0.0051444764 0.0051444769 0.66159564
0.0051445295 0.0034296811 0.66159779
0.0051491885 0.0017164052 0.66178524
0.0051541389 -0 0.66198444
0.0051592407 -0.001719743 0.66218972
0.0051786238 -0.0034524202 0.66296971
0.0052023688 -0.005202353 0.66392505
0.0052319434 -0.006975919 0.66511506
0.0052683568 -0.0087805986 0.6665802
0.0053124148 -0.010624826 0.66835296
0.0053656995 -0.012519956 0.670497
0.005430948 -0.014482528 0.67312241
0.0055144448 -0.016543329 0.67648202
0.005626285 -0.018754274 0.68098211
0.005804535 -0.021283299 0.68815446
0.0059669041 -0.023867637 0.6946876
0.0060327793 -0.026142061 0.69733822
0.0079038423 0.029639393 0.6931175
0.0076170564 0.026659697 0.6844629
0.0072849905 0.023676217 0.67444193
0.0071382932 0.021414876 0.67001498
0.007038061 0.019354671 0.66699022
0.0069802064 0.017450541 0.66524434
0.0069274409 0.015586734 0.66365194
0.006882465 0.013764948 0.66229463
0.0068477793 0.011983603 0.66124791
0.0068214289 0.010232121 0.66045278
0.0068035508 0.0085044801 0.65991318
0.006792122 0.0067920983 0.65956837
0.0067870547 0.0050902665 0.65941542
0.0067881132 0.0033940673 0.65944737
0.0067950739 0.0016987622 0.65965742
0.0068079475 2.9802322e-08 0.66004592
0.0068262685 -0.0017065704 0.66059881
0.0068517174 -0.0034258664 0.66136676
0.0068841926 -0.0051631331 0.66234684
0.0069070244 -0.006907016 0.66303581
0.006955246 -0.0086940825 0.66449106
0.0070134476 -0.01052016 0.66624743
0.0070836963 -0.012396425 0.66836739
0.007170157 -0.014340311 0.67097658
0.0072799032 -0.016379803 0.67428845
0.0074274107 -0.018568546 0.67873991
0.0076629012 -0.021072984 0.68584639
0.0078728767 -0.023618639 0.69218302
0.0079581812 -0.025864094 0.69475728
0.0097518703 0.029255599 0.69002891
0.0092399949 0.025871992 0.67767113
0.008953331 0.023278654 0.67075044
0.0088064335 0.021135479 0.66720402
0.0087105548 0.019163251 0.66488934
0.0086239884 0.017248005 0.66279942
0.0085566491 0.015401959 0.6611737
0.0085043805 0.013607025 0.65991181
0.0084642712 0.011849999 0.65894347
0.0084335692 0.010120273 0.65820229
0.0084128948 0.0084128976 0.65770316
0.0084002968 0.0067202449 0.657399
0.0083954195 0.0050372481 0.65728128
0.0083978716 0.0033591688 0.65734047
0.008407495 0.0016814768 0.65757281
0.0084242551 2.9802322e-08 0.65797746
0.008448123 -0.0016896129 0.65855366
0.0084801661 -0.0033920407 0.65932727
0.0085207457 -0.0051124394 0.66030693
0.008570808 -0.0068566203 0.66151553
0.0086315759 -0.0086315572 0.66298258
0.0086812954 -0.010417581 0.66418296
0.008768131 -0.012275398 0.66627932
0.0088755731 -0.014200926 0.66887325
0.0090108281 -0.016219497 0.67213857
0.0091931736 -0.018386364 0.67654073
0.0094849328 -0.020866871 0.68358451
0.0097395321 -0.023374915 0.689731
0.0098430701 -0.025591969 0.6922307
0.011711146 0.031229734 0.69020796
0.011554516 0.028886259 0.68705684
0.010851806 0.025320888 0.67291933
0.01062577 0.023022503 0.66837192
0.010446009 0.020892024 0.6647554
0.010319652 0.018919349 0.66221333
0.01022284 0.017038077 0.66026556
0.010147684 0.015221536 0.65875363
0.010089536 0.013452709 0.65758371
0.010045077 0.011719227 0.65668929
0.010010877 0.010010868 0.65600121
0.0099882614 0.0083235502 0.65554625
0.0099750534 0.0066500604 0.65528047
0.0099707125 0.0049853325 0.65519321
0.0099749202 0.0033250153 0.65527779
0.0099874642 0.0016646087 0.65553015
0.01000834 -0 0.65595019
0.01003809 -0.001673013 0.65654874
0.010076803 -0.0033589602 0.65732759
0.010125507 -0.0050627589 0.65830737
0.010185349 -0.0067902207 0.65951133
0.010257735 -0.0085481107 0.66096765
0.010344864 -0.010344833 0.6627205
0.01044194 -0.012182266 0.66467357
0.010548116 -0.014064133 0.66680962
0.010708165 -0.01606226 0.67002958
0.010924663 -0.018207788 0.67438519
0.011271625 -0.020664632 0.68136549
0.011568006 -0.02313602 0.68732828
0.011688712 -0.025325537 0.68975663
0.013435232 0.030709088 0.68628019
0.013279863 0.028456867 0.68360096
0.012497718 0.024995446 0.67011333
0.012211571 0.022678673 0.66517889
0.012024672 0.0206137 0.66195595
0.011888271 0.018681586 0.65960377
0.011783244 0.016833216 0.65779269
0.011701871 0.015045285 0.65638947
0.011639147 0.013301849 0.65530789
0.011591421 0.011591405 0.65448487
0.011555893 0.0099050403 0.65387219
0.011532075 0.0082372129 0.65346146
0.011518649 0.0065820813 0.65322995
0.01151509 0.004935056 0.6531685
0.011521037 0.0032917261 0.65327108
0.011536329 0.0016480386 0.65353477
0.011561195 -0 0.65396363
0.011597103 -0.0016567409 0.65458286
0.011642553 -0.0033264458 0.65536654
0.01169937 -0.0050140023 0.65634632
0.011768911 -0.0067251027 0.65754557
0.011852787 -0.0084662735 0.65899193
0.011953471 -0.01024583 0.66072816
0.012076082 -0.01207605 0.66284251
0.012228241 -0.013975114 0.66546637
0.012372953 -0.015908062 0.66796184
0.012622797 -0.018032551 0.6722703
0.013024068 -0.020466417 0.67918998
0.01335949 -0.022901982 0.68497407
0.01349632 -0.025064588 0.68733358
0.015153717 0.030307412 0.68324983
0.014492176 0.027172863 0.67326796
0.014038555 0.024567485 0.66642332
0.013753721 0.022349834 0.66212553
0.013562704 0.020344049 0.65924335
0.013417948 0.018449694 0.65705913
0.01330803 0.016635031 0.65540057
0.013222265 0.014875054 0.6541065
0.013155518 0.01315552 0.65309936
0.013104525 0.011466473 0.65232992
0.013068672 0.009801507 0.65178895
0.013044185 0.0081526339 0.65141946
0.013031106 0.0065155625 0.65122211
0.013028857 0.0048858225 0.65118819
0.013037132 0.0032593012 0.65131301
0.013055758 0.001632005 0.65159404
0.013084863 -0 0.65203327
0.013126054 -0.0016407371 0.65265483
0.013178256 -0.0032945573 0.65344244
0.01324322 -0.0049662292 0.65442264
0.013322336 -0.0066611767 0.65561646
0.013417543 -0.0083859563 0.65705299
0.013531618 -0.010148704 0.65877426
0.013671328 -0.011962444 0.66088235
0.013843095 -0.013843119 0.66347414
0.014059559 -0.015816987 0.6667403
0.01428897 -0.017861217 0.67020184
0.014743154 -0.020271838 0.67705494
0.015115149 -0.022672713 0.68266797
0.015267056 -0.024808973 0.68496001
0.0168384 0.029934913 0.68043959
0.01604851 0.026747525 0.66984528
0.015538016 0.02417025 0.66299844
0.015259954 0.022042155 0.65926898
0.015061568 0.020082116 0.6566081
0.014914758 0.018229157 0.65463912
0.01480059 0.01644513 0.65310782
0.014711046 0.014711052 0.65190685
0.014641167 0.013014376 0.65096962
0.014587714 0.011345983 0.6502527
0.014550196 0.0097001493 0.64974952
0.01452551 0.0080697536 0.64941835
0.014513245 0.0064503551 0.6492539
0.014512776 0.0048376024 0.64924759
0.014523682 0.0032275021 0.64939386
0.014545825 0.0016161799 0.64969087
0.014579262 -0 0.65013933
0.014625807 -0.0016251206 0.65076363
0.014684853 -0.0032632947 0.65155554
0.014757906 -0.0049192905 0.65253532
0.014846556 -0.0065984726 0.65372437
0.014952891 -0.0083071589 0.65515053
0.01508038 -0.010053575 0.65686047
0.015236772 -0.011850834 0.65895802
0.01542772 -0.013713509 0.66151911
0.015670652 -0.015670657 0.66477728
0.015942661 -0.017714083 0.66842562
0.016429922 -0.020081013 0.67496091
0.016835945 -0.022447914 0.68040657
0.017002039 -0.024558514 0.68263435
0.018672608 0.031743467 0.67999625
0.018472757 0.029556394 0.67758381
0.017447412 0.026171118 0.66520685
0.017002404 0.023803383 0.6598351
0.016725676 0.021743387 0.65649468
0.016529141 0.019834995 0.65412229
0.016378082 0.018015891 0.65229887
0.016259875 0.016259879 0.65087193
0.016167408 0.014550686 0.64975578
0.016095378 0.012876302 0.64888632
0.016040064 0.011228055 0.64821869
0.016001541 0.0096009076 0.64775366
0.01597712 0.0079885423 0.64745879
0.015966056 0.0063864291 0.64732522
0.015967635 0.0047903359 0.64734429
0.015981507 0.0031963289 0.64751178
0.016007429 0.0016007423 0.6478247
0.016045261 2.9802322e-08 0.64828134
0.01609719 -0.0016097426 0.64890826
0.016163126 -0.0032325983 0.6497041
0.016244249 -0.004873246 0.65068334
0.016342349 -0.0065369308 0.65186757
0.016459923 -0.0082299411 0.65328681
0.016600763 -0.0099604726 0.65498686
0.016773334 -0.01174131 0.65706998
0.016982898 -0.013586342 0.65959966
0.017250713 -0.015525639 0.66283244
0.01761603 -0.017616034 0.66724217
0.018085819 -0.019894391 0.67291307
0.018522952 -0.022227526 0.67818975
0.018703179 -0.024314135 0.68036526
0.020272285 0.03132993 0.67705983
0.020252442 0.029458135 0.67684209
0.018844867 0.025697529 0.66139579
0.018431699 0.023458511 0.65686178
0.018162018 0.021464199 0.65390241
0.017962327 0.019595265 0.65171111
0.017807566 0.017807573 0.65001279
0.017686654 0.0160788 0.64868593
0.017592413 0.014393806 0.64765173
0.017519169 0.012741208 0.64684802
0.017462641 0.011112571 0.64622772
0.017423943 0.0095039606 0.64580303
0.017400201 0.0079092085 0.6455425
0.017390581 0.006323874 0.64543688
0.017394427 0.0047439337 0.64547908
0.017411431 0.0031657517 0.64566571
0.01744128 0.001585573 0.64599329
0.017483886 2.9802322e-08 0.64646083
0.017541446 -0.0015946925 0.64709246
0.017614145 -0.0032025576 0.64789021
0.017703321 -0.004828155 0.6488688
0.017810851 -0.0064766705 0.65004885
0.01793932 -0.0081542432 0.65145856
0.018093953 -0.0098694265 0.65315551
0.018281706 -0.011633813 0.65521586
0.018509552 -0.0134615 0.65771616
0.018801801 -0.015383303 0.66092324
0.01919972 -0.017454296 0.66528988
0.019729735 -0.019729733 0.6711061
0.020177232 -0.022011518 0.67601675
0.020371327 -0.02407521 0.67814672
0.022267606 0.031545788 0.67859268
0.021036806 0.028049111 0.66621184
0.020217055 0.025271326 0.65796578
0.019828944 0.023133785 0.65406168
0.01956379 0.02119413 0.65139449
0.019361289 0.019361317 0.64935744
0.019206395 0.017605871 0.64779931
0.019083757 0.015903115 0.64656568
0.018987501 0.014240623 0.64559746
0.018913336 0.012608886 0.64485139
0.01885685 0.010999829 0.64428318
0.018818138 0.0094090402 0.64389378
0.018795284 0.0078313649 0.64366388
0.01878746 0.006262511 0.64358515
0.018793929 0.0046985149 0.64365023
0.018814187 0.003135711 0.64385402
0.018848266 0.0015707016 0.64419687
0.018895777 -0 0.64467478
0.018959202 -0.0015799105 0.64531273
0.019038675 -0.0031731129 0.6461122
0.019135881 -0.0047839582 0.64709002
0.019252585 -0.0064175129 0.64826399
0.019391678 -0.0080798268 0.64966309
0.019560095 -0.0097800195 0.65135723
0.019762766 -0.011528254 0.65339601
0.020008542 -0.013339013 0.65586829
0.020324703 -0.01524353 0.65904868
0.020754665 -0.017295539 0.66337371
0.02150169 -0.019709885 0.67088825
0.021799587 -0.021799594 0.67388487
0.022006927 -0.023840845 0.67597055
0.024290709 0.031764746 0.68014777
0.022205519 0.027329862 0.66078585
0.02156318 0.024880618 0.65482146
0.021196937 0.022827506 0.65142071
0.020931398 0.020931393 0.64895511
0.020732718 0.019137889 0.64711028
0.020575259 0.017409831 0.64564818
0.020451954 0.015732288 0.64450324
0.02035461 0.014091671 0.64359939
0.02027935 0.012479573 0.64290059
0.020224933 0.010890365 0.64239526
0.020186896 0.0093170106 0.64204204
0.020164991 0.0077557862 0.64183867
0.020158242 0.0062025189 0.64177603
0.020166868 0.0046539009 0.64185607
0.020190654 0.0031062663 0.64207697
0.020229084 0.0015560985 0.64243376
0.020281563 -0 0.64292109
0.020350916 -0.0015654266 0.64356506
0.020437302 -0.0031442046 0.64436722
0.020542378 -0.004740566 0.64534289
0.020668224 -0.006359458 0.64651144
0.020818783 -0.0080071986 0.6479094
0.02099992 -0.0096923113 0.64959133
0.021217126 -0.011424601 0.65160823
0.021480504 -0.013218731 0.65405375
0.021820184 -0.015106261 0.65720785
0.022281505 -0.017139614 0.66149145
0.023085417 -0.019533813 0.6689561
0.023611592 -0.021795303 0.67384189
0.023611076 -0.023611069 0.67383707
0.023442823 0.026791811 0.65672642
0.022886166 0.024520904 0.65192682
0.02253034 0.022530377 0.64885879
0.022273798 0.020682812 0.64664686
0.022074319 0.018920839 0.64492691
0.021917744 0.017221093 0.64357686
0.021793911 0.015567064 0.64250916
0.021696303 0.013947636 0.6416676
0.0216207 0.012354672 0.64101577
0.021566054 0.010783017 0.64054459
0.021529201 0.009226799 0.64022678
0.021509036 0.007681787 0.64005297
0.02150468 0.0061441958 0.64001536
0.021515645 0.0046105087 0.6401099
0.021541581 0.0030773878 0.64033353
0.021584461 0.0015417337 0.64070326
0.021642543 -0 0.64120412
0.021717358 -0.0015512109 0.64184916
0.021810604 -0.003115803 0.64265311
0.021923574 -0.0046978891 0.64362717
0.022058889 -0.0063025355 0.64479387
0.022220807 -0.007935971 0.64618999
0.022414129 -0.0096060336 0.64785683
0.022645639 -0.011322826 0.64985293
0.022926163 -0.013100654 0.65227175
0.023289053 -0.014971524 0.65540057
0.023781141 -0.016986519 0.65964347
0.024642488 -0.019361973 0.66707015
0.025600621 -0.021943361 0.67533135
0.025575761 -0.023748904 0.67511696
0.024686148 0.026331902 0.65325671
0.024180869 0.024180859 0.64919055
0.023840982 0.022251576 0.64645529
0.023586096 0.020441294 0.64440423
0.023387654 0.018710136 0.64280725
0.023231361 0.017036349 0.64154947
0.023108123 0.015405416 0.64055777
0.023010846 0.013806492 0.63977492
0.022935605 0.012232363 0.63916939
0.022881625 0.010678113 0.63873506
0.022846032 0.0091384351 0.6384486
0.022827828 0.007609278 0.63830209
0.022826092 0.0060869455 0.63828814
0.022840194 0.0045680702 0.63840157
0.022869913 0.0030493438 0.63864076
0.022915719 0.0015277267 0.63900936
0.022979707 -0 0.63952434
0.023060407 -0.0015373528 0.64017379
0.023160176 -0.0030880272 0.64097661
0.023281157 -0.0046562254 0.64195019
0.02342576 -0.0062468648 0.64311385
0.023598036 -0.007866025 0.64450026
0.023803402 -0.0095213354 0.64615285
0.024049073 -0.011222899 0.64812994
0.024347957 -0.012985587 0.65053511
0.024731867 -0.014839113 0.65362465
0.025254142 -0.016836077 0.65782756
0.026176779 -0.019196302 0.66525239
0.027616763 -0.022093415 0.67684048
0.027589859 -0.023911178 0.67662394
0.026832297 0.028509319 0.65703201
0.025921036 0.025921017 0.65015703
0.025449701 0.023859113 0.64660108
0.025121635 0.021981418 0.64412606
0.024869105 0.020206153 0.64222085
0.024674492 0.018505841 0.64075261
0.02451927 0.016856998 0.63958156
0.024395909 0.015247434 0.63865083
0.02429913 0.013668299 0.63792068
0.024224721 0.012112379 0.63735932
0.024171986 0.010575265 0.63696146
0.024138168 0.0090518296 0.63670635
0.024122169 0.0075381696 0.63658559
0.024123186 0.006030798 0.63659328
0.024140643 0.0045264065 0.63672501
0.024174249 0.0030218065 0.63697857
0.024224283 0.0015140176 0.63735604
0.024293013 -0 0.63787454
0.02437979 -0.0015237331 0.63852924
0.024486421 -0.0030608177 0.63933372
0.024615165 -0.0046153367 0.64030504
0.024768697 -0.0061921775 0.64146328
0.024951186 -0.0077972412 0.64284009
0.025168311 -0.0094381273 0.6444782
0.025428038 -0.01112479 0.64643764
0.025744902 -0.012872458 0.64882827
0.026149383 -0.014708996 0.65187979
0.02670137 -0.016688377 0.65604424
0.027685041 -0.019033432 0.66346538
0.027874768 0.027874768 0.65252626
0.027136235 0.025539994 0.64728224
0.026695926 0.023555249 0.64415574
0.026372712 0.021718711 0.64186072
0.02612943 0.019981325 0.64013326
0.025935275 0.018307269 0.63875467
0.025780346 0.016681403 0.6376546
0.025657557 0.015092701 0.63678277
0.025562024 0.013532817 0.63610435
0.025488798 0.011994749 0.63558441
0.025437728 0.010474354 0.63522178
0.025406044 0.0089668334 0.63499683
0.025392544 0.0074684322 0.63490093
0.025396561 0.0059756935 0.63492948
0.025417507 0.0044854581 0.63507819
0.025455235 0.0029947758 0.63534606
0.025509821 0.0015005767 0.63573366
0.02558309 -0 0.63625395
0.025675992 -0.0015103519 0.63691354
0.025789492 -0.0030340254 0.63771945
0.025926027 -0.0045751929 0.63868898
0.02608832 -0.0061384439 0.63984132
0.02628088 -0.0077296793 0.64120871
0.026509892 -0.0093564093 0.64283478
0.026783094 -0.01102832 0.64477468
0.027117806 -0.012761325 0.64715141
0.02754226 -0.014581174 0.65016526
0.028123325 -0.01654312 0.65429121
0.029167928 -0.018873364 0.66170853
0.028976806 0.027367026 0.64892066
0.028333323 0.025185198 0.6446054
0.027911931 0.023259938 0.64177948
0.027604384 0.021470129 0.63971698
0.02736227 0.019761652 0.63809335
0.027170021 0.018113345 0.6368041
0.027017528 0.016510725 0.63578147
0.026896099 0.014942288 0.63496721
0.026801016 0.013400495 0.6343295
0.026730381 0.011880159 0.63385582
0.026680021 0.010375559 0.6335181
0.026650336 0.0088834465 0.63331902
0.026639696 0.0073998868 0.63324767
0.026646946 0.0059215128 0.63329631
0.026671566 0.0044452846 0.63346142
0.026713416 0.0029681623 0.63374203
0.026772814 0.0014873743 0.63414043
0.026851434 -0 0.63466763
0.02694986 -0.0014971793 0.6353277
0.027069904 -0.0030077994 0.63613272
0.02721419 -0.0045357049 0.63710034
0.027385315 -0.0060856342 0.63824797
0.02758798 -0.0076633394 0.63960701
0.027828448 -0.0092761219 0.64121962
0.028114773 -0.010933518 0.64313978
0.028467208 -0.012652099 0.64550328
0.028911229 -0.014455587 0.64848089
0.029520748 -0.016400397 0.65256846
0.030626077 -0.018715918 0.65998095
0.031500898 0.029842973 0.65472919
0.030093614 0.026925862 0.64578849
0.029510245 0.024850726 0.64208221
0.029110927 0.022982329 0.63954526
0.028808177 0.021227092 0.63762182
0.028570868 0.019548476 0.63611418
0.0283827 0.017925918 0.63491875
0.028232832 0.016345352 0.63396657
0.028113274 0.014796436 0.63320702
0.028019644 0.013272494 0.63261211
0.027950119 0.01176846 0.63217044
0.0279018 0.010279626 0.63186347
0.027873332 0.0088020861 0.63168263
0.0278641 0.0073326528 0.63162392
0.027874885 0.0058684051 0.63169247
0.027903274 0.0044057667 0.63187283
0.027949542 0.0029420853 0.63216674
0.028013865 0.0014744103 0.63257539
0.02809782 -2.9802322e-08 0.63310885
0.028202346 -0.0014843345 0.63377285
0.028329076 -0.0029819906 0.63457805
0.028480822 -0.0044969618 0.63554209
0.028660534 -0.006033808 0.63668382
0.028873008 -0.0075981617 0.63803375
0.02912466 -0.0091972649 0.63963258
0.02942384 -0.010840386 0.64153326
0.029793611 -0.012544721 0.64388251
0.030256724 -0.014332145 0.64682478
0.030894363 -0.016260177 0.65087581
0.03206021 -0.018561184 0.65828264
0.032166854 0.028950155 0.64874208
0.031203279 0.026522785 0.64292634
0.030665146 0.024532139 0.63967848
0.030283833 0.022712886 0.63737702
0.02998754 0.020991296 0.63558871
0.029757742 0.019342542 0.63420182
0.02957307 0.017743826 0.63308722
0.029424811 0.016183645 0.63219237
0.029306924 0.014653444 0.63148087
0.029215289 0.013146877 0.6309278
0.029147811 0.011659116 0.63052052
0.029101782 0.010185629 0.63024276
0.029075824 0.0087227523 0.63008606
0.029068897 0.0072672367 0.63004422
0.029080896 0.0058161914 0.63011658
0.029113382 0.0043670237 0.63031274
0.029164119 0.0029164255 0.63061893
0.029233383 0.0014616847 0.631037
0.02932281 5.9604645e-08 0.63157672
0.029433377 -0.0014716983 0.63224411
0.029566955 -0.0029566884 0.63305026
0.029726187 -0.0044589043 0.63401133
0.029914303 -0.005982846 0.63514668
0.030136457 -0.0075340867 0.63648748
0.03039901 -0.0091197193 0.63807219
0.03071079 -0.010748804 0.63995397
0.031097779 -0.012439132 0.64228964
0.031579424 -0.014210731 0.64519662
0.032246977 -0.016123503 0.64922565
0.033470932 -0.018408984 0.65661287
0.033108037 0.028378308 0.64490712
0.032304823 0.026151538 0.64029014
0.031803608 0.024231315 0.63740909
0.031430781 0.022450596 0.63526607
0.031148653 0.020765781 0.63364434
0.030921964 0.019142181 0.63234127
0.030739503 0.017565399 0.63129252
0.030593351 0.016025096 0.63045239
0.030477723 0.014513195 0.62978774
0.030388523 0.013023674 0.62927502
0.03032345 0.011551797 0.628901
0.030280108 0.010093361 0.6286518
0.030257002 0.0086448491 0.628519
0.030253254 0.0072031617 0.62849748
0.030268244 0.0057653785 0.62858367
0.030302376 0.0043289363 0.62877983
0.030357618 0.0028912127 0.6290974
0.030432086 0.0014491379 0.62952548
0.030527042 -0 0.63007128
0.030643579 -0.0014592111 0.63074112
0.030783899 -0.0029318333 0.63154769
0.030950563 -0.0044214725 0.63250571
0.031147175 -0.0059327781 0.63363582
0.03137869 -0.0074711144 0.63496661
0.031652048 -0.0090434253 0.63653791
0.031976562 -0.01065883 0.6384033
0.032380182 -0.0123353 0.64072335
0.032881759 -0.014092177 0.64360648
0.033577789 -0.015989423 0.64760733
0.034858711 -0.018259346 0.65497029
0.034101374 0.027901113 0.641707
0.033391442 0.025802463 0.63781172
0.032915082 0.023938239 0.635198
0.032563675 0.022202522 0.63326985
0.032285556 0.020545363 0.63174391
0.032062311 0.018945903 0.63051897
0.031882804 0.017390639 0.62953407
0.031739213 0.015869617 0.62874621
0.031626318 0.014375597 0.6281268
0.031539962 0.012902707 0.62765294
0.031477641 0.011446416 0.62731099
0.031437278 0.010002762 0.62708956
0.031417359 0.0085683763 0.62698025
0.031417001 0.007140249 0.62697828
0.031435661 0.0057155788 0.62708062
0.031473052 0.004291743 0.62728584
0.031530838 0.002866447 0.62760282
0.031610336 0.0014368296 0.62803906
0.031710867 -0 0.6285907
0.031833477 -0.0014469624 0.6292634
0.031980526 -0.0029073358 0.63007021
0.032154657 -0.0043847263 0.63102567
0.032359488 -0.0058835447 0.63214958
0.032600414 -0.0074091852 0.63347149
0.032884207 -0.0089684129 0.6350286
0.033223037 -0.010570973 0.63688773
0.033641461 -0.012233257 0.63918352
0.034163285 -0.013975888 0.64204669
0.034886762 -0.015857607 0.64601624
0.036224104 -0.018112063 0.65335417
0.036424618 0.030089915 0.64576489
0.035109244 0.027476788 0.63886142
0.034464087 0.025473475 0.63547546
0.034014557 0.023662329 0.63311619
0.0336718 0.021959871 0.63131738
0.033398673 0.020329624 0.62988389
0.033181138 0.018754542 0.62874216
0.033006795 0.017220944 0.62782711
0.03286615 0.015718579 0.62708902
0.032754928 0.014241278 0.62650532
0.032670215 0.012784004 0.62606072
0.032610968 0.011342943 0.62574971
0.03257386 0.0099137723 0.62555498
0.032557275 0.008493185 0.62546796
0.032560498 0.0070783794 0.62548488
0.032582991 0.0056665838 0.62560296
0.032624647 0.0042553842 0.62582153
0.032685712 0.0028422177 0.62614202
0.032768827 0.0014247 0.62657827
0.032874882 -0 0.62713486
0.033003669 -0.0014349222 0.62781078
0.033157431 -0.0028832257 0.6286177
0.033338878 -0.0043485165 0.62957001
0.033551935 -0.0058351457 0.63068825
0.033801954 -0.0073482394 0.63200033
0.034096189 -0.0088946521 0.63354462
0.034449127 -0.010484517 0.63539696
0.034881935 -0.012132853 0.63766843
0.035423838 -0.013861477 0.64051247
0.036174215 -0.015727937 0.64445072
0.037567649 -0.017967135 0.65176386
0.037130985 0.029395372 0.64135242
0.036113176 0.027084887 0.63623315
0.035517704 0.025158376 0.6332382
0.035091542 0.023394376 0.63109475
0.034756478 0.021722823 0.62940949
0.034495395 0.020122319 0.62809634
0.034284052 0.018570542 0.62703335
0.034112643 0.017056346 0.62617123
0.033974919 0.015571862 0.62547857
0.033868466 0.014111847 0.62494314
0.033802018 0.012675762 0.62460887
0.03375043 0.011250168 0.62434947
0.033715371 0.0098336637 0.62417316
0.033694558 0.0084236562 0.6240685
0.033687185 0.0070181787 0.62403136
0.033710923 0.0056184828 0.62415075
0.033756882 0.0042196214 0.6243819
0.033822674 0.0028185248 0.62471282
0.033909205 0.0014128983 0.62514806
0.034019675 -0 0.62570369
0.03415446 -0.0014231205 0.62638164
0.034314908 -0.0028595626 0.62718856
0.03450362 -0.0043129325 0.62813771
0.034724817 -0.0057874918 0.62925029
0.034983996 -0.007288307 0.63055378
0.035288397 -0.0088220835 0.63208485
0.035655323 -0.010399461 0.63393039
0.036102321 -0.012034088 0.63617855
0.036664031 -0.013749003 0.63900375
0.037440784 -0.015600353 0.64291048
0.038889866 -0.017824501 0.65019882
0.037976842 0.028862387 0.63796633
0.037111543 0.026720285 0.63378835
0.036560204 0.024860919 0.63112622
0.036144722 0.023132622 0.62912005
0.03582865 0.02149722 0.62759393
0.035622749 0.019948751 0.62659979
0.035476662 0.018447876 0.62589443
0.035352435 0.016969174 0.62529457
0.035248134 0.015509188 0.62479103
0.035162333 0.014064938 0.62437671
0.035093475 0.012633651 0.62404424
0.035040881 0.011213094 0.62379032
0.035004504 0.0098012686 0.62361455
0.034984041 0.0083961785 0.62351584
0.034977879 0.0069955587 0.62348604
0.034985807 0.0055977404 0.62352431
0.035007443 0.0042009056 0.62362885
0.035042748 0.0028034151 0.62379926
0.035091802 0.0014036894 0.62403619
0.035154622 -2.9802322e-08 0.62433946
0.035286415 -0.001411438 0.6249758
0.035453536 -0.002836287 0.62578273
0.035649553 -0.0042779148 0.62672919
0.035878699 -0.0057405531 0.62783557
0.036146808 -0.007229358 0.62913013
0.036461525 -0.0087507665 0.63064975
0.03684222 -0.010315835 0.63248789
0.037303004 -0.011936963 0.63471276
0.037884142 -0.013638288 0.63751876
0.038686965 -0.015474796 0.64139509
0.040198486 -0.017687321 0.64869338
0.038863618 0.028400332 0.63503075
0.038102459 0.026378632 0.63149691
0.037578348 0.024570495 0.62906361
0.037315775 0.022963554 0.62784457
0.037107471 0.02140817 0.62687743
0.036928404 0.019884527 0.62604606
0.036775161 0.018387586 0.62533462
0.036673665 0.016926318 0.62486345
0.036633909 0.015498966 0.62467885
0.036594231 0.014074713 0.62449461
0.036554746 0.012653589 0.62431133
0.036515247 0.011235476 0.62412792
0.03647583 0.0098204017 0.62394494
0.036436498 0.0084083974 0.62376237
0.036397349 0.0069994926 0.62358057
0.036358289 0.0055935681 0.62339926
0.036319207 0.0041906834 0.62321776
0.036335032 0.002794981 0.62329125
0.036389306 0.0013996065 0.6235432
0.036458451 -0 0.62386423
0.036542632 -0.0014054775 0.62425506
0.036642883 -0.002818644 0.62472051
0.036777031 -0.0042435229 0.62534332
0.037014142 -0.0056945086 0.62644416
0.037291065 -0.007171303 0.62772977
0.037617791 -0.0086810291 0.62924671
0.038010284 -0.010233521 0.63106894
0.038484339 -0.011841327 0.63326985
0.039084759 -0.01352933 0.63605744
0.039913245 -0.015351206 0.6399039
0.041490298 -0.017553598 0.64722568
0.041086968 0.030434817 0.63828814
0.039774135 0.027989209 0.63241875
0.039197467 0.02613166 0.62984061
0.038894579 0.024489164 0.62848651
0.038635187 0.022894919 0.62732679
0.038501404 0.021389663 0.62672865
0.038459316 0.019941866 0.62654048
0.038884167 0.018721968 0.62843996
0.048821125 0.021698266 0.67286575
0.049066171 0.019989908 0.67396128
0.048792381 0.018071264 0.67273724
0.048857849 0.016285956 0.67302996
0.050058115 0.01483202 0.67839605
0.038166825 0.0098950863 0.62523288
0.038125355 0.0084723234 0.62504745
0.038083978 0.0070525706 0.62486249
0.038042691 0.0056359768 0.62467784
0.049757592 0.0055286288 0.6770525
0.049888048 0.0036953986 0.67763567
0.050241113 0.0018607676 0.67921418
0.037878744 5.9604645e-08 0.62394488
0.037846908 -0.0014017224 0.6238026
0.037955794 -0.0028115809 0.62428939
0.038082153 -0.0042313635 0.62485433
0.038226977 -0.0056632161 0.62550175
0.038416993 -0.0071142614 0.6263513
0.038755994 -0.0086124241 0.62786692
0.03915986 -0.010152519 0.62967247
0.039647017 -0.011747271 0.63185048
0.040266469 -0.013422161 0.63461983
0.041120104 -0.015229642 0.63843626
0.042762715 -0.017421842 0.64577997
0.041736424 0.02981171 0.63452768
0.040925421 0.027770847 0.63103139
0.040544178 0.026064098 0.62938774
0.04032525 0.024483204 0.6284439
0.048019558 0.027439743 0.66161484
0.048167981 0.025804281 0.66225469
0.040191635 0.020095825 0.62786788
0.049855322 0.023147106 0.66952896
0.050292898 0.021554112 0.67141545
0.050452277 0.019820511 0.67210251
0.050138295 0.017906547 0.67074889
0.050295971 0.016166598 0.67142868
0.05151755 0.014719307 0.67669505
0.051706351 0.012926579 0.67750895
0.051830307 0.011106521 0.67804331
0.051620621 0.0092179477 0.6771394
0.051252563 0.0073218048 0.67555261
0.05117581 0.0054831207 0.6752218
0.051331248 0.0036665201 0.67589182
0.05171055 0.0018467903 0.67752707
0.051818807 2.9802322e-08 0.67799371
0.039755281 -0.0014198124 0.62598675
0.039494496 -0.002821058 0.62486249
0.039451677 -0.0042269528 0.62467784
0.039556719 -0.0056509376 0.62513071
0.039735213 -0.0070955455 0.62590027
0.03993706 -0.0085579455 0.62677038
0.040291272 -0.010072798 0.62829745
0.040791251 -0.011654645 0.63045287
0.041429479 -0.013316602 0.63320434
0.042307999 -0.015109986 0.63699174
0.044018805 -0.017293125 0.64436722
0.042797349 0.029515415 0.63273925
0.042300917 0.027714401 0.63067281
0.042138394 0.026154876 0.62999636
0.042091455 0.024674296 0.62980098
0.049396604 0.0272533 0.66020817
0.049443729 0.025574386 0.66040438
0.049529471 0.02391082 0.66076124
0.05130668 0.022999555 0.66815877
0.051728457 0.021404892 0.66991436
0.051798258 0.019647658 0.67020488
0.051488183 0.017754555 0.66891426
0.051726613 0.016053081 0.66990674
0.052949168 0.014606684 0.67499548
0.053135693 0.012825847 0.67577189
0.053225935 0.011012256 0.67614758
0.052949168 0.0091291964 0.67499554
0.052616049 0.0072573721 0.67360896
0.052575819 0.0054388642 0.67344147
0.052752052 0.0036380887 0.67417502
0.053138223 0.0018323958 0.67578244
0.053216569 2.9802322e-08 0.67610854
0.041262817 -0.0014228225 0.62635177
0.041217688 -0.0028425753 0.62616396
0.041172661 -0.0042592585 0.62597656
0.041127849 -0.0056728125 0.62579
0.041083019 -0.0070832968 0.62560338
0.041292287 -0.0085432231 0.62647444
0.04153863 -0.010026544 0.62749982
0.0419177 -0.01156348 0.62907773
0.042574339 -0.01321274 0.6318109
0.043477502 -0.014992237 0.63557029
0.045261264 -0.017168075 0.64299512
0.045159668 0.03161177 0.63630641
0.044221342 0.029480904 0.63253087
0.043984346 0.027856767 0.63157725
0.047071312 0.028242767 0.64399827
0.048117422 0.027266532 0.64820749
0.050730366 0.027056187 0.65872121
0.05069815 0.025349081 0.65859151
0.050930373 0.023767501 0.65952593
0.05273965 0.022853851 0.66680586
0.053126592 0.021250665 0.66836286
0.053089388 0.019466102 0.66821313
0.05283767 0.017612576 0.66720033
0.053191543 0.015957475 0.66862416
0.054358847 0.014495671 0.67332101
0.05454313 0.012726754 0.67406255
0.054597288 0.010919452 0.67428046
0.05424726 0.0090412199 0.67287207
0.053955559 0.007194072 0.67169833
0.053953424 0.0053953528 0.67168975
0.054171693 0.0036114454 0.67256802
0.054543924 0.0018181205 0.67406571
0.05459113 -0 0.67425567
0.054414809 -0.0018137991 0.6735462
0.054089908 -0.0036059618 0.67223883
0.052779336 -0.0052779317 0.6669656
0.053313397 -0.0071084499 0.66911447
0.053079814 -0.0088466108 0.66817462
0.042779099 -0.0085557997 0.6267277
0.04291375 -0.010013193 0.62726951
0.043215577 -0.011524141 0.62848395
0.043701604 -0.013110459 0.63043958
0.044628784 -0.014876276 0.63417029
0.046486031 -0.017044842 0.64164329
0.046439495 0.031459004 0.63542837
0.045863736 0.029589504 0.6331864
0.04787337 0.029341757 0.64101171
0.04841505 0.028111964 0.64312094
0.051716998 0.028360903 0.65597838
0.05202454 0.026851386 0.6571759
0.051959712 0.025141776 0.65692347
0.052337181 0.023636162 0.65839326
0.054145891 0.02270633 0.66543621
0.054486729 0.02109164 0.66676337
0.054315776 0.019273341 0.66609776
0.054186363 0.017479479 0.6655938
0.055523168 0.016119659 0.67079926
0.055747464 0.014386445 0.67167258
0.055928774 0.012629062 0.6723786
0.05594229 0.010827571 0.67243123
0.055540264 0.0089581311 0.67086571
0.055289235 0.0071341097 0.66988826
0.055308949 0.0053524673 0.66996503
0.05557071 0.0035852194 0.67098427
0.055927768 0.0018041134 0.67237461
0.055939667 -0 0.67242104
0.055749267 -0.0017983615 0.67167962
0.055383202 -0.0035731196 0.67025417
0.054101691 -0.0052356422 0.66526413
0.054664735 -0.0070534945 0.66745651
0.054372322 -0.0087697208 0.66631794
0.044897161 -0.008689791 0.62942266
0.044497628 -0.010047823 0.62786686
0.044623207 -0.011515677 0.62835592
0.044995755 -0.013063282 0.62980658
0.045762386 -0.014762074 0.63279176
0.047693204 -0.016923368 0.64031017
0.048001207 0.031500787 0.63566852
0.048533153 0.030333191 0.63767511
0.049138319 0.029175848 0.6399579
0.049810156 0.028018236 0.64249218
0.053080525 0.028199017 0.65482879
0.053270198 0.02663511 0.65554422
0.053229641 0.024951398 0.65539128
0.053741328 0.023511827 0.65732145
0.05553351 0.022560507 0.66408187
0.05580001 0.020924985 0.66508722
0.055514257 0.019083053 0.66400927
0.055531777 0.017353684 0.66407537
0.056893688 0.016001374 0.66921276
0.057115309 0.014278829 0.67004883
0.057287782 0.012531698 0.67069936
0.057241701 0.01073283 0.67052555
0.056809716 0.0088765323 0.66889602
0.056604661 0.0070755482 0.66812253
0.056643303 0.005310297 0.66826832
0.056949537 0.003559351 0.66942352
0.057286758 0.0017902255 0.67069554
0.057259306 -0 0.67059201
0.057061166 -0.0017831624 0.66984457
0.056653127 -0.0035408437 0.66830534
0.055404183 -0.0051941276 0.66359413
0.055986729 -0.0069983602 0.66579157
0.055642739 -0.0086942017 0.66449398
0.046341836 -0.0086890757 0.62940902
0.046290386 -0.010126024 0.62921488
0.046238918 -0.011559695 0.62902075
0.046452481 -0.013064772 0.62982643
0.046925295 -0.014664173 0.63160998
0.048883282 -0.016803622 0.63899589
0.049669959 0.031608164 0.6362856
0.049873993 0.030226648 0.63703197
0.050387964 0.029011279 0.63891202
0.051270388 0.027965665 0.64213985
0.054388598 0.028018355 0.65354592
0.054471493 0.02641046 0.65384912
0.054509252 0.024776936 0.65398729
0.056429882 0.023939967 0.66101271
0.056903612 0.022416592 0.66274559
0.057079077 0.020756036 0.66338742
0.056734875 0.01891163 0.66212839
0.056865595 0.017232031 0.66260654
0.058244038 0.015884757 0.66764879
0.058461182 0.014172405 0.66844308
0.058616426 0.012433797 0.66901088
0.058518369 0.010639697 0.66865224
0.05805625 0.0087964237 0.66696185
0.057898477 0.0070179999 0.66638476
0.057970434 0.0052700341 0.66664797
0.058308624 0.0035338402 0.66788501
0.058611222 0.0017760694 0.66899186
0.05855697 -0 0.66879338
0.05835107 -0.0017682314 0.66804028
0.05785121 -0.0035060942 0.66621184
0.056697082 -0.0051542819 0.66199017
0.057282642 -0.0069433451 0.66413206
0.056891259 -0.0086198747 0.66270041
0.05631268 -0.010238677 0.66058403
0.055605892 -0.011795193 0.65799868
0.05029327 -0.012192309 0.63856566
0.0480037 -0.013091892 0.63019061
0.048456043 -0.014683664 0.63184524
0.050056793 -0.016685605 0.63770062
0.051592749 0.031866133 0.63776839
0.051532574 0.030313283 0.63755476
0.051647097 0.028861642 0.63796133
0.052751146 0.027927101 0.64188111
0.055653784 0.027826905 0.65218633
0.055642679 0.026184797 0.65214694
0.055807143 0.024620801 0.65273082
0.057783823 0.02379334 0.65974867
0.058236606 0.022266924 0.66135615
0.058319256 0.020583302 0.66164958
0.057966541 0.018753886 0.66039729
0.058184423 0.01711309 0.66117084
0.059573807 0.015769511 0.66610366
0.059782315 0.014066428 0.66684389
0.059924673 0.012337446 0.66734934
0.059755649 0.010545105 0.66674924
0.059302181 0.0087209046 0.66513932
0.059171613 0.0069613755 0.66467571
0.059282754 0.005230844 0.6650703
0.059647959 0.0035087168 0.66636688
0.059914961 0.0017622113 0.66731489
0.059833411 2.9802322e-08 0.66702533
0.059619527 -0.001753509 0.66626596
0.059023187 -0.0034719408 0.66414881
0.057970688 -0.005115062 0.66041207
0.058549877 -0.006888181 0.66246837
0.058117636 -0.00854671 0.66093379
0.05752299 -0.010151118 0.6588226
0.056801792 -0.011694461 0.6562621
0.051388744 -0.012091458 0.63704413
0.051098712 -0.013526142 0.6360144
0.050023794 -0.01471287 0.6321981
0.051213779 -0.016569167 0.63642293
0.053547177 0.032128304 0.63927555
0.053484216 0.030562401 0.63905835
0.053421404 0.029000193 0.63884175
0.05651544 0.029065073 0.64951271
0.056873154 0.02762413 0.65074635
0.056808766 0.025969744 0.65052432
0.057129186 0.024483919 0.65162945
0.059119884 0.023647964 0.65849519
0.059533902 0.022112578 0.65992302
0.059504773 0.020401627 0.65982252
0.059201431 0.018606186 0.65877634
0.059510231 0.01700294 0.65984142
0.060878921 0.015654594 0.66456175
0.061084051 0.01396206 0.66526932
0.061201673 0.01224035 0.66567492
0.060952023 0.010448933 0.66481388
0.060534231 0.0086477399 0.66337299
0.060424369 0.0069056451 0.66299409
0.060575895 0.00519225 0.6635167
0.060968153 0.0034838915 0.66486955
0.061198462 0.0017485619 0.66566384
0.061088741 -0 0.66528541
0.060867071 -0.0017390549 0.66452092
0.059337027 -0.0033906996 0.659244
0.059239481 -0.0050776601 0.65890753
0.059791233 -0.0068332851 0.66081047
0.059322756 -0.008474648 0.65919477
0.058712576 -0.010065019 0.65709037
0.057977255 -0.011595458 0.65455437
0.052466087 -0.011992246 0.63554698
0.052182496 -0.013418376 0.63456893
0.051663708 -0.014761031 0.63277966
0.0525073 -0.016502261 0.63568914
0.055468369 0.03081575 0.64058751
0.055402689 0.02924031 0.64036727
0.057820231 0.0289101 0.6484735
0.058050171 0.027412564 0.64924449
0.057986073 0.025771588 0.64902955
0.058446661 0.024352759 0.65057391
0.06043141 0.023501128 0.65722895
0.060794663 0.021953642 0.65844691
0.060634218 0.020211399 0.65790898
0.060437895 0.018467158 0.6572507
0.060886312 0.016912878 0.65875423
0.062164932 0.015541255 0.66304159
0.062366392 0.013859183 0.66371709
0.062444877 0.012142062 0.66398025
0.06212141 0.010353595 0.66289562
0.061745994 0.0085758269 0.66163683
0.061676014 0.006852895 0.66140217
0.061849881 0.0051541626 0.66198516
0.062269807 0.0034594238 0.66339326
0.062462196 0.0017350614 0.6640383
0.062322374 -0 0.66356951
0.062083941 -0.001724571 0.66277003
0.060488027 -0.0033604503 0.65741879
0.060492698 -0.0050410628 0.65743446
0.061006948 -0.006778568 0.65915877
0.06050672 -0.0084037185 0.65748143
0.05988235 -0.0099804103 0.65538788
0.059132397 -0.011497974 0.65287328
0.053687982 -0.011930645 0.63461769
0.053626448 -0.013406634 0.63441139
0.053565051 -0.014879167 0.63420552
0.054425418 -0.016629994 0.63709044
0.057485338 0.031073183 0.64214098
0.058345158 0.02996102 0.6449461
0.059067246 0.028735399 0.64730191
0.059188861 0.027194887 0.64769864
0.059173536 0.025588542 0.64764869
0.059818055 0.024250537 0.64975142
0.061726537 0.02335602 0.65597773
0.062010411 0.021787435 0.65690386
0.061718918 0.020016968 0.65595287
0.061681703 0.018337816 0.65583146
0.063190177 0.017078429 0.66075277
0.063432671 0.015429556 0.66154391
0.063630193 0.013757914 0.66218829
0.063668057 0.012045324 0.66231179
0.063265547 0.0102593 0.6609987
0.062937558 0.0085050762 0.65992856
0.062909536 0.006801039 0.65983719
0.063105315 0.0051166415 0.66047591
0.063551784 0.0034352243 0.66193247
0.063690394 0.0017213821 0.66238469
0.063534766 -0 0.66187698
0.063279383 -0.0017102659 0.66104376
0.061636318 -0.003331691 0.65568334
0.061735179 -0.0050055385 0.65600586
0.062192265 -0.0067234635 0.65749717
0.061668962 -0.0083336234 0.65578991
0.061032623 -0.0098971725 0.65371382
0.060267489 -0.011401951 0.6512177
0.055625465 -0.012027115 0.63607329
0.05556136 -0.013514906 0.63586414
0.05549724 -0.014999241 0.63565493
0.059691045 0.029845536 0.64421231
0.060267545 0.028547794 0.6460436
0.060284555 0.026969403 0.64609766
0.060381234 0.025423646 0.64640474
0.062503502 0.024672419 0.65314633
0.063005969 0.023212761 0.65474248
0.063195281 0.021619439 0.65534383
0.062825479 0.019839615 0.65416914
0.062920697 0.018213898 0.65447164
0.064443581 0.016958833 0.65930921
0.064682327 0.015319496 0.66006756
0.064875439 0.013658017 0.66068101
0.064858839 0.011947721 0.66062832
0.064410396 0.010170043 0.65920377
0.064118043 0.0084366202 0.65827507
0.064124532 0.0067499578 0.65829569
0.064356551 0.0050807893 0.6590327
0.064794078 0.0034102499 0.66042256
0.064898245 0.0017078519 0.66075349
0.064727686 -0 0.66021168
0.064455166 -0.0016961694 0.65934604
0.062780671 -0.0033042729 0.65402675
0.062960491 -0.0049705505 0.65459806
0.063354053 -0.0066688657 0.65584815
0.062812194 -0.0082647502 0.65412694
0.062163871 -0.0098153353 0.65206748
0.061381802 -0.01130718 0.64958316
0.060363021 -0.012708008 0.64634693
0.057527449 -0.013624907 0.63733947
0.057460517 -0.015121192 0.6371268
0.061473381 0.028372347 0.64486694
0.061399102 0.026763707 0.64463711
0.06161429 0.025277644 0.64530313
0.063770361 0.024527073 0.65197647
0.064247176 0.023063093 0.65345228
0.064339109 0.021446347 0.65373683
0.063949667 0.019676805 0.6525315
0.06414327 0.018091708 0.65313065
0.065679774 0.016840965 0.65788639
0.065913163 0.015210718 0.65860879
0.066086382 0.013556212 0.65914488
0.066014618 0.011848807 0.65892279
0.065535516 0.010082394 0.65743989
0.065294527 0.0083711147 0.65669399
0.065321408 0.0066996515 0.65677714
0.065599851 0.005046159 0.65763903
0.066018641 0.0033855736 0.65893519
0.066087052 0.0016945302 0.65914696
0.065901585 -2.9802322e-08 0.65857291
0.065611541 -0.0016823709 0.65767521
0.063916788 -0.0032778084 0.6524297
