# .PCD v0.7 - Point Cloud Data file format
VERSION 0.7
FIELDS x y z
SIZE 4 4 4
TYPE F F F
COUNT 1 1 1
WIDTH 1346
HEIGHT 1
VIEWPOINT 0 0 0 1 0 0 0
POINTS 1346
DATA ascii
-0.036706623 -0.019432902 0.71523798
-0.036896411 -0.02170375 0.71658564
-0.037119735 -0.024018645 0.71817136
-0.03737893 -0.026385128 0.72001183
-0.037753202 -0.028870076 0.72266942
-0.038098667 -0.031375349 0.72512233
-0.038495928 -0.033966988 0.72794324
-0.038954832 -0.036663353 0.73120171
-0.039495286 -0.039495289 0.73503923
-0.040146969 -0.042508602 0.73966664
-0.040957917 -0.045776516 0.74542487
-0.042077743 -0.049503267 0.75337636
-0.034944456 0.0065520704 0.71823347
-0.034439065 0.0043048561 0.71442062
-0.03413263 0.00213328 0.71210873
-0.033938732 -0 0.71064591
-0.03302262 -0.00206393 0.70373434
-0.032827631 -0.004103452 0.70226324
-0.032888047 -0.0061664879 0.70271903
-0.033098802 -0.0082747042 0.70430911
-0.033465452 -0.010457933 0.70707524
-0.033813018 -0.012679875 0.70969748
-0.033959176 -0.014857173 0.71080017
-0.034093089 -0.017046541 0.71181047
-0.034256045 -0.019269019 0.71303982
-0.034448996 -0.021530628 0.71449554
-0.034673844 -0.023838222 0.71619189
-0.034933172 -0.026199877 0.71814841
-0.035231572 -0.028625607 0.72039962
-0.035650626 -0.03119427 0.72356111
-0.03605004 -0.033796906 0.72657442
-0.036513709 -0.036513686 0.73007256
-0.037059154 -0.039375335 0.73418766
-0.037732314 -0.042448789 0.73926622
-0.038596578 -0.045833468 0.74578667
-0.039954789 -0.049943477 0.75603354
-0.032539565 0.0086772144 0.71645617
-0.031996064 0.0063992143 0.71208239
-0.031688731 0.0042251647 0.70960915
-0.031490494 0.002099365 0.70801383
-0.031185361 -0 0.70555836
-0.030434951 -0.0020290315 0.69951952
-0.030451128 -0.0040601492 0.69964969
-0.030601483 -0.0061202943 0.70085961
-0.030894479 -0.008238554 0.70321751
-0.031258225 -0.010419399 0.70614463
-0.03143457 -0.012573808 0.70756388
-0.031547409 -0.014722109 0.70847189
-0.031688731 -0.016900659 0.70960915
-0.031857401 -0.019114435 0.71096653
-0.032054007 -0.021369338 0.71254861
-0.032280516 -0.023672372 0.71437144
-0.03253999 -0.026031971 0.71645951
-0.032836534 -0.028458327 0.71884596
-0.033176329 -0.030964553 0.72158045
-0.033641934 -0.033641964 0.72532737
-0.034110874 -0.03638494 0.72910106
-0.03466785 -0.039290249 0.73358327
-0.035367209 -0.042440623 0.73921126
-0.03633301 -0.046021819 0.74698341
-0.030189509 0.010781974 0.71489769
-0.029614035 0.0084611475 0.70993578
-0.029297579 0.0062780678 0.70720726
-0.02909304 0.0041561425 0.70544368
-0.028938359 0.0020670295 0.70411003
-0.028116472 -2.9802322e-08 0.69702351
-0.028073765 -0.0020052791 0.69665527
-0.028187862 -0.0040268302 0.69763905
-0.02840722 -0.0060872436 0.69953036
-0.028755657 -0.0082158744 0.70253479
-0.028971273 -0.010346889 0.7043938
-0.029074928 -0.012460679 0.70528752
-0.029195501 -0.014597774 0.70632708
-0.029339669 -0.016765565 0.70757014
-0.029508621 -0.018969804 0.70902693
-0.029703945 -0.021217108 0.71071106
-0.029927937 -0.023514777 0.71264231
-0.030184174 -0.025872141 0.71485162
-0.030478086 -0.02830106 0.71738577
-0.030815689 -0.030815691 0.72029674
-0.031206109 -0.033435106 0.72366297
-0.031744622 -0.036279589 0.72830617
-0.032318294 -0.039243668 0.73325247
-0.033056751 -0.042501569 0.73961961
-0.034226444 -0.046450168 0.7497049
-0.027907787 0.012880504 0.71373391
-0.027271736 0.010489106 0.70782793
-0.026951499 0.0082927644 0.70485431
-0.026752967 0.0061737299 0.70301092
-0.026616788 0.0040949285 0.7017464
-0.025865631 0.0019896626 0.69477159
-0.025775539 2.9802322e-08 0.69393504
-0.025836557 -0.0019873977 0.69450164
-0.026013242 -0.0040020347 0.69614232
-0.026300594 -0.0060693622 0.6988104
-0.026555715 -0.0081709921 0.70117933
-0.026664358 -0.010255545 0.70218813
-0.026765628 -0.012353361 0.70312846
-0.026887773 -0.014478028 0.70426261
-0.027031805 -0.016634971 0.70560002
-0.027200004 -0.018830746 0.70716178
-0.027394287 -0.021072537 0.70896584
-0.027615728 -0.023367137 0.71102202
-0.027867734 -0.025724113 0.71336204
-0.028155548 -0.028155535 0.71603447
-0.028487619 -0.030678958 0.71911794
-0.028877659 -0.033320367 0.72273964
-0.029417694 -0.036206394 0.72775412
-0.030010538 -0.039244562 0.7332589
-0.030828962 -0.042686284 0.74085832
-0.025743144 0.015016854 0.71355391
-0.024988055 0.012494057 0.70595837
-0.024661172 0.010275483 0.70267016
-0.02445785 0.0081526339 0.70062488
-0.024325669 0.0060814023 0.69929528
-0.023683283 0.0039472282 0.69283336
-0.023529036 0.0019607246 0.6912818
-0.023562001 2.9802322e-08 0.69161338
-0.023684684 -0.0019737184 0.69284749
-0.023918007 -0.0039863288 0.69519448
-0.024184283 -0.0060460865 0.69787306
-0.024312664 -0.0081042349 0.69916445
-0.024396634 -0.010165274 0.70000917
-0.024502264 -0.012251139 0.70107168
-0.024627084 -0.014365792 0.70232725
-0.024771869 -0.016514599 0.70378369
-0.02493803 -0.01870352 0.70545512
-0.02512745 -0.020939529 0.70736057
-0.025343282 -0.023231328 0.70953166
-0.02558976 -0.025589764 0.71201104
-0.025872037 -0.028028071 0.71485054
-0.026197707 -0.03056401 0.71812648
-0.026580188 -0.033225238 0.72197396
-0.027128294 -0.036171049 0.72748756
-0.027749278 -0.039311469 0.73373407
-0.028735472 -0.043103188 0.74365449
-0.022742076 0.014472216 0.7041626
-0.022410385 0.01222384 0.70052272
-0.022209719 0.010095328 0.69832063
-0.022079371 0.0080288649 0.69689029
-0.021902679 0.0059734583 0.6949513
-0.021347521 0.0038813949 0.68885911
-0.021343132 0.00194031 0.68881094
-0.021435147 2.9802322e-08 0.68982077
-0.021605367 -0.0019641519 0.69168872
-0.02186396 -0.0039752424 0.69452643
-0.022016751 -0.0060045421 0.69620311
-0.022092666 -0.0080336928 0.69703615
-0.022180898 -0.010082215 0.69800442
-0.022285709 -0.012155801 0.69915456
-0.022407923 -0.014259577 0.70049572
-0.022548653 -0.016399026 0.70204008
-0.022709232 -0.018580288 0.70380223
-0.022892378 -0.02081126 0.70581198
-0.023101656 -0.023101658 0.70810848
-0.02334119 -0.025463104 0.71073711
-0.023617018 -0.027911037 0.71376395
-0.023938006 -0.030466527 0.71728635
-0.024317162 -0.033159763 0.72144711
-0.024793111 -0.036062717 0.72667003
-0.025550906 -0.039487779 0.73498589
-0.02054701 0.01643762 0.70262229
-0.020206472 0.01414454 0.6985116
-0.020008825 0.012005299 0.69612581
-0.019876959 0.0099385083 0.694534
-0.019777102 0.0079108477 0.69332862
-0.019217512 0.0057652593 0.68657386
-0.019182222 0.003836453 0.68614781
-0.019243011 0.0019243062 0.6868816
-0.019376475 -0 0.68849266
-0.019590411 -0.0019590259 0.69107509
-0.019767493 -0.0039534867 0.69321269
-0.019844009 -0.0059531927 0.69413632
-0.019916598 -0.0079666376 0.69501257
-0.020003626 -0.010001808 0.69606304
-0.020105951 -0.012063563 0.69729817
-0.020226484 -0.014158547 0.69875312
-0.020363709 -0.016290963 0.70040965
-0.020519624 -0.018467635 0.70229173
-0.020696249 -0.020696253 0.70442379
-0.020897301 -0.022987038 0.70685065
-0.02112698 -0.025352359 0.7096231
-0.021391263 -0.027808636 0.71281332
-0.021704808 -0.030386746 0.71659809
-0.022083972 -0.033125967 0.72117507
-0.022527419 -0.036043912 0.72652793
-0.023465464 -0.039891273 0.73785114
-0.018396366 0.018396407 0.70133543
-0.018042142 0.016037494 0.69658446
-0.01784729 0.013881236 0.6939711
-0.017723244 0.011815488 0.69230735
-0.017637517 0.0097986162 0.69115752
-0.017149471 0.0076220036 0.68461174
-0.017078772 0.005692929 0.68366349
-0.017110309 0.0038022697 0.6840865
-0.017208386 0.0019120872 0.68540192
-0.017377788 -2.9802322e-08 0.68767405
-0.017560691 -0.0019511878 0.69012713
-0.017648507 -0.0039218962 0.69130492
-0.017707355 -0.0059024394 0.69209421
-0.01778147 -0.0079028904 0.69308829
-0.017868252 -0.0099267662 0.69425225
-0.017968353 -0.011978894 0.69559479
-0.018082786 -0.014064372 0.69712961
-0.018212745 -0.016189069 0.69887263
-0.018360216 -0.018360198 0.70085061
-0.018528145 -0.020586818 0.70310289
-0.018719696 -0.02287963 0.70567203
-0.01893975 -0.025252998 0.70862353
-0.019195266 -0.027726471 0.71205056
-0.01949669 -0.030328214 0.71609336
-0.019877592 -0.033129305 0.72120214
-0.020170065 -0.035857886 0.72512478
-0.020307593 -0.038358778 0.72696936
-0.016292557 0.020365715 0.70043367
-0.015917627 0.017907292 0.69477642
-0.015729418 0.015729427 0.69193649
-0.015609075 0.013657957 0.6901207
-0.015528781 0.011646628 0.68890911
-0.015139045 0.0094619095 0.68302846
-0.015020036 0.0075100362 0.68123275
-0.015034985 0.0056381226 0.68145829
-0.015103402 0.003775835 0.68249065
-0.01522878 0.0019035935 0.68438244
-0.01540359 -0 0.68702018
-0.015503821 -0.0019379854 0.68853259
-0.015555394 -0.0038888156 0.68931067
-0.015615288 -0.0058557093 0.6902144
-0.015686024 -0.0078430474 0.6912818
-0.015767958 -0.0098549724 0.692518
-0.015861932 -0.011896431 0.69393599
-0.01596983 -0.013973594 0.69556403
-0.01609291 -0.016092867 0.69742113
-0.016231775 -0.018260747 0.69951653
-0.016389284 -0.020486593 0.70189315
-0.016568718 -0.022781968 0.70460057
-0.016775854 -0.02516377 0.707726
-0.017021539 -0.027659982 0.71143305
-0.017315997 -0.030303031 0.71587622
-0.017652763 -0.033098936 0.72095758
-0.017797019 -0.035594046 0.72313422
-0.017960077 -0.038165152 0.72559452
-0.014260225 0.022408903 0.70050675
-0.013830359 0.019757658 0.6930939
-0.013649212 0.017548978 0.6899702
-0.013534339 0.015467823 0.68798923
-0.013459754 0.013459772 0.68670309
-0.013361884 0.011453032 0.68501544
-0.013018164 0.009298712 0.67908812
-0.013006657 0.0074323714 0.67888969
-0.01305538 0.0055951476 0.67972994
-0.013147217 0.0037563741 0.68131357
-0.01329221 0.0018988848 0.68381387
-0.013403662 2.9802322e-08 0.68573576
-0.013453292 -0.0019218624 0.68659163
-0.013500742 -0.0038573444 0.68740988
-0.013557231 -0.0058102608 0.68838406
-0.013624365 -0.0077853203 0.6895417
-0.013702344 -0.0097873807 0.69088638
-0.01379077 -0.011820674 0.69241124
-0.01389075 -0.013890773 0.69413537
-0.014003659 -0.016004175 0.69608241
-0.014131689 -0.018169314 0.69829023
-0.014277431 -0.020396292 0.7008034
-0.014444416 -0.022698373 0.70368296
-0.014637893 -0.025093496 0.70701933
-0.014868239 -0.027612448 0.7109915
-0.015155694 -0.030311376 0.71594846
-0.015363172 -0.032921076 0.71952641
-0.01546629 -0.035351485 0.72130454
-0.015690779 -0.038106173 0.72517574
-0.011778689 0.021594256 0.69156682
-0.011604673 0.019341141 0.68806589
-0.01150078 0.017251194 0.68597573
-0.011429325 0.01523909 0.68453819
-0.011374675 0.013270438 0.68343872
-0.011054067 0.011054099 0.6769886
-0.011030835 0.0091923773 0.67652118
-0.011056429 0.0073709786 0.67703611
-0.011124603 0.0055623055 0.67840761
-0.011234043 0.0037446618 0.68060946
-0.011345916 0.0018909872 0.68286014
-0.011399336 -0 0.68393481
-0.011436161 -0.0019059777 0.68467563
-0.01148235 -0.0038274527 0.68560493
-0.011536091 -0.0057680309 0.6866861
-0.011597769 -0.0077318251 0.68792707
-0.011667996 -0.0097233355 0.68933988
-0.011747348 -0.01174733 0.69093633
-0.011837159 -0.013809979 0.69274318
-0.011939361 -0.015919149 0.6947993
-0.012055093 -0.018082619 0.69712764
-0.012187077 -0.020311803 0.69978303
-0.012340063 -0.022623479 0.70286083
-0.012519401 -0.025038779 0.70646876
-0.01273388 -0.027590096 0.71078384
-0.012972912 -0.030270159 0.7155928
-0.0130729 -0.03268227 0.7176044
-0.013192042 -0.035178781 0.72000134
-0.0097579937 0.023419172 0.69017673
-0.009597403 0.02111432 0.68629974
-0.0095020449 0.019004107 0.68399751
-0.0094394833 0.016991049 0.68248725
-0.0093959486 0.015033513 0.68143618
-0.0091408417 0.012797207 0.67527735
-0.0090977941 0.010917366 0.67423809
-0.009110881 0.0091108978 0.67455405
-0.0091543198 0.0073234439 0.67560273
-0.0092334468 0.0055401027 0.67751306
-0.0093351547 0.0037340522 0.67996848
-0.009391645 0.0018783212 0.68133229
-0.0094218859 2.9802322e-08 0.68206239
-0.0094569316 -0.0018913746 0.68290842
-0.0094979685 -0.0037992001 0.68389916
-0.0095452964 -0.0057271719 0.68504179
-0.0095997965 -0.0076798499 0.6863575
-0.0096625676 -0.0096625686 0.68787301
-0.0097331656 -0.011679769 0.68957734
-0.0098125711 -0.013737619 0.69149435
-0.0099022891 -0.01584366 0.69366038
-0.010004173 -0.018007517 0.69612002
-0.010120606 -0.020241201 0.69893098
-0.010255228 -0.022561491 0.70218098
-0.010416979 -0.025000751 0.70608604
-0.010616341 -0.027602464 0.710899
-0.010750831 -0.030102342 0.71414596
-0.010822264 -0.032466769 0.7158705
-0.010977065 -0.035126597 0.71960771
-0.0077712946 0.025256723 0.68911749
-0.0076202461 0.022860736 0.68455923
-0.0075385021 0.020730913 0.68209237
-0.007484993 0.018712491 0.6804775
-0.0074482244 0.016758502 0.67936802
-0.0072703036 0.014540613 0.67399877
-0.0072063785 0.012611181 0.67206961
-0.0072086621 0.010812998 0.67213857
-0.0072373888 0.0090467632 0.67300546
-0.007288944 0.0072889328 0.67456126
-0.0073687541 0.0055265725 0.67696977
-0.0074263914 0.0037131906 0.67870915
-0.0074528558 0.0018632412 0.67950773
-0.0074782525 2.9802322e-08 0.68027413
-0.007508243 -0.0018770695 0.68117923
-0.0075442423 -0.0037721097 0.68226558
-0.0075855018 -0.0056890845 0.68351066
-0.0076321019 -0.0076320767 0.68491697
-0.0076845256 -0.0096056759 0.68649906
-0.0077435425 -0.011615276 0.68827999
-0.0078102336 -0.013667911 0.6902926
-0.0078858119 -0.015771598 0.69257337
-0.007972097 -0.017937183 0.69517726
-0.0080715716 -0.020178914 0.69817913
-0.0081879711 -0.022516936 0.70169181
-0.0083279647 -0.024983883 0.70591652
-0.0084776385 -0.027552336 0.7104333
-0.0085394196 -0.029887944 0.71229774
-0.0086168842 -0.032313317 0.71463537
-0.0058114566 0.027120143 0.68843287
-0.0056765196 0.024598271 0.68300343
-0.0056089619 0.022435874 0.68028516
-0.0055646729 0.020403802 0.67850304
-0.0055356966 0.018452317 0.67733717
-0.005499192 0.016497582 0.67586833
-0.0053558019 0.014282167 0.67009872
-0.0053486456 0.01248017 0.66981077
-0.0053650094 0.010730028 0.67046928
-0.0053986995 0.0089978278 0.67182481
-0.005451777 0.0072690248 0.67396051
-0.0055031436 0.0055031478 0.67602736
-0.0055275629 0.0036850274 0.67700988
-0.0055448776 0.00184834 0.67770654
-0.0055665299 -0 0.67857778
-0.0055915369 -0.0018638372 0.67958397
-0.0056200922 -0.003746748 0.68073297
-0.0056524291 -0.0056524277 0.68203413
-0.0056889541 -0.0075852573 0.68350375
-0.005730873 -0.0095514357 0.68519044
-0.0057777693 -0.011555552 0.68707746
-0.0058306218 -0.01360479 0.68920404
-0.0058904304 -0.015707821 0.69161057
-0.0059586843 -0.017876059 0.69435692
-0.0060375356 -0.020125121 0.69752961
-0.006132849 -0.022487074 0.7013647
-0.0062490422 -0.024996161 0.70603997
-0.006322131 -0.027395904 0.7089808
-0.0063636741 -0.02969715 0.71065241
-0.0064534661 -0.032267302 0.71426535
-0.0038789301 0.029091984 0.688712
-0.0037591276 0.026313901 0.68148136
-0.0037098506 0.024114013 0.67850721
-0.0036789861 0.022073895 0.67664438
-0.0036574323 0.020115882 0.67534351
-0.0036406666 0.018203318 0.67433161
-0.0035393429 0.015927047 0.66821611
-0.0035301785 0.014120698 0.66766298
-0.0035367161 0.012378514 0.66805756
-0.0035549209 0.010664731 0.66915637
-0.0035861705 0.0089654326 0.67104244
-0.0036238574 0.0072477162 0.67331702
-0.0036444985 0.0054667592 0.67456287
-0.0036558553 0.0036558807 0.67524832
-0.0036689912 0.001834482 0.67604113
-0.0036842821 -0 0.67696404
-0.0037018086 -0.0018509328 0.67802185
-0.0037222838 -0.0037222803 0.67925763
-0.00374548 -0.0056182146 0.68065763
-0.0037714387 -0.0075428784 0.68222439
-0.0038005437 -0.0095013678 0.68398106
-0.0038333144 -0.011499941 0.68595898
-0.0038703638 -0.013546258 0.68819505
-0.0039125523 -0.015650213 0.6907413
-0.0039610881 -0.017824888 0.69367075
-0.0040177996 -0.020089 0.69709361
-0.0040865624 -0.022476107 0.70124382
-0.0041564074 -0.024938434 0.7054593
-0.0041852635 -0.027204245 0.70720094
-0.0042230422 -0.029561281 0.70948106
-0.0018687882 0.028031826 0.68018061
-0.0018412259 0.025777191 0.67685354
-0.0018243954 0.023717165 0.67482191
-0.0018130054 0.021756023 0.67344707
-0.0018050196 0.019855261 0.67248303
-0.0017568773 0.017568767 0.66667175
-0.0017476481 0.015728831 0.66555774
-0.0017495058 0.013996065 0.66578197
-0.0017568711 0.012298107 0.66667104
-0.0017695462 0.010617286 0.66820103
-0.0017887711 0.0089438558 0.67052168
-0.0018018087 0.0072072148 0.67209548
-0.0018080069 0.0054240227 0.67284369
-0.0018139584 0.0036278963 0.67356205
-0.0018209626 0.0018209517 0.6744076
-0.0018294115 -0 0.67542744
-0.0018389726 -0.0018389523 0.6765815
-0.0018497275 -0.0036994517 0.67787975
-0.001861779 -0.0055853128 0.67933452
-0.0018752948 -0.0075011551 0.68096602
-0.0018906788 -0.0094533563 0.682823
-0.0019079674 -0.011447787 0.68490994
-0.0019274959 -0.013492495 0.6872673
-0.001949728 -0.01559782 0.68995094
-0.0019756798 -0.017781138 0.69308364
-0.002006612 -0.020066082 0.6968174
-0.0020441911 -0.022486061 0.70135361
-0.0020662576 -0.024795085 0.70401734
-0.002079698 -0.027036071 0.70563972
-0.0021086382 -0.029520899 0.70913303
0 0.029739678 0.67896634
0 0.027419329 0.67525154
0 0.02533409 0.67303312
0 0.023369372 0.67159301
0 0.021470457 0.67057419
0 0.019233048 0.66565579
0 0.017316282 0.66362375
0 0.015579432 0.66355354
0 0.013896435 0.66427898
0 0.012237072 0.66561818
0 0.010592043 0.66769314
0 0.008905381 0.6695925
0 0.0071540773 0.6704908
0 0.0053818822 0.67114723
0 0.0036014915 0.67196476
0 0.0018084943 0.67290282
0 -0 0.67396843
0 -0.00182724 0.67516935
0 -0.0036774576 0.67655218
0 -0.0055547953 0.67810535
0 -0.007463783 0.67983741
0 -0.0094102621 0.68178171
0 -0.011401296 0.68397498
0 -0.013445973 0.68646604
0 -0.015556455 0.68932712
0 -0.017749757 0.69266337
0 -0.020059735 0.69674063
0 -0.022423804 0.70067006
0 -0.024624586 0.70230186
0 -0.026916236 0.70452714
0.0018511576 0.031469703 0.67805243
0.0018153669 0.02904588 0.67373204
0.0017957689 0.026936531 0.67136633
0.0017825452 0.02495563 0.66977018
0.0017736674 0.023057699 0.66869855
0.0017630741 0.021156907 0.66741979
0.0017165374 0.018881947 0.66180229
0.0017137859 0.017137885 0.66147017
0.0017176807 0.01545912 0.66194034
0.0017272807 0.013818234 0.66309917
0.0017425052 0.012197554 0.6649369
0.001759899 0.01055938 0.66703653
0.0017694148 0.0088470876 0.66818523
0.0017747619 0.0070990622 0.66883063
0.0017809337 0.0053428411 0.66957557
0.0017880553 0.0035760999 0.67043531
0.0017962265 0.0017962456 0.67142165
0.001805821 -0 0.67257977
0.0018165465 -0.001816541 0.6738745
0.0018285022 -0.0036570132 0.6753177
0.0018418563 -0.005525589 0.67692965
0.0018568321 -0.007427305 0.67873734
0.0018737008 -0.0093685091 0.68077362
0.0018928244 -0.01135692 0.68308204
0.0019147282 -0.013403118 0.68572605
0.0019401644 -0.015521318 0.68879646
0.0019703039 -0.017732739 0.69243467
0.0020066684 -0.020066708 0.69682425
0.0020266627 -0.022293299 0.69923776
0.0020397662 -0.024477184 0.70081943
0.0020677689 -0.026881009 0.70419973
0.0036939653 0.033245683 0.67754847
0.0036075145 0.030663878 0.67233074
0.003564341 0.028514743 0.66972494
0.0035363659 0.026522756 0.66803646
0.0035167923 0.024617553 0.6668551
0.0035013254 0.022758633 0.66592163
0.003405561 0.020433366 0.66014171
0.0033946787 0.018670708 0.65948486
0.0033996722 0.016998351 0.65978634
0.0034147182 0.015366226 0.66069436
0.0034405226 0.013762087 0.66225183
0.0034767408 0.012168586 0.66443777
0.0035002967 0.010500878 0.66585952
0.0035119541 0.0087799132 0.66656309
0.0035231314 0.0070462823 0.66723776
0.0035363408 0.0053045154 0.66803503
0.0035521197 0.0035521388 0.66898727
0.0035698849 0.0017849505 0.67005956
0.0035897854 -0 0.67126071
0.0036119677 -0.0018059611 0.67259943
0.0036373585 -0.0036373734 0.67413193
0.0036656717 -0.0054984987 0.67584085
0.0036973499 -0.0073947012 0.67775273
0.0037329893 -0.0093325078 0.67990375
0.0037733871 -0.011320174 0.68234199
0.0038197068 -0.013368964 0.68513763
0.0038736148 -0.015494466 0.68839121
0.0039400342 -0.017730147 0.69239998
0.0040005972 -0.020002961 0.69605529
0.0040260111 -0.022143066 0.69758916
0.0040620291 -0.02437216 0.69976306
0.0055521997 0.035163939 0.67800117
0.0053781574 0.032268941 0.67099828
0.005307287 0.030074626 0.66814667
0.0052626859 0.028067648 0.66635203
0.0052314694 0.026157379 0.66509593
0.0052094283 0.024310678 0.66420913
0.0050727963 0.021982133 0.65871143
0.0050436161 0.020174444 0.65753734
0.005047211 0.018506467 0.657682
0.0050658965 0.016886324 0.65843391
0.0050987806 0.01529637 0.65975702
0.0051490297 0.013730764 0.66177887
0.0051923096 0.012115359 0.66352034
0.0052127573 0.010425508 0.66434312
0.005228153 0.0087135732 0.66496253
0.0052472511 0.0069963634 0.66573101
0.0052690227 0.0052690208 0.66660702
0.0052936245 0.0035291016 0.66759694
0.0053215493 0.0017738938 0.66872048
0.0053536054 -0 0.67001039
0.0053892019 -0.0017963946 0.67144269
0.0054287678 -0.003619194 0.67303467
0.0054730261 -0.0054730177 0.67481548
0.0055227224 -0.0073636174 0.67681515
0.0055789435 -0.0092982352 0.67907727
0.0056432062 -0.011286378 0.68166304
0.0057177097 -0.013341337 0.68466079
0.0058058603 -0.015482247 0.68820769
0.005911075 -0.017733246 0.69244123
0.005965529 -0.019885093 0.69463223
0.0060040164 -0.022014707 0.69618082
0.0060853618 -0.024341434 0.69945395
0.0071324422 0.033879131 0.66983843
0.0070273858 0.031623214 0.66666806
0.0069619473 0.029588282 0.66469324
0.0069184364 0.027673751 0.66338027
0.0068873437 0.025827527 0.66244191
0.0067376122 0.023581654 0.65792334
0.0066675367 0.021669507 0.65580863
0.0066615227 0.019984573 0.65562713
0.0066812695 0.018373489 0.65622306
0.0067194253 0.016798586 0.6573745
0.0067788023 0.015252292 0.6591664
0.0068430961 0.01368618 0.66110665
0.0068782307 0.01203692 0.66216689
0.0068984064 0.010347605 0.66277575
0.0069216192 0.0086520314 0.66347623
0.0069482434 0.0069482625 0.6642797
0.0069790627 0.0052343309 0.66520977
0.0070147756 0.0035074055 0.66628742
0.0070545333 0.0017636418 0.66748732
0.0070986454 -0 0.66881847
0.0071476996 -0.0017869174 0.67029881
0.0072035515 -0.0036017597 0.67198431
0.00726587 -0.0054493845 0.67386496
0.0073358039 -0.0073358119 0.67597538
0.0074149184 -0.0092686415 0.67836285
0.0075054555 -0.011258185 0.68109512
0.007611494 -0.013320059 0.68429506
0.0077412664 -0.015482515 0.68821132
0.0078539075 -0.017671257 0.69161052
0.007901689 -0.019754261 0.69305253
0.0079720654 -0.021923184 0.6951763
0.0088732745 0.035493076 0.66881776
0.008723828 0.033150554 0.66520977
0.0086375056 0.031095028 0.66312581
0.0085781552 0.029165775 0.66169286
0.0085372319 0.027319163 0.66070497
0.0084910458 0.025473148 0.65958989
0.0082645165 0.023140669 0.65412098
0.0082492288 0.021448016 0.65375197
0.0082645165 0.019834846 0.65412104
0.0083028609 0.01826629 0.6550467
0.0083682649 0.016736537 0.65662575
0.0084536606 0.015216589 0.65868735
0.008506868 0.013610989 0.65997183
0.0085342908 0.011947989 0.66063392
0.0085605728 0.010272682 0.66126847
0.0085917953 0.0085918009 0.66202217
0.0086286878 0.0069029629 0.66291291
0.0086699845 0.0052019954 0.66390985
0.0087160477 0.0034864247 0.6650219
0.0087681618 0.0017536283 0.66628009
0.0088270027 2.9802322e-08 0.66770065
0.0088921664 -0.0017784238 0.66927385
0.0089648161 -0.0035859346 0.67102772
0.0090462118 -0.0054277182 0.67299283
0.00913807 -0.0073104203 0.67521048
0.0092428625 -0.0092428625 0.67774034
0.0093641905 -0.011236995 0.68066949
0.0095074251 -0.013310403 0.68412751
0.0096761715 -0.015481889 0.68820143
0.0097588692 -0.017565936 0.69019789
0.0098216245 -0.019643247 0.69171286
0.0099530295 -0.02189669 0.69488537
0.010606474 0.037122667 0.66798371
0.010403007 0.034676671 0.66389024
0.010289482 0.032583356 0.66160631
0.010213172 0.030639529 0.66007107
0.010159738 0.028785914 0.65899605
0.010116771 0.026978046 0.65813172
0.0098445732 0.024611443 0.65265542
0.0098075885 0.022884369 0.65191138
0.009818526 0.021273494 0.65213144
0.0098570175 0.019714028 0.65290582
0.0099219428 0.018190235 0.654212
0.010019564 0.016699284 0.65617597
0.010099414 0.015149117 0.65778244
0.010136857 0.01351583 0.65853572
0.010165965 0.011860281 0.65912139
0.010201962 0.010201961 0.65984553
0.010242686 0.0085355639 0.66066486
0.010288424 0.0068589449 0.66158509
0.010341158 0.0051706135 0.66264594
0.010400665 0.0034668744 0.66384315
0.010466403 0.0017444193 0.66516572
0.010539228 -0 0.66663086
0.010620357 -0.0017700791 0.66826302
0.010712139 -0.0035707057 0.67010951
0.010815136 -0.0054075718 0.67218167
0.010931386 -0.0072875619 0.67452043
0.01106417 -0.0092201531 0.67719185
0.011221153 -0.011221141 0.68035007
0.011410949 -0.013312757 0.68416846
0.011567605 -0.015423477 0.68732023
0.011635301 -0.017452985 0.68868214
0.011738528 -0.019564211 0.69075888
0.012353838 0.038826346 0.66763222
0.012062689 0.036188036 0.66261154
0.011917557 0.034050167 0.66010886
0.011824816 0.032095939 0.65850955
0.011758126 0.030235201 0.65735954
0.011710674 0.028440207 0.65654129
0.011408309 0.026076138 0.65132713
0.01134016 0.024300337 0.65015197
0.011341812 0.02268365 0.65018046
0.011378475 0.021131456 0.65081269
0.011444766 0.019619614 0.65195584
0.011546103 0.018143892 0.65370333
0.01165022 0.016643196 0.65549874
0.011707034 0.015051931 0.65647852
0.01174039 0.013417602 0.65705371
0.011778648 0.011778682 0.65771341
0.011822222 0.010133326 0.65846479
0.011873239 0.0084808767 0.65934455
0.011931441 0.0068179667 0.66034824
0.011995967 0.005141139 0.66146094
0.012067261 0.0034478009 0.6626904
0.012148208 0.0017354786 0.66408622
0.012238325 2.9802322e-08 0.66564029
0.012338519 -0.0017626286 0.66736805
0.012450494 -0.0035572648 0.66929901
0.012576655 -0.0053900182 0.67147458
0.012720305 -0.0072687268 0.67395175
0.012886305 -0.0092045367 0.67681432
0.013081958 -0.011213094 0.68018818
0.013307665 -0.013307631 0.68408036
0.013414545 -0.015330911 0.68592346
0.013500636 -0.017357945 0.68740809
0.013679066 -0.019541502 0.69048494
0.014193313 0.040805817 0.66875851
0.013709818 0.037701994 0.66146308
0.013528507 0.035512328 0.65872735
0.013412104 0.033530265 0.65697092
0.01333232 0.031664252 0.65576708
0.013274885 0.029868513 0.65490043
0.012999072 0.027623028 0.65073878
0.012854511 0.025709033 0.64855754
0.012839503 0.024074078 0.64833105
0.012868147 0.02251929 0.64876324
0.012933549 0.021017045 0.64975011
0.013036028 0.019554049 0.65129638
0.013164604 0.018101335 0.65323645
0.013241906 0.016552389 0.65440285
0.013283298 0.014943719 0.65502739
0.013322957 0.013322949 0.65562582
0.013370171 0.011698902 0.65633821
0.013425464 0.010069072 0.65717256
0.013487029 0.0084294081 0.6581015
0.013555355 0.006777674 0.65913242
0.013634122 0.0051128268 0.66032094
0.013721284 0.0034303367 0.66163611
0.013817338 0.0017271638 0.66308546
0.013924089 2.9802322e-08 0.66469616
0.014043135 -0.0017553866 0.66649246
0.014177177 -0.003544271 0.66851503
0.014329123 -0.0053733885 0.67080766
0.014503676 -0.0072518587 0.67344147
0.014708914 -0.0091930628 0.67653835
0.014955723 -0.011216789 0.68026233
0.015149014 -0.013255388 0.6831789
0.015234517 -0.01523453 0.68446904
0.015369111 -0.017290235 0.68649983
0.015344502 0.039213747 0.66040295
0.015118808 0.036957085 0.65737593
0.014978106 0.034948915 0.65548873
0.01488198 0.033071071 0.65419948
0.014813882 0.031273752 0.6532861
0.014741434 0.029482901 0.65231436
0.014344367 0.027094901 0.64698887
0.014314546 0.025448084 0.64658886
0.014335965 0.023893237 0.64687616
0.014395173 0.022392482 0.64767027
0.014491248 0.02093184 0.6489588
0.014633221 0.019510955 0.65086305
0.014743943 0.018020391 0.65234804
0.01479563 0.016439587 0.6530413
0.014836968 0.014836937 0.65359581
0.014887884 0.013233662 0.65427864
0.014945149 0.011624038 0.6550467
0.015009008 0.010006011 0.65590322
0.015083815 0.0083799064 0.65690655
0.015166723 0.0067407787 0.65801853
0.015257939 0.0050860047 0.65924191
0.01535858 0.0034130216 0.66059172
0.015473148 0.0017192364 0.66212839
0.015600025 -0 0.6638301
0.015741589 -0.0017490685 0.66572881
0.015900724 -0.0035334826 0.66786313
0.016081579 -0.0053605437 0.6702888
0.016290251 -0.0072400868 0.6730876
0.016536592 -0.0091869831 0.6763916
0.016812939 -0.011208594 0.68009806
0.01694 -0.013175547 0.68180227
0.017048448 -0.015154153 0.68325675
0.01727102 -0.017271012 0.68624198
0.016978519 0.040748477 0.65954673
0.016691251 0.038389862 0.65607917
0.016525485 0.036356091 0.65407819
0.016409559 0.034460068 0.65267885
0.016328271 0.032656521 0.65169764
0.016261831 0.030897528 0.6508956
0.015831027 0.028495848 0.64569533
0.0157633 0.026797593 0.64487779
0.015775673 0.025241077 0.64502716
0.015830176 0.023745239 0.64568508
0.015924135 0.022293776 0.64681923
0.016065456 0.02088508 0.64852518
0.016203167 0.01944381 0.65018743
0.016278284 0.0179061 0.6510942
0.016323317 0.016323328 0.65163779
0.01637492 0.014737457 0.65226072
0.016433218 0.013146579 0.65296441
0.016502157 0.011551529 0.65379655
0.016579805 0.0099478662 0.6547339
0.016665345 0.0083326697 0.65576637
0.01676058 0.006704241 0.65691602
0.016868789 0.005060643 0.6582222
0.016987627 0.0033975542 0.6596567
0.017119272 0.0017119348 0.66124576
0.017265772 -0 0.66301417
0.01743003 -0.0017430186 0.66499704
0.017616216 -0.0035232604 0.66724443
0.017830152 -0.00534904 0.66982692
0.018080853 -0.007232368 0.67285311
0.018381955 -0.0091909766 0.67648774
0.018604498 -0.011162698 0.67917407
0.018706465 -0.013094515 0.6804049
0.018871063 -0.015096843 0.68239182
0.018613147 0.042302579 0.65885293
0.018252362 0.039823323 0.65489382
0.018051285 0.037743628 0.65268725
0.017918237 0.035836458 0.65122724
0.017821981 0.034023792 0.65017098
0.017752999 0.03227818 0.64941394
0.017307676 0.029895067 0.64452714
0.017195474 0.028138071 0.64329582
0.017188011 0.026563287 0.64321399
0.017236024 0.025070608 0.64374083
0.017325873 0.023626238 0.64472681
0.017463859 0.022226721 0.64624101
0.017629944 0.02083537 0.6480636
0.017726926 0.019338489 0.64912784
0.017780701 0.017780721 0.64971799
0.017832145 0.016211063 0.6502825
0.017893711 0.014640272 0.65095812
0.017965024 0.013065487 0.65174073
0.018044006 0.011482537 0.65260738
0.0181324 0.0098904073 0.65357745
0.018233677 0.0082880557 0.65468878
0.018344648 0.0066708028 0.65590656
0.018466515 0.0050362945 0.65724391
0.018602014 0.003382206 0.6587308
0.018754903 0.0017049909 0.66040856
0.01892502 -0 0.66227537
0.019115832 -0.0017378032 0.66436929
0.019332439 -0.0035149753 0.66674626
0.019581975 -0.0053405464 0.66948462
0.019878954 -0.0072287023 0.67274356
0.020198558 -0.0091811717 0.67625082
0.020342339 -0.011095822 0.67782861
0.020471951 -0.013027608 0.67925096
0.020736037 -0.01508075 0.68214893
0.020276247 0.043931872 0.65856117
0.019795211 0.041240007 0.65372241
0.01956035 0.039120704 0.65135986
0.019404901 0.037192732 0.64979619
0.019294903 0.035374016 0.64868963
0.019215124 0.033626437 0.64788717
0.019057168 0.031761974 0.64629823
0.01861107 0.029467553 0.64181083
0.018584687 0.027877033 0.64154541
0.018619265 0.02637729 0.64189327
0.01869981 0.0249331 0.64270353
0.018829705 0.023537129 0.64401019
0.019009985 0.022178292 0.6458236
0.019145887 0.020741403 0.64719069
0.01920996 0.019209951 0.6478352
0.019262219 0.017657042 0.64836091
0.019326327 0.016105264 0.64900577
0.019397942 0.014548481 0.64972615
0.019478049 0.012985379 0.65053195
0.019571826 0.011416912 0.65147531
0.019674631 0.0098373294 0.65250945
0.019787254 0.0082446933 0.6536423
0.019914176 0.0066380799 0.65491909
0.020055326 0.0050138235 0.65633893
0.020211203 0.0033684969 0.65790695
0.020384252 0.0016987026 0.65964764
0.020577976 -0 0.66159642
0.020797078 -0.0017330945 0.66380036
0.021048456 -0.0035080612 0.66632903
0.021342564 -0.005335629 0.66928756
0.021695377 -0.0072317719 0.67283654
0.021940904 -0.0091420412 0.67530638
0.022057779 -0.011028856 0.67648208
0.022251185 -0.012979805 0.67842752
0.022147829 0.045999318 0.66025019
0.021338234 0.042676479 0.65273273
0.021055115 0.040490597 0.65010387
0.020870686 0.038530529 0.64839137
0.020745613 0.036703765 0.64722997
0.020654442 0.034953654 0.6463834
0.020560885 0.033213735 0.64551473
0.020007573 0.030780882 0.64037699
0.019958707 0.029170394 0.63992321
0.019981882 0.027667224 0.64013845
0.020055195 0.026226044 0.64081919
0.02017625 0.024832338 0.64194322
0.020355694 0.023487329 0.6436094
0.020521576 0.022100151 0.64514971
0.020611901 0.020611912 0.6459884
0.020667436 0.019077659 0.64650404
0.020730801 0.017541468 0.64709246
0.020801872 0.016001463 0.6477524
0.020886904 0.014460176 0.64854193
0.020981157 0.012911469 0.6494171
0.02108453 0.011353195 0.65037704
0.021201843 0.0097854435 0.65146637
0.021332286 0.0082047284 0.65267754
0.021475045 0.0066077113 0.65400308
0.021632524 0.0049921572 0.65546536
0.021808187 0.0033551157 0.65709651
0.022005988 0.0016927719 0.65893316
0.022227371 -0 0.66098881
0.022478238 -0.0017291009 0.66331816
0.022766819 -0.0035025775 0.6659978
0.023113227 -0.0053337812 0.66921431
0.023470504 -0.0072216988 0.67253178
0.023627972 -0.0090876818 0.67399395
0.023777481 -0.010974258 0.67538226
0.024080731 -0.012966543 0.67819804
0.022866817 0.044100314 0.65175998
0.022530846 0.041843027 0.6488632
0.022323841 0.039864004 0.64707834
0.022175647 0.038015395 0.64580059
0.022071538 0.036260396 0.64490294
0.02198495 0.034547776 0.64415634
0.021411015 0.032116532 0.63920778
0.02130902 0.030441463 0.63832837
0.021319266 0.028933287 0.63841671
0.02138363 0.027493238 0.63897169
0.021497685 0.026104331 0.63995504
0.021669792 0.024765491 0.64143908
0.021866772 0.023428679 0.6431374
0.021981293 0.021981299 0.64412487
0.022046044 0.020471334 0.64468318
0.022107899 0.018949628 0.64521646
0.022182176 0.017428875 0.64585692
0.022267427 0.015905321 0.64659196
0.022361325 0.01437515 0.64740157
0.022467976 0.01283884 0.64832109
0.022588026 0.011294037 0.64935619
0.022719011 0.0097367465 0.65048558
0.022862412 0.0081651509 0.65172207
0.023025336 0.0065786541 0.65312678
0.023204807 0.0049724579 0.65467423
0.023403663 0.0033433735 0.65638876
0.023625784 0.0016875863 0.65830392
0.023876548 2.9802322e-08 0.66046607
0.024163909 -0.0017259717 0.66294378
0.024499504 -0.0034999549 0.66583735
0.024901519 -0.0053360462 0.6693036
0.025164427 -0.0071898401 0.67157042
0.025294637 -0.0090337992 0.67269313
0.025515579 -0.010935247 0.67459816
0.02441139 0.04556796 0.65104556
0.023999166 0.043198496 0.64772826
0.023757439 0.041179597 0.64578307
0.023591435 0.039319068 0.64444715
0.023470666 0.037553102 0.64347529
0.023383429 0.035854608 0.64277321
0.022820471 0.033470035 0.6382429
0.022654124 0.03171578 0.63690424
0.022636289 0.030181736 0.63676071
0.022686101 0.028735727 0.63716161
0.022791296 0.027349532 0.63800812
0.022954054 0.026014596 0.63931787
0.02316761 0.024712116 0.64103645
0.023323117 0.023323089 0.64228785
0.023398664 0.021838754 0.64289582
0.023460688 0.020332634 0.64339495
0.023536466 0.018829197 0.64400482
0.02362054 0.017321765 0.64468127
0.023715476 0.015810311 0.64544535
0.023825163 0.014295101 0.64632803
0.023944804 0.012770563 0.64729083
0.02407592 0.011235416 0.64834601
0.024225669 0.0096902847 0.64955103
0.024388941 0.0081296563 0.65086496
0.024568491 0.0065515935 0.65230989
0.024766959 0.0049533844 0.653907
0.024989275 0.0033318996 0.65569609
0.025240213 0.0016826987 0.65771544
0.025524074 -0 0.65999985
0.02585138 -0.0017234385 0.66263378
0.026244421 -0.0034992397 0.6657967
0.026633333 -0.0053266883 0.66892648
0.026802631 -0.0071473718 0.6702888
0.026971187 -0.0089903772 0.67164528
0.027311359 -0.010924548 0.67438275
0.025966352 0.047064036 0.65049887
0.025454717 0.04454577 0.64663893
0.02517195 0.042477697 0.64450562
0.024987321 0.040604383 0.64311272
0.024852121 0.038831443 0.64209265
0.024753379 0.037130058 0.64134777
0.024570515 0.035320133 0.63996816
0.023980618 0.032973349 0.63551772
0.023941103 0.031422704 0.63521957
0.023977531 0.029971927 0.63549441
0.024070311 0.028583527 0.63619441
0.024218053 0.027245313 0.63730901
0.024434032 0.02596119 0.63893843
0.024623115 0.024623126 0.640365
0.024726084 0.023180753 0.64114183
0.024791015 0.021692157 0.64163172
0.024864702 0.020202607 0.6421876
0.024946988 0.018710226 0.64280844
0.025046185 0.017219245 0.64355683
0.02515471 0.015721709 0.6443755
0.025273111 0.014216125 0.6452688
0.025410039 0.012705028 0.64630187
0.025559146 0.0111821 0.64742678
0.025721742 0.0096456707 0.64865345
0.025902335 0.0080944896 0.65001595
0.026104702 0.0065261722 0.65154266
0.026328603 0.0049366355 0.65323192
0.026578153 0.0033222735 0.65511459
0.026859485 0.0016787052 0.65723705
0.027181217 2.9802322e-08 0.65966433
0.027556581 -0.0017222762 0.66249633
0.028003743 -0.0035004616 0.66586989
0.028280534 -0.005302608 0.66795814
0.028422806 -0.0071057081 0.66903144
0.028670153 -0.0089594126 0.67089748
0.02757208 0.048656642 0.65037698
0.026901256 0.045890361 0.64561373
0.02658039 0.043779463 0.64333534
0.026363721 0.041871816 0.64179689
0.026213579 0.040091336 0.6407308
0.026102727 0.038386405 0.63994372
0.025989002 0.036690384 0.6391362
0.025299422 0.034228683 0.63423967
0.025224101 0.032642961 0.6337049
0.02524551 0.031185627 0.63385689
0.025327297 0.029796839 0.63443762
0.025465218 0.028461128 0.63541698
0.025670102 0.027180135 0.63687181
0.025892643 0.025892645 0.63845193
0.026022235 0.024491519 0.63937211
0.026096722 0.023026556 0.63990104
0.026167771 0.02154994 0.64040554
0.026253466 0.020076185 0.64101404
0.026350899 0.018600613 0.64170587
0.026457449 0.017119527 0.64246243
0.02658039 0.01563555 0.64333534
0.026716303 0.014143944 0.64430046
0.026863959 0.012641877 0.64534891
0.027029051 0.011129647 0.64652121
0.027212454 0.0096044242 0.64782345
0.027413553 0.0080628097 0.64925134
0.027635412 0.0065024197 0.65082669
0.027882168 0.0049203634 0.65257883
0.028159449 0.0033128858 0.65454769
0.02847515 0.0016750097 0.65678936
0.028841658 -0 0.65939182
0.029277559 -0.0017221868 0.66248703
0.029691247 -0.0034930706 0.66542447
0.029871844 -0.0052714646 0.6667068
0.03005858 -0.0070725977 0.66803271
0.030433482 -0.0089510083 0.67069477
0.028348839 0.047248095 0.64470947
0.027971486 0.045065165 0.64217889
0.027729062 0.043134123 0.64055318
0.027555317 0.04133296 0.63938797
0.027431941 0.039623916 0.63856059
0.027328063 0.037955642 0.63786399
0.026624573 0.035499424 0.63314623
0.026490664 0.03384918 0.63224828
0.026490819 0.03237766 0.6322493
0.026560111 0.030986786 0.63271397
0.026686819 0.029652059 0.63356376
0.026878921 0.028372198 0.63485193
0.027122075 0.027122051 0.6364826
0.027292535 0.025776297 0.63762569
0.027378488 0.024336457 0.63820213
0.027449248 0.022874385 0.63867664
0.027535349 0.021416366 0.63925409
0.027630214 0.019955188 0.63989019
0.027738458 0.018492311 0.64061618
0.027861767 0.017026633 0.64144301
0.027995571 0.015553087 0.64234042
0.028144909 0.014072448 0.6433419
0.028312037 0.012583107 0.6444627
0.028493505 0.011080801 0.64567959
0.028692208 0.0095640421 0.64701217
0.028915314 0.0080320239 0.64850831
0.029163431 0.0064807534 0.65017223
0.029439498 0.0049065948 0.65202355
0.029750198 0.003305614 0.65410715
0.03010511 0.0016725063 0.65648723
0.030518459 -0 0.65925926
0.031007024 -0.0017226338 0.66253561
0.031293169 -0.0034770072 0.66445452
0.031447671 -0.005241245 0.66549075
0.031720467 -0.0070489943 0.66732007
0.029792024 0.048608065 0.64387238
0.029349083 0.046340615 0.64105833
0.029079227 0.044384122 0.63934386
0.028886432 0.042569458 0.63811898
0.028745372 0.040848702 0.63722283
0.02864266 0.03919524 0.63657027
0.027980143 0.036816001 0.63236117
0.027755093 0.035059065 0.63093144
0.027726438 0.033563584 0.63074934
0.027778044 0.032164037 0.63107723
0.027890831 0.030826718 0.6317938
0.02806464 0.029541761 0.63289797
0.028314481 0.028314471 0.6344853
0.028523719 0.027022481 0.63581467
0.028636966 0.025622547 0.63653409
0.028710302 0.024177104 0.63700002
0.028793257 0.022731483 0.63752705
0.02888608 0.021284491 0.63811678
0.028997095 0.019840121 0.63882208
0.029117703 0.018390119 0.63958836
0.029251015 0.016934782 0.64043528
0.029403092 0.015475303 0.64140147
0.0295677 0.01400575 0.64244723
0.029746719 0.012524933 0.64358461
0.029949794 0.011034101 0.64487481
0.030171931 0.0095279515 0.64628607
0.030416548 0.0080043375 0.64784014
0.030688029 0.0064606369 0.64956492
0.030992564 0.0048936009 0.65149969
0.031338908 0.0032988489 0.65370005
0.031740271 0.0016705394 0.65625
0.032216989 -0 0.65927869
0.03264983 -0.0017184317 0.66202861
0.032840665 -0.0034568906 0.66324103
0.033044882 -0.005217582 0.66453844
0.033452556 -0.0070426166 0.66712844
0.031252198 0.050003529 0.64322162
0.0307255 0.047624528 0.64004266
0.030411944 0.045617908 0.63815027
0.030200118 0.043790191 0.63687176
0.030044079 0.042061716 0.63593
0.029929243 0.040404469 0.63523692
0.029724596 0.038641989 0.63400173
0.029000832 0.036251068 0.62963343
0.028946891 0.034736246 0.62930787
0.028981766 0.03332904 0.62951833
0.02908157 0.031989694 0.63012075
0.029243123 0.030705303 0.63109577
0.029479505 0.029479504 0.63252252
0.029723274 0.028237134 0.63399374
0.029865468 0.026878923 0.63485193
0.02994859 0.025456309 0.63535368
0.03002776 0.024022222 0.63583148
0.030123757 0.022592813 0.63641089
0.030231595 0.021162122 0.63706177
0.030348949 0.019726843 0.63777006
0.030486435 0.018291861 0.63859981
0.03063567 0.016849607 0.63950056
0.030797079 0.015398562 0.64047474
0.030981479 0.013941675 0.64158762
0.031181596 0.01247263 0.6427955
0.031400073 0.010990024 0.64411414
0.031640533 0.0094921589 0.64556545
0.031912152 0.0079780519 0.64720476
0.032213863 0.0064427853 0.6490258
0.032552965 0.0048829317 0.6510725
0.032939676 0.0032939613 0.6534065
0.033389516 0.0016694963 0.65612149
0.033916872 -0 0.65930432
0.034208581 -0.0017104149 0.66106498
0.034374263 -0.0034374297 0.66206497
0.034671403 -0.0052007139 0.66385835
0.032741696 0.051451236 0.6428014
0.032087002 0.048894435 0.63903815
0.031735886 0.046848208 0.63701987
0.03149607 0.044994414 0.63564134
0.031324524 0.043257713 0.63465524
0.031197112 0.041596144 0.63392287
0.031065769 0.039941728 0.63316792
0.030611264 0.037899673 0.63055539
0.030426094 0.036221534 0.62949103
0.030243155 0.034563631 0.62843943
0.030250032 0.033130974 0.62847894
0.030398104 0.031845629 0.6293301
0.030618578 0.030618548 0.63059741
0.030888058 0.029417217 0.63214642
0.031069536 0.028110534 0.63318962
0.031164728 0.026712596 0.63373673
0.031243308 0.025292248 0.63418841
0.031338539 0.023876965 0.63473582
0.031442821 0.022459179 0.63533527
0.031562962 0.02104196 0.63602591
0.031697784 0.019622445 0.63680083
0.03184351 0.018196315 0.63763845
0.032009002 0.016766608 0.63858974
0.032190513 0.015328825 0.63963306
0.032386769 0.013880014 0.6407612
0.032604847 0.012420863 0.64201474
0.032847527 0.010949194 0.64340973
0.033114295 0.0094612241 0.64494312
0.033409741 0.0079546869 0.64664137
0.033740599 0.0064267814 0.64854318
0.034116358 0.0048737824 0.65070307
0.034551289 0.0032905936 0.65320313
0.035067186 0.0016698241 0.65616858
0.035514373 2.9802322e-08 0.65873909
0.035714149 -0.0017006695 0.65988743
0.035934858 -0.0034223497 0.66115606
0.036373597 -0.0051962733 0.66367805
0.034305532 0.053017646 0.64282715
0.033830874 0.050746292 0.64022279
0.033615056 0.048894644 0.63903868
0.033401981 0.04706645 0.63786954
0.033191584 0.045261234 0.63671511
0.032983825 0.043478668 0.63557518
0.03277855 0.041718125 0.63444889
0.032576006 0.039979637 0.63333756
0.032375857 0.038262397 0.6322394
0.032427456 0.03684935 0.63252246
0.032724079 0.03569898 0.63414997
0.031789809 0.033234805 0.62902379
0.031733356 0.031733334 0.62871408
0.03201196 0.030556858 0.63024271
0.032237902 0.029307187 0.63148242
0.032359298 0.027946681 0.6321485
0.032440167 0.026541919 0.6325922
0.032531239 0.025137752 0.63309193
0.032633565 0.023733497 0.63365334
0.032754753 0.022332788 0.63431829
0.032885678 0.02092731 0.63503665
0.033032522 0.01951924 0.63584232
0.033197191 0.018107563 0.63674587
0.033374537 0.016687244 0.63771898
0.033571385 0.015259713 0.63879907
0.03378975 0.013823062 0.63999718
0.034027688 0.012373745 0.6413027
0.034288432 0.010909945 0.6427334
0.034578815 0.0094305873 0.64432669
0.034905348 0.0079330206 0.64611828
0.035271864 0.0064131021 0.64812928
0.035689149 0.0048666894 0.65041888
0.036173873 0.0032885075 0.6530785
0.036736559 0.0016698539 0.65616584
0.037031308 -0 0.65778309
0.037207298 -0.0016911924 0.65874875
0.037527837 -0.0034116209 0.6605075
0.035959005 0.053156763 0.64332128
0.03572581 0.051258802 0.64209735
0.036323216 0.050536633 0.64523274
0.036529828 0.049235851 0.64631712
0.035043918 0.045709461 0.63851857
0.034928091 0.044039786 0.63791072
0.040807657 0.049678892 0.66876835
0.04127913 0.048458129 0.67124277
0.034174353 0.038631856 0.63395482
0.033963662 0.036917001 0.6328491
0.034038201 0.03551814 0.63324028
0.034034174 0.034034222 0.63321912
0.033346899 0.031897008 0.62961209
0.033372525 0.03047058 0.62974656
0.033525158 0.029152334 0.63054764
0.033615936 0.027769715 0.63102406
0.03370237 0.026375771 0.63147777
0.033807416 0.024988115 0.63202906
0.033924416 0.023599565 0.6326431
0.0340521 0.022207916 0.63331318
0.034201369 0.020818233 0.63409662
0.034361698 0.019421846 0.63493812
0.034537729 0.018019706 0.63586193
0.034735799 0.016612798 0.6369015
0.034949414 0.0151954 0.6380226
0.035181694 0.013766766 0.6392417
0.035444129 0.012328357 0.64061904
0.035732355 0.010875076 0.64213175
0.036051035 0.0094046295 0.64380419
0.036407329 0.0079146326 0.64567417
0.036811553 0.0064020157 0.64779568
0.03727863 0.0048624277 0.65024698
0.037831936 0.0032897294 0.65315092
0.03828961 0.0016647577 0.65555292
0.038496722 -2.9802322e-08 0.65663987
0.038733315 -0.0016840398 0.65788162
0.039201304 -0.0034088194 0.66033781
0.038159385 0.055649102 0.64652479
0.037907749 0.053702652 0.64525914
0.037659291 0.051781535 0.64400953
0.03775496 0.050339967 0.64449072
0.040029757 0.051705092 0.65593207
0.040308975 0.05038619 0.65733635
0.041235801 0.049826592 0.66199797
0.042608496 0.049709886 0.6689021
0.043048702 0.048429817 0.67111617
0.043453399 0.047074527 0.67315167
0.035562508 0.035562515 0.63346356
0.035343755 0.033871114 0.63236326
0.035127778 0.032200456 0.63127697
0.034914423 0.030550122 0.63020396
0.03477117 0.028976023 0.6294834
0.034856755 0.027594954 0.62991387
0.034960162 0.026220113 0.63043398
0.035072375 0.024842948 0.63099837
0.035203155 0.023468792 0.63165617
0.035347916 0.022092491 0.63238418
0.035503317 0.020710289 0.63316578
0.035683401 0.019328535 0.63407159
0.035876572 0.017938286 0.63504314
0.036085069 0.016538978 0.63609183
0.036321476 0.015133947 0.63728082
0.036578372 0.013716877 0.63857293
0.036859397 0.012286484 0.63998634
0.037169259 0.010841012 0.64154488
0.037517514 0.0093793869 0.64329648
0.037910383 0.0078980327 0.64527237
0.038357086 0.0063928962 0.64751923
0.038879789 0.0048600137 0.65014815
0.039465647 0.0032888353 0.65309477
0.039765574 0.0016569197 0.6546033
0.039951187 -2.9802322e-08 0.65553689
0.040294368 -0.0016789138 0.65726292
0.041203618 0.059333205 0.65354657
0.040164415 0.056230217 0.64852881
0.040538896 0.055132896 0.65033698
0.039632741 0.052315235 0.6459617
0.041321766 0.05289185 0.65411705
0.041553605 0.051526487 0.65523648
0.042300034 0.050760031 0.65884054
0.043909445 0.05093497 0.66661149
0.044369522 0.049693882 0.6688329
0.044793423 0.048376918 0.67087972
0.04519527 0.04700312 0.67281997
0.036492795 0.029194206 0.63080072
0.036271639 0.027566433 0.62973297
0.036203194 0.026066303 0.6294024
0.036333166 0.024706572 0.63002998
0.036472794 0.02334258 0.63070416
0.036631618 0.021978974 0.63147098
0.036806662 0.020611733 0.63231617
0.036994323 0.019237071 0.63322234
0.037207134 0.017859429 0.63424981
0.037437756 0.016472638 0.6353634
0.037687935 0.015075177 0.63657135
0.037964974 0.013667375 0.63790905
0.03827408 0.012247711 0.63940156
0.038615428 0.010812342 0.64104968
0.038996436 0.0093591213 0.64288938
0.039427869 0.0078855753 0.6449725
0.039925966 0.0063881576 0.64737755
0.040515263 0.0048618317 0.6502229
0.040979546 0.0032783747 0.65246469
0.041192628 0.0016477108 0.65349352
0.041444432 -2.9802322e-08 0.65470934
0.041940227 -0.0016776025 0.65710318
0.042792 0.060896307 0.65326911
0.042499967 0.058846086 0.65191329
0.042211886 0.056823701 0.65057588
0.042465281 0.055531502 0.65175229
0.042600308 0.054069638 0.65237916
0.042809177 0.052688241 0.65334892
0.043425646 0.051776767 0.6562109
0.04518209 0.052133203 0.66436559
0.045662936 0.050931752 0.66659808
0.046106365 0.049652994 0.66865683
0.04652252 0.048311889 0.67058885
0.048347786 0.039050162 0.67906308
0.047914188 0.036857098 0.67704999
0.04860701 0.035520554 0.68026656
0.037850149 0.02620396 0.63032556
0.037621491 0.024598688 0.62926388
0.037738699 0.023223817 0.62980807
0.037908163 0.021870106 0.63059485
