# .PCD v0.7 - Point Cloud Data file format
VERSION 0.7
FIELDS x y z
SIZE 4 4 4
TYPE F F F
COUNT 1 1 1
WIDTH 1336
HEIGHT 1
VIEWPOINT 0 0 0 1 0 0 0
POINTS 1336
DATA ascii
-0.069512822 0.039212346 0.66975027
-0.067715988 0.036462456 0.6641888
-0.060044877 0.030792236 0.64044559
-0.060025856 0.02924338 0.6403867
-0.060361929 0.02785933 0.64142692
-0.061189439 0.026672304 0.64398813
-0.062275764 0.025549024 0.64735049
-0.064223066 0.024701178 0.65337771
-0.068225011 0.055657268 0.67132127
-0.068347149 0.053958297 0.67170924
-0.068289213 0.05211547 0.67152524
-0.067772448 0.049937606 0.66988367
-0.067612909 0.048040777 0.66937685
-0.067653805 0.046289474 0.66950679
-0.067847177 0.044636339 0.67012107
-0.068145297 0.043039113 0.67106807
-0.068337075 0.041361928 0.67167723
-0.06831596 0.039551347 0.67161018
-0.066606283 0.036808729 0.66617924
-0.057912402 0.030480206 0.63856226
-0.058181413 0.029090703 0.63941681
-0.058627218 0.027770787 0.64083296
-0.059341736 0.026547641 0.64310271
-0.060197711 0.025346428 0.64582181
-0.061358429 0.024220407 0.64950889
-0.066505268 0.057518065 0.67156804
-0.066717133 0.05589813 0.67225927
-0.066871122 0.054219842 0.67276168
-0.06698072 0.05249846 0.67311919
-0.066877402 0.050609916 0.67278218
-0.066369608 0.048431873 0.67112553
-0.066241369 0.046548009 0.67070711
-0.06631992 0.044810772 0.67096335
-0.066529885 0.043154538 0.67164838
-0.066815861 0.041534185 0.67258137
-0.066980481 0.039826214 0.67311847
-0.056011368 0.031790227 0.63733226
-0.05617452 0.030364603 0.63786453
-0.056420356 0.028972596 0.63866651
-0.056966007 0.027713209 0.64044672
-0.057588339 0.026459515 0.64247704
-0.0583141 0.025216907 0.64484483
-0.059213467 0.024005473 0.64777899
-0.060478348 0.022883713 0.65190554
-0.063957222 0.058627456 0.66905129
-0.064771116 0.057574332 0.67178029
-0.065153696 0.0561046 0.6730631
-0.065349177 0.054457664 0.67371857
-0.065496974 0.052761495 0.67421412
-0.065596431 0.05101946 0.67454767
-0.065424889 0.049068689 0.67397243
-0.064950481 0.046908706 0.67238176
-0.064871185 0.045049399 0.67211586
-0.064968519 0.043312341 0.6724422
-0.065193787 0.041651607 0.67319751
-0.065467693 0.040008038 0.6741159
-0.054290257 0.031669348 0.63663721
-0.054484684 0.030269265 0.63728911
-0.054860707 0.028954268 0.63854998
-0.055350594 0.027675301 0.64019263
-0.055901304 0.026397854 0.64203912
-0.056530777 0.025124788 0.64414984
-0.057270203 0.0238626 0.64662915
-0.058211882 0.022637963 0.64978671
-0.059637498 0.021535754 0.65456688
-0.062888928 0.061092108 0.67149407
-0.062296759 0.05873695 0.66945171
-0.062660977 0.057289988 0.67070794
-0.063431285 0.056181967 0.67336458
-0.063781977 0.054670274 0.67457408
-0.06396275 0.052997708 0.6751976
-0.064104639 0.051283717 0.6756869
-0.064185455 0.049514532 0.67596561
-0.063928664 0.047489882 0.67507994
-0.06351687 0.045369238 0.67365974
-0.063484862 0.043532461 0.67354941
-0.063598529 0.041793317 0.67394137
-0.052506357 0.033004016 0.63568592
-0.052661087 0.031596661 0.6362195
-0.052922402 0.0302414 0.63712078
-0.053326078 0.028948426 0.63851303
-0.05376979 0.027653039 0.64004326
-0.05426294 0.02635631 0.64174408
-0.054818202 0.02505976 0.64365911
-0.055454914 0.023766398 0.64585507
-0.056225304 0.022490114 0.64851201
-0.057213735 0.021250874 0.65192103
-0.058911268 0.020198166 0.65777558
-0.06099616 0.062790185 0.67115343
-0.061279811 0.061279833 0.67216051
-0.061487786 0.059679329 0.67289889
-0.060921237 0.057337612 0.67088747
-0.061385725 0.055969357 0.67253655
-0.062071763 0.054769188 0.67497218
-0.062387947 0.053213269 0.67609471
-0.062557258 0.051517755 0.67669582
-0.062693268 0.049785823 0.67717874
-0.062746912 0.047982961 0.67736924
-0.062417019 0.045894861 0.67619795
-0.062092155 0.043829799 0.6750446
-0.050798584 0.034363776 0.63494885
-0.050926626 0.032952547 0.63540339
-0.051103316 0.031563818 0.63603079
-0.051440645 0.030259222 0.63722837
-0.051811311 0.028953373 0.63854438
-0.052215874 0.02764371 0.63998067
-0.052661173 0.02633062 0.64156163
-0.053156953 0.025015026 0.64332181
-0.053716548 0.023698479 0.64530855
-0.054369945 0.022387624 0.64762831
-0.055159893 0.021090537 0.65043283
-0.0562119 0.019839495 0.65416783
-0.058522932 0.06384322 0.66866893
-0.05889596 0.062465429 0.6700334
-0.059611239 0.061417669 0.6726498
-0.059888635 0.059888661 0.67366451
-0.060055923 0.058236063 0.67427647
-0.059530001 0.055922121 0.67235267
-0.060087398 0.054624915 0.67439157
-0.060683642 0.053328097 0.67657256
-0.060973156 0.051734805 0.67763162
-0.061130721 0.050016046 0.67820799
-0.061262723 0.048267633 0.67869079
-0.061289787 0.046431661 0.67878979
-0.049159039 0.035752028 0.63441676
-0.049255975 0.034329921 0.63477135
-0.04938015 0.032920122 0.63522553
-0.049668912 0.031607479 0.63628185
-0.049979668 0.030290693 0.63741857
-0.050316107 0.028969884 0.63864917
-0.050683379 0.027645469 0.63999265
-0.051087808 0.026317984 0.64147198
-0.051534262 0.024986297 0.64310509
-0.052033473 0.02365157 0.64493108
-0.052602381 0.022316188 0.64701211
-0.05327034 0.020985276 0.64945543
-0.054084677 0.019667149 0.65243423
-0.055226482 0.018408835 0.65661079
-0.056871057 0.065757185 0.66912746
-0.057039414 0.064169317 0.66976249
-0.057137728 0.062494397 0.67013335
-0.05753212 0.061127901 0.67162108
-0.058206834 0.060025781 0.6741662
-0.05847767 0.0584777 0.67518783
-0.05858143 0.056750774 0.67557931
-0.058124211 0.05449146 0.67385459
-0.05875599 0.053247631 0.67623782
-0.059268624 0.051860034 0.67817152
-0.05953528 0.050232887 0.6791774
-0.048052493 0.039042652 0.63586199
-0.047570944 0.037164807 0.63404548
-0.047647245 0.035735428 0.63433325
-0.047732327 0.034307599 0.63465428
-0.047974169 0.03298226 0.63556647
-0.048240267 0.031657696 0.63657027
-0.048528299 0.030330181 0.63765681
-0.048838697 0.028997988 0.63882768
-0.04917514 0.027661026 0.64009684
-0.049541529 0.026318938 0.6414789
-0.049944714 0.024972349 0.64299983
-0.050392386 0.02362144 0.64468855
-0.050896652 0.022267282 0.64659071
-0.051473748 0.020911217 0.64876765
-0.052150905 0.019556612 0.65132201
-0.053004093 0.018220127 0.65454042
-0.054257985 0.016955614 0.65927035
-0.054783087 0.067153454 0.66791737
-0.055168692 0.065846503 0.66941893
-0.055469554 0.06441623 0.6705904
-0.055626109 0.062803686 0.67120004
-0.055733241 0.061126798 0.67161721
-0.056163486 0.059786975 0.67329252
-0.056782551 0.058614284 0.67570305
-0.057046935 0.05704692 0.67673254
-0.056788787 0.054956913 0.67572737
-0.056703672 0.053045392 0.67539591
-0.057365518 0.05181402 0.67797309
-0.046475813 0.040478975 0.63556969
-0.046034701 0.038609743 0.63385212
-0.046087086 0.037167042 0.63405609
-0.04614687 0.035726607 0.63428891
-0.046352345 0.034390479 0.63508898
-0.046578947 0.033056021 0.63597137
-0.046821628 0.031717867 0.6369164
-0.047083285 0.030376315 0.63793516
-0.047370285 0.029033363 0.63905275
-0.047680005 0.027685165 0.64025879
-0.048016086 0.026331395 0.64156741
-0.04838258 0.024971664 0.64299452
-0.048786454 0.02360636 0.64456719
-0.049235705 0.022235483 0.64631653
-0.049742699 0.020859867 0.64829069
-0.050324332 0.019480377 0.65055549
-0.051018208 0.018103242 0.65325737
-0.051907375 0.016744345 0.65671968
-0.053364981 0.015493035 0.66239548
-0.052637376 0.068428546 0.66639441
-0.052982021 0.067110568 0.66778111
-0.053383928 0.065840155 0.66939825
-0.053762313 0.064514786 0.67092079
-0.05404881 0.063056946 0.67207348
-0.054193795 0.061419666 0.67265689
-0.054309286 0.059740186 0.67312163
-0.054786593 0.058439046 0.67504215
-0.05533798 0.05718258 0.67726082
-0.055595823 0.055595815 0.67829823
-0.055238001 0.053396732 0.67685848
-0.055265862 0.051581502 0.6769706
-0.044539269 0.040085346 0.63381004
-0.044568095 0.038625687 0.63392603
-0.044610213 0.037175179 0.63409555
-0.044786841 0.035829455 0.63480628
-0.044976998 0.03448239 0.63557136
-0.045184541 0.033135325 0.63640648
-0.045410085 0.031787097 0.63731396
-0.045651767 0.030434489 0.63828647
-0.045911197 0.029077113 0.63933027
-0.046194479 0.027716696 0.64047015
-0.046503026 0.02635172 0.64171159
-0.046838507 0.024980575 0.64306152
-0.047204681 0.023602366 0.64453495
-0.047608618 0.022217333 0.64616024
-0.048059035 0.020825595 0.64797258
-0.048568133 0.019427299 0.65002096
-0.049157422 0.018024355 0.65239215
-0.049873609 0.01662454 0.6552738
-0.050816063 0.015244812 0.65906596
-0.052996047 0.014132261 0.66783756
-0.050688699 0.068167567 0.66558647
-0.051156186 0.067032248 0.66753232
-0.051572733 0.065799713 0.66926616
-0.051965211 0.064508528 0.67089981
-0.052336127 0.063164324 0.67244375
-0.052608609 0.061679065 0.67357796
-0.052742079 0.060016841 0.67413354
-0.052865446 0.058334291 0.67464697
-0.053502653 0.057192504 0.67729938
-0.053873118 0.05573082 0.67884141
-0.054123901 0.054123908 0.67988527
-0.043079425 0.041593909 0.63391334
-0.043090682 0.040118933 0.63396019
-0.043121543 0.038660705 0.63408864
-0.043268386 0.037300318 0.63469982
-0.043430265 0.035942286 0.63537371
-0.043607511 0.034585267 0.63611144
-0.043796122 0.033224672 0.63689649
-0.043999705 0.031861871 0.63774395
-0.044223785 0.03049916 0.6386767
-0.044464327 0.0291318 0.63967788
-0.044722378 0.027758718 0.64075208
-0.045001719 0.026380301 0.64191478
-0.045307618 0.024997324 0.64318806
-0.045641955 0.023607939 0.64457971
-0.046007216 0.022210389 0.6461001
-0.046411004 0.020804912 0.64778078
-0.046862014 0.019391179 0.64965814
-0.047375329 0.017969966 0.65179473
-0.047976036 0.016543478 0.65429515
-0.048710596 0.015117079 0.65735275
-0.04971784 0.013715297 0.66154534
-0.048192501 0.068846434 0.66236043
-0.04769912 0.066438049 0.66023338
-0.049281504 0.066882014 0.66705525
-0.049736913 0.065723777 0.66901851
-0.050143499 0.064470232 0.67077136
-0.050526697 0.063158363 0.67242336
-0.050888427 0.061793089 0.6739828
-0.051148158 0.060281754 0.67510253
-0.051270571 0.058594942 0.67563027
-0.051406775 0.056914687 0.67621744
-0.041776747 0.044760823 0.63470149
-0.04165737 0.04314512 0.63418686
-0.041647341 0.041647345 0.63414359
-0.041673854 0.040185541 0.63425791
-0.041795067 0.038809717 0.63478041
-0.041930538 0.037438005 0.63536447
-0.042076237 0.03606537 0.63599259
-0.04223492 0.034692973 0.63667667
-0.042410843 0.033322811 0.6374352
-0.042597823 0.031948358 0.63824123
-0.042798877 0.030570656 0.63910794
-0.04301966 0.029191941 0.64005977
-0.043258626 0.027809143 0.64108992
-0.04351512 0.026419908 0.64219576
-0.043792326 0.025024205 0.64339083
-0.044094589 0.023622096 0.64469391
-0.044427097 0.022213548 0.6461274
-0.044790994 0.020795852 0.64769614
-0.04519441 0.019369006 0.64943534
-0.045646913 0.017932743 0.65138608
-0.04616417 0.016487241 0.65361607
-0.046775445 0.015034974 0.65625131
-0.047536302 0.013581812 0.65953147
-0.048639733 0.012159944 0.66428846
-0.045685578 0.067682385 0.65884745
-0.045752108 0.066086411 0.65914488
-0.046318542 0.065189064 0.6616773
-0.047854751 0.065578729 0.66854531
-0.04829786 0.064397156 0.67052627
-0.048694253 0.063122183 0.67229855
-0.049067598 0.061788797 0.67396766
-0.049419586 0.060401708 0.67554134
-0.040762164 0.048310727 0.63683599
-0.040309601 0.046281397 0.63481271
-0.040265389 0.044739306 0.63461506
-0.040233612 0.043213874 0.63447297
-0.040265027 0.041756332 0.63461345
-0.040362593 0.040362597 0.63504964
-0.040469594 0.038970739 0.63552803
-0.040588263 0.037581712 0.63605857
-0.040722478 0.036197782 0.63665855
-0.040866975 0.034812629 0.63730454
-0.041022215 0.03342551 0.63799864
-0.041196596 0.032041818 0.63877827
-0.041381717 0.030653119 0.63960588
-0.041580919 0.029260665 0.64049649
-0.041797563 0.027865022 0.64146507
-0.042034384 0.026466101 0.64252377
-0.042288989 0.025060147 0.6436621
-0.042564526 0.023646981 0.64489394
-0.042864613 0.022226095 0.64623559
-0.043193113 0.020796686 0.64770424
-0.043555595 0.019358039 0.64932483
-0.043957945 0.017908752 0.65112364
-0.044412281 0.016449034 0.65315485
-0.044935517 0.014978528 0.65549409
-0.045556173 0.013498127 0.65826893
-0.046349533 0.012016535 0.66181588
-0.047603838 0.010578662 0.66742349
-0.043913778 0.069248646 0.65847719
-0.044047147 0.067764848 0.65909642
-0.044157933 0.066236913 0.65961075
-0.044360761 0.064834952 0.66055244
-0.044918288 0.063922167 0.66314089
-0.046407677 0.064256787 0.67005575
-0.046838254 0.063051522 0.67205477
-0.039723366 0.051945925 0.63902235
-0.039189078 0.049739987 0.63654178
-0.038968273 0.047960937 0.63551664
-0.038900804 0.046381712 0.63520342
-0.038850736 0.044827789 0.6349709
-0.038894176 0.043381959 0.63517261
-0.038964186 0.041961432 0.63549769
-0.03904558 0.040547311 0.63587558
-0.039142147 0.039142132 0.63632393
-0.03924831 0.03773877 0.63681674
-0.039364457 0.036336422 0.63735604
-0.039496996 0.034939677 0.63797134
-0.039640091 0.03354162 0.63863575
-0.039793964 0.032141298 0.63935006
-0.039964378 0.030741811 0.64014131
-0.040147401 0.029338479 0.64099097
-0.040344745 0.027931005 0.64190722
-0.040557813 0.026518583 0.64289641
-0.040791169 0.025102258 0.64397985
-0.041043539 0.023678988 0.6451515
-0.041316886 0.022247553 0.6464206
-0.041615188 0.020807594 0.64780551
-0.041940939 0.019357353 0.64931786
-0.042301245 0.017896712 0.65099066
-0.042703647 0.016424477 0.65285897
-0.04315912 0.014939696 0.65497357
-0.043686237 0.01344192 0.65742087
-0.04431935 0.011932135 0.66036022
-0.045149948 0.01041925 0.6642164
-0.046746526 0.0089897215 0.67162889
-0.041523814 0.068099052 0.6550926
-0.040917348 0.065467805 0.65216434
-0.040624339 0.063373983 0.65074956
-0.042752106 0.064983189 0.66102338
-0.039200153 0.058016241 0.64387298
-0.043498103 0.06263724 0.66462535
-0.038133018 0.053386241 0.63872039
-0.037771806 0.051369667 0.63697636
-0.037660703 0.049712121 0.63643986
-0.037569873 0.048089445 0.63600135
-0.037523668 0.046529353 0.63577819
-0.037554987 0.045065999 0.63592941
-0.037600365 0.043616444 0.63614857
-0.037660025 0.042179227 0.63643658
-0.037729427 0.040747792 0.63677174
-0.037809253 0.039321631 0.63715714
-0.03790446 0.037904471 0.63761687
-0.038009387 0.03648904 0.63812345
-0.038124185 0.035074264 0.63867778
-0.038253713 0.033663303 0.63930321
-0.038395204 0.032251984 0.6399864
-0.038547479 0.030837983 0.64072162
-0.038713783 0.029422492 0.64152461
-0.038894463 0.02800402 0.64239705
-0.039089661 0.026580989 0.64333951
-0.039300159 0.025152117 0.64435583
-0.039528918 0.023717314 0.64546043
-0.039778434 0.022275925 0.64666522
-0.040049195 0.020825595 0.64797258
-0.040345125 0.019365698 0.64940143
-0.040668719 0.017894238 0.65096384
-0.041027129 0.016410828 0.6526944
-0.0414281 0.014914125 0.65463042
-0.041884474 0.013403028 0.65683407
-0.042414203 0.011875987 0.65939182
-0.043066498 0.010335952 0.66254139
-0.043946777 0.0087893903 0.66679174
-0.039359577 0.067239285 0.65256131
-0.038909271 0.064848781 0.65029645
-0.039081864 0.063508034 0.65116447
-0.037568927 0.059484154 0.64355505
-0.037051365 0.057120889 0.64095187
-0.036701683 0.055052549 0.63919312
-0.036525525 0.053266406 0.63830715
-0.036382884 0.051542401 0.63758969
-0.036264438 0.049863636 0.63699394
-0.036246926 0.048329234 0.63690591
-0.036253929 0.046828002 0.63694108
-0.03627364 0.045342058 0.6370402
-0.036305115 0.043868691 0.63719857
-0.036349401 0.042407632 0.63742125
-0.036408473 0.040959537 0.63771838
-0.03647726 0.039517045 0.63806438
-0.036555991 0.038079143 0.6384604
-0.036648925 0.036648899 0.63892782
-0.036752678 0.035221338 0.6394496
-0.036865957 0.033793807 0.6400193
-0.036992241 0.032368213 0.6406545
-0.037131906 0.030943245 0.64135695
-0.037282463 0.029515296 0.64211422
-0.037444402 0.028083295 0.64292872
-0.037622482 0.026649266 0.6438244
-0.037815239 0.025210202 0.64479387
-0.038023338 0.02376461 0.64584053
-0.038248476 0.022311628 0.64697289
-0.038493812 0.020850807 0.64820689
-0.038760949 0.01938048 0.64955044
-0.039053779 0.017899662 0.65102327
-0.039374806 0.016406178 0.65263784
-0.039730974 0.014899135 0.65442926
-0.040131427 0.01337713 0.65644342
-0.040587582 0.011838078 0.65873766
-0.041124523 0.010281175 0.66143823
-0.041789275 0.0087060928 0.66478175
-0.042746972 0.0071244836 0.66959858
-0.036841482 0.064072132 0.6479528
-0.036238004 0.061447084 0.64478546
-0.035845991 0.059223831 0.64272809
-0.03555385 0.057195306 0.64119482
-0.035327815 0.055295706 0.64000857
-0.035144303 0.053480476 0.63904542
-0.03506453 0.051834524 0.63862675
-0.035017792 0.050242931 0.63838148
-0.034989897 0.048681587 0.63823509
-0.034978841 0.047145396 0.63817704
-0.034986176 0.04563418 0.63821554
-0.035006184 0.044138223 0.63832051
-0.03503773 0.042654604 0.63848609
-0.0350812 0.041182309 0.63871425
-0.035139047 0.039722383 0.63901782
-0.035207201 0.038268685 0.63937551
-0.035284813 0.036818981 0.63978285
-0.035375379 0.035375386 0.64025819
-0.035477564 0.03393507 0.64079446
-0.035589255 0.032494575 0.64138067
-0.035712175 0.03105408 0.64202577
-0.035849787 0.029615074 0.642748
-0.035998262 0.028172553 0.64352727
-0.036156259 0.02672419 0.64435649
-0.036331013 0.02527377 0.64527363
-0.036521021 0.023818076 0.64627087
-0.036726262 0.022355109 0.64734799
-0.036947582 0.020883441 0.64850956
-0.037188761 0.019402832 0.64977533
-0.037452236 0.017912 0.65115809
-0.037742604 0.016409814 0.65268207
-0.038060404 0.014893234 0.65434998
-0.038414095 0.013361424 0.65620625
-0.038811825 0.011812299 0.6582936
-0.039268184 0.010243863 0.66068876
-0.039814729 0.0086553693 0.66355717
-0.040504318 0.0070442259 0.66717637
-0.041563731 0.0054213405 0.67273653
-0.034921512 0.061906308 0.64620697
-0.034495812 0.059583664 0.64387119
-0.034238838 0.057583481 0.6424613
-0.034064226 0.055741459 0.64150321
-0.033935692 0.053988606 0.64079791
-0.033841688 0.052300781 0.64028221
-0.033775028 0.050662518 0.63991642
-0.033730216 0.049062133 0.63967049
-0.033703569 0.047491401 0.63952434
-0.033693153 0.045945227 0.63946712
-0.033700682 0.04442364 0.63950849
-0.03372081 0.04291743 0.63961887
-0.033752244 0.041423231 0.63979137
-0.033795144 0.039939731 0.64002675
-0.033851575 0.038467675 0.64033639
-0.03391875 0.037002265 0.64070499
-0.033995111 0.035540342 0.64112401
-0.034083214 0.034083188 0.64160734
-0.034183763 0.032629997 0.64215904
-0.034293771 0.03117615 0.64276266
-0.034413744 0.029720962 0.64342093
-0.034548428 0.028266907 0.64415997
-0.034694668 0.026809514 0.64496237
-0.034849539 0.025345147 0.64581209
-0.035020281 0.023877501 0.6467489
-0.035206433 0.022404104 0.64777029
-0.035408694 0.020923316 0.64888006
-0.035626546 0.019432664 0.65007538
-0.035863914 0.017931968 0.6513778
-0.036122829 0.01641947 0.65279841
-0.036409099 0.014894664 0.65436912
-0.036723323 0.013353914 0.6560933
-0.037073463 0.011796117 0.65801442
-0.037468821 0.010218799 0.66018367
-0.037929598 0.0086203516 0.66271192
-0.038478497 0.0069960952 0.66572362
-0.039194074 0.0053446591 0.6696499
-0.040456649 0.0036779046 0.67657745
-0.033544879 0.060700238 0.6474182
-0.033161119 0.058426738 0.64521229
-0.032916371 0.056428075 0.64380538
-0.0327469 0.054578185 0.64283127
-0.032622356 0.052817166 0.64211535
-0.032531459 0.051120877 0.64159286
-0.032467429 0.04947421 0.6412248
-0.032424346 0.047864527 0.6409772
-0.032399051 0.046284378 0.64083177
-0.032389265 0.044728041 0.64077556
-0.032396954 0.043195963 0.64081973
-0.032417141 0.041679204 0.64093578
-0.032448377 0.040174216 0.64111531
-0.032490619 0.038679302 0.64135814
-0.032545563 0.037194967 0.64167398
-0.032611724 0.035717607 0.64205426
-0.032686796 0.034243286 0.64248586
-0.032772537 0.032772511 0.64297867
-0.032870959 0.031305701 0.64354444
-0.032978978 0.029838115 0.64416534
-0.033096772 0.028368682 0.64484239
-0.033227392 0.026898354 0.64559323
-0.033371117 0.025425613 0.64641935
-0.033522937 0.023944914 0.64729208
-0.033689752 0.022459865 0.64825094
-0.03387199 0.020968378 0.64929843
-0.034070008 0.019468606 0.65043664
-0.034284223 0.017958373 0.65166801
-0.034517128 0.016436726 0.65300679
-0.034772426 0.014902472 0.65447426
-0.035052679 0.013353407 0.65608519
-0.035362702 0.011787564 0.65786725
-0.035709903 0.010202825 0.659863
-0.036105629 0.0085965693 0.66213769
-0.036566634 0.0069651008 0.66478759
-0.037125807 0.0053037107 0.66800177
-0.037879858 0.0036076307 0.67233616
-0.038589206 0.0018375814 0.6764136
-0.038247455 -0 0.67444921
-0.032190133 0.059551746 0.64888257
-0.031813338 0.057264 0.64660841
-0.031574838 0.055255979 0.64516896
-0.031410817 0.053398371 0.64417899
-0.031290308 0.051629007 0.64345163
-0.031202694 0.049924284 0.64292288
-0.031141134 0.048268795 0.6425513
-0.031100003 0.046650022 0.64230299
-0.031076051 0.045060277 0.64215845
-0.031067079 0.043493927 0.64210433
-0.031074602 0.041950732 0.64214981
-0.031094687 0.040423095 0.64227092
-0.03112583 0.03890729 0.64245892
-0.031167224 0.037400663 0.64270878
-0.031220606 0.035903722 0.64303094
-0.031285517 0.034414083 0.64342266
-0.031359237 0.032927245 0.64386767
-0.031443287 0.031443268 0.64437497
-0.03153852 0.029961586 0.64494973
-0.031644434 0.028480023 0.64558893
-0.031759929 0.026995927 0.64628601
-0.031886224 0.02550894 0.64704829
-0.032027051 0.024020284 0.64789832
-0.032175645 0.022522956 0.64879513
-0.032338787 0.021020234 0.64977974
-0.03251658 0.019509941 0.65085286
-0.032709699 0.017990321 0.65201843
-0.032919955 0.016459972 0.65328741
-0.033148516 0.014916837 0.6546669
-0.03339966 0.013359874 0.65618271
-0.033674795 0.011786193 0.65784329
-0.033980791 0.010194242 0.65969014
-0.034324978 0.0085812509 0.66176748
-0.034718558 0.0069437027 0.66414297
-0.03517608 0.0052764118 0.66690433
-0.035749096 0.0035749078 0.67036283
-0.036370281 0.0018185079 0.67411202
-0.036068514 -2.9802322e-08 0.67229068
-0.036015164 -0.0018007457 0.67196864
-0.030814653 0.05838567 0.65036941
-0.030445673 0.056084156 0.64802516
-0.030213837 0.054066867 0.64655226
-0.030055368 0.05220145 0.64554548
-0.029939137 0.050423831 0.64480704
-0.029854801 0.048710436 0.64427125
-0.029795945 0.047046274 0.64389729
-0.029756589 0.045417935 0.64364731
-0.029733973 0.043818504 0.64350361
-0.029725885 0.04224208 0.64345217
-0.029733602 0.040688097 0.64350122
-0.029753236 0.039149016 0.64362597
-0.029783996 0.037621915 0.64382136
-0.029824642 0.036103547 0.64407963
-0.029876946 0.034594357 0.64441192
-0.029939892 0.033091486 0.64481181
-0.030012101 0.031591684 0.64527059
-0.030094186 0.030094206 0.64579213
-0.030186206 0.028597474 0.64637673
-0.030289691 0.027101278 0.64703423
-0.030402539 0.025602102 0.64775115
-0.030524464 0.024098277 0.64852577
-0.030662097 0.02259317 0.64940017
-0.030807165 0.021078587 0.65032184
-0.030966418 0.019557744 0.65133357
-0.031139251 0.018027991 0.65243161
-0.031328063 0.016488463 0.65363115
-0.031533707 0.014937013 0.65493762
-0.031757023 0.013371378 0.65635645
-0.032003656 0.011790812 0.65792334
-0.032274079 0.010191828 0.65964139
-0.032575656 0.0085725784 0.66155738
-0.032915596 0.0069296062 0.66371709
-0.033304423 0.00525859 0.66618741
-0.03376719 0.0035544336 0.66912746
-0.034215022 0.0018008053 0.67197257
-0.033931945 2.9802322e-08 0.67017412
-0.034143012 -0.0017970204 0.67151511
-0.034666292 -0.003649056 0.67483956
-0.02941796 0.057201594 0.65187913
-0.029057674 0.054886729 0.64946306
-0.028832927 0.052860379 0.64795583
-0.028680237 0.050987124 0.64693189
-0.028568523 0.049201339 0.64618266
-0.028487466 0.047479153 0.64563906
-0.028431352 0.04580608 0.64526278
-0.028393885 0.044168293 0.64501154
-0.028372595 0.042558908 0.64486873
-0.028365359 0.040972203 0.64482021
-0.028373044 0.039406985 0.64487177
-0.028392272 0.03785637 0.64500076
-0.028422557 0.036317706 0.64520383
-0.02846244 0.034787387 0.64547127
-0.028513532 0.033265799 0.64581388
-0.02857423 0.031749189 0.64622098
-0.028644754 0.030236125 0.64669389
-0.028724784 0.02872479 0.64723063
-0.028813371 0.02721262 0.64782465
-0.028914291 0.025701612 0.64850146
-0.029024338 0.024186969 0.64923942
-0.029143143 0.022666901 0.65003616
-0.029275766 0.021143585 0.65092552
-0.029416997 0.019611329 0.65187269
-0.029572023 0.0180718 0.65291238
-0.029740667 0.016522616 0.65404326
-0.029924562 0.014962316 0.65527654
-0.030124141 0.013388515 0.6566149
-0.030342439 0.011799872 0.65807879
-0.030584373 0.010194778 0.65970123
-0.030849414 0.0085693002 0.6614787
-0.031145455 0.0069212019 0.66346401
-0.031479545 0.0052465796 0.66570449
-0.031864565 0.0035404861 0.66828644
-0.032112584 0.0017840564 0.66994965
-0.032227952 -0 0.67072338
-0.032388467 -0.001799345 0.67179984
-0.032655276 -0.0036283433 0.67358911
-0.027999554 0.05599913 0.65341234
-0.027648885 0.05367136 0.65092242
-0.027431676 0.0516361 0.64938003
-0.02728508 0.049755156 0.64833909
-0.027177852 0.047960907 0.64757776
-0.027100354 0.046230048 0.64702743
-0.027046841 0.044547737 0.64664751
-0.027011368 0.042900413 0.64639556
-0.026991315 0.041280806 0.64625323
-0.026984891 0.03968367 0.64620763
-0.026992682 0.038107336 0.64626288
-0.027011368 0.0365448 0.64639568
-0.027041165 0.034994453 0.64660722
-0.027080165 0.033451974 0.64688408
-0.027129915 0.031917512 0.64723736
-0.027188275 0.030386895 0.64765173
-0.027256928 0.028860301 0.64813918
-0.027334621 0.02733463 0.64869088
-0.027420446 0.0258075 0.64930034
-0.027517756 0.024280369 0.64999127
-0.027624641 0.022749722 0.65075016
-0.027740316 0.021213174 0.65157163
-0.027867552 0.019671232 0.65247506
-0.028004624 0.018120617 0.65344834
-0.028155254 0.016561896 0.65451795
-0.028319484 0.014992654 0.65568399
-0.028497664 0.013410687 0.65694922
-0.028691351 0.011814088 0.6583246
-0.028903792 0.010201335 0.65983295
-0.029140048 0.0085705817 0.66151059
-0.029398985 0.006917417 0.66334915
-0.029688552 0.0052391589 0.66540533
-0.03001594 0.003531307 0.66772997
-0.030312665 0.0017830729 0.66983688
-0.030558888 2.9802322e-08 0.67158526
-0.030685665 -0.0018050373 0.67248541
-0.030860901 -0.0036306679 0.67372966
-0.031159464 -0.0054987371 0.67584968
-0.026558932 0.054777801 0.65496957
-0.026218835 0.052437663 0.65240371
-0.026009629 0.050393671 0.65082544
-0.025869275 0.048504889 0.6497665
-0.025766779 0.046702296 0.64899325
-0.025692848 0.044962496 0.64843547
-0.025642158 0.043271124 0.64805305
-0.025608528 0.041613847 0.64779931
-0.025589865 0.039984167 0.64765853
-0.025584223 0.038376361 0.64761597
-0.02559191 0.036788374 0.64767396
-0.025610495 0.035214424 0.64781415
-0.025639199 0.033651441 0.64803076
-0.025677193 0.032096475 0.6483174
-0.025725462 0.03054902 0.64868152
-0.025781548 0.029004276 0.64910465
-0.025847975 0.027463466 0.64960581
-0.025923219 0.025923252 0.65017349
-0.026006503 0.024381101 0.65080184
-0.026099512 0.022837073 0.65150356
-0.026203131 0.021290064 0.65228528
-0.026315359 0.019736528 0.65313196
-0.026436934 0.018175393 0.65404916
-0.026570035 0.016606271 0.65505338
-0.026715627 0.015027523 0.65615177
-0.026874634 0.013437331 0.65735137
-0.027046686 0.011832893 0.65864944
-0.027235128 0.010213166 0.66007107
-0.027441064 0.0085753202 0.66162473
-0.027670018 0.0069175065 0.66335213
-0.027922092 0.0052354038 0.66525382
-0.02818495 0.0035231113 0.66723692
-0.028464647 0.0017790794 0.66934705
-0.028806636 -0 0.67192721
-0.029006405 -0.0018129051 0.67343438
-0.029121837 -0.0036402345 0.6743052
-0.02930605 -0.0054948926 0.675695
-0.029646272 -0.0074115396 0.67826182
-0.025095562 0.05353719 0.65655136
-0.024767121 0.051185399 0.65390831
-0.024566483 0.049132943 0.65229368
-0.024432449 0.047236055 0.65121508
-0.024334852 0.045425087 0.65042967
-0.024264675 0.043676436 0.64986491
-0.024216682 0.041975617 0.64947873
-0.024185078 0.040308475 0.6492244
-0.024167633 0.038668215 0.64908403
-0.02416281 0.037049681 0.64904517
-0.024170436 0.035449952 0.64910656
-0.024188818 0.033864379 0.64925456
-0.024216291 0.032288373 0.64947557
-0.024253227 0.03072077 0.64977276
-0.024299789 0.029159755 0.65014756
-0.024354119 0.027601361 0.65058476
-0.024417505 0.026045352 0.65109479
-0.024490088 0.024490118 0.65167892
-0.024570502 0.0229325 0.65232605
-0.024659222 0.021371365 0.65303999
-0.024759116 0.019807279 0.65384388
-0.024867566 0.01823619 0.65471661
-0.024983538 0.016655684 0.6556499
-0.025112271 0.015067369 0.65668583
-0.025252867 0.013468236 0.6578173
-0.025405621 0.01185599 0.65904653
-0.031311426 0.012524545 0.70657283
-0.031467389 0.010489106 0.70782793
-0.025991036 0.0069309175 0.66375762
-0.026173493 0.0052346885 0.66522592
-0.026364733 0.0035153031 0.66676491
-0.026636546 0.0017757714 0.66895229
-0.026950656 2.9802322e-08 0.67148006
-0.027258787 -0.0018172264 0.67395973
-0.027418617 -0.0036557913 0.67524588
-0.027536312 -0.0055072308 0.67619306
-0.027738938 -0.0073970556 0.67782366
-0.028162565 -0.0093875229 0.68123275
-0.023608901 0.05227688 0.65815836
-0.02329308 0.049913734 0.65543532
-0.023102107 0.047854364 0.65378869
-0.02297421 0.045948446 0.652686
-0.022881681 0.044128954 0.65188813
-0.022815203 0.042371094 0.65131497
-0.022770116 0.040660918 0.65092623
-0.022740399 0.038983583 0.65066999
-0.022724317 0.037332803 0.65053129
-0.022720117 0.035703003 0.65049511
-0.022727709 0.034091592 0.65056056
-0.022745715 0.032493889 0.65071583
-0.022772038 0.030904889 0.6509428
-0.022807701 0.029324204 0.6512503
-0.022852493 0.027749479 0.65163648
-0.0229048 0.026176959 0.65208745
-0.022965098 0.024605453 0.65260738
-0.023034723 0.023034751 0.65320772
-0.023112092 0.021461219 0.65387481
-0.023196356 0.01988259 0.65460134
-0.023292227 0.01830104 0.65542799
-0.023396552 0.016711831 0.65632743
-0.023507493 0.015111953 0.65728402
-0.023630803 0.013503313 0.65834725
-0.02937806 0.014689058 0.70790118
-0.029376458 0.012589902 0.70788735
-0.029460223 0.010521501 0.70860958
-0.029609904 0.0084599555 0.7099002
-0.024416331 0.0052320659 0.66512024
-0.024606219 0.0035151839 0.66675746
-0.024839532 0.0017742515 0.66876912
-0.025098246 -2.9802322e-08 0.67099983
-0.025406288 -0.001814723 0.67365575
-0.025672492 -0.0036674738 0.67595106
-0.025803844 -0.0055294037 0.67708361
-0.025928967 -0.0074082911 0.67816246
-0.026144482 -0.009337306 0.68002063
-0.022098394 0.050996304 0.65979111
-0.021796275 0.048622459 0.65698588
-0.021615343 0.046556145 0.65530586
-0.021493921 0.044641227 0.65417838
-0.021406632 0.042813271 0.65336788
-0.021344116 0.041046351 0.65278739
-0.021301897 0.039326578 0.65239537
-0.021274168 0.037638932 0.65213788
-0.021259289 0.035977244 0.65199971
-0.021255815 0.034336299 0.65196747
-0.02126318 0.032712579 0.65203583
-0.02128078 0.031102657 0.65219927
-0.021306084 0.029500723 0.65243423
-0.021340124 0.027906328 0.65275031
-0.021382917 0.026317447 0.65314764
-0.021433154 0.024730563 0.6536141
-0.021490086 0.023143172 0.6541428
-0.021556603 0.021556586 0.65476048
-0.021630654 0.019966751 0.65544802
-0.021711372 0.018371165 0.65619755
-0.021801753 0.016770601 0.65703672
-0.021901589 0.015162647 0.65796375
-0.022007329 0.01354298 0.65894556
-0.027626049 0.014875561 0.71111786
-0.027479114 0.012682676 0.70975357
-0.027487708 0.010572195 0.70983332
-0.027584692 0.008487612 0.71073383
-0.027722005 0.0063973665 0.71200883
-0.022855053 0.0035161674 0.66681707
-0.023058329 0.0017736852 0.66870457
-0.023285326 -2.9802322e-08 0.67081237
-0.023537174 -0.0018105805 0.6731509
-0.023830619 -0.0036662817 0.6758756
-0.024054017 -0.005550921 0.67794997
-0.024160605 -0.0074340403 0.6789397
-0.02429715 -0.0093450546 0.68020755
-0.024530347 -0.011321664 0.68237287
-0.020563457 0.049695015 0.66145033
-0.02027618 0.047311097 0.65856051
-0.020105828 0.045238107 0.65684694
-0.019991156 0.043314159 0.65569341
-0.019909291 0.04147771 0.65486991
-0.019850776 0.039701551 0.65428126
-0.019811476 0.037971973 0.65388596
-0.019785885 0.036274135 0.65362853
-0.019772137 0.034601241 0.6534903
-0.019769272 0.032948792 0.65346146
-0.019776499 0.031312823 0.65353411
-0.019793581 0.029690385 0.65370595
-0.019817948 0.028075427 0.65395111
-0.019849988 0.026466668 0.65427339
-0.019890692 0.024863362 0.65468282
-0.019938512 0.023261607 0.65516388
-0.01999242 0.02165848 0.65570617
-0.020055192 0.020055205 0.65633756
-0.020125641 0.018448532 0.6570462
-0.02020243 0.016835362 0.65781868
-0.020287277 0.015215486 0.65867215
-0.020382246 0.01358819 0.65962744
-0.025831299 0.015068263 0.71444076
-0.025651529 0.012825787 0.71263236
-0.025552299 0.01064676 0.71163416
-0.025575917 0.0085253119 0.7118718
-0.025677528 0.0064193904 0.71289396
-0.025802549 0.0043004155 0.71415156
-0.021290649 0.0017742217 0.66876531
-0.021481689 -2.9802322e-08 0.67068702
-0.021701179 -0.0018084049 0.6728949
-0.021946277 -0.0036576986 0.67536044
-0.022222606 -0.0055555999 0.6781401
-0.022399105 -0.0074663758 0.67991555
-0.022493338 -0.0093722343 0.68086344
-0.022635287 -0.01131767 0.68229133
-0.022897614 -0.013356924 0.68493015
-0.019006189 0.048379391 0.66316611
-0.018732242 0.045979142 0.66015983
-0.018572949 0.043899715 0.6584118
-0.018465463 0.041966975 0.65723228
-0.018389147 0.040121794 0.65639484
-0.01833481 0.038336426 0.65579855
-0.018298481 0.036596984 0.65539992
-0.018274905 0.034888446 0.65514123
-0.018262476 0.033204496 0.6550048
-0.018260112 0.031540155 0.65497893
-0.018267022 0.029891461 0.65505475
-0.018283466 0.028256297 0.65523517
-0.018306756 0.026627988 0.65549076
-0.018336704 0.025004625 0.65581936
-0.018375149 0.023386568 0.6562413
-0.018420473 0.021769643 0.65673864
-0.018471474 0.020150661 0.65729833
-0.018529929 0.018529922 0.65793973
-0.018596483 0.016905874 0.65867007
-0.018669086 0.015274704 0.65946686
-0.018748131 0.01363501 0.66033423
-0.018837644 0.011987597 0.66131657
-0.023855004 0.013011843 0.71637559
-0.023662914 0.010755897 0.71426755
-0.02359687 0.0085806847 0.71354288
-0.023635374 0.0064460039 0.71396542
-0.023738025 0.0043160021 0.71509182
-0.019764524 0.001796782 0.67148787
-0.019697256 -0 0.67074966
-0.019876296 -0.0018069446 0.67271441
-0.02008622 -0.0036520064 0.67501801
-0.020322811 -0.0055425763 0.67761427
-0.02057242 -0.0074808896 0.68035352
-0.020710755 -0.0094139874 0.68187153
-0.020799747 -0.011345297 0.68284804
-0.02095129 -0.013332635 0.68451107
-0.021270053 -0.015469134 0.68800902
-0.017424021 0.047044873 0.66492444
-0.017163903 0.044626147 0.66178459
-0.017016165 0.042540431 0.66000116
-0.01691618 0.04059884 0.65879428
-0.016845731 0.038745195 0.65794384
-0.016795687 0.036950529 0.65733975
-0.016762322 0.035200864 0.656937
-0.01674084 0.033481717 0.65667772
-0.016729703 0.031786442 0.65654331
-0.016727688 0.030109853 0.65651894
-0.016734347 0.028448433 0.65659934
-0.016750032 0.026800036 0.65678871
-0.016772041 0.025158077 0.65705436
-0.016799973 0.023519993 0.65739149
-0.016835811 0.021886557 0.65782416
-0.016878348 0.020254046 0.65833759
-0.016926253 0.018618882 0.65891588
-0.016980246 0.016980261 0.65956759
-0.017042594 0.015338331 0.66032022
-0.017110607 0.013688475 0.66114122
-0.017184593 0.012029201 0.66203427
-0.017239716 0.01034385 0.6626997
-0.021845531 0.01092279 0.71829677
-0.021661583 0.0086646676 0.71607631
-0.021618532 0.0064855516 0.71555662
-0.02166299 0.004332602 0.71609336
-0.021765517 0.0021765828 0.71733093
-0.018036079 -0 0.67231262
-0.01807406 -0.0018074214 0.6727711
-0.018244153 -0.0036488175 0.6748243
-0.018439537 -0.0055318773 0.67718285
-0.018665921 -0.0074663758 0.67991555
-0.018881887 -0.0094409585 0.68252248
-0.018989882 -0.011393964 0.68382609
-0.0190796 -0.013355702 0.68490905
-0.019239755 -0.015391767 0.68684226
-0.015815005 0.045687795 0.66671348
-0.015570574 0.043251604 0.66343504
-0.015434911 0.041159809 0.66161555
-0.015342829 0.039209455 0.66038054
-0.015278541 0.037347555 0.65951824
-0.015232802 0.035543203 0.65890479
-0.015202463 0.033783257 0.65849787
-0.015183087 0.032053232 0.65823799
-0.015173214 0.030346423 0.65810561
-0.015171578 0.028657436 0.65808368
-0.015177867 0.026982874 0.65816802
-0.015192615 0.025321007 0.65836579
-0.015213247 0.023665071 0.65864253
-0.015239402 0.022012442 0.6589933
-0.015272168 0.020362884 0.65943283
-0.015311684 0.018714279 0.65996277
-0.01535617 0.017062396 0.66055948
-0.015405657 0.015405655 0.66122317
-0.015463373 0.013745219 0.66199732
-0.015500898 0.012056261 0.66250056
-0.015568259 0.010378838 0.66340405
-0.015644193 0.0086912215 0.66442251
-0.019799722 0.0087998807 0.72015762
-0.019632177 0.0065440834 0.71791053
-0.019610804 0.0043579638 0.71762389
-0.019658059 0.002184242 0.71825767
-0.019759409 -0 0.71961701
-0.016294258 -0.0018104613 0.67314136
-0.016420158 -0.0036489367 0.67482996
-0.016580855 -0.0055269301 0.67698532
-0.016760875 -0.0074492693 0.67939973
-0.016974481 -0.0094302297 0.68226469
-0.017153064 -0.01143536 0.6846599
-0.017238095 -0.013407439 0.68580043
-0.017333575 -0.015407592 0.68708098
-0.017498458 -0.017498463 0.68929243
-0.014178332 0.044307292 0.66853243
-0.013951655 0.041854978 0.66511214
-0.013828556 0.039757103 0.66325474
-0.013744842 0.037798315 0.6619916
-0.013686894 0.03592813 0.6611172
-0.013645602 0.034114003 0.66049415
-0.013618351 0.032343596 0.66008294
-0.013601045 0.030602366 0.65982187
-0.013592454 0.028883964 0.65969229
-0.013591346 0.027182728 0.65967554
-0.013597164 0.025494635 0.65976334
-0.01361071 0.023818761 0.65996766
-0.013629804 0.02214843 0.66025579
-0.013653933 0.020480931 0.66061985
-0.013683526 0.018814832 0.66106641
-0.01371978 0.017149746 0.6616134
-0.013760624 0.015480697 0.66222972
-0.013782657 0.01378265 0.66256213
-0.013835009 0.012105644 0.66335207
-0.013892435 0.010419339 0.6642186
-0.013954865 0.0087217987 0.66516054
-0.014023505 0.0070117414 0.66619623
-0.017723499 0.0066463351 0.7220248
-0.017575642 0.0043939054 0.71979386
-0.017571012 0.0021963716 0.719724
-0.017621059 2.9802322e-08 0.72047913
-0.0177144 -0.0022142828 0.72188759
-0.014600007 -0.0036500096 0.67489505
-0.014734796 -0.0055255294 0.67692882
-0.014884595 -0.0074422956 0.67918909
-0.015052285 -0.0094076693 0.68171936
-0.015247748 -0.011435777 0.68466866
-0.015388076 -0.01346454 0.68678606
-0.015456945 -0.015456915 0.6878252
-0.015554246 -0.017498553 0.68929338
-0.015734179 -0.019667745 0.69200838
-0.012513391 0.042903066 0.67038363
-0.012306567 0.04043591 0.66681707
-0.012196603 0.038332164 0.66492081
-0.012121678 0.036365062 0.66362876
-0.012070254 0.034486443 0.66274202
-0.012033473 0.032662302 0.66210777
-0.012009417 0.030881345 0.66169286
-0.011994243 0.029128879 0.66143125
-0.011986853 0.027398556 0.66130376
-0.011986197 0.025684685 0.66129249
-0.011991491 0.023982972 0.66138375
-0.012003779 0.022292763 0.66159564
-0.012021165 0.02060768 0.66189551
-0.01204303 0.018924773 0.66227251
-0.01206934 0.017241895 0.66272628
-0.012081539 0.015533417 0.66293663
-0.012118072 0.013849229 0.66356659
-0.012158878 0.012158871 0.66427028
-0.012205997 0.010462284 0.66508275
-0.012257813 0.0087555647 0.66597629
-0.012314096 0.0070366561 0.66694689
-0.015661312 0.0067119896 0.72466761
-0.015603541 0.0044581592 0.72367138
-0.015496466 0.0022137761 0.72182494
-0.015498387 -0 0.72185802
-0.015553514 -0.0022219121 0.72280872
-0.015634187 -0.0044668913 0.72419983
-0.012896745 -0.0055271685 0.67699432
-0.013017002 -0.007438302 0.67906809
-0.013154377 -0.0093959868 0.68143702
-0.013309182 -0.011407852 0.68410647
-0.013482033 -0.013482004 0.68708724
-0.013586946 -0.015527904 0.68889642
-0.013646076 -0.017544925 0.68991601
-0.013744338 -0.019634753 0.69161057
-0.013952671 -0.021925598 0.69520313
-0.010819346 0.041474164 0.67226636
-0.010634841 0.038994431 0.66855443
-0.010538378 0.036884308 0.66661376
-0.010472647 0.034908861 0.66529131
-0.010427941 0.033021837 0.66439188
-0.010395911 0.031187713 0.66374749
-0.010375073 0.029396057 0.66332829
-0.010362002 0.027631998 0.66306531
-0.010355819 0.025889546 0.66294092
-0.010355497 0.024162829 0.66293442
-0.010360322 0.022447377 0.66303152
-0.01037113 0.020742267 0.6632489
-0.01037805 0.019026428 0.66338813
-0.010387278 0.017312139 0.6635738
-0.010411666 0.01561749 0.66406447
-0.010440234 0.013920307 0.66463923
-0.010472574 0.012218028 0.66528982
-0.010508646 0.010508657 0.66601551
-0.010549746 0.0087914169 0.66684246
-0.010595581 0.0070637167 0.66776454
-0.010645287 0.0053226352 0.66876453
-0.013532536 0.0045108497 0.72685158
-0.013457318 0.002242893 0.72533822
-0.013385197 -2.9802322e-08 0.72388732
-0.013394036 -0.0022323132 0.72406512
-0.01344936 -0.0044830739 0.72517812
-0.013517609 -0.0067587793 0.72655118
-0.011160749 -0.0074405074 0.67913485
-0.011266463 -0.0093887448 0.68126166
-0.011389174 -0.011389136 0.68373042
-0.011529002 -0.013450503 0.68654352
-0.011673939 -0.015565246 0.68945944
-0.011749739 -0.017624617 0.69098443
-0.011804672 -0.01967442 0.69208956
-0.011904044 -0.021824092 0.69408882
-0.0090955123 0.040020257 0.67418301
-0.0089359656 0.037531018 0.67033124
-0.0088532418 0.035412997 0.66833413
-0.0087971743 0.033429235 0.6669805
-0.008759412 0.031533897 0.66606885
-0.0087322621 0.029689699 0.66541338
-0.0087146815 0.027886987 0.66498899
-0.0087037971 0.026111394 0.6647262
-0.0086987428 0.024356455 0.66460419
-0.0086975032 0.022613466 0.66457421
-0.008652892 0.020766944 0.66349715
-0.0086428476 0.019014269 0.66325474
-0.008698198 0.01739639 0.66459101
-0.008726689 0.015708029 0.66527879
-0.0087473448 0.013995767 0.6657775
-0.0087719122 0.012280673 0.66637063
-0.0087997429 0.010559708 0.66704249
-0.0088307112 0.0088307261 0.66779011
-0.0088655716 0.0070924759 0.66863173
-0.0089049535 0.00534302 0.66958249
-0.0089476304 0.0035790503 0.67061287
-0.011365487 0.0022730827 0.72898501
-0.011284336 -0 0.72702593
-0.011241138 -0.0022481978 0.72598296
-0.011256868 -0.0045027435 0.72636282
-0.011307747 -0.0067846179 0.7275911
-0.0094025517 -0.0075220466 0.68159556
-0.0093910107 -0.0093910098 0.68131697
-0.0094823083 -0.011378795 0.68352115
-0.0095879873 -0.013423175 0.68607241
-0.00971065 -0.015537053 0.68903375
-0.0098238606 -0.01768294 0.69176698
-0.0098788282 -0.019757658 0.6930939
-0.0099323243 -0.021851122 0.69438547
-0.010025943 -0.024062246 0.69664556
-0.007341024 0.038540393 0.67613292
-0.007208636 0.036043167 0.6721378
-0.0071405089 0.033917427 0.67008185
-0.0070946696 0.031926006 0.66869855
-0.00706397 0.030021846 0.66777205
-0.0070418995 0.028167605 0.66710603
-0.007021666 0.026331246 0.66649544
-0.0069739316 0.024408758 0.66505492
-0.006915329 0.022474825 0.66328639
-0.0068747816 0.020624369 0.66206282
-0.0069159265 0.019018799 0.66330445
-0.0069733723 0.017433435 0.66503805
-0.0070166443 0.015787452 0.66634393
-0.0070387791 0.014077544 0.66701186
-0.0070556025 0.012347281 0.66751957
-0.0070758327 0.010613769 0.6681301
-0.0070988466 0.0088735521 0.66882461
-0.0071243942 0.007124424 0.66959548
-0.0071529876 0.0053647161 0.67045844
-0.0071852673 0.0035926104 0.67143255
-0.0072204173 0.0018050969 0.67249334
-0.0091639124 -2.9802322e-08 0.73114341
-0.0090888804 -0.0022722185 0.72887915
-0.0090643885 -0.0045321882 0.72814006
-0.0090829404 -0.006812185 0.72869992
-0.0091278451 -0.0091278553 0.73005497
-0.0075519569 -0.0094399154 0.68249834
-0.0075865374 -0.011379778 0.68354195
-0.0076632532 -0.013410687 0.68585706
-0.0077501098 -0.015500218 0.68847823
-0.007852952 -0.017669111 0.69158173
-0.0079356516 -0.019839108 0.69407743
-0.0079738125 -0.021927983 0.69522893
-0.0080238739 -0.024071604 0.69673973
-0.0081165461 -0.02637881 0.69953632
-0.0055141812 0.036761194 0.67647147
-0.0054295533 0.034387171 0.67306626
-0.0053814156 0.032288492 0.67112941
-0.0053498847 0.030316025 0.66986066
-0.0053277253 0.028414547 0.66896904
-0.0052972855 0.026486456 0.66774422
-0.0051812874 0.024179369 0.66307682
-0.0051671793 0.022391111 0.6625092
-0.0051775342 0.02071014 0.66292584
-0.0051989094 0.019062698 0.66378587
-0.0052309223 0.017436385 0.66507399
-0.0052747992 0.015824407 0.66683942
-0.0053067245 0.014151305 0.66812402
-0.0053228703 0.012420028 0.66877365
-0.005335812 0.010671616 0.66929448
-0.005351353 0.008918941 0.66991973
-0.0053691738 0.0071589351 0.67063677
-0.0053889314 0.0053889155 0.67143178
-0.0054110768 0.0036074221 0.67232287
-0.0054357075 0.0018119216 0.67331392
-0.0054628681 -2.9802322e-08 0.67440677
-0.0069270432 -0.0023090243 0.73332059
-0.0068668351 -0.0045778751 0.73089802
-0.0068547614 -0.0068547428 0.73041224
-0.0068713296 -0.0091617703 0.73107886
-0.0069080754 -0.011513412 0.73255736
-0.0056918664 -0.011383712 0.68362093
-0.0057462957 -0.013408005 0.68581098
-0.005806691 -0.015484512 0.68824112
-0.0058749383 -0.017624795 0.69098717
-0.0059545008 -0.019848347 0.69418854
-0.0060082455 -0.022030205 0.69635105
-0.0060355444 -0.024142176 0.69744951
-0.0060781171 -0.026338518 0.69916248
-0.0061698542 -0.02879265 0.70285368
-0.0037093279 0.035238594 0.67847568
-0.003650228 0.032852054 0.6749087
-0.0036174254 0.030748129 0.67292893
-0.0035958996 0.028767228 0.67162961
-0.0035808836 0.026856661 0.67072338
-0.0035598655 0.024919063 0.66945481
-0.0034758474 0.022593021 0.66438389
-0.0034730125 0.020838082 0.66421276
-0.0034802475 0.019141406 0.66464943
-0.0034949668 0.01747486 0.66553783
-0.0035170889 0.015826911 0.66687298
-0.0035468193 0.014187276 0.66866744
-0.0035677978 0.012487322 0.66993356
-0.0035782587 0.010734767 0.67056495
-0.0035871218 0.0089678168 0.67109984
-0.0035977098 0.0071954429 0.67173886
-0.0036099872 0.0054149926 0.67247987
-0.0036235687 0.003623575 0.67329961
-0.0036388268 0.0018194318 0.67422056
-0.0036555482 2.9802322e-08 0.67522979
-0.0036741775 -0.0018371046 0.67635417
-0.004652488 -0.0046524704 0.73540044
-0.0046118144 -0.0069177151 0.73294556
-0.0046081189 -0.009216249 0.73272252
-0.0046212273 -0.011553079 0.73351365
-0.0046467846 -0.013940364 0.73505616
-0.0038320373 -0.013412178 0.68588185
-0.0038692113 -0.015476882 0.68812549
-0.003911451 -0.01760152 0.6906749
-0.0039594895 -0.019797444 0.69357431
-0.0040125642 -0.022069097 0.69677758
-0.00404278 -0.024256676 0.69860131
-0.0040618312 -0.026401937 0.69975114
-0.0040958119 -0.028670698 0.70180207
-0.0018715702 0.033688277 0.68051642
-0.00184063 0.03129074 0.67678154
-0.00182387 0.029181898 0.67475849
-0.0018128478 0.027192712 0.673428
-0.0018052085 0.025272936 0.67250586
-0.0017943264 0.023326248 0.67119229
-0.0017521831 0.021026194 0.66610515
-0.0017508526 0.019259393 0.66594446
-0.0017546347 0.017546326 0.66640109
-0.0017622357 0.015860111 0.66731858
-0.0017737114 0.01418972 0.66870385
-0.0017888161 0.012521684 0.6705271
-0.0017991265 0.010794759 0.67177171
-0.0018042191 0.0090211034 0.67238641
-0.0018087912 0.0072351694 0.67293835
-0.0018141886 0.0054425895 0.67358989
-0.0018205255 0.0036410689 0.67435479
-0.0018275206 0.0018275082 0.67519915
-0.001835404 -2.9802322e-08 0.6761508
-0.0018439266 -0.0018438995 0.67717952
-0.0018535098 -0.0037069917 0.67833638
-0.0023437326 -0.0070312023 0.73751146
-0.0023237052 -0.0092948377 0.73509395
-0.0023235108 -0.011617571 0.73507053
-0.0023318487 -0.013991088 0.73607695
-0.0023444903 -0.016411424 0.73760295
-0.0019352044 -0.015481651 0.68819773
-0.0019543276 -0.017588943 0.6905061
-0.0019763119 -0.019763142 0.69315982
-0.0020016429 -0.022018075 0.69621754
-0.0020274098 -0.024328917 0.69932795
-0.0020400989 -0.026521266 0.70085967
-0.0020509027 -0.02871263 0.70216376
-0.0020702414 -0.031053632 0.70449817
0 0.03210938 0.68259472
0 0.029702693 0.67868745
0 0.027589142 0.67661828
0 0.02559194 0.67525637
0 0.023662955 0.67431885
0 0.021707565 0.67295885
0 0.019433528 0.66785562
0 0.017654389 0.66770518
0 0.015924573 0.66818291
0 0.014217973 0.66913044
0 0.012523949 0.67056572
0 0.010826945 0.67241943
0 0.0090727806 0.67363429
0 0.0072782338 0.67423892
0 0.0054728985 0.67480993
0 0.0036596358 0.67547584
0 0.0018363297 0.67626214
0 -0 0.67713279
0 -0.0018517077 0.67811608
0 -0.0037209392 0.67917657
0 -0.0071023405 0.74037337
0 -0.0094362497 0.73936158
0 -0.01171267 0.73736715
0 -0.014060438 0.7374717
0 -0.016474426 0.73868912
0 -0.015714109 0.69170547
0 -0.017592967 0.69056046
0 -0.019744843 0.69293958
0 -0.021971732 0.69570929
0 -0.024288654 0.69892305
0 -0.026621729 0.70179194
0 -0.02882567 0.70313871
0 -0.031075478 0.70467412
0 -0.033529252 0.70755637
0.0019063316 0.030501306 0.68471253
0.0018724807 0.028087199 0.68062639
0.0018549528 0.025969356 0.67851055
0.0018434033 0.023964256 0.67711639
0.0018354915 0.022025883 0.67616135
0.0018238368 0.020062208 0.6747545
0.0017814218 0.017814219 0.66963458
0.0017802684 0.016022414 0.66949534
0.0017844015 0.014275223 0.66999424
0.0017925136 0.012547612 0.67097342
0.0018048374 0.010829061 0.67246109
0.001820446 0.0091022253 0.6743452
0.0018302413 0.0073209703 0.67552757
0.0018351752 0.0055055618 0.67612314
0.0018400614 0.00368011 0.67671299
0.0018457766 0.001845777 0.67740285
