# .PCD v0.7 - Point Cloud Data file format
VERSION 0.7
FIELDS x y z
SIZE 4 4 4
TYPE F F F
COUNT 1 1 1
WIDTH 248
HEIGHT 1
VIEWPOINT 0 0 0 1 0 0 0
POINTS 248
DATA ascii
-0.047302764 -0.0071670711 0.62762666
-0.043096095 -0.011492282 0.62800318
-0.0433391 -0.0086677969 0.62898099
-0.047564935 -0.0043240786 0.6285857
-0.043526348 -0.026115805 0.6297344
-0.03851191 -0.0088873506 0.63339788
-0.05189519 0.0029654503 0.633578
-0.034744922 -0.0090638995 0.6369493
-0.039122023 -0.0030093789 0.63623047
-0.043869607 -0.034793139 0.63720244
-0.037942059 -0.028835952 0.63779837
-0.033417087 -0.019746453 0.63795245
-0.033542026 -0.0076231956 0.63863796
-0.032253157 -0.021502107 0.63999325
-0.034079731 -0.0015490949 0.64158827
-0.040213797 0.0030933619 0.64129925
-0.064948902 0.006185621 0.64126521
-0.029525917 -0.018647969 0.64218175
-0.04658702 0.0062115788 0.64204967
-0.053145994 0.0078155994 0.64328289
-0.056748051 -0.039408356 0.64487839
-0.028545523 -0.023787946 0.64602846
-0.028545523 -0.023787946 0.64602846
-0.0239692 -0.012783557 0.64748716
-0.0239692 -0.012783557 0.64748716
-0.02730689 -0 0.64849401
-0.030775949 0.0048593581 0.65012348
-0.070464738 0.0016387403 0.6524083
-0.019788623 -0.018139571 0.65365613
-0.076060191 -0.0033069551 0.6541909
-0.076060191 -0.0033069551 0.6541909
-0.076060191 -0.0033069551 0.6541909
-0.063372843 -0.035021812 0.65590787
-0.063424639 -0.036719531 0.65607238
-0.016695261 -0.015025705 0.65612757
-0.062087562 -0.036916941 0.65715551
-0.072385952 -0.033667862 0.65780163
-0.020139007 -0.023495495 0.65718067
-0.01516463 -0.015164614 0.65799046
-0.015129221 -0.0050430894 0.65751553
-0.015160341 -0.0033689737 0.65793294
-0.069522515 -0.0050869882 0.65928352
-0.0085074753 -0.0051044822 0.65998662
-0.069975935 -0.030721158 0.66061848
-0.073473603 -0.015378177 0.66085488
-0.073473603 -0.015378177 0.66085488
-0.073838972 -0.02575776 0.66188049
-0.010308207 -0.0068721473 0.66198307
-0.067046165 -0.027506113 0.66211557
-0.072449744 -0.013799936 0.66282308
-0.0052036494 -0.0034691095 0.66397667
-0.010376686 -2.9802322e-08 0.66336077
-0.071302913 -0.019130051 0.66452533
-0.024329918 0.01216495 0.66437513
-0.017489798 0.010493875 0.6657185
-0.061506901 -0.031632096 0.6667276
-0.068446599 -0.0052651167 0.66645014
0 -0.0052897632 0.66744226
-0.065838769 -0.01245597 0.66939366
-0.065838769 -0.01245597 0.66939366
-0.060782153 -0.028603375 0.67039359
-0.01074942 0.010749429 0.67085958
-0.057734594 -0.025258899 0.67238486
-0.032681346 0.016340703 0.67376387
-0.06201452 -0.016415596 0.67476892
0 0.001817584 0.67400116
0 -0.016631871 0.67766953
0.0036971041 -0.0092427731 0.67773789
0.0018541074 0.0074164569 0.6784085
-0.0037098369 0.012984455 0.67850637
0.013185774 -0 0.68197846
0.0075599439 0.0056699812 0.68273938
0.0075599439 0.0056699812 0.68273938
-0.018951688 -0.03221789 0.68336511
0.015200327 -0 0.68395317
-0.0057171872 -0.024774492 0.68463981
0.0077075493 -0.015415072 0.68719375
-0.0019363277 0.019363254 0.68833339
0.013671803 -0.0097655654 0.69035971
0.011755397 -0.013714612 0.69109821
0.013747521 0.01178354 0.69166541
0.013747521 0.01178354 0.69166541
0.019805832 0.0059417486 0.69367552
-0.0080116037 -0.030043513 0.69636947
-0.0080234231 0.026076138 0.69672614
-0.0060579297 0.026251048 0.69835019
0.022273893 -0.0060746968 0.69902492
0.020545576 0.01849106 0.70260495
0.026844941 0.012389988 0.70386493
0.026981348 -0.00622648 0.70513153
0.029303953 0.014651954 0.70726222
0.0041929795 0.027254373 0.70766664
0.033953268 0.012732446 0.71075559
0.006394879 -0.025579512 0.71190798
0.040655043 0.0042794645 0.71288729
0.014982724 0.027825058 0.71296567
0.03646351 2.9802322e-08 0.71351177
0.039486073 0.019743055 0.71939743
0.039652791 -0.0044058561 0.72051549
0.028697891 0.028697878 0.72107035
0.053867422 0.011222392 0.72553009
0.036010958 0.029258907 0.72627962
0.047646087 0.022688627 0.72847372
0.047883838 -0.0022801757 0.72984034
0.050408211 -0 0.73118013
0.053159334 0.023112744 0.73359358
0.065945767 0.016486436 0.73889643
0.040129736 0.035408616 0.73954427
0.064089783 0.034509867 0.75214875
-0.041261099 -0.013030574 0.62936795
-0.044679891 -0.0072064102 0.62857664
-0.044872485 -0.0057899952 0.62932652
-0.04913396 -0.0028901994 0.62903887
-0.051176257 0.00073353946 0.63109851
-0.038452566 -0.022924677 0.63312232
-0.03831986 -0.020633787 0.63250625
-0.044122685 -0.002941519 0.6321339
-0.040314049 -0.029118285 0.63483262
-0.038850848 -0.0052283257 0.63497144
-0.037688844 -0.027135968 0.63657576
-0.034577996 -0.016537279 0.63607323
-0.034602225 -0.012787402 0.63620043
-0.034836635 -0.0075731874 0.63743073
-0.032053873 -0.01297392 0.63884765
-0.035080988 -0.0045758188 0.63871312
-0.030822596 -0.018493563 0.64062881
-0.028107755 -0.014834881 0.64309269
-0.029136596 -0.0072849593 0.64302671
-0.032821003 -0.00077928603 0.64325726
-0.026874993 -0.018970579 0.64542729
-0.050227191 0.0078480244 0.64406538
-0.04245431 0.0062895417 0.64440119
-0.023970347 -0.011186153 0.6474964
-0.033362538 0.0031773746 0.64636999
-0.033642616 0.0048061013 0.64797997
-0.025743827 -0.0016089976 0.6488201
-0.021137493 -0.014633656 0.65086877
-0.040865216 0.0098076761 0.65191263
-0.065955117 -0.034626454 0.65363514
-0.019788623 -0.018139571 0.65365613
-0.019680433 -0.014760315 0.6525678
-0.073352925 -0.0016671121 0.65583611
-0.029893475 0.0083037615 0.65506804
-0.077390045 -0.015141487 0.65768063
-0.013608027 -0.015309036 0.65992719
-0.076259203 -0.0084732473 0.65916014
-0.021196704 0.0067837834 0.6593163
-0.068355709 -0.02734229 0.66087949
-0.011983654 -0.013695598 0.66124862
-0.017099146 0.0051297545 0.66100287
-0.020626329 -0.027501792 0.66208279
-0.070892163 -0.0155617 0.66331601
-0.0051612095 -0.0086020231 0.66226888
-0.017221559 0.006888628 0.66248053
-0.015564062 0.0069173574 0.66334772
-0.015564062 0.0069173574 0.66334772
-0.010452848 -0.017421395 0.66489297
-0.064915568 -0.024562627 0.66638178
-0.064915568 -0.024562627 0.66638178
0 -0.0052897632 0.66744226
-0.063184127 -0.0035102367 0.66645896
-0.065718547 -0.015097991 0.66900146
-0.0053463974 0.0035642684 0.66972035
-0.012463874 0.010683328 0.66952968
-0.059306987 -0.023363352 0.67153692
-0.0089328699 -0.021438897 0.6702565
-0.063009754 -0.012601942 0.67191076
-0.0017984539 -0.010790735 0.67169052
0.0054518171 -0.0018172562 0.67396212
-0.060868416 -0.018444955 0.67724848
0.0018453273 0.0055359602 0.67734867
-0.02413425 0.020421267 0.67869496
0.0037573492 0.009393394 0.68137401
0.015200327 -0 0.68395317
0.011584121 -0.0096534491 0.68765247
0.017657988 -0.0039239526 0.69143212
0.013747521 0.01178354 0.69166541
0.013747521 0.01178354 0.69166541
-0.011846548 -0.03159079 0.69293201
0.0039379871 0.019689947 0.69227648
-0.0060152039 0.024060816 0.69663107
0.020275498 -0.010137737 0.69934481
0.022323038 0.012176216 0.69956422
0.016196705 0.018221289 0.69898736
0.032923751 0.0041154921 0.70298851
0.029303953 0.014651954 0.70726222
0.031548735 -0.0021032393 0.7084825
0.033730108 0.010540634 0.70907199
0.035100888 0.024131835 0.7194137
0.015441674 -0.02205953 0.72088003
0.046871599 0.0044639707 0.72402179
0.053867422 0.011222392 0.72553009
0.02932076 0.031576216 0.72685397
0.047646087 0.022688627 0.72847372
0.065854937 0.014111757 0.73850489
0.040129736 0.035408616 0.73954427
0.059338775 0.0023735464 0.74111086
0.059338775 0.0023735464 0.74111086
0.072681494 0.014536291 0.7470457
0.067676157 0.021753073 0.74635631
0.068341687 0.0073223114 0.7492255
0.044484027 0.042012721 0.75291443
0.050341453 0.042790234 0.75843549
-0.043088548 -0.020107985 0.62797284
-0.045288987 -0.027757794 0.63094836
-0.039589263 -0.010996222 0.63159227
-0.036608294 -0.031160042 0.64266539
-0.036961157 -2.9802322e-08 0.64049822
-0.036961157 -2.9802322e-08 0.64049822
-0.065729536 0.0030929595 0.64127386
-0.038047716 0.0055549666 0.64600301
-0.063415736 -0.03870599 0.6534465
-0.017767977 -0.010335518 0.65421629
-0.01992085 -0 0.6549862
-0.057254039 -0.031229466 0.66402745
-0.06965813 -0.013550356 0.66570008
-0.0026189296 -0.0087474883 0.66578054
-0.0023223157 -0.0058149695 0.66512215
-0.012791416 0.0063975854 0.66517282
-0.066440575 -0.018218899 0.67020625
-0.0088481065 -0.019465804 0.66821009
-0.016213067 0.014411628 0.67205238
-0.014104208 0.018807679 0.68162656
-0.003829808 -0.024893731 0.68574727
-0.0028804073 0.018218741 0.68603528
0.011862932 0.015817225 0.69326168
0.010944174 0.017903075 0.69471908
-0.007965656 0.023896962 0.69498289
-0.013797344 0.02562362 0.69252461
0.025193341 -0.0010121018 0.69792676
0.025193341 -0.0010121018 0.69792676
0 0.024391085 0.69995326
-0.0020528547 -0.022581398 0.70239937
0.034383588 0.0083345473 0.70611477
0.030336693 0.017637592 0.71006429
0.017947264 0.025333077 0.70942885
0.017947264 0.025333077 0.70942885
0.039089169 2.9802322e-08 0.71673572
0.03977485 0.022097141 0.72133398
0.053026825 0.0023055077 0.73289812
0.062740907 0.01394245 0.73509783
0.050149046 0.027004769 0.73398036
0.042105537 -0.0093567669 0.73696387
0.062133651 0.010547191 0.73764509
0.059292369 0.026088625 0.74088681
0.070686609 0.021937251 0.74882644
0.063336864 0.031668425 0.74865317
0.053398214 0.039736152 0.75438404
