# .PCD v0.7 - Point Cloud Data file format
VERSION 0.7
FIELDS x y z
SIZE 4 4 4
TYPE F F F
COUNT 1 1 1
WIDTH 1348
HEIGHT 1
VIEWPOINT 0 0 0 1 0 0 0
POINTS 1348
DATA ascii
-0.0093498426 0.003739953 0.68032306
-0.0093047051 0.0018609464 0.67923343
-0.0092600025 -2.9802322e-08 0.67815417
-0.0092157265 -0.0018431246 0.67708522
-0.0091745965 -0.0036698282 0.67609227
-0.0091347666 -0.0054808557 0.67513072
-0.009095313 -0.0072762668 0.67417818
-0.0090561677 -0.0090561509 0.67323315
-0.0090182666 -0.010821909 0.6723181
-0.0089827133 -0.012575805 0.67145979
-0.0089474386 -0.014315873 0.67060816
-0.0089124404 -0.016042382 0.66976327
-0.0088777142 -0.017755419 0.66892493
-0.0088445721 -0.019458055 0.66812479
-0.008813072 -0.021151364 0.6673643
-0.0087818271 -0.022832721 0.66661
-0.0088922614 -0.02489832 0.66927612
-0.0088643776 -0.026593119 0.66860294
-0.0088289026 -0.028252453 0.66774642
-0.0087938355 -0.029899031 0.66689986
-0.0087590441 -0.031532526 0.66605997
-0.0087245582 -0.033153355 0.66522741
-0.0086903125 -0.03476122 0.66440064
-0.0086563341 -0.036356598 0.6635803
-0.0086226212 -0.037939548 0.66276646
-0.0085895825 -0.039512098 0.66196883
-0.0085569425 -0.041073352 0.66118085
-0.0085245492 -0.042622745 0.66039872
-0.0084924577 -0.044160783 0.65962398
-0.0084606642 -0.045687586 0.65885645
-0.0084290802 -0.047202826 0.65809393
-0.008397731 -0.048706859 0.65733707
-0.0083667533 -0.050200522 0.65658927
-0.0083363373 -0.051685303 0.65585494
-0.008306169 -0.053159475 0.65512657
-0.0082761906 -0.054622859 0.65440285
-0.0082464283 -0.056075722 0.65368432
-0.0082168793 -0.057518125 0.65297091
-0.0081875678 -0.058950484 0.65226328
-0.008158545 -0.060373217 0.65156257
-0.0081300437 -0.061788335 0.6508745
-0.0081018191 -0.063194171 0.6501931
-0.00807379 -0.064590275 0.64951646
-0.0080459807 -0.065977037 0.64884508
-0.0080183363 -0.067354038 0.64817768
-0.0080026649 -0.06882292 0.64779931
-0.0080071986 -0.070463344 0.64790881
-0.0097991191 -0.088192075 0.69116962
-0.0097612301 -0.089803293 0.69025487
-0.0092272852 0.08765924 0.73305583
-0.0091630314 0.084758013 0.73111689
-0.0091025624 0.081923097 0.72929204
-0.0090430919 0.079127043 0.72749734
-0.0089844326 0.076367646 0.72572714
-0.008927485 0.073651791 0.72400862
-0.0088726711 0.070981383 0.72235447
-0.0088185649 0.068343878 0.7207216
-0.0087650763 0.065738082 0.71910745
-0.0087129911 0.063169181 0.71753567
-0.008662683 0.060638815 0.71601754
-0.0086129531 0.058137447 0.71451676
-0.0085638268 0.055664867 0.71303427
-0.0085152229 0.053220153 0.71156752
-0.0084685283 0.050811172 0.71015835
-0.0084225908 0.048429906 0.70877212
-0.0083771134 0.046074122 0.70739967
-0.0083321258 0.04374367 0.70604205
-0.0082876179 0.041438103 0.70469892
-0.0082429387 0.039153993 0.7033506
-0.0081970254 0.036886603 0.70196503
-0.0081480034 0.034628987 0.70048571
-0.0080927201 0.032370895 0.69881737
-0.008012278 0.030046046 0.69638979
-0.0079365326 0.027777851 0.69410396
-0.0078818984 0.025616169 0.69245523
-0.0078318408 0.023495525 0.69094467
-0.0077874716 0.021415561 0.68960571
-0.0077436026 0.019359022 0.68828183
-0.0077029513 0.01733163 0.68705505
-0.0076646614 0.015329331 0.6858995
-0.0076267505 0.013346821 0.68475544
-0.0075892126 0.011383832 0.68362272
-0.0075548361 0.0094435513 0.68258524
-0.0075211087 0.0075211227 0.68156743
-0.0074876528 0.005615741 0.68055785
-0.007454494 0.0037272573 0.67955714
-0.007423141 0.0018557906 0.67861098
-0.0073930342 -0 0.67770243
-0.0073631695 -0.0018407702 0.6768012
-0.0073335189 -0.0036667585 0.67590642
-0.0073041329 -0.0054780841 0.67501962
-0.0072770976 -0.0072770715 0.67420375
-0.007250445 -0.0090630651 0.67339945
-0.007224014 -0.010836035 0.67260182
-0.0071977484 -0.012596041 0.6718092
-0.00717211 -0.014344215 0.67103547
-0.0071486956 -0.016084552 0.67032892
-0.0071254596 -0.017813653 0.66962767
-0.0071023484 -0.019531429 0.66893023
-0.0070794113 -0.021238208 0.66823804
-0.0070588631 -0.022941321 0.66761798
-0.0071017691 -0.02485618 0.66891271
-0.0070844735 -0.026566774 0.66839087
-0.0070567969 -0.02822718 0.66755557
-0.0070293359 -0.029874712 0.66672689
-0.0070020873 -0.031509399 0.66590464
-0.0069750492 -0.03313151 0.66508865
-0.0069482434 -0.034741193 0.6642797
-0.0069216192 -0.036338478 0.66347623
-0.006895198 -0.037923574 0.66267896
-0.0068693073 -0.039498478 0.6618976
-0.0068437047 -0.041062236 0.66112494
-0.0068182689 -0.042614162 0.66035736
-0.0067930212 -0.044154614 0.65959543
-0.0067679598 -0.045683742 0.65883917
-0.0067431051 -0.047201723 0.6580891
-0.0067187031 -0.048710585 0.65735269
-0.0066945446 -0.050209075 0.65662366
-0.0066705588 -0.051696807 0.65589988
-0.0066467891 -0.053174287 0.65518248
-0.0066232313 -0.054641664 0.65447164
-0.0065998184 -0.056098431 0.65376508
-0.0065765916 -0.057545155 0.65306413
-0.0065535074 -0.058981568 0.65236747
-0.0065306476 -0.060408488 0.65167767
-0.0065082223 -0.061828107 0.65100092
-0.0064860135 -0.063238606 0.65033066
-0.0064639766 -0.064639792 0.64966565
-0.0064420677 -0.066031218 0.64900452
-0.0064203274 -0.067413419 0.64834845
-0.0064048367 -0.068851978 0.64788091
-0.0064088972 -0.07049787 0.64800346
-0.0077357907 -0.087027654 0.6880461
-0.007708529 -0.088648066 0.68722332
-0.0068887682 0.089553982 0.73178053
-0.0068452591 0.086706609 0.73002988
-0.006802327 0.083895385 0.72830248
-0.0067599299 0.08111915 0.72659653
-0.0067193215 0.078392088 0.72496253
-0.0066794357 0.075700283 0.72335768
-0.0066400208 0.073040247 0.72177172
-0.0066010682 0.070411384 0.72020435
-0.0065631438 0.067819148 0.71867841
-0.0065263333 0.065263361 0.7171973
-0.0064899335 0.062736005 0.71573269
-0.0064539379 0.060236782 0.71428436
-0.0064183669 0.057765305 0.71285307
-0.0063828053 0.05531764 0.71142215
-0.0063467766 0.052889794 0.7099725
-0.0063078906 0.05046311 0.70840788
-0.0062648994 0.048030913 0.70667797
-0.0062039476 0.045495629 0.70422548
-0.0061411792 0.042988271 0.70169985
-0.0060975733 0.040650487 0.69994533
-0.0060573672 0.038363338 0.69832754
-0.0060219853 0.036131918 0.69690388
-0.0059870379 0.033926576 0.69549775
-0.0059548314 0.031759113 0.69420183
-0.0059243259 0.029621631 0.69297433
-0.0058941082 0.027505845 0.69175851
-0.0058643799 0.025412351 0.69056231
-0.0058372649 0.023349106 0.6894713
-0.0058104 0.021304816 0.68839037
-0.0057837805 0.019279271 0.68731928
-0.0057574036 0.017272234 0.68625796
-0.0057330397 0.015288115 0.68527764
-0.0057090982 0.013321221 0.68431431
-0.005685356 0.011370748 0.68335897
-0.0056618103 0.0094363689 0.68241161
-0.0056390939 0.0075187683 0.68149757
-0.0056177578 0.0056177676 0.68063903
-0.0055966028 0.0037310719 0.67978776
-0.0055755861 0.0018585622 0.6789422
-0.0055547473 -0 0.67810369
-0.0055355127 -0.001845181 0.67732972
-0.0055169174 -0.0036779344 0.67658156
-0.005498447 -0.0054984391 0.67583835
-0.0054801195 -0.0073068142 0.67510092
-0.0054629678 -0.0091049671 0.67441076
-0.0054473849 -0.010894775 0.67378378
-0.0054318719 -0.012674361 0.6731596
-0.0054164459 -0.014443845 0.67253888
-0.0054014195 -0.016204268 0.67193425
-0.0053865332 -0.017955095 0.67133528
-0.0053699035 -0.019689649 0.67066616
-0.0053532808 -0.021413118 0.66999733
-0.0053354516 -0.023120284 0.66927993
-0.0053176088 -0.0248155 0.668562
-0.0053114565 -0.026557297 0.66831446
-0.0052910489 -0.028218895 0.66749334
-0.0052707801 -0.029867768 0.66667771
-0.0052506654 -0.031503975 0.6658684
-0.005230722 -0.033127934 0.665066
-0.0052110376 -0.034740269 0.66427386
-0.0051916633 -0.036341608 0.66349435
-0.0051724319 -0.037931174 0.6627205
-0.0051533426 -0.039508969 0.66195244
-0.0051343935 -0.04107517 0.66118997
-0.0051156012 -0.042630017 0.66043389
-0.0050969804 -0.044173837 0.6596846
-0.0050785113 -0.04570657 0.65894139
-0.0050601587 -0.047228128 0.65820301
-0.0050422098 -0.04874137 0.65748078
-0.005024387 -0.050243855 0.65676367
-0.0050066905 -0.051735789 0.65605158
-0.0049891509 -0.05321762 0.65534586
-0.0049717668 -0.054689437 0.6546464
-0.0049544871 -0.056150854 0.65395111
-0.0049373433 -0.057602346 0.6532613
-0.0049203183 -0.05904381 0.65257621
-0.0049034096 -0.060475394 0.65189588
-0.0048868712 -0.061900362 0.65123045
-0.0048704604 -0.063316002 0.65057015
-0.0048541743 -0.064722329 0.6499148
-0.0048379819 -0.066119105 0.64926332
-0.0048219124 -0.06750679 0.64861673
-0.0048079044 -0.068913311 0.64805305
-0.0048113875 -0.070567042 0.64819324
-0.0057983026 -0.086974531 0.68790358
-0.0057776803 -0.088591114 0.68707389
-0.0045537669 0.088798493 0.72944206
-0.0045263311 0.086000323 0.72778618
-0.0045000743 0.083251387 0.72620147
-0.0044741202 0.08053416 0.72463495
-0.0044484641 0.077848136 0.72308648
-0.0044231 0.07519269 0.72155559
-0.0043978882 0.072565168 0.720034
-0.0043724277 0.069958836 0.71849728
-0.004345146 0.067349762 0.71685064
-0.0043152417 0.064728618 0.71504575
-0.0042756386 0.061996758 0.71265554
-0.0042282348 0.05919531 0.70979446
-0.0041972357 0.056662709 0.70792347
-0.0041684578 0.05418995 0.70618659
-0.0041433461 0.051791847 0.70467097
-0.0041185175 0.049422234 0.70317245
-0.0040957951 0.047101676 0.701801
-0.0040741512 0.04481566 0.70049471
-0.0040527182 0.042553544 0.69920111
-0.0040319157 0.040319175 0.69794559
-0.0040126927 0.038120568 0.69678533
-0.0039936523 0.035942882 0.69563615
-0.0039747916 0.033785731 0.69449782
-0.0039563589 0.031650871 0.6933853
-0.0039392742 0.029544592 0.69235408
-0.0039223209 0.027456254 0.69133091
-0.0039055131 0.025385827 0.6903165
-0.0038888485 0.023333073 0.68931073
-0.0038733298 0.021303326 0.6883741
-0.0038582322 0.019291192 0.68746281
-0.0038432663 0.017294705 0.68655956
-0.0038284017 0.015313655 0.68566239
-0.0038141022 0.013349354 0.68479931
-0.0038008613 0.011402577 0.68400019
-0.0037877266 0.0094693005 0.68320751
-0.0037746681 0.0075493455 0.6824193
-0.0037619539 0.0056429207 0.68165195
-0.003750857 0.0037508607 0.68098217
-0.003739825 0.0018699169 0.68031633
-0.0037288582 -0 0.67965448
-0.0037181347 -0.0018590391 0.67900717
-0.0037075004 -0.0037074983 0.67836535
-0.0036959434 -0.0055438876 0.67766786
-0.0036841328 -0.0073682666 0.67695498
-0.0036714545 -0.0091786683 0.67618984
-0.0036587827 -0.010976344 0.67542499
-0.0036458527 -0.01276049 0.67464459
-0.0036325788 -0.014530331 0.6738435
-0.0036190082 -0.016285509 0.67302442
-0.0036053311 -0.01802665 0.67219889
-0.0035915119 -0.019753307 0.67136484
-0.0035776959 -0.021466166 0.67053097
-0.0035639857 -0.023165911 0.66970348
-0.0035503805 -0.024852663 0.66888231
-0.0035420614 -0.026565462 0.66838026
-0.0035286348 -0.028229117 0.66756988
-0.0035153099 -0.029880166 0.66676569
-0.0035020851 -0.031518728 0.6659674
-0.0034889958 -0.033145458 0.66517746
-0.0034761492 -0.034761488 0.66440207
-0.0034634448 -0.036366165 0.66363525
-0.0034508444 -0.037959278 0.66287482
-0.003438324 -0.039540738 0.66211915
-0.0034258938 -0.041110724 0.66136891
-0.0034135764 -0.042669684 0.66062546
-0.0034013591 -0.044217676 0.65988809
-0.0033892405 -0.045754731 0.65915668
-0.0033772078 -0.047280878 0.6584304
-0.0033654412 -0.048798889 0.65772027
-0.0033537562 -0.05030632 0.65701503
-0.0033421412 -0.051803172 0.65631402
-0.0033306284 -0.053290039 0.65561914
-0.0033192057 -0.054766864 0.6549297
-0.0033078608 -0.056233615 0.65424496
-0.0032965937 -0.057690382 0.65356493
-0.003285392 -0.059137031 0.65288883
-0.0032742985 -0.060574532 0.6522193
-0.0032634283 -0.062005132 0.65156323
-0.0032526513 -0.063426703 0.65091282
-0.003241956 -0.06483911 0.65026724
-0.0032313201 -0.066242069 0.64962536
-0.0032207642 -0.067636043 0.64898825
-0.0032102671 -0.069020748 0.64835471
-0.0032123483 -0.070671648 0.6484803
-0.0038669838 -0.087007135 0.68799102
-0.0038543388 -0.08864978 0.68722779
-0.0038824063 -0.091236532 0.68892181
-0.0022616209 0.088203222 0.72759974
-0.0022473189 0.085398108 0.72587335
-0.002231712 0.082573384 0.72398937
-0.0022124497 0.079648167 0.72166425
-0.0021857077 0.07649979 0.71843618
-0.0021691446 0.073750943 0.71643686
-0.0021536832 0.071071565 0.71457046
-0.0021402698 0.068488657 0.71295136
-0.0021270318 0.065937966 0.71135336
-0.0021149751 0.063449264 0.70989799
-0.0021034346 0.060999602 0.70850492
-0.0020920106 0.058576286 0.7071259
-0.0020810734 0.056189001 0.70580572
-0.0020708325 0.05384165 0.70456952
-0.0020606921 0.051517338 0.70334548
-0.0020506589 0.049215794 0.70213437
-0.0020410642 0.046944439 0.70097619
-0.0020319631 0.044703215 0.69987762
-0.0020229428 0.04248178 0.69878876
-0.0020140023 0.040280014 0.6977095
-0.0020052849 0.038100421 0.69665724
-0.0019971929 0.035949498 0.69568038
-0.0019891735 0.03381595 0.69471246
-0.0019812107 0.031699389 0.69375122
-0.0019733191 0.029599786 0.69279861
-0.0019661465 0.027526081 0.6919328
-0.0019591101 0.025468469 0.69108343
-0.0019521317 0.023425579 0.6902411
-0.0019451953 0.021397114 0.68940377
-0.0019391119 0.019391149 0.68866944
-0.001933223 0.017399043 0.6879586
-0.0019273624 0.015418917 0.68725115
-0.0019216037 0.013451219 0.68655598
-0.0019159013 0.011495441 0.68586767
-0.0019098534 0.0095492899 0.68513763
-0.0019035467 0.0076141655 0.68437636
-0.0018967781 0.0056903362 0.6835593
-0.0018900146 0.0037800372 0.68274289
-0.0018831291 0.0018831193 0.68191171
-0.001876005 -0 0.68105173
-0.0018687601 -0.0018687546 0.68017721
-0.0018614673 -0.0037229359 0.67929691
-0.0018541005 -0.0055623055 0.67840767
-0.0018467372 -0.0073869228 0.67751878
-0.0018394255 -0.0091971159 0.67663622
-0.001832178 -0.010993063 0.67576134
-0.0018249875 -0.012774915 0.67489338
-0.0018178467 -0.014542788 0.67403144
-0.001810768 -0.016296923 0.673177
-0.0018037442 -0.018037409 0.67232913
-0.001796807 -0.01976487 0.67149174
-0.0017900127 -0.021480143 0.67067158
-0.0017832695 -0.023182482 0.66985756
-0.0017765769 -0.024872065 0.66904974
-0.001772549 -0.026588231 0.66856354
-0.0017659427 -0.028255075 0.66776603
-0.0017593853 -0.029909581 0.66697454
-0.0017528828 -0.031551868 0.66618961
-0.0017464464 -0.033182472 0.66541266
-0.0017401539 -0.034803092 0.66465306
-0.0017339067 -0.03641203 0.66389894
-0.0017277041 -0.038009495 0.66315025
-0.0017215398 -0.039595425 0.66240621
-0.0017154252 -0.04117021 0.66166806
-0.0017093596 -0.042733997 0.66093588
-0.001703337 -0.044286728 0.66020888
-0.0016973623 -0.04582876 0.65948766
-0.0016914579 -0.047360808 0.65877497
-0.0016856627 -0.048884183 0.65807539
-0.0016799071 -0.050397217 0.65738064
-0.0016741849 -0.051899731 0.65668994
-0.0016685128 -0.05339238 0.65600526
-0.0016628845 -0.054875165 0.65532583
-0.0016572885 -0.056347847 0.65465039
-0.0016517357 -0.057810724 0.65398002
-0.0016462144 -0.059263691 0.65331358
-0.0016407567 -0.060707986 0.65265477
-0.0016354048 -0.062145382 0.65200877
-0.0016300929 -0.063573599 0.65136749
-0.0016248153 -0.064992622 0.65073049
-0.0016195718 -0.066402435 0.65009755
-0.0016143621 -0.067803204 0.64946866
-0.0016091858 -0.069195002 0.64884388
-0.0016093928 -0.070813298 0.64886886
-0.0019399162 -0.087296247 0.68876654
-0.0019339552 -0.088961944 0.68804699
-0.0019276075 -0.09059754 0.68728077
0 0.092027634 0.72554231
0 0.089116663 0.72353119
0 0.08632943 0.72180009
0 0.083577901 0.7200911
0 0.080904067 0.71854341
0 0.078273147 0.71705353
0 0.07567206 0.71558148
0 0.07311821 0.71419054
0 0.070606887 0.71287072
0 0.068121195 0.71156532
0 0.065660238 0.71027195
0 0.063242078 0.70906448
0 0.060852498 0.70789266
0 0.058485091 0.70673275
0 0.056139022 0.70558232
0 0.053826541 0.70449919
0 0.051540673 0.70345819
0 0.049273998 0.70242685
0 0.04702583 0.70140302
0 0.044804364 0.70043266
0 0.042609274 0.69952154
0 0.040430576 0.69861805
0 0.038267761 0.69772029
0 0.036130905 0.69689709
0 0.034016371 0.69613546
0 0.03191492 0.69537771
0 0.029827297 0.69462943
0 0.027753115 0.69389051
0 0.02568841 0.69312596
0 0.023631096 0.69230825
0 0.021582156 0.69143397
0 0.019547939 0.69056237
0 0.017527044 0.68967617
0 0.015518248 0.68875021
0 0.013524204 0.68781352
0 0.011545479 0.68687445
0 0.0095818043 0.68592262
0 0.0076339543 0.68497318
0 0.0057020783 0.68403155
0 0.0037858784 0.68309671
0 0.0018852949 0.68217033
0 -0 0.68125147
0 -0.0018700957 0.6803391
0 -0.0037252307 0.6794349
0 -0.0055658221 0.67854875
0 -0.0073921084 0.67767441
0 -0.0092042089 0.67680699
0 -0.011002213 0.67594612
0 -0.012786418 0.6750921
0 -0.014556885 0.67424452
0 -0.016313791 0.67340344
0 -0.018057287 0.67256874
0 -0.019788533 0.67175138
0 -0.021507293 0.67094475
0 -0.023213357 0.67014414
0 -0.024906754 0.6693486
0 -0.026627272 0.66887778
0 -0.028298438 0.66809309
0 -0.029957354 0.66731405
0 -0.03160423 0.6665408
0 -0.033240497 0.66578126
0 -0.034865886 0.66503215
0 -0.03647995 0.66428918
0 -0.0380826 0.66355139
0 -0.039674044 0.66281879
0 -0.041254371 0.66209131
0 -0.042823821 0.66136962
0 -0.044382393 0.66065294
0 -0.045930326 0.65994179
0 -0.047469437 0.65924329
0 -0.048999101 0.65855366
0 -0.050518453 0.65786862
0 -0.052027673 0.65718818
0 -0.053526998 0.65651292
0 -0.055016369 0.65584219
0 -0.056495816 0.65517586
0 -0.057965547 0.65451396
0 -0.059425622 0.6538564
0 -0.060878485 0.653211
0 -0.062323421 0.6525743
0 -0.06375891 0.651941
0 -0.065185457 0.65131247
0 -0.066602707 0.65068722
0 -0.068011209 0.65006649
0 -0.069410637 0.64944917
0 -0.070993692 0.6493637
0 -0.087340906 0.6888864
0 -0.088947862 0.68801004
0 -0.090542406 0.68713915
0.0022248055 0.091217011 0.72315574
0.0022131053 0.088524193 0.72174335
0.0022015274 0.085859567 0.7203458
0.0021900989 0.08322376 0.71896625
0.0021796331 0.080646425 0.71770287
0.0021692575 0.07809329 0.71645045
0.0021589801 0.075564295 0.71520984
0.0021488457 0.073060751 0.71398652
0.0021395653 0.070605636 0.71286631
0.0021303645 0.06817165 0.71175575
0.0021212338 0.065758228 0.71065354
0.0021122075 0.063366264 0.70956391
0.002104098 0.061018825 0.70858502
0.0020960418 0.058689147 0.70761257
0.0020880559 0.05637753 0.70664859
0.0020803986 0.054090381 0.70572424
0.0020736218 0.051840544 0.70490623
0.0020668891 0.04960534 0.70409352
0.0020601999 0.04738459 0.70328605
0.0020535963 0.045179129 0.7024889
0.0020468757 0.042984396 0.70167762
0.0020396581 0.040793151 0.70080644
0.0020318972 0.038606077 0.69986957
0.0020241702 0.036435097 0.69893688
0.0020163152 0.03427735 0.69798875
0.0020080453 0.032128721 0.69699037
0.0019997072 0.02999559 0.69598395
0.0019913982 0.027879626 0.69498092
0.001982938 0.025778174 0.69395971
0.0019745182 0.023694217 0.69294333
0.0019661696 0.021627843 0.6919356
0.0019578913 0.019578904 0.69093633
0.0019496748 0.017547071 0.68994445
0.0019415345 0.015532315 0.68896186
0.0019334621 0.013534248 0.68798745
0.0019254711 0.011552811 0.68702281
0.0019176709 0.0095883608 0.68608123
0.0019099338 0.0076397359 0.68514729
0.0019022586 0.0057067871 0.68422085
0.0018946449 0.0037892759 0.68330181
0.001887092 0.0018871129 0.68239009
0.0018795991 -2.9802322e-08 0.68148565
0.0018721654 -0.0018721819 0.68058825
0.001864846 -0.003729701 0.67970479
0.0018576593 -0.0055729747 0.6788373
0.0018505347 -0.007402122 0.6779772
0.0018434646 -0.0092173219 0.67712379
0.0018364413 -0.011018634 0.67627597
0.0018294783 -0.012806326 0.67543548
0.0018225613 -0.014580458 0.67460048
0.0018157029 -0.016341358 0.67377263
0.0018089284 -0.018089265 0.67295492
0.0018022889 -0.01982519 0.67215341
0.001795698 -0.02154842 0.67135787
0.0017891614 -0.023259103 0.67056876
0.001782666 -0.024957329 0.66978472
0.0017789013 -0.026683509 0.6693303
0.0017724924 -0.02835986 0.66855663
0.0017661296 -0.030024201 0.66778862
0.001759831 -0.031676948 0.66702831
0.0017536754 -0.033319831 0.66628528
0.0017475627 -0.03495127 0.66554743
0.0017414925 -0.036571354 0.66481471
0.0017354642 -0.038180232 0.66408706
0.0017294777 -0.039777964 0.66336435
0.0017235322 -0.041364759 0.66264665
0.0017176335 -0.042940825 0.66193461
0.0017117749 -0.044506162 0.66122746
0.0017059911 -0.046061724 0.66052926
0.0017003212 -0.047608972 0.65984488
0.0016946832 -0.049145848 0.65916431
0.0016890826 -0.050672472 0.65848821
0.0016835245 -0.052189291 0.65781736
0.0016779972 -0.053695887 0.65715009
0.0016725116 -0.055192858 0.65648794
0.0016670618 -0.056680113 0.65583014
0.001661642 -0.058157474 0.65517581
0.0016563012 -0.059626833 0.65453112
0.0016510598 -0.061089233 0.65389848
0.0016458516 -0.062542319 0.65326977
0.0016406762 -0.063986361 0.65264505
0.0016355331 -0.065421328 0.65202427
0.0016304222 -0.066847309 0.65140724
0.0016253431 -0.068264395 0.65079415
0.0016202956 -0.069672689 0.65018487
0.0016186025 -0.071218506 0.64998055
0.0016254382 -0.073144704 0.65080565
0.0019256786 -0.088581204 0.68704784
0.0019181119 -0.09015125 0.68613452
0.0044472581 0.091168821 0.7230137
0.004427366 0.088547349 0.72181308
0.0044076703 0.0859496 0.72062433
0.0043881303 0.0833745 0.71944499
0.0043698885 0.080842912 0.71834397
0.0043525356 0.078345627 0.71729666
0.004335301 0.075867772 0.71625644
0.004318221 0.073409766 0.71522564
0.0043035136 0.071007967 0.71433789
0.0042890161 0.068624258 0.71346295
0.0042745974 0.066256255 0.71259272
0.0042602937 0.063904405 0.71172941
0.0042458335 0.061564624 0.71085662
0.0042305766 0.059228092 0.70993578
0.0042138663 0.056887209 0.70892727
0.0041972883 0.054564744 0.70792663
0.0041804728 0.052255929 0.7069118
0.0041625453 0.04995054 0.70582974
0.0041446327 0.047663271 0.70474863
0.0041268063 0.045394868 0.70367271
0.0041086427 0.043140739 0.70257646
0.004090555 0.040905535 0.70148474
0.0040726424 0.03869009 0.70040369
0.0040548858 0.036493987 0.69933188
0.0040372838 0.034316927 0.69826949
0.0040198169 0.032158554 0.69721532
0.0040025176 0.030018896 0.69617122
0.0039855246 0.027898699 0.69514561
0.0039688172 0.025797307 0.69413722
0.0039522494 0.023713559 0.69313723
0.003935819 0.021647036 0.69214559
0.00391954 0.019597709 0.69116306
0.0039033804 0.017565221 0.69018775
0.0038873528 0.015549421 0.68922043
0.003871487 0.013550192 0.68826282
0.0038560021 0.01156798 0.68732822
0.0038406409 0.009601593 0.68640107
0.0038254163 0.0076508522 0.68548214
0.0038103117 0.0057154894 0.68457055
0.0037953116 0.0037953258 0.68366522
0.0037804432 0.0018902123 0.68276787
0.0037656771 -0 0.68187666
0.0037511101 -0.0018755794 0.68099743
0.0037368366 -0.0037368238 0.68013597
0.0037226854 -0.0055840313 0.67928183
0.0037086268 -0.0074172616 0.67843342
0.0036946742 -0.0092366934 0.67759132
0.0036808401 -0.011042535 0.67675626
0.0036670954 -0.012834847 0.67592674
0.0036534665 -0.014613867 0.67510414
0.003639925 -0.016379684 0.67428684
0.0036267468 -0.018133759 0.67349148
0.0036136631 -0.019875139 0.67270184
0.0036006612 -0.021603942 0.67191708
0.0035877649 -0.023320436 0.67113864
0.0035749478 -0.025024623 0.6703651
0.0035658653 -0.026744008 0.66981697
0.0035550725 -0.028440565 0.66916549
0.0035425127 -0.030111372 0.6684075
0.0035302781 -0.031772494 0.66766906
0.0035181399 -0.033422351 0.66693646
0.0035060728 -0.035060704 0.66620809
0.0034941004 -0.036688089 0.66548556
0.0034821972 -0.03830418 0.66476709
0.0034703871 -0.039909422 0.66405427
0.0034586447 -0.041503727 0.66334563
0.0034469932 -0.043087423 0.66264242
0.003435479 -0.044661194 0.66194743
0.0034242058 -0.04622677 0.66126704
0.0034130062 -0.047782093 0.66059101
0.0034018795 -0.049327254 0.6599195
0.0033908254 -0.050862402 0.65925235
0.0033798423 -0.052387536 0.65858948
0.0033689307 -0.053902894 0.65793085
0.0033580894 -0.055408448 0.65727651
0.0033473172 -0.056904405 0.6566264
0.0033367251 -0.058392704 0.65598714
0.0033263108 -0.059873596 0.65535855
0.0033159612 -0.061345264 0.6547339
0.0033056755 -0.062807828 0.65411311
0.0032954537 -0.064261332 0.65349615
0.0032853058 -0.065706104 0.65288365
0.0032752093 -0.067141786 0.65227425
0.0032651746 -0.068568677 0.65166867
0.0032552015 -0.069986835 0.65106678
0.0032496515 -0.071492329 0.65073168
0.0032554129 -0.073246792 0.65107948
0.0038303214 -0.088097394 0.68577826
0.0038149308 -0.089650899 0.68484938
0.0067080315 0.091676414 0.72450829
0.0066845519 0.089127362 0.72356349
0.0066612065 0.086595714 0.72262418
0.006637848 0.084079385 0.72168428
0.0066144485 0.081578195 0.72074282
0.0065901997 0.0790824 0.71976709
0.0065632006 0.07657069 0.71868074
0.0065363934 0.074079126 0.71760213
0.0065092966 0.071602285 0.71651179
0.0064801001 0.069121063 0.71533704
0.0064511644 0.066662043 0.71417272
0.0064224587 0.064224571 0.7130177
0.006393081 0.061799824 0.71183562
0.0063639171 0.059396595 0.71066213
0.0063349912 0.057014942 0.70949829
0.006306354 0.054655075 0.70834601
0.0062779738 0.052316457 0.7072041
0.0062498227 0.049998581 0.70607138
0.0062219487 0.047701597 0.7049498
0.0061948076 0.045428634 0.70385772
0.0061679021 0.04317531 0.70277512
0.0061412295 0.040941507 0.70170188
0.0061147865 0.038727015 0.70063794
0.0060885702 0.036531448 0.69958305
0.0060625779 0.034354627 0.69853723
0.0060368064 0.032196343 0.69750023
0.0060116388 0.030058205 0.69648755
0.0059867511 0.027938217 0.69548619
0.0059620696 0.025835633 0.69449306
0.0059376131 0.023750454 0.69350904
0.0059133573 0.021682292 0.69253302
0.0058892751 0.019630939 0.69156408
0.0058654114 0.017596245 0.69060385
0.0058418312 0.01557821 0.68965507
0.0058187558 0.013577133 0.68872654
0.0057958844 0.011591792 0.68780625
0.0057731695 0.0096219182 0.68689233
0.0057506543 0.0076675713 0.6859864
0.0057282923 0.0057283342 0.68508661
0.0057061035 0.0038040876 0.68419379
0.0056841075 0.0018946826 0.68330878
0.0056623868 -0 0.6824348
0.0056411284 -0.0018803775 0.68157941
0.0056200079 -0.0037466288 0.68072957
0.0055990661 -0.0055990815 0.67988694
0.005578259 -0.0074376762 0.67904967
0.0055576265 -0.0092627108 0.67821956
0.0055371462 -0.011074305 0.67739546
0.0055167959 -0.012872487 0.67657667
0.0054966346 -0.014657676 0.67576545
0.0054769604 -0.016430855 0.67497379
0.005457446 -0.018191487 0.67418861
0.0054380703 -0.019939601 0.67340899
0.0054188315 -0.021675318 0.67263484
0.0053997287 -0.023398817 0.67186624
0.0053807599 -0.025110185 0.671103
0.0053619239 -0.026809633 0.67034507
0.0053517157 -0.028542459 0.66993433
0.00533348 -0.030223072 0.6692006
0.0053153872 -0.031892359 0.66847259
0.0052973977 -0.033550203 0.66774875
0.0052795298 -0.035196871 0.6670298
0.0052617821 -0.036832482 0.66631567
0.0052441712 -0.038457245 0.66560709
0.0052266605 -0.04007104 0.66490251
0.0052092657 -0.041674107 0.66420257
0.0051922021 -0.043268353 0.66351599
0.0051753921 -0.044853419 0.66283959
0.0051586912 -0.046428204 0.66216767
0.0051420974 -0.047992915 0.66149992
0.0051256274 -0.049547762 0.66083729
0.0051092631 -0.051092625 0.66017878
0.0050930027 -0.052627683 0.65952456
0.0050768279 -0.054152817 0.65887374
0.0050607901 -0.055668682 0.6582284
0.0050451756 -0.057178617 0.65760005
0.0050296569 -0.058679312 0.65697563
0.0050142333 -0.060170799 0.65635508
0.0049989037 -0.061653167 0.65573823
0.0049836682 -0.06312646 0.65512526
0.0049685254 -0.064590827 0.65451592
0.0049534738 -0.066046312 0.65391028
0.0049385293 -0.06749323 0.65330899
0.0049238368 -0.068933696 0.65271777
0.0049094232 -0.070368379 0.65213788
0.0048968671 -0.071820736 0.65163267
0.0049070162 -0.073605254 0.65204096
0.0057072965 -0.087511882 0.68424177
0.0056838919 -0.089047641 0.68330008
0.0089799976 0.0898 0.72559333
0.0089383302 0.087148726 0.72433585
0.0088970074 0.084521562 0.7230888
0.0088547319 0.081906289 0.72181308
0.0088127786 0.079315037 0.72054702
0.0087712221 0.076748222 0.719293
0.0087300176 0.07420516 0.71804953
0.008689235 0.071686178 0.71681881
0.0086488323 0.069190651 0.71559954
0.008609063 0.066720247 0.71439934
0.0085700983 0.064275771 0.71322352
0.0085314838 0.06185326 0.71205825
0.0084932167 0.059452534 0.71090341
0.0084553258 0.057073504 0.70975995
0.0084177367 0.054715306 0.70862561
0.008380481 0.052377999 0.70750129
0.0083438661 0.050063193 0.70639634
0.0083079496 0.047770709 0.70531249
0.0082723061 0.045497686 0.70423687
0.008236968 0.043244094 0.70317042
0.0082019633 0.041009814 0.70211411
0.0081672547 0.038794458 0.70106661
0.008132807 0.03659761 0.70002705
0.0080988109 0.034419984 0.69900113
0.0080655534 0.032262206 0.69799757
0.0080326004 0.030122221 0.69700313
0.007999883 0.02799961 0.69601572
0.0079674637 0.025894254 0.69503742
0.0079352744 0.023805827 0.69406593
0.007903344 0.021734208 0.69310242
0.0078716995 0.019679248 0.69214749
0.0078406464 0.017641455 0.69121039
0.0078100506 0.015620083 0.69028705
0.0077797226 0.013614506 0.68937182
0.0077496292 0.011624485 0.68846369
0.0077197384 0.0096496642 0.68756163
0.0076901061 0.0076901019 0.68666744
0.0076606716 0.0057455301 0.68577915
0.0076314905 0.0038157701 0.6848985
0.0076028779 0.0019007325 0.68403506
0.0075746793 -0 0.68318409
0.0075466889 -0.0018866658 0.68233943
0.0075189047 -0.0037594438 0.68150097
0.0074912966 -0.0056184828 0.68066782
0.0074639181 -0.0074639022 0.67984164
0.0074367393 -0.0092959106 0.67902136
0.007409757 -0.011114627 0.67820716
0.0073831882 -0.012920588 0.67740536
0.007357134 -0.014714271 0.67661905
0.0073312628 -0.016495347 0.67583835
0.0073055457 -0.018263876 0.6750623
0.0072800359 -0.020020097 0.67429245
0.007254703 -0.0217641 0.67352796
0.0072295461 -0.023496032 0.67276877
0.0072045624 -0.025215954 0.67201483
0.0071797515 -0.026924074 0.67126608
0.0071676662 -0.028670639 0.67090136
0.0071436688 -0.030360579 0.67017722
0.0071198321 -0.032039255 0.66945791
0.0070961537 -0.033706695 0.66874325
0.0070726071 -0.035363048 0.66803277
0.0070492411 -0.037008524 0.66732758
0.0070260288 -0.038643152 0.66662711
0.0070031406 -0.040268064 0.66593641
0.0069807423 -0.041884452 0.66526043
0.0069584618 -0.04349038 0.66458803
0.0069363234 -0.045086086 0.66391999
0.0069143497 -0.046671867 0.66325688
0.0068925386 -0.048247784 0.66259873
0.0068708402 -0.049813598 0.66194391
0.006849302 -0.051369756 0.66129392
0.0068278988 -0.052916229 0.66064805
0.006807114 -0.054456919 0.66002077
0.0067864563 -0.055988282 0.65939742
0.0067659235 -0.057510376 0.65877771
0.0067454916 -0.059023023 0.6581611
0.0067252056 -0.060526848 0.65754902
0.0067050406 -0.062021658 0.65694046
0.0066850195 -0.063507691 0.65633625
0.006665139 -0.064985096 0.65573627
0.0066457954 -0.066457972 0.65515256
0.0066266526 -0.067923173 0.65457487
0.0066075968 -0.069379747 0.65399981
0.0065886509 -0.070827991 0.65342802
0.006569813 -0.07226795 0.65285957
0.0065814364 -0.074041158 0.65321034
0.0075473147 -0.086794108 0.68235826
0.0075148963 -0.08830002 0.68138003
0.011236745 0.089893967 0.72587693
0.0111835 0.087231338 0.72459149
0.011130907 0.084594905 0.7233218
0.011078806 0.081983149 0.72206396
0.01102719 0.079395771 0.72081786
0.010976053 0.076832384 0.71958327
0.010925388 0.07429263 0.71836019
0.010875379 0.071777523 0.71715277
0.010826526 0.069289774 0.71597338
0.010778158 0.066824585 0.71480572
0.010730174 0.064381063 0.71364725
0.010682615 0.061959207 0.71249908
0.010635521 0.059558928 0.71136212
0.010588796 0.05717954 0.71023405
0.010542702 0.054822087 0.70912129
0.010497668 0.052488327 0.70803404
0.010452974 0.050174296 0.70695502
0.0104087 0.047880054 0.70588619
0.010364759 0.045604944 0.70482528
0.010321186 0.043348998 0.70377338
0.010278021 0.041112125 0.70273125
0.010235174 0.03889364 0.70169687
0.010193429 0.036696315 0.70068908
0.010152064 0.03451702 0.69969046
0.010111076 0.032355428 0.6987009
0.010070375 0.030211121 0.69771826
0.010030042 0.028084129 0.69674456
0.0099899909 0.025973946 0.69577765
0.0099502988 0.02388072 0.69481939
0.0099110762 0.021804363 0.69387245
0.0098727467 0.019745499 0.69294715
0.0098347124 0.01770249 0.69202888
0.0097969696 0.015675157 0.6911177
0.0097595165 0.013663352 0.69021344
0.0097223483 0.011666834 0.68931621
0.0096854614 0.0096854568 0.68842566
0.0096488539 0.0077190697 0.68754184
0.0096127437 0.0057676435 0.68667006
0.0095774159 0.0038309693 0.68581724
0.0095423106 0.0019084811 0.68496972
0.0095074978 -0 0.68412924
0.0094729373 -0.001894623 0.68329489
0.0094386283 -0.0037754476 0.68246657
0.0094045671 -0.0056427419 0.6816442
0.0093707498 -0.0074965656 0.6808278
0.0093372799 -0.0093372762 0.6800198
0.0093046706 -0.011165589 0.67923254
0.009272255 -0.012981176 0.67844999
0.0092400974 -0.014784157 0.67767358
0.0092081288 -0.016574621 0.67690182
0.0091763809 -0.018352747 0.67613536
0.0091448501 -0.020118654 0.67537415
0.0091135697 -0.02187255 0.67461896
0.0090824692 -0.023614436 0.67386812
0.0090522021 -0.02534616 0.67313743
0.009022234 -0.027066708 0.67241389
0.0090081682 -0.028826118 0.67207432
0.0089787478 -0.030527741 0.67136401
0.0089492947 -0.032217473 0.67065299
0.0089200353 -0.033896118 0.66994655
0.0088909976 -0.035563976 0.6692456
0.008862556 -0.037222743 0.66855896
0.0088345464 -0.038871974 0.66788274
0.0088067744 -0.040511161 0.66721231
0.0087791458 -0.042139888 0.66654527
0.0087517211 -0.043758601 0.66588318
0.0087244669 -0.045367211 0.66522521
0.0086973524 -0.046965718 0.66457063
0.0086704344 -0.04855442 0.6639207
0.0086441617 -0.050136119 0.66328645
0.0086182253 -0.051709324 0.6626603
0.0085924445 -0.053273171 0.66203785
0.0085668173 -0.054827601 0.66141909
0.0085413419 -0.056372881 0.66080415
0.0085161049 -0.057909489 0.66019487
0.0084910169 -0.059437096 0.65958917
0.0084660761 -0.060955733 0.65898705
0.0084419372 -0.062470332 0.65840429
0.008417991 -0.06397672 0.65782619
0.0083941529 -0.065474391 0.6572507
0.0083704488 -0.066963583 0.65667844
0.0083468789 -0.068444416 0.65610939
0.0083234683 -0.069917113 0.65554422
0.008300161 -0.07138139 0.65498155
0.0082773687 -0.072840825 0.65443122
0.0082860859 -0.074574783 0.65464175
0.0091245715 -0.083946049 0.67488456
0.0090925703 -0.08547014 0.67411196
0.013505506 0.09003672 0.72630775
0.013442795 0.087378174 0.7250461
0.013380604 0.084743857 0.72379488
0.013319044 0.082134098 0.72255641
0.013257991 0.079547942 0.72132808
0.013197726 0.07698673 0.72011566
0.013138926 0.07445392 0.71893275
0.01308059 0.071943253 0.71775907
0.013022828 0.069455087 0.71659696
0.012965517 0.066988498 0.71544397
0.012908708 0.064543515 0.71430111
0.01285245 0.062120169 0.71316928
0.012796843 0.059718609 0.7120505
0.012742528 0.057341367 0.71095777
0.012688725 0.05498448 0.70987535
0.012635374 0.052647382 0.70880198
0.012582419 0.050329715 0.70773661
0.012529956 0.048031539 0.70668119
0.012477877 0.045752227 0.70563346
0.012426282 0.043491989 0.70459545
0.012375928 0.04125309 0.70358241
0.012326131 0.039032757 0.70258051
0.012276732 0.036830217 0.70158672
0.01222773 0.034645259 0.70060086
0.012179117 0.032477617 0.69962281
0.012130839 0.030327141 0.69865155
0.012082991 0.028193653 0.69768894
0.012035762 0.026077539 0.69673872
0.011989617 0.023979247 0.69581038
0.011943826 0.021897048 0.69488913
0.011898335 0.019830585 0.69397396
0.011853236 0.017779827 0.6930666
0.011808479 0.015744656 0.69216615
0.011764058 0.013724744 0.6912725
0.011719969 0.011720002 0.69038546
0.011676619 0.0097305179 0.68951339
0.011634084 0.0077560544 0.68865764
0.011591903 0.0057959557 0.68780899
0.011549981 0.003850013 0.68696564
0.011508363 0.0019180775 0.68612832
0.011467086 -2.9802322e-08 0.68529791
0.011426062 -0.0019043386 0.68447256
0.01138533 -0.0037951171 0.68365306
0.011345316 -0.0056726336 0.68284804
0.011306135 -0.0075373948 0.68205976
0.011267182 -0.0093893409 0.68127614
0.011228497 -0.011228472 0.68049783
0.011190118 -0.013055146 0.67972577
0.011151959 -0.014869273 0.678958
0.01111406 -0.016671121 0.67819548
0.011076417 -0.018460691 0.67743826
0.011039393 -0.020238876 0.67669338
0.011003181 -0.022006363 0.67596483
0.010967246 -0.023762375 0.67524189
0.010931505 -0.025506854 0.67452282
0.010896035 -0.027240098 0.67380929
0.010860756 -0.028962016 0.67309946
0.010845846 -0.03072989 0.67279947
0.010811436 -0.032434285 0.67210722
0.010777746 -0.03412953 0.67142946
0.010744266 -0.035814226 0.67075586
0.010710993 -0.03748849 0.67008644
0.010677924 -0.039152384 0.6694212
0.010645061 -0.040806055 0.66875994
0.010612398 -0.042449594 0.66810292
0.010579973 -0.044083238 0.66745055
0.010548597 -0.045710593 0.66681933
0.010517444 -0.047328502 0.66619259
0.010486438 -0.048936695 0.66556877
0.01045576 -0.050536186 0.66495156
0.010425225 -0.052126139 0.66433722
0.010394903 -0.053706974 0.66372722
0.010364757 -0.055278689 0.66312069
0.010335533 -0.056845427 0.66253281
0.01030665 -0.058404326 0.66195172
0.010277963 -0.059954733 0.66137457
0.010249435 -0.061496645 0.66080064
0.010221065 -0.0630299 0.66022986
0.010192921 -0.064555168 0.65966368
0.010165036 -0.066072747 0.65910268
0.010138123 -0.067587495 0.65856123
0.010111524 -0.069095403 0.65802604
0.010085097 -0.070595667 0.65749437
0.010058808 -0.072088122 0.65696555
0.010032622 -0.073572576 0.65643871
0.010031013 -0.07523261 0.65640634
0.01008039 -0.077282995 0.65739971
0.010884264 -0.085260034 0.67357242
0.015724592 0.087608457 0.72575879
0.015652983 0.084973335 0.72452396
0.015582645 0.082365394 0.72331101
0.015513695 0.079784721 0.72212195
0.015445351 0.077226758 0.72094345
0.015377539 0.074690908 0.71977407
0.015310386 0.072177529 0.71861613
0.015243752 0.069685757 0.71746707
0.015177762 0.06721583 0.71632904
0.01511286 0.064769357 0.7152099
0.015049224 0.062346816 0.71411252
0.01498612 0.059944481 0.71302426
0.014923545 0.057562232 0.7119453
0.014861489 0.055199862 0.71087515
0.014799947 0.052856952 0.70981389
0.014738914 0.050533414 0.70876139
0.014678565 0.048229575 0.70772076
0.014619747 0.04594776 0.7067064
0.014561397 0.043684214 0.70570022
0.014503512 0.041438609 0.70470202
0.014446026 0.039210647 0.70371068
0.014389051 0.037000448 0.70272827
0.014332526 0.034807593 0.7017535
0.014276443 0.032631874 0.70078635
0.014221605 0.030474871 0.69984072
0.014167588 0.028335184 0.69890928
0.014113923 0.02621159 0.69798374
0.014060718 0.024104118 0.69706631
0.014007859 0.022012353 0.69615483
0.013955395 0.019936264 0.69525009
0.013903378 0.017875791 0.69435304
0.013851746 0.015830576 0.69346273
0.013801693 0.013801694 0.69259959
0.013751947 0.011787415 0.6917417
0.013702559 0.0097875595 0.69089007
0.013653522 0.0078020394 0.69004452
0.013604891 0.0058307052 0.68920588
0.01355655 0.0038732886 0.68837225
0.013508552 0.0019297898 0.68754458
0.013461306 2.9802322e-08 0.68672985
0.013415162 -0.0019164383 0.68593407
0.013369383 -0.0038198233 0.68514466
0.013323864 -0.0057102442 0.68435973
0.013278655 -0.0075877607 0.6835801
0.013233801 -0.0094527304 0.68280667
0.0131892 -0.011305034 0.68203753
0.013144948 -0.01314491 0.68127441
0.013101629 -0.014973313 0.68052745
0.013059178 -0.01679039 0.67979538
0.013017002 -0.018595725 0.67906809
0.012975097 -0.020389467 0.67834544
0.012933462 -0.022171646 0.6776275
0.012892045 -0.023942351 0.67691326
0.01285094 -0.025701851 0.67620444
0.012810095 -0.027450204 0.67550009
0.012770628 -0.029189974 0.67481947
0.012758533 -0.030984998 0.67461091
0.012719613 -0.032707572 0.67393982
0.012680929 -0.034419626 0.67327273
0.01264248 -0.036121368 0.67260969
0.012604355 -0.037813067 0.67195225
0.012567584 -0.039498121 0.67131817
0.01253121 -0.041173965 0.67069089
0.012495088 -0.042840272 0.67006803
0.012459174 -0.044497043 0.66944873
0.012423423 -0.046144128 0.66883218
0.012387918 -0.047782004 0.66821998
0.012353141 -0.049412519 0.66762018
0.012319337 -0.051037282 0.66703731
0.012285717 -0.052653044 0.66645759
0.012252281 -0.054260105 0.66588092
0.012219367 -0.055859953 0.66531336
0.012186588 -0.05745104 0.66474807
0.01215411 -0.059034228 0.66418803
0.012123147 -0.060615748 0.66365415
0.0120923 -0.062188953 0.66312212
0.012061652 -0.063754469 0.66259366
0.012031117 -0.065311775 0.66206706
0.012000982 -0.066862628 0.66154748
0.01197153 -0.068408713 0.66103953
0.011943566 -0.069955155 0.66055733
0.011915692 -0.071494162 0.66007668
0.011887988 -0.07302621 0.65959895
0.011860413 -0.07455115 0.65912342
0.011836244 -0.076090157 0.65870667
0.011925226 -0.078365773 0.66024107
0.012461081 -0.083667263 0.66948158
0.018038016 0.087935358 0.72677058
0.017958706 0.085303873 0.7255739
0.017880093 0.082695425 0.72438765
0.017802164 0.080109745 0.72321182
0.017724833 0.077546179 0.722045
0.01764825 0.075005054 0.72088945
0.017572556 0.072486818 0.7197473
0.017498732 0.069994926 0.71863341
0.017425602 0.067524225 0.71752995
0.017353082 0.065074056 0.71643567
0.017281087 0.062643915 0.71534944
0.017209761 0.060234159 0.71427315
0.017139021 0.057844222 0.71320575
0.017068861 0.055473775 0.71214718
0.017000718 0.053127229 0.71111894
0.016933115 0.05079937 0.71009886
0.01686612 0.048490137 0.70908797
0.01679958 0.046198845 0.70808399
0.016733637 0.043925792 0.70708901
0.016668137 0.041670322 0.7061007
0.016603149 0.039432466 0.70512009
0.016539691 0.037214309 0.7041626
0.016477259 0.035014182 0.70322055
0.016415229 0.032830507 0.70228457
0.016353663 0.030663103 0.70135564
0.016292624 0.02851209 0.70043463
0.016231975 0.026376963 0.69951946
0.016171774 0.02425766 0.69861114
0.016112471 0.022154629 0.69771636
0.016054634 0.020068288 0.69684362
0.015997209 0.017996848 0.69597721
0.015940258 0.015940309 0.69511783
0.015883647 0.013898194 0.6942637
0.015827499 0.011870652 0.69341642
0.015771685 0.0098572969 0.69257426
0.015716264 0.0078581274 0.69173801
0.01566264 0.0058735311 0.69092888
0.015609564 0.0039023757 0.69012803
0.015556845 0.0019446015 0.68933254
0.015504481 -0 0.68854249
0.015452411 -0.0019315481 0.68775678
0.015400746 -0.0038501918 0.68697727
0.015349427 -0.0057560205 0.68620288
0.015299325 -0.0076496601 0.68544692
0.015250305 -0.0095314384 0.68470728
0.015201597 -0.011401176 0.6839723
0.0151532 -0.013259053 0.68324202
0.015105054 -0.015105069 0.68251556
0.015057269 -0.016939461 0.68179452
0.015009784 -0.018762231 0.68107808
0.014963214 -0.020574391 0.68037546
0.0149181 -0.022377163 0.67969471
0.014873257 -0.024169058 0.67901802
0.014828683 -0.025950193 0.67834544
0.014784374 -0.02772066 0.67767692
0.014740331 -0.029480636 0.67701232
0.014703997 -0.031246006 0.67646408
0.014690668 -0.033054024 0.67626297
0.014649218 -0.034791887 0.6756376
0.014607999 -0.036520004 0.67501557
0.014567066 -0.038238555 0.67439795
0.014526309 -0.039947331 0.67378294
0.014487455 -0.041651428 0.67319673
0.014449279 -0.043347806 0.67262065
0.014411511 -0.045035988 0.67205083
0.014373889 -0.04671514 0.67148316
0.014336513 -0.048385739 0.67091918
0.014299946 -0.050049782 0.67036736
0.014265037 -0.051710725 0.66984069
0.0142303 -0.053363651 0.66931659
0.014196385 -0.055010974 0.66880482
0.014162681 -0.056650698 0.66829628
0.014129736 -0.058285147 0.66779923
0.014098879 -0.059920222 0.66733354
0.014068157 -0.061548173 0.66687
0.014037619 -0.063169271 0.66640925
0.014008292 -0.064788342 0.66596675
0.013982016 -0.066414565 0.66557026
0.013956033 -0.068035677 0.66517818
0.013930097 -0.069650486 0.66478688
0.013904306 -0.071259558 0.66439772
0.01388463 -0.072894275 0.66410077
0.0138652 -0.074525431 0.66380757
0.013845824 -0.076152027 0.66351527
0.013832713 -0.077809021 0.6633175
0.013989002 -0.080436751 0.6656757
0.020394135 0.088374615 0.7281301
0.02030576 0.08573541 0.72694486
0.02021824 0.083119452 0.72577095
0.020131921 0.080527693 0.72461325
0.020047674 0.077963173 0.72348332
0.019964218 0.075420409 0.72236395
0.019881366 0.072898388 0.72125268
0.019799286 0.070397437 0.72015184
0.019717796 0.06791687 0.71905887
0.019637056 0.065456867 0.71797597
0.019557402 0.063018292 0.71690762
0.019479824 0.060603917 0.7158671
0.019402774 0.058208317 0.71483374
0.019326331 0.055831641 0.71380848
0.019250574 0.05347383 0.71279234
0.019175323 0.051134199 0.71178305
0.019100659 0.048812777 0.71078163
0.019027056 0.046510607 0.70979446
0.018955376 0.04422918 0.70883304
0.018884312 0.041965187 0.70787996
0.018813699 0.039717823 0.70693284
0.018743616 0.037487239 0.70599282
0.01867405 0.035273224 0.70505989
0.018605076 0.03307572 0.70413476
0.018536914 0.030894876 0.70322055
0.018470842 0.028732449 0.7023344
0.01840524 0.0265854 0.70145446
0.018340101 0.024453491 0.70058084
0.018275347 0.022336572 0.69971234
0.018211123 0.020234555 0.69885093
0.018147349 0.018147379 0.69799554
0.018084383 0.016075015 0.69715106
0.018023511 0.014018327 0.6963346
0.017963048 0.011975378 0.69552368
0.017902989 0.0099460781 0.69471812
0.01784333 0.007930398 0.69391799
0.017784068 0.0059280396 0.6931231
0.017725198 0.0039389431 0.69233358
0.017667478 0.0019630492 0.69155943
0.01761158 -0 0.69080967
0.017556036 -0.0019506812 0.69006467
0.017500838 -0.0038890839 0.68932438
0.017445987 -0.0058153272 0.68858874
0.017391413 -0.0077295303 0.68785673
0.017337246 -0.0096317828 0.68713021
0.017285271 -0.011523545 0.6864332
0.017234202 -0.013404399 0.68574816
0.017183434 -0.015274167 0.6850673
0.017132964 -0.017132968 0.68439031
0.017082725 -0.018980801 0.68371648
0.017032843 -0.020817906 0.68304747
0.016984725 -0.022646308 0.68240213
0.016938217 -0.024466306 0.68177831
0.016892025 -0.026276499 0.68115878
0.016846085 -0.028076828 0.68054265
0.016800333 -0.029867262 0.67992896
0.016754888 -0.031648129 0.6793195
0.016765555 -0.0335311 0.67946255
0.01672384 -0.035305887 0.67890298
0.016682267 -0.037071735 0.6783455
0.016642747 -0.038833082 0.67781544
0.016605191 -0.040590465 0.67731172
0.016567802 -0.042339951 0.67681026
0.016533313 -0.04408884 0.67634761
0.01650078 -0.045835495 0.67591125
0.016468376 -0.047575325 0.67547673
0.016436217 -0.049308687 0.67504537
0.016407235 -0.051044703 0.67465663
0.016383179 -0.052790225 0.67433405
0.01635961 -0.054532021 0.67401785
0.016336819 -0.056271285 0.67371225
0.01632539 -0.058045834 0.67355895
0.016316103 -0.059825659 0.67343438
0.016320715 -0.061655998 0.67349625
0.016342631 -0.063554674 0.67379016
0.022709208 0.086295009 0.72872227
0.022614984 0.083675474 0.7275849
0.022521539 0.081077516 0.72645694
0.022428963 0.078501403 0.72533941
0.022337046 0.075945973 0.72422993
0.022246374 0.073413044 0.72313541
0.0221582 0.070906252 0.72207105
0.022070821 0.068419546 0.72101635
0.021984031 0.065952092 0.71996868
0.021897921 0.063503951 0.71892923
0.021812484 0.061074942 0.71789789
0.021727709 0.058664858 0.7168746
0.021644903 0.056276768 0.71587503
0.021563841 0.0539096 0.7148965
0.021483291 0.051559925 0.71392417
0.021403432 0.049227893 0.71296018
0.021324165 0.046913177 0.71200335
0.021245481 0.044615507 0.71105355
0.021167379 0.042334765 0.71011078
0.021091981 0.040074736 0.70920068
0.021017471 0.037831485 0.70830125
0.020943485 0.03560394 0.70740813
0.020870021 0.033392042 0.70652127
0.020796981 0.031195462 0.70563966
0.020724539 0.029014379 0.7047652
0.020653535 0.026849598 0.70390809
0.020584796 0.024701744 0.70307839
0.020516511 0.022568166 0.70225406
0.020448679 0.020448685 0.70143533
0.020381292 0.01834318 0.7006219
0.020314351 0.016251504 0.69981378
0.020248093 0.014173657 0.69901401
0.020185033 0.012111008 0.6982528
0.020122364 0.010061204 0.69749635
0.020060005 0.0080239773 0.69674361
0.019998111 0.0059994459 0.6959964
0.019936597 0.0039873421 0.69525391
0.019875932 0.0019876063 0.69452167
0.019818699 -0 0.69383073
0.019761793 -0.0019761622 0.69314384
0.019705214 -0.0039410293 0.69246089
0.019648878 -0.0058946609 0.69178092
0.019592943 -0.0078372061 0.69110566
0.019539995 -0.0097700059 0.69046652
0.019488927 -0.011693329 0.68985003
0.019438049 -0.013606608 0.68923593
0.01938751 -0.015509993 0.68862587
0.019337235 -0.017403513 0.68801904
0.019286104 -0.019286096 0.68740183
0.019231103 -0.021154195 0.6867379
0.019173769 -0.023008525 0.68604577
0.019113053 -0.024846941 0.68531287
0.019050106 -0.026670158 0.68455309
0.01898635 -0.028479517 0.68378347
0.018923091 -0.030276954 0.68301982
0.018858261 -0.032059073 0.68223733
0.01879232 -0.033826172 0.68144131
0.019069638 -0.036232322 0.68478882
0.019074218 -0.038148403 0.68484408
0.019103346 -0.040117025 0.68519568
0.025086241 0.084381014 0.72988677
0.024987159 0.081776142 0.72879946
0.02488897 0.079192162 0.72772193
0.024791546 0.076628447 0.72665286
0.024694884 0.07408464 0.72559214
0.024598971 0.071560651 0.72453964
0.02450533 0.069060445 0.72351205
0.024413915 0.066583395 0.72250885
0.024323178 0.064124763 0.72151315
0.024233116 0.061684281 0.72052485
0.024143714 0.059261829 0.71954376
0.024054974 0.056857228 0.71856999
0.023968028 0.054472804 0.71761578
0.023883887 0.052110314 0.71669251
0.023800334 0.049764365 0.71577561
0.023717364 0.047434747 0.71486509
0.02363497 0.045121312 0.71396089
0.023553146 0.042823941 0.713063
0.023473388 0.040544927 0.71218783
0.023396358 0.038284987 0.71134245
0.023319729 0.036039591 0.71050161
0.023243703 0.033809036 0.70966727
0.023168169 0.031592995 0.7088384
0.023093127 0.029391229 0.70801491
0.023021935 0.027207762 0.70723367
0.022952138 0.025038689 0.70646775
