# .PCD v0.7 - Point Cloud Data file format
VERSION 0.7
FIELDS x y z
SIZE 4 4 4
TYPE F F F
COUNT 1 1 1
WIDTH 1333
HEIGHT 1
VIEWPOINT 0 0 0 1 0 0 0
POINTS 1333
DATA ascii
-0.019569188 0.090018272 0.69081891
-0.019569112 0.088061035 0.69081795
-0.019569112 0.086104125 0.69081801
-0.019569034 0.084146887 0.69081706
-0.019569034 0.082189977 0.69081712
-0.019568957 0.080232739 0.69081616
-0.019568957 0.078275859 0.69081616
-0.019568881 0.076318651 0.69081521
-0.019568881 0.074361801 0.69081521
-0.019568805 0.072404593 0.69081426
-0.019568805 0.070447713 0.69081426
-0.019568728 0.068490535 0.69081336
-0.019568728 0.066533715 0.69081342
-0.019568652 0.064576566 0.69081247
-0.019568652 0.062619686 0.69081247
-0.019568576 0.060662597 0.69081151
-0.019568576 0.058705747 0.69081151
-0.019568576 0.056748897 0.69081151
-0.019568652 0.054792255 0.69081247
-0.019568652 0.052835375 0.69081241
-0.019568728 0.050878704 0.69081342
-0.019568728 0.048921824 0.69081336
-0.019568805 0.046965122 0.69081426
-0.019568881 0.045008421 0.69081521
-0.019528937 0.042963654 0.69033307
-0.019528937 0.041010767 0.69033301
-0.019528937 0.039057881 0.69033307
-0.019528937 0.037104994 0.69033301
-0.019528937 0.035152078 0.69033301
-0.019528937 0.033199191 0.69033301
-0.019528937 0.031246275 0.69033301
-0.019528937 0.029293418 0.69033301
-0.019528937 0.027340531 0.69033301
-0.019528937 0.025387615 0.69033307
-0.019528937 0.023434728 0.69033301
-0.019528937 0.021481812 0.69033301
-0.019528937 0.019528925 0.69033301
-0.019528937 0.017576069 0.69033301
-0.019528937 0.015623182 0.69033301
-0.019528937 0.013670266 0.69033301
-0.019528937 0.011717379 0.69033301
-0.019528937 0.0097644329 0.69033307
-0.019528937 0.0078115761 0.69033307
-0.019528937 0.0058586895 0.69033301
-0.019528937 0.003905803 0.69033301
-0.019528937 0.0019529164 0.69033301
-0.019528937 -0 0.69033301
-0.019528937 -0.0019528866 0.69033301
-0.019528937 -0.0039057732 0.69033307
-0.019528937 -0.0058586597 0.69033307
-0.019528937 -0.0078115761 0.69033307
-0.019528937 -0.0097644627 0.69033307
-0.019528937 -0.011717349 0.69033301
-0.019528937 -0.013670236 0.69033307
-0.019528937 -0.015623122 0.69033301
-0.019528937 -0.017576039 0.69033307
-0.019528937 -0.019528925 0.69033301
-0.019528937 -0.021481842 0.69033301
-0.019528937 -0.023434758 0.69033307
-0.019528937 -0.025387615 0.69033301
-0.019528937 -0.027340531 0.69033307
-0.019528937 -0.029293388 0.69033301
-0.019528937 -0.031246305 0.69033307
-0.019528937 -0.033199191 0.69033301
-0.019528937 -0.035152107 0.69033301
-0.019528937 -0.037104994 0.69033307
-0.019528937 -0.039057881 0.69033301
-0.019528937 -0.041010767 0.69033307
-0.019528937 -0.042963624 0.69033301
-0.019528937 -0.04491657 0.69033307
-0.019528937 -0.046869427 0.69033301
-0.019528937 -0.048822343 0.69033307
-0.019528937 -0.05077523 0.69033301
-0.019528937 -0.052728117 0.69033307
-0.019528937 -0.054681033 0.69033307
-0.019528937 -0.056633919 0.69033301
-0.019528937 -0.058586806 0.69033307
-0.019528937 -0.060539693 0.69033301
-0.019528937 -0.062492579 0.69033307
-0.019528937 -0.064445466 0.69033301
-0.019528937 -0.066398382 0.69033307
-0.019528937 -0.068351269 0.69033301
-0.019528937 -0.070304155 0.69033307
-0.019528937 -0.072257072 0.69033307
-0.019528937 -0.074209899 0.69033307
-0.019528937 -0.076162845 0.69033307
-0.019528937 -0.078115731 0.69033301
-0.019528937 -0.080068648 0.69033307
-0.019528937 -0.08202152 0.69033301
-0.019528937 -0.083974436 0.69033307
-0.019528937 -0.085927293 0.69033301
-0.017456606 0.091162294 0.68873107
-0.017456606 0.08922267 0.68873107
-0.017456539 0.087282687 0.68873018
-0.01745647 0.085342705 0.68872929
-0.01745647 0.08340317 0.68872929
-0.017456403 0.081463218 0.68872839
-0.017456334 0.079523355 0.6887275
-0.017456334 0.07758373 0.68872744
-0.017456334 0.075644135 0.6887275
-0.017456403 0.073704839 0.68872833
-0.017456403 0.071765244 0.68872839
-0.01745647 0.069825888 0.68872935
-0.01745647 0.067886263 0.68872929
-0.017456539 0.065946937 0.68873024
-0.017456539 0.064007312 0.68873018
-0.017456606 0.062067956 0.68873113
-0.017456606 0.060128331 0.68873113
-0.017456673 0.058188945 0.68873203
-0.017456673 0.056249291 0.68873197
-0.01745674 0.054309875 0.68873292
-0.01745674 0.05237022 0.68873292
-0.017456809 0.050430775 0.68873382
-0.017456809 0.04849118 0.68873382
-0.017456876 0.046551704 0.68873477
-0.017456876 0.04461202 0.68873471
-0.017082529 0.041757315 0.68371391
-0.017082529 0.039859205 0.68371385
-0.017082529 0.037961155 0.68371391
-0.017082529 0.036063135 0.68371391
-0.017082529 0.034165114 0.68371391
-0.017082529 0.032267004 0.68371391
-0.017082529 0.030368954 0.68371385
-0.017082529 0.028470874 0.68371391
-0.017082529 0.026572853 0.68371391
-0.017082529 0.024674773 0.68371391
-0.017082529 0.022776693 0.68371391
-0.017082529 0.020878643 0.68371391
-0.017082529 0.018980592 0.68371391
-0.017082529 0.017082542 0.68371391
-0.017082529 0.015184462 0.68371391
-0.017082529 0.013286442 0.68371391
-0.017082529 0.011388361 0.68371391
-0.017082529 0.0094903111 0.68371385
-0.017082529 0.007592231 0.68371391
-0.017082529 0.0056941807 0.68371391
-0.017082529 0.0037961304 0.68371391
-0.017082529 0.0018980503 0.68371391
-0.017082529 2.9802322e-08 0.68371385
-0.017082529 -0.0018980503 0.68371391
-0.017082529 -0.0037961304 0.68371391
-0.017082529 -0.0056941807 0.68371391
-0.017082529 -0.0075922608 0.68371391
-0.017082529 -0.0094902813 0.68371391
-0.017082529 -0.011388391 0.68371391
-0.017082529 -0.013286412 0.68371391
-0.017082529 -0.015184492 0.68371385
-0.017082529 -0.017082512 0.68371391
-0.017082466 -0.018980503 0.68371302
-0.017082466 -0.020878583 0.68371302
-0.017082466 -0.022776604 0.68371302
-0.017082466 -0.024674654 0.68371302
-0.017082466 -0.026572704 0.68371302
-0.017082466 -0.028470755 0.68371302
-0.017082466 -0.030368805 0.68371302
-0.017082466 -0.032266885 0.68371302
-0.017082466 -0.034164965 0.68371308
-0.017082466 -0.036062956 0.68371302
-0.017082466 -0.037961036 0.68371302
-0.017082466 -0.039859086 0.68371302
-0.017082466 -0.041757137 0.68371302
-0.017082466 -0.043655187 0.68371302
-0.017082466 -0.045553267 0.68371302
-0.017082466 -0.047451258 0.68371302
-0.017082466 -0.049349308 0.68371302
-0.017082466 -0.051247358 0.68371302
-0.017082466 -0.053145438 0.68371302
-0.017082466 -0.055043519 0.68371308
-0.017082466 -0.056941539 0.68371296
-0.017082466 -0.058839619 0.68371308
-0.017082466 -0.06073764 0.68371308
-0.017082466 -0.06263569 0.68371308
-0.017082466 -0.06453377 0.68371302
-0.017082466 -0.06643182 0.68371302
-0.017082466 -0.068329811 0.68371302
-0.017082466 -0.070227921 0.68371302
-0.017082466 -0.072125971 0.68371302
-0.017082466 -0.074024022 0.68371308
-0.017082466 -0.075922072 0.68371302
-0.017082466 -0.077820107 0.68371302
-0.017082466 -0.079718187 0.68371308
-0.017082466 -0.081616193 0.68371302
-0.017082466 -0.083514303 0.68371308
-0.017082466 -0.085412323 0.68371308
-0.01550166 0.093009979 0.68849993
-0.015409936 0.090533406 0.68711591
-0.015409876 0.088606775 0.68711501
-0.015409876 0.086680561 0.68711501
-0.015409817 0.08475399 0.68711412
-0.015409817 0.082827777 0.68711412
-0.015409758 0.080901206 0.68711323
-0.015409699 0.078974724 0.68711227
-0.015409699 0.07704851 0.68711233
-0.015409639 0.075121999 0.68711144
-0.015409639 0.073195785 0.68711144
-0.01540958 0.071269304 0.68711054
-0.01540958 0.06934315 0.68711054
-0.015409521 0.067416668 0.68710965
-0.015409521 0.065490454 0.68710965
-0.015409462 0.063564032 0.68710876
-0.015409402 0.06163761 0.6871078
-0.015409402 0.059711456 0.68710786
-0.015409342 0.057785034 0.68710697
-0.015409342 0.05585891 0.68710691
-0.015409342 0.053932697 0.68710697
-0.015409342 0.052006513 0.68710697
-0.015409402 0.050080538 0.68710786
-0.015409402 0.048154414 0.68710786
-0.015409462 0.046228379 0.68710876
-0.015409521 0.044302344 0.68710965
-0.015092353 0.041504025 0.68232393
-0.015092353 0.039617449 0.68232393
-0.015092353 0.037730902 0.68232393
-0.015092353 0.035844356 0.68232393
-0.015092353 0.033957779 0.68232393
-0.015092353 0.032071233 0.68232393
-0.015092353 0.030184716 0.68232393
-0.015092353 0.02829814 0.68232399
-0.015092353 0.026411623 0.68232399
-0.015092353 0.024525046 0.68232399
-0.015092353 0.02263853 0.68232393
-0.015092353 0.020752013 0.68232393
-0.015092353 0.018865436 0.68232393
-0.015092353 0.01697889 0.68232393
-0.015092353 0.015092373 0.68232393
-0.015092353 0.013205826 0.68232393
-0.015092353 0.01131925 0.68232399
-0.015092353 0.0094327331 0.68232393
-0.015092353 0.0075461864 0.68232393
-0.015092353 0.0056596398 0.68232393
-0.015092353 0.0037730932 0.68232393
-0.015092353 0.0018865466 0.68232393
-0.015092353 2.9802322e-08 0.68232393
-0.015092353 -0.0018865466 0.68232393
-0.015092353 -0.0037730634 0.68232393
-0.015092353 -0.0056596398 0.68232393
-0.015092353 -0.0075461864 0.68232399
-0.015092353 -0.0094327331 0.68232393
-0.015092353 -0.01131925 0.68232393
-0.015092353 -0.013205796 0.68232393
-0.015092353 -0.015092343 0.68232393
-0.015092353 -0.01697886 0.68232393
-0.015092353 -0.018865466 0.68232393
-0.015092353 -0.020751983 0.68232399
-0.015092353 -0.02263853 0.68232399
-0.015092353 -0.024525076 0.68232393
-0.015092353 -0.026411623 0.68232387
-0.015092353 -0.02829814 0.68232393
-0.015092353 -0.030184686 0.68232393
-0.015092353 -0.032071233 0.68232393
-0.015092353 -0.033957779 0.68232393
-0.015092353 -0.035844356 0.68232399
-0.015092353 -0.037730902 0.68232393
-0.015092353 -0.039617449 0.68232393
-0.015092353 -0.041503996 0.68232393
-0.015092353 -0.043390512 0.68232399
-0.015092353 -0.045277059 0.68232399
-0.015092353 -0.047163635 0.68232399
-0.015092353 -0.049050152 0.68232399
-0.015092353 -0.050936669 0.68232393
-0.015092353 -0.052823246 0.68232393
-0.015092353 -0.054709792 0.68232393
-0.015092353 -0.056596339 0.68232393
-0.015092353 -0.058482885 0.68232399
-0.015092353 -0.060369402 0.68232393
-0.015092353 -0.062255919 0.68232393
-0.015092353 -0.064142495 0.68232393
-0.015092353 -0.066029042 0.68232393
-0.015092353 -0.067915589 0.68232393
-0.015092353 -0.069802165 0.68232393
-0.015092353 -0.071688682 0.68232399
-0.015092353 -0.073575199 0.68232399
-0.015092353 -0.075461775 0.68232393
-0.015092353 -0.077348322 0.68232393
-0.015092353 -0.079234868 0.68232399
-0.015092353 -0.081121385 0.68232393
-0.015092353 -0.083007932 0.68232393
-0.015092353 -0.084894463 0.68232393
-0.015092353 -0.08678101 0.68232393
-0.013452621 0.092246532 0.68658006
-0.013409769 0.090037018 0.68584114
-0.013409717 0.088120967 0.68584025
-0.013409666 0.086204976 0.68583935
-0.013409666 0.084289372 0.6858393
-0.013409615 0.082373351 0.68583846
-0.013409615 0.080457687 0.68583846
-0.013409563 0.078541726 0.68583757
-0.013409563 0.076626062 0.68583763
-0.013409511 0.074710101 0.68583667
-0.013409511 0.072794497 0.68583667
-0.013409563 0.070879161 0.68583757
-0.013409563 0.068963468 0.68583757
-0.013409615 0.067048073 0.68583846
-0.013409615 0.065132409 0.68583846
-0.013409666 0.063217014 0.6858393
-0.013409666 0.061301321 0.68583935
-0.013409717 0.059385896 0.68584025
-0.013409717 0.057470202 0.68584025
-0.013409769 0.055554748 0.68584114
-0.013409819 0.053639293 0.68584198
-0.013409819 0.051723599 0.68584198
-0.013409871 0.049808085 0.68584287
-0.013409871 0.047892392 0.68584287
-0.013409923 0.045976907 0.68584377
-0.013409923 0.044061184 0.68584377
-0.013191087 0.041457683 0.68207014
-0.013191087 0.039573252 0.68207008
-0.013191087 0.037688822 0.68207008
-0.013191087 0.035804361 0.68207014
-0.013191087 0.03391996 0.68207008
-0.013191087 0.03203553 0.68207008
-0.013191087 0.030151069 0.68207014
-0.013191087 0.028266639 0.68207014
-0.013191087 0.026382178 0.68207008
-0.013191087 0.024497747 0.68207002
-0.013191087 0.022613287 0.68207008
-0.013191087 0.020728856 0.68207008
-0.013191087 0.018844396 0.68207014
-0.013191087 0.016959935 0.68207008
-0.013191087 0.015075535 0.68207008
-0.013191087 0.013191074 0.68207008
-0.013191087 0.011306643 0.68207014
-0.013191087 0.0094222426 0.68207008
-0.013191087 0.0075377524 0.68207014
-0.013191087 0.0056533217 0.68207014
-0.013191087 0.0037688911 0.68207008
-0.013191087 0.0018844008 0.68207014
-0.013191087 -0 0.68207008
-0.013191087 -0.0018844008 0.68207008
-0.013191087 -0.0037688911 0.68207014
-0.013191087 -0.0056533217 0.68207008
-0.013191087 -0.0075377822 0.68207002
-0.013191087 -0.0094222128 0.68207008
-0.013191087 -0.011306643 0.68207008
-0.013191087 -0.013191074 0.68207008
-0.013191087 -0.015075535 0.68207014
-0.013191087 -0.016959935 0.68207008
-0.013191087 -0.018844396 0.68207008
-0.013191087 -0.020728856 0.68207008
-0.013191087 -0.022613287 0.68207008
-0.013191087 -0.024497718 0.68207008
-0.013191087 -0.026382148 0.68207008
-0.013191087 -0.028266609 0.68207008
-0.013191087 -0.030151039 0.68207008
-0.013191087 -0.0320355 0.68207008
-0.013191087 -0.03391996 0.68207008
-0.013191087 -0.035804361 0.68207002
-0.013191087 -0.037688792 0.68207014
-0.013191087 -0.039573252 0.68207014
-0.013191087 -0.041457683 0.68207002
-0.013191087 -0.043342173 0.68207014
-0.013191087 -0.045226574 0.68207008
-0.013191087 -0.047111005 0.68207008
-0.013191087 -0.048995465 0.68207014
-0.013191087 -0.050879896 0.68207008
-0.013191087 -0.052764356 0.68207014
-0.013191087 -0.054648817 0.68207002
-0.013191087 -0.056533217 0.68207008
-0.013191087 -0.058417708 0.68207014
-0.013191087 -0.060302109 0.68207008
-0.013191087 -0.062186569 0.68207014
-0.013191087 -0.064071 0.68207014
-0.013191087 -0.06595543 0.68207008
-0.013191087 -0.067839891 0.68207014
-0.013191087 -0.069724321 0.68207008
-0.013191087 -0.071608752 0.68207008
-0.013191087 -0.073493183 0.68207008
-0.013191087 -0.075377613 0.68207002
-0.013191087 -0.077262074 0.68207008
-0.013191087 -0.079146519 0.68207008
-0.013191087 -0.08103095 0.68207002
-0.013191087 -0.08291541 0.68207008
-0.013191087 -0.084799841 0.68207002
-0.013191087 -0.086684287 0.68207014
-0.011461089 0.091688752 0.68517721
-0.011443659 0.089642018 0.68482655
-0.011443659 0.087734729 0.68482655
-0.011443614 0.085827112 0.68482566
-0.011443614 0.083919853 0.68482566
-0.01144357 0.082012266 0.68482482
-0.011443527 0.080104709 0.68482387
-0.011443527 0.07819742 0.68482387
-0.011443483 0.076289892 0.68482304
-0.011443483 0.074382663 0.68482304
-0.01144344 0.072475106 0.6848222
-0.01144344 0.070567876 0.68482214
-0.011443396 0.068660408 0.68482125
-0.011443353 0.066752881 0.68482035
-0.011443353 0.064845651 0.68482041
-0.011443309 0.062938184 0.68481952
-0.011443309 0.061030984 0.68481952
-0.011443266 0.059123516 0.68481869
-0.011443221 0.057216108 0.68481773
-0.011443221 0.055308938 0.68481779
-0.011443178 0.05340147 0.6848169
-0.011443178 0.051494271 0.6848169
-0.011443178 0.049587101 0.6848169
-0.011443221 0.04768008 0.68481779
-0.011443221 0.04577291 0.68481779
-0.011443266 0.04386586 0.68481863
-0.01133555 0.04156366 0.68265152
-0.01133555 0.039674461 0.68265158
-0.01133555 0.037785172 0.68265158
-0.011335591 0.035896033 0.68265247
-0.011335591 0.034006745 0.68265241
-0.011335591 0.032117486 0.68265241
-0.011335591 0.030228227 0.68265241
-0.011335591 0.028338999 0.68265241
-0.011335591 0.02644971 0.68265241
-0.011335591 0.024560452 0.68265241
-0.011335591 0.022671193 0.68265241
-0.011335591 0.020781904 0.68265241
-0.011335591 0.018892646 0.68265241
-0.011335591 0.017003387 0.68265241
-0.011335591 0.015114158 0.68265241
-0.011335591 0.01322487 0.68265235
-0.011335591 0.011335611 0.68265241
-0.011335591 0.0094463527 0.68265241
-0.011335591 0.0075570941 0.68265241
-0.011335591 0.0056678057 0.68265241
-0.011335591 0.0037785172 0.68265241
-0.011335591 0.0018892884 0.68265241
-0.011335591 -0 0.68265247
-0.011335591 -0.0018892586 0.68265241
-0.011335591 -0.003778547 0.68265247
-0.011335591 -0.0056678057 0.68265247
-0.011335591 -0.0075570345 0.68265241
-0.011335591 -0.0094463229 0.68265241
-0.011335591 -0.011335582 0.68265241
-0.011335591 -0.01322487 0.68265241
-0.011335591 -0.015114129 0.68265235
-0.011335591 -0.017003387 0.68265247
-0.011335591 -0.018892646 0.68265241
-0.011335591 -0.020781904 0.68265235
-0.011335591 -0.022671163 0.68265241
-0.011335591 -0.024560422 0.68265241
-0.011335591 -0.02644974 0.68265241
-0.011335591 -0.028338969 0.68265235
-0.011335591 -0.030228227 0.68265247
-0.011335591 -0.032117486 0.68265241
-0.011335591 -0.034006804 0.68265241
-0.011335591 -0.035896033 0.68265241
-0.011335591 -0.037785292 0.68265247
-0.011335591 -0.03967452 0.68265241
-0.011335591 -0.041563869 0.68265247
-0.011335591 -0.043453127 0.68265241
-0.011335591 -0.045342356 0.68265241
-0.011335591 -0.047231644 0.68265241
-0.011335591 -0.049120903 0.68265241
-0.011335591 -0.051010162 0.68265241
-0.011335591 -0.05289939 0.68265247
-0.011335591 -0.054788679 0.68265235
-0.011335591 -0.056677997 0.68265241
-0.011335591 -0.058567196 0.68265241
-0.011335591 -0.060456485 0.68265241
-0.011335591 -0.062345743 0.68265241
-0.011335591 -0.064235032 0.68265235
-0.011335591 -0.06612426 0.68265247
-0.011335591 -0.068013549 0.68265241
-0.011335591 -0.069902807 0.68265241
-0.011335591 -0.071792096 0.68265241
-0.011335591 -0.073681355 0.68265247
-0.011335591 -0.075570613 0.68265247
-0.011335591 -0.077459872 0.68265235
-0.011335591 -0.07934913 0.68265235
-0.011335591 -0.081238404 0.68265241
-0.011335591 -0.083127648 0.68265241
-0.011335591 -0.085016936 0.68265241
-0.0095057273 0.091254979 0.68408656
-0.0095028747 0.089327008 0.68401766
-0.0095028747 0.087426394 0.68401766
-0.0095028393 0.085525542 0.68401676
-0.0095028393 0.083625019 0.68401676
-0.009502803 0.081724077 0.68401587
-0.009502803 0.079823583 0.68401587
-0.0095027676 0.077922732 0.68401498
-0.0095027313 0.07602182 0.68401414
-0.0095027313 0.074121326 0.68401414
-0.0095027313 0.072220773 0.68401408
-0.0095027676 0.070320517 0.68401504
-0.0095027676 0.068419904 0.68401504
-0.009502803 0.066519618 0.68401587
-0.009502803 0.064619035 0.68401587
-0.0095028393 0.062718749 0.6840167
-0.0095028393 0.060818166 0.6840167
-0.0095028747 0.05891782 0.6840176
-0.0095028747 0.057017237 0.68401766
-0.009502911 0.055116892 0.68401849
-0.009502911 0.053216279 0.68401849
-0.0095029473 0.051315933 0.68401933
-0.0095029473 0.04941535 0.68401939
-0.0095029827 0.047514915 0.68402028
-0.0095029827 0.045614362 0.68402022
-0.009503019 0.043713897 0.68402112
-0.0094783567 0.041704774 0.68342566
-0.0094783213 0.039808959 0.68342483
-0.0094783213 0.037913263 0.68342483
-0.0094783213 0.036017627 0.68342483
-0.0094783213 0.03412196 0.68342483
-0.009478285 0.032226175 0.68342394
-0.009478285 0.030330539 0.683424
-0.009478285 0.028434902 0.683424
-0.009478285 0.026539236 0.683424
-0.009478285 0.0246436 0.68342394
-0.0094782496 0.022747815 0.6834231
-0.0094782496 0.020852149 0.6834231
-0.0094782496 0.018956512 0.6834231
-0.0094782496 0.017060816 0.6834231
-0.0094782133 0.01516518 0.68342221
-0.0094782133 0.013269514 0.68342221
-0.0094782133 0.011373907 0.68342221
-0.0094782133 0.0094782114 0.68342227
-0.0094781769 0.0075825453 0.68342137
-0.0094781769 0.005686909 0.68342137
-0.0094781769 0.0037912726 0.68342137
-0.0094781769 0.0018956363 0.68342137
-0.0094781416 -0 0.68342054
-0.0094781416 -0.0018956363 0.68342054
-0.0094781416 -0.0037913024 0.68342054
-0.0094781416 -0.0056868792 0.68342054
-0.0094781416 -0.0075825453 0.68342054
-0.0094781052 -0.0094780922 0.68341964
-0.0094781052 -0.011373729 0.68341964
-0.0094781052 -0.013269335 0.68341964
-0.0094781052 -0.015164971 0.68341964
-0.0094780698 -0.017060548 0.68341875
-0.0094780698 -0.018956155 0.68341875
-0.0094780698 -0.020851761 0.68341881
-0.0094780698 -0.022747338 0.68341875
-0.0094780335 -0.024642915 0.68341792
-0.0094780335 -0.026538491 0.68341792
-0.0094780335 -0.028434128 0.68341792
-0.0094780335 -0.030329704 0.68341792
-0.0094779981 -0.032225192 0.68341702
-0.0094779981 -0.034120798 0.68341702
-0.0094779981 -0.036016405 0.68341708
-0.0094779981 -0.037912011 0.68341708
-0.0094779618 -0.039807469 0.68341619
-0.0094779618 -0.041703016 0.68341613
-0.0094779618 -0.043598652 0.68341619
-0.0094779618 -0.045494199 0.68341613
-0.0094779264 -0.047389627 0.68341529
-0.0094779264 -0.049285203 0.68341529
-0.0094778901 -0.051180631 0.68341446
-0.0094778901 -0.053076178 0.68341446
-0.0094778538 -0.054971546 0.68341357
-0.0094778538 -0.056867123 0.68341362
-0.0094778538 -0.05876267 0.68341357
-0.0094778184 -0.060658008 0.68341267
-0.0094778184 -0.062553614 0.68341273
-0.0094777821 -0.064448923 0.68341184
-0.0094777821 -0.06634447 0.68341184
-0.0094777467 -0.068239778 0.683411
-0.0094777467 -0.070135295 0.68341094
-0.0094777104 -0.072030604 0.68341011
-0.0094777104 -0.073926121 0.68341011
-0.009477675 -0.07582137 0.68340921
-0.009477675 -0.077716947 0.68340921
-0.0094776386 -0.079612181 0.68340838
-0.0094776386 -0.081507683 0.68340838
-0.0094776032 -0.083402902 0.68340755
-0.0094776032 -0.085298404 0.68340755
-0.0075819674 0.090983599 0.68340409
-0.0075819674 0.089088112 0.68340403
-0.0075819385 0.087192267 0.68340319
-0.0075819385 0.085296839 0.68340313
-0.0075819106 0.083400995 0.6834023
-0.0075819106 0.081505537 0.6834023
-0.0075819385 0.079610348 0.68340319
-0.0075819385 0.07771486 0.68340319
-0.0075819674 0.075819671 0.68340403
-0.0075819963 0.073924512 0.68340486
-0.0075819963 0.072028935 0.68340492
-0.0075820251 0.070133775 0.68340576
-0.0075820251 0.068238229 0.68340576
-0.007582054 0.06634298 0.68340659
-0.007582054 0.064447463 0.68340665
-0.0075820829 0.062552184 0.68340755
-0.0075821108 0.060656905 0.68340838
-0.0075821108 0.058761388 0.68340838
-0.0075821397 0.05686608 0.68340921
-0.0075821397 0.054970503 0.68340921
-0.0075821686 0.053075165 0.68341011
-0.0075821686 0.051179647 0.68341005
-0.0075821974 0.049284309 0.683411
-0.0075822263 0.047388941 0.68341184
-0.0075822263 0.045493335 0.68341184
-0.0075820251 0.043596625 0.68340576
-0.0075724437 0.041648448 0.68311661
-0.0075724437 0.039755374 0.68311661
-0.0075724437 0.037862241 0.68311661
-0.0075724437 0.035969108 0.68311661
-0.0075724148 0.034075856 0.68311578
-0.0075724148 0.032182783 0.68311572
-0.0075724148 0.03028968 0.68311572
-0.0075723864 0.028396428 0.68311489
-0.0075723864 0.026503384 0.68311489
-0.0075723864 0.024610281 0.68311489
-0.0075723864 0.022717148 0.68311489
-0.007572358 0.020823985 0.68311405
-0.007572358 0.018930882 0.68311405
-0.007572358 0.017037809 0.68311405
-0.0075723291 0.015144646 0.68311316
-0.0075723291 0.013251573 0.68311316
-0.0075723291 0.0113585 0.68311316
-0.0075723291 0.0094653964 0.68311322
-0.0075723003 0.0075723231 0.68311226
-0.0075723003 0.00567922 0.68311232
-0.0075723003 0.0037861466 0.68311226
-0.0075722719 0.0018930733 0.68311143
-0.0075722719 -0 0.68311143
-0.0075722719 -0.0018930435 0.68311143
-0.0075722719 -0.0037861168 0.68311149
-0.0075722719 -0.0056791902 0.68311143
-0.0075722719 -0.0075722635 0.68311143
-0.0075722719 -0.009465307 0.68311143
-0.0075722719 -0.01135844 0.68311149
-0.0075722719 -0.013251454 0.68311143
-0.0075722719 -0.015144557 0.68311143
-0.0075722719 -0.01703763 0.68311143
-0.0075722719 -0.018930703 0.68311143
-0.0075722719 -0.020823747 0.68311143
-0.0075722719 -0.02271682 0.68311143
-0.0075722719 -0.024609894 0.68311143
-0.0075722719 -0.026502967 0.68311149
-0.0075722719 -0.02839601 0.68311143
-0.0075722719 -0.030289084 0.68311143
-0.0075722719 -0.032182157 0.68311143
-0.0075722719 -0.034075201 0.68311143
-0.0075722719 -0.035968274 0.68311143
-0.0075722719 -0.037861347 0.68311143
-0.0075722719 -0.039754421 0.68311143
-0.0075722719 -0.041647464 0.68311143
-0.0075722719 -0.043540567 0.68311149
-0.0075722719 -0.04543364 0.68311143
-0.0075722719 -0.047326684 0.68311137
-0.0075722719 -0.049219757 0.68311149
-0.0075722719 -0.05111286 0.68311149
-0.0075722719 -0.053005904 0.68311143
-0.0075722719 -0.054898947 0.68311143
-0.0075722719 -0.056792021 0.68311149
-0.0075722719 -0.058685094 0.68311143
-0.0075722719 -0.060578138 0.68311143
-0.0075722719 -0.062471211 0.68311143
-0.0075722719 -0.064364314 0.68311149
-0.0075722719 -0.066257358 0.68311143
-0.0075722719 -0.068150431 0.68311143
-0.0075722719 -0.070043504 0.68311143
-0.0075722719 -0.071936578 0.68311143
-0.0075722719 -0.073829651 0.68311143
-0.0075722719 -0.075722724 0.68311143
-0.0075722719 -0.077615812 0.68311143
-0.0075722719 -0.079508856 0.68311143
-0.0075722719 -0.081401899 0.68311143
-0.0075722719 -0.083294988 0.68311143
-0.0075722719 -0.085188061 0.68311143
-0.0056755319 0.090808541 0.68296373
-0.0056755319 0.088916659 0.68296373
-0.00567551 0.08702448 0.68296283
-0.00567551 0.085132658 0.68296283
-0.0056754886 0.083240539 0.682962
-0.0056754886 0.081348658 0.682962
-0.0056754672 0.079456568 0.68296111
-0.0056754672 0.077564687 0.68296111
-0.0056754458 0.075672626 0.68296021
-0.0056754458 0.073780775 0.68296027
-0.0056754244 0.071888745 0.68295938
-0.0056754244 0.069996923 0.68295938
-0.0056754244 0.068105102 0.68295938
-0.0056754244 0.06621334 0.68295938
-0.0056754458 0.064321756 0.68296027
-0.0056754458 0.062429935 0.68296021
-0.0056754672 0.060538322 0.68296111
-0.0056754672 0.0586465 0.68296111
-0.0056754886 0.056754917 0.68296194
-0.0056754886 0.054863065 0.682962
-0.00567551 0.052971423 0.68296283
-0.00567551 0.051079631 0.68296278
-0.0056755319 0.049187928 0.68296373
-0.0056755533 0.047296256 0.68296456
-0.0056755533 0.045404434 0.68296456
-0.0056748022 0.043506801 0.68293434
-0.0056676031 0.041562468 0.68264472
-0.0056676031 0.039673239 0.68264467
-0.0056676031 0.03778407 0.68264461
-0.0056676245 0.03589496 0.68264556
-0.0056676245 0.034005791 0.6826455
-0.0056676245 0.032116532 0.68264556
-0.0056676245 0.030227363 0.6826455
-0.0056676459 0.028338224 0.68264639
-0.0056676459 0.026448995 0.68264639
-0.0056676459 0.024559796 0.68264639
-0.0056676459 0.022670597 0.68264639
-0.0056676674 0.020781487 0.68264723
-0.0056676674 0.018892199 0.68264723
-0.0056676674 0.017003 0.68264723
-0.0056676674 0.015113771 0.68264723
-0.0056676888 0.013224602 0.68264806
-0.0056676888 0.011335373 0.68264812
-0.0056676888 0.0094461739 0.68264806
-0.0056676888 0.0075569451 0.68264812
-0.0056677102 0.0056676865 0.68264902
-0.0056677102 0.0037784576 0.68264902
-0.0056677102 0.0018892586 0.68264902
-0.0056677102 -0 0.68264896
-0.0056677316 -0.0018892288 0.68264985
-0.0056677316 -0.0037784874 0.68264985
-0.0056677316 -0.0056677163 0.68264985
-0.0056677316 -0.0075569749 0.68264985
-0.0056677535 -0.0094462335 0.68265069
-0.0056677535 -0.011335522 0.68265069
-0.0056677535 -0.013224721 0.68265069
-0.0056677535 -0.015114039 0.68265069
-0.0056677749 -0.017003328 0.68265158
-0.0056677749 -0.018892586 0.68265158
-0.0056677749 -0.020781845 0.68265158
-0.0056677749 -0.022671103 0.68265158
-0.0056677954 -0.024560422 0.68265241
-0.0056677954 -0.02644974 0.68265241
-0.0056677954 -0.028338969 0.68265235
-0.0056677954 -0.030228227 0.68265247
-0.0056678168 -0.032117605 0.68265331
-0.0056678168 -0.034006864 0.68265325
-0.0056678168 -0.035896182 0.68265325
-0.0056678168 -0.03778547 0.68265331
-0.0056678383 -0.039674878 0.68265414
-0.0056678383 -0.041564137 0.68265414
-0.0056678383 -0.043453425 0.68265414
-0.0056678383 -0.045342714 0.68265414
-0.0056678597 -0.047232151 0.68265498
-0.0056678597 -0.04912141 0.68265498
-0.0056678597 -0.051010728 0.68265498
-0.0056678597 -0.052900046 0.68265498
-0.0056678816 -0.054789513 0.68265587
-0.0056678816 -0.056678772 0.68265587
-0.0056678816 -0.05856812 0.68265587
-0.0056678816 -0.060457438 0.68265587
-0.005667903 -0.062346935 0.68265671
-0.005667903 -0.064236194 0.68265676
-0.005667903 -0.066125512 0.68265671
-0.005667903 -0.068014801 0.68265671
-0.0056679244 -0.069904387 0.68265754
-0.0056679244 -0.071793735 0.6826576
-0.0056679244 -0.073683023 0.68265754
-0.0056679244 -0.075572312 0.6826576
-0.0056679458 -0.077461898 0.68265843
-0.0056679458 -0.079351246 0.68265843
-0.0056679458 -0.081240535 0.68265843
-0.0056679458 -0.083129853 0.68265843
-0.0056679673 -0.085019499 0.68265927
-0.0037970252 0.093027145 0.68376869
-0.003778873 0.090692967 0.68267304
-0.003778873 0.0888035 0.6826731
-0.0037788588 0.086913735 0.68267226
-0.0037788588 0.085024327 0.6826722
-0.0037788444 0.083134562 0.68267137
-0.0037788444 0.081245184 0.68267137
-0.0037788304 0.079355419 0.68267047
-0.0037788304 0.077466041 0.68267047
-0.003778816 0.075576335 0.68266964
-0.003778816 0.073686898 0.68266964
-0.0037788015 0.071797252 0.68266881
-0.0037788015 0.069907814 0.68266881
-0.0037787873 0.068018168 0.68266791
-0.0037787873 0.06612882 0.68266791
-0.0037787729 0.064239115 0.68266702
-0.0037787729 0.062349796 0.68266708
-0.0037787589 0.06046012 0.68266618
-0.0037787589 0.058570772 0.68266618
-0.0037787445 0.056681186 0.68266535
-0.0037787589 0.054792017 0.68266618
-0.0037787589 0.052902639 0.68266618
-0.0037787729 0.05101347 0.68266702
-0.0037787729 0.049124002 0.68266708
-0.0037787873 0.047234863 0.68266791
-0.0037788015 0.045345604 0.68266875
-0.0037780884 0.043448001 0.68262571
-0.003774184 0.041516036 0.68239009
-0.0037741701 0.039628804 0.68238926
-0.0037741701 0.037741721 0.68238926
-0.0037741556 0.035854489 0.68238837
-0.0037741556 0.033967406 0.68238831
-0.0037741414 0.032080173 0.68238747
-0.0037741414 0.03019315 0.68238747
-0.003774127 0.028305948 0.68238664
-0.003774127 0.026418895 0.68238664
-0.003774113 0.024531752 0.6823858
-0.003774113 0.022644669 0.6823858
-0.0037740986 0.020757586 0.68238491
-0.0037740986 0.018870473 0.68238491
-0.0037740844 0.01698336 0.68238407
-0.0037740844 0.015096337 0.68238413
-0.0037740844 0.013209283 0.68238407
-0.0037740702 0.01132223 0.68238318
-0.0037740702 0.0094352067 0.68238318
-0.003774056 0.0075481236 0.68238235
-0.003774056 0.0056610703 0.68238235
-0.003774042 0.0037740469 0.68238151
-0.003774042 0.0018870533 0.68238151
-0.0037740276 -0 0.68238062
-0.0037740276 -0.0018870234 0.68238068
-0.0037740134 -0.0037739873 0.68237972
-0.0037740134 -0.0056609809 0.68237972
-0.0037739989 -0.0075480044 0.68237889
-0.0037739989 -0.0094350278 0.68237889
-0.003773985 -0.011321932 0.68237805
-0.003773985 -0.013208956 0.68237805
-0.0037739705 -0.01509589 0.68237716
-0.0037739705 -0.016982853 0.68237716
-0.0037739563 -0.018869787 0.68237638
-0.0037739563 -0.020756751 0.68237633
-0.0037739419 -0.022643656 0.68237543
-0.0037739419 -0.024530619 0.68237543
-0.0037739419 -0.026417613 0.68237555
-0.0037739279 -0.028304428 0.6823746
-0.0037739279 -0.030191422 0.6823746
-0.0037739137 -0.032078266 0.68237376
-0.0037739137 -0.0339652 0.68237376
-0.0037738995 -0.035852015 0.68237287
-0.0037738995 -0.037739009 0.68237287
-0.0037738853 -0.039625794 0.68237209
-0.0037738853 -0.041512728 0.68237203
-0.0037738709 -0.043399513 0.68237114
-0.0037738709 -0.045286447 0.68237114
-0.0037738569 -0.047173202 0.68237031
-0.0037738569 -0.049060166 0.68237031
-0.0037738425 -0.050946832 0.68236947
-0.0037738425 -0.052833796 0.68236947
-0.0037738283 -0.054720521 0.68236864
-0.0037738283 -0.056607425 0.68236864
-0.0037738138 -0.058494121 0.6823678
-0.0037738138 -0.060380995 0.68236774
-0.0037738138 -0.062267929 0.68236774
-0.0037737999 -0.064154625 0.68236691
-0.0037737999 -0.066041499 0.68236685
-0.0037737854 -0.067928135 0.68236601
-0.0037737854 -0.06981501 0.68236601
-0.0037737712 -0.071701676 0.68236518
-0.0037737712 -0.07358855 0.68236518
-0.0037737573 -0.075475156 0.68236434
-0.0037737573 -0.077362001 0.68236428
-0.0037737573 -0.07924892 0.68236434
-0.0037737712 -0.081136078 0.68236518
-0.0037737712 -0.083022967 0.68236518
-0.0037737712 -0.084909841 0.68236518
-0.0037737712 -0.086796731 0.68236518
-0.0018968643 0.092946351 0.68356973
-0.0018882315 0.090635121 0.68252766
-0.0018882244 0.088746578 0.68252677
-0.0018882244 0.086858362 0.68252683
-0.0018882172 0.084969789 0.68252587
-0.0018882172 0.083081573 0.68252593
-0.0018882102 0.08119303 0.68252504
-0.0018882102 0.079304814 0.68252504
-0.001888203 0.07741636 0.6825242
-0.001888203 0.075528115 0.6825242
-0.001888196 0.073639661 0.68252331
-0.001888196 0.071751446 0.68252331
-0.0018881888 0.069862992 0.68252248
-0.0018881888 0.067974806 0.68252248
-0.0018881817 0.066086382 0.68252158
-0.0018881817 0.064198166 0.68252164
-0.0018881744 0.062309742 0.68252075
-0.0018881744 0.060421586 0.68252075
-0.0018881675 0.058533192 0.68251991
-0.0018881675 0.056645006 0.68251985
-0.0018881602 0.054756641 0.68251908
-0.0018881602 0.052868485 0.68251902
-0.0018881531 0.050980091 0.68251818
-0.0018881531 0.049091965 0.68251818
-0.0018881459 0.04720363 0.68251729
-0.0018881459 0.045315504 0.68251729
-0.0018876829 0.043416739 0.68246138
-0.0018859326 0.041490525 0.68225014
-0.0018859257 0.039604425 0.68224931
-0.0018859257 0.037718505 0.68224931
-0.0018859184 0.035832465 0.68224841
-0.0018859113 0.033946395 0.68224752
-0.0018859113 0.032060534 0.68224752
-0.0018859043 0.030174494 0.68224674
-0.0018859043 0.028288573 0.68224674
-0.0018858971 0.026402533 0.68224585
-0.00188589 0.024516582 0.68224496
-0.00188589 0.022630692 0.68224502
-0.0018858828 0.020744711 0.68224412
-0.0018858828 0.01885882 0.68224412
-0.0018858758 0.016972899 0.68224323
-0.0018858687 0.015086949 0.68224239
-0.0018858687 0.013201118 0.68224239
-0.0018858616 0.011315167 0.68224156
-0.0018858545 0.009429276 0.68224072
-0.0018858545 0.0075434446 0.68224066
-0.0018858473 0.0056575537 0.68223983
-0.0018858473 0.0037716925 0.68223983
-0.0018858403 0.0018858314 0.682239
-0.0018858403 2.9802322e-08 0.68223894
-0.0018858332 -0.0018858016 0.6822381
-0.001885826 -0.0037716627 0.68223727
-0.001885826 -0.0056574941 0.68223727
-0.001885819 -0.0075432956 0.68223643
-0.0018858118 -0.0094290674 0.6822356
-0.0018858118 -0.011314869 0.6822356
-0.0018858047 -0.013200611 0.6822347
-0.0018858047 -0.015086442 0.68223464
-0.0018857977 -0.016972184 0.68223381
-0.0018857905 -0.018857896 0.68223298
-0.0018857905 -0.020743698 0.68223298
-0.0018857834 -0.02262941 0.68223214
-0.0018857834 -0.024515182 0.68223214
-0.0018857763 -0.026400864 0.68223125
-0.0018857692 -0.028286546 0.68223041
-0.0018857692 -0.030172288 0.68223041
-0.0018857622 -0.032057971 0.68222958
-0.0018857622 -0.033943743 0.68222952
-0.0018857622 -0.035829514 0.68222952
-0.0018857622 -0.037715226 0.68222952
-0.0018857692 -0.039601147 0.68223035
-0.0018857692 -0.041486919 0.68223035
-0.0018857692 -0.043372661 0.68223041
-0.0018857763 -0.045258641 0.68223131
-0.0018857763 -0.047144413 0.68223131
-0.0018857834 -0.049030364 0.68223208
-0.0018857834 -0.050916195 0.68223214
-0.0018857834 -0.052801907 0.68223208
-0.0018857905 -0.054687917 0.68223298
-0.0018857905 -0.056573719 0.68223298
-0.0018857977 -0.058459729 0.68223381
-0.0018857977 -0.060345531 0.68223381
-0.0018858047 -0.0622316 0.68223476
-0.0018858047 -0.064117342 0.68223464
-0.0018858047 -0.066003174 0.6822347
-0.0018858118 -0.067889214 0.68223554
-0.0018858118 -0.069775015 0.68223554
-0.001885819 -0.071661115 0.68223643
-0.001885819 -0.073546916 0.68223637
-0.001885819 -0.075432718 0.68223637
-0.001885826 -0.077318847 0.68223721
-0.001885826 -0.079204679 0.68223727
-0.0018858332 -0.081090838 0.6822381
-0.0018858332 -0.082976639 0.6822381
-0.0018858403 -0.084862798 0.68223894
-0.0018858403 -0.086748645 0.682239
0 0.092943192 0.68356186
0 0.090633065 0.68252248
0 0.088744551 0.68252158
0 0.086856335 0.68252164
0 0.084967881 0.68252075
0 0.083079726 0.68252075
0 0.081191182 0.68251985
0 0.079302996 0.68251991
0 0.07741484 0.68251991
0 0.075526416 0.68251902
0 0.07363826 0.68251902
0 0.071749836 0.68251812
0 0.06986168 0.68251812
0 0.067973256 0.68251735
0 0.0660851 0.68251729
0 0.064196706 0.68251646
0 0.06230858 0.68251646
0 0.060420483 0.68251646
0 0.058532089 0.68251556
0 0.056643963 0.68251562
0 0.054755628 0.68251473
0 0.052867502 0.68251467
0 0.050979197 0.68251383
0 0.049091071 0.68251383
0 0.057131112 0.73045129
0 0.05484587 0.73045129
0 0.052560657 0.73045129
0 0.050275385 0.73045135
0 0.047990143 0.73045123
0 0.045704901 0.73045129
0 0.043419629 0.73045135
0 0.041134417 0.73045129
0 0.038849175 0.73045123
0 0.036563903 0.73045135
0 0.034278661 0.73045129
0 0.031993449 0.73045129
0 0.029708177 0.73045129
0 0.027422935 0.73045123
0 0.025137693 0.73045135
0 0.022852451 0.73045123
0 0.020567179 0.73045129
0 0.018281937 0.73045135
0 0.015996724 0.73045129
0 0.013711423 0.73045135
0 0.01142621 0.73045129
0 0.0091409683 0.73045129
0 0.006855756 0.73045129
0 0.0045704544 0.73045129
0 0.0022852421 0.73045123
0 -0 0.73045129
0 -0.0022852421 0.73045123
0 -0.0045704842 0.73045129
0 -0.006855756 0.73045135
0 -0.0091409981 0.73045123
0 -0.01142621 0.73045123
0 -0.013711452 0.73045135
0 -0.015996695 0.73045129
0 -0.018281937 0.73045129
0 -0.020567179 0.73045129
0 -0.022852421 0.73045123
0 -0.025137693 0.73045135
0 -0.027422905 0.73045123
0 -0.029708147 0.73045129
0 -0.031993449 0.73045135
0 -0.034278661 0.73045129
0 -0.036563873 0.73045123
0 -0.038849145 0.73045129
0 -0.041134417 0.73045129
0 -0.043419629 0.73045129
0 -0.045704842 0.73045129
0 -0.047990143 0.73045135
0 -0.050275385 0.73045129
0 -0.052560598 0.73045129
0 -0.05484587 0.73045129
0 -0.057131112 0.73045135
0 -0.059416324 0.73045129
0 -0.061701536 0.73045123
0 -0.063986838 0.73045135
0 -0.06627208 0.73045129
0 -0.068557292 0.73045129
0 -0.070842564 0.73045135
0 -0.073127806 0.73045135
0 -0.075413048 0.73045135
0 -0.07769829 0.73045129
0 -0.079983532 0.73045129
0 -0.082268775 0.73045135
0 -0.084554017 0.73045129
0.0018983614 0.093019724 0.68375045
0.0018893152 0.090687126 0.68265843
0.001889308 0.08879748 0.6826576
0.001889308 0.086908191 0.6826576
0.001889308 0.085018903 0.68265754
0.001889308 0.083129555 0.6826576
0.001889308 0.081240237 0.6826576
0.001889308 0.079350948 0.6826576
0.001889308 0.07746163 0.6826576
0.001889308 0.075572371 0.6826576
0.001889308 0.073682994 0.6826576
0.001889308 0.071793735 0.6826576
0.001889308 0.069904387 0.6826576
0.001889308 0.068015069 0.6826576
0.001889308 0.06612581 0.6826576
0.001889308 0.064236492 0.6826576
0.001889308 0.062347203 0.68265754
0.001889308 0.060457855 0.6826576
0.001889308 0.058568537 0.6826576
0.001889308 0.056679249 0.6826576
0.001889308 0.054789931 0.6826576
0.001889308 0.052900612 0.6826576
0.001889308 0.051011324 0.6826576
0.0022833359 0.059366733 0.73022097
0.0022833359 0.057083398 0.73022097
0.0022833359 0.054800063 0.73022091
0.0022833359 0.052516729 0.73022091
0.0022833359 0.050233394 0.73022091
0.0022833359 0.047950059 0.73022091
0.0022833359 0.045666724 0.73022091
0.0022833359 0.04338336 0.73022097
0.0022833359 0.041100085 0.73022091
0.0022833359 0.03881672 0.73022091
0.0022833359 0.036533356 0.73022091
0.0022833359 0.034250051 0.73022091
0.0022833359 0.031966716 0.73022091
0.0022833359 0.029683352 0.73022091
0.0022833359 0.027400017 0.73022097
0.0022833359 0.025116682 0.73022097
0.0022833359 0.022833377 0.73022091
0.0022833359 0.020550013 0.73022091
0.0022833359 0.018266708 0.73022091
0.0022833359 0.015983373 0.73022091
0.0022833359 0.013700008 0.73022091
0.0022833359 0.011416674 0.73022091
0.0022833359 0.0091333687 0.73022091
0.0022833359 0.0068500042 0.73022091
0.0022833359 0.0045666993 0.73022091
0.0022833359 0.0022833347 0.73022091
0.0022833359 2.9802322e-08 0.73022091
0.0022833359 -0.0022833645 0.73022091
0.0022833359 -0.0045666695 0.73022091
0.0022833359 -0.006850034 0.73022091
0.0022833359 -0.0091333389 0.73022091
0.0022833359 -0.011416644 0.73022097
0.0022833359 -0.013700008 0.73022091
0.0022833359 -0.015983343 0.73022091
0.0022833359 -0.018266678 0.73022091
0.0022833359 -0.020550013 0.73022091
0.0022833359 -0.022833347 0.73022091
0.0022833359 -0.025116682 0.73022091
0.0022833359 -0.027400017 0.73022097
0.0022833359 -0.029683322 0.73022091
0.0022833359 -0.031966686 0.73022091
0.0022833359 -0.034250051 0.73022091
0.0022833359 -0.036533386 0.73022091
0.0022833359 -0.03881672 0.73022097
0.0022833359 -0.041100025 0.73022097
0.0022833359 -0.04338336 0.73022091
0.0022833359 -0.045666695 0.73022091
0.0022833359 -0.047950029 0.73022091
0.0022833359 -0.050233394 0.73022091
0.0022833359 -0.052516729 0.73022091
0.0022833359 -0.054800093 0.73022091
0.0022833359 -0.057083368 0.73022097
0.0022833359 -0.059366703 0.73022097
0.0022833359 -0.061650068 0.73022091
0.0022833359 -0.063933372 0.73022091
0.0022833359 -0.066216737 0.73022091
0.0022833359 -0.068500072 0.73022091
0.0022833359 -0.070783436 0.73022091
0.0022833359 -0.073066741 0.73022091
0.0022833359 -0.075350016 0.73022091
0.0022833359 -0.077633411 0.73022091
0.0022833359 -0.079916745 0.73022091
0.0022833359 -0.08220008 0.73022091
0.0022833359 -0.084483415 0.73022091
0.0037834877 0.090803713 0.68295157
0.0037834735 0.088911623 0.68295074
0.0037834591 0.087019563 0.68294984
0.0037834591 0.085127831 0.6829499
0.0037834446 0.08323577 0.68294901
0.0037834446 0.081344098 0.68294901
0.0037834307 0.079452038 0.68294811
0.0037834307 0.077560335 0.68294817
0.0037834162 0.075668335 0.68294728
0.0037834162 0.073776603 0.68294728
0.0037834018 0.071884632 0.68294644
0.0037834018 0.069992959 0.68294644
0.0037833878 0.068100989 0.68294555
0.0037833878 0.066209257 0.68294561
0.0037833878 0.064317554 0.68294561
0.0037833878 0.062425911 0.68294555
0.0037834018 0.060534418 0.68294644
0.0037834018 0.058642745 0.68294644
0.0037834018 0.056751013 0.68294638
0.0037834018 0.05485934 0.68294644
0.0037834162 0.052967787 0.68294728
0.0037834162 0.051076144 0.68294728
0.0045590983 0.059268296 0.72976387
0.0045590983 0.056988716 0.72976387
0.0045590983 0.054709196 0.72976393
0.0045590983 0.052429616 0.72976387
0.0045590983 0.050150096 0.72976387
0.0045590983 0.047870547 0.72976381
0.0045590983 0.045590997 0.72976387
0.0045590983 0.043311417 0.72976381
0.0045590983 0.041031897 0.72976387
0.0045590983 0.038752347 0.72976387
0.0045590983 0.036472797 0.72976387
0.0045590983 0.034193248 0.72976387
0.0045590778 0.031913519 0.72976261
0.0045590778 0.029634029 0.72976261
0.0045590778 0.027354479 0.72976255
0.0045590778 0.025074929 0.72976261
0.0045590778 0.022795379 0.72976255
0.0045590778 0.020515859 0.72976255
0.0045590778 0.018236309 0.72976261
0.0045590778 0.015956759 0.72976267
0.0045590778 0.013677239 0.72976261
0.0045590778 0.01139769 0.72976261
0.0045590778 0.0091181695 0.72976255
0.0045590778 0.0068386197 0.72976261
0.0045590778 0.0045590699 0.72976261
0.0045590778 0.0022795498 0.72976261
0.0045590778 -0 0.72976261
0.0045590778 -0.0022795498 0.72976267
0.0045590778 -0.0045590699 0.72976261
0.0045590778 -0.0068386197 0.72976261
0.0045590778 -0.0091181397 0.72976255
0.0045590778 -0.01139769 0.72976261
0.0045590778 -0.01367721 0.72976261
0.0045590778 -0.015956789 0.72976261
0.0045590778 -0.018236279 0.72976261
0.0045590778 -0.020515829 0.72976255
0.0045590778 -0.022795409 0.72976261
0.0045590778 -0.025074929 0.72976261
0.0045590778 -0.027354479 0.72976261
0.0045590778 -0.029633999 0.72976261
0.0045590778 -0.031913519 0.72976261
0.0045590778 -0.034193039 0.72976255
0.0045590778 -0.036472589 0.72976255
0.0045590778 -0.038752168 0.72976255
0.0045590778 -0.041031718 0.72976261
0.0045590778 -0.043311268 0.72976267
0.0045590778 -0.045590758 0.72976267
0.0045590778 -0.047870308 0.72976261
0.0045590778 -0.050149828 0.72976255
0.0045590778 -0.052429378 0.72976255
0.0045590778 -0.054708928 0.72976255
0.0045590778 -0.056988448 0.72976255
0.0045590778 -0.059268028 0.72976261
0.0045590778 -0.061547518 0.72976261
0.0045590778 -0.063827097 0.72976261
0.0045590778 -0.066106617 0.72976261
0.0045590778 -0.068386167 0.72976255
0.0045590778 -0.070665717 0.72976255
0.0045590778 -0.072945207 0.72976261
0.0045590778 -0.075224757 0.72976255
0.0045590778 -0.077504307 0.72976261
0.0045590778 -0.079783857 0.72976255
0.0045590778 -0.082063407 0.72976267
0.0045590778 -0.084342957 0.72976261
0.0056863893 0.090982258 0.68340057
0.0056863679 0.089086473 0.68339968
0.0056863464 0.087190688 0.68339884
0.005686325 0.085294873 0.68339795
0.005686325 0.083399445 0.68339801
0.0056863036 0.081503689 0.68339705
0.0056862822 0.079607934 0.68339622
0.0056862608 0.077712208 0.68339539
0.0056862608 0.07581678 0.68339539
0.0056862389 0.073921114 0.68339455
0.005686217 0.072025418 0.68339366
0.0056861956 0.070129722 0.68339276
0.0056861956 0.068234354 0.68339276
0.0056861741 0.066338688 0.68339193
0.0056861527 0.064443052 0.68339103
0.0056861527 0.062547684 0.68339109
0.0056861313 0.060652077 0.68339014
0.0056861313 0.058756679 0.6833902
0.0056861527 0.05686155 0.68339103
0.0056861527 0.054966182 0.68339109
0.0056861527 0.053070754 0.68339109
0.0056861527 0.051175356 0.68339103
0.0068020802 0.058951378 0.72829252
0.0068020802 0.056684047 0.72829247
0.0068020802 0.054416656 0.72829247
0.0068020802 0.052149266 0.72829252
0.0068020495 0.049881727 0.72829127
0.0068020495 0.047614366 0.72829127
0.0068020495 0.045347035 0.72829127
0.0068020495 0.043079674 0.72829127
0.0068020495 0.040812284 0.72829127
0.0068020495 0.038544923 0.72829127
0.0068020495 0.036277592 0.72829127
0.0068020495 0.034010261 0.72829127
0.0068020495 0.031742901 0.72829127
0.0068020495 0.02947554 0.72829127
0.0068020495 0.027208179 0.72829121
0.0068020495 0.024940878 0.72829127
0.0068020495 0.022673488 0.72829127
0.0068020495 0.020406187 0.72829127
0.0068020495 0.018138796 0.72829127
0.0068020495 0.015871435 0.72829127
0.0068020495 0.013604105 0.72829127
0.0068020495 0.011336744 0.72829127
0.0068020495 0.0090694129 0.72829127
0.0068020495 0.0068020523 0.72829127
0.0068020495 0.0045346618 0.72829127
0.0068020495 0.0022673607 0.72829127
0.0068020495 -0 0.72829127
0.0068020495 -0.0022673607 0.72829127
0.0068020495 -0.0045346618 0.72829121
0.0068020495 -0.0068020523 0.72829121
0.0068020495 -0.0090694129 0.72829127
0.0068020495 -0.011336744 0.72829127
0.0068020495 -0.013604105 0.72829127
0.0068020495 -0.015871435 0.72829127
0.0068020495 -0.018138826 0.72829127
0.0068020495 -0.020406157 0.72829133
0.0068020495 -0.022673517 0.72829127
0.0068020495 -0.024940848 0.72829127
0.0068020495 -0.027208209 0.72829127
0.0068020495 -0.02947551 0.72829127
0.0068020495 -0.031742871 0.72829127
0.0068020495 -0.034010261 0.72829127
0.0068020495 -0.036277592 0.72829121
0.0068020495 -0.038544953 0.72829127
0.0068020187 -0.040812105 0.72828996
0.0068020187 -0.043079436 0.72829002
0.0068020187 -0.045346826 0.72829008
0.0068020187 -0.047614127 0.72828996
0.0068020187 -0.049881488 0.72829002
0.0068020187 -0.052148819 0.72829002
0.0068020187 -0.05441612 0.72829002
0.0068020187 -0.056683481 0.72829002
0.0068020187 -0.058950871 0.72829002
0.0068020187 -0.061218172 0.72828996
0.0068020187 -0.063485473 0.72829002
0.0068020187 -0.065752864 0.72829008
0.0068020187 -0.068020195 0.72829002
0.0068020187 -0.070287496 0.72828996
0.0068020187 -0.072554886 0.72829002
0.0068020187 -0.074822217 0.72829008
0.0068020187 -0.077089518 0.72829002
0.0068020187 -0.079356879 0.72829002
0.0068020187 -0.08162421 0.72829002
0.0068020187 -0.083891541 0.72829002
0.0068020187 -0.086158901 0.72829002
0.0076042931 0.091251522 0.6840778
0.0076020979 0.089324653 0.68401158
0.0076020979 0.087424129 0.68401158
0.0076020695 0.085523337 0.68401062
0.0076020407 0.083622456 0.68400979
0.0076020407 0.081721961 0.68400979
0.0076020118 0.07982114 0.6840089
0.0076019829 0.077920318 0.68400806
0.0076019829 0.076019824 0.68400806
0.0076019531 0.074119061 0.68400717
0.0076019242 0.072218299 0.68400627
0.0076019242 0.070317805 0.68400627
0.0076018958 0.068417042 0.68400538
0.007601867 0.06651637 0.68400455
0.007601867 0.064615905 0.68400455
0.0076018381 0.062715143 0.68400371
0.0076018092 0.06081447 0.68400282
0.0076018092 0.058914036 0.68400276
0.0076017804 0.057013363 0.68400192
0.0076017515 0.05511272 0.68400103
0.0076017226 0.053212047 0.68400013
0.0076017226 0.051311642 0.68400019
0.0076016937 0.049411029 0.6839993
0.0076365573 0.047728479 0.68505144
0.0076569789 0.045941859 0.68566769
0.0076569491 0.044027478 0.6856668
0.0076569491 0.042113245 0.6856668
0.0076569491 0.040198982 0.6856668
0.0076569491 0.038284719 0.6856668
0.0076569491 0.036370486 0.6856668
0.0076569491 0.034456253 0.6856668
0.0076569491 0.03254205 0.6856668
0.0076569491 0.030627817 0.68566686
0.0076569491 0.028713584 0.68566686
0.0076569491 0.026799321 0.6856668
0.0076569491 0.024885058 0.6856668
0.0076569491 0.022970825 0.6856668
0.0076569491 0.021056622 0.6856668
0.0076569491 0.019142389 0.6856668
0.0076569491 0.017228127 0.68566686
0.0076569491 0.015313923 0.68566686
0.0076569491 0.01339969 0.68566686
0.0076569491 0.011485428 0.6856668
0.0076569491 0.0095712245 0.6856668
