# .PCD v0.7 - Point Cloud Data file format
VERSION 0.7
FIELDS x y z
SIZE 4 4 4
TYPE F F F
COUNT 1 1 1
WIDTH 1338
HEIGHT 1
VIEWPOINT 0 0 0 1 0 0 0
POINTS 1338
DATA ascii
-0.024706442 0.024706453 0.684008
-0.024878711 0.022964954 0.68560761
-0.025070775 0.02121374 0.68739104
-0.02526848 0.019437283 0.68922687
-0.025481902 0.017641306 0.69120854
-0.025722941 0.015829504 0.6934467
-0.026017509 0.014009476 0.69618183
-0.026511664 0.012236148 0.70077038
-0.026735704 0.010282993 0.70285058
-0.026911581 0.0082804859 0.70448369
-0.02706949 0.0062468052 0.70595002
-0.02722129 0.0041878521 0.70735949
-0.027372727 0.0021055937 0.70876563
-0.027527375 -0 0.71020162
-0.027683778 -0.0021294951 0.71165389
-0.027841968 -0.0042833984 0.71312279
-0.028024901 -0.0064672828 0.7148214
-0.028210619 -0.0086802244 0.71654588
-0.028447628 -0.010941416 0.7187466
-0.022313368 0.083675116 0.67905307
-0.022241211 0.081551105 0.6783272
-0.022328136 0.080009162 0.67920166
-0.01976179 0.069166243 0.65338624
-0.019428134 0.066379458 0.65002984
-0.019516543 0.065055162 0.6509192
-0.019605698 0.063718498 0.65181601
-0.019695735 0.062369823 0.6527217
-0.019786602 0.061008692 0.6536358
-0.019878311 0.059634924 0.6545583
-0.019971939 0.05825147 0.65550005
-0.020067725 0.056858569 0.65646368
-0.020164436 0.055452198 0.65743649
-0.020262083 0.054032207 0.65841877
-0.02036068 0.052598417 0.65941054
-0.020460242 0.05115059 0.66041213
-0.020560782 0.049688548 0.66142344
-0.020662317 0.048212081 0.66244477
-0.020766653 0.046724945 0.66349435
-0.020873282 0.045225412 0.66456699
-0.020981085 0.043710589 0.66565132
-0.021089932 0.042179883 0.66674626
-0.02119999 0.040633321 0.66785336
-0.021311129 0.039070457 0.6689713
-0.021423437 0.037491024 0.67010105
-0.021540491 0.035900861 0.67127848
-0.021659454 0.034294128 0.67247516
-0.02177966 0.032669514 0.67368436
-0.021901209 0.031026751 0.67490709
-0.022024203 0.029365629 0.6761443
-0.022149319 0.027686656 0.67740285
-0.022280661 0.025994122 0.67872405
-0.02241357 0.024281383 0.68006104
-0.022548074 0.022548109 0.68141401
-0.022684287 0.020793945 0.6827842
-0.022825107 0.019020945 0.68420076
-0.022972783 0.017229587 0.68568623
-0.023122292 0.015414834 0.68719029
-0.02327385 0.013576418 0.68871474
-0.02343189 0.011715919 0.69030452
-0.023599878 0.0098333061 0.69199431
-0.023770198 0.0079233944 0.69370764
-0.023946814 0.0059866905 0.69548428
-0.024142275 0.0040237308 0.69745046
-0.024340954 0.0020284057 0.69944894
-0.024570951 -2.9802322e-08 0.70176262
-0.024819484 -0.0020682514 0.70426261
-0.025168633 -0.0041947961 0.70777488
-0.025596635 -0.0063991249 0.71208018
-0.025776299 -0.008592099 0.71388745
-0.025939435 -0.01080808 0.71552849
-0.026092742 -0.013046354 0.71707064
-0.02624305 -0.01530844 0.71858263
-0.026396958 -0.017597944 0.7201308
-0.0265528 -0.019914567 0.7216984
-0.026710492 -0.022258729 0.72328472
-0.026889803 -0.024648994 0.72508848
-0.027074959 -0.027074933 0.726951
-0.027308185 -0.029583842 0.72929704
-0.020812802 0.085143298 0.68299133
-0.020532053 0.082128227 0.67991042
-0.020579422 0.080446839 0.68043029
-0.020638067 0.078799903 0.68107384
-0.017714033 0.066025078 0.6489864
-0.017792542 0.064700156 0.64984792
-0.017871693 0.063363284 0.65071648
-0.017951608 0.062014639 0.65159345
-0.018032242 0.060653925 0.65247828
-0.018113542 0.059280694 0.65337044
-0.018195642 0.057895213 0.65427136
-0.018278971 0.056498647 0.65518588
-0.018364357 0.05509308 0.65612286
-0.018450543 0.05367434 0.65706861
-0.01853748 0.052242011 0.65802264
-0.018625304 0.0507963 0.65898639
-0.018713964 0.049336821 0.65995932
-0.01880347 0.047863394 0.66094154
-0.018893838 0.046375781 0.66193318
-0.018985078 0.044873804 0.66293442
-0.019078327 0.043359816 0.66395772
-0.0191737 0.04183355 0.66500437
-0.019270033 0.040291876 0.66606146
-0.019367335 0.038734645 0.66712922
-0.019465629 0.037161678 0.66820788
-0.019564923 0.035572588 0.66929746
-0.019665234 0.033967227 0.67039829
-0.019766582 0.032345355 0.6715104
-0.019871775 0.030710936 0.67266476
-0.019978385 0.02905947 0.67383468
-0.020086072 0.027390093 0.6750164
-0.020194927 0.025702655 0.676211
-0.020305041 0.02399686 0.6774193
-0.020416288 0.022272319 0.67864007
-0.020530751 0.02053076 0.67989624
-0.020648597 0.01877144 0.68118936
-0.020767881 0.016991884 0.6824984
-0.020888474 0.015191615 0.68382174
-0.021010553 0.013370365 0.68516135
-0.021133987 0.011527598 0.68651593
-0.021264384 0.0096656382 0.68794686
-0.021396482 0.0077805519 0.68939644
-0.021530233 0.0058718622 0.69086421
-0.02166575 0.0039392412 0.69235134
-0.02180627 0.0019823909 0.69389331
-0.021953261 -0 0.69550639
-0.022102246 -0.0020093024 0.69714129
-0.022253361 -0.0040460229 0.69879961
-0.022413488 -0.0061127543 0.70055676
-0.022581125 -0.0082113147 0.70239633
-0.02275138 -0.010341525 0.7042647
-0.022934256 -0.012509584 0.70627153
-0.023129905 -0.014719039 0.70841849
-0.023335846 -0.016971529 0.71067846
-0.023574937 -0.019288599 0.71330214
-0.023865867 -0.02169624 0.7164948
-0.024346635 -0.02434665 0.72177052
-0.02454938 -0.026781112 0.72399539
-0.02471751 -0.029211551 0.72584039
-0.024874007 -0.031657845 0.72755778
-0.025023056 -0.034122348 0.72919345
-0.01903525 0.085658669 0.68437374
-0.019099701 0.084038705 0.68515176
-0.019164516 0.082407445 0.68593413
-0.019229846 0.080765367 0.6867227
-0.016033024 0.06573543 0.64813364
-0.016102474 0.064409882 0.64897197
-0.016172476 0.063072681 0.64981699
-0.016243141 0.061723948 0.65066999
-0.016314374 0.060363203 0.65152985
-0.016386291 0.058990628 0.65239793
-0.016458787 0.057605773 0.65327305
-0.016531982 0.05620876 0.65415657
-0.016606769 0.054802328 0.6550594
-0.016682681 0.053384602 0.6559757
-0.016759232 0.051953614 0.65689981
-0.016836548 0.050509661 0.65783298
-0.016914522 0.049052119 0.65877426
-0.016993281 0.047581196 0.65972495
-0.017072774 0.046096504 0.66068459
-0.017152958 0.044597715 0.66165245
-0.017233957 0.04308489 0.6626302
-0.017315665 0.04155758 0.66361648
-0.017399907 0.04001981 0.66463339
-0.01748497 0.03846696 0.66566014
-0.017570931 0.036898971 0.66669786
-0.017657744 0.035315514 0.66774571
-0.017745418 0.033716291 0.66880405
-0.017833965 0.032101154 0.66987294
-0.017923402 0.030469805 0.6709525
-0.01801374 0.028822005 0.67204297
-0.018106174 0.027159274 0.67315876
-0.018200684 0.025480956 0.6742996
-0.018296188 0.023785025 0.67545247
-0.018392699 0.022071242 0.67661738
-0.018490234 0.02033928 0.67779481
-0.018588809 0.018588841 0.67898464
-0.01868844 0.016819626 0.68018734
-0.018789921 0.015031934 0.68141234
-0.018894793 0.01322636 0.68267822
-0.019000771 0.011400461 0.68395752
-0.019108016 0.0095539987 0.68525207
-0.019216405 0.0076865554 0.68656045
-0.019326031 0.0057978034 0.68788379
-0.019437294 0.0038874447 0.68922681
-0.019553587 0.0019553602 0.69063061
-0.019671282 -0 0.69205129
-0.019790322 -0.0019790232 0.69348824
-0.019910891 -0.0039821565 0.69494361
-0.020032858 -0.0060098469 0.6964159
-0.020160958 -0.0080643892 0.69796222
-0.020291613 -0.010145843 0.69953942
-0.020423973 -0.012254387 0.70113713
-0.020558069 -0.014390677 0.70275575
-0.020697534 -0.016558021 0.70443922
-0.020843243 -0.018758923 0.70619816
-0.020991107 -0.020991087 0.70798296
-0.021140995 -0.02325508 0.70979226
-0.021302376 -0.025562882 0.71174037
-0.021469004 -0.027909696 0.71375167
-0.021638352 -0.030293703 0.71579599
-0.021826852 -0.032740295 0.71807134
-0.022021864 -0.035234988 0.72042531
-0.022242319 -0.037811965 0.72308648
-0.022811497 -0.041060686 0.72995704
-0.017202798 0.086014003 0.68532693
-0.017271085 0.084436417 0.68624282
-0.017336778 0.082831293 0.68712389
-0.017400015 0.081200093 0.68797207
-0.014378075 0.06550011 0.64744091
-0.014439068 0.064173669 0.64825898
-0.014500626 0.062836081 0.64908463
-0.014562665 0.06148681 0.64991671
-0.014625237 0.060125977 0.65075588
-0.014688397 0.05875358 0.65160304
-0.014752056 0.057369113 0.65245688
-0.014816271 0.055972576 0.65331811
-0.014881882 0.05456692 0.65419817
-0.014948374 0.05314979 0.65508997
-0.015015414 0.051719755 0.65598911
-0.015083108 0.050277054 0.65689707
-0.015151364 0.048821062 0.65781248
-0.015220292 0.047352046 0.65873694
-0.015289797 0.04586944 0.65966928
-0.015359994 0.044373333 0.66061074
-0.015430786 0.042863309 0.66156024
-0.015502285 0.041339397 0.66251922
-0.015574398 0.03980124 0.66348642
-0.015648488 0.038251847 0.66448009
-0.015723396 0.03668797 0.66548479
-0.015799025 0.035108924 0.66649914
-0.01587533 0.033514619 0.66752255
-0.015952433 0.031904876 0.66855669
-0.01603023 0.030279368 0.66960013
-0.016108846 0.028637975 0.67065454
-0.016188238 0.0269804 0.67171937
-0.016268359 0.025306344 0.67279398
-0.016350344 0.023617178 0.67389357
-0.01643388 0.02191186 0.67501396
-0.016518272 0.020189017 0.67614591
-0.016603537 0.018448383 0.67728949
-0.016689686 0.016689688 0.67844498
-0.016776735 0.014912635 0.67961252
-0.016864697 0.013116986 0.68079221
-0.016953586 0.011302412 0.68198442
-0.017044641 0.0094692707 0.68320572
-0.017137723 0.0076167881 0.68445414
-0.017231828 0.0057439208 0.68571633
-0.017326973 0.0038504899 0.68699241
-0.017423173 0.0019359291 0.68828267
-0.017520448 -0 0.68958735
-0.017618816 -0.0019576252 0.6909067
-0.017720105 -0.0039377809 0.69226521
-0.017823696 -0.0059412122 0.6936546
-0.017928578 -0.0079682469 0.69506133
-0.018034628 -0.010019213 0.69648367
-0.01814194 -0.012094617 0.69792306
-0.018250609 -0.014194906 0.69938052
-0.018363284 -0.016322941 0.70089179
-0.018478649 -0.018478662 0.70243907
-0.018595472 -0.020661652 0.70400596
-0.018713705 -0.022872299 0.70559174
-0.018833529 -0.025111377 0.70719886
-0.018958488 -0.02738446 0.70887476
-0.019086897 -0.029690713 0.71059704
-0.019217055 -0.032028437 0.7123428
-0.019349001 -0.034398228 0.71411252
-0.019486567 -0.036807954 0.71595752
-0.019630209 -0.039260417 0.71788412
-0.019775897 -0.04174912 0.71983814
-0.020001283 -0.044447273 0.72286105
-0.020163741 -0.047048718 0.72504002
-0.020333357 -0.049703777 0.72731501
-0.020520056 -0.052440137 0.729819
-0.02071574 -0.055242002 0.73244357
-0.020942621 -0.058173954 0.73548663
-0.021226428 -0.061320782 0.7392931
-0.015370291 0.088379174 0.68651772
-0.015159398 0.085271627 0.6833356
-0.015219458 0.083707035 0.68424189
-0.015281102 0.082135916 0.68517196
-0.01534566 0.080564737 0.68614602
-0.012726793 0.065224826 0.64663041
-0.012783858 0.063919336 0.64749146
-0.01284148 0.062602222 0.64836091
-0.012898915 0.06126985 0.64922756
-0.012954897 0.059916377 0.65007222
-0.013011367 0.058551162 0.65092432
-0.013068373 0.057174116 0.65178448
-0.013125452 0.055783182 0.65264571
-0.013182639 0.05437839 0.6535086
-0.013240373 0.052961498 0.65437973
-0.013298568 0.051531941 0.65525782
-0.013357278 0.050089806 0.65614372
-0.013416554 0.048635006 0.65703809
-0.013476312 0.047167093 0.65793979
-0.013536605 0.045686066 0.65884954
-0.013597487 0.044191867 0.6597681
-0.013658873 0.042683989 0.66069436
-0.013720814 0.041162461 0.66162902
-0.013783367 0.039627194 0.66257292
-0.013846973 0.038079172 0.66353256
-0.0139117 0.036518186 0.66450924
-0.013977084 0.034942687 0.66549587
-0.014043036 0.033352226 0.66649097
-0.014109663 0.031746745 0.66749632
-0.014176875 0.030125856 0.66851044
-0.014244782 0.02848959 0.66953504
-0.014313291 0.026837409 0.67056882
-0.014382513 0.025169462 0.67161328
-0.014452357 0.023485065 0.67266715
-0.014523146 0.021784753 0.67373526
-0.014595748 0.020069182 0.67483073
-0.014669027 0.018336296 0.67593646
-0.014743099 0.016585976 0.67705411
-0.014817923 0.014817953 0.67818314
-0.014893455 0.013031781 0.67932284
-0.014969818 0.011227369 0.680475
-0.01504691 0.0094043612 0.68163824
-0.015124859 0.0075624287 0.68281442
-0.015204024 0.0057015121 0.68400896
-0.015285304 0.0038213134 0.68523538
-0.015367459 0.0019209683 0.68647498
-0.015450501 2.9802322e-08 0.68772799
-0.015534446 -0.0019417703 0.68899465
-0.015619309 -0.0039048493 0.69027507
-0.015705103 -0.0058893859 0.69156963
-0.015791845 -0.0078959167 0.69287848
-0.015880812 -0.0099254847 0.69422084
-0.015971741 -0.011978805 0.69559288
-0.016063718 -0.014055759 0.69698071
-0.016156696 -0.016156703 0.69838369
-0.016250821 -0.018282175 0.69980389
-0.01634605 -0.020432562 0.70124078
-0.016442401 -0.02260828 0.70269465
-0.016542697 -0.024814039 0.7042079
-0.016644295 -0.027047008 0.70574093
-0.016747218 -0.029307604 0.70729387
-0.016851351 -0.031596273 0.70886511
-0.016956858 -0.033913732 0.71045715
-0.01706486 -0.03626284 0.7120868
-0.017176973 -0.038648188 0.71377844
-0.017290492 -0.041064918 0.71549129
-0.017405599 -0.043513954 0.71722811
-0.017569086 -0.046118826 0.71969497
-0.017692713 -0.048654974 0.72156036
-0.017818172 -0.051227212 0.72345334
-0.017945584 -0.053836733 0.72537583
-0.018078912 -0.05649659 0.72738767
-0.018217139 -0.059205681 0.72947329
-0.018357748 -0.061957359 0.73159492
-0.018504649 -0.064766288 0.73381156
-0.018658357 -0.067636549 0.73613077
-0.01881844 -0.070569158 0.73854625
-0.018990571 -0.073588461 0.74114347
-0.019174417 -0.076697677 0.74391758
-0.019373853 -0.079917133 0.74692678
-0.013411412 0.088132113 0.68586946
-0.013318038 0.085615963 0.68425924
-0.013360917 0.083982915 0.68499869
-0.013406124 0.082351893 0.68577826
-0.013453447 0.080720693 0.68659431
-0.010977454 0.064296514 0.64389735
-0.011028958 0.063022614 0.64478546
-0.011081859 0.061741799 0.64569777
-0.011138493 0.060466081 0.64667439
-0.011201008 0.059205323 0.6477524
-0.011264228 0.057930321 0.64884257
-0.011328459 0.056642324 0.64995021
-0.011396132 0.055352658 0.65111721
-0.011458207 0.054017276 0.65218759
-0.011517475 0.052651316 0.65320969
-0.011574415 0.051258117 0.65419155
-0.011631919 0.04985106 0.6551832
-0.011687892 0.048421264 0.65614843
-0.011742948 0.046971828 0.65709782
-0.011798525 0.045508623 0.6580562
-0.011853911 0.044028848 0.65901124
-0.011907995 0.04252857 0.65994394
-0.011962575 0.041014552 0.66088516
-0.012017576 0.039486319 0.66183364
-0.012072503 0.037942141 0.66278076
-0.012127848 0.036383569 0.66373521
-0.012183663 0.034810513 0.66469765
-0.012239994 0.033222854 0.66566902
-0.01229689 0.031620592 0.66665018
-0.012354272 0.03000322 0.66763973
-0.012412195 0.028370738 0.66863859
-0.012470708 0.026722938 0.66964757
-0.012529731 0.025059491 0.67066538
-0.012589359 0.02338022 0.67169362
-0.012649557 0.021684974 0.6727317
-0.01271052 0.019973695 0.67378294
-0.012772864 0.018246979 0.67485803
-0.012835869 0.016503274 0.67594451
-0.012899452 0.014742255 0.67704099
-0.012963715 0.012963712 0.67814922
-0.013028575 0.011167347 0.67926759
-0.013094085 0.0093529224 0.68039733
-0.013160309 0.007520169 0.68153936
-0.013227155 0.0056687593 0.68269205
-0.013294733 0.0037984848 0.68385744
-0.013363517 0.0019090772 0.68504351
-0.013433736 -0 0.68625438
-0.01350475 -0.0019292533 0.68747902
-0.013576466 -0.0038789809 0.6887157
-0.013649001 -0.00584957 0.6899665
-0.013722314 -0.0078413188 0.69123077
-0.013796365 -0.0098545253 0.69250774
-0.013871275 -0.011889637 0.6937995
-0.013946949 -0.01394698 0.69510442
-0.014025022 -0.016028583 0.69645077
-0.01410409 -0.018133789 0.69781423
-0.014184054 -0.020262957 0.69919324
-0.014264929 -0.022416294 0.70058787
-0.014346733 -0.024594396 0.70199847
-0.014429481 -0.026797622 0.70342541
-0.014513188 -0.029026359 0.70486885
-0.014599089 -0.031283766 0.70635021
-0.014686937 -0.033570141 0.70786506
-0.014775847 -0.035884172 0.70939827
-0.014865841 -0.038226426 0.7109502
-0.014956938 -0.040597409 0.71252114
-0.01504916 -0.042997599 0.71411139
-0.015177762 -0.04553327 0.71632904
-0.015275264 -0.048007965 0.71801043
-0.015373961 -0.05051443 0.71971238
-0.015473942 -0.053053498 0.7214365
-0.015576063 -0.055628777 0.72319752
-0.015681366 -0.058245063 0.72501343
-0.015789168 -0.060901105 0.72687244
-0.015898393 -0.063593537 0.72875583
-0.016010236 -0.066328138 0.73068458
-0.016123887 -0.069102347 0.73264438
-0.016242929 -0.071932971 0.73469716
-0.016364276 -0.074808121 0.73678982
-0.016487451 -0.077726543 0.73891383
-0.016616039 -0.080706477 0.74113125
-0.016749293 -0.083746463 0.74342918
-0.011551938 0.088564843 0.68700492
-0.011595037 0.086962789 0.68787205
-0.011638143 0.085346401 0.6887393
-0.011680708 0.083711743 0.68959564
-0.011723584 0.082065135 0.69045824
-0.0093877679 0.064149737 0.64346516
-0.0093875034 0.062583327 0.64345992
-0.009426944 0.061275184 0.64425337
-0.0094679119 0.059963465 0.64507759
-0.0095101101 0.058645695 0.64592659
-0.0095526874 0.057316154 0.64678311
-0.0095956167 0.055974424 0.64764684
-0.0096389633 0.054620743 0.64851892
-0.009682674 0.053254724 0.64939833
-0.0097268131 0.051876336 0.65028632
-0.0097717382 0.05048731 0.6511901
-0.0098201958 0.049100995 0.65216506
-0.0098691359 0.047700822 0.6531496
-0.0099185668 0.046286672 0.65414405
-0.009968495 0.044858247 0.65514857
-0.010018928 0.043415338 0.65616322
-0.010075991 0.041983306 0.6573112
-0.010135659 0.040542632 0.65851164
-0.010196072 0.039084971 0.6597271
-0.01026033 0.03762123 0.6610198
-0.010321 0.036123514 0.66224039
-0.010378158 0.03459385 0.66339034
-0.01043247 0.033036143 0.66448295
-0.010487025 0.03146106 0.66558057
-0.010540634 0.029865175 0.66665912
-0.010592889 0.028247714 0.66771036
-0.010645664 0.026614159 0.66877216
-0.010698169 0.024962366 0.66982841
-0.010749768 0.023291171 0.67086655
-0.010801634 0.021603256 0.67191005
-0.010853767 0.019898593 0.67295885
-0.010906011 0.018176675 0.67400992
-0.010958679 0.016438007 0.67506957
-0.011011899 0.014682531 0.67614019
-0.011065598 0.012909889 0.67722058
-0.011119823 0.011119813 0.67831147
-0.011174624 0.0093121827 0.67941397
-0.011229926 0.0074866414 0.68052655
-0.011285819 0.0056428909 0.68165106
-0.011342229 0.0037807524 0.68278593
-0.01139925 0.0018998682 0.68393314
-0.011456847 2.9802322e-08 0.68509185
-0.011515912 -0.0019192994 0.68628013
-0.011575678 -0.0038585663 0.6874826
-0.011636022 -0.0058179796 0.68869662
-0.011697 -0.0077979863 0.68992341
-0.011758666 -0.0097988844 0.69116396
-0.011820939 -0.011820942 0.69241685
-0.011883923 -0.013864547 0.69368398
-0.011947533 -0.015930027 0.69496375
-0.012011876 -0.018017799 0.69625819
-0.012077644 -0.020129383 0.69758135
-0.012144629 -0.022265136 0.69892895
-0.01221231 -0.024424613 0.70029068
-0.012280801 -0.026608407 0.70166856
-0.012350013 -0.0288167 0.70306098
-0.01242006 -0.031050146 0.70447028
-0.012490909 -0.033309072 0.7058956
-0.012562515 -0.035593808 0.70733619
-0.012635906 -0.037907749 0.70881271
-0.012710805 -0.040250868 0.71031958
-0.012786598 -0.04262197 0.71184444
-0.012863298 -0.045021564 0.71338749
-0.012966022 -0.047542065 0.7154541
-0.013044669 -0.050004572 0.71703643
-0.013125369 -0.05250147 0.71865994
-0.013207945 -0.055033088 0.72032124
-0.013291566 -0.057596803 0.72200358
-0.013376252 -0.060193121 0.72370732
-0.013462024 -0.062822789 0.72543287
-0.013549943 -0.065491378 0.72720176
-0.013639453 -0.06819725 0.72900248
-0.01373034 -0.070940077 0.73083103
-0.013823402 -0.073724806 0.73270327
-0.013918509 -0.076551795 0.7346167
-0.014015456 -0.079420894 0.73656714
-0.014113763 -0.082330257 0.73854494
-0.0142142 -0.085285217 0.7405656
-0.0096439812 0.088724643 0.68742424
-0.0096803652 0.087123275 0.68830264
-0.009717023 0.085509807 0.68918765
-0.0097539611 0.08388409 0.69007933
-0.0080979383 0.068022668 0.65009952
-0.0078053218 0.064003646 0.64303505
-0.0078065884 0.062452734 0.64306563
-0.0078380164 0.061136544 0.6438244
-0.0078697233 0.059809923 0.64458984
-0.007901663 0.058472306 0.64536095
-0.0079338886 0.057124048 0.64613891
-0.0079663778 0.055764675 0.64692324
-0.0079993643 0.054395705 0.64771962
-0.0080337338 0.053022653 0.64854938
-0.0080684004 0.051637769 0.64938635
-0.0081033939 0.050241053 0.65023118
-0.008138665 0.048831969 0.65108269
-0.0081742452 0.047410607 0.65194166
-0.0082101375 0.045976758 0.65280819
-0.0082463464 0.044530272 0.65368235
-0.0082828766 0.043070972 0.65456426
-0.0083202571 0.04160127 0.65546668
-0.0083593726 0.040125012 0.65641105
-0.0083988588 0.038634777 0.65736431
-0.0084386906 0.037130266 0.65832591
-0.0084789302 0.03561154 0.65929741
-0.0085195266 0.034078121 0.66027755
-0.0085605439 0.032530069 0.66126776
-0.008602608 0.030969411 0.66228324
-0.0086476877 0.029402167 0.66337156
-0.0086932415 0.027818382 0.66447133
-0.0087392787 0.026217848 0.66558278
-0.0087858057 0.024600267 0.66670603
-0.0088337976 0.022967875 0.66786468
-0.0088888807 0.021333307 0.66919446
-0.0089446232 0.019678205 0.67054021
-0.0090017822 0.018003583 0.67192018
-0.0090606939 0.016309261 0.67334241
-0.0091147646 0.014583647 0.67464787
-0.0091663944 0.012832969 0.67589426
-0.0092169158 0.011060268 0.67711395
-0.0092669316 0.0092669725 0.67832136
-0.0093156192 0.0074525177 0.67949688
-0.0093645761 0.005618751 0.68067878
-0.0094132368 0.003765285 0.68185353
-0.0094613666 0.0018922985 0.68301547
-0.0095095932 -0 0.68417984
-0.0095579131 -0.0019115508 0.68534636
-0.0096064685 -0.0038425624 0.68651861
-0.0096555576 -0.0057933331 0.68770367
-0.0097051114 -0.0077640712 0.68890005
-0.0097552156 -0.0097551942 0.69010967
-0.0098058023 -0.01176697 0.69133091
-0.0098569542 -0.013799727 0.69256586
-0.0099086035 -0.015853763 0.69381279
-0.0099608358 -0.017929524 0.69507378
-0.010013623 -0.02002725 0.69634819
-0.010066932 -0.022147268 0.69763517
-0.010121466 -0.024291486 0.69895172
-0.010176842 -0.026459783 0.70028859
-0.01023287 -0.028652042 0.70164126
-0.010289476 -0.030868411 0.70300782
-0.010346755 -0.033109635 0.7043907
-0.010404631 -0.035375744 0.7057879
-0.010463159 -0.037667394 0.70720094
-0.010522393 -0.039985061 0.70863092
-0.010582257 -0.042329043 0.71007621
-0.010643847 -0.044704139 0.71156311
-0.01072585 -0.047193706 0.71354288
-0.010789081 -0.049629778 0.71506941
-0.010853062 -0.052094698 0.71661401
-0.010917808 -0.054589003 0.71817708
-0.010983329 -0.05711329 0.71975893
-0.01105018 -0.059670955 0.72137278
-0.01111849 -0.062263519 0.72302204
-0.011187651 -0.064888418 0.72469175
-0.011257932 -0.06754756 0.72638839
-0.0113291 -0.070240438 0.72810662
-0.011401174 -0.072967529 0.7298466
-0.011475171 -0.075736135 0.73163307
-0.011550401 -0.078542739 0.73344934
-0.01162657 -0.081386 0.73528814
-0.011703806 -0.084267378 0.73715281
-0.0077238791 0.08882466 0.68768656
-0.007753863 0.08723098 0.68859142
-0.0077835047 0.085618556 0.68948591
-0.0078133736 0.083993793 0.69038731
-0.0064630578 0.067862093 0.64963794
-0.0062300488 0.063858032 0.64260626
-0.0062492876 0.062492877 0.64318687
-0.0062735584 0.06116721 0.64391923
-0.0062980172 0.059831202 0.64465743
-0.0063226689 0.058484703 0.6454013
-0.0063475138 0.057127625 0.64615107
-0.0063725542 0.055759877 0.64690679
-0.0063977931 0.054381222 0.64766842
-0.006423254 0.052991837 0.64843678
-0.0064488971 0.051591188 0.64921057
-0.0064747455 0.050179303 0.64999062
-0.0065009925 0.048757464 0.6507827
-0.0065282616 0.047329903 0.65160567
-0.0065557393 0.045890212 0.65243489
-0.0065834718 0.044438422 0.65327179
-0.0066114385 0.042974323 0.65411574
-0.0066396222 0.041497618 0.65496629
-0.0066680699 0.040008426 0.65582478
-0.0066967397 0.03850624 0.65668994
-0.0067256796 0.036991239 0.65756327
-0.0067548715 0.035463065 0.65844423
-0.0067847539 0.033923775 0.65934598
-0.006815691 0.032374531 0.66027963
-0.0068468885 0.030811012 0.66122109
-0.0068783732 0.029233098 0.66217119
-0.0069101481 0.027640611 0.66313004
-0.0069422182 0.026033312 0.66409791
-0.0069745872 0.024411082 0.66507471
-0.0070072599 0.022773594 0.66606069
-0.0070402399 0.021120727 0.66705596
-0.0070752068 0.019456834 0.66811121
-0.0071105491 0.01777637 0.66917771
-0.0071462709 0.016079098 0.67025572
-0.0071823536 0.014364719 0.67134464
-0.0072188023 0.012632906 0.67244458
-0.007255597 0.010883391 0.67355496
-0.0072936453 0.0091170669 0.67470312
-0.0073341643 0.0073342025 0.67592591
-0.0073751351 0.0055313408 0.67716229
-0.0074165668 0.0037082732 0.67841262
-0.0074584666 0.0018646419 0.67967701
-0.0075042169 -0 0.68105775
-0.0075539239 -0.0018884838 0.68255776
-0.0076042642 -0.0038021505 0.68407685
-0.0076577701 -0.0057433248 0.6856916
-0.0077073714 -0.0077073872 0.68718839
-0.0077544334 -0.0096930265 0.68860865
-0.0077999453 -0.011699915 0.68998206
-0.0078448262 -0.01372844 0.69133645
-0.0078888265 -0.015777677 0.69266438
-0.0079326639 -0.017848462 0.69398725
-0.0079762274 -0.019940555 0.69530189
-0.0080195973 -0.022053897 0.69661069
-0.0080627268 -0.024188191 0.69791222
-0.0081061581 -0.026345015 0.69922286
-0.0081498288 -0.028524369 0.70054078
-0.0081940051 -0.030727506 0.7018739
-0.0082386294 -0.032954484 0.70322055
-0.0082837762 -0.03520605 0.70458305
-0.0083293868 -0.037482232 0.70595938
-0.0083755367 -0.039783806 0.7073521
-0.0084221652 -0.042110801 0.70875919
-0.0084693525 -0.044464082 0.7101832
-0.0085314112 -0.046922743 0.71205604
-0.0085805329 -0.049338043 0.71353835
-0.0086301854 -0.051781088 0.71503675
-0.0086804545 -0.054252833 0.71655381
-0.0087312739 -0.056753278 0.71808743
-0.0087826923 -0.059283167 0.71963906
-0.008834797 -0.061843574 0.72121155
-0.0088875247 -0.064434558 0.7228027
-0.0089408848 -0.067056626 0.72441304
-0.0089957798 -0.069717288 0.72606957
-0.0090513118 -0.072410494 0.72774541
-0.0091075748 -0.075137496 0.72944331
-0.009164542 -0.077898592 0.73116243
-0.0092222253 -0.080694437 0.73290318
-0.0092806835 -0.083526164 0.73466736
-0.0093406281 -0.086400837 0.73647636
-0.0057229851 0.087752432 0.6848731
-0.0057468456 0.086202711 0.68583316
-0.0057709501 0.084640592 0.68680304
-0.0057965107 0.083083332 0.68783152
-0.004835878 0.067702293 0.64917862
-0.0046896017 0.064091206 0.6432929
-0.0047062747 0.06275034 0.64396381
-0.0047230823 0.061400086 0.64464009
-0.0047399951 0.060039937 0.64532059
-0.0047570444 0.058670223 0.64600658
-0.0047742776 0.057291359 0.64670002
-0.0047924467 0.055911869 0.64743108
-0.0048107393 0.054521739 0.64816713
-0.0048291879 0.05312109 0.64890945
-0.0048477631 0.051709473 0.64965683
-0.0048664971 0.050287127 0.65041065
-0.0048853606 0.048853636 0.65116966
-0.0049043871 0.047409087 0.65193522
-0.0049235458 0.045953095 0.65270609
-0.0049428712 0.044485867 0.65348369
-0.0049623325 0.043006867 0.65426677
-0.0049826591 0.041522145 0.65508467
-0.0050032358 0.04002589 0.65591258
-0.0050239838 0.038517177 0.65674746
-0.0050449041 0.036995947 0.6575892
-0.0050659995 0.035461992 0.65843803
-0.0050872718 0.033915162 0.65929395
-0.0051087239 0.032355249 0.66015714
-0.0051303576 0.030782133 0.66102755
-0.0051521752 0.029195666 0.66190547
-0.0051741791 0.027595669 0.66279078
-0.0051970556 0.025985301 0.66371131
-0.0052202987 0.024361432 0.66464651
-0.0052437503 0.0227229 0.66559017
-0.0052674138 0.021069676 0.66654229
-0.0052912729 0.019401342 0.66750228
-0.0053153685 0.017717868 0.66847187
-0.0053396844 0.016019046 0.66945022
-0.0053642038 0.014304549 0.6704368
-0.00538897 0.012574285 0.67143333
-0.0054145511 0.010829121 0.67246264
-0.0054408102 0.009068042 0.67351919
-0.0054673254 0.0072897375 0.67458606
-0.0054941 0.0054941177 0.67566341
-0.0055211382 0.0036807656 0.67675138
-0.0055484441 0.0018494725 0.67785007
-0.005576021 2.9802322e-08 0.67895967
-0.0056038736 -0.0018679798 0.68008041
-0.0056329784 -0.0037553012 0.68125147
-0.0056628571 -0.0056628585 0.68245369
-0.0056930752 -0.0075907409 0.68366957
-0.0057236184 -0.009539336 0.6848985
-0.0057544904 -0.011509001 0.68614072
-0.0057856753 -0.013499886 0.68739545
-0.0058181696 -0.015515089 0.688703
-0.0058525596 -0.017557681 0.69008672
-0.005887358 -0.019624531 0.69148695
-0.0059225732 -0.021716088 0.69290382
-0.0059582116 -0.023832858 0.69433784
-0.005999289 -0.025996894 0.69599068
-0.0060416418 -0.028194308 0.69769484
-0.0060854354 -0.030427188 0.69945699
-0.0061296686 -0.032691568 0.70123672
-0.0061701839 -0.034964383 0.70286697
-0.0062090028 -0.037254006 0.70442891
-0.0062470655 -0.039564729 0.70596039
-0.0062845452 -0.041896939 0.70746851
-0.0063215988 -0.044251174 0.70895934
-0.0063584717 -0.046628803 0.71044314
-0.0064067789 -0.049118668 0.71238679
-0.0064427466 -0.051541954 0.71383405
-0.0064793169 -0.053994298 0.71530545
-0.006516445 -0.056475848 0.71679944
-0.0065540019 -0.058986008 0.71831059
-0.0065920237 -0.061525524 0.71984047
-0.0066304593 -0.064094424 0.72138697
-0.0066693458 -0.066693455 0.72295165
-0.0067088706 -0.069325 0.72454202
-0.006748837 -0.071987569 0.72615016
-0.0067893132 -0.074682415 0.72777879
-0.0068303701 -0.077410877 0.72943079
-0.0068723359 -0.080177248 0.73111939
-0.0069148852 -0.082978576 0.73283142
-0.0069579636 -0.085814863 0.73456478
-0.0038151343 0.08774811 0.68486166
-0.0038298815 0.086172342 0.68575174
-0.0038447282 0.084584057 0.68664777
-0.0038596906 0.082983315 0.68755084
-0.0038747697 0.081370145 0.68846095
-0.0031555227 0.064688236 0.64505053
-0.0031661252 0.063322544 0.6456905
-0.0031767995 0.061947554 0.64633477
-0.0031875458 0.060563385 0.64698333
-0.0031983752 0.059169918 0.64763701
-0.0032091548 0.057764798 0.64828753
-0.0032200182 0.05635035 0.64894325
-0.003230955 0.054926217 0.64960337
-0.0032419665 0.053492457 0.6502679
-0.0032530425 0.052048683 0.65093642
-0.0032642055 0.050595164 0.65161014
-0.003275445 0.049131632 0.65228856
-0.0032870215 0.047661811 0.65298724
-0.0032993106 0.046190351 0.65372896
-0.0033117032 0.044708014 0.65447688
-0.003324178 0.043214321 0.65522981
-0.0033367586 0.041709483 0.65598917
-0.0033494234 0.040193081 0.65675354
-0.003362196 0.038665265 0.65752435
-0.0033750548 0.037125617 0.65830052
-0.0033880242 0.035574257 0.65908331
-0.0034013591 0.034013599 0.65988815
-0.003415196 0.032444358 0.66072321
-0.0034291339 0.030862212 0.66156447
-0.003443198 0.029267222 0.6624133
-0.0034573658 0.027658939 0.66326845
-0.003471663 0.026037484 0.66413128
-0.0034860668 0.024402469 0.66500068
-0.0035006027 0.022753924 0.665878
-0.003515248 0.021091521 0.66676188
-0.003530029 0.01941517 0.66765404
-0.0035454368 0.017727166 0.66858399
-0.0035610688 0.016024828 0.66952741
-0.0035768519 0.014307439 0.67048001
-0.0035927629 0.012574673 0.67144036
-0.0036088154 0.010826439 0.67240924
-0.0036250127 0.0090625584 0.67338681
-0.0036413558 0.0072827339 0.67437315
-0.0036578467 0.0054867566 0.67536849
-0.0036744876 0.0036744773 0.67637289
-0.0036915531 0.001845777 0.67740285
-0.0037091493 2.9802322e-08 0.67846489
-0.0037269138 -0.0018634498 0.67953706
-0.0037448353 -0.0037448406 0.6806187
-0.0037629444 -0.0056444407 0.68171167
-0.0037812288 -0.0075624585 0.68281531
-0.0037996923 -0.0094992518 0.68392962
-0.0038183224 -0.01145494 0.68505406
-0.0038371505 -0.013429999 0.68619049
-0.00385676 -0.015427023 0.687374
-0.0038767662 -0.017445415 0.68858141
-0.0038969656 -0.019484848 0.68980062
-0.0039173616 -0.0215455 0.69103158
-0.0039379871 -0.023627937 0.69227648
-0.0039588315 -0.025732398 0.69353449
-0.0039798976 -0.02785933 0.69480604
-0.004001589 -0.030011922 0.6961152
-0.0040242141 -0.032193661 0.69748074
-0.0040471125 -0.034400433 0.69886279
-0.0040702736 -0.036632448 0.70026064
-0.004093701 -0.038890123 0.70167458
-0.0041173822 -0.041173816 0.70310396
-0.0041422481 -0.043493599 0.70460474
-0.0041684057 -0.045852453 0.70618349
-0.0041948953 -0.048241287 0.70778221
-0.0042809979 -0.051371962 0.71297902
-0.0043048277 -0.053810328 0.71441728
-0.0043289056 -0.056275785 0.7158705
-0.0043532737 -0.058769196 0.71734118
-0.0043778983 -0.061290562 0.71882749
-0.0044028223 -0.063840866 0.72033173
-0.0044280123 -0.066420168 0.72185212
-0.0044535915 -0.069030643 0.72339594
-0.0044796481 -0.071674347 0.72496861
-0.0045060315 -0.074349493 0.72656095
-0.0045327484 -0.077056706 0.72817355
-0.0045597842 -0.079796195 0.72980523
-0.0045871651 -0.082568973 0.73145783
-0.0046148556 -0.085374832 0.73312914
-0.0046458784 -0.088271707 0.7350015
-0.0019087096 0.087800652 0.68499959
-0.001915872 0.086214244 0.68586415
-0.0019232507 0.084623069 0.68675482
-0.0019306793 0.083019227 0.68765152
-0.0019381728 0.081403255 0.68855608
-0.0015851891 0.064992756 0.64594722
-0.0015912487 0.063649982 0.64667863
-0.0015973498 0.062296629 0.6474151
-0.0016035028 0.060933113 0.64815784
-0.0016097035 0.059559017 0.64890635
-0.001615947 0.058174103 0.64965999
-0.0016222445 0.05677861 0.65042019
-0.0016285861 0.05537194 0.65118563
-0.001634817 0.053948998 0.65193778
-0.001640972 0.052511126 0.65268075
-0.0016471681 0.051062226 0.65342873
-0.0016534113 0.04960233 0.65418231
-0.0016597074 0.048131526 0.65494233
-0.0016660461 0.046649307 0.65570748
-0.0016724335 0.045155734 0.65647852
-0.0016788755 0.043650776 0.65725613
-0.0016851461 0.042128652 0.65801299
-0.0016911951 0.040588707 0.6587432
-0.0016972875 0.039037615 0.6594786
-0.0017034239 0.037475318 0.66021937
-0.0017096051 0.035901695 0.6609655
-0.0017157369 0.034314752 0.66170567
-0.0017219308 0.032716721 0.66245329
-0.0017281874 0.031107396 0.6632086
-0.0017344838 0.029486209 0.66396862
-0.001740832 0.02785331 0.66473496
-0.001747227 0.026208431 0.66550684
-0.0017536692 0.024551392 0.66628456
-0.0017601714 0.022882253 0.66706944
-0.0017672274 0.021206737 0.66792119
-0.0017743341 0.01951772 0.66877896
-0.0017815044 0.017815024 0.66964453
-0.0017887329 0.016098589 0.67051709
-0.0017960138 0.014368087 0.67139602
-0.0018033542 0.012623519 0.67228204
-0.0018107615 0.010864586 0.67317617
-0.0018182233 0.009091109 0.67407686
-0.0018260466 0.0073041618 0.67502123
-0.0018340182 0.0055021048 0.67598355
-0.0018420598 0.0036841631 0.67695421
-0.0018501788 0.001850158 0.67793429
-0.001858363 -0 0.67892218
-0.0018666269 -0.0018666089 0.67991972
-0.0018749576 -0.003749907 0.68092537
-0.00188337 -0.0056501329 0.68194079
-0.0018918511 -0.0075674057 0.68296456
-0.0019007049 -0.0095035136 0.68403327
-0.0019096931 -0.011458158 0.68511832
-0.0019187665 -0.01343137 0.68621355
-0.0019279268 -0.015423387 0.68731928
-0.0019371747 -0.017434567 0.68843561
-0.001946512 -0.019465089 0.68956268
-0.0019559397 -0.02151531 0.69070071
-0.0019654667 -0.023585588 0.69185072
-0.0019750949 -0.02567625 0.69301295
-0.0019851723 -0.027792424 0.69422942
-0.0019953449 -0.029930204 0.6954574
-0.0020056306 -0.032090068 0.69669896
-0.0020160228 -0.034272373 0.69795334
-0.0020265232 -0.036477417 0.69922096
-0.0020371252 -0.038705379 0.70050073
-0.0020478473 -0.040956944 0.70179492
-0.0020586827 -0.043232322 0.70310289
-0.0020700702 -0.045541555 0.70447749
-0.0020815842 -0.047876447 0.70586735
-0.0021355383 -0.051252902 0.71238023
-0.0021471952 -0.053679913 0.71378732
-0.0021590546 -0.056135446 0.71521884
-0.0021710363 -0.058617979 0.71666515
-0.0021831517 -0.061128229 0.71812761
-0.0021954032 -0.063666701 0.71960652
-0.0022077931 -0.066233784 0.72110212
-0.0022203233 -0.068830043 0.72261465
-0.0022330068 -0.071456194 0.72414571
-0.0022458257 -0.074112266 0.72569311
-0.002258793 -0.076798975 0.72725838
-0.0022720136 -0.079520494 0.72885424
-0.0022854425 -0.082275927 0.73047519
-0.0022990203 -0.085063726 0.7321142
-0.0023127606 -0.087884873 0.73377275
0 0.08815071 0.68591815
0 0.086546987 0.68675661
0 0.084931225 0.68760026
0 0.083304018 0.68845105
0 0.081664562 0.68930709
0 0.065097749 0.64625621
0 0.063756615 0.64700049
0 0.062404841 0.64774996
0 0.061042488 0.64850521
0 0.059669375 0.64926642
0 0.058285505 0.65003365
0 0.056890875 0.65080762
0 0.055484951 0.65158701
0 0.05406782 0.65237266
0 0.052639365 0.65316463
0 0.051199406 0.65396297
0 0.049748003 0.65476841
0 0.04828465 0.65557963
0 0.046809375 0.65639752
0 0.045322061 0.65722215
0 0.043822497 0.65805352
0 0.042310655 0.65889162
0 0.040785402 0.65973258
0 0.039246202 0.66057348
0 0.037694246 0.66142058
0 0.036129594 0.66227537
0 0.034551948 0.66313732
0 0.032961041 0.66400564
0 0.031356901 0.664882
0 0.029738992 0.6657635
0 0.028106481 0.66664493
0 0.026458114 0.66751659
0 0.024794847 0.66838396
0 0.023117751 0.66925621
0 0.021426827 0.6701349
0 0.019722074 0.67102152
0 0.018003106 0.6719147
0 0.016269773 0.67281288
0 0.01451993 0.6736868
0 0.012755483 0.67455721
0 0.010975659 0.67541134
0 0.0091820359 0.67627192
0 0.0073740184 0.6771279
0 0.0055517256 0.67798215
0 0.0037156045 0.6788547
0 0.0018650889 0.67973328
0 -0 0.6806196
0 -0.0018798411 0.68151289
0 -0.0037745833 0.68241245
0 -0.0056843758 0.68331999
0 -0.0076113939 0.6842916
0 -0.0095554292 0.68528646
0 -0.011516422 0.68629086
0 -0.013494581 0.68730313
0 -0.015490055 0.68832517
0 -0.017503172 0.68935537
0 -0.019534081 0.69039559
0 -0.021583587 0.69144976
0 -0.023656338 0.6925621
0 -0.025748491 0.69368398
0 -0.027860612 0.69481742
0 -0.029992729 0.69596082
0 -0.032145232 0.697115
0 -0.034318596 0.69828129
0 -0.036512762 0.69945788
0 -0.038728386 0.70064694
0 -0.040972203 0.70188701
0 -0.04324016 0.70314795
0 -0.045531332 0.70442164
0 -0.047846168 0.70570856
0 -0.051189125 0.71205932
0 -0.053608537 0.71344292
0 -0.056053907 0.71484041
0 -0.058526307 0.71625543
0 -0.061026543 0.71768916
0 -0.063556552 0.71914804
0 -0.066114426 0.720622
0 -0.068701386 0.72211373
0 -0.071317464 0.7236222
0 -0.073963195 0.72514784
0 -0.076639116 0.72669089
0 -0.079346091 0.72825283
0 -0.08208397 0.72983158
0 -0.08485359 0.73142862
0 -0.087655991 0.73304564
0.0019213306 0.088381231 0.68652302
0.0019287592 0.086794138 0.68741971
0.0019362452 0.085194796 0.68832344
0.0019437898 0.083582968 0.68923414
0.001596947 0.067071795 0.64736646
0.0015908288 0.065223992 0.6466279
0.0015969723 0.063878894 0.64736956
0.0016031585 0.062523156 0.64811629
0.0016093928 0.061156899 0.6488688
0.0016156757 0.059780002 0.64962721
0.0016220132 0.058392495 0.65039217
0.0016283952 0.056993842 0.65116262
0.0016348277 0.055584162 0.65193909
0.0016413166 0.054163486 0.65272236
0.0016478517 0.052731246 0.65351123
0.001654439 0.051287621 0.65430641
0.0016610794 0.049832404 0.65510792
0.0016677787 0.048365593 0.65591663
0.0016745268 0.046886742 0.65673113
0.0016813296 0.045395911 0.65755236
0.0016881936 0.043893039 0.65838093
0.0016951083 0.042377681 0.65921557
0.0017021259 0.040851027 0.66006267
0.0017092138 0.039311916 0.6609183
0.0017163549 0.037759781 0.6617803
0.0017235561 0.036194623 0.66264957
0.0017308178 0.034616351 0.66352612
0.0017381409 0.033024669 0.66441011
0.0017455326 0.031419605 0.66530234
0.0017529811 0.029800653 0.66620147
0.0017604934 0.028167874 0.66710824
0.0017680705 0.026521087 0.66802287
0.0017757132 0.024859995 0.66894549
0.0017834284 0.023184568 0.66987669
0.0017912046 0.021494448 0.67081541
0.0017990489 0.019789517 0.67176235
0.0018069622 0.018069655 0.67271757
0.0018149455 0.016334534 0.67368126
0.0018230062 0.014584035 0.67465425
0.0018311321 0.012817919 0.6756351
0.0018393171 0.011035889 0.67662317
0.0018475691 0.0092378557 0.67761922
0.0018558127 0.0074232817 0.67861438
0.0018641234 0.0055924058 0.67961752
0.0018725018 0.0037449896 0.6806289
0.0018809629 0.0018809438 0.68165022
0.0018894721 -0 0.68267739
0.0018980228 -0.0018980503 0.68370956
0.0019065496 -0.0038131177 0.68473887
0.0019150579 -0.0057451725 0.68576586
0.0019235243 -0.0076940656 0.6867879
0.0019320734 -0.009660393 0.68781984
0.0019406911 -0.011644155 0.68886006
0.0019493634 -0.01364553 0.6899069
0.0019580214 -0.01566413 0.69095206
0.0019665172 -0.017698646 0.69197762
0.0019750793 -0.019750774 0.69301111
0.0019835276 -0.021818757 0.69403088
0.0019918103 -0.023901731 0.69503075
0.0020000748 -0.026000977 0.69602829
0.0020084321 -0.028118074 0.69703716
0.0020169492 -0.030254215 0.69806522
0.0020255388 -0.032408625 0.6991021
0.0020341936 -0.034581274 0.70014679
0.0020429308 -0.036772758 0.7012015
0.0020517437 -0.038983107 0.70226526
0.0020609978 -0.04121995 0.70338237
0.0020706784 -0.043484241 0.70455098
0.0020804417 -0.045769721 0.70572942
0.0020903065 -0.048077047 0.70692021
0.0021321438 -0.051171482 0.71197045
0.0021434883 -0.053587198 0.71333981
0.0021549447 -0.056028575 0.71472275
0.0021665334 -0.058496386 0.71612167
0.0021782573 -0.060991228 0.71753687
0.0021901182 -0.063513428 0.71896863
0.0022021087 -0.066063255 0.72041595
0.0022142315 -0.068641186 0.72187924
0.0022265478 -0.071249545 0.72336602
0.0022390322 -0.073888034 0.72487307
0.0022516572 -0.076556355 0.72639698
0.0022644359 -0.079255253 0.72793949
0.0022773703 -0.081985354 0.72950089
0.0022904538 -0.084746778 0.73108017
0.0023036776 -0.087539732 0.73267645
0.0038338723 0.088179082 0.6859926
0.003849298 0.086609215 0.68692362
0.0038648481 0.085026652 0.68786216
0.0038805092 0.083430946 0.68880737
0.0031864597 0.066915691 0.64691776
0.0031896185 0.065387189 0.64710844
0.0032018751 0.064037472 0.64784813
0.0032142159 0.062677234 0.64859301
0.003226663 0.061306596 0.64934427
0.0032392067 0.059925348 0.65010136
0.0032518483 0.058533281 0.6508643
0.0032645888 0.057130307 0.65163332
0.0032774296 0.055716306 0.65240824
0.003290372 0.054291159 0.65318942
0.0033034168 0.052854657 0.6539768
0.0033165547 0.051406622 0.65476966
0.0033298084 0.049947113 0.65556967
0.0033431684 0.048475951 0.656376
0.0033566363 0.046992928 0.65718883
0.0033702129 0.045497894 0.65800822
0.0033838998 0.043990672 0.65883434
0.003397698 0.04247123 0.65966713
0.0034116446 0.040939778 0.66050887
0.0034257649 0.039396316 0.6613611
0.0034400022 0.037840009 0.66222042
0.0034543704 0.036270857 0.66308767
0.0034688471 0.034688473 0.66396129
0.0034834456 0.033092737 0.66484249
0.0034981796 0.03148362 0.66573173
0.0035130267 0.029860735 0.66662788
0.0035280006 0.028224021 0.66753161
0.0035431019 0.026573271 0.66844308
0.0035583463 0.024908453 0.66936314
0.0035737096 0.023229122 0.67029035
0.0035892061 0.021535277 0.67122567
0.0036048505 0.01982671 0.67216986
0.003620619 0.018103063 0.67312163
0.0036365257 0.016364366 0.67408168
0.0036525731 0.014610291 0.6750502
0.003668776 0.012840718 0.67602813
0.0036851096 0.01105538 0.67701399
0.0037015898 0.0092539489 0.67800862
0.0037183417 0.0074366629 0.67901969
0.0037352464 0.0056028962 0.68004
0.0037523056 0.003752321 0.68106961
0.0037695351 0.0018847883 0.68210948
0.0037869094 -0 0.6831581
0.0038044448 -0.0019022226 0.6842165
0.0038221432 -0.0038221478 0.68528473
0.0038400071 -0.0057599843 0.6863628
0.0038580538 -0.0077160895 0.68745202
0.0038762556 -0.0096906126 0.68855065
0.0038946301 -0.011683911 0.68965966
0.0039131795 -0.013696134 0.69077927
0.0039319065 -0.015727609 0.69190943
0.0039508292 -0.017778754 0.69305158
0.0039699194 -0.019849628 0.69420373
0.0039891945 -0.021940589 0.6953671
0.0040086582 -0.024051934 0.69654185
0.004028264 -0.026183724 0.69772518
0.0040480625 -0.028336436 0.69892001
0.0040679239 -0.030509412 0.7001189
0.0040878649 -0.032702923 0.70132244
0.004107968 -0.034917712 0.70253569
0.0041282703 -0.037154436 0.70376104
0.004148447 -0.039410263 0.70497888
0.004168822 -0.041688204 0.70620865
0.0041891532 -0.043986082 0.70743567
0.0042094351 -0.046303779 0.70865983
0.0042442847 -0.04880926 0.7107631
0.0042665605 -0.051198751 0.71210766
0.0042890711 -0.053613394 0.71346629
0.0043118205 -0.056053668 0.71483934
0.0043348125 -0.058519959 0.71622699
0.00435807 -0.061012983 0.71763074
0.0043815598 -0.063532621 0.71904844
0.0044053034 -0.066079527 0.72048151
0.0044293646 -0.068655133 0.72193372
0.0044537103 -0.07125935 0.7234031
0.0044783046 -0.073892027 0.72488749
0.0045031728 -0.076553941 0.72638845
0.0045283181 -0.079245567 0.72790611
0.004553746 -0.081967413 0.72944081
0.0045796288 -0.084723085 0.73100293
0.0046058497 -0.087511152 0.73258555
0.0057290359 0.087845206 0.68511653
0.0057521532 0.086282313 0.68604672
0.0057754796 0.084707052 0.68698531
0.0057989745 0.083118647 0.68793058
0.0047810748 0.066935062 0.64697349
0.0047993115 0.06559062 0.64770734
0.0048176879 0.064235836 0.64844674
0.0048361896 0.062870473 0.64919114
0.00485485 0.061494738 0.64994198
0.0048736543 0.060108453 0.65069866
0.0048926054 0.058711261 0.65146112
0.0049116886 0.057303041 0.65222901
0.0049309372 0.055883974 0.65300345
0.0049503371 0.054453731 0.6537841
0.0049698739 0.053012013 0.65457022
0.0049895821 0.051559031 0.6553632
0.0050094472 0.050094515 0.6561625
0.0050294711 0.048618227 0.65696824
0.0050496394 0.047129959 0.65777969
0.0050699865 0.045629889 0.65859836
0.0050904984 0.04411763 0.65942377
0.005111177 0.042593181 0.66025579
0.005132006 0.041056067 0.66109395
0.0051530418 0.039506674 0.66194034
0.0051743751 0.037945449 0.66279864
0.0051958864 0.036371201 0.66366422
0.0052175769 0.03478387 0.66453695
0.005239449 0.033183187 0.66541708
0.0052614873 0.031568944 0.66630381
0.0052837301 0.029941142 0.66719878
0.0053061615 0.02829951 0.66810137
0.0053287842 0.026643902 0.66901171
0.0053516012 0.024974138 0.66992974
0.0053746141 0.023289979 0.67085564
0.005397826 0.021591276 0.67178965
0.0054212194 0.019877821 0.67273092
0.0054448363 0.018149465 0.67368126
0.0054686596 0.01640597 0.67463982
0.0054926923 0.014647156 0.67560679
0.0055169379 0.012872875 0.67658234
0.0055413977 0.011082798 0.67756653
0.0055660759 0.0092767775 0.67855954
0.0055909748 0.0074546337 0.67956138
0.0056160968 0.0056160986 0.68057221
0.0056415312 0.0037610531 0.68159562
0.0056673032 0.0018891096 0.68263257
0.0056932913 2.9802322e-08 0.68367827
0.0057195178 -0.0019065142 0.68473357
0.0057460093 -0.0038306713 0.68579948
0.0057727257 -0.0057727098 0.68687451
0.0057996912 -0.007732898 0.68795943
0.0058269324 -0.0097115636 0.68905556
0.0058544083 -0.011708796 0.69016111
0.0058821444 -0.013724983 0.69127709
0.0059101675 -0.015760422 0.69240475
0.005938435 -0.017815292 0.69354206
0.0059669754 -0.019889891 0.69469047
0.00599579 -0.021984577 0.6958499
0.0060249097 -0.024099618 0.6970216
0.0060542882 -0.026235253 0.69820374
0.0060839555 -0.028391778 0.69939744
0.0061139395 -0.030569702 0.70060384
0.0061443965 -0.032770097 0.70182943
0.0061752098 -0.034992814 0.70306915
0.0062063076 -0.037237853 0.70432055
0.0062377201 -0.039505571 0.70558441
0.0062694526 -0.041796327 0.7068612
0.0063015092 -0.044110537 0.7081511
0.006333922 -0.046448767 0.70945525
0.0063764062 -0.048885792 0.71116471
0.0064095142 -0.051276118 0.71249682
0.0064429683 -0.053691387 0.71384293
0.0064767445 -0.05613178 0.71520197
0.0065109059 -0.058598161 0.71657652
0.0065454287 -0.061090648 0.7179656
0.0065803202 -0.063609779 0.71936953
0.0066156727 -0.066156745 0.72079206
0.0066515547 -0.068732738 0.72223586
0.0066878274 -0.071336806 0.72369528
0.006724529 -0.073969811 0.7251721
0.0067616352 -0.076631874 0.72666514
0.0067991223 -0.079323083 0.72817349
0.0068370588 -0.082044691 0.72969991
0.0068754214 -0.084796876 0.73124349
0.0069142161 -0.087580085 0.73280448
0.0076029934 0.087434441 0.68403852
0.007633761 0.085879803 0.68496704
0.0076647499 0.08431226 0.68590224
0.0076959911 0.082731903 0.686845
0.0063989591 0.067189068 0.64770365
0.0064232745 0.065838546 0.64843738
0.0064477962 0.06447795 0.64917737
0.0064725052 0.063106954 0.64992303
0.0064974041 0.061725348 0.65067446
0.0065224962 0.060333103 0.65143168
0.0065477826 0.058930069 0.65219474
0.0065732659 0.057516098 0.65296376
0.006598948 0.05609107 0.6537388
0.0066248318 0.054654896 0.65451986
0.0066509191 0.053207338 0.65530717
0.0066772136 0.051748395 0.65610063
0.0067037158 0.050277889 0.65690047
0.0067304298 0.04879564 0.65770662
0.0067573572 0.047301501 0.65851921
0.006784501 0.045795381 0.65933836
0.0068118637 0.044277132 0.66016412
0.0068394481 0.042746574 0.66099656
0.0068672565 0.041203558 0.66183579
0.006895293 0.039647907 0.66268176
0.0069235582 0.03807959 0.66353476
0.0069520567 0.036498308 0.6643948
0.0069809365 0.034904689 0.66526628
0.0070101069 0.033298016 0.66614664
0.0070395214 0.031677872 0.66703427
0.0070691849 0.030044049 0.66792941
0.0070990734 0.028396308 0.66883141
0.0071292412 0.02673465 0.66974187
0.0071596666 0.025058866 0.67065996
0.0071903528 0.023368657 0.67158598
0.0072212769 0.021663845 0.67251921
0.0072524943 0.01994437 0.67346132
0.0072839833 0.018209934 0.67441159
0.007315747 0.016460419 0.6753701
0.0073477617 0.014695555 0.67633623
0.0073800851 0.012915134 0.67731172
0.0074126939 0.011119038 0.67829573
0.0074455645 0.0093069375 0.67928767
0.0074787559 0.0074787736 0.68028933
0.0075122449 0.0056341887 0.68129992
0.0075460346 0.0037730038 0.6823197
0.0075801015 0.0018950403 0.6833477
0.0076145055 -0 0.68438596
0.007649282 -0.0019123256 0.68543541
0.0076845554 -0.0038422942 0.68649989
0.0077201547 -0.0057901144 0.68757427
0.0077560865 -0.0077560544 0.68865854
0.0077923532 -0.0097404718 0.68975306
0.0078289304 -0.011743367 0.69085681
0.0078658843 -0.013765305 0.6919719
0.0079031875 -0.015806347 0.69309771
0.0079408465 -0.01786691 0.69423413
0.0079788668 -0.019947171 0.69538152
