# .PCD v0.7 - Point Cloud Data file format
VERSION 0.7
FIELDS x y z
SIZE 4 4 4
TYPE F F F
COUNT 1 1 1
WIDTH 1338
HEIGHT 1
VIEWPOINT 0 0 0 1 0 0 0
POINTS 1338
DATA ascii
-0.015812932 0.04941541 0.69319659
-0.015799763 0.047399282 0.69299793
-0.015786614 0.045386523 0.69279957
-0.015773488 0.043377131 0.69260144
-0.015760385 0.041370988 0.69240379
-0.015747365 0.039368421 0.69220734
-0.015734302 0.037368983 0.69201016
-0.015723117 0.035377055 0.69184142
-0.015711946 0.033387899 0.69167286
-0.015700791 0.031401575 0.69150454
-0.015689652 0.029418141 0.69133651
-0.015678467 0.027437299 0.69116771
-0.01566736 0.025459468 0.6910001
-0.015657861 0.023486823 0.69085681
-0.015648739 0.021517038 0.69071913
-0.01563957 0.019549459 0.69058079
-0.015630471 0.017584264 0.69044352
-0.01562132 0.015621305 0.69030547
-0.015612242 0.013660699 0.6901685
-0.015602384 0.011701792 0.69001973
-0.015590534 0.0097440779 0.68984091
-0.015577428 0.0077887177 0.68964314
-0.015560896 0.0058353543 0.6893937
-0.015543132 0.0038857758 0.68912572
-0.015524627 0.0019405782 0.68884647
-0.015503401 -2.9802322e-08 0.68852621
-0.015480318 -0.0019350052 0.68817782
-0.01545581 -0.0038639009 0.6878081
-0.015431382 -0.0057867467 0.6874395
-0.015407445 -0.0077036917 0.6870783
-0.015383522 -0.0096146762 0.68671739
-0.015359733 -0.011519819 0.68635839
-0.015337135 -0.013419986 0.68601745
-0.015318235 -0.015318215 0.68573225
-0.015299384 -0.017211765 0.68544775
-0.015280519 -0.019100696 0.68516314
-0.015261759 -0.020984888 0.68488008
-0.015247748 -0.022871643 0.68466872
-0.01523388 -0.024755061 0.68445945
-0.015220036 -0.026635051 0.68425059
-0.015206218 -0.028511643 0.68404204
-0.015197385 -0.030394733 0.68390876
-0.015189254 -0.032277137 0.68378603
-0.015181188 -0.034157693 0.68366432
-0.01517503 -0.036040723 0.68357146
-0.015175087 -0.037937731 0.68357229
-0.015611025 -0.040978938 0.69015014
-0.015638774 -0.043006629 0.69056875
-0.01565578 -0.045010358 0.6908254
-0.015673127 -0.047019392 0.69108713
-0.01569316 -0.049041122 0.69138944
-0.015718425 -0.051084906 0.69177061
-0.015744885 -0.053138971 0.6921699
-0.015781447 -0.055235058 0.69272155
-0.015823057 -0.057358593 0.69334948
-0.015878795 -0.059545457 0.69419038
-0.015962314 -0.061853975 0.69545066
-0.014129922 0.090835214 0.69825971
-0.014111079 0.088698208 0.69793481
-0.014092966 0.086571068 0.69762242
-0.014074958 0.084449768 0.69731188
-0.014056938 0.082333475 0.6970011
-0.01403902 0.080222964 0.69669217
-0.014021093 0.07811752 0.696383
-0.014003602 0.076019585 0.6960814
-0.013987216 0.073932469 0.69579887
-0.013970925 0.071850479 0.6955179
-0.013954615 0.069773108 0.69523668
-0.013938345 0.067700505 0.69495606
-0.013922111 0.06563282 0.69467616
-0.013905971 0.063570142 0.69439781
-0.013890916 0.061516911 0.69413817
-0.013876276 0.059469759 0.6938858
-0.013861669 0.0574269 0.69363385
-0.013847091 0.055388361 0.6933825
-0.013832544 0.053354084 0.69313163
-0.013818028 0.051324069 0.69288135
-0.013803869 0.049299568 0.69263709
-0.013790878 0.047282994 0.69241315
-0.013777913 0.045270264 0.69218957
-0.013764973 0.043261349 0.69196635
-0.013752001 0.041256011 0.69174272
-0.013739108 0.039254606 0.69152039
-0.01372624 0.037256986 0.69129843
-0.013714523 0.035265923 0.69109637
-0.013703201 0.03327921 0.69090116
-0.013691898 0.031295776 0.69070625
-0.013680615 0.029315621 0.6905117
-0.013669349 0.027338713 0.69031739
-0.013658102 0.025365055 0.6901235
-0.013647404 0.023395538 0.68993896
-0.013637786 0.02143082 0.68977314
-0.013628183 0.019468844 0.6896075
-0.013618591 0.017509609 0.6894421
-0.013609013 0.015553206 0.68927693
-0.013599396 0.013599396 0.68911111
-0.01358995 0.011648506 0.68894827
-0.013582098 0.0097015202 0.68881279
-0.013574256 0.0077567101 0.68867761
-0.013566368 0.0058141649 0.68854153
-0.013558544 0.0038738549 0.68840665
-0.013550729 0.0019358099 0.68827188
-0.013542868 -0 0.68813634
-0.01353413 -0.0019334555 0.68798566
-0.013523783 -0.0038639605 0.6878072
-0.013511992 -0.0057908595 0.68760383
-0.013497463 -0.007712841 0.68735331
-0.013482189 -0.0096301436 0.68708992
-0.013465602 -0.011541933 0.68680394
-0.013447352 -0.013447344 0.68648916
-0.01342735 -0.015345544 0.68614423
-0.013406073 -0.017236382 0.68577737
-0.013385119 -0.019121587 0.68541604
-0.013364536 -0.021001428 0.6850611
-0.013344017 -0.022875458 0.68470728
-0.013323509 -0.024743646 0.68435359
-0.013304429 -0.026608855 0.68402457
-0.013288177 -0.028474659 0.68374431
-0.013271962 -0.030335873 0.68346465
-0.013255739 -0.032192498 0.68318498
-0.013239705 -0.034044921 0.68290842
-0.013227754 -0.035903901 0.68270242
-0.013215825 -0.037759513 0.68249667
-0.013510532 -0.040531605 0.68757868
-0.013515381 -0.042476922 0.6876623
-0.01351945 -0.044421047 0.68773246
-0.013523574 -0.046366543 0.68780357
-0.013530993 -0.048324972 0.68793154
-0.013538525 -0.050285965 0.68806136
-0.013546064 -0.052249104 0.68819141
-0.013556078 -0.054224312 0.68836409
-0.013567315 -0.056207448 0.68855792
-0.013580993 -0.058204263 0.68879378
-0.013595912 -0.060210437 0.68905103
-0.013612716 -0.062229544 0.68934083
-0.013634335 -0.064276189 0.6897136
-0.013657888 -0.066338331 0.6901198
-0.013687617 -0.068438083 0.69063246
-0.013721884 -0.070569664 0.69122332
-0.013770438 -0.072786599 0.69206065
-0.01383872 -0.075124472 0.69323814
-0.012117277 0.09087956 0.69837874
-0.012099501 0.08872965 0.69802105
-0.012082701 0.086592674 0.6976831
-0.012065995 0.084461987 0.69734704
-0.012049288 0.082336813 0.69701093
-0.012032675 0.080217808 0.69667667
-0.01201606 0.078104377 0.69634235
-0.011999634 0.07599768 0.6960119
-0.011984353 0.073903501 0.69570446
-0.011969158 0.071814924 0.69539881
-0.011953956 0.069731414 0.69509292
-0.011938791 0.06765312 0.69478786
-0.011923713 0.065580457 0.69448447
-0.011908623 0.063512683 0.69418091
-0.011894563 0.06145525 0.69389802
-0.011880771 0.059403896 0.69362056
-0.011867058 0.05735749 0.69334471
-0.01185333 0.055315554 0.6930685
-0.011839633 0.053278327 0.69279295
-0.011825969 0.051245868 0.69251806
-0.011812661 0.049219429 0.69225025
-0.011800264 0.047201037 0.69200087
-0.011787939 0.045187086 0.69175291
-0.01177564 0.043177336 0.69150549
-0.011763366 0.041171819 0.69125855
-0.011751119 0.039170414 0.69101214
-0.011738896 0.037173152 0.69076622
-0.011727524 0.035182565 0.69053745
-0.011716538 0.033196867 0.6903165
-0.01170562 0.031215012 0.69009686
-0.011694723 0.029236823 0.68987757
-0.011683845 0.0272623 0.68965876
-0.011672988 0.025291502 0.68944025
-0.01166224 0.02332449 0.68922406
-0.011652734 0.021363348 0.68903285
-0.011643199 0.019405305 0.68884104
-0.011633678 0.017450541 0.68864942
-0.011624174 0.015498877 0.68845826
-0.011614684 0.01355046 0.68826735
-0.011605212 0.011605203 0.68807673
-0.011596605 0.0096638501 0.68790358
-0.011588502 0.007725656 0.68774056
-0.011580411 0.0057902336 0.68757778
-0.011572332 0.0038574338 0.68741524
-0.011564263 0.0019273758 0.68725294
-0.011556162 -0 0.68708992
-0.011548604 -0.0019247532 0.68693787
-0.011541944 -0.003847301 0.68680388
-0.011535336 -0.0057676435 0.68667096
-0.011528693 -0.0076858103 0.68653727
-0.011522099 -0.0096017122 0.68640465
-0.011515514 -0.011515498 0.6862722
-0.011508804 -0.01342693 0.6861372
-0.011501353 -0.015335143 0.68598723
-0.011492503 -0.017238736 0.6858092
-0.011482042 -0.019136697 0.68559873
-0.01146954 -0.021027505 0.68534726
-0.011456716 -0.022913396 0.68508923
-0.011442175 -0.02479139 0.68479669
-0.011426801 -0.026662558 0.6844874
-0.011409692 -0.02852425 0.68414319
-0.011391724 -0.030377924 0.68378168
-0.011374159 -0.032226801 0.68342829
-0.011356818 -0.034070432 0.68307948
-0.011339488 -0.035908371 0.68273079
-0.011322253 -0.037740856 0.68238407
-0.011478881 -0.040176064 0.68553519
-0.011477916 -0.042085707 0.68551576
-0.011476906 -0.043994814 0.6854955
-0.01147752 -0.04591009 0.68550789
-0.011478574 -0.047827393 0.68552899
-0.011479627 -0.049745053 0.68555021
-0.011480725 -0.05166325 0.68557227
-0.011483448 -0.053589404 0.68562704
-0.011486874 -0.055519849 0.68569601
-0.011490304 -0.057451546 0.68576503
-0.011493867 -0.059384972 0.68583667
-0.011500031 -0.061333477 0.68596065
-0.011506289 -0.063284576 0.68608665
-0.011512644 -0.065238327 0.68621439
-0.011521215 -0.067207098 0.68638682
-0.011530861 -0.069185138 0.68658096
-0.011541545 -0.071172863 0.68679589
-0.011554782 -0.073180288 0.6870622
-0.011568942 -0.075198114 0.68734705
-0.011586355 -0.077242345 0.68769741
-0.011606557 -0.07931146 0.68810385
-0.011630704 -0.081414908 0.68858957
-0.011659704 -0.083561182 0.68917304
-0.011699189 -0.085794047 0.68996745
-0.011753786 -0.088153392 0.69106585
-0.010109809 0.090988278 0.69867033
-0.010093575 0.088823467 0.69827831
-0.010078449 0.08667469 0.69791323
-0.010063449 0.084533006 0.69755107
-0.010048454 0.082397342 0.69718903
-0.010033502 0.080268025 0.69682807
-0.010018595 0.078145027 0.69646823
-0.010003733 0.076028377 0.69610935
-0.0099898716 0.073925078 0.69577473
-0.0099761682 0.071828395 0.69544393
-0.0099624619 0.069737256 0.695113
-0.0099488338 0.067652076 0.69478405
-0.0099352039 0.065572381 0.69445497
-0.0099216495 0.063498527 0.69412774
-0.0099087609 0.061434329 0.69381654
-0.009896257 0.059377581 0.6935147
-0.0098838238 0.057326198 0.69321454
-0.0098713832 0.055279762 0.69291419
-0.0098590124 0.05323869 0.69261557
-0.0098466342 0.051202536 0.69231671
-0.0098345969 0.049172968 0.69202614
-0.0098233204 0.047151983 0.69175386
-0.0098120328 0.045135379 0.69148129
-0.0098008085 0.043123543 0.69121039
-0.0097895712 0.041116208 0.69093907
-0.0097783599 0.039113462 0.6906684
-0.0097671747 0.037115246 0.6903984
-0.0097567383 0.035124302 0.69014645
-0.009746627 0.033138543 0.68990231
-0.009736537 0.031156927 0.6896587
-0.0097264685 0.029179424 0.68941563
-0.0097164195 0.027205974 0.68917298
-0.0097063929 0.025236607 0.68893099
-0.0096964231 0.023271441 0.68869025
-0.0096874498 0.021312386 0.68847364
-0.0096784923 0.019356996 0.6882574
-0.0096695516 0.017405212 0.68804157
-0.0096606277 0.015457034 0.68782616
-0.0096517205 0.013512403 0.6876111
-0.0096427919 0.011571348 0.68739551
-0.0096343998 0.0096344054 0.68719292
-0.0096265776 0.0077012777 0.68700409
-0.0096187685 0.0057712495 0.68681556
-0.0096109705 0.0038444102 0.68662733
-0.0096031874 0.0019206703 0.68643934
-0.0095954519 -0 0.68625259
-0.009587693 -0.001917541 0.68606532
-0.0095809735 -0.0038323998 0.68590313
-0.0095743369 -0.0057445765 0.68574286
-0.0095677096 -0.0076541603 0.68558288
-0.0095610907 -0.0095610917 0.68542308
-0.0095544821 -0.011465341 0.68526351
-0.0095478455 -0.013366967 0.68510336
-0.0095419465 -0.015267134 0.6849609
-0.0095364908 -0.017165661 0.68482918
-0.009531077 -0.019062132 0.68469846
-0.0095256334 -0.020956367 0.68456709
-0.0095202327 -0.022848547 0.68443668
-0.0095148375 -0.02473861 0.68430644
-0.0095093045 -0.02662605 0.68417281
-0.0095029827 -0.028508961 0.68402022
-0.0094955172 -0.030385643 0.68383998
-0.0094867675 -0.032254994 0.68362874
-0.0094762752 -0.034114599 0.68337548
-0.0094657699 -0.035969943 0.6831218
-0.0094534289 -0.037813723 0.68282396
-0.0094980402 -0.039891779 0.68390089
-0.0094957696 -0.041781366 0.68384612
-0.0094934991 -0.043670088 0.68379122
-0.0094912667 -0.045558065 0.6837374
-0.0094889989 -0.047444969 0.68368256
-0.0094871987 -0.049333423 0.68363917
-0.0094863726 -0.051226407 0.6836192
-0.0094855446 -0.053119034 0.68359917
-0.009484753 -0.055011541 0.6835801
-0.0094840704 -0.056904405 0.68356359
-0.0094845742 -0.058804363 0.68357575
-0.0094854366 -0.060706824 0.68359661
-0.0094863363 -0.062609792 0.68361831
-0.009487235 -0.064513177 0.68364
-0.0094895028 -0.066426516 0.68369478
-0.0094923107 -0.068344653 0.68376255
-0.0094951205 -0.070263892 0.68383038
-0.0094980765 -0.072185367 0.68390179
-0.009503128 -0.074124396 0.68402374
-0.0095082205 -0.076065749 0.6841467
-0.0095133549 -0.078009531 0.68427062
-0.0095206313 -0.079973295 0.68444633
-0.0095285727 -0.081945732 0.68463808
-0.0095366361 -0.083922356 0.68483269
-0.0095479917 -0.085931927 0.68510681
-0.0095595568 -0.08794789 0.68538606
-0.0081035662 0.091165125 0.69914472
-0.0080895796 0.088985384 0.6987226
-0.0080761956 0.086819112 0.69831872
-0.0080632465 0.084664077 0.69792795
-0.0080503384 0.082515925 0.69753838
-0.0080375038 0.080375046 0.69715106
-0.0080246776 0.078240603 0.69676399
-0.0080118924 0.076112986 0.69637817
-0.0079997238 0.073997468 0.69601095
-0.0079878783 0.07189092 0.6956535
-0.0079760682 0.069790632 0.69529706
-0.0079642925 0.067696482 0.69494176
-0.0079525532 0.065608531 0.69458747
-0.0079408465 0.063526779 0.69423413
-0.0079296464 0.061454773 0.69389617
-0.0079188533 0.059391409 0.69357049
-0.0079080593 0.05733344 0.6932447
-0.0078972932 0.055281073 0.69291985
-0.0078865886 0.053234488 0.69259679
-0.0078758821 0.051193237 0.69227368
-0.0078654196 0.049158901 0.69195795
-0.0078555718 0.047133446 0.69166076
-0.0078457799 0.045113266 0.69136524
-0.0078359805 0.043097883 0.6910696
-0.0078262063 0.041087598 0.69077456
-0.0078164861 0.039082438 0.69048119
-0.0078067607 0.037082136 0.69018775
-0.0077977269 0.035089791 0.68991518
-0.0077888658 0.033102661 0.68964773
-0.007779995 0.031120002 0.68938005
-0.007771174 0.029141903 0.68911386
-0.0077623432 0.027168185 0.6888473
-0.0077535324 0.025198966 0.68858147
-0.0077448911 0.023234695 0.6883207
-0.0077369274 0.021276504 0.68808037
-0.0077289497 0.019322395 0.68783963
-0.0077210185 0.01737231 0.68760026
-0.0077131041 0.015426219 0.68736148
-0.0077052051 0.013484091 0.68712306
-0.0076973224 0.011545956 0.68688518
-0.0076898406 0.0096123219 0.6866594
-0.0076827859 0.0076828003 0.68644643
-0.0076757437 0.0057568252 0.686234
-0.007668714 0.0038343966 0.6860218
-0.0076616686 0.0019154251 0.68580925
-0.0076546655 -0 0.6855979
-0.007647675 -0.0019119084 0.6853869
-0.0076413676 -0.0038207173 0.68519664
-0.0076352172 -0.0057264268 0.68501103
-0.0076290765 -0.0076290667 0.68482566
-0.0076229451 -0.0095286667 0.68464059
-0.007616824 -0.011425227 0.68445599
-0.0076107127 -0.013318747 0.68427151
-0.0076048421 -0.015209675 0.68409431
-0.007599616 -0.017099112 0.6839366
-0.0075943964 -0.018985987 0.68377918
-0.0075891837 -0.020870239 0.68362176
-0.0075839786 -0.022751957 0.68346477
-0.007578752 -0.024630934 0.68330699
-0.0075735613 -0.026507437 0.68315041
-0.0075691505 -0.028384298 0.68301719
-0.007564859 -0.03025946 0.68288779
-0.007560601 -0.032132566 0.68275923
-0.0075563197 -0.034003437 0.68263006
-0.007552071 -0.03587231 0.68250179
-0.0075478274 -0.037739128 0.68237376
-0.0075557772 -0.039667815 0.68261361
-0.0075522419 -0.041537315 0.68250698
-0.0075488235 -0.043405741 0.68240386
-0.0075460058 -0.045276016 0.68231881
-0.0075432188 -0.047145128 0.68223464
-0.0075404341 -0.04901281 0.6821506
-0.0075376788 -0.050879359 0.68206751
-0.0075350683 -0.052745461 0.68198872
-0.0075332532 -0.054616123 0.681934
-0.0075314674 -0.056486011 0.68188006
-0.0075296825 -0.058355033 0.68182617
-0.007528096 -0.060224771 0.68177831
-0.007526624 -0.062094659 0.68173397
-0.007525973 -0.063970774 0.68171424
-0.0075253509 -0.065846831 0.68169552
-0.007524841 -0.067723572 0.68168008
-0.007524332 -0.069600075 0.68166476
-0.0075246994 -0.071484625 0.68167579
-0.0075253788 -0.073372424 0.6816963
-0.0075261146 -0.075261146 0.68171853
-0.0075268508 -0.077150226 0.6817407
-0.0075286343 -0.079050675 0.68179458
-0.0075308438 -0.080956593 0.68186122
-0.0075330548 -0.082863599 0.68192798
-0.0075354371 -0.08477366 0.68199986
-0.0075394115 -0.086703226 0.68211979
-0.0075986348 -0.089283928 0.68390697
-0.0060944292 0.091416448 0.69981879
-0.0060831425 0.089219451 0.69936466
-0.0060719214 0.087030888 0.69891316
-0.006061452 0.084860295 0.69849193
-0.006051043 0.0826976 0.69807309
-0.0060406448 0.080541968 0.69765466
-0.0060303076 0.078394026 0.69723874
-0.0060199802 0.076253116 0.69682324
-0.0060099061 0.074122161 0.69641787
-0.0060003446 0.07200411 0.69603312
-0.0059908135 0.069892824 0.69564962
-0.0059813121 0.067788184 0.69526732
-0.0059718657 0.065690517 0.69488722
-0.005962424 0.063599199 0.69450736
-0.0059532253 0.061516672 0.69413722
-0.0059444797 0.059444785 0.69378531
-0.0059357584 0.057379037 0.69343442
-0.0059270859 0.055319488 0.69308543
-0.0059184167 0.053265721 0.69273663
-0.0059097717 0.051218033 0.69238877
-0.0059012449 0.049177021 0.69204569
-0.0058932747 0.047146201 0.69172502
-0.0058853268 0.045120835 0.69140518
-0.0058773765 0.043100774 0.69108528
-0.005869471 0.041086316 0.69076723
-0.0058615636 0.039077103 0.69044906
-0.0058537 0.037073463 0.69013262
-0.005846336 0.035078049 0.68983632
-0.0058390815 0.033088148 0.68954444
-0.0058318446 0.031103164 0.68925321
-0.0058246264 0.029123127 0.68896282
-0.0058174483 0.027148128 0.68867397
-0.0058102645 0.025177807 0.68838495
-0.0058033234 0.023213267 0.6881057
-0.0057967575 0.021254778 0.68784142
-0.0057902285 0.019300759 0.68757874
-0.0057836911 0.017351091 0.6873157
-0.0057771695 0.015405804 0.68705326
-0.0057706838 0.013464928 0.68679231
-0.0057641915 0.011528403 0.68653107
-0.0057580881 0.0095967948 0.6862855
-0.0057522189 0.0076696277 0.68604934
-0.0057463613 0.0057463646 0.68581367
-0.0057405164 0.0038270056 0.68557841
-0.0057346825 0.0019115806 0.68534368
-0.0057288609 2.9802322e-08 0.6851095
-0.0057230503 -0.0019077063 0.68487573
-0.005717753 -0.0038118064 0.68466258
-0.0057125529 -0.005712539 0.68445331
-0.0057073613 -0.0076097846 0.68424439
-0.0057021803 -0.0095036626 0.68403596
-0.0056970073 -0.011394024 0.68382782
-0.005691845 -0.013280988 0.6836201
-0.0056867991 -0.015164793 0.68341702
-0.0056822565 -0.017046779 0.68323427
-0.0056777219 -0.018925756 0.68305176
-0.0056731943 -0.020801693 0.68286961
-0.0056686732 -0.02267471 0.68268776
-0.00566416 -0.024544686 0.68250614
-0.0056596538 -0.026411712 0.68232483
-0.0056555169 -0.028277576 0.68215835
-0.0056516626 -0.030142218 0.68200332
-0.0056478144 -0.032004267 0.68184847
-0.0056439494 -0.033863693 0.6816929
-0.0056401109 -0.035720736 0.68153852
-0.0056362776 -0.037575215 0.68138421
-0.0056409589 -0.039486706 0.68157262
-0.0056378017 -0.041343898 0.6814456
-0.0056346273 -0.043198824 0.68131781
-0.0056314571 -0.045051634 0.68119025
-0.0056282892 -0.046902418 0.68106282
-0.0056251469 -0.048751265 0.68093634
-0.0056223236 -0.050600886 0.68082273
-0.0056197345 -0.052450895 0.6807186
-0.0056171478 -0.054299116 0.68061453
-0.0056145843 -0.056145847 0.68051136
-0.0056125061 -0.057995915 0.68042779
-0.0056104506 -0.059844792 0.68034506
-0.0056084171 -0.061692566 0.68026316
-0.0056065111 -0.063540459 0.68018651
-0.0056045852 -0.065386832 0.68010902
-0.0056031835 -0.067238212 0.68005264
-0.0056018871 -0.069089919 0.68000042
-0.0056006955 -0.070942134 0.6799525
-0.0055995258 -0.072793841 0.67990547
-0.0055984189 -0.074645579 0.67986083
-0.0055979597 -0.076505467 0.67984241
-0.005597563 -0.078365877 0.6798265
-0.0055971872 -0.080226347 0.6798113
-0.0055968114 -0.082086563 0.67979622
-0.0055970829 -0.083956257 0.67980719
-0.0055976254 -0.085830241 0.679829
-0.0056211445 -0.088064596 0.68077528
-0.0040778033 0.091750592 0.70071518
-0.0040696776 0.089532882 0.7002247
-0.0040615839 0.087324083 0.69973618
-0.004053703 0.085127771 0.69926059
-0.0040462129 0.082947344 0.69880849
-0.0040387497 0.080774993 0.69835806
-0.0040313145 0.078610659 0.6979093
-0.0040239068 0.076454252 0.6974622
-0.004016526 0.074305743 0.69701666
-0.0040095574 0.072172076 0.69659615
-0.0040027257 0.070047736 0.6961838
-0.003995901 0.067930281 0.69577187
-0.0039890995 0.065820158 0.69536138
-0.0039823367 0.063717365 0.6949532
-0.0039755972 0.061621785 0.69454646
-0.003969321 0.059539855 0.69416761
-0.0039630644 0.057464451 0.69379002
-0.0039568283 0.055395573 0.69341362
-0.0039506266 0.053333461 0.69303936
-0.0039444291 0.051277608 0.69266528
-0.0039382661 0.049228311 0.69229335
-0.0039325245 0.047190279 0.69194674
-0.0039267996 0.045158207 0.69160122
-0.0039210916 0.043132007 0.69125676
-0.0039153998 0.041111708 0.6909132
-0.0039097243 0.03909725 0.69057065
-0.0039040654 0.037088662 0.69022912
-0.0038987573 0.035088837 0.68990874
-0.0038935239 0.033094943 0.68959296
-0.0038883197 0.031106561 0.68927878
-0.0038831295 0.029123455 0.68896556
-0.003877938 0.027145565 0.68865222
-0.0038727755 0.025173008 0.68834054
-0.0038677757 0.023206651 0.68803883
-0.0038630131 0.021246612 0.68775135
-0.003858262 0.019291341 0.68746459
-0.0038535225 0.017340839 0.68717861
-0.0038488095 0.015395284 0.68689412
-0.0038440931 0.013454318 0.68660945
-0.0038393883 0.01151818 0.68632549
-0.0038350478 0.0095876157 0.68606353
-0.0038307465 0.0076614618 0.68580389
-0.0038264694 0.0057397485 0.68554574
-0.0038221872 0.0038222075 0.68528736
-0.0038179145 0.001908958 0.68502945
-0.0038136658 -0 0.68477303
-0.0038094558 -0.001904726 0.68451893
-0.0038056024 -0.0038056076 0.68428636
-0.0038017565 -0.0057026148 0.68405426
-0.0037979041 -0.0075958073 0.68382168
-0.0037940741 -0.0094851553 0.68359053
-0.0037902514 -0.011370778 0.68335986
-0.0037864367 -0.013252527 0.68312961
-0.0037827441 -0.015130997 0.68290669
-0.0037793296 -0.017006993 0.68270063
-0.0037759214 -0.018879592 0.68249494
-0.0037725195 -0.020748824 0.6822896
-0.0037691235 -0.022614747 0.68208468
-0.0037657337 -0.024477273 0.68188012
-0.0037623497 -0.026336461 0.68167585
-0.0037591842 -0.028193891 0.6814847
-0.0037562069 -0.030049652 0.68130505
-0.0037532344 -0.031902492 0.68112564
-0.0037502665 -0.033752382 0.68094647
-0.0037473033 -0.035599351 0.68076766
-0.0037443449 -0.037443429 0.68058914
-0.0037467279 -0.039340645 0.68073297
-0.003744191 -0.041186064 0.68057978
-0.0037416429 -0.043028891 0.68042606
-0.0037391125 -0.044869363 0.68027335
-0.0037365714 -0.046707153 0.68011999
-0.0037340478 -0.048542619 0.67996764
-0.0037315695 -0.050376147 0.67981803
-0.0037294 -0.052211583 0.67968708
-0.0037273024 -0.054045886 0.67956054
-0.0037252214 -0.055878341 0.67943496
-0.0037231422 -0.05770871 0.67930949
-0.0037210656 -0.059537023 0.67918408
-0.003719019 -0.061363786 0.67906058
-0.0037173198 -0.063194454 0.678958
-0.003715622 -0.065023392 0.6788556
-0.0037139396 -0.06685093 0.67875403
-0.0037122453 -0.068676561 0.67865175
-0.0037108548 -0.070506215 0.67856783
-0.0037095204 -0.07233566 0.6784873
-0.0037082697 -0.074165389 0.67841184
-0.0037070196 -0.075993896 0.67833638
-0.0037057565 -0.077820897 0.67826009
-0.0037048238 -0.079653695 0.67820382
-0.0037040419 -0.081488937 0.67815661
-0.0037032745 -0.083323672 0.6781103
-0.0037024936 -0.08515735 0.67806315
-0.003712741 -0.087249398 0.67868167
-0.0020484258 0.092179179 0.70186484
-0.0020440242 0.089937091 0.70133346
-0.0020396498 0.087704957 0.70080543
-0.0020352858 0.085482001 0.70027864
-0.0020310476 0.083272934 0.69976711
-0.0020270159 0.081080616 0.69928038
-0.0020230082 0.078897357 0.69879663
-0.0020190084 0.076722294 0.69831377
-0.0020150242 0.074555904 0.69783282
-0.0020110961 0.072399437 0.69735873
-0.002007409 0.070259303 0.6969136
-0.0020037352 0.068127006 0.69647014
-0.0020000748 0.066002488 0.69602835
-0.0019964278 0.063885689 0.69558805
-0.001992794 0.061776638 0.69514942
-0.001989316 0.059679478 0.69472963
-0.0019859446 0.057592362 0.69432265
-0.0019825923 0.055512577 0.69391799
-0.0019792435 0.053439617 0.69351375
-0.0019759061 0.051373571 0.69311088
-0.0019725875 0.049314708 0.69271028
-0.0019694432 0.047266662 0.69233072
-0.0019663628 0.045226336 0.6919589
-0.001963292 0.043192387 0.69158822
-0.0019602308 0.041164815 0.69121873
-0.0019571867 0.039143771 0.69085127
-0.0019541446 0.037128776 0.69048405
-0.0019512563 0.035122633 0.69013536
-0.0019484373 0.033123434 0.68979508
-0.0019456263 0.031130046 0.68945575
-0.0019428236 0.02914235 0.68911749
-0.0019400365 0.027160525 0.68878102
-0.0019372498 0.025184244 0.68844473
-0.0019345534 0.023214638 0.68811917
-0.0019319839 0.021251798 0.68780899
-0.001929421 0.019294232 0.68749964
-0.0019268652 0.017341793 0.68719113
-0.0019243085 0.015394449 0.6868825
-0.001921766 0.013452351 0.68657559
-0.0019192229 0.011515319 0.68626863
-0.0019168775 0.0095843971 0.68598551
-0.0019145377 0.0076581538 0.6857031
-0.0019122037 0.0057366192 0.68542135
-0.0019098754 0.0038197637 0.68514025
-0.0019075599 0.0019075572 0.68486077
-0.0019052429 2.9802322e-08 0.68458104
-0.001903011 -0.0019029975 0.68431169
-0.0019008999 -0.0038017929 0.68405688
-0.0018987863 -0.0056963563 0.68380177
-0.0018966846 -0.0075867474 0.68354803
-0.0018945804 -0.0094728768 0.683294
-0.0018924808 -0.011354893 0.68304056
-0.001890393 -0.013232738 0.68278855
-0.0018884097 -0.015107244 0.68254912
-0.0018865156 -0.016978621 0.68232054
-0.0018846255 -0.018846273 0.68209243
-0.0018827394 -0.020710111 0.68186468
-0.0018808567 -0.022570282 0.68163741
-0.001878971 -0.024426639 0.68140984
-0.0018770959 -0.02627933 0.68118346
-0.0018753653 -0.028130472 0.68097448
-0.0018736867 -0.029978961 0.68077195
-0.0018720113 -0.031824172 0.68056965
-0.0018703319 -0.033665985 0.68036693
-0.0018686625 -0.03550458 0.68016541
-0.0018687043 -0.037374079 0.68017048
-0.001867909 -0.039226085 0.68007445
-0.0018664389 -0.04106161 0.67989707
-0.001864971 -0.042894304 0.67971981
-0.0018634985 -0.044723988 0.67954212
-0.0018620354 -0.0465509 0.67936552
-0.0018605675 -0.048374742 0.67918825
-0.0018591502 -0.050197065 0.67901719
-0.0018577835 -0.052017927 0.6788522
-0.0018565358 -0.053839564 0.67870164
-0.0018552829 -0.055658489 0.67855036
-0.0018540387 -0.05747515 0.67840016
-0.0018528028 -0.059289664 0.67825103
-0.0018515824 -0.061102211 0.67810369
-0.0018503636 -0.062912375 0.67795658
-0.0018493308 -0.064726591 0.67783189
-0.0018482994 -0.066538781 0.67770743
-0.0018472689 -0.068348944 0.67758298
-0.0018462465 -0.070157379 0.67745966
-0.0018452252 -0.071963787 0.67733628
-0.0018442936 -0.073771775 0.6772238
-0.0018434646 -0.075582057 0.67712379
-0.0018426295 -0.077390447 0.67702293
-0.0018418022 -0.079197526 0.67692316
-0.0018409753 -0.081002951 0.67682332
-0.0018402847 -0.082812816 0.67673999
-0.0018396622 -0.084624439 0.67666477
-0.0018433696 -0.086638361 0.67711228
0 0.09244141 0.70256829
0 0.090263039 0.70222771
0 0.088077635 0.70185161
0 0.085885167 0.70143735
0 0.083678514 0.70096111
0 0.081471086 0.70045865
0 0.079264611 0.69993335
0 0.077067494 0.69941032
0 0.074880064 0.69889045
0 0.072701573 0.69837183
0 0.070534647 0.69786322
0 0.068384409 0.69738406
0 0.066242874 0.69690782
0 0.064109504 0.69643235
0 0.061984479 0.69595885
0 0.059868008 0.6954881
0 0.057766616 0.69504797
0 0.055673629 0.69461221
0 0.053587973 0.69417715
0 0.051509678 0.69374263
0 0.049439043 0.69331074
0 0.047378153 0.69289166
0 0.045327663 0.69249088
0 0.043284148 0.69209146
0 0.041247606 0.69169432
0 0.039217651 0.69129753
0 0.03719452 0.69090211
0 0.035180211 0.69052184
0 0.033174217 0.69015563
0 0.031174392 0.68979049
0 0.029180765 0.6894266
0 0.027193427 0.68906462
0 0.025212079 0.688703
0 0.023237765 0.68835145
0 0.021270782 0.68801725
0 0.019309402 0.68768299
0 0.017353624 0.6873498
0 0.01540342 0.68701744
0 0.013458818 0.6866861
0 0.01151973 0.6863575
0 0.0095871389 0.68605202
0 0.0076596141 0.68574643
0 0.0057371557 0.68544245
0 0.0038197339 0.68513942
0 0.0019073486 0.68483615
0 2.9802322e-08 0.68453467
0 -0.0019024611 0.68424618
0 -0.0038003325 0.68396795
0 -0.0056935549 0.68369043
0 -0.0075822771 0.68341362
0 -0.0094664097 0.68313825
0 -0.011346042 0.68286276
0 -0.013221115 0.68258786
0 -0.015093118 0.68233514
0 -0.016961068 0.68208462
0 -0.018824846 0.68183386
0 -0.02068454 0.6815837
0 -0.022540182 0.68133479
0 -0.024391741 0.68108571
0 -0.026239336 0.68083882
0 -0.028085649 0.68061364
0 -0.029928237 0.68038887
0 -0.031767011 0.68016374
0 -0.033602268 0.67993993
0 -0.035433888 0.67971647
0 -0.037311375 0.67979205
0 -0.039140016 0.67957979
0 -0.040967196 0.67937887
0 -0.042791158 0.67917824
0 -0.044611812 0.67897803
0 -0.046429247 0.67877817
0 -0.048243642 0.67857945
0 -0.050055504 0.67838442
0 -0.051865965 0.67819715
0 -0.053676009 0.67802095
0 -0.055483401 0.67784595
0 -0.0572882 0.67767197
0 -0.059090137 0.67749822
0 -0.060890853 0.67733055
0 -0.062689334 0.67716479
0 -0.064486086 0.67700255
0 -0.066284388 0.67685437
0 -0.068080008 0.67670566
0 -0.069873989 0.67655951
0 -0.071665913 0.67641443
0 -0.073455498 0.67626953
0 -0.07524465 0.67613041
0 -0.07703723 0.67600781
0 -0.078827798 0.67588532
0 -0.080616415 0.67576295
0 -0.082403064 0.67564076
0 -0.084187701 0.67551875
0 -0.086169481 0.67590803
0.0020502219 0.092260003 0.70208156
0.0020482498 0.090122998 0.7018435
0.0020462812 0.087990105 0.70160592
0.0020443248 0.085861623 0.70136976
0.0020425639 0.083745122 0.70115721
0.002040473 0.081618935 0.70090479
0.0020380463 0.079483807 0.70061189
0.0020352693 0.077340245 0.70027661
0.0020322436 0.075193018 0.69991148
0.0020288732 0.073039442 0.69950455
0.0020250469 0.070876658 0.69904268
0.0020209572 0.068712592 0.69854909
0.0020166729 0.066550225 0.69803184
0.0020124146 0.064397275 0.69751787
0.0020081664 0.062253177 0.69700503
0.0020039359 0.060118079 0.69649434
0.001999747 0.057992667 0.69598877
0.0019958464 0.055883735 0.6955179
0.0019919532 0.053782731 0.69504797
0.001988075 0.051689982 0.69457984
0.0019842118 0.04960531 0.69411349
0.0019803715 0.047528923 0.69364995
0.0019767412 0.045465052 0.69321173
0.0019731789 0.043409944 0.69278169
0.0019696292 0.041362226 0.69235325
0.0019660923 0.03932187 0.69192624
0.0019625681 0.037288785 0.69150084
0.0019590873 0.035263598 0.69108063
0.0019558249 0.033249021 0.69068688
0.001952566 0.031241089 0.69029349
0.0019493178 0.029239804 0.68990141
0.001946088 0.027245253 0.68951154
0.0019428614 0.0252572 0.68912202
0.001939698 0.023276418 0.68874019
0.0019367099 0.021303803 0.68837947
0.0019337309 0.019337326 0.68801987
0.0019307613 0.01737684 0.68766141
0.0019278079 0.015422463 0.68730497
0.0019248563 0.013474017 0.6869486
0.0019219284 0.011531591 0.6865952
0.0019191935 0.00959602 0.68626505
0.0019164663 0.0076658726 0.68593585
0.0019137468 0.0057412386 0.68560767
0.0019110352 0.0038220584 0.68528032
0.0019083311 0.0019083321 0.68495387
0.0019056419 -0 0.68462926
0.0019030834 -0.0019030869 0.68432039
0.0019005967 -0.0038011968 0.68402016
0.0018981164 -0.0056943297 0.68372089
0.0018956355 -0.0075825155 0.68342137
0.0018931682 -0.0094658136 0.68312359
0.0018907073 -0.011344254 0.68282652
0.0018882742 -0.013217926 0.68253279
0.0018860038 -0.015088022 0.68225873
0.0018837388 -0.016953647 0.68198526
0.0018814863 -0.018814832 0.6817134
0.001879232 -0.020671517 0.68144125
0.0018769833 -0.022523791 0.68116987
0.0018747398 -0.024371654 0.68089908
0.0018725928 -0.026216328 0.68063986
0.0018705416 -0.028058141 0.68039232
0.001868502 -0.029896021 0.68014604
0.0018664598 -0.031729788 0.67989957
0.001864422 -0.033559591 0.67965358
0.0018623958 -0.035385549 0.67940897
0.0018628187 -0.03725636 0.67946005
0.0018609134 -0.039079189 0.67923009
0.0018590742 -0.040899634 0.67900807
0.0018572387 -0.042716503 0.67878646
0.0018553999 -0.044529617 0.67856449
0.0018535716 -0.046339273 0.67834383
0.0018517469 -0.048145384 0.67812353
0.0018499667 -0.04994911 0.67790866
0.0018482585 -0.051751256 0.67770249
0.0018466009 -0.053551406 0.67750239
0.0018449668 -0.055348992 0.67730504
0.0018433355 -0.05714339 0.67710817
0.0018417139 -0.058934838 0.67691249
0.0018401358 -0.060724527 0.67672199
0.0018386076 -0.062512666 0.67653751
0.0018370752 -0.064297616 0.6763525
0.0018356127 -0.06608206 0.67617595
0.0018341863 -0.067864865 0.67600375
0.0018327753 -0.069645464 0.67583346
0.0018314202 -0.071425378 0.67566991
0.0018300673 -0.073202685 0.67550653
0.0018287094 -0.074977085 0.67534268
0.001827387 -0.076750278 0.67518306
0.0018261799 -0.078525737 0.67503726
0.0018249942 -0.080299735 0.67489421
0.0018238102 -0.082071483 0.67475128
0.0018226276 -0.083840847 0.67460859
0.0018255003 -0.085798517 0.67495537
0.0041035381 0.092329621 0.70226836
0.0040963991 0.090120763 0.70183748
0.0040892847 0.087919652 0.70140809
0.0040836609 0.085756898 0.70106864
0.0040782187 0.083603501 0.70074016
0.0040727914 0.081455827 0.70041257
0.0040680561 0.079327077 0.70012683
0.0040641739 0.077219307 0.69989252
0.0040602987 0.075115532 0.69965863
0.0040564309 0.073015749 0.69942516
0.0040529971 0.070927471 0.69921792
0.0040488974 0.068831265 0.69897056
0.0040442012 0.066729337 0.69868708
0.0040387339 0.06461975 0.69835711
0.0040328582 0.062509269 0.69800246
0.0040262053 0.060393095 0.69760096
0.0040188162 0.058272839 0.69715488
0.004010763 0.056150675 0.69666886
0.0040023415 0.05403164 0.69616055
0.0039939391 0.051921189 0.69565344
0.0039855721 0.049819618 0.69514853
0.0039772405 0.04772687 0.69464564
0.0039689429 0.045642883 0.69414479
0.0039612292 0.043573529 0.69367921
0.0039535607 0.0415124 0.69321644
0.003945922 0.039459229 0.69275534
0.003938328 0.037414134 0.69229704
0.0039307484 0.035376757 0.69183958
0.0039235051 0.033349812 0.69140238
0.0039164876 0.031331897 0.69097888
0.0039094952 0.029321194 0.69055682
0.0039025277 0.027317733 0.69013631
0.0038955852 0.025321275 0.68971729
0.0038886671 0.023332 0.68929976
0.0038822105 0.021352112 0.68891007
0.0038757902 0.01937896 0.68852252
0.003869391 0.017412275 0.68813634
0.0038630278 0.015452147 0.68775225
0.0038566708 0.013498336 0.68736863
0.0038503346 0.011550993 0.68698621
0.0038444328 0.0096111 0.68662995
0.0038385638 0.007677108 0.68627572
0.0038327125 0.0057490468 0.68592262
0.003826879 0.0038268864 0.68557048
0.0038210778 0.0019105077 0.68522036
0.0038152798 -0 0.68487042
0.0038097894 -0.0019049048 0.68453908
0.0038044159 -0.0038044155 0.68421477
0.003799072 -0.0056986213 0.68389219
0.0037937285 -0.0075874329 0.68356973
0.0037884004 -0.0094709694 0.6832481
0.0037830872 -0.011349231 0.68292743
0.003777917 -0.013222694 0.6826154
0.0037730173 -0.015092075 0.6823197
0.003768116 -0.016956508 0.68202376
0.0037632412 -0.018816203 0.68172967
0.0037583795 -0.020671099 0.68143624
0.0037535159 -0.022521079 0.68114263
0.0037486788 -0.024366438 0.68085074
0.0037441067 -0.026208729 0.68057472
0.0037396431 -0.028047353 0.68030536
0.0037352045 -0.029881626 0.68003744
0.0037307625 -0.031711489 0.6797694
0.0037263311 -0.033536971 0.67950189
0.0037219098 -0.035358131 0.67923504
0.0037224358 -0.037224382 0.67926681
0.0037183834 -0.039043009 0.67902219
0.0037143396 -0.040857732 0.67877811
0.0037103046 -0.042668492 0.67853463
0.0037062783 -0.044475317 0.67829162
0.0037022606 -0.046278268 0.67804909
0.0036982517 -0.048077226 0.67780709
0.0036943743 -0.049874038 0.67757314
0.0036906684 -0.051669359 0.67734945
0.0036870241 -0.05346182 0.67712951
0.0036834006 -0.055251002 0.67691082
0.0036797978 -0.057036877 0.67669344
0.0036762019 -0.058819205 0.67647636
0.0036726806 -0.060599208 0.67626381
0.0036693141 -0.062378347 0.67606056
0.0036659669 -0.064154446 0.67585862
0.003662626 -0.065927267 0.67565697
0.0036594116 -0.067699134 0.67546296
0.0036562027 -0.069467813 0.67526925
0.0036531331 -0.071236074 0.67508399
0.0036501084 -0.07300216 0.67490143
0.003647102 -0.074765608 0.67471999
0.0036441004 -0.07652612 0.67453885
0.0036411434 -0.078284562 0.67436039
0.0036384033 -0.080044881 0.67419493
0.0036357332 -0.081804007 0.67403382
0.0036330535 -0.083560228 0.67387211
0.0036391707 -0.085520521 0.6742413
0.0061952421 0.092928648 0.70387518
0.0061766836 0.090591341 0.70312846
0.0061582108 0.088267684 0.70238519
0.0061440701 0.086016983 0.7018162
0.0061303694 0.083781719 0.70126492
0.0061171791 0.08156237 0.7007342
0.0061066025 0.079385847 0.70030862
0.0060960627 0.077216834 0.69988453
0.0060855588 0.075055242 0.69946188
0.0060773049 0.072927624 0.69912982
0.00606927 0.070808142 0.69880652
0.0060612564 0.068694234 0.69848406
0.0060542645 0.066596895 0.69820273
0.0060485313 0.064517677 0.69797206
0.0060428092 0.062442362 0.69774181
0.0060370984 0.060370982 0.69751191
0.0060320524 0.058309853 0.69730896
0.0060260468 0.056243151 0.69706732
0.0060191597 0.054172426 0.69679022
0.0060111331 0.052096486 0.69646728
0.0060025519 0.050021261 0.69612193
0.0059927506 0.047942013 0.69572759
0.0059820036 0.045862049 0.69529516
0.0059701079 0.043780804 0.69481647
0.0059576915 0.04170382 0.69431692
0.0059452793 0.039635211 0.6938175
0.0059329434 0.037575334 0.69332111
0.0059206341 0.035523772 0.69282585
0.0059083528 0.033480704 0.69233167
0.0058968402 0.031449825 0.69186848
0.0058855112 0.029427558 0.69141257
0.0058742259 0.02741307 0.6909585
0.0058630062 0.025406361 0.69050705
0.0058518066 0.023407221 0.69005644
0.0058409679 0.021416903 0.68962032
0.005830599 0.019435316 0.68920308
0.0058202897 0.017460912 0.68878829
0.0058099949 0.015493333 0.68837404
0.0057997359 0.013532698 0.68796128
0.0057895137 0.011579037 0.68754995
0.005779794 0.0096330047 0.68715888
0.0057703289 0.0076937973 0.68677801
0.0057608727 0.0057608783 0.68639755
0.0057514478 0.0038343072 0.68601823
0.0057420754 0.0019140542 0.68564123
0.0057327109 -0 0.68526441
0.005723814 -0.0019079149 0.68490642
0.0057151411 -0.0038101077 0.68455744
0.0057064937 -0.0057065189 0.68420953
0.0056978939 -0.0075971782 0.68386352
0.0056892987 -0.0094821453 0.68351763
0.0056807296 -0.01136148 0.68317282
0.0056724437 -0.013235688 0.68283939
0.0056645018 -0.015105337 0.68251991
0.0056565828 -0.01696974 0.68220127
0.0056486856 -0.018828958 0.68188351
0.0056408104 -0.020682991 0.68156666
0.005632957 -0.022531867 0.68125063
0.0056251255 -0.024375528 0.6809355
0.0056178626 -0.026216686 0.6806432
0.0056106392 -0.028053194 0.68035263
0.0056034345 -0.029884994 0.68006271
0.005596227 -0.031711936 0.67977273
0.0055890591 -0.033534378 0.67948431
0.0055819098 -0.035352081 0.6791966
0.0055822423 -0.037214935 0.67920995
0.005575648 -0.039029568 0.67894465
0.0055690492 -0.040839702 0.67867917
0.0055624871 -0.042645723 0.67841512
0.0055559194 -0.044447333 0.67815083
0.0055493875 -0.046244889 0.67788804
0.0055428916 -0.048038423 0.67762667
0.0055366764 -0.049830079 0.67737657
0.0055306791 -0.051619619 0.67713523
0.0055246945 -0.053405374 0.67689443
0.0055187428 -0.055187434 0.67665499
0.0055128043 -0.056965649 0.6764161
0.0055068787 -0.05874002 0.67617762
0.0055010463 -0.0605115 0.6759429
0.0054955683 -0.062283099 0.67572248
0.0054901014 -0.064051181 0.67550254
0.0054846448 -0.065815717 0.67528301
0.0054792794 -0.067577779 0.67506713
0.0054739644 -0.069336921 0.67485327
0.0054687392 -0.071093589 0.67464298
0.0054637832 -0.072850421 0.6744436
0.0054588155 -0.074603841 0.67424369
0.0054538772 -0.076354265 0.67404497
0.0054489276 -0.078101292 0.67384583
0.0054440857 -0.079846576 0.67365104
0.0054395678 -0.081593499 0.67346919
0.0054351171 -0.083338454 0.67329013
0.0054456065 -0.085314497 0.67371225
0.0085693272 0.08997798 0.71320027
0.0085217124 0.087347537 0.71176338
0.0082292799 0.082292795 0.70293838
0.0081939381 0.079890907 0.70187187
0.008169556 0.077610761 0.70113611
0.0081453184 0.075344175 0.70040464
0.008127192 0.073144734 0.69985765
0.0081092129 0.070955604 0.69931507
0.0080920979 0.068782866 0.6987986
0.0080782175 0.066645354 0.69837964
0.0080643836 0.064515054 0.69796222
0.0080505973 0.062392116 0.69754624
0.008039861 0.060298949 0.69722223
0.0080293138 0.058212548 0.69690388
0.0080187945 0.056131572 0.69658643
0.0080095837 0.054064721 0.69630849
0.0080020586 0.052013397 0.6960814
0.0079945466 0.049965918 0.69585466
0.0079870494 0.047922313 0.69562846
0.0079804249 0.04588744 0.69542855
0.0079726055 0.043849349 0.69519258
0.0079636276 0.041809052 0.69492161
0.007953153 0.039765716 0.69460559
0.0079420442 0.037724674 0.69427031
0.0079292059 0.035681397 0.69388288
0.0079153143 0.033640116 0.69346368
0.0078996941 0.031598806 0.69299221
0.0078834202 0.029562831 0.69250119
0.0078671202 0.027534932 0.69200921
0.0078509189 0.025515467 0.69152033
0.007834754 0.023504257 0.69103253
0.0078186542 0.021501303 0.69054669
0.0078033516 0.019508392 0.69008487
0.0077884723 0.017524064 0.68963587
0.0077736792 0.015547335 0.68918943
0.0077589126 0.013578117 0.68874377
0.0077442015 0.01161629 0.68829989
0.007729786 0.0096622705 0.68786484
0.0077161966 0.0077162087 0.68745482
0.0077026254 0.0057769716 0.68704522
0.0076891016 0.0038445592 0.6866371
0.0076756254 0.0019189119 0.68623042
0.0076621971 -0 0.68582523
0.0076492536 -0.0019122958 0.68543458
0.0076367906 -0.0038183928 0.68505847
0.0076243975 -0.0057182908 0.68468446
0.0076120151 -0.0076120198 0.68431085
0.0075996732 -0.0094996095 0.68393838
0.0075874003 -0.01138109 0.683568
0.0075754821 -0.013257116 0.68320835
0.0075640874 -0.015128165 0.68286437
0.0075527551 -0.016993672 0.68252242
0.0075414288 -0.018853545 0.68218064
0.007530136 -0.020707875 0.68183988
0.0075188763 -0.022556633 0.68150014
0.0075077359 -0.024400145 0.68116391
0.0074973013 -0.026240528 0.68084902
0.0074868966 -0.028075874 0.68053502
0.0074765212 -0.029906064 0.68022192
0.0074662012 -0.031731337 0.67991048
0.0074558822 -0.033551455 0.67959911
0.007445592 -0.035366565 0.67928857
0.007445592 -0.037227958 0.67928857
0.0074360487 -0.039039254 0.67900056
0.0074265562 -0.04084605 0.6787141
0.0074170614 -0.042648107 0.67842758
0.0074075903 -0.044445544 0.67814171
0.0073981443 -0.046238422 0.67785668
0.0073888851 -0.048027784 0.67757726
0.0073800031 -0.049815059 0.67730927
0.0073713325 -0.051599324 0.67704755
0.0073627089 -0.053379625 0.67678726
0.0073540788 -0.055155575 0.6765269
0.0073455232 -0.0569278 0.6762687
0.0073370142 -0.058696121 0.67601192
0.0073285513 -0.060460538 0.67575657
0.0073206709 -0.06222567 0.67551869
0.0073127798 -0.063986838 0.67528063
0.0073049329 -0.0657444 0.67504376
0.0072971028 -0.067498177 0.67480749
0.0072893156 -0.069248497 0.67457247
0.0072815455 -0.070995063 0.67433798
0.0072742938 -0.072742939 0.67411917
0.0072671096 -0.07448785 0.67390239
0.0072599393 -0.076229379 0.67368603
0.0072528101 -0.077967703 0.6734708
0.0072456682 -0.079702348 0.67325532
0.0072387233 -0.081435621 0.67304569
0.0072322101 -0.083170444 0.67284918
0.0072487122 -0.08517237 0.67334718
0.010888726 0.084932059 0.71747506
0.010767535 0.081833303 0.71454918
0.010687635 0.079088509 0.71262026
0.010622471 0.076481789 0.71104705
0.010275868 0.071931064 0.70267934
0.010202865 0.069379479 0.70091689
0.010160723 0.067060769 0.69989949
0.010130729 0.064836681 0.69917536
0.0101014 0.062628686 0.69846731
0.01007918 0.060475051 0.69793081
0.010057017 0.058330685 0.6973958
0.010036199 0.05620271 0.69689322
0.010019117 0.054103255 0.69648081
0.010002093 0.052010864 0.69606978
0.0099851266 0.049925655 0.69566023
0.009971993 0.04786557 0.69534314
0.0099590123 0.045811474 0.69502974
0.009946065 0.043762714 0.69471717
0.0099347299 0.041725874 0.69444352
0.0099254679 0.039701909 0.69421989
0.0099162227 0.037681639 0.69399673
0.0099069951 0.035665184 0.69377393
0.0098988023 0.033655912 0.69357616
0.0098892935 0.031645715 0.69334656
0.0098783216 0.029634982 0.69308168
0.0098655438 0.027623534 0.69277322
0.0098519074 0.025614977 0.69244403
0.0098362211 0.023606926 0.69206536
0.0098193493 0.021602601 0.69165802
0.0098001938 0.019600391 0.69119555
0.0097801955 0.017604351 0.69071269
0.0097601637 0.015616268 0.69022912
0.0097401766 0.013636261 0.68974662
0.0097202705 0.011664331 0.68926603
0.0097004464 0.0097004771 0.68878734
0.0096814139 0.0077451468 0.68832791
0.0096631274 0.005797863 0.68788648
0.0096448744 0.0038579702 0.68744576
0.0096266884 0.0019253492 0.68700677
0.0096085714 5.9604645e-08 0.68656933
0.0095906332 -0.0019181073 0.68613625
0.009573861 -0.0038295388 0.68573135
0.0095571466 -0.0057342649 0.68532783
0.0095404908 -0.0076324046 0.68492573
0.00952393 -0.0095239282 0.68452597
0.0095073897 -0.011408865 0.68412656
0.009491194 -0.013287693 0.68373561
0.009475844 -0.015161365 0.68336505
0.0094605433 -0.017028958 0.68299562
0.0094453273 -0.018890649 0.68262827
0.0094301254 -0.020746261 0.68226129
0.0094149718 -0.022595912 0.68189549
0.009400079 -0.024440169 0.6815359
0.0093860431 -0.02628094 0.68119699
0.0093720481 -0.028116107 0.68085915
0.0093580959 -0.02994591 0.68052232
0.0093441848 -0.031770229 0.68018645
0.0093303155 -0.033589125 0.67985165
0.00931843 -0.035410017 0.67956471
0.0093158269 -0.037263304 0.67950189
0.0093029756 -0.039072484 0.67919165
0.0092901587 -0.040876716 0.67888218
0.0092773782 -0.042675942 0.67857361
0.0092646321 -0.044470221 0.67826587
0.0092519205 -0.046259612 0.67795908
0.0092395851 -0.048045874 0.67766124
0.0092276232 -0.049829155 0.67737246
0.0092158969 -0.051609039 0.67708939
0.0092041995 -0.053384364 0.67680693
0.0091925319 -0.055155218 0.67652529
0.0091810273 -0.056922376 0.67624754
0.0091696205 -0.058685541 0.6759721
0.0091582742 -0.060444623 0.67569828
0.0091475593 -0.062203407 0.67543954
0.0091369357 -0.063958526 0.67518306
0.0091263363 -0.065709591 0.67492718
0.0091157947 -0.067456901 0.67467266
0.0091053108 -0.069200337 0.67441952
0.0090948511 -0.070939809 0.67416704
0.0090848431 -0.072678745 0.6739254
0.009075122 -0.074416012 0.6736908
0.0090654539 -0.076149821 0.67345732
0.0090557737 -0.077879623 0.67322361
0.0090461466 -0.079606101 0.67299128
0.0090365084 -0.081328556 0.67275852
0.0090274103 -0.083052173 0.67253894
0.0090520708 -0.085089445 0.67313427
0.01294232 0.071182787 0.71497726
0.012807653 0.068307489 0.71226799
0.012716836 0.06570369 0.71044087
0.012641707 0.06320852 0.70892942
0.012223249 0.059079051 0.70051068
0.01214458 0.056674689 0.698928
0.012096381 0.054433733 0.69795823
0.012061003 0.052264333 0.69724655
0.012026939 0.050112247 0.69656122
0.012000689 0.048002779 0.69603312
0.011974505 0.045902252 0.69550639
0.011950197 0.043817401 0.69501728
0.011930014 0.04175505 0.69461131
0.0119099 0.039699674 0.6942066
0.011889854 0.037651211 0.69380331
0.011874428 0.035623282 0.69349295
0.01185909 0.033600777 0.69318438
0.01184379 0.031583458 0.69287658
0.011830396 0.029575974 0.69260705
0.011819451 0.027578741 0.69238687
0.011808525 0.025585175 0.6921671
0.011797666 0.023595303 0.69194865
0.011787892 0.021611154 0.69175196
0.011776749 0.019627899 0.69152778
0.011763873 0.017645836 0.6912688
0.011748957 0.015665293 0.69096863
0.011732887 0.013688356 0.69064534
0.011714481 0.011714488 0.69027507
0.011694677 0.009745568 0.68987668
0.011672306 0.0077815354 0.6894266
0.01164871 0.0058243573 0.68895185
0.011624984 0.0038749874 0.68847454
0.011601355 0.0019335449 0.68799919
0.011577821 -0 0.68752569
0.011554383 -0.0019257367 0.68705416
0.011531703 -0.0038438737 0.68659788
0.01151004 -0.0057550073 0.68616199
0.011488457 -0.0076589584 0.68572783
0.011466955 -0.0095557868 0.68529522
0.011445533 -0.011445552 0.68486434
0.011424235 -0.013328254 0.68443584
0.01140423 -0.015205652 0.68403333
0.01138451 -0.017076731 0.68363661
0.011364814 -0.018941343 0.68324035
0.011345186 -0.020799518 0.68284547
0.011325628 -0.022651255 0.68245196
0.011306221 -0.024496824 0.68206149
0.011288069 -0.026338786 0.6816963
0.011269975 -0.028174937 0.68133229
0.01125198 -0.030005246 0.68097025
0.011234002 -0.031829655 0.68060851
0.01121608 -0.033648223 0.68024802
0.011212771 -0.035507113 0.68018144
0.011196628 -0.037322104 0.67985672
0.011179992 -0.039129972 0.67952204
0.011163446 -0.040932655 0.67918915
0.01114695 -0.042729974 0.67885721
0.011130501 -0.044521987 0.67852628
0.01111406 -0.046308577 0.67819548
0.011098282 -0.048092544 0.67787814
0.011082836 -0.049872816 0.67756736
0.011067678 -0.051649153 0.67726237
0.011052562 -0.053420693 0.67695826
0.011037486 -0.055187434 0.67665499
0.011022613 -0.056950182 0.67635584
0.011008063 -0.058709651 0.67606306
0.010993511 -0.060464323 0.67577028
0.010979479 -0.062217057 0.675488
0.010965644 -0.063966244 0.67520964
0.010951883 -0.06571129 0.67493284
0.010938396 -0.067453444 0.67466146
0.010924901 -0.069191039 0.67439002
0.010911481 -0.07092461 0.67412001
0.01089829 -0.072655246 0.67385453
0.010885724 -0.074385747 0.67360181
0.010873226 -0.076112568 0.67335039
0.010860796 -0.077835694 0.67310023
0.010848355 -0.079554573 0.67284995
0.010835981 -0.08126986 0.67260104
0.010823753 -0.082982078 0.672355
0.010859224 -0.085063934 0.67306864
0.014957322 0.057692528 0.71252769
0.014812214 0.055016816 0.71002543
0.014711983 0.052542835 0.70829701
0.014627928 0.050152868 0.70684755
0.01413688 0.04644978 0.69837964
0.014055246 0.044173628 0.69697195
0.014001699 0.042005122 0.69604862
0.013961012 0.03988862 0.69534695
0.013922665 0.03779009 0.6946857
0.013892458 0.035723478 0.69416475
0.013862383 0.033665776 0.69364613
0.013834785 0.03162232 0.69317025
