# .PCD v0.7 - Point Cloud Data file format
VERSION 0.7
FIELDS x y z
SIZE 4 4 4
TYPE F F F
COUNT 1 1 1
WIDTH 1335
HEIGHT 1
VIEWPOINT 0 0 0 1 0 0 0
POINTS 1335
DATA ascii
-0.021952998 -0.003991425 0.69550347
-0.021965701 -0.0059906244 0.69564283
-0.021978419 -0.0079921782 0.69578242
-0.021991154 -0.009995997 0.69592226
-0.022003815 -0.01200211 0.69606113
-0.022016576 -0.014010549 0.69620121
-0.022029353 -0.016021371 0.6963414
-0.022042146 -0.018034518 0.69648176
-0.022054954 -0.02004993 0.69662231
-0.022067774 -0.022067755 0.69676304
-0.022080611 -0.024087936 0.69690394
-0.022093376 -0.026110321 0.6970439
-0.022106241 -0.02813521 0.6971851
-0.022119123 -0.030162424 0.69732654
-0.02213202 -0.032191992 0.69746804
-0.022144932 -0.034224004 0.69760972
-0.022157859 -0.03625831 0.69775158
-0.022170801 -0.038295031 0.69789356
-0.02218367 -0.040333927 0.69803482
-0.022255071 -0.042486936 0.69881827
-0.022267945 -0.044535875 0.69895959
-0.022280836 -0.046587199 0.69910103
-0.022293741 -0.048640877 0.69924265
-0.022306573 -0.05069676 0.6993835
-0.022319507 -0.052755177 0.69952548
-0.022332458 -0.054816008 0.69966751
-0.022345422 -0.056879252 0.69980985
-0.022358403 -0.058944881 0.6999523
-0.0223714 -0.061012924 0.70009494
-0.022384409 -0.063083321 0.70023763
-0.022397436 -0.065156162 0.70038062
-0.022410477 -0.067231447 0.70052373
-0.022423441 -0.069308817 0.70066601
-0.022436513 -0.07138887 0.70080942
-0.0224496 -0.073471397 0.70095301
-0.022462701 -0.075556338 0.70109677
-0.022475818 -0.077643722 0.70124078
-0.022488952 -0.079733551 0.7013849
-0.022502191 -0.081826121 0.70153022
-0.022515539 -0.083921552 0.70167661
-0.02252881 -0.086019099 0.70182228
-0.02254219 -0.088119447 0.70196909
-0.019171124 0.088187218 0.68601388
-0.019182002 0.086319 0.68614519
-0.01919304 0.084449381 0.6862784
-0.019204089 0.082577616 0.6864118
-0.019215077 0.080703318 0.68654442
-0.019226152 0.078827232 0.68667805
-0.019237239 0.076948941 0.68681198
-0.019248266 0.075068235 0.68694508
-0.01925938 0.073185652 0.68707919
-0.019270431 0.071300566 0.68721259
-0.019281572 0.069413692 0.68734705
-0.019292723 0.067524552 0.68748164
-0.019303814 0.065632969 0.68761557
-0.019314989 0.063739479 0.68775052
-0.019326182 0.061843783 0.68788558
-0.01933731 0.059945643 0.68801987
-0.019348526 0.058045566 0.68815529
-0.019359682 0.056143075 0.68828994
-0.019370923 0.054238588 0.68842566
-0.019382179 0.052331865 0.68856156
-0.019393373 0.050422788 0.68869662
-0.019404653 0.048511654 0.68883282
-0.019415949 0.046598315 0.68896914
-0.01942718 0.044682503 0.68910474
-0.019438501 0.042764693 0.68924141
-0.019449761 0.0408445 0.68937731
-0.019461108 0.03892225 0.68951428
-0.019472469 0.036997706 0.68965143
-0.019483766 0.035070777 0.68978781
-0.019495152 0.033141762 0.68992525
-0.019506553 0.031210512 0.69006282
-0.019517891 0.029276818 0.69019973
-0.019529317 0.027341038 0.69033766
-0.019540682 0.025402904 0.69047481
-0.019552136 0.023462594 0.69061309
-0.019563602 0.021519929 0.69075149
-0.019575005 0.01957503 0.69088912
-0.019586502 0.017627835 0.69102794
-0.019597931 0.015678346 0.69116586
-0.019609453 0.013726622 0.69130492
-0.019620987 0.011772603 0.69144416
-0.019632459 0.0098162293 0.69158268
-0.01964402 0.0078575909 0.69172227
-0.019655595 0.0058966875 0.69186187
-0.019667106 0.0039334297 0.69200087
-0.019678708 0.001967907 0.69214094
-0.019690324 -2.9802322e-08 0.69228113
-0.019701876 -0.0019701719 0.69242066
-0.019713519 -0.003942728 0.69256115
-0.019725099 -0.0059175491 0.69270086
-0.019736771 -0.0078947246 0.69284183
-0.019748455 -0.0098742247 0.69298285
-0.019760076 -0.011856019 0.69312316
-0.019771788 -0.013840228 0.69326454
-0.019783435 -0.015826732 0.69340509
-0.019795176 -0.017815679 0.69354689
-0.019806931 -0.019806921 0.69368869
-0.019818619 -0.021800488 0.69382983
-0.0198304 -0.023796469 0.69397199
-0.019842118 -0.025794774 0.69411349
-0.019853927 -0.027795523 0.69425607
-0.019865753 -0.029798627 0.69439876
-0.019877512 -0.031803995 0.69454074
-0.019889364 -0.033811927 0.69468379
-0.019901151 -0.035822064 0.69482601
-0.019913031 -0.037834764 0.69496942
-0.019924924 -0.039849848 0.69511306
-0.019977828 -0.041953444 0.69575167
-0.019989721 -0.04397738 0.6958952
-0.020001547 -0.04600355 0.69603801
-0.020013388 -0.048032105 0.69618088
-0.020025242 -0.050063103 0.69632399
-0.020037111 -0.052096486 0.69646728
-0.020048993 -0.054132283 0.69661069
-0.020060889 -0.056170464 0.69675428
-0.020072801 -0.058211118 0.6968981
-0.020084726 -0.060254186 0.69704205
-0.020096663 -0.062299639 0.69718611
-0.020108618 -0.064347565 0.69733036
-0.020120665 -0.066398203 0.69747579
-0.020132648 -0.068451017 0.69762051
-0.020144645 -0.070506245 0.69776523
-0.020156654 -0.072563946 0.69791025
-0.020168679 -0.074624091 0.69805545
-0.020180719 -0.07668674 0.69820076
-0.020192772 -0.078751802 0.69834626
-0.02020484 -0.080819368 0.69849193
-0.020217085 -0.082890034 0.69863975
-0.020229427 -0.08496356 0.6987887
-0.020241702 -0.087039322 0.69893694
-0.020254076 -0.0891179 0.69908625
-0.017095888 0.087378979 0.68389308
-0.017105695 0.085528493 0.68402457
-0.017115578 0.083676189 0.68415713
-0.017125405 0.081821412 0.68428898
-0.017135311 0.079964817 0.68442178
-0.017145162 0.078105748 0.68455392
-0.017155088 0.076244831 0.68468708
-0.017164964 0.07438153 0.68481952
-0.017174914 0.072516352 0.68495297
-0.017184811 0.07064867 0.68508571
-0.017194785 0.068779141 0.68521953
-0.017204771 0.066907436 0.68535346
-0.017214701 0.065033287 0.68548661
-0.01722471 0.06315726 0.68562084
-0.017234664 0.06127882 0.68575442
-0.017244697 0.059398413 0.68588895
-0.017254675 0.057515591 0.6860227
-0.017264728 0.055630773 0.68615758
-0.017274728 0.053743571 0.68629175
-0.017284807 0.051854402 0.68642694
-0.017294832 0.049962848 0.68656135
-0.017304933 0.048069298 0.68669683
-0.017315047 0.046173453 0.68683249
-0.017325107 0.044275254 0.68696743
-0.017335244 0.042375058 0.68710339
-0.017345326 0.040472448 0.68723857
-0.017355487 0.038567752 0.68737489
-0.017365593 0.036660731 0.68751037
-0.017375778 0.034751534 0.68764699
-0.017385907 0.032840073 0.68778288
-0.017396117 0.030926466 0.68791986
-0.01740627 0.029010475 0.68805599
-0.017416503 0.027092338 0.6881932
-0.017426681 0.025171876 0.6883297
-0.017436935 0.023249239 0.68846732
-0.017447138 0.021324277 0.68860412
-0.017457418 0.01939714 0.68874198
-0.017467642 0.017467678 0.68887913
-0.017477948 0.01553598 0.68901742
-0.017488196 0.013601929 0.68915486
-0.017498525 0.011665702 0.68929338
-0.017508868 0.0097271502 0.68943208
-0.017519154 0.0077863038 0.68957001
-0.017529519 0.0058431923 0.68970907
-0.017539829 0.0038977563 0.68984735
-0.017550219 0.0019500256 0.68998671
-0.017560553 -0 0.69012529
-0.017570969 -0.0019523203 0.690265
-0.017581327 -0.0039069355 0.69040394
-0.017591765 -0.0058639348 0.69054395
-0.017602149 -0.0078231394 0.69068319
-0.017612614 -0.0097847581 0.69082355
-0.017623022 -0.011748672 0.69096315
-0.017633511 -0.013714939 0.69110382
-0.017643943 -0.015683532 0.69124377
-0.017654458 -0.017654479 0.69138479
-0.017664913 -0.01962769 0.69152498
-0.017675454 -0.021603316 0.69166636
-0.017686006 -0.023581326 0.69180787
-0.0176965 -0.025561601 0.69194865
-0.017707078 -0.027544349 0.69209051
-0.017717596 -0.029529333 0.6922316
-0.017728198 -0.03151679 0.69237387
-0.017738743 -0.033506513 0.69251525
-0.017749369 -0.035498708 0.69265777
-0.01775994 -0.037493199 0.69279951
-0.017770665 -0.039490342 0.69294333
-0.017781399 -0.041489929 0.69308734
-0.017825391 -0.043573201 0.69367737
-0.01783598 -0.045580834 0.6938194
-0.017846653 -0.04759109 0.69396257
-0.017857339 -0.049603701 0.69410586
-0.017868038 -0.051618755 0.69424939
-0.017878823 -0.053636432 0.69439399
-0.017889548 -0.055656374 0.69453788
-0.017900284 -0.057678699 0.69468188
-0.017911106 -0.059703708 0.69482702
-0.017921871 -0.061730891 0.69497144
-0.017932719 -0.063760757 0.69511688
-0.017943509 -0.065792888 0.6952616
-0.017954381 -0.067827642 0.69540739
-0.017965198 -0.06986469 0.69555247
-0.017976027 -0.071904123 0.69569772
-0.01798694 -0.073946297 0.69584411
-0.017997796 -0.075990647 0.69598967
-0.018008735 -0.078037828 0.69613642
-0.018019689 -0.080087513 0.69628334
-0.018030729 -0.082139969 0.6964314
-0.01804178 -0.084194988 0.69657964
-0.018052774 -0.086252168 0.69672716
-0.018063854 -0.088312164 0.69687569
-0.018176869 -0.090884343 0.69839144
-0.01508513 0.08673954 0.68221498
-0.015093833 0.084902853 0.68234628
-0.015102546 0.08306402 0.68247777
-0.015111326 0.081223369 0.68261027
-0.015120059 0.079380304 0.682742
-0.015128803 0.077535123 0.68287396
-0.015137613 0.075688064 0.68300688
-0.015146377 0.073838592 0.68313915
-0.015155151 0.071986973 0.68327147
-0.015163935 0.070133239 0.68340403
-0.015172786 0.068277568 0.6835376
-0.015181592 0.066419452 0.68367046
-0.015190406 0.064559221 0.68380344
-0.015199289 0.062697083 0.68393743
-0.015208124 0.060832471 0.68407077
-0.015216969 0.058965743 0.68420422
-0.015225826 0.057096869 0.68433785
-0.015234807 0.055226237 0.6844734
-0.015243743 0.053353071 0.68460822
-0.015252746 0.051478028 0.68474406
-0.015261759 0.04960078 0.68488008
-0.015270784 0.047721177 0.68501627
-0.015279818 0.045839459 0.68515259
-0.015288865 0.043955505 0.68528908
-0.015297922 0.042069256 0.68542576
-0.01530699 0.040180892 0.68556249
-0.015316009 0.038290054 0.68569863
-0.015325098 0.036397099 0.68583584
-0.015334197 0.03450194 0.68597305
-0.015343308 0.032604545 0.68611056
-0.015352429 0.030704856 0.68624818
-0.015361561 0.028802902 0.68638599
-0.015370704 0.026898712 0.68652397
-0.015379858 0.024992287 0.68666208
-0.015389023 0.023083568 0.68680036
-0.015398139 0.021172464 0.68693793
-0.015407327 0.019259185 0.68707657
-0.015416524 0.017343611 0.68721533
-0.015425732 0.015425771 0.68735421
-0.015434952 0.013505578 0.68749332
-0.015444183 0.011583149 0.68763262
-0.015453424 0.0096583962 0.68777204
-0.015462677 0.0077313185 0.68791169
-0.01547188 0.0058019459 0.68805057
-0.015481156 0.0038703084 0.68819052
-0.015490442 0.0019363165 0.68833065
-0.015499738 -0 0.6884709
-0.015509047 -0.0019386113 0.68861133
-0.015518366 -0.0038795769 0.688752
-0.015527697 -0.0058228672 0.68889278
-0.015537039 -0.0077685416 0.68903375
-0.015546332 -0.0097164512 0.68917394
-0.015555696 -0.011666775 0.6893152
-0.015565071 -0.013619423 0.6894567
-0.015574459 -0.015574455 0.68959838
-0.015583858 -0.017531842 0.68974018
-0.015593267 -0.019491583 0.68988216
-0.015602688 -0.021453679 0.69002432
-0.01561212 -0.023418158 0.69016659
-0.015621504 -0.025384933 0.69030821
-0.015630959 -0.027354181 0.69045091
-0.015640425 -0.029325783 0.69059372
-0.015649904 -0.0312998 0.69073671
-0.015659392 -0.0332762 0.69087988
-0.015668893 -0.035255015 0.69102329
-0.015678408 -0.037236214 0.69116682
-0.01568787 -0.039219648 0.69130957
-0.015697405 -0.041205674 0.69145346
-0.015732571 -0.043264598 0.69198412
-0.015742037 -0.045258343 0.69212693
-0.015751578 -0.047254711 0.69227087
-0.01576113 -0.049253553 0.692415
-0.015770691 -0.051254719 0.69255924
-0.015780266 -0.053258359 0.69270372
-0.01578979 -0.055264264 0.69284737
-0.015799388 -0.057272792 0.69299233
-0.015808998 -0.059283733 0.69313723
-0.015818618 -0.061297148 0.69328243
-0.015828252 -0.063312978 0.6934278
-0.015837895 -0.06533131 0.69357336
-0.015847551 -0.067352057 0.69371897
-0.015857281 -0.069375604 0.6938659
-0.015867025 -0.071401596 0.69401282
-0.015876781 -0.073430091 0.69416004
-0.015886484 -0.075460821 0.69430649
-0.015896263 -0.077494293 0.69445395
-0.015906053 -0.079530269 0.69460177
-0.015915856 -0.081568778 0.69474965
-0.015925607 -0.083609462 0.69489682
-0.015935434 -0.085652933 0.69504505
-0.015945273 -0.087698981 0.69519353
-0.015968556 -0.089823127 0.69554484
-0.013122786 0.086235434 0.68089229
-0.01313046 0.084410101 0.68102467
-0.013138193 0.082582921 0.68115795
-0.013145885 0.080753297 0.68129063
-0.013153637 0.078921825 0.68142426
-0.013161346 0.077087909 0.68155724
-0.013169066 0.075251818 0.68169034
-0.013176844 0.073413879 0.68182445
-0.013184583 0.071573436 0.6819579
-0.01319238 0.069731146 0.68209237
-0.013200136 0.067886412 0.68222612
-0.01320795 0.066039771 0.68236089
-0.013215726 0.064190686 0.68249494
-0.013223508 0.062339395 0.68262923
-0.013231351 0.060486138 0.68276441
-0.013239154 0.058630526 0.68289894
-0.013247015 0.056772977 0.68303454
-0.013254835 0.054912895 0.68316936
-0.013262666 0.053050667 0.68330443
-0.013270554 0.051186442 0.68344045
-0.013278403 0.049319804 0.68357575
-0.013286311 0.047451138 0.68371212
-0.013294178 0.045580059 0.68384784
-0.013302105 0.043706954 0.68398452
-0.013309991 0.041831404 0.68412054
-0.013317886 0.039953679 0.68425667
-0.013325841 0.038073808 0.68439382
-0.013333755 0.036191642 0.68453032
-0.01334173 0.034307301 0.68466783
-0.013349662 0.032420635 0.68480456
-0.013357604 0.030531675 0.68494153
-0.013365608 0.028640598 0.68507957
-0.013373569 0.026747167 0.68521684
-0.013381591 0.024851561 0.68535519
-0.013389571 0.02295357 0.68549275
-0.013397612 0.021053404 0.68563145
-0.013405612 0.019150853 0.68576944
-0.01341362 0.017246097 0.68590748
-0.01342169 0.015339077 0.68604672
-0.013429718 0.013429761 0.68618512
-0.013437808 0.011518121 0.6863246
-0.013445855 0.0096041858 0.68646336
-0.013453963 0.0076879561 0.68660325
-0.01346203 0.0057694316 0.68674231
-0.013470108 0.0038486123 0.6868816
-0.013478246 0.0019254386 0.68702197
-0.013486342 -0 0.68716156
-0.0134945 -0.001927793 0.68730223
-0.013502615 -0.0038578808 0.68744218
-0.013510793 -0.005790323 0.68758321
-0.013518928 -0.0077251196 0.68772352
-0.013527125 -0.0096622109 0.68786484
-0.01353528 -0.011601627 0.68800545
-0.013543497 -0.013543487 0.68814719
-0.013551671 -0.015487641 0.68828815
-0.013559856 -0.01743409 0.68842924
-0.013568103 -0.019383013 0.68857145
-0.013576307 -0.021334201 0.68871295
-0.013584575 -0.023287863 0.68885553
-0.013592799 -0.025243789 0.68899739
-0.013601085 -0.027202189 0.68914026
-0.01360933 -0.029162854 0.68928242
-0.013617638 -0.031126052 0.68942571
-0.013625903 -0.033091486 0.68956816
-0.013634176 -0.035059303 0.68971092
-0.013642513 -0.037029684 0.68985468
-0.013650808 -0.03900227 0.68999767
-0.013659167 -0.040977478 0.6901418
-0.013688634 -0.043021411 0.69064999
-0.013696931 -0.045004189 0.69079304
-0.01370524 -0.046989381 0.69093627
-0.013713556 -0.048976958 0.69107974
-0.013721938 -0.050967216 0.69122434
-0.013730275 -0.052959621 0.69136804
-0.013738624 -0.054954469 0.69151199
-0.013746982 -0.056951791 0.69165617
-0.01375535 -0.058951497 0.69180042
-0.013763782 -0.060953885 0.69194579
-0.01377217 -0.062958479 0.69209051
-0.01378057 -0.064965546 0.69223535
-0.013788979 -0.066975027 0.69238031
-0.013797453 -0.06898725 0.69252646
-0.013805883 -0.071001679 0.6926719
-0.013814323 -0.073018551 0.69281745
-0.013822773 -0.075037897 0.69296306
-0.013831234 -0.077059746 0.69310904
-0.013839759 -0.079084337 0.69325602
-0.013848405 -0.081112087 0.69340515
-0.013857062 -0.08314237 0.6935544
-0.013865675 -0.085174873 0.69370294
-0.013874353 -0.087210223 0.69385254
-0.013883042 -0.089248106 0.69400239
-0.011195794 0.085834444 0.67983991
-0.011202395 0.084017962 0.67997271
-0.011209003 0.082199365 0.68010569
-0.011215619 0.080378622 0.68023872
-0.011222201 0.078555435 0.68037117
-0.011228833 0.0767304 0.68050462
-0.011235473 0.07490316 0.68063819
-0.011242121 0.073073775 0.68077189
-0.011248776 0.071242273 0.68090582
-0.01125544 0.069408536 0.68103987
-0.01126211 0.067572653 0.68117404
-0.011268789 0.065734625 0.68130845
-0.011275478 0.063894361 0.68144298
-0.011282172 0.062051952 0.68157768
-0.011288875 0.060207337 0.68171251
-0.011295586 0.058360517 0.68184757
-0.011302304 0.056511492 0.68198276
-0.011309031 0.05466032 0.68211806
-0.011315767 0.052806914 0.68225354
-0.011322509 0.050951302 0.68238926
-0.011329261 0.049093455 0.68252504
-0.01133602 0.047233433 0.68266106
-0.011342787 0.045371145 0.68279713
-0.011349563 0.043506652 0.68293345
-0.011356346 0.041639924 0.68306994
-0.011363095 0.039770842 0.68320572
-0.011369894 0.037899643 0.68334252
-0.011376701 0.036026239 0.68347949
-0.011383517 0.034150511 0.68361658
-0.011390341 0.032272637 0.68375385
-0.011397174 0.030392468 0.6838913
-0.011404013 0.028510034 0.68402898
-0.011410862 0.026625365 0.68416679
-0.011417719 0.024738401 0.68430465
-0.011424584 0.022849172 0.68444282
-0.011431457 0.020957679 0.6845811
-0.011438338 0.01906389 0.6847195
-0.011445229 0.017167836 0.68485814
-0.011452126 0.015269488 0.68499696
-0.011459033 0.013368875 0.68513584
-0.011465948 0.011465967 0.68527496
-0.011472872 0.0095607638 0.68541425
-0.011479759 0.0076531768 0.68555284
-0.011486699 0.0057433248 0.68569243
-0.011493647 0.0038312376 0.6858322
-0.011500604 0.0019167662 0.68597221
-0.011507569 -0 0.68611234
-0.011514543 -0.0019190907 0.68625259
-0.011521525 -0.0038405061 0.68639314
-0.011528515 -0.0057642758 0.68653375
-0.011535513 -0.0076903403 0.68667454
-0.011542522 -0.0096187294 0.6868155
-0.011549537 -0.011549503 0.68695664
-0.011556562 -0.01348266 0.68709797
-0.011563595 -0.015418112 0.68723953
-0.011570637 -0.017355978 0.68738115
-0.011577643 -0.01929605 0.68752211
-0.011584701 -0.021238625 0.68766415
-0.011591769 -0.023183525 0.68780631
-0.011598844 -0.025130838 0.6879487
-0.01160593 -0.027080506 0.68809122
-0.011613023 -0.029032528 0.68823391
-0.011620125 -0.030986995 0.68837678
-0.011627235 -0.032943845 0.68851984
-0.011634354 -0.034903079 0.68866307
-0.011641482 -0.036864698 0.68880647
-0.01164862 -0.038828731 0.68895006
-0.011655765 -0.040795177 0.68909377
-0.011680117 -0.04282707 0.68958366
-0.011687255 -0.044801146 0.68972737
-0.011694403 -0.046777606 0.68987119
-0.011701514 -0.048756331 0.69001424
-0.01170868 -0.05073759 0.69015837
-0.011715854 -0.052721322 0.69030267
-0.011723036 -0.054707497 0.69044721
-0.011730228 -0.056696117 0.69059187
-0.011737382 -0.058686882 0.69073582
-0.011744636 -0.060680598 0.69088179
-0.011751946 -0.062677056 0.69102883
-0.011759264 -0.064675957 0.69117606
-0.011766594 -0.066677362 0.69132352
-0.011773931 -0.06868127 0.69147116
-0.011781231 -0.070687354 0.69161797
-0.011788587 -0.072696298 0.69176596
-0.011795952 -0.074707717 0.6919142
-0.011803325 -0.076721609 0.6920625
-0.011810708 -0.078738064 0.69221103
-0.011818101 -0.080757052 0.69235975
-0.011825503 -0.082778528 0.6925087
-0.011832914 -0.084802538 0.69265783
-0.011840334 -0.086829171 0.69280708
-0.011847764 -0.088858232 0.69295651
-0.011907208 -0.091288581 0.69415247
-0.0092893308 0.087319732 0.67886221
-0.0092948191 0.08551231 0.67899472
-0.009300313 0.083702832 0.67912734
-0.0093058478 0.081891447 0.67926097
-0.0093113547 0.080077678 0.67939389
-0.0093169026 0.078261971 0.67952788
-0.0093224226 0.076443881 0.6796611
-0.0093279844 0.074623883 0.67979538
-0.0093335174 0.072801471 0.67992896
-0.0093390569 0.070976883 0.68006271
-0.0093446393 0.069150329 0.68019748
-0.0093501918 0.06732136 0.68033153
-0.0093557863 0.065490514 0.68046653
-0.0093613528 0.063657224 0.68060094
-0.0093669612 0.061821938 0.68073636
-0.0093725398 0.059984237 0.68087107
-0.0093781259 0.058144391 0.68100595
-0.0093837539 0.056302518 0.68114179
-0.0093893539 0.054458261 0.68127698
-0.0093949959 0.052612007 0.68141317
-0.0094006089 0.050763309 0.68154866
-0.0094062639 0.048912615 0.68168521
-0.009411891 0.047059447 0.68182105
-0.0094175236 0.045204103 0.68195707
-0.0094231991 0.043346733 0.6820941
-0.0094288457 0.041486919 0.68223041
-0.0094345352 0.039625078 0.68236774
-0.0094401948 0.037760764 0.68250442
-0.0094458982 0.035894424 0.6826421
-0.0094515728 0.034025699 0.68277901
-0.0094572539 0.032154649 0.68291622
-0.0094629768 0.030281514 0.68305433
-0.0094686719 0.028406024 0.6831919
-0.0094744088 0.026528358 0.68333036
-0.0094801169 0.024648309 0.68346822
-0.0094858687 0.022766083 0.68360704
-0.0094915908 0.020881504 0.68374515
-0.0094973557 0.018994719 0.68388438
-0.0095030917 0.01710555 0.68402284
-0.0095088352 0.015214115 0.68416154
-0.0095146205 0.013320476 0.6843012
-0.009520378 0.011424452 0.6844402
-0.0095261782 0.0095261931 0.68458021
-0.0095319487 0.00762555 0.68471956
-0.009537763 0.0057226717 0.68485987
-0.0095435483 0.0038174093 0.68499953
-0.0095493766 0.001909852 0.68514025
-0.0095551759 -2.9802322e-08 0.68528032
-0.0095609818 -0.0019122064 0.68542045
-0.0095668314 -0.0038267076 0.68556166
-0.0095726522 -0.005743593 0.6857022
-0.0095785158 -0.0076628029 0.68584371
-0.0095843505 -0.0095843375 0.68598461
-0.009590229 -0.011508256 0.68612653
-0.0095960777 -0.0134345 0.68626767
-0.0096019711 -0.015363127 0.68641001
-0.0096078338 -0.017294109 0.68655157
-0.0096137039 -0.019227386 0.68669319
-0.0096196178 -0.021163166 0.68683606
-0.0096255029 -0.023101211 0.6869781
-0.0096314317 -0.025041729 0.68712127
-0.0096373316 -0.026984543 0.68726373
-0.0096432753 -0.02892983 0.6874072
-0.0096491892 -0.030877382 0.68754995
-0.0096551478 -0.032827467 0.68769377
-0.0096610747 -0.034779847 0.68783695
-0.009667011 -0.036734641 0.68798018
-0.0096729919 -0.038691938 0.6881246
-0.0096789412 -0.04065159 0.6882683
-0.0096986787 -0.042674184 0.68874472
-0.0097046606 -0.044641465 0.68888921
-0.0097106118 -0.046610922 0.68903285
-0.0097166086 -0.048583061 0.68917763
-0.0097225746 -0.050557405 0.6893217
-0.0097286236 -0.05253455 0.68946767
-0.0097346809 -0.054514199 0.68961394
-0.0097407447 -0.056496322 0.68976027
-0.0097468169 -0.058480918 0.68990695
-0.0097528966 -0.060467958 0.6900537
-0.0097589828 -0.062457472 0.69020057
-0.0097650774 -0.064449549 0.69034773
-0.0097711803 -0.06644401 0.69049507
-0.0097772907 -0.068441004 0.69064254
-0.0097834077 -0.070440531 0.6907903
-0.009789533 -0.072442561 0.69093823
-0.0097956657 -0.074447066 0.69108623
-0.0098018069 -0.076454073 0.69123447
-0.0098079545 -0.078463614 0.69138283
-0.0098141106 -0.080475688 0.69153148
-0.0098202741 -0.082490325 0.69168037
-0.009826446 -0.08450745 0.69182932
-0.0098326253 -0.086527109 0.69197851
-0.0098388121 -0.088549316 0.69212788
-0.0098709548 -0.090812787 0.69290388
-0.0074094008 0.087060481 0.67819637
-0.007413819 0.085258931 0.67832971
-0.0074182432 0.083455235 0.67846322
-0.0074226731 0.081649452 0.67859685
-0.0074271075 0.079841375 0.67873073
-0.0074315481 0.078031242 0.67886472
-0.0074359928 0.076218903 0.67899889
-0.0074404436 0.074404448 0.67913318
-0.0074449 0.072587758 0.67926764
-0.0074493331 0.070768684 0.6794014
-0.0074538002 0.068947643 0.67953622
-0.0074582719 0.067124426 0.67967117
-0.0074627493 0.065299064 0.67980635
-0.0074672322 0.063471496 0.67994153
-0.0074717198 0.061641723 0.68007696
-0.0074762134 0.059809715 0.68021262
-0.0074807126 0.057975501 0.6803484
-0.0074852169 0.056139112 0.68048435
-0.0074897269 0.054300517 0.68062043
-0.0074942419 0.052459717 0.68075669
-0.0074987626 0.050616652 0.68089306
-0.0075032888 0.048771411 0.68102968
-0.0075078206 0.046923876 0.68116641
-0.0075123576 0.045074135 0.68130338
-0.0075168996 0.043222159 0.68144041
-0.0075214482 0.041367948 0.68157768
-0.007526001 0.039511502 0.68171513
-0.0075305603 0.03765282 0.6818527
-0.0075351256 0.035791874 0.68199039
-0.0075396951 0.033928633 0.68212837
-0.0075442712 0.032063186 0.68226641
-0.0075488524 0.030195385 0.6824047
-0.0075534107 0.028325289 0.68254226
-0.0075580026 0.026453018 0.68268085
-0.0075626005 0.024578482 0.6828196
-0.0075672045 0.022701621 0.68295848
-0.0075718132 0.020822525 0.6830976
-0.0075764279 0.018941075 0.6832369
-0.0075810486 0.017057359 0.68337631
-0.0075856745 0.015171379 0.68351591
-0.0075903065 0.013283014 0.68365568
-0.0075949435 0.011392415 0.68379563
-0.0075995871 0.0094994903 0.6839357
-0.0076042353 0.0076042414 0.68407601
-0.0076088896 0.0057066679 0.6842165
-0.0076135499 0.0038067698 0.68435705
-0.0076182154 0.0019045472 0.68449789
-0.0076228874 -0 0.68463892
-0.0076275356 -0.0019068718 0.68477917
-0.0076322178 -0.0038161278 0.68492049
-0.007636907 -0.0057276785 0.68506199
-0.0076416018 -0.0076415837 0.68520367
-0.0076463018 -0.0095579028 0.68534553
-0.0076510077 -0.011476487 0.68548751
-0.0076557193 -0.013397515 0.68562973
-0.0076604369 -0.015320897 0.68577206
-0.007665161 -0.017246604 0.68591452
-0.0076698898 -0.019174725 0.68605733
-0.0076746251 -0.02110523 0.6862002
-0.007679366 -0.023038089 0.68634325
-0.0076841125 -0.024973333 0.68648654
-0.0076888655 -0.02691099 0.68662995
-0.0076936237 -0.028851062 0.68677354
-0.0076983594 -0.030793458 0.68691647
-0.0077031297 -0.032738268 0.68706042
-0.007707906 -0.034685552 0.68720454
-0.0077126878 -0.03663528 0.68734884
-0.0077174762 -0.038587362 0.68749338
-0.0077222697 -0.040541917 0.68763804
-0.0077376752 -0.04255721 0.68810284
-0.0077425539 -0.044519663 0.68825012
-0.0077473498 -0.046484113 0.6883949
-0.0077521806 -0.048451126 0.6885407
-0.0077570179 -0.050420612 0.68868661
-0.0077618612 -0.052392572 0.68883282
-0.0077667106 -0.054366976 0.68897915
-0.007771566 -0.056343853 0.68912566
-0.0077764275 -0.058323205 0.6892724
-0.0077812951 -0.060305029 0.68941927
-0.0077861995 -0.062289596 0.68956727
-0.0077911094 -0.064276665 0.68971545
-0.0077960258 -0.066266209 0.6898638
-0.0078009483 -0.068258286 0.6900124
-0.0078058778 -0.070252866 0.69016111
-0.0078108124 -0.072250009 0.69031
-0.0078157531 -0.074249655 0.69045913
-0.007820732 -0.076252133 0.69060934
-0.0078256857 -0.078256875 0.69075888
-0.0078306459 -0.080264121 0.69090861
-0.0078356126 -0.082273945 0.69105846
-0.007840585 -0.084286258 0.69120848
-0.0078455638 -0.086301208 0.69135875
-0.0078505501 -0.088318676 0.69150925
-0.0078662857 -0.090462282 0.69198406
-0.0055445093 0.086863995 0.6776917
-0.005547849 0.085067034 0.67782611
-0.0055511729 0.083267629 0.67795986
-0.005554521 0.081466317 0.67809463
-0.0055578528 0.079662561 0.67822868
-0.0055612093 0.077856928 0.67836368
-0.005564549 0.076048851 0.67849803
-0.0055679134 0.074238867 0.67863345
-0.005571261 0.072426409 0.6787681
-0.0055746338 0.070612043 0.67890382
-0.0055779894 0.068795234 0.67903888
-0.0055813701 0.066976458 0.6791749
-0.005584734 0.065155238 0.67931026
-0.0055881231 0.063332081 0.67944664
-0.005591495 0.06150648 0.6795823
-0.0055948924 0.059678853 0.67971903
-0.0055982727 0.057848811 0.67985499
-0.0056016571 0.056016564 0.67999125
-0.0056050662 0.054182291 0.68012846
-0.005608459 0.052345604 0.68026489
-0.005611877 0.05050692 0.6804024
-0.0056152777 0.048665732 0.68053925
-0.0056187036 0.046822518 0.68067706
-0.0056221127 0.04497695 0.68081427
-0.0056255474 0.043129206 0.68095243
-0.0056289644 0.041279107 0.68109
-0.005632408 0.039426833 0.68122852
-0.0056358338 0.037572205 0.68136632
-0.0056392844 0.035715491 0.6815052
-0.0056427191 0.033856332 0.68164337
-0.0056461785 0.031995028 0.6817826
-0.0056496207 0.03013131 0.68192112
-0.0056530889 0.028265476 0.6820606
-0.0056565404 0.026397198 0.68219954
-0.0056600166 0.024526715 0.68233943
-0.0056634764 0.022653908 0.68247861
-0.0056669614 0.020778894 0.6826188
-0.0056704297 0.018901408 0.68275839
-0.0056739016 0.017021716 0.68289804
-0.0056773997 0.015139729 0.68303889
-0.00568088 0.013255358 0.6831789
-0.0056843869 0.011368781 0.68331999
-0.0056878766 0.0094798207 0.68346041
-0.0056913914 0.0075885653 0.6836018
-0.005694889 0.0056948662 0.68374258
-0.0056984136 0.0037989616 0.68388438
-0.00570192 0.0019006729 0.68402547
-0.0057054525 -2.9802322e-08 0.68416762
-0.0057089683 -0.0019029677 0.68430901
-0.0057125092 -0.0038083196 0.68445158
-0.0057160333 -0.0057160258 0.68459332
-0.0057195835 -0.0076260865 0.68473619
-0.005723116 -0.0095385313 0.68487835
-0.0057266532 -0.011453301 0.68502069
-0.0057302164 -0.013370484 0.68516403
-0.0057337624 -0.015289992 0.68530667
-0.0057373345 -0.017212003 0.68545043
-0.0057408889 -0.01913628 0.68559343
-0.0057444703 -0.02106303 0.68573755
-0.005748034 -0.022992134 0.68588096
-0.0057516238 -0.024923682 0.68602538
-0.0057551968 -0.026857585 0.68616915
-0.0057587954 -0.028793961 0.68631399
-0.0057623768 -0.030732691 0.68645811
-0.0057659843 -0.032673895 0.68660325
-0.0057695745 -0.034617454 0.68674767
-0.0057731695 -0.036563396 0.68689233
-0.0057767909 -0.038511962 0.68703806
-0.0057803947 -0.040462762 0.68718308
-0.0057910322 -0.042467564 0.6876111
-0.0057954593 -0.044431865 0.6877892
-0.0057990863 -0.046392709 0.68793511
-0.0058027632 -0.048356354 0.68808305
-0.0058064437 -0.050322473 0.68823123
-0.0058101295 -0.052291185 0.68837947
-0.0058138203 -0.05426231 0.68852806
-0.0058175158 -0.056235999 0.68867671
-0.0058211931 -0.058211923 0.68882465
-0.0058248974 -0.060190618 0.68897372
-0.0058286069 -0.062171787 0.68912292
-0.005832321 -0.064155519 0.6892724
-0.0058360398 -0.066141754 0.68942207
-0.0058397632 -0.068130583 0.68957186
-0.0058434918 -0.070121884 0.68972182
-0.0058472245 -0.072115749 0.68987203
-0.0058509624 -0.074112177 0.69002247
-0.0058546816 -0.07611087 0.69017214
-0.0058584297 -0.078112364 0.69032294
-0.005862182 -0.080116481 0.69047391
-0.0058659385 -0.082123145 0.69062507
-0.0058697001 -0.084132358 0.69077647
-0.0058734673 -0.086144194 0.69092798
-0.0058772387 -0.088158563 0.69107974
-0.0058842888 -0.090225771 0.69136345
-0.0036904234 0.086724937 0.67733467
-0.0036926568 0.084931105 0.67746949
-0.0036948926 0.083135098 0.67760438
-0.0036971315 0.081336886 0.6777395
-0.003699373 0.079536498 0.6778748
-0.003701617 0.077733964 0.67801028
-0.0037038638 0.075929195 0.67814589
-0.0037061137 0.07412228 0.67828166
-0.0037083656 0.07231316 0.67841756
-0.0037106208 0.070501775 0.67855376
-0.0037128788 0.068688273 0.67868996
-0.0037151393 0.066872507 0.67882645
-0.0037174027 0.065054566 0.67896301
-0.0037196688 0.063234359 0.6790998
-0.0037219375 0.061412007 0.67923671
-0.003724209 0.059587359 0.67937386
-0.0037264836 0.057760507 0.67951107
-0.0037287609 0.055931419 0.67964852
-0.0037310407 0.054100096 0.67978609
-0.0037333374 0.052266687 0.67992479
-0.0037356229 0.050430894 0.68006271
-0.0037379111 0.048592836 0.68020082
-0.0037402024 0.046752542 0.68033916
-0.0037424965 0.044909954 0.68047756
-0.0037447934 0.043065161 0.6806162
-0.0037470928 0.041218013 0.68075502
-0.0037493955 0.039368659 0.6808939
-0.0037517005 0.037517011 0.68103313
-0.0037540088 0.035663098 0.68117237
-0.0037563196 0.03380686 0.68131185
-0.0037586333 0.031948417 0.6814515
-0.0037609499 0.03008762 0.68159133
-0.0037632694 0.028224498 0.68173134
-0.0037655919 0.026359171 0.68187153
-0.0037679172 0.024491459 0.68201184
-0.0037702452 0.022621483 0.68215239
-0.0037725763 0.020749211 0.68229306
-0.0037749102 0.018874556 0.6824339
-0.0037772611 0.016997665 0.68257582
-0.0037796008 0.01511839 0.68271703
-0.0037819433 0.013236791 0.68285841
-0.0037842889 0.011352867 0.68299997
-0.0037866372 0.0094666183 0.68314171
-0.0037889886 0.0075779557 0.68328363
-0.0037913427 0.005687058 0.68342566
-0.0037937001 0.0037936866 0.683568
-0.0037960601 0.0018980503 0.68371046
-0.0037984231 -2.9802322e-08 0.68385309
-0.0038007891 -0.0019003749 0.68399578
-0.0038031579 -0.0038031638 0.68413883
-0.00380553 -0.0057082772 0.684282
-0.0038079049 -0.0076158345 0.68442535
-0.0038102826 -0.0095256865 0.68456882
-0.0038126633 -0.011437982 0.68471253
-0.0038150472 -0.013352633 0.68485636
-0.0038174337 -0.015269727 0.68500042
-0.0038198235 -0.017189205 0.68514466
-0.0038222163 -0.019111067 0.68528903
-0.0038246268 -0.021035433 0.68543452
-0.0038270252 -0.022962123 0.6855793
-0.0038294271 -0.024891257 0.68572426
-0.0038318317 -0.026822835 0.68586946
-0.0038342397 -0.028756768 0.68601471
-0.0038366504 -0.030693233 0.68616027
-0.0038390644 -0.032632053 0.686306
-0.0038414814 -0.034573287 0.68645179
-0.003843901 -0.036517024 0.68659788
-0.003846324 -0.038463235 0.68674409
-0.0038487501 -0.04041189 0.68689054
-0.0038548585 -0.04240346 0.6872592
-0.0038587679 -0.044375837 0.68749517
-0.0038612392 -0.046334893 0.6876443
-0.003863699 -0.048296213 0.68779278
-0.0038661771 -0.050260305 0.68794233
-0.0038686432 -0.052226692 0.68809116
-0.0038711275 -0.054195762 0.68824112
-0.0038735999 -0.056167185 0.68839037
-0.0038760903 -0.058141351 0.6885407
-0.0038785692 -0.060117811 0.6886903
-0.0038810661 -0.062097013 0.68884099
-0.0038835516 -0.064078599 0.68899101
-0.0038860547 -0.066062927 0.68914205
-0.0038885465 -0.06804955 0.68929249
-0.0038910564 -0.070038974 0.68944389
-0.0038935542 -0.072030753 0.68959469
-0.0038960704 -0.074025303 0.68974656
-0.003898575 -0.076022208 0.68989778
-0.0039010979 -0.078021973 0.69005001
-0.0039036088 -0.080023944 0.69020152
-0.003906138 -0.082028896 0.69035417
-0.0039086551 -0.084036082 0.69050616
-0.0039111911 -0.086046189 0.69065917
-0.0039137155 -0.088058591 0.69081151
-0.0039164261 -0.090077817 0.69097519
-0.0018425819 0.086601377 0.67701727
-0.0018436479 0.084807813 0.67714596
-0.0018447218 0.083012491 0.67727554
-0.0018457971 0.081215054 0.67740536
-0.0018468734 0.07941553 0.6775353
-0.0018479512 0.07761398 0.67766535
-0.0018490303 0.075810254 0.67779559
-0.0018501104 0.074004412 0.677926
-0.001851192 0.072196513 0.6780566
-0.0018522748 0.070386469 0.67818725
-0.0018533587 0.06857428 0.67831808
-0.001854444 0.066760004 0.67844909
-0.0018555307 0.064943582 0.67858028
-0.0018566116 0.063124806 0.67871076
-0.0018577008 0.061304122 0.67884231
-0.001858791 0.059481293 0.67897385
-0.0018598827 0.057656378 0.67910564
-0.0018609758 0.055829287 0.67923754
-0.0018620698 0.05400005 0.67936969
-0.0018631655 0.052168638 0.67950189
-0.0018642623 0.050335109 0.67963433
-0.0018653604 0.048499346 0.67976683
-0.0018664598 0.046661466 0.67989957
-0.0018675606 0.044821411 0.68003243
-0.0018686625 0.04297924 0.68016541
-0.0018697587 0.041134685 0.68029779
-0.0018708424 0.039287686 0.68042856
-0.0018719273 0.037438542 0.68055952
-0.0018730134 0.035587281 0.68069065
-0.0018741078 0.033733934 0.68082273
-0.0018751824 0.031878114 0.68095243
-0.0018762583 0.030020118 0.68108237
-0.0018773283 0.028159946 0.68121147
-0.0018784065 0.026297688 0.68134165
-0.0018794861 0.024433315 0.68147194
-0.0018805598 0.022566676 0.68160164
-0.0018816419 0.020698071 0.68173218
-0.0018827181 0.0188272 0.68186212
-0.0018837955 0.016954154 0.68199217
-0.0018848742 0.015078992 0.68212235
-0.0018859539 0.013201684 0.68225265
-0.001887028 0.0113222 0.68238235
-0.0018881103 0.0094405413 0.682513
-0.0018891939 0.0075567663 0.68264383
-0.0018902789 0.0056708455 0.68277478
-0.0018913648 0.0037827194 0.68290585
-0.0018924522 0.0018924475 0.6830371
-0.0018935337 -0 0.68316764
-0.0018946019 -0.0018945932 0.68329656
-0.0018956786 -0.0037913322 0.68342656
-0.0018967566 -0.0056902468 0.68355668
-0.0018978284 -0.007591337 0.68368614
-0.0018989089 -0.0094945431 0.68381649
-0.0018999905 -0.011399925 0.68394709
-0.0019010444 -0.013307273 0.68407428
-0.0019020995 -0.015216798 0.6842016
-0.0019031558 -0.017128408 0.68432915
-0.001904206 -0.019042045 0.68445587
-0.0019052647 -0.020957917 0.68458378
-0.0019063245 -0.022875905 0.68471164
-0.0019073781 -0.02479592 0.68483883
-0.0019084403 -0.026718169 0.68496704
-0.0019095036 -0.028642535 0.68509537
-0.0019105681 -0.030569077 0.68522388
-0.0019116265 -0.032497615 0.68535167
-0.0019126714 -0.03442806 0.68547773
-0.0019137029 -0.036360323 0.68560225
-0.0019147282 -0.038294584 0.68572605
-0.0019157619 -0.040230989 0.68585086
-0.0019167893 -0.042169362 0.6859749
-0.0019283576 -0.044352263 0.68737131
-0.0019295921 -0.046310216 0.68752027
-0.0019308283 -0.048270702 0.68766952
-0.0019320658 -0.050233722 0.68781888
-0.0019333052 -0.052199244 0.68796849
-0.0019345534 -0.054167479 0.68811911
-0.0019357958 -0.056138068 0.68826914
-0.0019370398 -0.058111221 0.68841934
-0.0019382855 -0.060086846 0.68856961
-0.0019395326 -0.062065035 0.68872023
-0.0019407891 -0.064046025 0.68887186
-0.0019420395 -0.06602934 0.68902284
-0.0019432991 -0.068015456 0.68917483
-0.0019445526 -0.070003927 0.68932623
-0.0019458156 -0.071995199 0.68947864
-0.0019470726 -0.073988736 0.68963039
-0.001948331 -0.075984925 0.68978226
-0.0019495989 -0.077983916 0.68993533
-0.0019508607 -0.079985261 0.69008768
-0.0019521317 -0.081989512 0.69024104
-0.0019533969 -0.083996072 0.69039381
-0.0019546712 -0.086005554 0.69054765
-0.0019559397 -0.088017285 0.69070071
-0.0019572175 -0.090032011 0.69085497
0 0.085999608 0.67547184
0 0.084212661 0.6755842
0 0.082423866 0.67569661
0 0.080633283 0.67580914
0 0.078840822 0.67592186
0 0.077046573 0.67603463
0 0.075250477 0.67614752
0 0.073452532 0.67626053
0 0.07165277 0.67637372
0 0.06985119 0.67648691
0 0.068047732 0.67660034
0 0.066242456 0.67671382
0 0.064435303 0.67682737
0 0.062626332 0.6769411
0 0.060815513 0.67705494
0 0.059002846 0.67716885
0 0.057188272 0.67728293
0 0.055371881 0.67739713
0 0.053553611 0.67751145
0 0.051733434 0.67762583
0 0.049911469 0.6777404
0 0.048087597 0.67785501
0 0.046261817 0.67796981
0 0.04443419 0.67808467
0 0.042604685 0.67819965
0 0.040773332 0.67831481
0 0.038941741 0.67843997
0 0.037108123 0.67856538
0 0.035272479 0.67869079
0 0.033434868 0.67881727
0 0.031595141 0.67894304
0 0.029753268 0.67906892
0 0.027909428 0.67919576
0 0.026063442 0.679322
0 0.02421537 0.67944831
0 0.022365212 0.67957479
0 0.020513088 0.67970216
0 0.018658757 0.679829
0 0.016802371 0.6799559
0 0.014943838 0.68008292
0 0.013083279 0.68021095
0 0.011220574 0.68033826
0 0.0093557835 0.68046576
0 0.0074888468 0.68059337
0 0.0056198537 0.68072194
0 0.0037486851 0.68084985
0 0.0018754005 0.68097788
0 -0 0.68110698
0 -0.0018775165 0.68123531
0 -0.003757149 0.68136382
0 -0.0056389272 0.68149239
0 -0.0075229108 0.68162203
0 -0.0094089806 0.68175101
0 -0.011297196 0.68188012
0 -0.013187528 0.68200928
0 -0.015080124 0.68213952
0 -0.016974807 0.68226904
0 -0.018871635 0.68239868
0 -0.020770669 0.68252933
0 -0.022671878 0.68265933
0 -0.024575204 0.68278939
0 -0.026480734 0.68291974
0 -0.02838847 0.68305093
0 -0.030298352 0.68318152
0 -0.032210439 0.68331218
0 -0.034124672 0.68344307
0 -0.03604123 0.68357491
0 -0.037959844 0.68370605
0 -0.039880723 0.68383741
0 -0.041803926 0.68396974
0 -0.044354469 0.68738294
0 -0.046312898 0.6875338
0 -0.048273861 0.68768483
0 -0.050237387 0.68783605
0 -0.052203238 0.68798655
0 -0.05417189 0.68813813
0 -0.056143075 0.68828994
0 -0.058116823 0.68844199
0 -0.060093135 0.6885941
0 -0.062072039 0.68874657
0 -0.064053506 0.68889916
0 -0.066037536 0.68905199
0 -0.068024188 0.68920493
0 -0.070013404 0.68935812
0 -0.072005004 0.68951064
0 -0.073999405 0.68966419
0 -0.075996459 0.68981802
0 -0.077996105 0.68997198
0 -0.079998374 0.69012618
0 -0.082003295 0.69028062
0 -0.084010795 0.69043517
0 -0.086020991 0.69059002
0 -0.08803381 0.69074506
0 -0.090049252 0.69090021
0.0018178796 0.085440338 0.67403543
0.0018189371 0.083671123 0.6741631
0.0018199891 0.081899494 0.67429006
0.0018210488 0.080126166 0.67441797
0.00182211 0.078350723 0.67454606
0.0018231656 0.076572984 0.67467344
0.0018242291 0.074793398 0.67480189
0.0018252938 0.073011786 0.67493033
0.0018263533 0.071227819 0.67505825
0.0018274204 0.069442004 0.67518705
0.0018284889 0.067654103 0.6753161
0.001829552 0.065863878 0.67544436
0.001830623 0.064071804 0.67557365
0.0018316952 0.062277645 0.67570305
0.0018327619 0.060481131 0.67583185
0.0018338365 0.05868277 0.67596161
0.0018349127 0.056882292 0.67609149
0.0018359832 0.05507952 0.67622072
0.0018370618 0.053274781 0.67635083
0.0018381416 0.051468015 0.67648125
0.0018392158 0.049658835 0.67661095
0.0018402982 0.047847748 0.67674154
0.0018413818 0.046034515 0.67687237
0.0018424599 0.044219047 0.67700249
0.0018435461 0.042401552 0.67713362
0.0018446335 0.040581942 0.67726487
0.0018457155 0.038760036 0.67739546
0.0018468054 0.036936104 0.67752707
0.0018478966 0.035110027 0.6776588
0.0018489824 0.033281714 0.67778981
0.0018500763 0.031451315 0.67792189
0.0018511714 0.02961877 0.67805409
0.001852261 0.02778393 0.67818564
0.0018533587 0.025947005 0.67831814
0.0018544921 0.02410841 0.67845494
0.0018556408 0.022267699 0.67859358
0.0018567907 0.020424694 0.6787324
0.0018579352 0.018579364 0.67887056
0.0018590881 0.016731799 0.67900968
0.0018602423 0.014881909 0.67914903
0.001861398 0.013029784 0.67928851
0.0018625482 0.011175275 0.67942739
0.0018637069 0.0093185604 0.67956722
0.0018648667 0.0074594617 0.67970729
0.0018660213 0.0055980682 0.67984664
0.0018671842 0.0037343502 0.67998701
0.0018683486 0.001868397 0.68012756
0.0018695073 -0 0.68026739
0.0018706745 -0.0018706918 0.68040836
0.0018718434 -0.0037436783 0.68054938
0.0018730134 -0.0056190193 0.68069065
0.0018741781 -0.0074967146 0.68083119
0.0018753512 -0.0093767345 0.68097281
0.0018765256 -0.011259168 0.68111461
0.0018776946 -0.013143867 0.68125576
0.001878872 -0.01503098 0.68139786
0.0018800511 -0.016920447 0.68154019
0.0018812316 -0.018812329 0.68168265
0.0018824064 -0.020706475 0.68182445
0.0018835898 -0.022603035 0.68196732
0.0018847748 -0.024502039 0.68211031
0.0018859539 -0.026403368 0.68225271
0.0018871418 -0.02830711 0.68239611
0.0018883313 -0.030213296 0.6825397
0.0018895221 -0.032121867 0.68268341
0.0018907073 -0.034032732 0.68282652
0.0018919013 -0.035946131 0.68297052
0.0018930966 -0.037861913 0.68311489
0.0018942864 -0.039779991 0.68325847
0.0018954846 -0.041700661 0.68340319
0.0019298005 -0.044385403 0.68754548
0.0019310593 -0.046345413 0.68769741
0.0019323269 -0.048308164 0.68785048
0.001933589 -0.050273299 0.68800271
0.0019348601 -0.052241236 0.68815625
0.0019361253 -0.054211497 0.68830895
0.0019373999 -0.05618459 0.68846279
0.0019386684 -0.058160037 0.68861586
0.0019399463 -0.060138345 0.68877017
0.0019412182 -0.062118977 0.68892372
0.0019424994 -0.064102471 0.68907833
0.0019437746 -0.066088349 0.68923229
0.0019450593 -0.068077087 0.68938732
0.0019463529 -0.070068717 0.68954355
0.0019476486 -0.072062999 0.68969989
0.0019489534 -0.074060231 0.68985736
0.0019502523 -0.076059848 0.69001424
0.0019515607 -0.078062415 0.6901722
0.0019528632 -0.080067366 0.69032931
0.0019541751 -0.082075343 0.69048774
0.001955481 -0.084085703 0.69064534
0.0019567963 -0.086099029 0.69080412
0.0019581059 -0.088114753 0.6909622
0.0019595861 -0.090140954 0.69114089
0.0036290614 0.085282952 0.67363119
0.0036312474 0.083518714 0.6737631
0.0036335022 0.08175379 0.67389917
0.0036357858 0.079987317 0.67403698
0.0036380857 0.078218848 0.67417586
0.0036403753 0.076447874 0.67431402
0.0036426811 0.074674964 0.6744532
0.0036449898 0.072899789 0.67459249
0.0036472881 0.07112208 0.67473125
0.0036496024 0.069342464 0.67487091
0.0036519065 0.067560285 0.67500997
0.0036542269 0.06577608 0.67515004
0.0036565366 0.063989401 0.67528945
0.0036588633 0.062200636 0.67542982
0.003661179 0.060409456 0.67556965
0.003663511 0.058616161 0.67571044
0.0036658463 0.056820631 0.67585129
0.0036681707 0.055022597 0.67599165
0.003670512 0.053222418 0.67613292
0.0036728424 0.051419795 0.67627358
0.0036751893 0.049615055 0.67641526
0.003677526 0.047807872 0.67655623
0.003679879 0.045998514 0.67669827
0.003682235 0.044186831 0.67684048
0.0036845806 0.042372674 0.67698205
0.0036869426 0.040556371 0.67712462
0.0036892942 0.038737565 0.6772666
0.0036916621 0.036916673 0.67740941
0.00369402 0.035093218 0.67755169
0.0036963939 0.033267587 0.67769504
0.0036987711 0.031439573 0.67783856
0.0037011378 0.029609084 0.67798138
0.0037035213 0.02777642 0.6781252
0.0037058941 0.025941283 0.67826843
0.0037082834 0.02410385 0.67841262
0.0037106622 0.022263974 0.6785562
0.0037130578 0.020421803 0.6787008
0.0037154565 0.018577307 0.67884558
0.0037178446 0.016730338 0.67898965
0.0037202495 0.014880985 0.67913485
0.0037226574 0.013029307 0.67928016
0.0037250547 0.011175185 0.67942488
0.0037274691 0.0093186796 0.67957062
0.0037298726 0.0074597299 0.67971563
0.0037322929 0.0055984557 0.67986172
0.0037347029 0.0037347078 0.68000722
0.0037371297 0.0018685758 0.68015367
0.0037395593 -2.9802322e-08 0.6803003
0.0037419787 -0.0018710196 0.68044633
0.003744415 -0.0037444234 0.68059337
0.0037468402 -0.005620271 0.68073976
0.0037492828 -0.0074985325 0.6808871
0.0037517287 -0.0093793273 0.6810348
0.0037541636 -0.011262506 0.68118179
0.0037567003 -0.013148427 0.68133485
0.0037592545 -0.015037 0.68148899
0.0037618268 -0.016928226 0.68164432
0.0037643879 -0.018821925 0.68179888
0.0037669528 -0.020718247 0.68195367
0.0037695211 -0.022617131 0.68210864
0.003772107 -0.024518698 0.68226469
0.0037746823 -0.026422769 0.68242019
0.0037772753 -0.028329551 0.68257666
0.0037798579 -0.030238837 0.68273252
0.0037824439 -0.032150775 0.68288863
0.0037850477 -0.034065425 0.68304574
0.0037876407 -0.035982579 0.68320221
0.003790237 -0.037902385 0.68335897
0.0037928515 -0.039824963 0.68351674
0.0037954552 -0.041750014 0.68367392
0.0038648481 -0.044445753 0.68786216
0.0038674169 -0.046408981 0.68801719
0.0038699745 -0.048374683 0.68817157
0.0038725503 -0.050343156 0.68832701
0.0038751599 -0.052314639 0.68848449
0.0038777576 -0.054288566 0.68864131
0.003880359 -0.056265175 0.68879825
0.0038829788 -0.058244705 0.6889565
0.003885587 -0.060226589 0.6891138
0.0038882138 -0.062211394 0.68927234
0.0038908294 -0.064198703 0.68943024
0.0038934632 -0.066188842 0.68958914
0.0038960858 -0.068181485 0.68974751
0.0038987268 -0.070177078 0.6899069
0.0039013564 -0.072175086 0.69006562
0.0039039892 -0.074175775 0.69022453
0.0039066412 -0.076179475 0.69038457
0.0039092815 -0.078185618 0.69054395
0.0039119404 -0.080194771 0.69070446
0.0039145877 -0.082206339 0.69086426
0.003917254 -0.084220976 0.69102514
0.0039199083 -0.086237982 0.6911853
0.0039225668 -0.088257775 0.69134581
0.0039278325 -0.090340093 0.69166356
0.0054537775 0.085442543 0.67404097
0.0054573868 0.083679944 0.67418617
0.0054609803 0.081914693 0.67433083
0.0054645785 0.080147147 0.67447561
0.0054682018 0.078377575 0.67462134
0.0054718098 0.07660532 0.67476654
0.0054754224 0.07483077 0.67491186
0.0054790596 0.073054135 0.67505831
0.0054826816 0.071274847 0.67520398
0.0054863086 0.069493264 0.67534989
0.0054899608 0.067709506 0.67549688
0.0054935971 0.065923154 0.67564321
0.0054972391 0.064134479 0.67578971
0.0055009052 0.062343627 0.67593724
0.0055045565 0.060550153 0.67608416
0.0055082124 0.058754265 0.67623132
0.0055118934 0.056956261 0.67637944
0.0055155596 0.055155605 0.6765269
0.0055192299 0.053352565 0.6766746
0.0055229869 0.051547885 0.67682576
0.005526871 0.049741864 0.67698205
0.0055307806 0.047933429 0.67713928
0.0055346759 0.046122313 0.6772961
0.0055385968 0.044308811 0.67745388
0.0055425027 0.042492539 0.67761099
0.0055464348 0.040673852 0.67776918
0.0055503519 0.038852483 0.67792684
0.0055542951 0.037028611 0.67808551
0.0055582235 0.035202086 0.67824364
0.0055621569 0.033372939 0.67840183
0.0055661169 0.031541348 0.67856121
0.0055700624 0.029707015 0.67871994
0.0055740331 0.027870178 0.67887974
0.0055779894 0.02603066 0.67903888
0.0055819722 0.024188548 0.67919916
0.0055859396 0.022343755 0.67935878
0.0055899336 0.020496428 0.67951947
0.0055939122 0.018646359 0.67967957
0.0055979178 0.016793758 0.6798408
0.0056019076 0.014938414 0.68000132
0.0056059249 0.013080478 0.68016291
0.0056099263 0.011219859 0.68032396
0.0056139547 0.0093565881 0.68048602
0.0056179678 0.0074906051 0.68064749
0.0056220074 0.0056219995 0.68081003
0.0056260321 0.0037507117 0.68097198
0.0056300629 0.001876682 0.68113416
0.0056341197 -2.9802322e-08 0.68129742
0.0056381617 -0.0018793941 0.68146008
0.0056422306 -0.0037614703 0.6816237
0.0056462847 -0.0056462884 0.68178689
0.0056503653 -0.0075338185 0.68195105
0.0056544309 -0.0094240308 0.68211466
0.0056585232 -0.011317044 0.68227935
0.0056626 -0.01321274 0.68244332
0.0056667044 -0.015111238 0.68260854
0.0056707934 -0.017012388 0.68277305
0.0056750169 -0.018916726 0.68294299
0.0056794831 -0.02082479 0.68312263
0.0056839352 -0.022735775 0.68330181
0.0056884149 -0.024649799 0.68348211
0.0056929025 -0.026566893 0.68366265
0.0056973752 -0.028486848 0.6838426
0.0057018762 -0.030409992 0.68402374
0.0057063638 -0.032336056 0.68420422
0.0057108793 -0.03426525 0.68438596
0.0057153804 -0.036197394 0.68456703
0.0057199104 -0.038132727 0.68474936
0.0057244473 -0.04007113 0.68493187
0.0057289698 -0.042012423 0.68511391
0.0058095227 -0.04453966 0.68835509
0.0058134603 -0.046507686 0.68851346
0.0058174031 -0.048478365 0.68867213
0.0058213505 -0.050451696 0.68883097
0.0058253044 -0.052427709 0.68899006
0.0058292858 -0.054406673 0.68915027
0.0058332505 -0.05638808 0.68930978
0.0058372426 -0.058372408 0.68947041
0.0058412179 -0.06035924 0.68963039
0.0058452208 -0.062348992 0.68979144
0.0058492068 -0.064341277 0.6899519
