# .PCD v0.7 - Point Cloud Data file format
VERSION 0.7
FIELDS x y z
SIZE 4 4 4
TYPE F F F
COUNT 1 1 1
WIDTH 1315
HEIGHT 1
VIEWPOINT 0 0 0 1 0 0 0
POINTS 1315
DATA ascii
-0.063146159 -0.061232597 0.68558019
-0.062295411 -0.050615013 0.68958926
-0.061997034 -0.05230999 0.68846369
-0.061816085 -0.054089069 0.6877811
-0.061685339 -0.055902302 0.68728787
-0.061473139 -0.057631075 0.68648744
-0.06099239 -0.059086353 0.68467396
-0.060476128 -0.060476124 0.6827265
-0.06004094 -0.061917186 0.68108487
-0.060590547 -0.046908826 0.69053102
-0.060256779 -0.048594177 0.68923134
-0.060051952 -0.050366163 0.68843377
-0.059924357 -0.052192211 0.68793696
-0.059748236 -0.053966135 0.68725115
-0.059366342 -0.05553627 0.68576407
-0.058831345 -0.056933522 0.68368089
-0.058401179 -0.058401167 0.68200576
-0.05803474 -0.059906811 0.68057895
-0.057697114 -0.061419487 0.67926431
-0.057736631 -0.063324064 0.67941821
-0.058959834 -0.043237209 0.69183397
-0.058505066 -0.044853896 0.69000411
-0.058284029 -0.046627253 0.68911481
-0.058150139 -0.048458457 0.68857598
-0.058012154 -0.050277174 0.68802083
-0.057710163 -0.05193916 0.68680573
-0.057193656 -0.053380758 0.68472743
-0.056753173 -0.054861397 0.68295503
-0.056375477 -0.056375474 0.68143535
-0.056038316 -0.05790627 0.68007874
-0.055897463 -0.059623957 0.6795119
-0.056218605 -0.061840445 0.68080407
-0.05677085 -0.041109949 0.69090301
-0.056513928 -0.042872608 0.68983364
-0.056361582 -0.044700563 0.68919945
-0.056240343 -0.046543717 0.68869483
-0.056021906 -0.048294723 0.68778563
-0.055549011 -0.049802572 0.68581724
-0.05509115 -0.051291764 0.68391138
-0.054703597 -0.052817255 0.68229818
-0.054374587 -0.054374576 0.68092871
-0.054076903 -0.055941612 0.67968959
-0.054374587 -0.058124542 0.68092871
-0.055034366 -0.037344754 0.69185632
-0.054745335 -0.039103806 0.69061029
-0.054569419 -0.040927082 0.68985194
-0.054453615 -0.042784959 0.68935263
-0.054278933 -0.044586301 0.68859965
-0.053888928 -0.0461905 0.68691826
-0.053415138 -0.04769209 0.68487573
-0.05302396 -0.049236506 0.68318927
-0.052698657 -0.050816566 0.68178689
-0.052397694 -0.052397698 0.68048942
-0.052528732 -0.054404765 0.68105435
-0.059397317 -0.063639998 0.71066546
-0.059392028 -0.065755427 0.71064258
-0.059255626 -0.067720711 0.71005458
-0.050846506 -0.065374076 0.67380208
-0.05071931 -0.067021966 0.67325377
-0.053329881 -0.033578068 0.69302338
-0.05296503 -0.03531003 0.69139218
-0.052771177 -0.037135273 0.69052547
-0.052655585 -0.039004117 0.69000876
-0.052514561 -0.040844619 0.6893782
-0.052212957 -0.042543858 0.68802983
-0.051731117 -0.044067234 0.68587559
-0.051343415 -0.045638591 0.68414235
-0.051010162 -0.047231644 0.68265241
-0.050709177 -0.048831046 0.68130672
-0.050680637 -0.050680608 0.68117923
-0.057377178 -0.059502274 0.71111786
-0.057410095 -0.061662734 0.71126509
-0.057310972 -0.063678831 0.71082181
-0.05717466 -0.065644979 0.71021247
-0.057212431 -0.067807347 0.71038139
-0.049169213 -0.061916769 0.67442197
-0.049040347 -0.063570797 0.67384583
-0.048929159 -0.065238833 0.67334867
-0.04881848 -0.066899419 0.67285389
-0.051788721 -0.02987811 0.69503832
-0.051184569 -0.031498194 0.69223344
-0.050968394 -0.033325493 0.69122982
-0.050841913 -0.035198241 0.6906426
-0.050729301 -0.037071407 0.6901198
-0.050495576 -0.038842738 0.68903464
-0.050051458 -0.040426195 0.68697274
-0.049649939 -0.04201147 0.68510854
-0.049308755 -0.043619275 0.68352461
-0.049011711 -0.045241565 0.68214554
-0.048830692 -0.046952605 0.68130505
-0.049113292 -0.049113274 0.68261707
-0.055402923 -0.05753383 0.7118181
-0.05534118 -0.059598178 0.7115314
-0.055194665 -0.061563253 0.71085119
-0.055181555 -0.063671052 0.7107904
-0.055340234 -0.06598258 0.71152711
-0.056248281 -0.069228679 0.71574289
-0.047355372 -0.060104877 0.67445552
-0.04724462 -0.061781406 0.67394137
-0.047137454 -0.063454241 0.67344379
-0.047030948 -0.065119773 0.67294931
-0.046939149 -0.066798031 0.67252314
-0.046858162 -0.068484992 0.67214715
-0.049415413 -0.027672619 0.69319665
-0.049168728 -0.029501259 0.69200563
-0.049019977 -0.031372786 0.69128734
-0.048915893 -0.033262819 0.69078481
-0.048745669 -0.035096884 0.6899628
-0.048356544 -0.036750972 0.68808395
-0.047942139 -0.038353741 0.68608308
-0.047594283 -0.03997919 0.68440342
-0.047305398 -0.041628718 0.68300861
-0.04704069 -0.043277442 0.68173045
-0.047250725 -0.045360684 0.68274456
-0.053385265 -0.053385288 0.71236479
-0.053357031 -0.055491328 0.71222848
-0.053214256 -0.057471365 0.71153909
-0.053161338 -0.059540689 0.71128356
-0.053271592 -0.061795026 0.71181589
-0.054176472 -0.06501174 0.71618503
-0.045662329 -0.056621283 0.67507511
-0.045550924 -0.058305174 0.67453724
-0.045447323 -0.059990495 0.67403704
-0.045344193 -0.061668098 0.67353904
-0.045249548 -0.063349366 0.67308211
-0.045171283 -0.065046638 0.67270416
-0.045093283 -0.066738069 0.67232758
-0.045015715 -0.068423897 0.67195296
-0.044959087 -0.07013616 0.67167962
-0.047643378 -0.023821682 0.69422561
-0.047359284 -0.025652915 0.69279671
-0.047192708 -0.027529091 0.6919589
-0.047092397 -0.029432744 0.69145447
-0.046952646 -0.031301767 0.69075149
-0.046645515 -0.033040583 0.68920672
-0.046220019 -0.034665018 0.68706667
-0.045878511 -0.036320478 0.68534905
-0.045587134 -0.037989289 0.68388349
-0.045322001 -0.039656729 0.68254995
-0.045385897 -0.041603744 0.68287134
-0.05134232 -0.049203038 0.71282983
-0.051348031 -0.051348031 0.71285862
-0.051236078 -0.053370893 0.71229547
-0.051142905 -0.055404812 0.71182692
-0.051212482 -0.057614028 0.71217686
-0.052097637 -0.060780555 0.71662879
-0.043960199 -0.053118557 0.6757006
-0.043848 -0.054809958 0.67513633
-0.043748002 -0.056507826 0.67463338
-0.043648459 -0.058197945 0.6741327
-0.043551266 -0.059882969 0.67364383
-0.04347574 -0.061590642 0.67326403
-0.043400478 -0.063292354 0.67288548
-0.043325473 -0.064988196 0.67250824
-0.043265689 -0.066701233 0.67220747
-0.043212909 -0.06842044 0.67194211
-0.04316026 -0.070135415 0.67167729
-0.045919307 -0.019964874 0.6955958
-0.045537733 -0.021778911 0.69359314
-0.045361113 -0.02366665 0.69266617
-0.045253735 -0.025578201 0.69210267
-0.045146327 -0.027480394 0.69153893
-0.044909544 -0.029288828 0.69029629
-0.044499371 -0.03095606 0.68814361
-0.044151612 -0.032633811 0.6863184
-0.043855488 -0.034321666 0.68476421
-0.043594167 -0.03601259 0.68339282
-0.043519158 -0.037842751 0.68299913
-0.043772914 -0.039966613 0.68433094
-0.049326219 -0.047181606 0.7134763
-0.049247909 -0.049247921 0.71306527
-0.049124297 -0.051260114 0.71241647
-0.049149893 -0.053423822 0.71255082
-0.050011955 -0.056535244 0.71707517
-0.042248853 -0.049596459 0.67633218
-0.042136393 -0.051296443 0.67574197
-0.04203942 -0.053006232 0.67523301
-0.041943505 -0.054708898 0.67472959
-0.041848026 -0.056403875 0.67422849
-0.041771472 -0.058116853 0.67382675
-0.041698974 -0.059828967 0.67344624
-0.041626725 -0.06153512 0.67306709
-0.041564032 -0.063249618 0.67273802
-0.041513205 -0.064977199 0.67247128
-0.041462354 -0.06670028 0.67220438
-0.041411776 -0.068419456 0.6719389
-0.0413475 -0.070111006 0.67160165
-0.041228697 -0.071702078 0.67097807
-0.043732435 -0.017890543 0.69455123
-0.043525796 -0.019784451 0.69341743
-0.04340326 -0.021701604 0.69274503
-0.043310359 -0.023623824 0.69223529
-0.043140624 -0.025492162 0.69130397
-0.042768523 -0.027216315 0.68926239
-0.04241161 -0.028916985 0.68730402
-0.042110644 -0.03062591 0.68565267
-0.04185478 -0.032342345 0.68424881
-0.041650176 -0.034077436 0.68312615
-0.041893169 -0.036180466 0.68445939
-0.047282729 -0.042984277 0.7140311
-0.047238294 -0.045091093 0.71378726
-0.047110122 -0.047110111 0.7130841
-0.047089968 -0.049230397 0.71297342
-0.047218233 -0.051510781 0.71367723
-0.048001066 -0.054546654 0.71797252
-0.040418178 -0.047766924 0.67636633
-0.040321503 -0.049485445 0.67583585
-0.040229257 -0.051200837 0.67532974
-0.040137429 -0.052908421 0.67482591
-0.040058408 -0.054625094 0.67439234
-0.039988704 -0.056347698 0.67400992
-0.039919242 -0.058064342 0.67362881
-0.039854061 -0.059781104 0.67327118
-0.039805204 -0.061517119 0.67300308
-0.039756324 -0.063248694 0.67273486
-0.039707709 -0.064976245 0.67246807
-0.039652783 -0.066688716 0.67216676
-0.039551914 -0.068316936 0.67161334
-0.039374221 -0.069799751 0.67063832
-0.039185282 -0.071245953 0.66960168
-0.039063472 -0.072800145 0.66893327
-0.041915618 -0.013971895 0.69553423
-0.041686635 -0.015880615 0.69421804
-0.041547842 -0.017806232 0.69342029
-0.041459482 -0.019742578 0.69291234
-0.041325286 -0.021646559 0.69214094
-0.041021813 -0.023441046 0.69039655
-0.040656589 -0.025168389 0.68829715
-0.040357705 -0.026905119 0.68657923
-0.040105086 -0.028646499 0.68512714
-0.039876178 -0.030381858 0.68381131
-0.040011469 -0.032390237 0.68458897
-0.045226566 -0.038765639 0.71456599
-0.045210224 -0.040904492 0.71447206
-0.045094389 -0.042947024 0.71380621
-0.045038916 -0.045038909 0.71348733
-0.045127895 -0.047276825 0.71399879
-0.045897655 -0.050268859 0.71842355
-0.038690519 -0.044217736 0.67699599
-0.038594168 -0.045945466 0.67644215
-0.038505629 -0.047673643 0.67593318
-0.0384175 -0.049393922 0.6754266
-0.038336486 -0.051115334 0.67496097
-0.038269605 -0.052848518 0.67457652
-0.038202956 -0.054575682 0.67419338
-0.038137231 -0.056297809 0.67381555
-0.038088847 -0.058040142 0.67353749
-0.03804196 -0.05978021 0.67326796
-0.037995327 -0.061516225 0.67299992
-0.037948262 -0.063247085 0.67272937
-0.03786416 -0.064909995 0.67224592
-0.037712768 -0.066446304 0.67137575
-0.037521135 -0.067895383 0.6702742
-0.03738803 -0.069434911 0.66950911
-0.037300695 -0.071048945 0.66900712
-0.037244111 -0.072714686 0.6686818
-0.040133204 -0.010033309 0.69682324
-0.039835095 -0.011950523 0.69502401
-0.039685179 -0.01388979 0.69411916
-0.039595835 -0.015838325 0.69357991
-0.039490208 -0.017770588 0.69294244
-0.039257981 -0.019628972 0.69154078
-0.038891811 -0.021390498 0.68933076
-0.038596604 -0.023157954 0.68754905
-0.038342983 -0.024922937 0.68601829
-0.038116902 -0.02668184 0.68465376
-0.03812765 -0.028595716 0.68471861
-0.043150183 -0.034520179 0.71503234
-0.043163583 -0.036689043 0.71511316
-0.043076631 -0.038769007 0.7145884
-0.042988732 -0.040839285 0.71405786
-0.043039389 -0.043039382 0.71436357
-0.043786835 -0.045976162 0.71887487
-0.036953565 -0.040648907 0.67763239
-0.03685734 -0.042385936 0.67705166
-0.03677256 -0.044127047 0.6765399
-0.036688164 -0.045860201 0.67603064
-0.036606699 -0.047588706 0.67553896
-0.036541604 -0.049331188 0.67514604
-0.036477797 -0.051068932 0.67476088
-0.036414351 -0.052800834 0.67437798
-0.036364067 -0.054546088 0.67407447
-0.036319196 -0.056294739 0.67380369
-0.036274567 -0.058039308 0.67353427
-0.036230177 -0.059779793 0.67326635
-0.036161181 -0.061473995 0.67285001
-0.036036175 -0.063063264 0.67209542
-0.035846677 -0.064523965 0.67095172
-0.035709552 -0.066062659 0.67012411
-0.035619814 -0.067677647 0.66958255
-0.035557039 -0.069336206 0.66920364
-0.035518296 -0.071036592 0.66896981
-0.035512246 -0.072800145 0.66893327
-0.035539359 -0.07463263 0.66909689
-0.03798487 -0.0079967976 0.69592315
-0.037815344 -0.0099514127 0.69484615
-0.037718721 -0.011911154 0.69423223
-0.037634805 -0.013865471 0.69369912
-0.037460707 -0.015772909 0.6925931
-0.037124395 -0.017585218 0.69045645
-0.036822289 -0.019380182 0.68853706
-0.036567062 -0.021170378 0.68691558
-0.03634743 -0.022956252 0.68552017
-0.036241569 -0.024796873 0.68484759
-0.036454748 -0.02686137 0.68620193
-0.041100603 -0.032447845 0.71571803
-0.041042406 -0.034562021 0.71534824
-0.040936366 -0.036627263 0.71467459
-0.040949237 -0.038794011 0.71475637
-0.041128162 -0.041128159 0.71589309
-0.035207033 -0.037060022 0.67827499
-0.0351125 -0.038808554 0.67767447
-0.035029955 -0.040560991 0.67715001
-0.03494934 -0.042307079 0.67663789
-0.034869224 -0.044045329 0.67612886
-0.034804631 -0.04579553 0.67571843
-0.0347437 -0.047544032 0.67533141
-0.034682985 -0.049286336 0.67494571
-0.034630682 -0.051034689 0.67461336
-0.034587968 -0.052792162 0.67434198
-0.034545362 -0.054545283 0.67407131
-0.034503736 -0.056295544 0.67380691
-0.034448098 -0.05801785 0.67345333
-0.034342572 -0.05964759 0.67278296
-0.034167554 -0.061141938 0.67167097
-0.034023508 -0.06267488 0.67075586
-0.033930007 -0.064288408 0.67016184
-0.033861723 -0.065941244 0.66972798
-0.033819564 -0.067639112 0.66946018
-0.033810902 -0.069401294 0.66940516
-0.033827987 -0.071216792 0.6695137
-0.033881396 -0.073112488 0.66985297
-0.034003306 -0.075165242 0.67062747
-0.036133651 -0.0040148497 0.69691557
-0.035945885 -0.0059909523 0.6956563
-0.035833046 -0.0079628825 0.69489968
-0.035756934 -0.0099324882 0.69438922
-0.035630472 -0.011876822 0.69354117
-0.035340641 -0.013743579 0.69159752
-0.035033945 -0.015570641 0.68954074
-0.034777857 -0.01738897 0.68782341
-0.034564439 -0.019202471 0.68639225
-0.034370277 -0.021004051 0.68509018
-0.034555554 -0.023037016 0.68633258
-0.039021596 -0.028182238 0.71628255
-0.038991861 -0.030327022 0.71608317
-0.038883451 -0.032402873 0.71535617
-0.038861305 -0.034543335 0.71520764
-0.0389615 -0.036796987 0.71587956
-0.039611984 -0.039611965 0.72024179
-0.033359345 -0.035212606 0.67831063
-0.033277746 -0.036975294 0.67776346
-0.033200953 -0.038734466 0.67724848
-0.033124514 -0.040485531 0.67673582
-0.033058617 -0.042241573 0.67629397
-0.033000596 -0.044000775 0.67590475
-0.032942776 -0.045753837 0.67551702
-0.032889362 -0.047506839 0.67515886
-0.03284822 -0.049272329 0.67488295
-0.032807656 -0.051034153 0.67461097
-0.03276743 -0.052791983 0.6743412
-0.032720882 -0.054534793 0.67402905
-0.032633387 -0.056201935 0.67344224
-0.032480277 -0.057742715 0.67241549
-0.032327436 -0.059266955 0.67139053
-0.032230951 -0.060880721 0.67074347
-0.032158107 -0.062529624 0.67025495
-0.032117967 -0.064235926 0.66998577
-0.032102168 -0.065987796 0.66987985
-0.032110065 -0.067787915 0.66993278
-0.032149725 -0.069657743 0.67019874
-0.032246415 -0.071658686 0.67084718
-0.032527316 -0.074089974 0.67273092
-0.032718983 -0.076344311 0.6740163
-0.034287859 2.9802322e-08 0.69806325
-0.034063768 -0.0020037293 0.69647211
-0.03393995 -0.0039929152 0.69559288
-0.033866439 -0.0059764385 0.69507086
-0.033766013 -0.0079449415 0.69435781
-0.033540204 -0.0098647773 0.69275451
-0.033230189 -0.011728287 0.69055313
-0.032983691 -0.013581514 0.68880284
-0.032769956 -0.015421152 0.68728524
-0.032579679 -0.017248064 0.68593413
-0.032654218 -0.019208372 0.68646336
-0.036926202 -0.023893446 0.71679723
-0.036920272 -0.026061356 0.71675503
-0.036829952 -0.028164059 0.71611369
-0.036775973 -0.030286103 0.71573043
-0.03684479 -0.032510102 0.71621907
-0.037475765 -0.035271287 0.72069931
-0.031596277 -0.031596243 0.67895132
-0.031515855 -0.03336972 0.67838025
-0.031442925 -0.035142064 0.67786241
-0.031370334 -0.036906272 0.67734706
-0.031303491 -0.03866902 0.67687237
-0.031248407 -0.040439129 0.67648125
-0.031193515 -0.042203009 0.67609149
-0.031140413 -0.043962926 0.67571443
-0.031099882 -0.045735091 0.67542666
-0.031061381 -0.047505617 0.67515326
-0.031022865 -0.049271584 0.67487973
-0.030984329 -0.05103302 0.67460614
-0.030911816 -0.052731931 0.67409122
-0.030781386 -0.054320067 0.67316508
-0.030626778 -0.055848837 0.67206728
-0.030522702 -0.057454497 0.67132831
-0.030450804 -0.059110373 0.67081773
-0.030407915 -0.060815811 0.67051321
-0.030385755 -0.062558919 0.67035592
-0.030385431 -0.064345628 0.67035353
-0.030416504 -0.066200614 0.67057425
-0.030492941 -0.068160713 0.67111695
-0.030703388 -0.070437178 0.67261124
-0.030954562 -0.072834238 0.67439473
-0.031013928 -0.074798286 0.67481625
-0.031054692 -0.076723367 0.67510575
-0.03110227 -0.078670442 0.67544353
-0.032496497 0.0040620565 0.69976509
-0.032171074 0.0020107031 0.69730985
-0.032040644 -0 0.6963259
-0.031962611 -0.0019976497 0.69573718
-0.031885721 -0.003985703 0.69515711
-0.031718209 -0.0059471726 0.69389331
-0.031423151 -0.0078557432 0.69166726
-0.031174513 -0.0097420216 0.68979144
-0.03096267 -0.011610985 0.6881932
-0.030778755 -0.013465673 0.68680573
-0.030750854 -0.015375465 0.6865952
-0.034816951 -0.019584537 0.71727157
-0.03483513 -0.021771967 0.71740866
-0.034770075 -0.023904413 0.71691787
-0.034692027 -0.026019007 0.7163291
-0.034726486 -0.028215289 0.71658897
-0.035332173 -0.030915648 0.72115856
-0.029823419 -0.027959466 0.67959821
-0.029744195 -0.029744178 0.6790005
-0.029675173 -0.031529844 0.67847979
-0.029606475 -0.033307284 0.67796153
-0.029540818 -0.035079718 0.67746621
-0.029487068 -0.036858857 0.67706072
-0.029435137 -0.038633645 0.67666888
-0.029384032 -0.040403038 0.67628336
-0.029342894 -0.042180389 0.67597294
-0.029306479 -0.043959737 0.67569822
-0.029270049 -0.045734435 0.67542338
-0.029234562 -0.047506124 0.67515564
-0.029175859 -0.049234301 0.67471278
-0.029070444 -0.05087325 0.67391747
-0.02891651 -0.052411199 0.6727562
-0.028807361 -0.054013789 0.67193264
-0.028737253 -0.055678397 0.67140377
-0.028689571 -0.057379127 0.67104399
-0.028661838 -0.059115022 0.67083478
-0.028656811 -0.060895711 0.67079687
-0.028683402 -0.062744915 0.6709975
-0.02874561 -0.064677596 0.67146683
-0.028880104 -0.066785216 0.67248154
-0.029168842 -0.069276005 0.67465985
-0.029245026 -0.071284741 0.67523456
-0.029283861 -0.073209673 0.67552757
-0.029326446 -0.075149029 0.6758489
-0.029376484 -0.077113286 0.67622638
-0.02943676 -0.079111308 0.67668116
-0.030285124 0.006057024 0.69831377
-0.030135676 0.0040180981 0.69711113
-0.030047365 0.0020031333 0.6964004
-0.029983144 -0 0.69588363
-0.029863128 -0.0019908547 0.6949178
-0.02960177 -0.0039469004 0.69281453
-0.029351141 -0.005870223 0.69079763
-0.029141223 -0.0077710152 0.68910837
-0.028964659 -0.0096548796 0.68768752
-0.028845215 -0.011538088 0.68672633
-0.029016281 -0.013540924 0.6881029
-0.032731283 -0.017456681 0.71799892
-0.032690652 -0.019614398 0.71767199
-0.032604024 -0.021736026 0.71697479
-0.032607142 -0.023911893 0.71699989
-0.032724291 -0.026179433 0.71794271
-0.033239067 -0.028807193 0.7220853
-0.027964873 -0.026100546 0.67964184
-0.027897619 -0.027897626 0.67910063
-0.027832855 -0.029688388 0.67857945
-0.027769011 -0.03147155 0.67806566
-0.027716506 -0.033259809 0.67764312
-0.027667563 -0.035045594 0.67724931
-0.027619001 -0.036825359 0.67685848
-0.02757719 -0.038608074 0.67652196
-0.027542779 -0.040396065 0.67624509
-0.027508561 -0.042179823 0.67596972
-0.027475627 -0.043960959 0.67570466
-0.027429037 -0.045715034 0.6753298
-0.02734041 -0.047390044 0.67461652
-0.027197348 -0.048955232 0.67346525
-0.027086725 -0.050561875 0.67257512
-0.027014291 -0.052227616 0.67199212
-0.026962757 -0.053925514 0.67157745
-0.026930155 -0.055655658 0.67131507
-0.026925517 -0.057441115 0.67127776
-0.026943495 -0.059275687 0.67142242
-0.026992623 -0.061183274 0.67181778
-0.027102182 -0.063238442 0.67269945
-0.027378708 -0.065708876 0.67492473
-0.027465874 -0.067749143 0.67562622
-0.027506137 -0.06968224 0.67595029
-0.027544094 -0.071614623 0.67625564
-0.02759118 -0.07357648 0.67663455
-0.027645551 -0.075564504 0.67707211
-0.027706785 -0.077579007 0.67756498
-0.027779698 -0.079635128 0.67815167
-0.028383626 0.010136992 0.69932699
-0.028222499 0.0080635548 0.69793773
-0.028125277 0.0060268342 0.69709945
-0.028065104 0.0040093064 0.69658065
-0.027973205 0.0019981265 0.6957882
-0.027763441 -0 0.69397962
-0.027513184 -0.0019652247 0.69182181
-0.027310133 -0.0039014518 0.69007111
-0.027136734 -0.0058149993 0.68857598
-0.026980892 -0.0077088177 0.68723232
-0.027097262 -0.0096775889 0.68823576
-0.030615687 -0.013121039 0.71857226
-0.030597767 -0.015298873 0.7184177
-0.030511009 -0.017434865 0.71766967
-0.030488964 -0.019600034 0.71747959
-0.03056306 -0.021830767 0.71811843
-0.031076944 -0.024417579 0.72254926
-0.026175743 -0.022436351 0.68029016
-0.026110079 -0.024245054 0.67972404
-0.026049398 -0.026049405 0.67920083
-0.025988897 -0.027845263 0.67867917
-0.025936551 -0.029641747 0.67822778
-0.025890728 -0.031438708 0.67783272
-0.025844973 -0.033229232 0.6774382
-0.025803654 -0.035019249 0.677082
-0.02577043 -0.036814898 0.67679548
-0.025738331 -0.038607448 0.67651868
-0.025707256 -0.040397137 0.67625082
-0.025669197 -0.042170823 0.67592263
-0.025597256 -0.043880999 0.67530227
-0.025471972 -0.045485675 0.67422217
-0.025355799 -0.047089368 0.67322052
-0.025282038 -0.048758209 0.67258447
-0.025227411 -0.050454825 0.67211348
-0.025195653 -0.052190959 0.67183965
-0.025186414 -0.053970873 0.67175996
-0.025196649 -0.05579257 0.67184824
-0.025233865 -0.057677388 0.67216909
-0.025321336 -0.059686035 0.67292339
-0.025572678 -0.06210506 0.67509043
-0.025680302 -0.064200759 0.67601842
-0.025721602 -0.066141248 0.6763745
-0.025755744 -0.068068743 0.67666888
-0.025799284 -0.070026636 0.67704427
-0.025848025 -0.072005212 0.67746449
-0.025903368 -0.074009627 0.67794174
-0.025971266 -0.076058701 0.67852712
-0.026048815 -0.078146473 0.67919576
-0.026138823 -0.080283538 0.67997181
-0.026509073 0.01427412 0.70074618
-0.026296129 0.012136698 0.69876903
-0.02619447 0.010074794 0.69782501
-0.026133746 0.0080411434 0.69726115
-0.02606432 0.0060148537 0.69661647
-0.025907459 0.0039857328 0.69516003
-0.025663067 0.001974076 0.69289076
-0.025467036 2.9802322e-08 0.69107044
-0.025296193 -0.0019458532 0.68948412
-0.025147639 -0.0038688779 0.68810475
-0.025176156 -0.0058098733 0.68836951
-0.028482132 -0.0087637305 0.71906698
-0.028483503 -0.010955185 0.71907973
-0.028417179 -0.013115615 0.71846384
-0.028369587 -0.015275955 0.71802193
-0.028418668 -0.01748842 0.71847767
-0.028907305 -0.020012736 0.72301483
-0.024376186 -0.018750876 0.68094146
-0.024312679 -0.020572275 0.68035179
-0.024255926 -0.022390068 0.67982477
-0.024199523 -0.024199516 0.67930102
-0.024147866 -0.026005387 0.67882144
-0.024104467 -0.027812868 0.67841846
-0.024061846 -0.029614598 0.67802268
-0.024021415 -0.031412601 0.67764729
-0.023989255 -0.03321588 0.67734867
-0.023959303 -0.035017461 0.6770705
-0.023929862 -0.036815166 0.67679715
-0.023899 -0.038606107 0.67651057
-0.023839965 -0.040344536 0.67596245
-0.023734622 -0.041992038 0.67498428
-0.023616819 -0.043600261 0.67389041
-0.02354024 -0.045269668 0.67317933
-0.023484318 -0.046968639 0.67266011
-0.02345375 -0.048711628 0.67237622
-0.023439549 -0.050485164 0.67224443
-0.023443015 -0.052295953 0.6722765
-0.023469487 -0.054160357 0.67252231
-0.023536833 -0.056126267 0.67314774
-0.023736266 -0.058427721 0.67499959
-0.023888379 -0.060639739 0.67641199
-0.023930302 -0.062586933 0.6768012
-0.023962038 -0.064513177 0.67709589
-0.024000764 -0.066463649 0.67745554
-0.024044234 -0.068433583 0.67785913
-0.024095805 -0.070433915 0.67833799
-0.024156656 -0.07246995 0.67890298
-0.024226384 -0.074542731 0.67955047
-0.024307137 -0.076660946 0.6803003
-0.02440243 -0.078838617 0.68118513
-0.02451768 -0.081096947 0.68225527
-0.024661668 -0.08347024 0.68359226
-0.024368811 0.016245842 0.6997292
-0.024255013 0.014148772 0.69858456
-0.024190227 0.012095124 0.69793284
-0.024135677 0.010056525 0.69738412
-0.02402404 0.0080079734 0.69626111
-0.023804218 0.0059510469 0.69404984
-0.023608137 0.0039346814 0.6920774
-0.023442317 0.0019535422 0.69040942
-0.023301849 -0 0.68899643
-0.023252761 -0.0019377172 0.68850267
-0.023391724 -0.0038986206 0.68990052
-0.026357908 -0.0065894723 0.71973801
-0.026312284 -0.0087707937 0.71927905
-0.026248673 -0.010936946 0.71863914
-0.026269803 -0.013134897 0.71885175
-0.02673023 -0.015592635 0.72348332
-0.022566549 -0.015044332 0.68159986
-0.022505902 -0.01687938 0.6809898
-0.022452543 -0.018710464 0.68045312
-0.022400191 -0.020533502 0.67992651
-0.02235058 -0.02235055 0.67942739
-0.022308892 -0.024167955 0.67900813
-0.022269258 -0.0259808 0.67860937
-0.022230672 -0.027788371 0.67822123
-0.022199191 -0.029598922 0.67790455
-0.022171402 -0.031409502 0.677625
-0.022143684 -0.033215493 0.67734611
-0.022116929 -0.035018444 0.67707705
-0.022070346 -0.036783904 0.67660844
-0.021985091 -0.038473904 0.67575085
-0.021869779 -0.040094584 0.67459089
-0.021788908 -0.041762084 0.67377746
-0.021737004 -0.043473989 0.67325526
-0.021703297 -0.045215189 0.67291617
-0.021684956 -0.046984076 0.6727317
-0.021682451 -0.048785508 0.67270654
-0.021704867 -0.050644696 0.67293197
-0.021757483 -0.052580565 0.67346132
-0.021896416 -0.054741025 0.67485881
-0.022086829 -0.057057649 0.67677426
-0.022132011 -0.059018701 0.67722881
-0.022161419 -0.060943902 0.67752457
-0.022195581 -0.06288743 0.67786825
-0.022233963 -0.064849019 0.67825431
-0.022281736 -0.066845179 0.6787349
-0.022336029 -0.068869412 0.679281
-0.022398103 -0.070927292 0.67990541
-0.022470273 -0.073028386 0.6806314
-0.02255756 -0.075191855 0.68150949
-0.022661086 -0.077425376 0.68255091
-0.022787167 -0.079755053 0.68381912
-0.022952497 -0.082246453 0.6854822
-0.023185775 -0.085014522 0.68782884
-0.022431392 0.020392179 0.70075321
-0.022309916 0.018253595 0.69942021
-0.022237446 0.016172707 0.69862497
-0.022190019 0.014120907 0.6981045
-0.022110416 0.012060225 0.69723094
-0.021927284 0.0099669397 0.6952213
-0.021734281 0.0079033971 0.69310331
-0.021574795 0.0058840513 0.6913532
-0.021441996 0.003898561 0.68989593
-0.021327253 0.0019388795 0.68863672
-0.021454699 -0 0.69003528
-0.024214458 -0.0022012889 0.72032011
-0.024188599 -0.0043979287 0.72003627
-0.024122976 -0.0065789819 0.71931618
-0.02411991 -0.0087708831 0.71928251
-0.024201041 -0.011000484 0.72017288
-0.024588533 -0.013411939 0.72442508
-0.020690124 -0.013166428 0.6816451
-0.020639073 -0.015010238 0.68108487
-0.020590739 -0.016846955 0.68055445
-0.020543626 -0.018676013 0.68003744
-0.02050383 -0.020503819 0.67960078
-0.020467307 -0.02232796 0.67919999
-0.020431522 -0.024146348 0.67880726
-0.020400397 -0.025964111 0.67846572
-0.020374568 -0.027783513 0.6781823
-0.020348957 -0.029598475 0.67790127
-0.020324837 -0.031411111 0.6776365
-0.02028835 -0.033199131 0.67723614
-0.020219557 -0.034924686 0.67648125
-0.020111468 -0.036566287 0.67529505
-0.020032194 -0.038243264 0.67442518
-0.019980198 -0.039960414 0.67385459
-0.019944143 -0.041701347 0.67345887
-0.019922415 -0.043467104 0.67322046
-0.019918952 -0.045270354 0.67318249
-0.019935548 -0.047120392 0.67336458
-0.019976864 -0.049034089 0.67381799
-0.020067398 -0.051080644 0.67481148
-0.020271016 -0.053441763 0.67704588
-0.020326639 -0.055436283 0.67765629
-0.020353924 -0.057361066 0.67795575
-0.020383699 -0.059298038 0.6782825
-0.02041894 -0.061256826 0.67866921
-0.02046122 -0.063243777 0.67913318
-0.020509178 -0.065256476 0.67965949
-0.020564118 -0.067300737 0.68026233
-0.020630408 -0.069393188 0.68098974
-0.020708106 -0.071537077 0.68184245
-0.020800218 -0.073746234 0.68285322
-0.020912202 -0.076044351 0.68408215
-0.021053229 -0.078471124 0.68562973
-0.021256747 -0.08116211 0.68786305
-0.021685129 -0.084769115 0.69256395
-0.020497685 0.024597257 0.70202684
-0.020351533 0.02238667 0.70026267
-0.02027525 0.020275265 0.69934183
-0.020230247 0.018207192 0.6987986
-0.020170387 0.016136318 0.69807607
-0.020032378 0.014022678 0.69641012
-0.019844873 0.011906922 0.69414675
-0.019697068 0.0098485351 0.69236255
-0.01956781 0.0078270733 0.69080234
-0.019453315 0.00583601 0.68942016
-0.019515455 0.003903091 0.69017029
-0.022060215 0.0022060275 0.72088826
-0.022050589 -0 0.72077209
-0.021990601 -0.0021990538 0.72004801
-0.021969456 -0.0043938756 0.71979272
-0.022019537 -0.0066058636 0.72039723
-0.022392426 -0.0089569986 0.7248984
-0.018863807 -0.0094318688 0.6823042
-0.018815428 -0.011289239 0.68172026
-0.01877124 -0.013139904 0.68118691
-0.01872733 -0.014981896 0.68065679
-0.018689208 -0.016820312 0.68019664
-0.018655829 -0.018655807 0.67979372
-0.018622918 -0.020485222 0.67939645
-0.018593229 -0.022311866 0.67903811
-0.018568734 -0.024139345 0.67874241
-0.018545335 -0.025963485 0.67845994
-0.018523296 -0.027784914 0.67819387
-0.018494813 -0.02959168 0.67785001
-0.018440489 -0.031348825 0.6771943
-0.018346434 -0.033023566 0.67605901
-0.018265465 -0.034704417 0.67508161
-0.018213671 -0.036427349 0.67445642
-0.018176155 -0.038169891 0.67400354
-0.018153142 -0.0399369 0.67372572
-0.018148795 -0.041742206 0.67367327
-0.018159201 -0.043582112 0.67379892
-0.018190496 -0.045476228 0.67417657
-0.018261997 -0.047481209 0.67503977
-0.01845062 -0.049816668 0.67731667
-0.018511988 -0.05183357 0.67805737
-0.018539356 -0.053764135 0.67838776
-0.018565152 -0.055695444 0.67869914
-0.018597238 -0.05765143 0.67908645
-0.018634291 -0.059629738 0.67953372
-0.018676233 -0.061631531 0.68003994
-0.018725928 -0.063668132 0.68063986
-0.018784771 -0.065746665 0.68135017
-0.018853216 -0.0678716 0.68217635
-0.018934332 -0.070057005 0.68315554
-0.019032933 -0.07232517 0.68434572
-0.019156884 -0.074711859 0.68584198
-0.019327227 -0.077308893 0.68789816
-0.019631688 -0.080489904 0.69157338
-0.020224113 -0.084941268 0.69872457
-0.020292273 -0.087256789 0.69954735
-0.0183833 0.026553631 0.70116025
-0.018304244 0.024405628 0.70009989
-0.01825838 0.0223158 0.69948471
-0.018213922 0.020237714 0.69888848
-0.018117925 0.018117934 0.6976009
-0.017946225 0.015952229 0.69529802
-0.017803332 0.013847023 0.69338155
-0.017679825 0.01178655 0.69172502
-0.01757515 0.0097639859 0.69032109
-0.017574053 0.0078107119 0.69030631
-0.019890673 0.0066302419 0.72137755
-0.019895684 0.0044212341 0.72144479
-0.01985183 0.0022057891 0.72085661
-0.019814968 2.9802322e-08 0.72036213
-0.019845705 -0.0022050738 0.72077447
-0.02018851 -0.0044862926 0.7253722
-0.017026855 -0.0056755841 0.68296713
-0.016981523 -0.0075473189 0.68235916
-0.016941531 -0.0094119906 0.68182278
-0.016901789 -0.011267841 0.68128973
-0.016865769 -0.01311779 0.68080664
-0.016834749 -0.014964223 0.6803906
-0.016804783 -0.016804785 0.67998862
-0.016776798 -0.018640876 0.67961335
-0.016753767 -0.020476788 0.67930436
-0.016732663 -0.022310197 0.67902136
-0.016712418 -0.024140179 0.67874992
-0.016689936 -0.025962144 0.67844826
-0.016646501 -0.027744174 0.67786574
-0.01656957 -0.029456973 0.67683387
-0.016488334 -0.031144619 0.67574441
-0.016437478 -0.032874972 0.6750623
-0.016399408 -0.03462097 0.67455167
-0.016378531 -0.036396742 0.6742717
-0.01637073 -0.038198382 0.6741671
-0.016375732 -0.040029556 0.67423403
-0.016398273 -0.041906714 0.67453641
-0.016452853 -0.043874294 0.67526847
-0.016613033 -0.046147287 0.67741686
-0.016690677 -0.048217535 0.67845827
-0.016717754 -0.050153255 0.67882138
-0.016740127 -0.052080393 0.67912149
-0.01676874 -0.054032564 0.67950523
-0.016800834 -0.056002796 0.67993569
-0.016837141 -0.057994634 0.68042266
-0.016881892 -0.0600245 0.68102288
-0.016933249 -0.062088579 0.68171167
-0.016992928 -0.064195514 0.68251216
-0.017063564 -0.066358298 0.68345952
-0.01714934 -0.068597376 0.68460995
-0.017257053 -0.07094571 0.68605471
-0.017398737 -0.073461324 0.68795496
-0.017634131 -0.076414555 0.69111216
-0.018231252 -0.081027746 0.69912094
-0.018290266 -0.083322346 0.69991249
-0.01640944 0.030767679 0.70219731
-0.016324917 0.028568596 0.70092189
-0.016275069 0.026446998 0.7001698
-0.016240403 0.024360627 0.69964665
-0.016173864 0.022239089 0.69864267
-0.016030652 0.020038307 0.69648176
-0.015893232 0.017879903 0.6944083
-0.015777903 0.015777886 0.69266808
-0.015682645 0.01372233 0.69123077
-0.015630409 0.011722833 0.69044256
-0.015724599 0.0098278821 0.69186383
-0.017727816 0.0088639259 0.72209001
-0.017700223 0.0066375732 0.72167373
-0.017655022 0.0044137537 0.72099161
-0.017666319 0.0022082925 0.72116208
-0.017976936 -0 0.72584891
-0.015179345 -0.0018974245 0.68363661
-0.015138243 -0.0037845671 0.68301636
-0.01510152 -0.0056630671 0.68246228
-0.015065997 -0.0075330138 0.68192625
-0.015032726 -0.0093954206 0.6814242
-0.015003989 -0.01125294 0.68099064
-0.014977099 -0.013104975 0.68058491
-0.014951143 -0.01495114 0.68019325
-0.01492973 -0.016795933 0.67987019
-0.014910877 -0.018638611 0.6795857
-0.014892514 -0.020477206 0.67930859
-0.014874252 -0.02231136 0.67903304
-0.014841273 -0.024117082 0.67853546
-0.014780116 -0.025865227 0.67761266
-0.014703512 -0.027569056 0.67645681
-0.014651416 -0.029302835 0.67567074
-0.014616213 -0.031059444 0.67513961
-0.01459511 -0.03283897 0.67482114
-0.01458458 -0.034638375 0.67466229
-0.014585217 -0.036463022 0.67467189
-0.014600486 -0.038326234 0.6749022
-0.014639948 -0.040259838 0.67549771
-0.014758592 -0.042430967 0.67728782
-0.014862765 -0.044588268 0.67885971
-0.014889135 -0.046528518 0.67925757
-0.014909098 -0.048454583 0.67955887
-0.014933405 -0.050400257 0.67992562
-0.014960754 -0.052362651 0.68033826
-0.014993199 -0.054350346 0.68082786
-0.015031653 -0.056368709 0.68140805
-0.015075756 -0.058418542 0.68207347
-0.015127088 -0.06050837 0.68284804
-0.015187812 -0.062649727 0.68376434
-0.015261411 -0.06486097 0.68487477
-0.015353724 -0.067172527 0.68626773
-0.015474931 -0.069637179 0.68809658
-0.015661599 -0.072434902 0.6909132
-0.016231909 -0.077101558 0.6995185
-0.016285067 -0.079389721 0.7003206
-0.016417652 -0.082088232 0.70232111
-0.01442342 0.035028309 0.70332086
-0.014333758 0.032762885 0.70177472
-0.014282673 0.030605733 0.70089376
-0.014251463 0.028502911 0.70035565
-0.014204591 0.026379943 0.69954729
-0.014096144 0.024164796 0.69767725
-0.013967193 0.021948427 0.69545358
-0.013863753 0.019805372 0.6936698
-0.013775421 0.017711282 0.69214654
-0.013694843 0.015651256 0.69075704
-0.013766973 0.013766974 0.69200087
-0.015546127 0.013325274 0.72268128
-0.015532476 0.01109466 0.72244591
-0.015489203 0.0088509619 0.72169966
-0.015483724 0.0066358745 0.72160518
-0.015532201 0.0044377744 0.72244114
-0.015785398 0.0022550523 0.72680736
-0.013284648 -0 0.68368351
-0.013251124 -0.0018930435 0.68310541
-0.013219815 -0.0037770569 0.68256545
-0.013189646 -0.0056526959 0.68204522
-0.013163473 -0.007521987 0.68159389
-0.01313982 -0.0093855858 0.68118596
-0.013116838 -0.011242986 0.68078971
-0.013096975 -0.013096958 0.6804471
-0.013079906 -0.014948457 0.68015277
-0.013063465 -0.016795874 0.67986929
-0.01304794 -0.018639892 0.67960161
-0.013023245 -0.020465136 0.67917573
-0.012976923 -0.022246122 0.67837691
-0.012907105 -0.023970336 0.67717296
-0.012856884 -0.025713742 0.67630696
-0.012824494 -0.027481049 0.67574841
-0.012802743 -0.029263407 0.67537332
-0.012790401 -0.031062394 0.67516047
-0.012788113 -0.032883734 0.67512107
-0.01280092 -0.034745395 0.67534184
-0.012830743 -0.036659241 0.67585611
-0.012905916 -0.038717747 0.67715245
-0.013024989 -0.040935665 0.67920578
-0.013053338 -0.042889565 0.67969465
-0.013070875 -0.044814408 0.67999709
-0.013091197 -0.046754271 0.68034756
-0.013114089 -0.048709482 0.68074226
-0.01314258 -0.050692827 0.68123364
-0.013175061 -0.052700222 0.68179369
-0.013212385 -0.054737031 0.68243736
-0.013255739 -0.056810319 0.68318498
-0.013307917 -0.058935046 0.68408471
-0.013370353 -0.061121583 0.68516141
-0.013446888 -0.06339246 0.68648118
-0.01354879 -0.065808415 0.68823838
-0.01369586 -0.068479329 0.69077456
-0.014218487 -0.073123664 0.69978696
-0.014273184 -0.075443953 0.7007302
-0.014348908 -0.077894062 0.7020359
-0.012436319 0.039381653 0.70479733
-0.012328712 0.036986113 0.70263243
-0.012279695 0.034792453 0.70164633
-0.012250382 0.032667726 0.7010566
-0.012218076 0.030545205 0.70040661
-0.012142713 0.028333008 0.69889045
-0.012026842 0.026058167 0.69655931
-0.011934377 0.023868769 0.69469905
-0.011853376 0.021731228 0.69306946
-0.011783358 0.019638896 0.69166076
-0.011807086 0.017710686 0.69213814
-0.013352514 0.017803401 0.72322977
-0.013349427 0.015574336 0.72316766
-0.013314673 0.013314694 0.72246844
-0.01329863 0.011082232 0.72214568
-0.013327145 0.0088847876 0.72271937
-0.013554226 0.0067771077 0.72728789
-0.011420195 0.00380674 0.68435442
-0.011390255 0.0018983781 0.68375212
-0.011363266 -2.9802322e-08 0.68320918
-0.011336448 -0.0018894076 0.68266964
-0.011313251 -0.0037710667 0.68220294
-0.011292739 -0.005646348 0.68179023
-0.01127281 -0.007515192 0.68138933
-0.011254933 -0.0093791187 0.68102968
-0.01123968 -0.011239678 0.68072283
-0.01122539 -0.013096303 0.68043536
-0.01121231 -0.014949739 0.68017215
-0.011194166 -0.016791224 0.67980719
-0.011159255 -0.018598735 0.6791048
-0.011100704 -0.020351291 0.67792684
-0.011053376 -0.022106737 0.67697465
-0.011022897 -0.023882926 0.67636144
-0.011001327 -0.025669724 0.67592752
-0.010988039 -0.027470112 0.67566019
-0.010986069 -0.02929619 0.67562056
-0.010994196 -0.031150222 0.67578411
-0.01101594 -0.033047795 0.67622149
-0.011064456 -0.035037428 0.67719758
-0.011178118 -0.037260383 0.67948437
-0.011210259 -0.03923586 0.68013084
-0.011225474 -0.041160077 0.68043703
-0.011242079 -0.043094635 0.68077111
-0.011261689 -0.045046717 0.68116558
-0.011285353 -0.047022283 0.6816417
-0.011312185 -0.049019456 0.68218154
-0.011343 -0.051043481 0.68280149
-0.011380021 -0.053106755 0.68354625
-0.011423714 -0.055214614 0.68442535
-0.011475635 -0.057378173 0.68546987
-0.011538972 -0.059618026 0.68674409
-0.011620305 -0.061974943 0.68838042
-0.011737382 -0.064555585 0.69073582
-0.012196384 -0.069112837 0.69997025
-0.012254583 -0.071485072 0.70114112
-0.01230925 -0.073855489 0.70224088
-0.010316378 0.041265488 0.70365733
-0.010266042 0.039010972 0.70244211
-0.010237351 0.036854476 0.70174944
-0.010213987 0.034727544 0.70118535
-0.01016671 0.032533467 0.70004404
-0.010071917 0.03021574 0.69775552
-0.0099883564 0.027967393 0.6957382
-0.009916733 0.025783509 0.69400901
-0.0098575372 0.023658097 0.69257993
-0.0098449299 0.021658868 0.69227552
-0.011147771 0.022295535 0.7237289
-0.011152939 0.020075291 0.72385371
-0.011130214 0.017808348 0.72330511
-0.011107039 0.015549839 0.7227456
-0.011122247 0.013346732 0.7231127
-0.011315214 0.011315197 0.72777134
-0.0095447861 0.0076358318 0.68502939
-0.0095188925 0.0057113469 0.68440431
-0.0094962018 0.0037984848 0.68385649
-0.0094737271 0.0018947124 0.68331391
-0.0094536087 -0 0.68282819
-0.0094357803 -0.0018871427 0.68239784
-0.0094189774 -0.0037675798 0.68199217
-0.0094033647 -0.0056420267 0.68161523
-0.0093901288 -0.0075120628 0.68129569
-0.0093781622 -0.0093781352 0.68100679
-0.0093669957 -0.011240363 0.6807372
-0.0093538277 -0.013095319 0.68041927
-0.0093282629 -0.014925212 0.67980206
-0.0092832306 -0.016709805 0.67871493
-0.0092390059 -0.018478006 0.67764723
-0.0092112478 -0.020264745 0.67697716
-0.009190877 -0.0220581 0.6764853
-0.0091790743 -0.02386561 0.67620039
-0.0091758752 -0.025692433 0.67612314
-0.0091802198 -0.027540654 0.67622805
-0.0091951322 -0.029424399 0.67658806
-0.0092300754 -0.031382233 0.67743164
-0.0093265586 -0.033575594 0.67976093
-0.009358936 -0.035563916 0.68054259
-0.0093728909 -0.03749159 0.68087953
-0.0093860077 -0.039421231 0.68119621
-0.0094024101 -0.0413706 0.68159223
-0.0094213895 -0.043338388 0.68205041
-0.009442904 -0.045325965 0.68256974
-0.0094683133 -0.047341526 0.68318325
-0.0094985813 -0.049392611 0.68391395
-0.0095339101 -0.051483095 0.68476689
-0.0095758764 -0.053624928 0.68578005
-0.0096269846 -0.055836529 0.68701386
-0.0096914647 -0.058148801 0.68857062
-0.0097826431 -0.060652375 0.69077182
-0.0099599641 -0.06374377 0.69505274
-0.010229398 -0.067514002 0.70155746
-0.010268572 -0.069826275 0.7025032
-0.008288133 0.045584738 0.70471448
-0.0082414104 0.043267399 0.70330453
-0.0082136765 0.041068405 0.70246756
-0.0081959516 0.038930774 0.70193261
-0.0081662554 0.036748171 0.70103651
-0.0080975657 0.034414679 0.69896358
-0.008025418 0.032101691 0.69678634
-0.007965941 0.029872268 0.69499153
-0.0079167234 0.02770853 0.69350618
-0.0078805331 0.025611728 0.69241405
-0.0079284208 0.023785263 0.69385922
-0.008943242 0.02459392 0.72448415
-0.0089309104 0.022327304 0.72411197
-0.0089072222 0.020041227 0.72339714
-0.0089112278 0.017822474 0.72351801
-0.0090682078 0.015869379 0.72825527
-0.0076583847 0.011487573 0.68571007
-0.0076374901 0.0095468462 0.68507957
-0.0076185348 0.0076185465 0.68450755
-0.0076004528 0.00570032 0.68396187
-0.0075836913 0.0037918389 0.68345606
-0.0075688642 0.0018922389 0.68300861
-0.007555264 -2.9802322e-08 0.68259817
-0.0075421957 -0.0018855333 0.68220377
-0.007531241 -0.0037656128 0.6818732
-0.0075215609 -0.0056411624 0.68158108
-0.0075124418 -0.0075124502 0.68130594
-0.0075030634 -0.0093788207 0.68102288
-0.0074854125 -0.011228114 0.68049026
-0.0074528558 -0.01304251 0.67950779
-0.0074146157 -0.014829248 0.67835379
-0.0073895399 -0.016626477 0.67759705
-0.007371604 -0.018428981 0.67705578
-0.0073617883 -0.020244926 0.67675954
-0.0073574311 -0.022072285 0.67662805
-0.0073589464 -0.023916602 0.67667377
-0.0073682931 -0.025789022 0.67695582
-0.0073917774 -0.02771914 0.67766452
-0.0074623041 -0.029849172 0.67979282
-0.0075007295 -0.031878114 0.68095249
-0.0075130058 -0.0338085 0.68132293
-0.007523173 -0.035735071 0.68162978
-0.0075361184 -0.037680566 0.68202043
-0.0075507038 -0.039641172 0.68246055
-0.0075672618 -0.041619986 0.68296027
-0.0075876592 -0.04362905 0.68357581
-0.0076111178 -0.045666695 0.68428367
-0.007638481 -0.047740519 0.6851095
-0.0076709772 -0.049861342 0.68609011
-0.0077105486 -0.052046239 0.68728435
-0.0077603566 -0.054322451 0.6887874
-0.0078272773 -0.056747764 0.69080693
-0.0079451967 -0.059588969 0.6943655
-0.0081970589 -0.063527197 0.70196611
-0.0082235653 -0.065788507 0.70276594
-0.006251046 0.050008386 0.70612061
-0.0062026661 0.047553778 0.70417392
-0.0061787427 0.045310825 0.70321131
-0.0061646346 0.043152452 0.70264363
-0.0061463839 0.040975899 0.7019093
-0.0061034989 0.03865549 0.70018375
-0.0060455352 0.036273211 0.69785148
-0.0060003204 0.034001827 0.69603217
-0.0059607672 0.031790763 0.69444066
-0.0059253317 0.029626667 0.69301486
-0.0059497808 0.027765632 0.69399858
-0.0067223911 0.029130399 0.72508609
-0.0067177275 0.026870936 0.72489846
-0.0066985423 0.024561346 0.72412646
-0.0066949865 0.022316605 0.72398341
-0.0067140018 0.020142019 0.72474855
-0.006825401 0.018201053 0.72923088
-0.0057449983 0.013405025 0.68575877
-0.0057301731 0.011460364 0.68516225
-0.005716512 0.0095275342 0.68461263
-0.0057034795 0.0076046586 0.68408823
-0.0056919092 0.0056919158 0.68362266
-0.0056815902 0.0037877262 0.68320745
-0.0056716721 0.0018905699 0.6828084
-0.0056630918 -0 0.68246311
-0.0056555169 -0.0018851459 0.68215835
-0.0056485366 -0.0037656724 0.68187749
-0.0056417012 -0.005641669 0.68160242
-0.0056304215 -0.007507205 0.68114865
-0.0056094653 -0.0093491375 0.68030536
-0.0055790883 -0.011158168 0.67908311
-0.0055576679 -0.012967914 0.67822117
-0.00554412 -0.014784336 0.67767608
-0.0055353083 -0.016605914 0.67732155
-0.0055306586 -0.018435508 0.67713445
-0.0055303122 -0.020277798 0.67712051
-0.005536166 -0.022144705 0.677356
-0.0055505158 -0.024052262 0.67793345
-0.0055927662 -0.026099533 0.67963338
-0.0056356639 -0.028178334 0.68135959
-0.0056458176 -0.030111015 0.68176806
-0.0056534931 -0.032036483 0.68207693
-0.0056627709 -0.033976614 0.68245023
-0.00567328 -0.035930753 0.68287301
-0.005685722 -0.037904829 0.68337375
-0.0057005123 -0.039903551 0.68396878
-0.005717536 -0.041928649 0.68465382
-0.0057374001 -0.043986738 0.68545306
-0.0057609836 -0.046087861 0.68640202
-0.0057896478 -0.048247069 0.68755537
-0.0058256886 -0.050489277 0.68900555
-0.0058731684 -0.052858531 0.69091594
-0.0059489086 -0.055523157 0.69396353
-0.0061579077 -0.059526414 0.70237303
-0.0061779288 -0.061779261 0.70317858
-0.0041510453 0.051888078 0.70513564
-0.0041321395 0.0495857 0.70399457
-0.0041214693 0.047396898 0.7033506
-0.0041112928 0.04522422 0.70273638
-0.0040895185 0.042939961 0.70142215
-0.0040500937 0.040500909 0.69904268
-0.0040176222 0.038167417 0.69708288
-0.0039894492 0.035905033 0.69538248
-0.00396564 0.033707947 0.69394547
-0.003968833 0.031750679 0.69413817
-0.0044903415 0.033677578 0.72561401
-0.0044902205 0.031431526 0.7256068
-0.004479087 0.029114038 0.7249347
-0.0044725803 0.026835501 0.72454202
-0.0044816942 0.024649322 0.72509211
-0.0045583923 0.022791982 0.72972125
-0.0038413191 0.017285943 0.68644202
-0.0038310252 0.015324116 0.6858207
-0.0038218661 0.013376534 0.68526793
-0.0038128521 0.011438549 0.68472391
-0.0038049801 0.0095124543 0.68424881
-0.0037979186 0.0075958669 0.68382257
-0.0037912279 0.0056868494 0.68341875
-0.0037852193 0.0037852526 0.68305612
-0.0037799578 0.0018900037 0.68273854
-0.003775195 2.9802322e-08 0.68245107
-0.003770771 -0.0018854141 0.6821841
-0.0037643595 -0.0037643313 0.68179709
-0.0037519257 -0.0056278706 0.68104672
-0.0037317085 -0.0074633956 0.67982644
-0.003716381 -0.0092909336 0.67890131
-0.0037064017 -0.011119187 0.67829907
-0.0036995506 -0.012948424 0.67788553
-0.0036955478 -0.01478219 0.67764401
-0.0036948654 -0.016626894 0.67760277
-0.0036982247 -0.018491089 0.67780554
-0.0037064978 -0.020385742 0.67830485
-0.003726206 -0.022357255 0.67949432
-0.0037626047 -0.024456918 0.68169117
-0.0037712967 -0.026399046 0.68221575
-0.0037764204 -0.028323144 0.6825251
-0.0037823291 -0.030258626 0.68288171
-0.0037890319 -0.032206744 0.68328619
-0.0037973567 -0.034176201 0.68378866
-0.0038068909 -0.036165446 0.68436408
-0.0038178561 -0.038178563 0.68502593
-0.0038306438 -0.040221751 0.68579769
-0.0038458956 -0.042304873 0.68671823
-0.0038643407 -0.044439912 0.68783152
-0.0038874135 -0.046648949 0.689224
-0.0039178524 -0.048973143 0.6910612
-0.0039635827 -0.051526546 0.69382131
-0.0041117319 -0.055508375 0.7027629
-0.0041255644 -0.057757884 0.70359772
-0.0041570291 -0.060276926 0.70549685
-0.0020621871 0.049492508 0.7035259
-0.0020535709 0.047232151 0.70248586
-0.0020351615 0.044773549 0.70026362
-0.0020175835 0.042369246 0.69814181
-0.0020026364 0.040052742 0.69633752
-0.0019905823 0.037821054 0.69488245
-0.0019855741 0.035740346 0.69427788
-0.0022493089 0.038238257 0.7261135
-0.0022508975 0.036014378 0.72630531
-0.0022466527 0.033699811 0.72579288
-0.0022414997 0.031381011 0.72517085
-0.0022441538 0.029174 0.72549129
-0.0022832628 0.027399153 0.73021215
-0.0019263605 0.021189988 0.68713021
-0.0019210798 0.019210845 0.68649274
-0.0019163929 0.017247558 0.68592703
-0.0019118164 0.015294522 0.68537462
-0.0019077635 0.013354331 0.68488538
-0.0019040828 0.011424482 0.68444103
-0.0019006905 0.009503454 0.68403161
-0.001897555 0.0075902641 0.68365306
-0.0018948099 0.0056844652 0.68332171
-0.0018923806 0.0037847459 0.68302846
-0.0018901645 0.0018901825 0.68276095
-0.0018873839 -0 0.68242532
-0.0018819745 -0.0018819571 0.68177235
-0.0018724877 -0.0037449598 0.68062717
-0.0018638525 -0.0055915713 0.67958486
-0.0018583976 -0.0074335933 0.67892641
-0.0018544784 -0.0092723966 0.67845327
-0.0018520827 -0.011112481 0.67816412
-0.0018516715 -0.012961686 0.67811447
-0.0018528579 -0.014822841 0.67825758
-0.001856343 -0.016707093 0.67867833
-0.0018642832 -0.018642813 0.67963684
-0.0018836679 -0.020720333 0.68197674
-0.0018893365 -0.022672027 0.68266106
-0.001891937 -0.024595201 0.68297499
-0.0018947526 -0.026526541 0.6833148
-0.0018980948 -0.02847144 0.68371826
-0.0019021357 -0.030434132 0.68420601
-0.0019067239 -0.032414287 0.68475986
-0.001912021 -0.034416378 0.68539929
-0.0019183252 -0.036448151 0.68616021
-0.0019258416 -0.038516819 0.68706757
-0.0019347853 -0.04063049 0.68814719
-0.0019457323 -0.042806089 0.68946856
-0.0019601309 -0.045083016 0.69120663
-0.0019806225 -0.047534943 0.69368017
-0.0020576923 -0.051442295 0.70298332
-0.002066266 -0.053722888 0.70401829
-0.0020765737 -0.056067467 0.70526254
0 0.051974744 0.70555413
0 0.049089074 0.7014969
0 0.04660815 0.69921106
0 0.044248044 0.69738019
0 0.041966707 0.69582772
0 0.03973496 0.69441974
0 0.037979424 0.6958884
0 0.040608048 0.72692156
0 0.038306117 0.72659528
0 0.035954714 0.72585499
0 0.033715099 0.72591597
0 0.032022953 0.73070604
0 0.025117159 0.68782157
0 0.023121327 0.6871804
0 0.021140695 0.68658984
0 0.019172817 0.68603426
0 0.017217606 0.68552548
0 0.015273899 0.68506283
0 0.013340622 0.68464851
0 0.011415094 0.68425226
0 0.0094986558 0.68391573
0 0.0075888932 0.68361312
0 0.0056848526 0.68333906
0 0.0037850142 0.68304312
0 0.0018877983 0.68247259
0 -0 0.68143451
0 -0.0018696487 0.68028432
0 -0.0037272274 0.67955631
0 -0.0055776238 0.67902386
0 -0.0074271262 0.6787324
0 -0.0092796087 0.67862844
0 -0.011139721 0.67871159
0 -0.013016135 0.67905307
0 -0.014930069 0.6798752
0 -0.01697129 0.68222177
0 -0.018928379 0.68308377
0 -0.020852536 0.68342739
0 -0.022780269 0.6837495
0 -0.024722189 0.68415451
0 -0.026678324 0.68462402
0 -0.028650343 0.6851579
0 -0.030643493 0.68578529
0 -0.032664627 0.68653733
0 -0.034717292 0.68741715
0 -0.036810875 0.68846452
