# .PCD v0.7 - Point Cloud Data file format
VERSION 0.7
FIELDS x y z
SIZE 4 4 4
TYPE F F F
COUNT 1 1 1
WIDTH 1349
HEIGHT 1
VIEWPOINT 0 0 0 1 0 0 0
POINTS 1349
DATA ascii
-0.013414024 -0.067070127 0.72446734
-0.0084171128 0.080804288 0.65780497
-0.0083961813 0.07892409 0.65729964
-0.0084126974 0.07739681 0.65769839
-0.0084293075 0.075863779 0.65809941
-0.0084459838 0.074324638 0.65850204
-0.0084627541 0.072779715 0.65890688
-0.008480195 0.07123363 0.65932792
-0.0084979096 0.069682866 0.65975559
-0.0085156998 0.068125576 0.6601851
-0.0085335914 0.066561997 0.66061705
-0.0085515315 0.064991653 0.66105014
-0.0085700452 0.063418329 0.66149712
-0.0085889045 0.061840117 0.66195244
-0.0086079361 0.060255557 0.66241193
-0.0086270217 0.058663756 0.66287267
-0.0086463718 0.057066053 0.66333985
-0.0086660497 0.055462718 0.6638149
-0.0086860582 0.053853542 0.66429794
-0.0087063108 0.052237868 0.66478688
-0.0087267188 0.050614953 0.66527957
-0.0087474072 0.048985481 0.66577899
-0.0087684384 0.047349602 0.66628671
-0.0087898802 0.045707405 0.66680443
-0.0088115204 0.044057608 0.66732681
-0.0088336105 0.042401344 0.66786015
-0.0088558113 0.040736735 0.66839612
-0.0088781239 0.039063752 0.66893482
-0.0089005502 0.037382305 0.66947621
-0.0089238528 0.035695434 0.67003882
-0.008947406 0.034000129 0.67060745
-0.0089649446 0.032273799 0.67103082
-0.0089825196 0.030540586 0.67145514
-0.0090073561 0.028823555 0.67205477
-0.0090323314 0.027096987 0.67265773
-0.0090574129 0.025360763 0.67326325
-0.0090826666 0.023614913 0.67387295
-0.0091080619 0.021859348 0.67448598
-0.0091335997 0.020093918 0.67510247
-0.009159415 0.018318832 0.67572576
-0.0091866236 0.016535968 0.67638266
-0.0092143696 0.014743 0.6770525
-0.0092422822 0.012939185 0.67772639
-0.0092703653 0.011124432 0.67840433
-0.0092986189 0.0092986226 0.67908645
-0.0093270112 0.0074616075 0.67977184
-0.0093557164 0.0056134462 0.68046486
-0.0093845995 0.0037538409 0.68116218
-0.0094120316 0.0018824339 0.68182445
-0.0094379159 -0 0.68244934
-0.0094610807 -0.0018922091 0.68300861
-0.0094833877 -0.0037933588 0.68354714
-0.0095028393 -0.0057017207 0.68401676
-0.0095195444 -0.0076156259 0.68442005
-0.0095351096 -0.009535104 0.6847958
-0.0095512718 -0.011461526 0.68518603
-0.0095693935 -0.013397157 0.68562353
-0.0095895678 -0.015343308 0.68611062
-0.0096124848 -0.017302483 0.68666387
-0.0096355127 -0.019271016 0.6872198
-0.009660068 -0.021252126 0.68781257
-0.0096878242 -0.023250788 0.6884827
-0.0097157406 -0.025260895 0.68915665
-0.0097462852 -0.027289569 0.68989408
-0.0097795445 -0.029338628 0.69069707
-0.009813033 -0.031401694 0.69150555
-0.0098526068 -0.033498853 0.69246089
-0.0098929694 -0.035614669 0.69343531
-0.0099407695 -0.03777492 0.69458938
-0.0099927848 -0.039971113 0.69584513
-0.01006438 -0.042270392 0.69757354
-0.010297099 -0.045307249 0.70319188
-0.010353778 -0.04762736 0.70456016
-0.010407878 -0.049957812 0.70586634
-0.010462897 -0.05231449 0.70719457
-0.010522304 -0.054715961 0.70862883
-0.010582436 -0.057145149 0.7100805
-0.010648559 -0.059631944 0.7116769
-0.010716707 -0.062156886 0.71332204
-0.010791641 -0.064749837 0.71513116
-0.010873441 -0.067415357 0.71710598
-0.010964557 -0.070173174 0.71930569
-0.011072726 -0.073079944 0.72191715
-0.011218857 -0.076288223 0.72544503
-0.0067506791 0.081008136 0.65831769
-0.0067373849 0.079164267 0.65791649
-0.006749996 0.077624947 0.65829706
-0.0067626773 0.076080143 0.65867978
-0.0067754057 0.074529499 0.65906388
-0.0067881825 0.072972953 0.65944946
-0.0068012848 0.071413517 0.65984488
-0.0068148328 0.069852054 0.6602537
-0.006828458 0.068284601 0.66066486
-0.0068421373 0.06671083 0.66107768
-0.0068558948 0.065131009 0.66149282
-0.006869921 0.063546777 0.66191614
-0.0068844301 0.061959922 0.66235393
-0.0068990248 0.060366482 0.66279435
-0.006913681 0.058766276 0.66323668
-0.0069284239 0.057159483 0.66368163
-0.0069435425 0.05554834 0.6641379
-0.0069588246 0.053930879 0.66459906
-0.0069743688 0.052307785 0.66506809
-0.0069900798 0.050678104 0.66554224
-0.0070059844 0.049041897 0.66602218
-0.0070219859 0.047398388 0.6665051
-0.007038408 0.045749664 0.66700065
-0.0070549068 0.044093162 0.66749859
-0.0070716571 0.042429954 0.66800404
-0.0070886388 0.040759712 0.66851652
-0.0071058534 0.03908217 0.66903603
-0.0071233036 0.037397355 0.66956264
-0.0071411203 0.035705596 0.67010033
-0.0071592312 0.034006357 0.67064685
-0.0071681542 0.032256722 0.67091608
-0.007186661 0.030543298 0.67147458
-0.0072052628 0.028821081 0.67203593
-0.0072239353 0.027089775 0.67259943
-0.0072427313 0.025349528 0.67316669
-0.0072615989 0.023600191 0.67373604
-0.0072813067 0.02184391 0.67433077
-0.0073016812 0.020079613 0.67494565
-0.0073221968 0.01830548 0.67556477
-0.0073428284 0.016521364 0.6761874
-0.007363576 0.014727145 0.67681348
-0.0073844418 0.012922794 0.67744315
-0.007405425 0.01110813 0.67807639
-0.007426722 0.0092834234 0.67871904
-0.0074489452 0.0074489713 0.67938972
-0.0074717482 0.0056038201 0.68007791
-0.0074946913 0.0037473738 0.68077022
-0.0075177751 0.0018794537 0.68146688
-0.0075410022 -2.9802322e-08 0.68216783
-0.0075644017 -0.0018911064 0.6828739
-0.0075880326 -0.0037940145 0.68358707
-0.0076116966 -0.0057087839 0.68430114
-0.0076341396 -0.0076341331 0.68497849
-0.0076554264 -0.0095692873 0.6856209
-0.0076741837 -0.011511266 0.68618691
-0.0076923231 -0.01346156 0.68673432
-0.007707906 -0.015415788 0.68720454
-0.0077216146 -0.017373621 0.68761826
-0.0077342964 -0.019335747 0.68800098
-0.0077479193 -0.021306753 0.68841207
-0.0077630957 -0.023289293 0.68887007
-0.0077802371 -0.02528578 0.68938732
-0.0077990643 -0.027296722 0.68995547
-0.0078180134 -0.029317558 0.69052732
-0.0078390799 -0.031356335 0.69116306
-0.007861929 -0.033413202 0.69185263
-0.0078849113 -0.035482109 0.69254619
-0.0079111541 -0.037577987 0.6933381
-0.0079385471 -0.03969276 0.69416475
-0.0079673054 -0.041828364 0.6950326
-0.008000331 -0.044001848 0.69602931
-0.0080340514 -0.046195775 0.69704688
-0.008075675 -0.048454046 0.69830298
-0.0081244539 -0.050777853 0.69977504
-0.0082080178 -0.053352118 0.70229679
-0.0083693378 -0.056493014 0.707165
-0.0084138801 -0.058897167 0.70850921
-0.0084585426 -0.061324447 0.70985699
-0.0085054161 -0.063790619 0.71127158
-0.008554494 -0.066297293 0.71275258
-0.0086061386 -0.068849117 0.71431112
-0.0086608091 -0.071451664 0.71596098
-0.0087199379 -0.074119449 0.7177453
-0.0087826923 -0.076848567 0.71963906
-0.0088536739 -0.079683095 0.72178119
-0.0089352168 -0.082650751 0.72424197
-0.009035009 -0.085832536 0.72725338
-0.0050791986 0.081267208 0.6589691
-0.0050716992 0.079456598 0.65866733
-0.0050806771 0.077903748 0.65902859
-0.0050897384 0.07634607 0.65939319
-0.00509885 0.074783146 0.65975976
-0.005107976 0.073214322 0.66012704
-0.0051171356 0.071639895 0.66049552
-0.0051266779 0.070064604 0.66087955
-0.0051364317 0.068485796 0.66127199
-0.0051462227 0.066900879 0.66166592
-0.0051560332 0.065309763 0.66206068
-0.0051660053 0.063714057 0.66246194
-0.0051763025 0.062115669 0.66287625
-0.0051867301 0.060511857 0.66329581
-0.0051972535 0.058902204 0.6637193
-0.0052078199 0.057286024 0.66414446
-0.0052186288 0.055665374 0.66457933
-0.0052295737 0.054038912 0.66501975
-0.0052407845 0.052407861 0.66547078
-0.0052520614 0.050769925 0.66592455
-0.0052633877 0.049124986 0.66638029
-0.0052749845 0.047474861 0.66684693
-0.0052867262 0.045818299 0.66731936
-0.0052985386 0.044154525 0.66779464
-0.0053106295 0.042485058 0.66828114
-0.0053228703 0.040808678 0.66877365
-0.0065109623 0.047747046 0.71657878
-0.00652886 0.04570204 0.71729892
-0.0065465705 0.043643802 0.71801162
-0.0065638325 0.041570932 0.71870613
-0.006581157 0.039486945 0.71940321
-0.0065986011 0.03739208 0.72010517
-0.00661611 0.03528595 0.72080964
-0.0054191053 0.027095526 0.67264587
-0.0054332083 0.025354981 0.67321336
-0.0054473653 0.023605227 0.673783
-0.005461616 0.021846473 0.6743564
-0.0054759216 0.020078391 0.674932
-0.0054903221 0.01830107 0.67551148
-0.0055047786 0.016514391 0.6760931
-0.0055193519 0.014718264 0.67667949
-0.0055343695 0.012913555 0.67728382
-0.0055500646 0.011100143 0.67791528
-0.0055658696 0.0092764497 0.6785512
-0.0055817645 0.0074423552 0.67919075
-0.0055977507 0.0055977404 0.67983401
-0.005613829 0.0037425756 0.68048096
-0.0056300205 0.0018766522 0.68113244
-0.005646497 -0 0.68179542
-0.0056635188 -0.0018878281 0.68248034
-0.0056810952 -0.0037873983 0.68318754
-0.005698781 -0.0056987703 0.68389916
-0.0057165776 -0.007622093 0.68461519
-0.0057344851 -0.0095574856 0.68533581
-0.00575255 -0.011505097 0.68606269
-0.0057707727 -0.013465136 0.68679589
-0.0057888879 -0.015437037 0.6875248
-0.0058061969 -0.017418593 0.68822122
-0.005822435 -0.019408107 0.68887466
-0.0058368337 -0.021401733 0.68945396
-0.0058506886 -0.02340275 0.69001144
-0.0058624106 -0.025403768 0.69048309
-0.0058729383 -0.02740702 0.6909067
-0.0058826511 -0.029413223 0.69129753
-0.0058933673 -0.031431288 0.69172871
-0.0059053311 -0.033463538 0.69221008
-0.0059189303 -0.03551355 0.69275725
-0.0059334589 -0.037578583 0.69334185
-0.005948083 -0.039653867 0.69393027
-0.005965007 -0.04175505 0.69461125
-0.0059826472 -0.043872744 0.69532108
-0.0060005123 -0.046003908 0.69603992
-0.006021502 -0.048172027 0.69688445
-0.0060426877 -0.050355762 0.69773692
-0.0060661063 -0.052572936 0.69867921
-0.0060916096 -0.054824501 0.69970536
-0.0061197476 -0.057117641 0.70083755
-0.0061519765 -0.059469074 0.70213431
-0.0061942195 -0.06194219 0.70383406
-0.00634029 -0.065516323 0.70971149
-0.0063775172 -0.068026841 0.71120942
-0.0064117047 -0.070528746 0.71258497
-0.006446288 -0.07305789 0.7139765
-0.0064837108 -0.075643301 0.71548229
-0.00652174 -0.078260899 0.71701247
-0.0065632872 -0.080947191 0.7186842
-0.00660621 -0.083678633 0.72041124
-0.0066536777 -0.086497813 0.72232127
-0.0033995104 0.081588238 0.65977651
-0.0033963951 0.079815298 0.65958852
-0.0034016946 0.078238964 0.65990829
-0.0034073929 0.076666385 0.66025221
-0.0034131226 0.07508871 0.66059804
-0.0034188593 0.073505491 0.66094434
-0.0034246275 0.071917176 0.66129249
-0.0034304976 0.070325196 0.66164678
-0.0034367063 0.068734139 0.66202146
-0.0034429373 0.067137301 0.66239756
-0.0034491795 0.065534413 0.66277432
-0.003455444 0.063925743 0.66315246
-0.0034617311 0.062311172 0.6635319
-0.0034683421 0.060695976 0.66393089
-0.0034750386 0.059075624 0.66433507
-0.0034817487 0.057448864 0.66474009
-0.003488546 0.05581671 0.66515028
-0.0034955039 0.054180294 0.66557026
-0.0035025876 0.052538812 0.6659978
-0.003509725 0.050891012 0.66642857
-0.0035169653 0.04923749 0.66686559
-0.0035243474 0.047578692 0.66731107
-0.0035317731 0.04591307 0.66775924
-0.0035393804 0.044242233 0.66821837
-0.0035470831 0.042565018 0.66868335
-0.0035548199 0.040880412 0.66915035
-0.0043358267 0.047694117 0.71628821
-0.0043482799 0.045656949 0.71703988
-0.0043608239 0.043608248 0.71779692
-0.0043730582 0.04154405 0.71853536
-0.0043851496 0.039466321 0.71926516
-0.004397328 0.037377298 0.72000009
-0.004409574 0.035276592 0.72073925
-0.0044218884 0.033164173 0.72148252
-0.0044336817 0.031035781 0.72219431
-0.0044455589 0.028896123 0.72291112
-0.0044574994 0.026745021 0.72363174
-0.0044694846 0.024582177 0.72435516
-0.0036610314 0.018305182 0.67556071
-0.0036706463 0.016517907 0.67614102
-0.0036803526 0.014721394 0.67672688
-0.0036900968 0.012915343 0.677315
-0.0036999064 0.011099726 0.67790705
-0.0037097682 0.0092744231 0.6785022
-0.0037196688 0.0074393153 0.6790998
-0.003729692 0.0055945516 0.67970473
-0.003739937 0.003739953 0.68032306
-0.0037505897 0.0018753111 0.68096602
-0.0037614168 2.9802322e-08 0.68161947
-0.0037723063 -0.0018861294 0.68227673
-0.0037832591 -0.0037832558 0.6829378
-0.003794261 -0.0056913495 0.68360186
-0.0038054141 -0.0076107979 0.68427497
-0.0038167059 -0.0095417798 0.68495649
-0.003828299 -0.011484891 0.68565625
-0.0038403461 -0.013441205 0.68638331
-0.0038524689 -0.015409887 0.68711501
-0.003864669 -0.017390996 0.68785131
-0.0038769613 -0.019384772 0.68859321
-0.0038893626 -0.021391511 0.68934166
-0.0039018581 -0.023411125 0.69009584
-0.0039142049 -0.025442302 0.69084108
-0.0039260602 -0.02748242 0.69155663
-0.0039370577 -0.029527932 0.69222045
-0.0039468869 -0.031575084 0.69281363
-0.0039563118 -0.033628643 0.6933825
-0.0039641322 -0.035677195 0.69385445
-0.0039713527 -0.037727833 0.69429028
-0.0039779516 -0.039779544 0.69468856
-0.0039854455 -0.041847199 0.6951409
-0.0039938116 -0.043931931 0.69564575
-0.004003414 -0.046039283 0.69622535
-0.004013401 -0.048160821 0.69682813
-0.0040234537 -0.050293148 0.69743484
-0.0040354924 -0.052461386 0.69816142
-0.0040476038 -0.054642648 0.69889247
-0.0040604468 -0.056846291 0.69966757
-0.0040748813 -0.059085757 0.70053875
-0.0040894179 -0.061341286 0.70141613
-0.0041063498 -0.063648432 0.70243806
-0.004123881 -0.065982074 0.70349616
-0.00414465 -0.068386734 0.7047497
-0.0041678497 -0.070853442 0.70614988
-0.0042025587 -0.07354477 0.7082448
-0.0042962153 -0.077331871 0.71389747
-0.0043206448 -0.079931915 0.71537197
-0.0043442026 -0.082539827 0.71679378
-0.0043686479 -0.085188627 0.71826917
-0.0043945666 -0.08789134 0.71983349
-0.0017079243 0.081980348 0.66076267
-0.0017073416 0.080245048 0.66069227
-0.0017097861 0.078650117 0.66098738
-0.0017122435 0.077050984 0.66128397
-0.0017149078 0.075455934 0.6616056
-0.0017175981 0.073856741 0.66193032
-0.0017202909 0.072252214 0.66225541
-0.0017229982 0.070642948 0.66258216
-0.0017257911 0.069031656 0.66291934
-0.0017287189 0.067420065 0.66327274
-0.0017316624 0.06580314 0.6636281
-0.0017346221 0.06418103 0.66398531
-0.0017375856 0.062553078 0.66434306
-0.0017406746 0.060923606 0.66471595
-0.0017438778 0.059291899 0.6651026
-0.0017470868 0.057653874 0.66548991
-0.0017503074 0.056009859 0.66587871
-0.001753534 0.054359555 0.66626823
-0.001756797 0.052703947 0.6666621
-0.0017602086 0.051046073 0.66707391
-0.0017636521 0.04938224 0.66748953
-0.0017671214 0.047712296 0.66790831
-0.0017706734 0.046037525 0.66833711
-0.00177429 0.04435727 0.66877365
-0.0017779403 0.042670548 0.66921431
-0.0017816186 0.04097721 0.6696583
-0.0021613769 0.047550291 0.71549916
-0.002169342 0.045556158 0.7164607
-0.002176438 0.043528765 0.71731728
-0.0021833519 0.04148373 0.71815181
-0.0021897249 0.039415061 0.71892112
-0.0021960777 0.037333339 0.719688
-0.0022024771 0.035239637 0.72046041
-0.0022089041 0.033133537 0.72123623
-0.0022153 0.031014234 0.72200829
-0.0022215163 0.028879702 0.72275865
-0.0022277574 0.0267331 0.72351205
-0.0022340436 0.024574488 0.72427082
-0.0022403656 0.022403687 0.725034
-0.0022465216 0.02021873 0.72577703
-0.0022526204 0.018020958 0.72651327
-0.002258742 0.015811205 0.72725219
-0.0022649071 0.013589442 0.72799647
-0.0022710545 0.011355281 0.72873843
-0.0018602423 0.0074409544 0.67914903
-0.0018652283 0.0055956841 0.67975092
-0.001870234 0.0037404597 0.68035519
-0.0018752738 0.0018752813 0.68096352
-0.0018803338 -0 0.68157429
-0.0018854281 -0.0018854141 0.68218923
-0.0018906002 -0.0037811697 0.68281358
-0.0018958654 -0.0056875944 0.68344909
-0.0019012684 -0.0076050758 0.68410134
-0.0019068329 -0.0095341802 0.68477297
-0.0019124302 -0.01147458 0.68544871
-0.0019180605 -0.013426423 0.68612826
-0.0019237166 -0.015389711 0.68681109
-0.0019294731 -0.017365277 0.68750596
-0.0019352867 -0.019352853 0.68820769
-0.0019412106 -0.021353304 0.68892276
-0.001947406 -0.023368865 0.68967068
-0.001953641 -0.025397331 0.69042325
-0.001959916 -0.027438819 0.69118071
-0.0019662469 -0.029493719 0.69194496
-0.0019726343 -0.03156215 0.692716
-0.0019790556 -0.033643961 0.6934911
-0.0019853693 -0.03573665 0.69425321
-0.0019914617 -0.037837774 0.69498861
-0.0019970413 -0.039940804 0.69566214
-0.0020020916 -0.042043924 0.69627178
-0.0020068935 -0.044151634 0.69685137
-0.0020108132 -0.046248704 0.69732457
-0.0020144968 -0.04834792 0.69776922
-0.0020179253 -0.05044812 0.69818306
-0.0020218391 -0.05256781 0.69865555
-0.0020262031 -0.054707468 0.69918227
-0.0020312865 -0.056876004 0.69979596
-0.0020364288 -0.059056431 0.70041662
-0.0020418388 -0.061255187 0.70106965
-0.00204804 -0.063489228 0.70181823
-0.0020542708 -0.065736681 0.70257032
-0.0020611931 -0.06801936 0.70340592
-0.0020686323 -0.070333511 0.70430398
-0.0020763152 -0.072671026 0.70523131
-0.0020852799 -0.075070053 0.70631343
-0.0020944539 -0.0774948 0.70742095
-0.0021057806 -0.080019623 0.7087881
-0.0021193379 -0.082654178 0.71042472
-0.002170349 -0.086813927 0.71658224
-0.0021839237 -0.089540869 0.71822083
0 0.084613353 0.66304159
0 0.082464814 0.66198087
0 0.080759019 0.66201222
0 0.079143167 0.66228116
0 0.077522904 0.66254997
0 0.075898468 0.6628195
0 0.074276179 0.66310775
0 0.07265389 0.66340983
0 0.071026891 0.66371274
0 0.069395214 0.66401654
0 0.0677616 0.66432995
0 0.066127896 0.66465968
0 0.064489752 0.66499263
0 0.062846601 0.66532737
0 0.061198443 0.66566384
0 0.059550226 0.66602004
0 0.057898253 0.66638404
0 0.056240618 0.66674924
0 0.05457744 0.66711652
0 0.052908659 0.66748577
0 0.051239282 0.66787821
0 0.04956463 0.66827589
0 0.047883928 0.66867572
0 0.046196729 0.66907632
0 0.044503391 0.66947925
0 0.042804599 0.66988826
0 0.041101933 0.67031276
0 0.039651632 0.67216045
0 0.038344204 0.67500514
0 0.043040693 0.71437144
0 0.041146487 0.71600962
0 0.039212525 0.71756315
0 0.037202209 0.71875697
0 0.035146803 0.71976012
0 0.033068001 0.72070873
0 0.030962646 0.72156394
0 0.028840154 0.72239131
0 0.02669993 0.72317839
0 0.0245471 0.72397017
0 0.022381544 0.72476667
0 0.020203203 0.72556901
0 0.018009782 0.72634447
0 0.015803516 0.72711933
0 0.013584524 0.72789747
0 0.011352897 0.72868127
0 0.0091080368 0.72945702
0 0.0068498552 0.7302134
0 0.0045791268 0.73097265
0 0.0022959113 0.73173726
0 -0 0.73250628
0 -0.0018858612 0.68224072
0 -0.0037819147 0.68285751
0 -0.0056883395 0.68347949
0 -0.0076051652 0.68410397
0 -0.0095324814 0.68473268
0 -0.011470407 0.68536496
0 -0.013419539 0.68600947
0 -0.015379906 0.68666297
0 -0.017351747 0.68732464
0 -0.019336969 0.68801546
0 -0.021333843 0.68870926
0 -0.023342788 0.68940836
0 -0.025363982 0.69011337
0 -0.027398139 0.69083005
0 -0.029444724 0.69155103
0 -0.031504661 0.69228208
0 -0.033582062 0.69305158
0 -0.035672963 0.69382602
0 -0.037777603 0.69460648
0 -0.039896369 0.69539404
0 -0.042029291 0.69618762
0 -0.044176251 0.6969865
0 -0.046332449 0.69776428
0 -0.048497468 0.69852144
0 -0.050659984 0.69920605
0 -0.052820921 0.69983071
0 -0.054984033 0.70041859
0 -0.057131141 0.70089579
0 -0.059280336 0.7013486
0 -0.061433136 0.70178586
0 -0.063608229 0.70228159
0 -0.06580773 0.70283836
0 -0.068037868 0.70347363
0 -0.070279747 0.70411313
0 -0.072549969 0.70481396
0 -0.074852943 0.70558548
0 -0.077170134 0.70636171
0 -0.079538614 0.70726007
0 -0.081930965 0.70818621
0 -0.084366113 0.70919526
0 -0.086854994 0.71031314
0 -0.089402229 0.71154565
0.00174165 0.085340858 0.66483366
0.0017306681 0.083072066 0.66350806
0.0017317943 0.081394345 0.66364396
0.0017334442 0.079738438 0.66384315
0.00173538 0.078092128 0.66407681
0.0017373624 0.07644394 0.66431618
0.0017393494 0.074792027 0.66455597
0.0017413773 0.07313782 0.66480076
0.0017435922 0.071487308 0.66506815
0.0017458858 0.069835454 0.66534501
0.0017481794 0.068179011 0.66562188
0.0017505034 0.066519111 0.66590238
0.0017530117 0.064861447 0.66620517
0.0017555457 0.063199639 0.66651106
0.0017581304 0.061534584 0.66682303
0.0017607166 0.059864372 0.66713518
0.0017634655 0.058194369 0.66746706
0.0017662793 0.056520939 0.66780668
0.0017691019 0.054842174 0.66814739
0.0017719589 0.05315879 0.66849232
0.0017748439 0.051470429 0.66884053
0.0017779403 0.049782366 0.66921437
0.0017810477 0.048088282 0.6695894
0.0017841661 0.046388328 0.6699658
0.0017872952 0.044682354 0.67034352
0.0017904802 0.042971522 0.67072797
0.0017938631 0.041258842 0.67113638
0.0017972654 0.039539844 0.67154706
0.0018006739 0.03781417 0.67195845
0.0018040695 0.036081403 0.67236841
0.0018073211 0.03433913 0.6727609
0.0018194267 0.032749683 0.67422211
0.0018316952 0.031138837 0.67570311
0.0018469895 0.029551834 0.67754924
0.0018582526 0.027873784 0.67890882
0.0021897154 0.03065604 0.71891999
0.0022037285 0.028648466 0.72061145
0.0022152413 0.026582927 0.72200119
0.0022246966 0.024471641 0.72314256
0.0022331364 0.022331357 0.72416133
0.0022406364 0.020165741 0.72506666
0.0022479647 0.017983735 0.72595125
0.0022546807 0.015782773 0.726762
0.0022614165 0.013568521 0.72757506
0.0022681928 0.011340976 0.72839296
0.0022750096 0.0091000199 0.72921586
0.0022817322 0.006845206 0.73002738
0.0022883273 0.004576683 0.73082346
0.0022949604 0.0022949874 0.73162413
0.0023016217 2.9802322e-08 0.73242825
0.0023083324 -0.0023083389 0.73323834
0.002314772 -0.0046295524 0.73401558
0.0023212365 -0.0069636703 0.73479599
0.0023277481 -0.0093110204 0.73558199
0.0023342855 -0.011671424 0.73637104
0.0019122183 -0.011473328 0.68542314
0.0019174283 -0.013422012 0.68605202
0.0019227186 -0.015381724 0.68669057
0.0019280456 -0.017352432 0.68733364
0.0019334023 -0.019334048 0.68798023
0.001938781 -0.021326572 0.68862951
0.0019443034 -0.023331642 0.68929613
0.0019498724 -0.025348336 0.68996835
0.0019554656 -0.027376503 0.69064355
0.0019613218 -0.029419839 0.69135046
0.0019672364 -0.031475812 0.69206434
0.0019731945 -0.033544332 0.69278353
0.0019792279 -0.035626113 0.6935119
0.0019853376 -0.037721425 0.69424939
0.0019914852 -0.039829701 0.69499147
0.0019976872 -0.041951418 0.6957401
0.0020042488 -0.04409346 0.69653213
0.0020108537 -0.046249628 0.69732946
0.0020175185 -0.048420459 0.69813395
0.0020242441 -0.050606102 0.69894576
0.0020310064 -0.052806169 0.69976211
0.0020378223 -0.055021197 0.70058489
0.0020444 -0.057243198 0.70137882
0.0020508692 -0.059475183 0.7021597
0.002056618 -0.061698526 0.70285368
0.0020619489 -0.063920408 0.70349717
0.0020668036 -0.066137701 0.7040832
0.002070867 -0.068338573 0.70457369
0.0020746966 -0.070539683 0.70503598
0.0020785059 -0.072747707 0.70549577
0.0020828233 -0.07498163 0.7060169
0.0020877249 -0.077245802 0.70660859
0.0020931482 -0.079539597 0.70726323
0.0020986088 -0.081845731 0.7079224
0.0021048416 -0.084193647 0.70867479
0.0021114321 -0.086568713 0.70947027
0.0021181984 -0.088964313 0.71028709
0.0035231933 0.086318254 0.66724145
0.0034957479 0.083897978 0.66558504
0.0034974341 0.082189739 0.66568673
0.0034999661 0.080499202 0.66583955
0.0035025754 0.07880795 0.66599703
0.0035051887 0.077114165 0.66615474
0.003508199 0.07542628 0.66633648
0.0035115967 0.073743552 0.66654152
0.0035149888 0.072057307 0.66674626
0.0035185232 0.070370466 0.66695958
0.0035223749 0.068686336 0.66719204
0.003526459 0.067002714 0.66743857
0.0035305519 0.065315217 0.66768563
0.0035348793 0.063627839 0.6679467
0.0035394053 0.061939597 0.66821998
0.0035440431 0.060248762 0.66849983
0.0035487812 0.058554858 0.66878581
0.0035537088 0.056859344 0.66908324
0.0035588779 0.055162609 0.66939521
0.0035640746 0.053461134 0.66970885
0.0035693373 0.051755399 0.67002648
0.0035747183 0.050046027 0.67035127
0.0035804994 0.048336744 0.67070019
0.0035862862 0.04662168 0.67104948
0.0035921049 0.044901311 0.67140061
0.0035979424 0.04317531 0.67175293
0.0036040456 0.041446537 0.67212135
0.0036104301 0.039714754 0.67250669
0.0036168369 0.037976801 0.67289335
0.0036232669 0.03623265 0.67328143
0.0036240281 0.034428239 0.67332739
0.0036307995 0.032677203 0.67373604
0.0036377683 0.030921042 0.67415667
0.0036447772 0.029158235 0.67457974
0.0036517999 0.027388513 0.67500359
0.0036588497 0.025611937 0.67542905
0.0036778098 0.023905784 0.6765734
0.0037028634 0.022217214 0.67808551
0.0037388748 0.020563811 0.68025899
0.0037572365 0.018786192 0.68136722
0.0044298354 0.019934267 0.72196209
0.0044576977 0.017830789 0.72364378
0.0044855513 0.015699446 0.72532487
0.0045065186 0.013519555 0.72659034
0.0045242235 0.011310518 0.72765899
0.0045408523 0.0090817213 0.72866261
0.0045558815 0.0068338215 0.72956967
0.0045703212 0.004570365 0.73044121
0.0045841597 0.0022920668 0.73127645
0.004598083 -0 0.73211682
0.004612112 -0.0023060441 0.73296344
0.0046261624 -0.0046261549 0.73381156
0.0046397178 -0.0069595575 0.73462963
0.0046533532 -0.009306699 0.73545265
0.0046670688 -0.011667669 0.73628044
0.004680844 -0.014042526 0.73711187
0.0046942816 -0.01643002 0.73792291
0.0047075977 -0.018830359 0.73872662
0.0047209896 -0.021244437 0.7395348
0.0047344356 -0.023672193 0.74034631
0.0038786894 -0.021332771 0.68869752
0.0038893018 -0.023335785 0.68933809
0.0039001706 -0.025351107 0.68999398
0.0039111301 -0.027377933 0.69065547
0.0039221365 -0.029416054 0.69131982
0.0039332202 -0.031465709 0.69198877
0.0039446158 -0.033529222 0.69267648
0.0039560772 -0.035604656 0.69336832
0.0039676055 -0.037692249 0.69406414
0.0039794859 -0.039794832 0.69478118
0.003991677 -0.041912615 0.69551694
0.0040039429 -0.044043392 0.69625723
0.0040164129 -0.046188742 0.69700992
0.0040289937 -0.04834792 0.69776922
0.0040416699 -0.050520867 0.69853431
0.004054409 -0.052707314 0.69930315
0.0040678577 -0.054916054 0.70011485
0.0040814625 -0.05714047 0.70093602
0.0040952256 -0.0593808 0.70176667
0.0041090813 -0.061636209 0.70260286
0.0041230144 -0.063906729 0.70344388
0.0041370597 -0.066192955 0.70429152
0.0041505294 -0.06848371 0.70510447
0.004163844 -0.070785344 0.70590818
0.0041754846 -0.073071003 0.70661068
0.0041864892 -0.075356781 0.70727485
0.0041961442 -0.077628642 0.70785761
0.0042045363 -0.079886168 0.70836413
0.0042123408 -0.082140654 0.70883518
0.004220353 -0.084407061 0.70931876
0.004229432 -0.08670336 0.7098667
0.0042398432 -0.089036673 0.71049505
0.0053815893 0.087899327 0.67113638
0.005317138 0.085074216 0.6685431
0.0053158011 0.083280891 0.66848928
0.0053157634 0.081508398 0.66848773
0.0053166295 0.079749465 0.6685226
0.0053175902 0.077991337 0.66856128
0.0053198515 0.076251239 0.66865218
0.0053224359 0.074514121 0.66875619
0.0053252303 0.072778165 0.66886866
0.0053287842 0.071050465 0.66901165
0.0053328169 0.069326639 0.66917384
0.0053369505 0.067601353 0.66934025
0.0053415843 0.065879524 0.6695267
0.0053466642 0.06415996 0.66973108
0.0053519062 0.062438905 0.66994196
0.0053575989 0.06071946 0.67017102
0.0053634951 0.058998436 0.67040831
0.0053696344 0.0572761 0.67065531
0.0053759613 0.055551618 0.67090994
0.0053828824 0.053828835 0.67118841
0.005389879 0.052102178 0.67146993
0.0053968946 0.050371021 0.67175221
0.0054041808 0.048637629 0.67204535
0.0054120524 0.046904445 0.67236209
0.005420045 0.045167029 0.67268372
0.0054280609 0.043424517 0.67300618
0.005436101 0.04167676 0.67332971
0.0054446189 0.039927214 0.6736725
0.0054535596 0.038174927 0.67403221
0.0054621329 0.036414266 0.67437714
0.0054625701 0.034596294 0.67439473
0.0054716696 0.03283003 0.67476094
0.00548136 0.031061053 0.67515087
0.0054912861 0.029286861 0.67555022
0.0055012275 0.027506143 0.67595023
0.0055112257 0.025719076 0.6763525
0.0055212602 0.023925453 0.67675626
0.0055318205 0.022127271 0.67718112
0.0055426052 0.020322889 0.67761517
0.0055534323 0.018511504 0.67805076
0.0055643218 0.016692936 0.67848897
0.0055764355 0.014870524 0.67897636
0.0056148157 0.01310125 0.68052065
0.0056537702 0.011307508 0.68208808
0.0057041738 0.0095069706 0.68411613
0.0057375981 0.0076501667 0.68546098
0.0067632198 0.00676319 0.72672892
0.0068078493 0.0045385659 0.72852463
0.0068452591 0.0022817552 0.73002988
0.0068755476 -0 0.7312485
0.0069024204 -0.0023007691 0.73232991
0.0069262115 -0.0046174824 0.73328722
0.0069494597 -0.0069494545 0.73422253
0.0069707921 -0.0092943609 0.7350809
0.0069922549 -0.011653781 0.73594457
0.0070138508 -0.014027685 0.73681349
0.0070355809 -0.016416371 0.73768783
0.0070568151 -0.0188182 0.7385422
0.0070778448 -0.021233499 0.73938841
0.0070989993 -0.023663282 0.74023962
0.0071202479 -0.02610755 0.74109453
0.0071413172 -0.028565288 0.74194241
0.0071618631 -0.031034738 0.74276912
0.0071825273 -0.033518434 0.74360049
0.0072032763 -0.036016375 0.74443537
0.0072240764 -0.038528413 0.7452724
0.0059180665 -0.033535719 0.69272256
0.0059347255 -0.035608351 0.69339287
0.0059516211 -0.03769359 0.69407266
0.0059686364 -0.039790928 0.69475728
0.0059858202 -0.041900724 0.69544876
0.0060034157 -0.044025034 0.69615674
0.0060211155 -0.04616189 0.6968689
0.0060389196 -0.048311353 0.69758528
0.0060570249 -0.05047518 0.69831377
0.0060758539 -0.052657396 0.69907135
0.0060948245 -0.05485341 0.69983476
0.0061141639 -0.057065517 0.7006129
0.0061336006 -0.059291482 0.70139498
0.0061531621 -0.061531603 0.70218199
0.0061728479 -0.063786089 0.70297414
0.0061935293 -0.066064298 0.70380628
0.0062146066 -0.068360656 0.70465446
0.0062358547 -0.070673019 0.70550931
0.0062572742 -0.073001534 0.70637119
0.0062788408 -0.075346112 0.70723903
0.0063005309 -0.077706546 0.70811164
0.0063211722 -0.080068171 0.70894223
0.0063417898 -0.082443208 0.70977181
0.0063594952 -0.08479327 0.71048427
0.0063764877 -0.087145329 0.71116799
0.0063909036 -0.089472651 0.711748
0.0072733155 0.087279767 0.67408967
0.0072450386 0.085129231 0.67323637
0.0072271442 0.08311215 0.67269629
0.0072152633 0.081171751 0.67233777
0.0072076758 0.07928443 0.67210877
0.0072017624 0.077418923 0.67193031
0.0071987058 0.075586379 0.67183816
0.0071968678 0.0737679 0.67178261
0.0071961177 0.071961194 0.67175996
0.007197334 0.070174009 0.67179674
0.0071988353 0.068388939 0.67184198
0.0072013224 0.066612214 0.67191702
0.0072048735 0.064843893 0.67202419
0.007208948 0.063078314 0.67214715
0.0072133648 0.061313599 0.67228043
0.0072189062 0.059555948 0.67244768
0.007224848 0.057798773 0.67262703
0.0072312178 0.056041896 0.6728192
0.0072378074 0.054283559 0.6730181
0.0072450647 0.052526712 0.67323709
0.0072531514 0.050772071 0.67348111
0.0072612562 0.049013495 0.67372572
0.0072693797 0.047250986 0.67397082
0.0072783148 0.04548949 0.67424053
0.0072879088 0.043727428 0.67453003
0.007297528 0.041960806 0.6748203
0.0073071732 0.040189445 0.67511135
0.0073171109 0.038414836 0.67541128
0.0073150247 0.036575139 0.67534828
0.0073262174 0.034799546 0.67568612
0.007337417 0.03301838 0.67602408
0.007348679 0.03123191 0.67636395
0.0073604621 0.029441863 0.67671955
0.0073728529 0.027648211 0.67709345
0.0073852856 0.025848478 0.67746866
0.0073977616 0.024042726 0.67784512
0.0074104154 0.022231251 0.67822701
0.0074239946 0.020416021 0.67863679
0.007437651 0.018594146 0.6790489
0.0074513298 0.016765505 0.67946166
0.0074650873 0.014930159 0.67987686
0.0074789235 0.013088137 0.68029439
0.0074935406 0.011240304 0.68073553
0.007508412 0.0093855262 0.68118429
0.0075233136 0.0075232983 0.68163395
0.0075382758 0.0056537092 0.68208551
0.0075689214 0.0037844479 0.68301034
0.0076219579 0.0019055009 0.68461084
0.0076758023 -0 0.68623579
0.0077387518 -0.0019347072 0.68813545
0.007795692 -0.0038978457 0.68985379
0.0091836331 -0.0068877041 0.73173857
0.0092439065 -0.0092439055 0.73355746
0.0092884367 -0.011610568 0.73490131
0.009326309 -0.013989449 0.73604417
0.009361512 -0.016382664 0.73710656
0.0093934983 -0.018786997 0.73807186
0.0094239293 -0.021203786 0.73899013
0.0094533516 -0.023633361 0.73987806
0.0094830031 -0.026078224 0.74077284
0.0095127961 -0.028538346 0.74167192
0.0095424131 -0.031012833 0.74256569
0.0095712533 -0.03349942 0.74343604
0.0096002687 -0.036000997 0.74431169
0.009629461 -0.038517833 0.74519259
0.0096587837 -0.041049808 0.74607748
0.0096869729 -0.04359135 0.74692822
0.0097152805 -0.046147585 0.74778247
0.0097438013 -0.048718989 0.7486431
0.0097724898 -0.051305562 0.74950892
0.0080062198 -0.044034183 0.69620693
0.0080289273 -0.046166331 0.69689226
0.0080520874 -0.048312545 0.69759119
0.0080754468 -0.050471514 0.69829607
0.0080991387 -0.052644372 0.69901103
0.0081233 -0.05483228 0.69974017
0.0081476057 -0.057033241 0.70047367
0.0081720576 -0.059247434 0.70121157
0.0081966557 -0.061474919 0.70195389
0.0082224505 -0.063723981 0.70273232
0.0082486458 -0.065989166 0.7035228
0.0082751801 -0.068270206 0.70432353
0.0083018849 -0.070566058 0.7051295
0.0083287619 -0.072876662 0.70594054
0.008355815 -0.075202316 0.70675695
0.008384062 -0.077552587 0.70760942
0.0084131025 -0.079924494 0.70848572
0.0084423441 -0.082312852 0.70936823
0.0084717544 -0.084717512 0.71025574
0.0085014058 -0.087139428 0.71115053
0.0085312659 -0.089578301 0.71205163
0.0092494236 0.077695161 0.67789876
0.0092056887 0.07548666 0.67684293
0.0091795791 0.073436648 0.67621255
0.0091640782 0.071479797 0.67583829
0.0091521097 0.069555998 0.67554945
0.0091445493 0.06766966 0.67536688
0.0091391383 0.065801769 0.67523623
0.0091369022 0.063958317 0.67518222
0.0091352668 0.062119812 0.67514277
0.0091364682 0.060300708 0.67517179
0.0091386707 0.058487505 0.67522496
0.0091411415 0.056675076 0.67528462
0.0091456864 0.054874122 0.6753943
0.0091512399 0.053077191 0.67552841
0.0091569005 0.051278651 0.67566502
0.0091634402 0.049482584 0.67582291
0.0091714356 0.047691464 0.67601597
0.0091796806 0.045898408 0.67621499
0.009187906 0.044101954 0.67641366
0.0091973646 0.042307913 0.67664194
0.0092077898 0.04051429 0.67689365
0.0092182402 0.038716614 0.67714596
0.0092110783 0.036844313 0.67697304
0.009222419 0.035045207 0.67724681
0.0092350831 0.033246338 0.67755258
0.0092478162 0.031442553 0.67785996
0.0092605511 0.029633731 0.6781674
0.0092734918 0.027820498 0.67847979
0.0092878826 0.026006073 0.67882723
0.0093022836 0.024185956 0.6791749
0.0093167638 0.022360235 0.67952454
0.0093313595 0.020529002 0.67987686
0.0093465587 0.018693119 0.68024385
0.0093625439 0.016852587 0.68062973
0.0093785832 0.015005738 0.68101692
0.0093947137 0.013152599 0.68140638
0.0094115008 0.011293799 0.68181169
0.0094290236 0.0094290376 0.68223464
0.009446647 0.0075573325 0.68266022
0.0094643375 0.0056786239 0.68308723
0.0094820932 0.0037928522 0.68351591
0.0094999159 0.0018999577 0.68394625
0.0095189651 -0 0.68440604
0.0095381271 -0.0019076169 0.68486869
0.0095574027 -0.0038229823 0.68533397
0.0095768301 -0.0057460666 0.685803
0.0096343625 -0.0077074766 0.68719196
0.0097031165 -0.0097030997 0.68885189
0.0097955512 -0.011754632 0.69108343
0.0098505896 -0.013790816 0.69241214
0.011615127 -0.018584162 0.73501188
0.011694342 -0.021049798 0.73692435
0.011761912 -0.023523808 0.73855561
0.011815852 -0.025994837 0.73985779
0.011863478 -0.028472334 0.74100769
0.011905538 -0.030954421 0.74202305
0.01194647 -0.033450097 0.74301124
0.011984297 -0.035952866 0.7439245
0.012022366 -0.03847155 0.74484348
0.012060676 -0.041006267 0.74576837
0.012099288 -0.043557435 0.74670058
0.012136561 -0.046118915 0.74760044
0.012173885 -0.048695564 0.74850154
0.012211438 -0.051288038 0.74940813
0.012249225 -0.053896546 0.75032043
0.01228604 -0.056515813 0.7512092
0.01232247 -0.059147835 0.75208861
0.012359177 -0.06179589 0.75297481
0.012396042 -0.064459413 0.75386488
0.010156515 -0.054845184 0.69979793
0.010185543 -0.057039082 0.7004987
0.010215197 -0.05924812 0.70121455
0.010245233 -0.061471403 0.7019397
0.01027591 -0.06371063 0.70268035
0.010307026 -0.065964967 0.70343161
0.010338332 -0.068232983 0.70418727
0.010369828 -0.070514798 0.70494771
0.010401517 -0.07281059 0.70571274
0.010434314 -0.075127065 0.70650458
0.010468194 -0.07746467 0.70732248
0.010502383 -0.07981813 0.70814788
0.010536796 -0.082187027 0.70897865
0.01057148 -0.084571838 0.70981604
0.010606349 -0.086972058 0.71065784
0.01064258 -0.089397639 0.71153247
0.011307668 0.067846 0.68209064
0.011235599 0.065541029 0.6806407
0.011198425 0.063457727 0.6798929
0.011176621 0.061471432 0.67945415
0.011159047 0.05951491 0.67910057
0.011149764 0.057607144 0.67891383
0.011141282 0.055706382 0.67874324
0.011138678 0.053836972 0.67869079
0.011136694 0.051971257 0.67865092
0.01113686 0.050115883 0.67865419
0.011139876 0.048272789 0.67871493
0.011142936 0.046428919 0.6787765
0.01114786 0.044591457 0.67887557
0.01115486 0.042760283 0.67901641
0.011161827 0.040926725 0.67915654
0.011166851 0.039083987 0.67925763
0.011135454 0.037118196 0.67862594
0.011155855 0.035326868 0.67903638
0.011173293 0.033519834 0.67938721
0.011187949 0.031699181 0.67968208
0.011201433 0.02987051 0.67995334
0.011214948 0.028037399 0.68022525
0.011228497 0.026199847 0.68049783
0.011242668 0.024359107 0.68078291
0.011258226 0.022516459 0.6810959
0.011273995 0.020669013 0.68141317
0.011289767 0.018816262 0.68173051
0.011306093 0.016959161 0.68205893
0.01132392 0.015098572 0.68241757
0.011341759 0.013232052 0.68277651
0.011359697 0.011359692 0.68313742
0.011377994 0.0094816685 0.68350548
0.011396697 0.0075977743 0.68388176
0.011416502 0.0057082474 0.68428028
0.011436422 0.0038121343 0.68468094
0.011456366 0.0019093752 0.6850822
0.011477784 -0 0.68551308
0.011499546 -0.0019165874 0.68595093
0.011521348 -0.0038404465 0.68638957
0.011543276 -0.005771637 0.6868307
0.011565333 -0.0077102184 0.68727446
0.011587563 -0.0096563101 0.68772173
0.011611226 -0.011611223 0.68819773
0.011634986 -0.013574153 0.68867576
0.011658888 -0.01554516 0.68915659
0.0116924 -0.017538607 0.68983084
0.011776795 -0.019627988 0.6915288
0.01186251 -0.021747947 0.69325322
0.011965485 -0.023930997 0.6953249
0.012048707 -0.026105523 0.69699919
0.014202701 -0.033139616 0.74033421
0.014300256 -0.035750657 0.74229681
0.014371863 -0.038324952 0.74373746
0.014432594 -0.040892333 0.74495924
0.014488664 -0.043465972 0.74608731
0.014539748 -0.046042532 0.74711508
0.014588074 -0.0486269 0.74808735
0.014635081 -0.051222771 0.74903297
0.014682393 -0.053835422 0.74998486
0.01473001 -0.05646503 0.75094289
0.014776919 -0.059107631 0.75188661
0.014823031 -0.061762661 0.75281429
0.014869431 -0.064434201 0.75374776
0.014916122 -0.067122549 0.75468713
0.014962361 -0.069824368 0.75561738
0.015007388 -0.072535694 0.75652325
0.012371643 -0.065982074 0.70349616
0.012407434 -0.068240911 0.70421618
0.012443845 -0.070515126 0.70494878
0.012480939 -0.072805494 0.70569503
0.012519035 -0.075114191 0.70646143
0.012557523 -0.077438056 0.70723581
0.01259625 -0.079776227 0.70801485
0.012635215 -0.082128882 0.70879877
0.012674423 -0.08449614 0.70958757
0.01271452 -0.086882561 0.71039426
0.012756552 -0.089295834 0.71123993
0.013491069 0.05781886 0.6872431
0.013340408 0.055267423 0.68464506
0.013286766 0.053147078 0.68371999
0.013256341 0.051131606 0.68319535
0.013233052 0.049151361 0.68279368
0.013220513 0.047216117 0.68257749
0.013209744 0.04529056 0.68239182
0.013205212 0.043388575 0.68231368
0.013202773 0.041494429 0.6822716
0.013029398 0.03908819 0.67928183
0.013008396 0.037166834 0.67891967
0.013042596 0.035401344 0.67950946
0.013077023 0.033626646 0.68010312
0.013109769 0.03183803 0.68066776
0.013141249 0.030037135 0.68121064
0.013170651 0.028222799 0.68171769
0.013198196 0.026396424 0.68219268
0.01322296 0.024556905 0.68261975
0.01324436 0.022704601 0.68298876
0.013262062 0.020840406 0.68329406
0.013278303 0.018969029 0.68357402
0.013294581 0.017093033 0.68385482
0.013310901 0.015212476 0.68413621
0.013328326 0.013328314 0.68443668
0.013346711 0.011440068 0.68475372
0.013365659 0.009546876 0.68508047
0.013384709 0.0076483786 0.68540895
0.013404738 0.0057448745 0.68575436
0.013426167 0.0038360357 0.68612385
0.013447714 0.0019211173 0.68649542
0.013469538 2.9802322e-08 0.68687177
0.013491641 -0.001927346 0.68725294
0.013514025 -0.0038611591 0.687639
0.013537948 -0.0058019757 0.68805152
0.013561903 -0.0077496767 0.68846458
0.013586367 -0.0097045302 0.6888864
0.013612504 -0.011667907 0.68933719
0.013638742 -0.013638705 0.68978965
0.013665082 -0.015617251 0.69024384
0.013691524 -0.017603368 0.69069982
0.013718123 -0.019597292 0.69115847
0.013745094 -0.021599442 0.69162357
0.013773687 -0.023611993 0.69211668
0.013802347 -0.025632918 0.69261086
0.013831289 -0.027662575 0.69310999
0.013898468 -0.029782414 0.69426841
0.014000691 -0.032001585 0.69603121
0.014143102 -0.034347534 0.69848704
0.014220276 -0.036566436 0.69981784
0.016771751 -0.045523316 0.74381638
0.016889911 -0.048256874 0.74585402
0.01699275 -0.050978273 0.74762744
0.017073596 -0.053659827 0.74902153
0.017144635 -0.05633238 0.75024652
0.017207216 -0.058996141 0.75132573
0.017267788 -0.061670691 0.7523703
0.017324245 -0.064347208 0.75334388
0.017381158 -0.067041606 0.75432527
0.017438358 -0.069753408 0.75531167
0.017495675 -0.072482079 0.75630009
0.014697537 -0.079786599 0.70804781
0.014741208 -0.082129598 0.70880097
0.014785578 -0.084489018 0.70956612
0.014831535 -0.086870432 0.7103585
0.015524866 0.044633985 0.68885005
0.015414327 0.042389393 0.68718219
0.014859839 0.039007068 0.6788156
0.014887861 0.037219644 0.67923844
0.014919601 0.035434067 0.6797173
0.014952818 0.033643842 0.68021858
0.014987866 0.031849205 0.68074739
0.015024602 0.030049205 0.68130165
0.015062368 0.028241932 0.68187147
0.01510249 0.026429355 0.68247688
0.015142825 0.024607092 0.68308556
0.015183435 0.022775143 0.6836983
0.015222525 0.020930976 0.68428808
0.01526013 0.019075215 0.68485546
0.015294765 0.017206609 0.68537807
0.015327621 0.015327662 0.68587387
0.015357141 0.01343751 0.68631929
0.015382873 0.011537135 0.68670756
0.015403828 0.0096274018 0.68702376
0.015422999 0.0077114999 0.68731302
0.015442217 0.0057908297 0.687603
0.0154619 0.0038654804 0.68789995
0.015482533 0.001935333 0.68821132
0.015503701 -0 0.68853068
0.015526131 -0.0019407272 0.68886912
0.015548566 -0.0038871467 0.68920767
0.015572641 -0.0058397353 0.6895709
0.015598007 -0.0077989995 0.68995368
0.015623393 -0.0097646415 0.69033676
0.015649475 -0.011737108 0.69073027
0.015675643 -0.013716161 0.69112509
0.015701963 -0.01570195 0.69152224
0.015730159 -0.01769641 0.6919477
0.01575846 -0.019698054 0.69237477
0.015788233 -0.021708816 0.69282395
0.015819117 -0.023728669 0.69328994
0.015850125 -0.025756449 0.69375783
0.015881253 -0.027792186 0.69422752
0.015912566 -0.029836088 0.6947
0.015943941 -0.031887859 0.69517338
0.01597614 -0.033949256 0.69565928
0.016009878 -0.036022216 0.69616836
0.016043823 -0.038104057 0.69668055
0.016078494 -0.04019624 0.69720364
0.016189368 -0.042497098 0.69887662
0.016310815 -0.044854701 0.7007091
0.016462553 -0.047329843 0.7029987
0.016573245 -0.049719721 0.70466894
0.019543072 -0.061072081 0.74948007
0.019682022 -0.063966572 0.75157672
0.019786119 -0.066778153 0.75314736
0.019873055 -0.0695557 0.75445914
0.0199525 -0.072327793 0.75565791
0.016852453 0.039322406 0.68062806
0.016857058 0.037460148 0.68068975
0.016876388 0.035627961 0.68094909
0.01689868 0.033797413 0.68124807
0.016921096 0.031962067 0.68154871
0.016953075 0.030138791 0.68197763
0.016985558 0.028309286 0.68241322
0.017018102 0.026472628 0.68284976
0.017053289 0.024632514 0.68332177
0.017091932 0.02278924 0.68383998
0.017131725 0.020938784 0.68437374
0.017174391 0.019082665 0.68494594
0.017217467 0.017217457 0.68552369
0.017264133 0.015345901 0.68614966
0.017310986 0.013464123 0.68677807
0.017358096 0.011572063 0.68740988
0.017404117 0.0096689463 0.68802714
0.017448084 0.0077547133 0.68861681
0.017488537 0.0058294833 0.68915939
0.017527062 0.0038949251 0.68967605
0.017561717 0.0019513071 0.6901409
0.01759211 -0 0.69054854
0.017616609 -0.0019573867 0.69087708
0.017638898 -0.0039197505 0.69117606
0.017661242 -0.0058870614 0.69147575
0.017684616 -0.0078598261 0.69178927
0.017708609 -0.0098381042 0.69211102
0.017732736 -0.011821836 0.69243467
0.017758749 -0.013812333 0.69278353
0.01778491 -0.015808821 0.69313449
0.017813403 -0.017813414 0.69351655
0.017842835 -0.019825369 0.69391137
0.01787279 -0.021844476 0.69431305
0.017903132 -0.023870856 0.69472009
0.017933575 -0.025904089 0.69512838
0.017964123 -0.027944177 0.69553804
0.01799679 -0.029994637 0.6959762
0.018029718 -0.032052845 0.69641793
0.018065449 -0.034123629 0.69689703
0.01810132 -0.036202639 0.69737822
0.018137481 -0.038290232 0.69786322
0.018173715 -0.040386021 0.69834918
0.018210167 -0.042490363 0.69883806
0.01824669 -0.04460302 0.69932801
0.018284475 -0.046726972 0.6998347
0.018323759 -0.048863351 0.70036161
0.018363509 -0.051009744 0.70089471
0.018430097 -0.053242505 0.70178795
0.018570092 -0.055710256 0.70366555
0.01871215 -0.058215559 0.70557082
0.018873153 -0.060813487 0.70773023
0.019073926 0.030518264 0.68484062
0.019039523 0.028559297 0.68442529
0.019044742 0.026662648 0.6844883
0.019059105 0.024776846 0.68466169
0.019084694 0.022901624 0.68497056
0.019110424 0.021021485 0.68528116
0.019143326 0.019143313 0.6856783
0.019180531 0.017262518 0.68612742
0.019217882 0.015374303 0.68657827
0.019256489 0.013479561 0.68704426
0.019300759 0.011580467 0.68757868
0.019345459 0.0096727014 0.68811828
0.019394349 0.0077577829 0.68870842
0.019443564 0.0058330595 0.68930244
0.019496521 0.0038993061 0.68994176
0.019550301 0.0019550025 0.69059092
0.019604458 2.9802322e-08 0.69124466
0.019657834 -0.001965791 0.69188893
0.019708317 -0.003941685 0.69249839
0.019755317 -0.005926609 0.6930657
0.019799953 -0.0079199672 0.69360453
0.019840229 -0.0099201202 0.69409072
0.019875616 -0.01192534 0.69451785
0.019903842 -0.013932705 0.69485855
0.019929608 -0.015943676 0.69516957
0.019955281 -0.017959774 0.69547945
0.019982776 -0.019982755 0.69581139
0.020010347 -0.022011369 0.69614416
0.020037994 -0.024045587 0.69647789
0.020067325 -0.026087523 0.69683194
0.02009739 -0.028136313 0.69719487
0.020130703 -0.030196071 0.69759703
0.020164615 -0.032263368 0.69800639
0.020199375 -0.034338921 0.69842589
0.020234255 -0.036421686 0.698847
0.020269254 -0.038511574 0.69926941
0.020304376 -0.040608764 0.69969344
0.020341687 -0.042717516 0.70014381
0.020380629 -0.044837385 0.70061386
0.020421805 -0.046970159 0.7011109
0.020463146 -0.049111515 0.70160997
0.020504655 -0.051261663 0.70211101
0.02054642 -0.053420693 0.7026152
0.020588268 -0.055588305 0.70312035
0.020630373 -0.057765067 0.70362854
0.020674186 -0.05995512 0.70415747
0.020719474 -0.062158436 0.70470411
0.020765563 -0.064373255 0.7052604
0.020884218 -0.066829503 0.70669276
0.021046026 -0.069451898 0.70864588
0.021255771 -0.072269619 0.71117777
0.021393457 -0.074877113 0.71283984
0.021304056 0.017430604 0.68838227
0.021307273 0.015496194 0.68841755
0.021314617 0.013563842 0.68849814
0.021343712 0.011642009 0.68881738
0.021372968 0.0097149611 0.68913841
0.021405969 0.007784009 0.68950057
0.02144826 0.0058495402 0.68996465
0.021490805 0.0039074421 0.69043154
0.021533433 0.0019576252 0.69089931
0.021582831 -0 0.69144136
0.021633476 -0.0019666851 0.69199717
0.021688119 -0.0039432645 0.69259679
0.021743983 -0.0059301555 0.69320983
0.021803332 -0.0079284608 0.69386113
0.021864481 -0.0099384189 0.69453216
0.021925975 -0.011959612 0.695207
0.021987375 -0.013991952 0.69588077
0.022044882 -0.016032636 0.69651186
0.022098964 -0.01808095 0.69710529
0.022150191 -0.020136565 0.69766748
0.022196462 -0.022196472 0.69817525
0.022236997 -0.024258554 0.69861996
0.022269567 -0.02631858 0.69897747
0.022298981 -0.028380513 0.69930017
0.022328835 -0.030448407 0.69962782
0.022360129 -0.032523811 0.69997126
0.022391513 -0.034605056 0.70031559
0.022422986 -0.036692142 0.70066094
0.022455737 -0.038787186 0.70102042
0.022490054 -0.040891021 0.70139694
0.02252844 -0.043008834 0.70181823
0.022567606 -0.0451352 0.7022481
0.022607187 -0.047269553 0.70268238
0.022646908 -0.049411446 0.70311826
0.022686768 -0.051560849 0.7035557
0.022726769 -0.053717852 0.70399463
0.022768982 -0.055887491 0.70445782
0.022814661 -0.058073699 0.70495915
0.02286157 -0.060271412 0.7054739
0.022908768 -0.062478423 0.70599186
0.022956066 -0.064694345 0.70651078
0.023003653 -0.066919744 0.7070331
0.023051342 -0.069154024 0.70755643
0.023099327 -0.071397871 0.70808297
0.023149557 -0.073657691 0.70863414
0.023201471 -0.075932056 0.70920384
0.023255389 -0.078222692 0.70979553
0.023437703 -0.080966622 0.71179616
0.023622999 -0.083754241 0.71382958
0.023679454 0.0059198439 0.6927948
0.023648491 0.0039414465 0.69248337
0.023655199 0.0019712746 0.69255078
0.023679454 -0 0.6927948
0.023712464 -0.001976043 0.69312692
0.023745568 -0.0039575696 0.69345987
0.02379252 -0.0059480965 0.69393224
0.023840416 -0.0079468191 0.69441402
0.023888506 -0.0099535286 0.69489777
0.023941945 -0.011970997 0.69543529
0.023998978 -0.013999403 0.69600898
0.02405937 -0.01603958 0.69661653
0.024122391 -0.018091798 0.69725049
0.024188181 -0.020156801 0.69791222
0.02425717 -0.022235721 0.69860625
0.024326555 -0.024326563 0.69930422
0.024396436 -0.026429445 0.70000708
0.024461538 -0.028538465 0.70066196
0.024523381 -0.030654192 0.70128405
0.024581712 -0.03277564 0.70187086
0.024634358 -0.034898698 0.70240045
