# .PCD v0.7 - Point Cloud Data file format
VERSION 0.7
FIELDS x y z
SIZE 4 4 4
TYPE F F F
COUNT 1 1 1
WIDTH 1334
HEIGHT 1
VIEWPOINT 0 0 0 1 0 0 0
POINTS 1334
DATA ascii
-0.029100997 -0.04850167 0.68878466
-0.029047389 -0.050348848 0.6883533
-0.028993975 -0.052189171 0.68792343
-0.028956724 -0.054052562 0.68762368
-0.02891968 -0.055911392 0.6873256
-0.028882843 -0.057765692 0.68702912
-0.02884599 -0.059615046 0.68673253
-0.028815866 -0.061473846 0.68649018
-0.028788453 -0.063334614 0.68626952
-0.028761204 -0.065192074 0.68605024
-0.028734008 -0.067046046 0.68583143
-0.028706862 -0.068896472 0.68561292
-0.028682396 -0.070749909 0.68541598
-0.028662132 -0.072610766 0.6852529
-0.028641788 -0.074468642 0.68508923
-0.028621472 -0.076323956 0.68492573
-0.028601186 -0.078176588 0.68476254
-0.028581036 -0.080026925 0.68460041
-0.028562548 -0.081879273 0.68445158
-0.027435491 -0.0254758 0.69115198
-0.027355244 -0.027355254 0.69046009
-0.027304491 -0.029254824 0.69002247
-0.027253924 -0.031147331 0.6895864
-0.027207879 -0.03303811 0.68918949
-0.027172944 -0.034936637 0.68888819
-0.027137993 -0.036830157 0.68858689
-0.027103133 -0.03871876 0.68828636
-0.027068678 -0.040603042 0.68798929
-0.027042866 -0.042495906 0.68776667
-0.027017104 -0.044385254 0.68754458
-0.026991287 -0.046270788 0.68732202
-0.026965624 -0.048152894 0.68710065
-0.026940009 -0.050031424 0.68687981
-0.026919197 -0.051915586 0.6867004
-0.026900077 -0.053800166 0.6865356
-0.026880875 -0.055681825 0.68637002
-0.026861701 -0.057560742 0.68620467
-0.026842557 -0.059437096 0.68603957
-0.026823543 -0.061310977 0.68587565
-0.026807632 -0.063189417 0.68573844
-0.026792353 -0.065067112 0.68560672
-0.026777709 -0.066944301 0.68548048
-0.026764816 -0.068823814 0.68536931
-0.026751837 -0.070701271 0.68525738
-0.026740298 -0.072580785 0.6851579
-0.026729479 -0.074460715 0.68506461
-0.026718572 -0.076338738 0.6849705
-0.026705636 -0.078209385 0.68485904
-0.026692713 -0.08007811 0.68474752
-0.026679801 -0.081945106 0.68463624
-0.025687996 -0.0039520264 0.69312227
-0.025600744 -0.0059078634 0.69231206
-0.025536522 -0.0078574121 0.69171566
-0.025488792 -0.0098033845 0.6912725
-0.025441337 -0.011742145 0.69083178
-0.02540249 -0.013678282 0.69047117
-0.025369598 -0.015612036 0.6901657
-0.025336888 -0.017540932 0.68986201
-0.025304165 -0.019464761 0.68955815
-0.02527447 -0.021386117 0.68928242
-0.025250236 -0.02330792 0.68905741
-0.025226051 -0.025226027 0.68883282
-0.025201907 -0.027140528 0.68860865
-0.025177814 -0.029051334 0.68838489
-0.02515435 -0.030959219 0.6881671
-0.02513627 -0.032870501 0.68799919
-0.025118312 -0.034779161 0.68783242
-0.025100281 -0.03668502 0.68766499
-0.025082281 -0.038588107 0.68749779
-0.025064303 -0.040488482 0.68733096
-0.025047123 -0.042387456 0.6871714
-0.025032859 -0.044288903 0.68703896
-0.025018608 -0.046188205 0.68690664
-0.025005721 -0.048087925 0.68678689
-0.024993517 -0.049987048 0.68667364
-0.024981519 -0.051884681 0.6865623
-0.024971353 -0.05378446 0.68646789
-0.024961196 -0.055682659 0.68637353
-0.024950569 -0.057578236 0.68627483
-0.024938419 -0.059468538 0.68616205
-0.024926282 -0.061356962 0.68604928
-0.024914159 -0.063243598 0.68593675
-0.024902046 -0.065128416 0.68582433
-0.024886515 -0.067002147 0.68568015
-0.024868438 -0.068866432 0.68551224
-0.024850288 -0.070727766 0.68534374
-0.024832265 -0.072586596 0.68517637
-0.02481417 -0.074442506 0.68500829
-0.024791285 -0.076280892 0.68479586
-0.024766082 -0.0781084 0.68456185
-0.024740931 -0.079932258 0.68432832
-0.024715737 -0.081752047 0.68409431
-0.023829347 0.015886247 0.69430262
-0.023747917 0.013852924 0.69348347
-0.023698241 0.011849135 0.69298381
-0.023653802 0.0098557472 0.69253677
-0.023609435 0.0078698099 0.69209051
-0.023577265 0.0058943033 0.69176692
-0.023546569 0.0039244294 0.69145811
-0.023516044 0.0019596815 0.69115108
-0.023485506 2.9802322e-08 0.69084388
-0.023460364 -0.0019550323 0.69059092
-0.023437651 -0.0039062798 0.69036245
-0.023415074 -0.0058537722 0.69013536
-0.023392543 -0.0077974796 0.68990874
-0.023370054 -0.0097375214 0.68968248
-0.023350151 -0.01167503 0.68948227
-0.023333363 -0.013611108 0.68931341
-0.02331651 -0.015544325 0.6891439
-0.023299679 -0.017474741 0.68897462
-0.023282876 -0.019402415 0.68880558
-0.023266094 -0.021327227 0.68863678
-0.023251409 -0.023251444 0.68848908
-0.023238091 -0.025174588 0.68835509
-0.023224879 -0.027095646 0.68822217
-0.023213474 -0.029016852 0.68810743
-0.023202082 -0.030936092 0.68799281
-0.023191687 -0.032854885 0.68788832
-0.023182195 -0.03477329 0.68779278
-0.02317271 -0.036690116 0.68769741
-0.023162432 -0.038604051 0.68759394
-0.023151176 -0.040514559 0.68748081
-0.023139758 -0.042422891 0.68736589
-0.023128437 -0.044329494 0.68725204
-0.023115793 -0.046231598 0.68712485
-0.023099963 -0.048124909 0.68696558
-0.023083091 -0.050013363 0.68679583
-0.023066154 -0.051898837 0.68662548
-0.02304933 -0.053781778 0.68645626
-0.023031028 -0.055658311 0.6862722
-0.023007907 -0.057519764 0.68603963
-0.022984391 -0.059376329 0.685803
-0.022960922 -0.06122911 0.68556696
-0.022936977 -0.063076705 0.6853261
-0.02291072 -0.06491366 0.68506199
-0.022884525 -0.066746533 0.68479848
-0.022858387 -0.068575174 0.68453556
-0.02283231 -0.070399612 0.68427324
-0.022806382 -0.072220206 0.68401241
-0.022780424 -0.07403639 0.68375134
-0.022754524 -0.075848401 0.68349075
-0.022728683 -0.077656344 0.68323088
-0.022702899 -0.079460159 0.68297148
-0.022677263 -0.081260189 0.68271357
-0.022653051 -0.083061203 0.68247002
-0.02195221 0.035921812 0.69549483
-0.021881606 0.033817023 0.69472003
-0.021840189 0.031767547 0.69426554
-0.021799013 0.029725939 0.69381374
-0.021760317 0.027694941 0.69338906
-0.021731878 0.025683135 0.69307703
-0.021703428 0.023676485 0.69276476
-0.021675136 0.02167511 0.69245434
-0.021646835 0.019678921 0.6921438
-0.021625826 0.017693877 0.69191319
-0.021604858 0.015712649 0.69168317
-0.021583848 0.013735205 0.69145256
-0.02156296 0.011761636 0.69122332
-0.021542115 0.009791851 0.69099456
-0.021525519 0.007827431 0.69081247
-0.021509955 0.0058663189 0.69064164
-0.021494331 0.0039080381 0.69047022
-0.021478727 0.0019526482 0.69029903
-0.02146315 2.9802322e-08 0.69012803
-0.021447593 -0.0019497871 0.68995738
-0.021435231 -0.0038973093 0.68982172
-0.021422883 -0.0058426261 0.68968618
-0.021411382 -0.0077859461 0.68956
-0.021400725 -0.009727627 0.68944299
-0.021390162 -0.011667371 0.68932712
-0.021381272 -0.01360625 0.68922955
-0.021372471 -0.01554361 0.68913293
-0.021363346 -0.017479092 0.68903285
-0.021353813 -0.019412577 0.68892825
-0.021343382 -0.02134338 0.68881369
-0.021332875 -0.023272246 0.68869841
-0.021321636 -0.025198251 0.68857515
-0.021309005 -0.027120531 0.68843651
-0.021293424 -0.029036492 0.68826556
-0.021277783 -0.030949503 0.6880939
-0.021262083 -0.032859594 0.68792158
-0.021246161 -0.034766436 0.68774688
-0.021226989 -0.036664784 0.68753654
-0.021205151 -0.038554788 0.68729687
-0.02118336 -0.040440977 0.68705773
-0.021161614 -0.042323202 0.68681908
-0.02113756 -0.044196695 0.68655509
-0.021113234 -0.046065271 0.68628818
-0.021088965 -0.047929466 0.6860218
-0.021064751 -0.049789399 0.68575609
-0.021040594 -0.05164507 0.68549103
-0.02101657 -0.053496718 0.68522739
-0.020992523 -0.055343926 0.68496352
-0.02096853 -0.057186902 0.68470025
-0.020944592 -0.059025675 0.68443757
-0.020920947 -0.060860932 0.68417805
-0.020897277 -0.062691838 0.6839183
-0.020875718 -0.064524919 0.68368173
-0.020854361 -0.066354752 0.68344736
-0.020833127 -0.068181157 0.68321437
-0.020811936 -0.070003778 0.68298185
-0.020790711 -0.071822464 0.68274897
-0.020769605 -0.073637694 0.68251729
-0.020748544 -0.075449228 0.68228614
-0.020727446 -0.077256873 0.6820547
-0.020706471 -0.079061031 0.68182451
-0.020685537 -0.080861658 0.68159473
-0.020664567 -0.082658231 0.68136466
-0.021138852 0.057074875 0.70976645
-0.02094252 0.054450572 0.70739651
-0.020825373 0.052063406 0.70598239
-0.020734243 0.04976216 0.70488238
-0.019865988 0.045691788 0.69440162
-0.019839836 0.043647647 0.69408596
-0.019813834 0.041609079 0.69377202
-0.01978993 0.039579839 0.69348353
-0.019770617 0.037564158 0.69325042
-0.019751338 0.035552412 0.69301772
-0.019732101 0.03354457 0.69278544
-0.019712899 0.031540632 0.69255364
-0.019694509 0.02954179 0.69233167
-0.019680101 0.027552158 0.69215775
-0.019665791 0.025565505 0.69198501
-0.019651424 0.023581684 0.69181162
-0.01963708 0.021600783 0.69163847
-0.019622756 0.019622773 0.69146556
-0.019609606 0.017648637 0.69130683
-0.019598238 0.015678614 0.69116956
-0.019586807 0.013710797 0.69103158
-0.019576922 0.011746168 0.69091231
-0.019567199 0.0097835958 0.69079494
-0.01955802 0.0078231692 0.69068414
-0.019549919 0.0058649778 0.69058633
-0.019541826 0.003908366 0.69048864
-0.019533129 0.0019533336 0.69038367
-0.019524366 -0 0.69027787
-0.019514769 -0.0019514859 0.690162
-0.019504957 -0.0039010048 0.69004357
-0.01949333 -0.0058479905 0.6899032
-0.019481035 -0.007792443 0.68975484
-0.019466558 -0.0097332597 0.68958008
-0.019452104 -0.011671245 0.68940556
-0.019437445 -0.01360625 0.68922865
-0.0194213 -0.015537053 0.68903375
-0.019402847 -0.017462552 0.68881106
-0.019382779 -0.019382745 0.68856877
-0.019362677 -0.021298975 0.68832612
-0.019341197 -0.023209423 0.68806684
-0.019318869 -0.025114506 0.68779731
-0.019296518 -0.02701512 0.68752748
-0.019274218 -0.028911352 0.6872583
-0.019251969 -0.030803174 0.68698978
-0.019229772 -0.032690644 0.6867218
-0.019207701 -0.034573853 0.68645537
-0.019185679 -0.0364528 0.68618959
-0.019163782 -0.038327575 0.68592525
-0.019141935 -0.040198088 0.68566149
-0.019120136 -0.042064309 0.6853984
-0.019098971 -0.04392764 0.68514287
-0.019079309 -0.045790315 0.68490553
-0.019059759 -0.047649413 0.68466955
-0.019040249 -0.049504638 0.684434
-0.019020706 -0.051355898 0.68419808
-0.019001275 -0.053203553 0.68396354
-0.018981885 -0.055047452 0.68372953
-0.018962462 -0.056887358 0.68349504
-0.01894315 -0.058723748 0.68326193
-0.018923949 -0.06055665 0.68303019
-0.018905073 -0.062386721 0.68280232
-0.018886164 -0.064212978 0.68257409
-0.018868715 -0.066040486 0.68236345
-0.01885144 -0.067865163 0.68215489
-0.018834196 -0.069686532 0.68194681
-0.018816985 -0.071504533 0.68173903
-0.018799804 -0.073319197 0.68153167
-0.018782657 -0.075130612 0.68132466
-0.018765539 -0.076938689 0.68111801
-0.018748451 -0.078743517 0.68091178
-0.018731397 -0.080544978 0.6807059
-0.018714301 -0.082342923 0.68049949
-0.019068308 0.078391939 0.71034771
-0.018924389 0.075697571 0.70841742
-0.018829826 0.073227108 0.70714915
-0.018748766 0.070828676 0.70606196
-0.018683115 0.068504781 0.70518142
-0.018620154 0.066204965 0.704337
-0.018565651 0.063948363 0.70360589
-0.018512607 0.061708719 0.70289451
-0.018465541 0.059500098 0.7022633
-0.018419543 0.057305276 0.70164627
-0.018374374 0.055123121 0.70104051
-0.018333979 0.052964836 0.7004987
-0.018294428 0.050817877 0.69996822
-0.018255048 0.048680127 0.69944006
-0.017800517 0.045490235 0.69334376
-0.01778744 0.043480426 0.6931684
-0.017774381 0.041473567 0.69299328
-0.017761342 0.039469659 0.69281828
-0.017750351 0.037472963 0.69267088
-0.017740002 0.035479993 0.69253212
-0.017730083 0.033490181 0.69239908
-0.017721221 0.031504393 0.69228017
-0.01771237 0.029520631 0.6921615
-0.01770464 0.027540535 0.69205785
-0.017697265 0.025562674 0.6919589
-0.017689686 0.023586243 0.69185734
-0.017681699 0.021610945 0.69175011
-0.01767372 0.019637495 0.69164312
-0.017664984 0.017664999 0.69152594
-0.017654665 0.015693039 0.69138753
-0.017644081 0.013723165 0.69124556
-0.017632199 0.011754811 0.69108617
-0.017619023 0.0097883344 0.6909095
-0.01760559 0.0078246891 0.69072938
-0.017592041 0.0058639944 0.69054759
-0.017575907 0.0039057434 0.69033122
-0.017558567 0.0019509792 0.69009864
-0.017540306 -0 0.68985373
-0.017521335 -0.0019468367 0.68959928
-0.017500905 -0.0038890839 0.68932527
-0.017480593 -0.0058268607 0.68905282
-0.017460261 -0.0077601075 0.68878007
-0.017439974 -0.0096888542 0.68850803
-0.017419735 -0.011613131 0.68823659
-0.017399678 -0.013533056 0.68796754
-0.017379735 -0.01544866 0.68770009
-0.017359769 -0.017359734 0.68743229
-0.01733985 -0.019266486 0.68716514
-0.017319975 -0.021168828 0.68689859
-0.017300148 -0.023066849 0.68663263
-0.017281491 -0.024962127 0.68638241
-0.01726367 -0.026854575 0.6861434
-0.017245885 -0.028743118 0.68590486
-0.017228071 -0.030627668 0.68566597
-0.017210361 -0.032508463 0.68542838
-0.017192684 -0.034385353 0.68519133
-0.01717498 -0.03625828 0.68495387
-0.017157573 -0.038127929 0.6847204
-0.017140333 -0.039994091 0.68448913
-0.017123062 -0.041856378 0.68425757
-0.01710589 -0.04371503 0.68402719
-0.017088817 -0.045570165 0.68379819
-0.017073074 -0.04742521 0.68358707
-0.017057359 -0.049276799 0.68337631
-0.017041674 -0.05112499 0.68316591
-0.017026016 -0.052969813 0.68295592
-0.017010387 -0.054811269 0.68274629
-0.016994726 -0.056649089 0.68253624
-0.016979154 -0.058483779 0.68232739
-0.016963612 -0.060315073 0.68211889
-0.016948098 -0.062143028 0.68191087
-0.016932739 -0.063968122 0.68170488
-0.016917789 -0.065791398 0.68150437
-0.016902868 -0.067611456 0.68130416
-0.016888224 -0.069429368 0.68110782
-0.016873734 -0.071244657 0.68091345
-0.016859455 -0.073057652 0.680722
-0.016845392 -0.074868381 0.68053335
-0.016873922 -0.076870099 0.68091601
-0.016985686 -0.079266518 0.68241495
-0.016748829 0.092118561 0.70731831
-0.016689682 0.089707017 0.70642579
-0.016635649 0.087337166 0.70561051
-0.016587805 0.085012525 0.70488858
-0.016540237 0.082701206 0.70417082
-0.016498379 0.080429584 0.70353925
-0.016458154 0.07817623 0.7029323
-0.016418122 0.075933844 0.70232826
-0.016381906 0.073718578 0.70178181
-0.01634665 0.071516603 0.70124984
-0.016312145 0.069326609 0.70072913
-0.016278777 0.067149937 0.70022571
-0.016247589 0.064990371 0.69975507
-0.01621652 0.062839031 0.69928634
-0.016186029 0.060697615 0.69882625
-0.016156631 0.058567762 0.69838262
-0.016128961 0.05645138 0.69796515
-0.016101388 0.05434221 0.6975491
-0.016073909 0.052240193 0.69713449
-0.016046653 0.050145805 0.69672322
-0.01602154 0.04806459 0.69634432
-0.015822932 0.045490921 0.69334757
-0.015815867 0.043493658 0.69324094
-0.015808685 0.041497856 0.69313252
-0.015801508 0.039503783 0.69302428
-0.015792716 0.037507713 0.6928916
-0.015783191 0.035512149 0.69274795
-0.015773674 0.033519059 0.6926043
-0.015762245 0.031524509 0.69243187
-0.015750214 0.029531658 0.69225025
-0.0157382 0.027541846 0.69206905
-0.015724475 0.025552273 0.69186193
-0.015710033 0.023565054 0.69164401
-0.015693897 0.021579087 0.69140053
-0.015677363 0.019596696 0.69115108
-0.015659025 0.017616391 0.6908744
-0.015640669 0.015640676 0.69059741
-0.015622417 0.01366964 0.69032198
-0.015604209 0.011703163 0.69004726
-0.015586102 0.0097413063 0.68977404
-0.015568038 0.007784009 0.68950146
-0.015550016 0.0058312714 0.68922955
-0.015532036 0.003883034 0.68895823
-0.015514157 0.0019392669 0.68868852
-0.015496258 -0 0.68841839
-0.015478402 -0.0019347966 0.68814898
-0.015460586 -0.0038651824 0.68788016
-0.01544442 -0.0057916641 0.68763626
-0.015428348 -0.0077142119 0.68739372
-0.015412368 -0.0096327364 0.68715256
-0.015396422 -0.011547327 0.68691194
-0.015380508 -0.013457954 0.68667191
-0.015364863 -0.015364885 0.68643582
-0.015349309 -0.017267972 0.6862011
-0.015333727 -0.019167155 0.68596601
-0.015318235 -0.021062553 0.68573225
-0.015302775 -0.022954166 0.68549895
-0.015287347 -0.024841934 0.6852662
-0.015272182 -0.026726335 0.68503737
-0.015258037 -0.028608829 0.68482387
-0.015243916 -0.030487835 0.68461084
-0.015229764 -0.032363236 0.68439734
-0.015215698 -0.034235299 0.68418503
-0.015201655 -0.036103934 0.68397319
-0.015187639 -0.037969083 0.68376172
-0.01517365 -0.039830834 0.6835506
-0.015159916 -0.041689754 0.68334341
-0.015146377 -0.043545812 0.68313909
-0.015132921 -0.045398742 0.68293607
-0.015119432 -0.047248214 0.68273252
-0.015106023 -0.049094588 0.68253022
-0.015092922 -0.050938606 0.68233252
-0.015079959 -0.052779853 0.68213689
-0.01506713 -0.054618359 0.68194342
-0.015064863 -0.056493253 0.6819092
-0.015165142 -0.058764935 0.68342221
-0.017906006 -0.071624041 0.72477871
-0.017915303 -0.07390067 0.72491902
-0.017918192 -0.076152354 0.72496259
-0.017921159 -0.078405052 0.72500736
-0.01792164 -0.080647379 0.72501457
-0.017919073 -0.082875729 0.72497588
-0.017916506 -0.085103393 0.72493714
-0.014379659 0.092440695 0.70256627
-0.014349143 0.090194672 0.70204002
-0.014319518 0.087962747 0.70152915
-0.014292464 0.085754782 0.70106262
-0.014265569 0.08355549 0.70059884
-0.014238833 0.081364781 0.70013785
-0.01421266 0.07918486 0.69968653
-0.014188192 0.077021629 0.69926453
-0.014164093 0.074867338 0.69884896
-0.014140305 0.072721571 0.69843876
-0.014116595 0.070582986 0.69802988
-0.014094157 0.068457335 0.69764298
-0.014072244 0.066340566 0.69726503
-0.014050453 0.064230651 0.69688928
-0.014028899 0.062127978 0.69651759
-0.014007634 0.060032725 0.69615096
-0.013987496 0.057948202 0.69580364
-0.013967694 0.055870771 0.69546217
-0.013948003 0.053799421 0.6951226
-0.013928312 0.051733762 0.69478309
-0.013908732 0.049674034 0.69444537
-0.013889923 0.047622591 0.69412112
-0.013836042 0.045461297 0.69319189
-0.0138231 0.043444037 0.69296873
-0.01380844 0.041425347 0.69271594
-0.013792616 0.039407462 0.69244313
-0.013776396 0.037393063 0.69216341
-0.013760268 0.035383523 0.69188523
-0.013744176 0.03337875 0.69160777
-0.013728123 0.031378567 0.69133097
-0.013712161 0.029383242 0.69105566
-0.013696182 0.027392358 0.6907801
-0.01368024 0.025406152 0.69050527
-0.013664336 0.023424566 0.69023097
-0.013648468 0.021447629 0.68995738
-0.01363269 0.019475281 0.68968529
-0.013616897 0.017507464 0.68941289
-0.013601562 0.015544653 0.68914849
-0.013587315 0.013587326 0.6889028
-0.01357315 0.011634111 0.68865854
-0.013559069 0.0096850395 0.68841571
-0.013545225 0.00774014 0.68817699
-0.01353141 0.0057992041 0.68793869
-0.013517623 0.0038621724 0.68770099
-0.013503812 0.0019291341 0.68746281
-0.013490083 -0 0.68722606
-0.013476379 -0.0019251704 0.68698978
-0.013462704 -0.0038464963 0.68675399
-0.013449004 -0.0057638586 0.68651772
-0.013435746 -0.0076775849 0.68628907
-0.013423233 -0.0095880032 0.6860733
-0.013410744 -0.011494905 0.68585795
-0.013398279 -0.01339826 0.68564296
-0.013385835 -0.015298098 0.68542838
-0.013373416 -0.01719436 0.68521422
-0.013361325 -0.019087613 0.68500572
-0.013349307 -0.020977497 0.68479842
-0.013337309 -0.022863954 0.68459159
-0.013325385 -0.024747163 0.68438601
-0.01331343 -0.026626855 0.68417978
-0.013301549 -0.028503329 0.68397492
-0.013289638 -0.030376285 0.68376952
-0.013278051 -0.032246709 0.68356967
-0.013266634 -0.034114212 0.68337286
-0.013255437 -0.035979033 0.68317974
-0.013328377 -0.03808105 0.68443751
-0.015760325 -0.047280967 0.72637498
-0.015770402 -0.049564123 0.72654873
-0.015773028 -0.051825702 0.72659409
-0.015775586 -0.054087728 0.7266382
-0.015777079 -0.056346685 0.72666395
-0.015774803 -0.058592111 0.72662461
-0.015772531 -0.060836911 0.72658551
-0.015770258 -0.063081056 0.72654635
-0.015766283 -0.065317422 0.72647774
-0.015761884 -0.067550898 0.72640187
-0.015757488 -0.069783181 0.72632611
-0.015753094 -0.072014153 0.72625029
-0.015748348 -0.074242175 0.72616851
-0.015743393 -0.076467901 0.72608304
-0.015738511 -0.078692555 0.72599888
-0.015733562 -0.080915481 0.72591352
-0.015728476 -0.083136231 0.72582579
-0.015723038 -0.085353643 0.72573209
-0.012186137 0.093427062 0.69976401
-0.012165545 0.091241628 0.69934976
-0.012146004 0.089070708 0.69895667
-0.01212736 0.086912781 0.69858158
-0.012108822 0.084761769 0.69820857
-0.012090291 0.082617015 0.6978358
-0.012071866 0.080479115 0.69746512
-0.012054222 0.078352451 0.69711018
-0.012037065 0.076234758 0.69676495
-0.012020148 0.074124247 0.6964246
-0.012003424 0.072020531 0.69608819
-0.011986746 0.069922715 0.69575256
-0.011970304 0.067831725 0.69542181
-0.011954717 0.065750927 0.69510829
-0.011939123 0.063675344 0.69479454
-0.01192357 0.061605126 0.69448161
-0.011908151 0.059540778 0.69417143
-0.011892962 0.05748266 0.69386584
-0.011878232 0.055431753 0.69356954
-0.01186401 0.053388059 0.69328332
-0.011849822 0.051349223 0.69299787
-0.011835666 0.049315304 0.69271314
-0.011821499 0.047286004 0.69242811
-0.011790021 0.045195103 0.69179487
-0.011776241 0.043179542 0.69151753
-0.01176249 0.04116872 0.69124097
-0.011748773 0.039162606 0.69096494
-0.011735133 0.037161291 0.69069058
-0.011722257 0.03516677 0.69043148
-0.011710094 0.033178627 0.69018686
-0.011698049 0.031194806 0.68994451
-0.011686027 0.029215038 0.68970263
-0.011674031 0.027239412 0.68946129
-0.011662013 0.02526769 0.68921953
-0.011650067 0.023300141 0.68897915
-0.011638143 0.021336585 0.6887393
-0.011626245 0.019377083 0.68849987
-0.01161437 0.017421573 0.68826103
-0.011602475 0.015469968 0.68802166
-0.01159065 0.013522446 0.68778378
-0.011579296 0.011579305 0.68755531
-0.011568452 0.0096403658 0.68733722
-0.011557629 0.0077050924 0.68711942
-0.011546829 0.0057734251 0.68690217
-0.011536356 0.0038454235 0.68669152
-0.011525948 0.0019209981 0.68648213
-0.011515514 2.9802322e-08 0.68627214
-0.011505143 -0.0019175112 0.68606353
-0.011494748 -0.0038315654 0.68585438
-0.011484413 -0.0057422221 0.68564653
-0.011474054 -0.0076493621 0.6854381
-0.011463715 -0.0095530748 0.68523008
-0.011453438 -0.01145342 0.68502325
-0.011443396 -0.013350636 0.68482125
-0.011433546 -0.015244722 0.68462312
-0.011475284 -0.017212898 0.68546283
-0.013589136 -0.022648543 0.72799021
-0.013598307 -0.024930209 0.72817469
-0.013601758 -0.02720353 0.72824419
-0.013603976 -0.029475242 0.72828877
-0.013606134 -0.031747639 0.72833216
-0.013604223 -0.034010589 0.72829378
-0.013602249 -0.036272645 0.72825408
-0.013600278 -0.038534135 0.72821438
-0.013597137 -0.040791392 0.7281512
-0.013593319 -0.043045521 0.72807437
-0.013589505 -0.045298368 0.72799766
-0.013585692 -0.047549903 0.72792089
-0.013581635 -0.049799353 0.72783929
-0.013577398 -0.052046686 0.72775406
-0.013573161 -0.054292649 0.72766882
-0.013568867 -0.056536943 0.72758245
-0.013564453 -0.058779299 0.72749364
-0.013559797 -0.061019093 0.7274
-0.013555143 -0.063257337 0.72730637
-0.013550433 -0.065493733 0.72721159
-0.013545664 -0.067728311 0.72711563
-0.013540288 -0.06995815 0.72700751
-0.013534183 -0.072182268 0.72688466
-0.013527659 -0.074402094 0.72675335
-0.013520042 -0.076613605 0.72660023
-0.013511585 -0.078817606 0.72643006
-0.013501983 -0.081011891 0.72623682
-0.013492396 -0.083203077 0.72604394
-0.013482884 -0.085391551 0.72585255
-0.010146753 0.095379472 0.69956219
-0.010057786 0.092531621 0.69741428
-0.010043733 0.090393573 0.69707513
-0.010029721 0.088261545 0.69673681
-0.01001663 0.086143017 0.69642079
-0.010003733 0.084031373 0.69610941
-0.0099909091 0.081925452 0.69579983
-0.0099780783 0.079824626 0.69549
-0.0099652801 0.077729195 0.69518107
-0.0099527128 0.075640619 0.69487762
-0.0099407304 0.07356143 0.69458836
-0.0099287368 0.07148692 0.69429886
-0.0099168513 0.069417953 0.69401193
-0.0099051511 0.067355037 0.6937294
-0.0098934788 0.065296948 0.69344759
-0.0098818326 0.063243717 0.69316649
-0.0098708384 0.061199188 0.69290102
-0.0098598674 0.059159189 0.69263619
-0.0098489216 0.057123721 0.69237196
-0.0098379999 0.055092812 0.69210827
-0.0098271016 0.053066373 0.69184518
-0.0098162675 0.051044643 0.69158357
-0.0098059168 0.049029559 0.69133371
-0.0097958194 0.047019929 0.69108993
-0.0097720204 0.04495129 0.69051534
-0.0097619537 0.042952627 0.69027233
-0.0097519085 0.040958017 0.69002974
-0.0097418455 0.038967401 0.68978685
-0.0097318403 0.036981016 0.68954539
-0.0097218566 0.034998685 0.68930435
-0.0097118933 0.033020437 0.68906379
-0.0097024394 0.031047821 0.6888355
-0.0096933795 0.029080153 0.68861675
-0.0096845245 0.027116686 0.68840301
-0.0096757216 0.025156885 0.68819052
-0.0096668992 0.023200542 0.68797749
-0.0096580917 0.021247774 0.68776488
-0.0096493382 0.019298702 0.68755352
-0.0096405623 0.017353028 0.68734169
-0.0096318405 0.01541096 0.68713111
-0.0096230973 0.013472348 0.68692005
-0.0096144062 0.011537313 0.68671018
-0.0096056946 0.0096057355 0.68649989
-0.0095969979 0.0076776147 0.68628991
-0.009588575 0.0057531595 0.6860866
-0.0096055465 0.0038422346 0.68649638
-0.0096707856 0.0019341409 0.68807131
-0.01139972 2.9802322e-08 0.72981143
-0.011403981 -0.0022807717 0.72991437
-0.011405904 -0.0045623779 0.7299608
-0.011407726 -0.0068446398 0.73000479
-0.011406789 -0.0091254413 0.7299822
-0.011405124 -0.01140511 0.72994196
-0.011403512 -0.013684213 0.7299031
-0.011401174 -0.015961617 0.7298466
-0.011397954 -0.018236697 0.72976887
-0.011394735 -0.020510495 0.72969115
-0.011391518 -0.022783011 0.72961342
-0.011388147 -0.025053918 0.72953212
-0.011384572 -0.027322948 0.72944582
-0.011380947 -0.029590458 0.72935832
-0.011377376 -0.031856656 0.72927207
-0.011373702 -0.034121096 0.72918344
-0.011369774 -0.036383271 0.7290886
-0.01136585 -0.038643897 0.72899383
-0.011361874 -0.040902734 0.72889781
-0.011357954 -0.04316023 0.72880316
-0.011353367 -0.045413464 0.72869241
-0.011348371 -0.047663152 0.72857189
-0.011342814 -0.0499084 0.72843766
-0.011336492 -0.052147835 0.72828501
-0.01132951 -0.054381669 0.72811651
-0.011321411 -0.056607068 0.72792089
-0.011313321 -0.058829278 0.72772563
-0.011305243 -0.061048299 0.72753066
-0.011296208 -0.063258767 0.72731251
-0.011285406 -0.065455377 0.72705173
-0.011274674 -0.067648083 0.72679269
-0.011263913 -0.069836229 0.72653282
-0.011250287 -0.072001815 0.72620392
-0.011235937 -0.074157178 0.7258575
-0.011221625 -0.076307029 0.72551185
-0.011201677 -0.078411758 0.72503036
-0.011180951 -0.080502838 0.72452998
-0.011161 -0.082591385 0.72404826
-0.011146876 -0.084716231 0.72370732
-0.011135961 -0.086860508 0.72344381
-0.0080184732 0.094217062 0.69657671
-0.0079869861 0.09185034 0.69562656
-0.0079774987 0.089746863 0.69534022
-0.0079680346 0.087648422 0.69505465
-0.0079585928 0.085554898 0.69476968
-0.0079491409 0.083466023 0.69448447
-0.0079401536 0.081386596 0.69421321
-0.0079312799 0.079312831 0.69394547
-0.0079225209 0.07724461 0.69368112
-0.0079138437 0.075181514 0.69341934
-0.0079051545 0.07312268 0.69315708
-0.0078965146 0.071068674 0.69289631
-0.0078879874 0.069019914 0.69263899
-0.0078798197 0.066978455 0.69239253
-0.0078716688 0.064941287 0.69214654
-0.0078635346 0.062908292 0.69190109
-0.0078554181 0.060879499 0.69165611
-0.007847379 0.058855355 0.69141352
-0.0078394488 0.056836039 0.69117421
-0.007831688 0.054821789 0.69094002
-0.0078241872 0.052813262 0.69071364
-0.0078166695 0.05080834 0.69048685
-0.0078091975 0.048807472 0.69026136
-0.007801739 0.046810448 0.69003624
-0.0077837165 0.044756353 0.68949234
-0.0077766092 0.042771369 0.68927789
-0.0077694845 0.040789813 0.68906283
-0.007762373 0.038811833 0.68884826
-0.0077553047 0.036837727 0.68863493
-0.0077482197 0.034867018 0.68842113
-0.0077411765 0.032900006 0.68820858
-0.0077341171 0.03093648 0.68799549
-0.0077270996 0.028976619 0.68778378
-0.0077200658 0.027020216 0.68757153
-0.0077190236 0.02508682 0.68754005
-0.0077716867 0.023315042 0.68912935
-0.0091746664 0.025230348 0.73146796
-0.0091792522 0.022948146 0.73160636
-0.0091807684 0.020656765 0.73165214
-0.0091822846 0.018364549 0.73169786
-0.009182116 0.016068727 0.73169279
-0.0091807684 0.013771176 0.73165214
-0.0091794217 0.011474282 0.73161149
-0.0091778217 0.0091778338 0.73156321
-0.0091752131 0.0068814158 0.73148453
-0.0091726063 0.0045862794 0.73140585
-0.0091699576 0.0022925138 0.73132592
-0.0091673117 -0 0.73124605
-0.0091644162 -0.0022910833 0.73115861
-0.0091614798 -0.0045807362 0.73107004
-0.0091585871 -0.0068689585 0.73098272
-0.0091556534 -0.0091556609 0.73089427
-0.009152472 -0.011440575 0.73079818
-0.0091492925 -0.01372394 0.73070228
-0.0091460729 -0.016005635 0.73060513
-0.0091428971 -0.018285811 0.73050928
-0.0091392659 -0.020563334 0.73039967
-0.0091352602 -0.022838145 0.73027885
-0.0091307592 -0.025109559 0.73014295
-0.0091257216 -0.027377158 0.72999096
-0.0091201905 -0.029640615 0.72982401
-0.0091136293 -0.031897724 0.72962606
-0.0091070775 -0.034151554 0.72942829
-0.009100534 -0.036402106 0.72923082
-0.0090933405 -0.038646728 0.72901374
-0.0090846308 -0.040880829 0.72875094
-0.0090758977 -0.04311052 0.72848737
-0.0090672225 -0.045336097 0.72822559
-0.0090563083 -0.047545612 0.72789621
-0.0090446854 -0.049745768 0.72754544
-0.0090330914 -0.051940292 0.72719562
-0.0090170577 -0.054102331 0.72671169
-0.0090002697 -0.056251645 0.72620511
-0.0089840693 -0.058396488 0.72571623
-0.0089726308 -0.060565233 0.725371
-0.0089637898 -0.062746525 0.72510421
-0.0089566903 -0.064935982 0.72488993
-0.0089507215 -0.067130417 0.72470987
-0.0089457612 -0.069329619 0.72456008
-0.0089425631 -0.071540534 0.72446358
-0.0089404853 -0.07375899 0.724401
-0.0089401668 -0.075991422 0.72439128
-0.0089431629 -0.078252643 0.7244817
-0.0074546603 -0.067091942 0.67956221
-0.0074505531 -0.068917632 0.67943829
-0.0074464511 -0.070741296 0.67931449
-0.0074424082 -0.072563469 0.67919242
-0.0074383975 -0.074383959 0.67907143
-0.0074344459 -0.076203078 0.67895222
-0.0074306373 -0.07802169 0.67883724
-0.0074270526 -0.079840824 0.67872906
-0.0074234717 -0.08165817 0.67862093
-0.0074198935 -0.083473787 0.67851299
-0.0059643197 0.09344101 0.69458359
-0.0059553753 0.091315746 0.69422376
-0.0059488141 0.089232236 0.69395971
-0.0059426199 0.087158412 0.69371051
-0.005936556 0.085090667 0.69346648
-0.0059304819 0.083026767 0.69322211
-0.0059244428 0.080967426 0.6929791
-0.0059183929 0.07891193 0.69273567
-0.0059123789 0.076860934 0.69249368
-0.0059064003 0.074814409 0.69225311
-0.0059006885 0.072775126 0.69202328
-0.0058950107 0.070740104 0.69179481
-0.0058893212 0.068708777 0.69156587
-0.0058836886 0.066681802 0.69133925
-0.0058781127 0.064659268 0.69111496
-0.0058725709 0.062640756 0.69089198
-0.0058670393 0.06062606 0.69066936
-0.0058617922 0.05861792 0.69045824
-0.0058565554 0.056613386 0.69024748
-0.005851327 0.054612398 0.69003719
-0.0058461088 0.052614987 0.68982714
-0.0058408994 0.050621122 0.68961757
-0.0058356989 0.048630834 0.6894083
-0.0058304407 0.046643525 0.68919671
-0.0058552986 0.044890672 0.69019699
-0.0069226664 0.05076623 0.73314452
-0.0069269789 0.048488885 0.73331803
-0.0069281301 0.04618752 0.73336434
-0.0069292816 0.04388544 0.73341072
-0.0069296337 0.041577786 0.73342484
-0.0069286097 0.039262146 0.73338366
-0.0069275862 0.036947131 0.73334241
-0.0069265314 0.034632683 0.73330003
-0.0069245505 0.032314569 0.73322034
-0.0069225705 0.029997796 0.73314071
-0.0069205919 0.027682334 0.73306102
-0.0069186143 0.025368273 0.73298144
-0.0069163828 0.0230546 0.73289162
-0.0069141844 0.020742565 0.73280323
-0.0069119879 0.018431991 0.73271483
-0.0069097602 0.016122788 0.73262519
-0.006907376 0.013814777 0.73252922
-0.0069049606 0.011508316 0.73243207
-0.0069025154 0.0092033744 0.73233372
-0.0069001042 0.0069001019 0.73223668
-0.0068973778 0.0045982599 0.73212695
-0.0068943999 0.0022981465 0.73200715
-0.0068910136 -0 0.73187089
-0.0068872189 -0.0022957325 0.73171818
-0.0068831141 -0.0045887232 0.73155308
-0.0068781301 -0.0068781078 0.73135251
-0.0068731541 -0.0091641843 0.7311523
-0.0068681855 -0.011446953 0.73095238
-0.0068628164 -0.013725638 0.73073632
-0.0068562021 -0.015997797 0.73047018
-0.0068495697 -0.018265486 0.73020327
-0.0068429816 -0.020528942 0.72993827
-0.0068347864 -0.022782654 0.72960848
-0.0068259593 -0.025028497 0.72925329
-0.0068171867 -0.027268738 0.72890031
-0.0068050716 -0.029488653 0.72841287
-0.0067923539 -0.031697631 0.72790116
-0.0067800214 -0.033900112 0.72740483
-0.0067713046 -0.03611365 0.72705418
-0.0067646219 -0.03833288 0.7267853
-0.00675923 -0.040555388 0.72656834
-0.0067546982 -0.042779744 0.72638601
-0.0067509613 -0.045006394 0.72623563
-0.0067485636 -0.047239959 0.72613913
-0.0067470474 -0.049478322 0.72607815
-0.0067468951 -0.051726192 0.72607207
-0.0067493529 -0.053994834 0.72617096
-0.0056255898 -0.046879917 0.68095416
-0.0056224708 -0.048728079 0.68082863
-0.0056193769 -0.050574392 0.68070418
-0.0056163282 -0.052419037 0.68058157
-0.0056133037 -0.054261953 0.6804598
-0.0056102825 -0.056102812 0.68033826
-0.005607286 -0.057941943 0.68021774
-0.0056045433 -0.05978179 0.6801073
-0.0056018243 -0.061620086 0.67999792
-0.0055991081 -0.063456565 0.67988861
-0.0055963942 -0.065291256 0.67977941
-0.0055936831 -0.067124188 0.67967033
-0.0055909748 -0.068955332 0.67956138
-0.0055882689 -0.070784748 0.67945242
-0.0055855652 -0.072612345 0.67934376
-0.0055828649 -0.07443817 0.6792351
-0.0055801668 -0.076262295 0.6791265
-0.0055774716 -0.078084573 0.67901802
-0.0055747787 -0.079905167 0.67890966
-0.0055720881 -0.081723958 0.67880142
-0.0055694007 -0.083541006 0.67869329
-0.0039558113 0.09296155 0.69335222
-0.0039520306 0.090896726 0.69312406
-0.0039482727 0.088836163 0.69289726
-0.0039445222 0.086779475 0.69267094
-0.0039407634 0.084726423 0.69244397
-0.0039370265 0.082677573 0.69221854
-0.0039332821 0.080632269 0.69199252
-0.003929683 0.078593701 0.69177532
-0.0039261528 0.076559991 0.69156218
-0.0039226282 0.074529916 0.69134951
-0.0039191255 0.072503805 0.69113815
-0.0039156908 0.070482433 0.69093072
-0.0039122463 0.068464339 0.69072288
-0.0039088083 0.066449761 0.69051534
-0.003905376 0.064438701 0.69030821
-0.0039020104 0.06243217 0.69010508
-0.0038986965 0.060429782 0.68990505
-0.003895479 0.058432192 0.68971086
-0.003892252 0.056437641 0.68951607
-0.0038890298 0.054446399 0.68932164
-0.0038858433 0.052458912 0.68912935
-0.0046467413 0.060407639 0.7350536
-0.004645512 0.058068931 0.73497939
-0.0046441751 0.055730104 0.73489869
-0.0046428391 0.053392649 0.7348181
-0.0046414826 0.051056325 0.73473614
-0.0046400195 0.048720211 0.73464781
-0.004638535 0.046385348 0.73455828
-0.0046370523 0.044052005 0.73446882
-0.0046355482 0.041719943 0.73437804
-0.0046339598 0.039388686 0.73428214
-0.0046323296 0.037058622 0.73418379
-0.0046306793 0.034730107 0.73408413
-0.0046290513 0.032403409 0.73398584
-0.0046272534 0.030077159 0.73387742
-0.0046252855 0.027751714 0.73375863
-0.0046229777 0.025426388 0.73361933
-0.0046204594 0.023102283 0.73346734
-0.0046177516 0.020779878 0.7333039
-0.0046143876 0.018457562 0.73310089
-0.0046110279 0.016138613 0.73289806
-0.0046076737 0.013823032 0.73269564
-0.0046041333 0.011510342 0.73248196
-0.0045996467 0.0091992915 0.73221123
-0.0045951903 0.0068927705 0.73194218
-0.0045907423 0.0045907497 0.73167372
-0.0045852736 0.0022926331 0.73134369
-0.004579314 -0 0.73098397
-0.0045733708 -0.0022867024 0.73062527
-0.0045652753 -0.0045652688 0.73013675
-0.0045566903 -0.0068350434 0.72961849
-0.0045483438 -0.0090966821 0.72911477
-0.0045424597 -0.011356145 0.72875965
-0.0045379284 -0.01361382 0.72848618
-0.0045343298 -0.015870154 0.72826898
-0.0045312708 -0.018125087 0.72808433
-0.0045287483 -0.020379364 0.7279321
-0.0045271502 -0.022635728 0.7278356
-0.0045261472 -0.02489379 0.72777504
-0.0045261062 -0.027156621 0.72777259
-0.0045278878 -0.029431254 0.72788012
-0.0037737573 -0.026416302 0.68236434
-0.003771652 -0.028287381 0.68223727
-0.0037695921 -0.030156732 0.68211293
-0.0037675484 -0.032024145 0.68198961
-0.0037655071 -0.033889532 0.68186641
-0.0037634675 -0.035752952 0.68174332
-0.0037614307 -0.037614286 0.68162036
-0.0037594663 -0.039474398 0.68150181
-0.0037576314 -0.041333944 0.68139106
-0.0037557981 -0.043191642 0.68128037
-0.0037539667 -0.045047551 0.68116981
-0.0037521366 -0.046901703 0.68105936
-0.0037503086 -0.048754036 0.68094909
-0.0037484826 -0.050604522 0.68083882
-0.0037466579 -0.05245319 0.68072873
-0.0037448353 -0.054300129 0.68061876
-0.0037430145 -0.056145191 0.68050879
-0.0037411952 -0.057988495 0.68039906
-0.0037393779 -0.05983004 0.68028933
-0.0037375621 -0.061669797 0.68017983
-0.0037357484 -0.063507706 0.68007028
-0.0037339365 -0.065343887 0.67996091
-0.0037321402 -0.067178547 0.67985255
-0.0037303313 -0.069011122 0.67974335
-0.0037286635 -0.070844591 0.67964268
-0.0037271499 -0.072679371 0.67955124
-0.0037256926 -0.074513838 0.67946339
-0.003724237 -0.076346874 0.67937553
-0.0037227822 -0.078178436 0.67928773
-0.0037213285 -0.080008581 0.67919993
-0.0037198761 -0.081837267 0.67911226
-0.0037184246 -0.083664581 0.67902476
-0.0019706609 0.092621088 0.6924777
-0.0019689163 0.090570182 0.69226712
-0.0019671745 0.088522851 0.69205689
-0.0019654359 0.086479187 0.69184697
-0.0019636925 0.084438801 0.69163662
-0.0019620063 0.082404286 0.69143301
-0.0019603767 0.080375433 0.69123638
-0.0019587574 0.078350335 0.69104081
-0.0019571485 0.076328814 0.69084662
-0.0019555346 0.074310273 0.69065177
-0.0019539308 0.072295457 0.69045824
-0.0019523298 0.07028389 0.690265
-0.0019507618 0.068276674 0.6900757
-0.0019491964 0.066272676 0.68988675
-0.0019476713 0.064273149 0.68970263
-0.0019461714 0.062277496 0.68952155
-0.0019446737 0.060284883 0.68934077
-0.0019431784 0.058295369 0.68916023
-0.0019416852 0.056308866 0.6889801
-0.001940217 0.054326087 0.68880284
-0.0019428765 0.05245766 0.68912387
-0.0023300245 0.060580641 0.73585677
-0.0023292003 0.058230013 0.73575723
-0.0023283006 0.055879235 0.73564869
-0.0023273258 0.053528488 0.73553103
-0.0023261574 0.051175475 0.73538995
-0.0023249036 0.048822999 0.73523867
-0.0023235539 0.046471119 0.73507571
-0.0023218612 0.044115394 0.73487139
-0.0023201602 0.041762918 0.73466605
-0.0023184614 0.039413869 0.73446095
-0.0023167012 0.037067175 0.73424852
-0.00231444 0.034716606 0.73397553
-0.0023121727 0.032370448 0.73370183
-0.0023099203 0.030028939 0.73342997
-0.0023071829 0.027686208 0.73309952
-0.0023041763 0.025345922 0.73273659
-0.0023011665 0.023011655 0.73237336
-0.0022970994 0.020673901 0.73188233
-0.0022927523 0.018342018 0.73135757
-0.0022885157 0.016019613 0.73084623
-0.0022855364 0.013713211 0.73048657
-0.0022832418 0.011416227 0.73020959
-0.0022814199 0.0091256797 0.72998971
-0.0022798711 0.0068396628 0.72980273
-0.0022786045 0.0045572221 0.72964984
-0.0022777955 0.0022777915 0.72955215
-0.0022773186 -0 0.72949457
-0.0022773291 -0.0022773147 0.72949582
-0.0022782933 -0.0045565665 0.72961223
-0.0018986999 -0.0056960881 0.68379128
-0.0018976486 -0.0075905621 0.68366438
-0.0018966127 -0.0094830692 0.68353933
-0.001895578 -0.01137346 0.68341446
-0.0018945446 -0.013261795 0.68328971
-0.0018935121 -0.015148103 0.68316507
-0.0018924808 -0.017032325 0.68304056
-0.0018914506 -0.018914491 0.68291616
-0.0018905001 -0.020795524 0.68280149
-0.001889572 -0.022674829 0.68268943
-0.0018886449 -0.024552345 0.68257749
-0.0018877184 -0.026428044 0.68246567
-0.0018867932 -0.028301895 0.68235397
-0.0018858687 -0.030173898 0.68224239
-0.0018849523 -0.032044202 0.68213177
-0.0018840296 -0.03391251 0.68202043
-0.0018831078 -0.035779029 0.68190914
-0.001882187 -0.037643731 0.68179798
-0.0018812669 -0.039506614 0.68168694
-0.0018803477 -0.04136762 0.68157595
-0.0018794297 -0.043226868 0.68146515
-0.0018785123 -0.045084327 0.6813544
-0.001877603 -0.046940058 0.68124461
-0.0018767439 -0.048795313 0.68114096
-0.0018759207 -0.050649852 0.6810416
-0.001875098 -0.052502751 0.6809423
-0.0018743535 -0.054356277 0.68085241
-0.0018736166 -0.056208491 0.68076342
-0.0018728802 -0.058059305 0.68067455
-0.0018721444 -0.059908599 0.68058574
-0.0018714091 -0.061756521 0.68049699
-0.0018706745 -0.063602924 0.6804083
-0.0018699404 -0.065447927 0.68031973
-0.001869207 -0.067291468 0.68023121
-0.0018684742 -0.06913355 0.6801427
-0.0018677417 -0.070974201 0.68005431
-0.00186701 -0.072813421 0.67996597
-0.0018662787 -0.074651152 0.6798777
-0.0018655482 -0.076487467 0.67978948
-0.0018648182 -0.078322366 0.67970139
-0.0018640887 -0.080155805 0.67961329
-0.0018633597 -0.081987798 0.67952538
-0.0018626591 -0.083819672 0.67944086
0 0.092358112 0.69180226
0 0.090318531 0.69160682
0 0.088282317 0.69141167
0 0.086252183 0.69122428
0 0.084226906 0.69104177
0 0.082205057 0.69086051
0 0.080186307 0.69067949
0 0.078170687 0.69049877
0 0.076157808 0.69031739
0 0.074148327 0.69013727
0 0.07214281 0.68996006
0 0.070141256 0.68978685
0 0.068142503 0.68961298
0 0.066147655 0.68944305
0 0.064156771 0.68927693
0 0.062168419 0.68911022
0 0.060183376 0.68894553
0 0.058201075 0.68878108
0 0.056221396 0.68861592
0 0.054244697 0.68845195
0 0.052302897 0.68843198
0 0.060560077 0.73576117
0 0.058173656 0.73548532
0 0.055791736 0.73520863
0 0.053404272 0.73487926
0 0.051015139 0.7345103
0 0.048632503 0.73414367
0 0.046234936 0.73365027
0 0.043839306 0.73311758
0 0.041454792 0.73259962
0 0.039100409 0.73223537
0 0.036763251 0.73195487
0 0.034437865 0.73173219
0 0.032120168 0.73154414
0 0.029809326 0.7313906
0 0.0275065 0.73129165
0 0.025209188 0.73123592
0 0.022917747 0.73123968
0 0.020635426 0.73136646
0 0.015285432 0.68523711
0 0.013367414 0.68511039
0 0.011451483 0.68498373
0 0.0095376074 0.68485731
0 0.0076259673 0.68473095
0 0.0057163239 0.6846047
0 0.0038087964 0.68447864
0 0.0019033551 0.68435276
0 2.9802322e-08 0.68423045
0 -0.0019013882 0.68411702
0 -0.0038009286 0.68400371
0 -0.0056985915 0.68389046
0 -0.007594347 0.68377733
0 -0.0094882548 0.68366438
0 -0.011380285 0.68355149
0 -0.013270468 0.68343872
0 -0.015158743 0.68332601
0 -0.01704523 0.68321359
0 -0.018929869 0.68310189
0 -0.020812631 0.6829896
0 -0.022693515 0.68287742
0 -0.024572581 0.68276525
0 -0.026450515 0.68265933
0 -0.028327316 0.6825586
0 -0.030202478 0.68245798
0 -0.032075971 0.68235743
0 -0.033948213 0.68225962
0 -0.035820037 0.68216956
0 -0.037690371 0.68207949
0 -0.039559245 0.68198955
0 -0.041426659 0.68189979
0 -0.043292582 0.68180996
0 -0.045156986 0.6817202
0 -0.047019988 0.68163061
0 -0.048881322 0.68154019
0 -0.050741345 0.68145066
0 -0.052599907 0.6813612
0 -0.054457039 0.68127185
0 -0.05631268 0.68118256
0 -0.058166832 0.68109334
0 -0.060020238 0.68100679
0 -0.061871946 0.68091935
0 -0.063725144 0.68084222
0 -0.065578282 0.68076932
0 -0.067432016 0.68070245
0 -0.069284648 0.68063569
0 -0.071136147 0.68056881
0 -0.072986603 0.68050206
0 -0.074835896 0.6804353
0 -0.076684147 0.68036866
0 -0.078531355 0.68030196
0 -0.0803774 0.68023539
0 -0.082222357 0.68016881
0 -0.084066302 0.68010235
0.0019723854 0.094674498 0.69268596
0.0019609607 0.092165142 0.69130683
0.0019595244 0.090138108 0.6911335
0.0019581211 0.088115484 0.69096398
0.0019567276 0.086096019 0.69079584
0.0019553357 0.084079444 0.69062781
0.0019539462 0.082065761 0.69046009
0.0019525507 0.080054551 0.69029164
0.001951165 0.07804662 0.69012433
0.0019497889 0.076041758 0.68995821
0.0019484221 0.074040055 0.68979329
0.0019471105 0.072043091 0.68963492
0.0019458081 0.070049107 0.68947768
0.0019444999 0.068057507 0.68931979
0.0019432236 0.066069603 0.68916571
0.0019419491 0.064084321 0.68901187
0.001940676 0.062101662 0.68885827
0.0019394275 0.060122252 0.68870753
0.0019381804 0.058145434 0.68855703
0.0019369425 0.056171358 0.68840754
0.001935721 0.054200202 0.68826008
0.0019345236 0.052232146 0.68811554
0.0023104644 0.060072064 0.73349565
0.0023089079 0.057722718 0.73330772
0.0023076299 0.055383146 0.73315346
0.0023068001 0.053056359 0.73305333
0.0023063431 0.050739527 0.73299813
0.0023064171 0.048434794 0.73300713
0.0023075342 0.046150714 0.7331419
0.0019228221 0.036533594 0.68670309
0.0019217585 0.034591645 0.6865747
0.0019206965 0.032651842 0.68644649
0.0019196352 0.030714214 0.6863184
0.0019185753 0.028778672 0.68619043
0.0019175165 0.026845217 0.68606263
0.0019164591 0.024913967 0.68593496
0.0019154026 0.022984833 0.68580747
0.0019143473 0.021057814 0.68568003
0.0019133663 0.019133687 0.68556166
0.0019124156 0.017211705 0.68544692
0.0019114659 0.015291721 0.6853323
0.0019105171 0.013373643 0.68521774
0.0019095693 0.011457413 0.6851033
0.0019086223 0.0095430911 0.68498904
0.0019076836 0.0076307356 0.68487567
0.0019067385 0.0057202578 0.68476158
0.0019057944 0.0038115978 0.68464762
0.0019048585 0.0019048452 0.68453467
0.0019039162 -0 0.68442094
0.0019029749 -0.0019029677 0.68430728
0.0019020705 -0.003804177 0.6841982
0.001901225 -0.0057036579 0.6840961
0.0019003802 -0.0076015294 0.68399405
0.001899536 -0.0094976723 0.68389225
0.0018986928 -0.011392146 0.68379045
0.0018978501 -0.013284951 0.68368864
0.0018970586 -0.015176445 0.68359309
0.0018963037 -0.017066687 0.68350202
0.0018955421 -0.01895541 0.68341011
0.0018947885 -0.020842642 0.68331909
0.0018940354 -0.022728413 0.68322825
0.0018932829 -0.024612665 0.68313736
0.0018925308 -0.026495427 0.6830467
0.0018917797 -0.028376698 0.68295592
0.0018910288 -0.03025645 0.68286532
0.0018902789 -0.032134742 0.68277472
0.0018895436 -0.034011811 0.68268603
0.0018888088 -0.03588739 0.68259728
0.0018880747 -0.03776148 0.68250865
0.0018873484 -0.039634287 0.68242103
0.001886665 -0.041506678 0.68233854
0.0018860322 -0.043378741 0.68226218
0.0018853997 -0.045249581 0.68218577
0.0018848031 -0.047120064 0.68211377
0.0018842353 -0.04899013 0.68204522
0.001883682 -0.050859392 0.6819784
0.0018831219 -0.052727401 0.68191087
0.0018825623 -0.054594278 0.68184328
0.0018820029 -0.056460112 0.68177581
0.0018814438 -0.058324784 0.68170828
0.0018808851 -0.060188323 0.6816408
0.0018803267 -0.06205079 0.68157345
0.0018797686 -0.063912123 0.68150604
0.0018792108 -0.065772384 0.68143874
0.0018786534 -0.067631513 0.68137145
0.0018780964 -0.069489568 0.68130422
0.0018775397 -0.071346521 0.68123704
0.0018769903 -0.07320261 0.6811707
0.0018764553 -0.075058222 0.68110615
0.0018758713 -0.076910734 0.68103564
0.0018752808 -0.078761801 0.68096429
0.0018745852 -0.080607176 0.68088037
0.0018737781 -0.082446232 0.68078291
0.0018729714 -0.084283739 0.68068558
0.0039389329 0.094534427 0.69233358
0.003916794 0.092044681 0.69099736
0.0039141895 0.090026349 0.69084018
0.0039116042 0.088011086 0.69068408
0.0039090216 0.085998476 0.69052827
0.0039064279 0.083988219 0.69037169
0.0039038521 0.081980914 0.6902163
0.0039012802 0.079976261 0.69006097
0.0038987573 0.077975154 0.68990874
0.003896283 0.075977534 0.68975937
0.0038938571 0.073983282 0.68961298
0.0038914797 0.071992368 0.68946952
0.0038891204 0.070004165 0.68932712
0.0038867642 0.068018377 0.6891849
0.0038844105 0.066035002 0.68904281
0.003882075 0.064054221 0.68890184
0.003879742 0.062075883 0.68876112
0.0038774724 0.060100824 0.68862408
0.0038753399 0.058130085 0.6884954
0.003873195 0.056161344 0.68836594
0.0038710523 0.054194748 0.68823659
0.0038688972 0.05223012 0.68810654
0.0038667596 0.050267845 0.68797749
0.0038646094 0.048307657 0.68784773
0.0038624613 0.046349496 0.68771809
0.0038552149 0.044334978 0.68728071
0.0038530773 0.04238385 0.68715167
0.0038509716 0.040435195 0.68702459
0.0038490463 0.038490474 0.68690842
0.0038471376 0.03654784 0.68679315
0.0038452158 0.034606963 0.68667722
0.0038432959 0.032668054 0.68656135
0.0038413929 0.030731142 0.68644649
0.0038394767 0.028796107 0.6863308
0.0038375626 0.026862979 0.68621528
0.0038356506 0.024931729 0.68609989
0.0038337549 0.023002505 0.68598551
0.0038318466 0.021075159 0.68587035
0.0038299989 0.019149989 0.68575883
0.0038282846 0.017227262 0.6856553
0.0038265572 0.015306234 0.68555105
0.0038248459 0.013386965 0.68544781
0.0038231364 0.011469424 0.68534464
0.0038214282 0.0095535815 0.68524146
0.0038197215 0.0076394379 0.68513852
0.0038180165 0.0057270825 0.68503559
0.0038164584 0.0038164556 0.68494153
0.0038149308 0.0019074976 0.68484938
0.0038134044 -0 0.68475723
0.0038118791 -0.0019059479 0.6846652
0.003810355 -0.0038103461 0.68457323
0.0038088323 -0.0057132244 0.68448126
0.0038073107 -0.0076146126 0.68438947
0.0038058339 -0.0095146 0.6843003
0.0038043435 -0.011413008 0.6842103
0.003802869 -0.013310015 0.68412137
0.003801381 -0.015205532 0.68403155
0.0037998944 -0.01709947 0.68394178
0.0037984375 -0.018992215 0.68385392
0.0037971693 -0.020884424 0.68377733
0.0037958876 -0.022775322 0.68369997
0.0037946063 -0.024664909 0.68362266
0.003793326 -0.026553273 0.68354535
0.0037921332 -0.028440982 0.68347341
0.0037909981 -0.030327976 0.68340492
0.003789864 -0.032213837 0.6833365
0.0037887304 -0.034098595 0.68326807
0.0037875974 -0.035982192 0.68319964
0.0037864656 -0.037864655 0.68313128
0.0037853341 -0.039746046 0.68306303
0.0037842032 -0.041626245 0.68299478
0.0037830872 -0.04350546 0.68292737
0.0037819578 -0.045383513 0.6828593
0.0037808288 -0.047260374 0.68279111
0.0037797291 -0.04913649 0.68272471
0.003778673 -0.051012069 0.682661
