# .PCD v0.7 - Point Cloud Data file format
VERSION 0.7
FIELDS x y z
SIZE 4 4 4
TYPE F F F
COUNT 1 1 1
WIDTH 1338
HEIGHT 1
VIEWPOINT 0 0 0 1 0 0 0
POINTS 1338
DATA ascii
-0.052842021 -0.027569711 0.73192817
-0.052530866 -0.029691368 0.73029512
-0.052678991 -0.032065481 0.7310726
-0.053033911 -0.034587324 0.73293525
-0.053551164 -0.037252963 0.73565
-0.054114208 -0.039997458 0.73860502
-0.054456055 -0.042617768 0.74039906
-0.054659344 -0.045153379 0.74146605
-0.054904472 -0.047743022 0.74275255
-0.055190161 -0.050390989 0.74425191
-0.055516843 -0.053103089 0.74596643
-0.05588511 -0.055885106 0.74789917
-0.053410448 -0.019421935 0.74765301
-0.052023657 -0.021282375 0.74004388
-0.051496021 -0.02340728 0.73714888
-0.049590688 -0.024795353 0.72669458
-0.049491249 -0.026995212 0.72614896
-0.049694791 -0.029365093 0.72726572
-0.05005021 -0.031850129 0.72921586
-0.050556842 -0.034470588 0.7319957
-0.051052283 -0.037128896 0.73471409
-0.05133345 -0.039666712 0.73625684
-0.051526636 -0.042158186 0.73731685
-0.051758252 -0.044700295 0.73858762
-0.052026607 -0.047296911 0.74006009
-0.05233331 -0.049954534 0.74174291
-0.052679177 -0.052679151 0.7436406
-0.053064156 -0.055476129 0.74575287
-0.053490646 -0.058353454 0.74809301
-0.04961111 -0.01653704 0.73976892
-0.04873715 -0.018566549 0.73474526
-0.048343621 -0.020718694 0.73248321
-0.046568725 -0.02217555 0.72228092
-0.046575949 -0.024396896 0.7223224
-0.046791863 -0.026738197 0.72356355
-0.047145199 -0.029185116 0.72559452
-0.047640685 -0.031760454 0.72844267
-0.04807312 -0.034337938 0.73092836
-0.048299622 -0.036799729 0.73223031
-0.048484154 -0.039249063 0.73329103
-0.048703488 -0.041745842 0.73455185
-0.048956275 -0.044293761 0.73600483
-0.049243294 -0.046898395 0.73765469
-0.04956501 -0.049565017 0.73950392
-0.049924619 -0.052302003 0.74157101
-0.05032248 -0.055115104 0.74385798
-0.050761286 -0.058012873 0.74638021
-0.051244769 -0.061005682 0.74915934
-0.046234906 -0.013870478 0.73365027
-0.045619458 -0.015966803 0.72993577
-0.045293432 -0.018117338 0.72796792
-0.043671422 -0.019652128 0.71817821
-0.043741666 -0.021870822 0.71860224
-0.043966711 -0.024181694 0.71996051
-0.044325039 -0.026594996 0.72212321
-0.044795278 -0.029116929 0.72496134
-0.045164034 -0.03161478 0.72718692
-0.045351516 -0.034013629 0.72831857
-0.045527101 -0.036421716 0.72937828
-0.045734338 -0.038874179 0.73062909
-0.04597196 -0.041374743 0.73206317
-0.046240672 -0.043928623 0.73368514
-0.04654111 -0.046541125 0.73549831
-0.04687465 -0.049218386 0.73751152
-0.047244661 -0.051969111 0.73974466
-0.047652539 -0.054800391 0.74220645
-0.048101246 -0.057721496 0.74491465
-0.048595272 -0.060744107 0.74789637
-0.044659782 -0.0094020367 0.73833013
-0.043068524 -0.011333823 0.72822058
-0.042608347 -0.013455272 0.72529697
-0.041112866 -0.015146852 0.71579593
-0.040888827 -0.017216355 0.71437263
-0.040984899 -0.019413888 0.71498287
-0.041227866 -0.021698862 0.71652651
-0.041587304 -0.024076819 0.71881008
-0.042021491 -0.026539862 0.72156864
-0.042320985 -0.028956473 0.72347134
-0.042485148 -0.031304836 0.72451431
-0.042651929 -0.033672601 0.7255739
-0.042847235 -0.03608191 0.72681475
-0.043070085 -0.03853637 0.72823048
-0.043321304 -0.041041225 0.72982657
-0.043601252 -0.043601245 0.73160511
-0.043911394 -0.046222508 0.73357558
-0.044253565 -0.04891184 0.73574942
-0.044631269 -0.05167827 0.73814905
-0.045046821 -0.054530352 0.74078912
-0.045503709 -0.057478368 0.7436918
-0.046008892 -0.060538024 0.74690127
-0.046571456 -0.063729405 0.75047541
-0.040852841 -0.0068087876 0.72856319
-0.040075187 -0.0089055896 0.72334808
-0.039718017 -0.01103279 0.72095287
-0.038262501 -0.012754202 0.71119195
-0.038185444 -0.014849871 0.71067524
-0.038320459 -0.017031342 0.71158063
-0.038566429 -0.019283205 0.71323013
-0.038916551 -0.021620303 0.71557814
-0.039308053 -0.024021626 0.71820354
-0.039554399 -0.026369601 0.71985561
-0.039697535 -0.02867043 0.72081548
-0.039855286 -0.030998558 0.7218734
-0.040038843 -0.033365726 0.72310436
-0.040247288 -0.035775334 0.72450221
-0.040481374 -0.038232386 0.72607195
-0.040741771 -0.040741801 0.72781825
-0.041029271 -0.043308675 0.72974634
-0.041346081 -0.045940131 0.73187095
-0.041694444 -0.0486435 0.73420703
-0.04207819 -0.051428884 0.73678052
-0.042499531 -0.054304987 0.73960614
-0.042965028 -0.05728671 0.74272782
-0.043481942 -0.060391575 0.74619436
-0.044059463 -0.063641429 0.75006717
-0.0377388 -0.0044398606 0.72256708
-0.037201393 -0.0065649152 0.71875119
-0.036926843 -0.0086886585 0.7168017
-0.035583522 -0.010465741 0.70726329
-0.035580546 -0.012557834 0.70724213
-0.0357279 -0.014711499 0.70828849
-0.035971154 -0.0169276 0.71001571
-0.036310349 -0.019223124 0.71242422
-0.036651738 -0.021559834 0.71484828
-0.036858998 -0.023849934 0.71631998
-0.036985129 -0.026107132 0.71721554
-0.037133995 -0.028396577 0.71827263
-0.037305813 -0.030722409 0.71949267
-0.037500381 -0.033088565 0.72087419
-0.037718046 -0.035499305 0.72241974
-0.037959252 -0.037959218 0.72413242
-0.038225364 -0.040473938 0.72602201
-0.038517892 -0.043049365 0.72809917
-0.038838863 -0.045692772 0.73037827
-0.03919157 -0.048413098 0.73288274
-0.039579086 -0.05121997 0.73563427
-0.040006675 -0.05412668 0.73867047
-0.040480562 -0.057149053 0.74203533
-0.041009262 -0.060307771 0.74578947
-0.041604184 -0.063629925 0.75001371
-0.034841798 -0.0021776259 0.71745902
-0.034446921 -0.0043058693 0.71447986
-0.034221336 -0.0064164996 0.71277797
-0.033003151 -0.008250773 0.70358753
-0.033048112 -0.010327518 0.70392668
-0.033201065 -0.012450367 0.70508063
-0.033439454 -0.014629811 0.70687914
-0.033767238 -0.016883641 0.70935208
-0.034062196 -0.019159973 0.7115773
-0.034229971 -0.021393716 0.71284312
-0.034345541 -0.023612589 0.71371508
-0.034485057 -0.025863767 0.71476752
-0.034645483 -0.028149456 0.71597791
-0.034826342 -0.030473053 0.71734238
-0.035027936 -0.032838672 0.71886325
-0.035250962 -0.035250962 0.72054589
-0.03549635 -0.037714839 0.72239721
-0.035765458 -0.040236145 0.72442746
-0.036060594 -0.042821944 0.72665405
-0.036384106 -0.045480132 0.7290948
-0.036739253 -0.048220277 0.73177415
-0.037130482 -0.051054418 0.73472583
-0.037563592 -0.053997636 0.7379933
-0.038046122 -0.057069182 0.74163377
-0.038588393 -0.06029436 0.74572486
-0.039204434 -0.063707203 0.75037253
-0.039677758 -0.066956192 0.7539435
-0.032799799 0.002186656 0.71855032
-0.032090601 -0 0.71284318
-0.031779971 -0.0021186471 0.71034342
-0.030673394 -0.0040897727 0.70143831
-0.030518115 -0.0061036348 0.7001887
-0.03058116 -0.0081549585 0.70069611
-0.030737333 -0.01024577 0.70195287
-0.030976081 -0.012390435 0.70387417
-0.031284019 -0.014599204 0.70635229
-0.03153614 -0.016819268 0.70838118
-0.031669475 -0.019001663 0.70945418
-0.031778224 -0.021185458 0.71032929
-0.031905886 -0.023397654 0.71135664
-0.032054827 -0.025643855 0.71255523
-0.032222308 -0.027925998 0.71390295
-0.032408472 -0.030247897 0.71540117
-0.032613803 -0.032613784 0.71705347
-0.032839265 -0.035028577 0.71886796
-0.033086091 -0.03749758 0.72085428
-0.033356212 -0.04002744 0.723028
-0.033652041 -0.042625904 0.72540867
-0.033976376 -0.045301825 0.72801864
-0.034333073 -0.048066288 0.7308892
-0.034727521 -0.050933719 0.73406345
-0.035166364 -0.053921759 0.73759496
-0.035658915 -0.057054281 0.74155867
-0.036217641 -0.060362697 0.74605495
-0.036669936 -0.063561231 0.74969482
-0.036908329 -0.066434979 0.7516132
-0.037258651 -0.069549412 0.75443238
-0.029913876 0.0042734146 0.71252114
-0.029447343 0.0021033585 0.7084986
-0.02921693 -0 0.70651191
-0.028155461 -0.0020110905 0.69735968
-0.028100003 -0.0040142536 0.69688153
-0.028183438 -0.0060392916 0.69760096
-0.028346069 -0.0080988705 0.6990031
-0.028577114 -0.010206103 0.70099527
-0.028856939 -0.012367249 0.703408
-0.029065156 -0.014532596 0.70520329
-0.029175434 -0.016671687 0.70615411
-0.029277131 -0.018820971 0.70703095
-0.029395565 -0.020996839 0.70805216
-0.029531138 -0.023203045 0.70922101
-0.02968557 -0.025444776 0.71055257
-0.029856758 -0.027724117 0.71202856
-0.030044872 -0.030044854 0.71365052
-0.030251175 -0.032411993 0.71542937
-0.03047676 -0.03483057 0.71737432
-0.03072311 -0.037306637 0.71949852
-0.030992385 -0.039847344 0.72182012
-0.031287231 -0.042461246 0.72436243
-0.031611256 -0.045158952 0.72715622
-0.031969033 -0.047953546 0.730241
-0.032366678 -0.050861925 0.73366958
-0.032812104 -0.053905576 0.73751009
-0.033316799 -0.057114512 0.74186176
-0.033740774 -0.060251355 0.74551731
-0.033965889 -0.063079506 0.74745834
-0.034264445 -0.066081434 0.75003254
-0.034830067 -0.069660157 0.75490952
-0.027247405 0.006287843 0.70760202
-0.026912581 0.0041404068 0.70449299
-0.026729882 0.0020561516 0.70279658
-0.02576543 -0 0.69384122
-0.025757676 -0.0019813776 0.69376922
-0.025853191 -0.0039774179 0.69465613
-0.02601189 -0.0060027242 0.69612968
-0.026232922 -0.0080716312 0.69818205
-0.026482088 -0.010185421 0.70049572
-0.026651029 -0.012300462 0.70206439
-0.026745049 -0.014401168 0.70293736
-0.026839625 -0.016516685 0.70381558
-0.026949152 -0.018657118 0.70483261
-0.027073098 -0.020825446 0.70598346
-0.027213546 -0.023026854 0.70728755
-0.02737008 -0.02526471 0.70874113
-0.027541827 -0.027541816 0.71033585
-0.027729686 -0.029862732 0.71208012
-0.027934637 -0.032232285 0.71398318
-0.028158231 -0.034656256 0.71605939
-0.028402288 -0.037141472 0.71832556
-0.028669178 -0.039695799 0.72080374
-0.028962007 -0.042329073 0.72352278
-0.029284988 -0.04505381 0.72652179
-0.029643459 -0.047885597 0.72985041
-0.0300445 -0.05084452 0.73357421
-0.030498238 -0.053958416 0.73778743
-0.030893387 -0.057033926 0.74145651
-0.03110449 -0.059816331 0.74341667
-0.031356998 -0.062713951 0.74576133
-0.03182555 -0.066099197 0.750112
-0.025344349 0.010560125 0.70954239
-0.024706634 0.0082355738 0.70312744
-0.024461938 0.0061154664 0.70066595
-0.024315028 0.00405249 0.69918823
-0.023454038 0.0019545257 0.69052732
-0.02348073 -0 0.69079584
-0.023578653 -0.0019648969 0.69178087
-0.023732053 -0.0039553344 0.69332391
-0.023941658 -0.005985409 0.69543242
-0.0241584 -0.0080527961 0.69761264
-0.02429604 -0.010123312 0.6989972
-0.024376133 -0.012188077 0.69980288
-0.024463531 -0.014270395 0.70068204
-0.024564113 -0.016376048 0.70169377
-0.024677388 -0.018508017 0.70283324
-0.024803797 -0.020669818 0.70410478
-0.024946216 -0.022867352 0.70553744
-0.025102029 -0.025102019 0.7071048
-0.025272131 -0.027378142 0.70881593
-0.025457393 -0.029700279 0.71067953
-0.025659094 -0.032073855 0.71270847
-0.025879065 -0.034505457 0.71492124
-0.026119301 -0.037002325 0.71733779
-0.026382577 -0.039573878 0.7199862
-0.026672404 -0.042231292 0.72290158
-0.026993768 -0.044989645 0.7261343
-0.027352847 -0.047867447 0.72974628
-0.027758386 -0.050890356 0.73382568
-0.028124396 -0.05390507 0.73750746
-0.028321126 -0.056642294 0.73948646
-0.028536895 -0.059451848 0.7416569
-0.028926793 -0.062674731 0.745579
-0.022665281 0.012362897 0.70331991
-0.022280836 0.010127664 0.69910109
-0.022089297 0.0080324709 0.69699919
-0.021321718 0.0058150291 0.68857598
-0.02122126 0.0038584173 0.6874736
-0.021259701 0.0019327104 0.68789542
-0.021358041 2.9802322e-08 0.68897462
-0.021504575 -0.0019549727 0.69058263
-0.021701802 -0.0039457679 0.69274694
-0.021885173 -0.0059686899 0.69475925
-0.02199669 -0.0079987943 0.69598293
-0.022066182 -0.010030091 0.69674551
-0.022146447 -0.012079865 0.69762629
-0.022238165 -0.014151543 0.69863284
-0.022340979 -0.016247958 0.69976109
-0.022455003 -0.018372297 0.70101237
-0.022582607 -0.020529628 0.70241261
-0.022723015 -0.022722989 0.70395339
-0.022876015 -0.02495566 0.70563239
-0.023042465 -0.027231991 0.70745897
-0.023223303 -0.02955693 0.70944339
-0.023420151 -0.031936556 0.71160358
-0.02363497 -0.034378111 0.71396095
-0.023870006 -0.03689003 0.71654016
-0.024128474 -0.039482951 0.7193765
-0.024414675 -0.042170793 0.72251713
-0.024734059 -0.044970989 0.72602201
-0.025094246 -0.047907174 0.72997463
-0.025430491 -0.050861001 0.73366445
-0.02561238 -0.053553164 0.73566049
-0.025798824 -0.056288362 0.73770642
-0.026126908 -0.059379339 0.74130672
-0.020201903 0.014141351 0.69845647
-0.01993588 0.01196152 0.69524527
-0.019796038 0.0098980069 0.69355726
-0.019082438 0.0076329708 0.68494332
-0.019045539 0.0057136118 0.68449795
-0.019092558 0.003818512 0.68506551
-0.019191492 0.0019191504 0.68625975
-0.019332005 2.9802322e-08 0.68795586
-0.019512182 -0.0019512177 0.69013077
-0.019664168 -0.0039328635 0.6919654
-0.019751808 -0.0059255362 0.69302332
-0.019813204 -0.007925272 0.69376445
-0.019886201 -0.009943068 0.69464564
-0.019969137 -0.011981487 0.69564676
-0.020061694 -0.014043182 0.69676399
-0.020164046 -0.016131222 0.69799948
-0.020277223 -0.018249482 0.69936568
-0.020402735 -0.02040273 0.70088071
-0.02053925 -0.02259317 0.70252854
-0.020687435 -0.024824947 0.70431739
-0.02084828 -0.027102768 0.70625895
-0.021023212 -0.029432476 0.70837051
-0.021213597 -0.031820387 0.71066868
-0.021421852 -0.034274936 0.71318257
-0.021650523 -0.036805898 0.71594286
-0.021903384 -0.039426118 0.71899521
-0.022185218 -0.042151898 0.72239721
-0.022502597 -0.045005202 0.7262283
-0.022808898 -0.04789871 0.72992569
-0.02297553 -0.050546139 0.73193705
-0.023135196 -0.053210944 0.73386449
-0.023407942 -0.056179076 0.73715675
-0.017865842 0.015880764 0.69421995
-0.017677605 0.013749272 0.69169521
-0.017566923 0.01171127 0.69021076
-0.016937833 0.0094099045 0.68177319
-0.016929492 0.0075242519 0.68166131
-0.016985558 0.0056618452 0.68241334
-0.017079744 0.0037954748 0.68367654
-0.017210556 0.0019122958 0.685431
-0.017369343 -0 0.68756074
-0.017493293 -0.0019436777 0.68922317
-0.017561032 -0.0039024353 0.69013172
-0.017615575 -0.0058718324 0.69086325
-0.017680729 -0.0078580976 0.69173706
-0.017754968 -0.0098638833 0.69273293
-0.017837465 -0.011891663 0.69383931
-0.017928435 -0.013944298 0.69505942
-0.018027984 -0.016024858 0.69639456
-0.018138943 -0.018138945 0.69788277
-0.018259564 -0.020288408 0.69950062
-0.018390283 -0.022477031 0.70125389
-0.018531958 -0.024709284 0.70315409
-0.018685751 -0.026990503 0.70521677
-0.018853003 -0.029326886 0.70746005
-0.019035662 -0.031726122 0.70990992
-0.019236181 -0.034197628 0.71259934
-0.019457266 -0.036752582 0.71556455
-0.01970356 -0.039407104 0.7188679
-0.019980516 -0.042181104 0.72258258
-0.020256346 -0.045014113 0.72628212
-0.020407628 -0.047617793 0.72831112
-0.020542804 -0.050215721 0.73012412
-0.020766562 -0.053070098 0.73312527
-0.015916046 0.019895077 0.69475245
-0.015625956 0.017579228 0.69037533
-0.015484928 0.015484929 0.68824744
-0.015399146 0.013474256 0.68695307
-0.014856751 0.011142552 0.67876899
-0.014870716 0.0092941821 0.67897975
-0.014926611 0.0074633062 0.67982304
-0.015014627 0.0056304932 0.68115115
-0.015134524 0.0037836432 0.68296021
-0.015270552 0.0019088089 0.68501276
-0.015369229 -0 0.68650174
-0.01542282 -0.0019278824 0.68731034
-0.015471462 -0.0038678646 0.68804431
-0.015528059 -0.0058230162 0.68889821
-0.015593692 -0.007796824 0.68988854
-0.015666317 -0.0097914636 0.69098443
-0.015746124 -0.011809587 0.69218862
-0.015833322 -0.013854146 0.69350433
-0.0159296 -0.01592958 0.69495708
-0.016034825 -0.018039197 0.69654477
-0.016148742 -0.020185918 0.69826365
-0.016272027 -0.022374034 0.70012385
-0.016405674 -0.024608552 0.70214045
-0.016550839 -0.026895106 0.7043308
-0.016709117 -0.029240936 0.70671904
-0.016882908 -0.031655431 0.70934129
-0.017073812 -0.03414762 0.71222186
-0.017286459 -0.036733717 0.71543044
-0.017525241 -0.039431781 0.71903342
-0.017769763 -0.042203158 0.72272295
-0.017906409 -0.044766009 0.72478479
-0.018018933 -0.047299743 0.72648263
-0.018200904 -0.050052464 0.72922832
-0.018688932 -0.053730667 0.73659211
-0.013652512 0.021453947 0.69002706
-0.013462394 0.019232035 0.68674856
-0.013359897 0.017177016 0.68498111
-0.012896365 0.014738739 0.67698777
-0.012839681 0.012839705 0.67601025
-0.012859999 0.011022866 0.67636073
-0.012913911 0.0092242062 0.67729032
-0.012994546 0.007425487 0.67868084
-0.013102462 0.0056153238 0.68054175
-0.013215874 0.0037759542 0.6824975
-0.013292161 0.0018988848 0.68381304
-0.013335177 -0 0.68455482
-0.013377962 -0.0019111335 0.6852926
-0.013426887 -0.0038362741 0.68613625
-0.013483434 -0.0057786405 0.68711144
-0.013546377 -0.0077407956 0.6881969
-0.013615361 -0.0097252429 0.68938637
-0.013690508 -0.011734724 0.69068229
-0.013772712 -0.013772696 0.69209981
-0.013863204 -0.01584366 0.69366038
-0.013960958 -0.01794979 0.695346
-0.014066535 -0.02009505 0.69716668
-0.014180896 -0.02228424 0.69913876
-0.014304955 -0.024522781 0.70127809
-0.014440009 -0.026817173 0.70360696
-0.014588326 -0.029176652 0.7061646
-0.014751018 -0.031609327 0.70897013
-0.014931433 -0.034128964 0.71208125
-0.015134149 -0.03675434 0.71557701
-0.015345804 -0.039460629 0.71922684
-0.015468542 -0.041986048 0.7213434
-0.015560977 -0.044459909 0.72293735
-0.015711471 -0.047134429 0.72553253
-0.016013823 -0.050329149 0.73074639
-0.011502014 0.023004055 0.68600059
-0.011370496 0.02084592 0.68335462
-0.011296649 0.018827736 0.68186891
-0.010892359 0.016338557 0.67373526
-0.010871612 0.014495522 0.67331779
-0.01089568 0.012711614 0.67380208
-0.010946013 0.010946006 0.6748147
-0.011018001 0.0091816783 0.67626303
-0.011113032 0.0074087083 0.67817485
-0.011204067 0.0056020617 0.68000633
-0.011262406 0.0037541389 0.68118
-0.011296436 0.0018827319 0.68186468
-0.011333237 -0 0.68260509
-0.011375019 -0.0018958449 0.68344563
-0.011422367 -0.0038074553 0.68439823
-0.011475854 -0.0057379305 0.68547428
-0.011534229 -0.007689476 0.68664867
-0.011597679 -0.0096647441 0.68792522
-0.011666547 -0.011666536 0.68931067
-0.011742753 -0.013699889 0.69084388
-0.011824944 -0.015766561 0.69249737
-0.011913585 -0.017870367 0.69428074
-0.012009425 -0.020015687 0.69620889
-0.012113268 -0.022207677 0.69829804
-0.012226285 -0.024452567 0.70057178
-0.012350318 -0.026758999 0.70306712
-0.012486129 -0.029134274 0.70579946
-0.012636119 -0.031590253 0.70881701
-0.012804759 -0.034145981 0.71220976
-0.012983347 -0.036786139 0.71580273
-0.01309177 -0.039275289 0.71798402
-0.013166239 -0.041693091 0.71948218
-0.013288211 -0.044294029 0.72193611
-0.013507633 -0.047276706 0.72635055
-0.0096358843 0.026980489 0.68722874
-0.0094296634 0.024517119 0.68225014
-0.009342405 0.022421747 0.68014359
-0.0092884349 0.020434558 0.67884058
-0.0089580109 0.017916054 0.67086345
-0.0089520486 0.016113698 0.6707195
-0.008978554 0.014365703 0.67135942
-0.0090235034 0.012632906 0.67244458
-0.0090858005 0.010902971 0.67394853
-0.0091652535 0.0091652572 0.67586672
-0.0092347432 0.0073877871 0.67754436
-0.0092776185 0.0055665672 0.67857945
-0.0093048094 0.0037219226 0.67923588
-0.0093356073 0.0018671155 0.67997944
-0.0093703289 -0 0.68081766
-0.0094089527 -0.001881808 0.68175012
-0.0094530359 -0.0037811995 0.68281442
-0.009501107 -0.0057006776 0.68397498
-0.0095532052 -0.0076425374 0.6852327
-0.0096095316 -0.0096094906 0.68659258
-0.0096716452 -0.011605948 0.68809211
-0.0097388495 -0.013634354 0.68971449
-0.0098112235 -0.015697926 0.6914618
-0.0098893717 -0.017800868 0.69334847
-0.0099739404 -0.019947916 0.69539016
-0.010065878 -0.022144943 0.69760972
-0.01016671 -0.024400085 0.70004404
-0.010277008 -0.026720196 0.70270687
-0.010398577 -0.029116005 0.70564175
-0.010534711 -0.031604141 0.70892829
-0.010681064 -0.03417936 0.71246159
-0.01077412 -0.036632031 0.71470821
-0.010833559 -0.039000839 0.71614319
-0.010928395 -0.041527897 0.71843272
-0.011093397 -0.044373572 0.72241622
-0.0075465753 0.028299659 0.68233597
-0.007431658 0.026010782 0.67886806
-0.0073704906 0.023954064 0.67702216
-0.007171365 0.021514088 0.671013
-0.0070757326 0.019458294 0.66812706
-0.0070810895 0.017702729 0.66828871
-0.0071050716 0.015986443 0.66901243
-0.007143083 0.01428616 0.67015946
-0.0071946695 0.012590677 0.67171621
-0.0072573335 0.010886043 0.67360735
-0.0073079471 0.0091349185 0.67513478
-0.0073375786 0.0073375702 0.67602897
-0.0073587298 0.0055190623 0.67666721
-0.0073834336 0.0036917329 0.67741275
-0.0074111563 0.0018527806 0.67824936
-0.0074418266 -0 0.6791749
-0.0074762972 -0.0018690526 0.68021512
-0.0075143036 -0.003757149 0.68136209
-0.0075553781 -0.0056665242 0.68260157
-0.0075997021 -0.0075996816 0.68393922
-0.0076482594 -0.0095603168 0.6854046
-0.0077010249 -0.011551529 0.68699694
-0.0077577694 -0.01357609 0.68870932
-0.0078189289 -0.015637845 0.69055498
-0.0078850668 -0.017741412 0.69255084
-0.0079568839 -0.019892216 0.69471818
-0.0080355993 -0.022097886 0.69709361
-0.008121619 -0.024364859 0.69968945
-0.0082163075 -0.026703 0.70254689
-0.0083217667 -0.029126197 0.70572948
-0.0084369695 -0.031638622 0.70920599
-0.0085133752 -0.034053534 0.71151173
-0.0085599087 -0.036379635 0.71291602
-0.0086296648 -0.038833499 0.71502107
-0.0087481039 -0.041553468 0.71859533
-0.0055603026 0.02965495 0.6783272
-0.0054921298 0.027460665 0.6755842
-0.0054551852 0.025457531 0.6740976
-0.0052661942 0.022820204 0.66649324
-0.0052445563 0.020978212 0.66562259
-0.005251749 0.019256443 0.66591197
-0.0052717426 0.017572492 0.66671646
-0.0053017014 0.015905112 0.6679219
-0.0053416411 0.014244348 0.66952896
-0.005387268 0.012570292 0.67136484
-0.0054216892 0.010843396 0.67274988
-0.0054411455 0.0090685785 0.67353272
-0.0054566725 0.0072755516 0.67415744
-0.0054752426 0.0054752529 0.6749047
-0.0054959711 0.0036639869 0.67573869
-0.0055188038 0.001839608 0.67665744
-0.005544079 -0 0.67767441
-0.0055722333 -0.0018573999 0.67880726
-0.0056026187 -0.0037350655 0.68002993
-0.0056353253 -0.0056353211 0.68134588
-0.0056709223 -0.0075612068 0.68277824
-0.0057097715 -0.009516269 0.68434137
-0.0057514696 -0.011502922 0.68601918
-0.005796399 -0.01352492 0.68782699
-0.0058448799 -0.015586346 0.68977767
-0.0058974894 -0.017692447 0.69189453
-0.005955115 -0.019850373 0.69421321
-0.0060180258 -0.022066087 0.69674456
-0.0060871877 -0.024348766 0.6995275
-0.0061638746 -0.026710123 0.70261312
-0.0062488085 -0.029161096 0.70603055
-0.0063074669 -0.031537324 0.70839077
-0.0063416557 -0.033822179 0.70976645
-0.0063896249 -0.036207885 0.71169662
-0.0064703515 -0.038822085 0.71494478
-0.0037379393 0.033641458 0.68020254
-0.0036476867 0.031005353 0.67475528
-0.0036117069 0.02889365 0.6725837
-0.0035899659 0.026924759 0.67127156
-0.0034623062 0.024236143 0.66356659
-0.0034558256 0.022462875 0.66317546
-0.0034626655 0.020776004 0.66358829
-0.0034772484 0.019124866 0.66446847
-0.0034981433 0.017490715 0.66572952
-0.0035255891 0.015865147 0.66738605
-0.0035546049 0.01421842 0.66913736
-0.0035754843 0.012514204 0.67039752
-0.0035870061 0.010761023 0.67109287
-0.0035973089 0.0089932978 0.67171472
-0.0036095313 0.0072190464 0.67245245
-0.0036233061 0.0054349601 0.67328382
-0.0036384163 0.0036384463 0.67419577
-0.0036548942 0.0018274486 0.67519033
-0.0036734489 -0 0.67631018
-0.0036934062 -0.0018467307 0.67751467
-0.0037148632 -0.0037148595 0.67880976
-0.0037380648 -0.0056070983 0.68021011
-0.0037634962 -0.0075269938 0.68174499
-0.0037907686 -0.0094769299 0.68339097
-0.0038200861 -0.011460274 0.68516052
-0.0038516982 -0.013480961 0.68706846
-0.0038859642 -0.015543848 0.68913662
-0.0039234743 -0.017655641 0.69140053
-0.0039643836 -0.019821912 0.69386959
-0.0040093004 -0.022051126 0.69658059
-0.004059047 -0.024354279 0.69958311
-0.0041145552 -0.026744634 0.70293331
-0.0041541471 -0.02907902 0.70532286
-0.0041768611 -0.031326413 0.70669377
-0.0042061973 -0.033649564 0.70846438
-0.0042568143 -0.03618291 0.71151942
-0.0018269666 0.034712374 0.67513227
-0.0017969103 0.032344401 0.6715042
-0.001781682 0.030288607 0.66966593
-0.0017721597 0.028354555 0.66851652
-0.0017518763 0.026278198 0.66606808
-0.0017394582 0.024352401 0.66456908
-0.0017272091 0.022453725 0.66309047
-0.0017203974 0.020644754 0.66226828
-0.0017312849 0.019044131 0.6635825
-0.0017453864 0.017453879 0.66528469
-0.0017592246 0.01583302 0.66695511
-0.0017684392 0.01414752 0.66806746
-0.0017737303 0.012416124 0.66870606
-0.0017789202 0.010673553 0.66933256
-0.001784898 0.0089245141 0.67005414
-0.0017917627 0.0071670413 0.67088282
-0.0017992622 0.0053977966 0.6717881
-0.0018073994 0.0036147833 0.67277038
-0.0018164873 0.0018164814 0.67386734
-0.0018263331 -0 0.67505586
-0.0018368931 -0.0018368959 0.67633057
-0.0018482379 -0.0036964715 0.67769998
-0.0018607266 -0.0055821538 0.6792075
-0.0018740937 -0.0074963868 0.68082106
-0.0018884524 -0.0094422698 0.6825543
-0.001903909 -0.011423439 0.68442011
-0.0019206521 -0.013444573 0.68644112
-0.0019389765 -0.015511811 0.68865311
-0.0019589339 -0.017630398 0.69106215
-0.0019808186 -0.019808173 0.69370383
-0.0020050278 -0.022055328 0.69662619
-0.0020320457 -0.024384558 0.69988751
-0.0020522652 -0.026679456 0.70232826
-0.0020635817 -0.028890133 0.70369434
-0.0020774617 -0.031161904 0.70536977
-0.0021007676 -0.033612311 0.70818305
0 0.036170602 0.67290676
0 0.033816934 0.66944331
0 0.031772077 0.66766608
0 0.029850334 0.66655421
0 0.028002679 0.66586173
0 0.026199698 0.66543692
0 0.024426728 0.66520977
0 0.022599697 0.66444582
0 0.020715773 0.66298264
0 0.019012213 0.66323161
0 0.017411619 0.66477519
0 0.015745372 0.66577971
0 0.014035165 0.66637212
0 0.01231727 0.66700214
0 0.010592788 0.66770816
0 0.0088615119 0.66853392
0 0.0071190298 0.66943264
0 0.0053634346 0.67040521
0 0.0035933852 0.67147851
0 0.0018064082 0.67265064
0 -0 0.67390555
0 -0.0018279254 0.6752491
0 -0.0036803484 0.67672604
0 -0.0055598319 0.67830819
0 -0.0074693561 0.68000633
0 -0.0094123483 0.68183219
0 -0.01139304 0.68380779
0 -0.013417214 0.68596953
0 -0.015489757 0.68832064
0 -0.017617911 0.69089466
0 -0.019811153 0.69373983
0 -0.022081584 0.69691455
0 -0.024335742 0.69939637
0 -0.026511043 0.7007643
0 -0.028734326 0.70235062
0 -0.031107396 0.70493114
0.0017766905 0.037310481 0.66906345
0.0017549425 0.035098881 0.66643822
0.0017423111 0.033103913 0.66491348
0.0017344296 0.031219751 0.66396213
0.0017295255 0.029401898 0.66337013
0.0017265297 0.027624458 0.66300845
0.0017251248 0.02587688 0.66283888
0.001724988 0.024149835 0.66282243
0.0017259221 0.022436976 0.66293514
0.0017278354 0.020734012 0.66316605
0.001725333 0.018978655 0.66286403
0.001730734 0.017307341 0.66351593
0.0017354703 0.015619248 0.66408771
0.001740717 0.013925761 0.66472101
0.0017465684 0.012225986 0.66542739
0.0017532638 0.010519594 0.66623557
0.0017606545 0.0088032484 0.66712773
0.0017686329 0.0070745051 0.66809082
0.0017773341 0.0053319931 0.66914117
0.0017869058 0.0035738051 0.67029655
0.0017971427 0.0017971396 0.67153221
0.0018080852 -0 0.67285311
0.0018200553 -0.0018200576 0.67429805
0.0018329232 -0.0036658347 0.67585129
0.0018467031 -0.0055401027 0.67751467
0.0018615088 -0.0074460208 0.67930192
0.0018775115 -0.0093875527 0.68123364
0.0018950109 -0.011370063 0.68334597
0.0019140251 -0.013398141 0.68564123
0.0019348228 -0.015478611 0.68815172
0.0019577688 -0.017619938 0.69092149
0.0019833467 -0.019833446 0.69400907
0.0020040963 -0.022045046 0.69651371
0.0020156086 -0.024187267 0.69790339
0.0020280264 -0.026364356 0.69940233
0.0020475709 -0.02866599 0.70176154
0.0020893987 -0.031340986 0.70681065
0.0036104429 0.041520119 0.67250741
0.0034991705 0.038490862 0.66579151
0.0034628573 0.036360025 0.66359985
0.0034417058 0.034417063 0.66232324
0.0034274897 0.032561183 0.66146523
0.003418731 0.030768603 0.66093659
0.0034137398 0.029016793 0.66063535
0.003411703 0.027293622 0.66051245
0.0034120285 0.025590241 0.66053206
0.0034143336 0.02390036 0.66067117
0.0034183341 0.022219121 0.66091263
0.0034243232 0.020545989 0.66127408
0.0034316268 0.01887396 0.66171491
0.0034403924 0.01720196 0.66224396
0.0034444544 0.015500069 0.66248912
0.003456136 0.013824552 0.66319418
0.0034692562 0.01214239 0.66398603
0.0034839308 0.010451794 0.66487175
0.0034997214 0.0087493062 0.66582477
0.0035167553 0.0070335269 0.66685283
0.0035356539 0.0053035021 0.66799355
0.0035558178 0.0035558343 0.66921049
0.0035773378 0.0017887056 0.6705094
0.0036007648 -0 0.67192328
0.0036260108 -0.0018130243 0.67344701
0.0036530264 -0.0036530495 0.67507756
0.0036820183 -0.005523026 0.67682737
0.0037133198 -0.0074265897 0.67871654
0.003747528 -0.0093688071 0.68078125
0.0037846612 -0.011353999 0.68302238
0.0038252261 -0.013388276 0.6854707
0.0038699298 -0.015479743 0.68816888
0.0039196936 -0.017638594 0.69117236
0.0039615585 -0.019807786 0.69369912
0.0039849058 -0.021916956 0.69510823
0.0040083532 -0.024050117 0.69652343
0.0040447409 -0.026290834 0.69871962
0.0041146567 -0.028802574 0.70293939
0.005263221 0.042105734 0.66637361
0.0051717903 0.039650381 0.66269469
0.005127816 0.037603974 0.66092533
0.0050997678 0.035698384 0.65979671
0.0050809351 0.033872902 0.65903896
0.0050695753 0.032107323 0.65858191
0.0050631114 0.03037867 0.6583218
0.005061029 0.028679162 0.65823799
0.0050623603 0.026999265 0.65829158
0.0050664609 0.025332272 0.65845656
0.0050729336 0.023673683 0.65871704
0.0050817267 0.022020817 0.65907079
0.0050931233 0.02037251 0.65952945
0.005106708 0.01872462 0.66007596
0.0051224092 0.017074704 0.66070771
0.0051397909 0.015419364 0.66140711
0.0051491531 0.013731092 0.66178381
0.0051710065 0.012065679 0.66266316
0.0051944656 0.010388911 0.66360712
0.0052195722 0.0086993277 0.6646173
0.0052474532 0.0069966018 0.66573918
0.0052772472 0.0052772462 0.66693795
0.0053089955 0.0035393238 0.66821539
0.0053433715 0.001781106 0.66959864
0.0053805672 -0 0.67109525
0.0054202797 -0.001806736 0.67269313
0.0054628481 -0.0036419034 0.67440593
0.0055087786 -0.0055087507 0.67625403
0.0055589643 -0.0074119568 0.67827338
0.0056133666 -0.0093556046 0.68046236
0.0056727221 -0.011345446 0.68285066
0.0057380367 -0.013388753 0.68547869
0.0058106696 -0.015495121 0.68840122
0.0058739493 -0.017621845 0.69094741
0.0059094457 -0.019698143 0.69237566
0.0059426436 -0.0217897 0.69371146
0.0059944256 -0.023977697 0.695795
0.0060857073 -0.02637139 0.69946784
0.0068942001 0.043088704 0.66264886
0.0068022562 0.040813535 0.6598742
0.0067508151 0.038817197 0.65832186
0.0067179818 0.036948919 0.65733093
0.0066972328 0.035160452 0.65670478
0.0066840812 0.033420384 0.65630794
0.0066769458 0.031715482 0.65609258
0.0066746078 0.030035734 0.65602201
0.0066771684 0.02837798 0.65609932
0.0066834344 0.026733756 0.65628839
0.0066926866 0.025097549 0.65656763
0.0067045912 0.02346611 0.65692687
0.0067200572 0.021840185 0.65739357
0.0067377933 0.020213366 0.65792882
0.0067588175 0.018586725 0.65856332
0.0067819492 0.016954869 0.65926135
0.0068071606 0.015316129 0.66002214
0.0068359673 0.013671935 0.66089147
0.0068539698 0.011994451 0.66143477
0.0068870592 0.010330588 0.66243333
0.006923439 0.0086543262 0.66353118
0.0069625769 0.0069625974 0.66471225
0.0070042191 0.005253166 0.66596895
0.0070491172 0.0035245419 0.66732389
0.0070977891 0.0017744601 0.66879267
0.0071497429 -0 0.67036051
0.0072053149 -0.0018013418 0.67203748
0.0072652367 -0.0036326051 0.67384589
0.0073306719 -0.0054980218 0.67582047
0.0074015367 -0.007401526 0.67795908
0.0074787559 -0.0093484521 0.68028933
0.0075636301 -0.011345446 0.68285066
0.0076578874 -0.01340127 0.68569511
0.007742764 -0.015485525 0.6882565
0.0077908672 -0.017529458 0.68970817
0.0078324843 -0.019581199 0.69096404
0.0078979796 -0.021719396 0.69294053
0.0080082696 -0.024024814 0.69626892
0.0084832432 0.044112891 0.65940154
0.0083901267 0.041950643 0.65715349
0.0083354479 0.040010124 0.65583348
0.0082998583 0.038179308 0.65497422
0.00827704 0.036419004 0.6544233
0.0082629882 0.034704536 0.65408409
0.008255926 0.033023685 0.65391362
0.0082544554 0.031366915 0.65387809
0.0082576424 0.029727548 0.65395504
0.0082664005 0.028105766 0.65416646
0.0082786828 0.026491791 0.65446305
0.0082939425 0.02488178 0.65483141
0.0083134007 0.023277551 0.65530115
0.008335365 0.021671951 0.65583146
0.008361497 0.020067573 0.65646231
0.0083903801 0.018458843 0.65715957
0.0084217312 0.016843498 0.65791649
0.008457033 0.015222669 0.65876877
0.0084953131 0.013592511 0.65969294
0.0085362121 0.011950701 0.66068029
0.0085647637 0.010277748 0.66136956
0.0086129736 0.0086129904 0.66253346
0.0086641889 0.0069313943 0.66376996
0.0087191453 0.0052314699 0.66509676
0.0087788999 0.003511548 0.66653931
0.0088425707 0.0017684996 0.66807652
0.0089106308 -0 0.66971958
0.008983939 -0.001796782 0.67148936
0.0090639433 -0.0036255717 0.67342091
0.0091505032 -0.005490303 0.67551059
0.0092447074 -0.0073957741 0.67778492
0.0093481308 -0.0093481243 0.68028176
0.0094628334 -0.0113554 0.68305093
0.0095695397 -0.013397366 0.68562704
0.0096306168 -0.015408993 0.6871016
0.0096794283 -0.017422944 0.68827999
0.0097569665 -0.019513905 0.69015193
0.0098812869 -0.021738827 0.69315326
0.010238914 0.047781587 0.66058898
0.010032689 0.045147151 0.65644002
0.0099411309 0.043078244 0.65459806
0.0098844077 0.041185021 0.65345681
0.0098461546 0.039384633 0.65268725
0.0098219309 0.037650764 0.65219992
0.0098075885 0.035961151 0.65191138
0.0098011196 0.034303933 0.65178126
0.0098010246 0.032670081 0.65177929
0.0098060817 0.031052589 0.6518811
0.0098163746 0.029449105 0.65208817
0.0098319342 0.027857155 0.65240115
0.0098507106 0.026268542 0.65277892
0.0098742004 0.024685532 0.65325147
0.0099006742 0.023101598 0.6537841
0.009931528 0.02151829 0.65440482
0.0099661453 0.0199323 0.6551013
0.010003571 0.018339872 0.65585423
0.010045043 0.016741782 0.65668857
0.010090588 0.015135914 0.65760487
0.010139048 0.013518721 0.65857983
0.010191537 0.011890143 0.65963584
0.010248736 0.01024875 0.66078657
0.010289975 0.0085749626 0.66161621
0.010354533 0.0069030523 0.66291505
0.010424971 0.0052125156 0.66433215
0.010499935 0.0035000145 0.66584033
0.010579973 0.0017633438 0.66745055
0.010666089 2.9802322e-08 0.66918302
0.010760054 -0.0017933547 0.67107344
0.010861542 -0.0036205053 0.67311525
0.010971895 -0.0054859221 0.67533541
0.011092911 -0.0073952675 0.67777008
0.011226944 -0.0093557537 0.68046653
0.011355615 -0.011355609 0.68305528
0.011430021 -0.013335019 0.68455219
0.01148516 -0.015313536 0.68566149
0.011573002 -0.017359495 0.68742871
0.011708085 -0.019513488 0.69014645
0.011716942 0.048541635 0.65664935
0.01154618 0.046184719 0.65370464
0.011455958 0.044187278 0.6521489
0.011397468 0.042333454 0.65114021
0.011357627 0.040562958 0.65045321
0.011333042 0.038856149 0.65002924
0.01131916 0.03719157 0.64978987
0.011313749 0.035557508 0.64969653
0.011315321 0.033945978 0.64972365
0.011322673 0.03235051 0.64985043
0.011334875 0.0307661 0.65006083
0.011353503 0.029194713 0.6503821
0.011375961 0.027627349 0.65076935
0.011403443 0.026065022 0.65124327
0.011434566 0.024502635 0.65177995
0.011470103 0.022940189 0.65239275
0.011510171 0.021376073 0.65308368
0.011553644 0.019806266 0.65383339
0.011601174 0.018230408 0.65465301
0.01165367 0.016648084 0.65555823
0.011709578 0.01505518 0.65652239
0.011769583 0.01345095 0.65755713
0.011835325 0.011835337 0.65869081
0.011905041 0.010204345 0.65989298
0.011979064 0.0085564852 0.66116947
0.012037111 0.0068783462 0.66217053
0.012122937 0.0051955581 0.66365045
0.012214467 0.003489852 0.66522884
0.012312841 0.0017589629 0.66692525
0.012420118 -2.9802322e-08 0.6687752
0.012535875 -0.0017908514 0.67077136
0.012661584 -0.0036175847 0.67293912
0.012799282 -0.0054854155 0.67531359
0.012951587 -0.0074008703 0.67794007
0.013101335 -0.009358108 0.68052232
0.013190392 -0.011306047 0.6820581
0.01325308 -0.013253093 0.68313915
0.013347475 -0.015254259 0.68476689
0.013496631 -0.017352819 0.68733901
0.013178213 0.0494183 0.65344179
0.013025085 0.047215939 0.65113127
0.01293493 0.045272261 0.64977098
0.012875764 0.04345569 0.64887822
0.01283802 0.041723579 0.64830869
0.012813362 0.040041775 0.64793664
0.01279931 0.038397938 0.64772463
0.012794851 0.036785245 0.64765728
0.012798451 0.035195738 0.64771163
0.01280832 0.033621848 0.64786053
0.01282342 0.032058567 0.6480884
0.012844323 0.03050527 0.64840376
0.012870671 0.028959036 0.64880133
0.012902075 0.027416915 0.64927524
0.012937939 0.025875896 0.64981633
0.012978041 0.024333835 0.65042144
0.013023474 0.022791088 0.65110695
0.013072899 0.021243483 0.65185273
0.013126356 0.01968956 0.6526593
0.01318555 0.018130124 0.65355253
0.013248698 0.016560912 0.65450531
0.013316087 0.014980584 0.65552223
0.013390029 0.013390005 0.65663791
0.013468468 0.011784941 0.65782142
0.013551638 0.010163754 0.65907633
0.013642347 0.008526504 0.66044503
0.01373277 0.0068663955 0.66180944
0.013815145 0.0051806867 0.66305232
0.0139253 0.0034813285 0.66471446
0.014045304 0.0017556548 0.66652519
0.014174666 2.9802322e-08 0.66847712
0.014314979 -0.0017893612 0.67059427
0.014468499 -0.0036171079 0.67291069
0.014638075 -0.00548926 0.6754694
0.014808441 -0.0074042082 0.67804003
0.014912931 -0.0093205869 0.67961669
0.014982761 -0.011237085 0.68067038
0.01508189 -0.013196647 0.68216604
0.015242987 -0.015242994 0.68459684
0.014965015 0.053208977 0.65531313
0.014611619 0.05032897 0.65057325
0.01446927 0.048230886 0.64866406
0.014382851 0.046344757 0.64750504
0.014324838 0.044566154 0.64672691
0.014286618 0.042859882 0.64621431
0.014262636 0.041203171 0.64589262
0.014249908 0.039583087 0.64572197
0.014246076 0.037989527 0.64567053
0.01425135 0.036420137 0.64574128
0.014264036 0.034867615 0.64591146
0.014282177 0.033325046 0.64615476
0.014305498 0.031789988 0.64646757
0.01433569 0.030264258 0.6468724
0.014371239 0.028742492 0.64734924
0.014411665 0.027222037 0.6478914
0.014456218 0.025699943 0.648489
0.014506933 0.024178237 0.64916921
0.014562195 0.022652328 0.64991039
0.014621391 0.021119833 0.65070432
0.014687153 0.019582868 0.65158635
0.014757424 0.018036842 0.65252888
0.014831837 0.01647985 0.65352696
0.01491372 0.014913738 0.65462518
0.015000609 0.013333887 0.65579057
0.015092662 0.011738747 0.65702522
0.015192665 0.010128438 0.6583665
0.015299771 0.0084998608 0.65980303
0.015413883 0.0068506002 0.66133356
0.015504474 0.0051681399 0.66254854
0.015636696 0.0034748316 0.66432196
0.015779041 0.0017532408 0.6662311
0.015933298 -0 0.66830003
0.016101761 -0.0017890632 0.67055953
0.016287658 -0.0036194623 0.67305285
0.01647838 -0.0054928064 0.67561084
0.016598457 -0.0073770285 0.67722136
0.016675534 -0.0092641711 0.67825514
0.016780486 -0.011186987 0.67966282
0.016948735 -0.013182342 0.6819194
0.016276008 0.053710818 0.65106672
0.016017267 0.051255226 0.64794344
0.015884401 0.049241632 0.6463396
0.015799934 0.047399819 0.64531994
0.015742321 0.045652717 0.64462453
0.015704866 0.043973625 0.64417243
0.015682075 0.04234159 0.64389735
0.01567083 0.040744185 0.64376158
0.015669014 0.03917253 0.64373958
0.015674904 0.03761977 0.64381075
0.015690634 0.036088467 0.64400065
0.015712116 0.034566671 0.64425993
0.015738804 0.033051491 0.64458209
0.015772093 0.031544209 0.64498395
0.015811818 0.03004244 0.64546347
0.015856564 0.028541833 0.64600354
0.015905961 0.027040154 0.64659989
0.015961725 0.025538743 0.647273
0.0160225 0.024033755 0.64800662
0.016087564 0.022522599 0.64879203
0.016159471 0.021007329 0.64965999
0.016236553 0.019483864 0.65059042
0.0163181 0.017949939 0.65157479
0.016407406 0.0164074 0.65265286
0.016502485 0.014852256 0.65380049
0.016603023 0.013282388 0.65501416
0.016711989 0.011698395 0.65632945
0.016828846 0.010097325 0.65774006
0.01695315 0.0084765851 0.65924054
0.017085891 0.006834358 0.6608429
0.017230693 0.0051692128 0.66259074
0.01735007 0.0034700036 0.6640318
0.017517535 0.0017517507 0.6660533
0.01770022 -0 0.66825849
0.017901536 -0.0017901659 0.67068857
0.018111287 -0.0036222637 0.67322052
0.018247081 -0.0054740906 0.67485964
0.01833252 -0.0073329806 0.67589104
0.018443275 -0.009221673 0.67722797
0.018615158 -0.011169106 0.67930275
0.018955493 -0.013268858 0.68341094
0.017611045 0.054434121 0.64785618
0.017392559 0.052177668 0.64545864
0.017268578 0.050235868 0.6440981
0.017185381 0.048431545 0.64318508
0.017129116 0.046715796 0.64256769
0.017093208 0.045063943 0.64217365
0.017072266 0.043456674 0.64194381
0.017063109 0.041882187 0.64184332
0.017063532 0.04033199 0.64184797
0.017072054 0.03880015 0.64194143
0.017089069 0.037285239 0.64212817
0.017114043 0.035783947 0.64240223
0.017144268 0.034288555 0.64273393
0.017181143 0.032800347 0.64313859
0.017224533 0.031317353 0.64361477
0.017273564 0.029836178 0.64415276
0.017327892 0.028354764 0.64474899
0.017388437 0.026873052 0.64541334
0.017454609 0.025388539 0.64613956
0.017525584 0.023898542 0.64691842
0.017603386 0.022404283 0.64777219
0.017686995 0.020902812 0.64868963
0.017775532 0.019391447 0.64966124
0.017871981 0.017871976 0.65071964
0.017974941 0.016340882 0.65184951
0.018083727 0.01479581 0.65304327
0.018201238 0.013237268 0.65433276
0.018327484 0.01166296 0.65571821
0.018461622 0.010069996 0.6571902
0.018604655 0.0084566772 0.65875977
0.01876072 0.0068220794 0.66047239
0.018928992 0.0051624179 0.662319
0.019068811 0.003467083 0.66385329
0.019264974 0.0017513335 0.66600591
0.019480854 -0 0.66837496
0.019708965 -0.0017916858 0.67087817
0.019860877 -0.003611058 0.67254514
0.019954845 -0.0054422021 0.67357635
0.020070398 -0.0072983503 0.67484438
0.020243727 -0.0092016757 0.67674643
0.020560278 -0.011214674 0.68022019
0.018935405 0.055228263 0.64507335
0.018742187 0.053102851 0.64312977
0.018620824 0.051207274 0.641909
0.018541928 0.049445152 0.64111531
0.018488888 0.04776296 0.64058173
0.01845411 0.046135277 0.64023191
0.018434053 0.044548959 0.64003021
0.018427435 0.04299736 0.63996357
0.018430546 0.04146874 0.63999492
0.018441869 0.039957374 0.64010882
0.018460181 0.038458705 0.640293
0.018488774 0.036977559 0.64058065
0.018522825 0.035502076 0.64092314
0.01856314 0.034032434 0.64132869
0.018610148 0.032567769 0.64180154
0.018663829 0.031106412 0.64234155
0.018722726 0.02964434 0.64293396
0.018787812 0.028181702 0.64358872
0.018859334 0.026717395 0.64430815
0.018936122 0.02524814 0.64508057
0.019019619 0.023774505 0.64592052
0.019109631 0.022294581 0.64682597
0.019204982 0.020805389 0.64778519
0.019308241 0.019308239 0.64882386
0.019418772 0.01780054 0.64993566
0.019535592 0.016279668 0.65111077
0.019661294 0.014745981 0.65237528
0.019796582 0.01319772 0.65373611
0.019940102 0.011631727 0.65517986
0.020093042 0.010046512 0.65671837
0.020259894 0.0084415972 0.65839672
0.020439556 0.0068131983 0.66020393
0.020633843 0.005158484 0.66215831
0.02083822 0.0034730434 0.66421425
0.021026712 0.0017522275 0.66611028
0.021272773 -0 0.66858554
0.021441109 -0.0017867386 0.67027885
0.021543505 -0.0035905838 0.67130888
0.021663049 -0.0054157674 0.6725114
0.021842014 -0.0072806478 0.67431164
0.022151526 -0.009229809 0.67742509
0.020604065 0.058642358 0.64591563
0.020240476 0.056050599 0.64253956
0.020059958 0.05400762 0.64086342
0.019949585 0.05217582 0.63983852
0.019873578 0.050448298 0.6391328
0.019822283 0.048793286 0.6386565
0.019789295 0.047189862 0.63835013
0.019770648 0.045624614 0.63817704
0.019764641 0.04409036 0.63812125
0.019770769 0.042583168 0.63817811
0.019785201 0.041092366 0.6383121
0.019806709 0.039613456 0.6385119
0.019837152 0.038148344 0.63879454
0.019875096 0.0366925 0.63914686
0.019918855 0.035241067 0.63955319
0.019969428 0.033794403 0.64002275
0.020027777 0.032352597 0.64056462
0.020091124 0.030909419 0.64115274
0.020160742 0.029465705 0.64179921
0.02023777 0.028021544 0.64251447
0.020320019 0.026572347 0.64327818
0.02040896 0.025118709 0.644104
0.020505143 0.023659766 0.64499712
0.020607132 0.022192299 0.64594412
0.020717068 0.020717084 0.64696491
0.020834921 0.019232213 0.64805925
0.020959387 0.017734855 0.64921498
0.021093078 0.016225457 0.65045631
0.021236939 0.014702499 0.65179217
0.021389598 0.013162851 0.65320969
0.021552034 0.011604965 0.65471792
0.021729141 0.010028869 0.65636247
0.02191967 0.0084306598 0.6581316
0.022125455 0.0068078339 0.66004241
0.022349488 0.0051575899 0.66212267
0.022595834 0.0034762919 0.66441011
0.022803534 0.0017541349 0.66633874
0.022988735 2.9802322e-08 0.6680584
0.023099681 -0.0017768741 0.66908854
0.023222312 -0.0035726726 0.67022717
0.02340674 -0.0054015517 0.67193973
0.023711951 -0.007295996 0.67477381
0.021812709 0.059205949 0.64267123
0.021518288 0.056869805 0.64013273
0.021357356 0.054918915 0.63874513
0.021250453 0.053126127 0.63782334
0.021177279 0.051430553 0.63719249
0.021128543 0.049803019 0.63677227
0.021097997 0.048224002 0.63650894
0.021081805 0.046681166 0.63636929
0.021077301 0.045165658 0.63633043
0.021084916 0.0436759 0.63639611
0.0211027 0.042205423 0.63654947
0.021127651 0.040746182 0.63676453
0.021159815 0.039296776 0.63704187
0.021201763 0.037860274 0.63740361
0.021249615 0.036427885 0.63781619
0.021303445 0.034998506 0.63828027
0.021366149 0.033575386 0.63882101
0.021433944 0.032150894 0.63940549
0.021507915 0.030725598 0.64004326
0.021590313 0.029301137 0.64075375
0.021677906 0.027871609 0.641509
0.021772167 0.02643764 0.64232171
0.021874556 0.024999499 0.64320457
0.02198288 0.023553103 0.64413851
0.02209918 0.022099197 0.64514124
0.022224121 0.020636678 0.64621854
0.022356045 0.019162357 0.64735603
0.022497345 0.017676502 0.64857429
0.022649521 0.01617825 0.64988643
0.022810895 0.014664114 0.65127784
0.022982351 0.013132811 0.65275609
0.023169348 0.011584669 0.65436852
0.023370245 0.010015815 0.65610063
0.023586961 0.0084238946 0.65796924
0.02382263 0.006806463 0.66000122
0.024081506 0.0051603317 0.66223323
0.02436758 0.0034811199 0.66469979
0.024508335 0.0017506182 0.66591346
0.024624294 2.9802322e-08 0.66691327
0.024749227 -0.0017677844 0.66799051
0.024938131 -0.0035625994 0.6696192
0.025235591 -0.0054076016 0.67218399
0.023055805 0.059945107 0.64013672
0.022809235 0.057783425 0.63815248
0.022628034 0.055815816 0.63669425
0.022523252 0.05405584 0.63585109
0.022453783 0.052392185 0.63529199
0.022408262 0.050792068 0.63492572
0.022380734 0.049237609 0.63470417
0.022367459 0.047717273 0.6345973
0.022365794 0.046222657 0.63458395
0.022373861 0.04474771 0.63464886
0.022395225 0.04329741 0.63482082
0.022423727 0.04185763 0.63505012
0.02245862 0.040425509 0.63533098
0.02250367 0.039006352 0.63569349
0.022555608 0.037592679 0.63611144
0.022613239 0.036181152 0.63657522
0.022679726 0.034775615 0.63711023
0.022752261 0.033369988 0.637694
0.022830399 0.031962544 0.63832283
0.022917816 0.030557126 0.63902628
0.023010565 0.029146731 0.63977265
0.023109971 0.027731955 0.64057255
0.023218425 0.026314229 0.6414454
0.023332905 0.024888426 0.64236665
0.023455337 0.023455322 0.64335191
0.023587136 0.022014648 0.64441252
0.023726271 0.020562798 0.64553225
0.023874804 0.019099861 0.6467275
0.024035055 0.017625719 0.64801711
0.024204733 0.016136497 0.64938253
0.024384979 0.014631003 0.65083301
0.024581365 0.013110071 0.65241349
0.024792157 0.011569679 0.65410978
0.025019266 0.010007739 0.65593743
0.025265874 0.0084219277 0.65792197
0.02553658 0.0068097413 0.66010046
0.025835808 0.0051671565 0.66250843
0.026173949 0.0034898818 0.66522956
0.026433071 0.0017622113 0.66731489
0.026245065 2.9802322e-08 0.66580188
0.026437076 -0.0017624795 0.66734707
0.026724564 -0.0035632849 0.66966063
0.025300026 0.064831316 0.64547193
0.024692833 0.061732113 0.64089096
0.024370512 0.059403121 0.63845921
0.024144355 0.057342827 0.63675302
0.023975734 0.055443913 0.63548088
0.023841856 0.05364418 0.63447082
0.023733713 0.051917493 0.63365495
0.023646157 0.050248086 0.63299441
0.023628362 0.048733503 0.63286012
0.023629826 0.047259688 0.63287121
0.023640919 0.045804322 0.6329549
0.023663349 0.044368804 0.63312411
0.023695569 0.042948246 0.63336718
0.023734206 0.041534871 0.63365871
0.023781443 0.040131211 0.63401508
0.023837598 0.038736075 0.63443869
0.023899009 0.037342191 0.63490206
0.023969058 0.035953581 0.63543046
0.024046307 0.034566551 0.63601333
0.024129003 0.033177406 0.63663715
0.024220912 0.031789958 0.63733059
0.024318838 0.030398548 0.63806939
0.02442315 0.029002517 0.63885635
0.02453753 0.027604699 0.63971931
0.024657849 0.026198983 0.64062703
0.02478618 0.024786174 0.64159524
0.024924774 0.023366988 0.64264083
0.025070734 0.021936893 0.64374202
0.025226364 0.020496428 0.64491612
0.025394322 0.019045711 0.64618331
0.025572045 0.017580807 0.64752412
0.025760559 0.016100377 0.64894634
0.025966017 0.01460591 0.65049636
0.026186161 0.013093084 0.65215731
0.026423236 0.011560172 0.6539458
0.02668028 0.010005116 0.6558851
0.026962064 0.008425653 0.65801102
0.027273724 0.0068184435 0.66036224
0.027625045 0.0051797032 0.66301286
0.028026193 0.003503263 0.66603923
0.028381193 0.0017738342 0.6687175
