# .PCD v0.7 - Point Cloud Data file format
VERSION 0.7
FIELDS x y z
SIZE 4 4 4
TYPE F F F
COUNT 1 1 1
WIDTH 235
HEIGHT 1
VIEWPOINT 0 0 0 1 0 0 0
POINTS 235
DATA ascii
0.050301988 -0.045586169 0.64434755
0.047250897 -0.037800729 0.64472085
0.055185974 -0.031534851 0.6449275
0.042914174 -0.046092957 0.64645714
0.04616442 -0.033429414 0.64675444
0.047618583 -0.033333004 0.6462003
0.063702829 -0.030258834 0.64683819
0.057325248 -0.028662592 0.64681375
0.037606198 -0.049051553 0.65196615
0.034469116 -0.041034669 0.65273082
0.034432635 -0.037711948 0.65252113
0.042595983 -0.024574608 0.65235907
0.063812904 -0.024543434 0.65210813
0.063812904 -0.024543434 0.65210813
0.050743651 -0.022916496 0.6521883
0.041217335 -0.02308169 0.65361279
0.036520347 -0.023240238 0.65497959
0.059722722 -0.02156657 0.65485269
0.043177456 -0.061444834 0.65505868
0.031666897 -0.02666688 0.65578383
0.031736668 -0.025055289 0.65622711
0.042119432 -0.016847759 0.65796852
0.027000895 -0.027000874 0.65830392
0.028739726 -0.021977425 0.65866804
0.025510022 -0.0374147 0.65988672
0.025602 -0.020481557 0.66062689
0.020676263 -0.029291362 0.66258502
0.01905686 -0.027719051 0.66372216
0.046745177 -0.012119144 0.66358465
0.017417107 -0.024383932 0.664841
0.019087393 -0.020822614 0.6640572
0.032978054 -0.010414124 0.66411388
0.026170481 -0.010468215 0.66520172
0.015797364 -0.028084219 0.66647685
0.01578363 -0.019291073 0.66629267
0.021203808 -0.042407572 0.66789174
0.021203808 -0.042407572 0.66789174
0.035248689 -0.0070497096 0.66734254
0.019519681 -0.040813923 0.66880107
0.015926311 -0.033622175 0.66820633
0.019597873 -0.0053448677 0.66965908
0.0036632831 -0.02197969 0.67569661
0.029422695 0.0018389225 0.67657501
0.033300512 0.0018500388 0.67791605
0.011081405 0.0036937892 0.67753857
0.077929974 -0.040820479 0.67857361
0.027846485 0.0037128627 0.67868912
0 -0.022386104 0.67978531
-0.0018620007 -0.016757995 0.67936128
0.0037234887 0.0037235022 0.67933035
0.016860088 0.0074933767 0.6807304
0.022627356 0.0075424314 0.68221152
0.06455531 -0.056960553 0.68378955
0.070105314 -0.054947406 0.68331307
-0.015185277 2.9802322e-08 0.68372607
-0.0056775715 0.003785044 0.68304574
0.070447311 -0.051407516 0.68442887
0.068888567 -0.047839254 0.68558639
0 0.013447791 0.68649721
-0.015465544 0.0057995617 0.68795502
-0.0058148564 -0.023259401 0.68856966
0.019398935 0.013579279 0.6887638
-0.023355599 0.0058389008 0.68953711
-0.01381454 -0.015788019 0.69282115
0.0019700867 0.019700855 0.69240844
-0.017801994 -0.0098900199 0.69336361
-0.021813875 -0.0019830465 0.69397676
-0.011854548 0.019757569 0.69309294
-0.0079374453 0.021827966 0.69413149
-0.025963817 0.013980538 0.6956833
-0.024017794 -0.0020014942 0.69619834
0.008028347 0.022077948 0.69687474
-0.02024072 -0.012144446 0.69892502
-0.0080798808 0.026259601 0.69842988
-0.030852821 2.9802322e-08 0.70288229
-0.041137435 0.016454965 0.70288432
-0.033003151 0.026815087 0.70358741
-0.0020617365 0.028864324 0.70347154
-0.03533284 0.029097617 0.70548332
-0.016599225 0.033198446 0.7050609
-0.0041772621 0.033418089 0.70671797
-0.041982215 0.027288437 0.70798302
-0.041982215 0.027288437 0.70798302
-0.037915699 0.0042128563 0.70886624
-0.044421241 0.02961418 0.70993686
-0.040100627 0.033768952 0.70936495
-0.031702116 0.038042545 0.70971686
-0.0382495 0.038249493 0.71110475
-0.056878835 0.026251763 0.71867037
-0.054845855 0.019744515 0.71941715
-0.0556922 0.051236808 0.72350365
-0.0556922 0.051236808 0.72350365
-0.031758152 0.056710988 0.72842276
-0.068632558 0.057193816 0.73075396
-0.066499263 0.059619993 0.73139691
-0.064406008 0.020701915 0.73225844
-0.069659397 0.025541753 0.73488569
-0.041674376 0.062511593 0.73407245
0.045062065 -0.039529502 0.64546335
0.051266789 -0.033126801 0.64501506
0.043194219 -0.052792937 0.64770913
0.049652576 -0.028830528 0.64793974
0.058891561 -0.028649926 0.64672869
0.038798641 -0.045265049 0.64973998
0.038815446 -0.035580844 0.64982456
0.045117997 -0.025003951 0.65145582
0.048716638 -0.025168136 0.65061855
0.055253588 -0.024376571 0.65076554
0.047534093 -0.02294749 0.65245557
0.034862589 -0.048975512 0.65499252
0.033109881 -0.02897042 0.65443373
0.064625911 -0.023199022 0.65462446
0.072355039 -0.025240123 0.65771478
0.057394322 -0.018568724 0.65836585
0.050661705 -0.016887218 0.65844488
0.025666349 -0.04106614 0.66114473
0.039310437 -0.013673186 0.66091055
0.04273852 -0.013676286 0.66095769
0.022337822 -0.034365863 0.66201437
0.012178325 -0.019137353 0.66460562
0.034955651 -0.0087389052 0.66557395
0.017636769 -0.01058206 0.66749257
0.028023055 -0.0087572038 0.66601557
0.028023055 -0.0087572038 0.66601557
0.017699154 -0.037168235 0.66824567
0.014179287 -0.030131012 0.66854686
0.0088760136 -0.014201641 0.66888386
0.010658098 -0.01421082 0.66902232
0.0212311 -0.0070770383 0.66816628
0.026629083 -0.005325824 0.6688922
0.0017979369 -0.016181409 0.67162812
0.0090026241 -0.0090026259 0.67194051
0.014350648 -0.0053814948 0.6711325
0.039349169 -0.0053657889 0.67050087
0.039349169 -0.0053657889 0.67050087
0.014517404 -0.0381082 0.67364866
0.007247977 -0.0072479546 0.67332494
0.0090252291 -0.0072201788 0.67248619
0.018276073 0.0018275976 0.67520964
0.030977335 -0 0.67455649
-0.0055351248 -0.011070222 0.67731416
-0.0055207931 -0.0073610544 0.67673749
0.009260037 -0.035188138 0.67815495
-0.0093228752 -0.0037291348 0.679672
-0.0018672886 -0 0.67999959
0.0074129682 0.003706485 0.67830402
0.022354407 0.0055885911 0.67946589
0.076688483 -0.044890821 0.6803813
0.00093755958 0.0056328028 0.68124288
0.058532745 -0.060420871 0.68251812
0.062265586 -0.06037876 0.68235916
0.0037834877 0.0094587207 0.68295157
0.013212086 0.0094372332 0.68243223
0.068601541 -0.053356737 0.68462402
0.013343509 0.011437297 0.68469846
-0.011529091 0.005764544 0.68654525
-0.011529091 0.005764544 0.68654525
-0.0057925968 0.013516068 0.68767405
-0.013563321 -0.0096880794 0.68848902
-0.021288071 0.0019352734 0.68820679
-0.013617585 0.011672229 0.68942475
0.019398935 0.013579279 0.6887638
0.019478684 0.015582949 0.68972647
0.0039050863 0.01757288 0.69029069
-0.01978633 -0.0059358776 0.69344002
-0.023770293 0.011885136 0.6937086
-0.029953348 0.013978213 0.6956439
-0.015962569 0.021948576 0.69545448
-0.024038564 0.018028945 0.6964072
-0.024038564 0.018028945 0.6964072
-0.022119924 0.022119969 0.69733524
-0.022225413 0.024245888 0.69849288
-0.0080798808 0.026259601 0.69842988
-0.030679287 0.0020453036 0.70148575
-0.034820955 0.020482928 0.70184857
-0.03289507 0.024671316 0.70277208
-0.031111419 0.031111419 0.70496327
-0.039713994 0.027172714 0.70690864
-0.020922206 0.03556776 0.70715129
-0.039984755 0.008417815 0.70862883
-0.048525874 0.021098226 0.70927578
-0.048525874 0.021098226 0.70927578
-0.037857685 0.033651263 0.7084772
-0.037857685 0.033651263 0.7084772
-0.010635295 0.038287103 0.71135664
-0.04918224 0.032075375 0.71272063
-0.054580227 0.021832108 0.71813458
-0.059335507 0.03955698 0.71987307
-0.048057228 0.045872837 0.71828067
-0.035108585 0.048274308 0.71947169
-0.055379808 0.048734248 0.72199529
-0.070042819 0.047448367 0.72733712
-0.061216224 0.056681663 0.72828138
-0.061216224 0.056681663 0.72828138
-0.061831776 0.018320501 0.73103333
-0.071024872 0.032075733 0.73116112
-0.038806081 0.057067782 0.73014545
-0.072353065 0.028007627 0.73633301
0.046101287 -0.026290562 0.65043962
0.03682027 -0.05056268 0.65362358
0.034024619 -0.025725879 0.65495402
0.034024619 -0.025725879 0.65495402
0.065643534 -0.023265213 0.65519512
0.038215838 -0.01528649 0.65962476
0.028960574 -0.045996189 0.66023624
0.028960574 -0.045996189 0.66023624
0.029830314 -0.017046496 0.66036755
0.038090859 -0.0093022538 0.66520667
0.025730874 -0.005323559 0.66880107
0.029726315 -0.0053240806 0.668823
0.018381013 -0.0035869479 0.67109048
0.0063224579 -0.0099344403 0.67268282
-0.0036722629 -0.012852877 0.6762386
0.0055136317 -0.00091731548 0.67644942
0.071817569 -0.049138337 0.68273342
0.0066584228 0.011414722 0.68424398
0.0067140688 0.013427839 0.68615228
-0.0099274367 -0.021840364 0.69426745
-0.01971484 -0.0039429665 0.69257712
-0.025576085 0.0039348006 0.692083
-0.018755261 0.014806844 0.69288516
-0.018755261 0.014806844 0.69288516
-0.033371761 0.017195038 0.69873643
0.0060244021 0.022089511 0.6970011
0.016083792 0.022115231 0.69728357
-0.0050336141 0.025177754 0.69768226
-0.032857113 0.0051320344 0.70248568
-0.042457052 0.025757462 0.70665944
-0.034545079 0.033496872 0.70731235
-0.0021191225 0.036025107 0.71039867
-0.022471271 0.040665239 0.71295196
-0.055109713 0.046292156 0.7206912
-0.055109713 0.046292156 0.7206912
-0.070378736 0.045676611 0.72573495
-0.050154656 0.05927369 0.7297889
