# .PCD v0.7 - Point Cloud Data file format
VERSION 0.7
FIELDS x y z
SIZE 4 4 4
TYPE F F F
COUNT 1 1 1
WIDTH 273
HEIGHT 1
VIEWPOINT 0 0 0 1 0 0 0
POINTS 273
DATA ascii
-0.011125826 0.063576162 0.64645594
-0.015898734 0.066774696 0.64651263
0.0063511794 0.069862992 0.64626169
0.0063771433 0.066960037 0.64704525
-0.014503102 0.061235309 0.64911783
-0.014503102 0.061235309 0.64911783
0.0048377169 0.061277747 0.64925259
0.0064503513 0.062890947 0.6492545
-0.020972226 0.070982933 0.64933419
0 0.053863257 0.65162432
-0.011456595 0.054009676 0.65215987
-0.016390745 0.057367623 0.65245169
-0.0082224691 0.050979316 0.65310585
0.0032913352 0.05266133 0.65324759
0.00657616 0.055897355 0.65305108
-0.021398535 0.062549561 0.65329266
0.014814954 0.070782602 0.65330046
0.013229257 0.064492643 0.654212
-0.0083273193 0.046632975 0.6556372
-0.0049878745 0.046553463 0.65529454
0 0.046632677 0.65563583
0.011658287 0.058291405 0.65563786
0.016632328 0.073182255 0.65536791
-0.010053823 0.04524222 0.65686518
0.0033444196 0.046821862 0.65645152
-0.010141959 0.042258173 0.65863836
-0.0033956345 0.039049804 0.65954262
0.0067882286 0.044123501 0.65945089
-0.017081575 0.044412106 0.6607908
-0.011969484 0.039328307 0.6610043
-0.023990126 0.054834604 0.66144538
-0.023990126 0.054834604 0.66144538
0.0034416467 0.036137313 0.66231966
-0.024256453 0.051978141 0.66374171
-0.024256453 0.051978141 0.66374171
0.0034705554 0.032970309 0.66406447
0.0086983796 0.036533207 0.66459543
0.010452047 0.038324177 0.66487682
-0.0069996626 0.020999014 0.66583145
-0.021001486 0.042003006 0.6658566
-0.0017586558 0.021103889 0.66688645
-0.0052826325 0.024652272 0.66715467
-0.017759526 0.031967133 0.6689744
0.019529032 0.058587104 0.66890365
-0.012457579 0.024915159 0.6694212
-0.012457579 0.024915159 0.6694212
0.0053936751 0.019776851 0.67162263
0.0036337397 0.01453495 0.67391348
-0.02193377 0.029245049 0.67523462
-0.014729699 0.014729679 0.67685193
0.0018628256 0.0037256479 0.67946088
-0.02239117 0.02239117 0.67983568
-0.014956115 0.009347558 0.68026829
-0.018673096 0.014938504 0.68000209
-0.017032327 0.0075699389 0.68304056
0.018984333 0.018984348 0.68375909
-0.0038159199 -0.013355702 0.68490905
-0.0057179276 0.087674886 0.68466949
-0.0057179276 0.087674886 0.68466949
0.017231895 0.0095733106 0.68571723
0.0095955618 -0.0038381815 0.68625528
0.023046853 0.028808564 0.68643135
-0.0096493745 -0.007719487 0.68755448
-0.0058137756 -0.017441303 0.68852615
-0.015695989 -0.0078480244 0.69143218
-0.015695989 -0.0078480244 0.69143218
-0.0078846002 -0.017740339 0.69253677
-0.0078846002 -0.017740339 0.69253677
0.023882996 0.013931751 0.69484228
0.0079760365 -0.021934062 0.69529611
0.0020076989 -0.030115455 0.69694865
0.018022718 -0.010012597 0.69632399
0.01602648 -0.0060099065 0.69641882
-0.012140012 -0.024280041 0.69883609
0.018193686 -0.014150649 0.6986171
-0.0060818852 -0.032436728 0.69931412
-0.0081030736 -0.028360754 0.69912982
0.02432419 0.0060810149 0.69928038
-0.022403635 -0.0081467628 0.70044869
0.0081725577 -0.032690227 0.70122665
0.0062369686 -0.041579783 0.70555419
0.016607625 -0.020759553 0.70518768
0.02489925 -0.004149884 0.70506501
0.0020898262 -0.050155848 0.70686233
0.018761655 -0.027100176 0.70623481
-0.020984329 -0.023082763 0.70790118
-0.010520358 -0.042081445 0.70858181
-0.027368123 -0 0.70872295
0.025379168 -0.01268959 0.70989263
0.010618773 -0.048846334 0.71095783
-0.019083256 -0.031805426 0.71054828
0.023298604 -0.021180511 0.71026975
0.017039144 -0.031948388 0.71169877
0.01062775 0.029757738 0.71117449
0.019262759 -0.038525492 0.71295577
0.012820233 0.029913872 0.71252114
0.012820233 0.029913872 0.71252114
-0.010705518 -0.049245387 0.71305197
-0.015049095 -0.0451473 0.71411026
-0.028023936 -0.0086227357 0.7148124
-0.028023936 -0.0086227357 0.7148124
0.017497431 -0.043743581 0.71861374
0.0021981327 -0.074736536 0.71993607
0.017592791 -0.046181083 0.7200526
0.011071206 -0.068641484 0.7218805
0.013245589 0.013245612 0.72107863
0.0089241015 -0.073623806 0.72390652
-0.013349487 -0.062297583 0.72316885
-0.02671477 -0.024488509 0.7233277
0.013360655 0.0089070797 0.72339356
0.029230634 -0.038224667 0.72601712
0.013635364 -0.079539657 0.72892028
0.020700218 -0.071300745 0.73223537
0.020819752 -0.07402575 0.73383862
0.013914379 -0.011595309 0.73453361
-0.023406519 -0.05149433 0.73713958
0.014116218 -0.018821597 0.73859435
0.016999431 -0.031570345 0.74774265
0.0031781713 0.065152496 0.6464175
-0.011288783 0.058861271 0.649266
-0.019226383 0.068894535 0.64800042
-0.014691944 0.057135373 0.65165067
0.0064876033 0.06081973 0.6503787
-0.021195488 0.065216929 0.6514073
0.011438001 0.065360039 0.6518392
0.0049521173 0.05282259 0.65385574
-0.013128811 0.054156333 0.65269637
-0.0049878745 0.046553463 0.65529454
-0.0016567783 0.048046589 0.65458876
0.0033243243 0.049032122 0.65523863
0.0050316462 0.046962023 0.65705574
-0.018547101 0.050583005 0.6581282
-0.006842345 0.036775738 0.66108394
-0.003410087 0.037510931 0.66041493
-0.025627963 0.059798598 0.66083586
-0.0017275908 0.032824278 0.66313654
-0.0017275908 0.032824278 0.66313654
0.0051987474 0.034658343 0.66377938
0.0069139251 0.03716059 0.66324413
-0.018907923 0.044691443 0.66208774
0.017340388 0.05722329 0.66391492
-0.010416833 0.032986671 0.66416842
-0.0070328927 0.019340485 0.66683424
-0.0052826325 0.024652272 0.66715467
0.0087704668 0.033327818 0.6663357
0.014029009 0.042087018 0.66627932
0.016011136 0.040917337 0.66934407
0.01789443 0.044736058 0.6706028
-0.02529802 0.041561007 0.67272222
0.019829107 0.052276731 0.67219657
-0.010948648 0.014598191 0.67486769
0.0090959091 0.018191814 0.67419261
-0.016418481 0.020067036 0.67480749
-0.025463175 0.040013582 0.67414629
0 0.0036987066 0.67783439
0.0073741297 0.011061221 0.67713195
0.0073741297 0.011061221 0.67713195
0.016507857 0.027513117 0.6760062
-0.001865277 -0.0037305355 0.67975676
-0.0093079945 0.0055848062 0.67931277
0.018508358 0.029613376 0.67801356
-0.0018737008 -0.0056211054 0.68077362
-0.018673096 0.014938504 0.68000209
-0.018673096 0.014938504 0.68000209
-0.024345439 0.026218146 0.68065596
-0.0018812456 0.090299815 0.68168432
0.017082011 0.013285995 0.68370694
0.015172499 0.015172511 0.68353325
-0.015197154 0.089283288 0.68390524
-0.0019082874 -0.013357997 0.68494856
-0.0095513454 -0.0038205385 0.68518782
-0.02295232 0.015301555 0.68548048
-0.019313052 0.0038625896 0.68772709
-0.0077941436 -0.013639778 0.68980706
0.0038742896 -0.011622846 0.68843198
-0.013640018 -0.0077942908 0.68981159
-0.003915078 -0.023490459 0.69089377
0.0019656599 -0.019656599 0.69187403
0.0019656599 -0.019656599 0.69187403
0.017618263 -0 0.69089931
0.025567638 0.021634191 0.69200462
-0.0039781574 -0.029836178 0.69470096
0.005964533 -0.021869928 0.69459218
-0.0060382877 -0.030191451 0.69755989
0.0020076989 -0.030115455 0.69694865
-0.010062923 -0.024150997 0.69753844
0.022158038 0.0020143688 0.69775355
-0.0040453458 -0.036408126 0.69875622
0.0020243176 -0.034413368 0.6989547
0.020290462 -0.010145217 0.69952548
-0.0062444671 -0.041629791 0.70585585
0.006205461 -0.039301246 0.7042864
-0.026903676 0.0062085092 0.70441031
0.016777543 -0.025166303 0.70775145
0.022976093 -0.014621168 0.7067306
0.012610164 0.037830532 0.70829487
-0.0063938708 -0.051150978 0.71186739
0.021482 -0.036519378 0.71390855
0.02137737 -0.034203798 0.71264565
-0.0021806494 -0.069780797 0.71782565
0.010896599 -0.061020941 0.71766508
-0.01096374 -0.059204221 0.71928602
-0.026244311 -0.017496198 0.71859527
0.022020893 -0.04844594 0.72041363
-0.0022223154 -0.077781022 0.72285509
-0.013614401 -0.07034108 0.72849852
0.013597814 2.9802322e-08 0.72816479
0.0068614357 -0.086911529 0.73068082
-0.0068629733 -0.082355708 0.73074263
-0.023231225 -0.048785567 0.73502368
-0.025496814 -0.044039965 0.73439229
0.018733716 -0.07493487 0.73726785
0.018733716 -0.07493487 0.73726785
0.016748331 -0.023926169 0.74341255
0.0022675772 0.058098853 0.64996386
-0.024861686 0.067124352 0.65466928
0.0090489369 0.046934091 0.65937513
-0.018417336 0.052738607 0.65670419
-0.0097552855 0.037812781 0.66115963
0.0094607957 0.042131372 0.66218626
0.012511808 0.045726322 0.66288662
-0.0029348219 0.018790454 0.66724938
-0.0023219264 0.029886857 0.66477799
-0.0027436267 0.0036597997 0.67548597
-0.010025837 0.013664342 0.67456234
-0.020174053 0.023842096 0.67598188
0.013338129 0.033352315 0.67419672
0.013338129 0.033352315 0.67419672
0.020100124 0.046593919 0.67517066
-0.0067760712 0.0018431346 0.67762631
-0.016717188 0.013928533 0.67881382
0.02046122 0.039062351 0.67913318
0.0015139643 -0.0026402592 0.68217069
-0.020700764 0.085624352 0.68176186
0.0056633833 0.089668274 0.68247485
-0.023027031 0.0143888 0.68623197
-0.026775047 0.028687537 0.68545753
-0.026775047 0.028687537 0.68545753
-0.0076438575 0.089810073 0.68527174
-0.001964587 -0.025539607 0.69174457
0.023250327 0.02518788 0.68847817
0.025567638 0.021634191 0.69200462
-0.0050520627 -0.033312887 0.69833791
-0.0081030736 -0.028360754 0.69912982
-0.012140012 -0.024280041 0.69883609
0.016775079 -0.0093959775 0.69764245
0.02432419 0.0060810149 0.69928038
0.0048026419 -0.03773731 0.70305729
0.012362168 -0.032965779 0.70330548
0.0010449131 -0.050034821 0.70625365
0.0052053425 -0.042675331 0.7058689
-0.013545851 -0.034378439 0.70608127
-0.013402104 -0.04090485 0.70998859
-0.013402104 -0.04090485 0.70998859
-0.0064312085 -0.053593397 0.71336973
-0.0021806494 -0.069780797 0.71782565
0.010839614 -0.058533877 0.71628934
0.017450381 -0.042538241 0.71790379
0.017450381 -0.042538241 0.71790379
0.024089295 -0.037228882 0.71894658
-0.0051691197 -0.069392443 0.72192419
-0.0052665332 -0.077479631 0.72699803
0.010140257 -0.077731416 0.72655845
0.010140257 -0.077731416 0.72655845
-0.013480756 -0.06628409 0.72580981
0.018038971 -0.057502374 0.726785
-0.017898642 -0.055933237 0.72466761
-0.014794939 -0.069403693 0.7292918
-0.020614555 -0.057262629 0.73108649
0.027285038 -0.04661487 0.72906417
0.021881294 -0.071397036 0.73261034
0.027934926 -0.058197767 0.73560154
0.028986378 -0.061885767 0.73827505
