# .PCD v0.7 - Point Cloud Data file format
VERSION 0.7
FIELDS x y z
SIZE 4 4 4
TYPE F F F
COUNT 1 1 1
WIDTH 1327
HEIGHT 1
VIEWPOINT 0 0 0 1 0 0 0
POINTS 1327
DATA ascii
-0.068664558 0.0051498413 0.66181153
-0.06876222 0.0034381151 0.66210634
-0.067096263 0.0016773939 0.65707886
-0.066942535 -0 0.6566149
-0.062504783 -0.0015625954 0.64322275
-0.062858529 -0.0031428933 0.64429033
-0.0631449 -0.0047358274 0.64515448
-0.0618844 -0.0061884522 0.64135063
-0.061680339 -0.0077100098 0.64073479
-0.065704539 0.040433586 0.65796304
-0.065468676 0.038609743 0.657233
-0.065234497 0.036798954 0.65650821
-0.066628605 0.03587696 0.66082317
-0.067099191 0.034409851 0.66227973
-0.06743075 0.032850891 0.66330588
-0.067244165 0.031035781 0.66272843
-0.067098267 0.029247969 0.6622768
-0.067551896 0.027713597 0.66368091
-0.068764254 0.026447803 0.66743332
-0.068966694 0.024757266 0.66805989
-0.069090731 0.023030251 0.6684438
-0.06885767 0.021187007 0.66772246
-0.068401009 0.019292623 0.666309
-0.068311699 0.017515808 0.66603255
-0.068462923 0.015799105 0.66650069
-0.068838239 0.014120668 0.66766226
-0.069083646 0.012399644 0.66842186
-0.068991072 0.010614008 0.66813534
-0.068760373 0.0088154376 0.66742128
-0.067036487 0.0068755448 0.66208559
-0.067228176 0.0051713884 0.66267896
-0.067611344 0.0034672916 0.66386485
-0.065952145 0.0016910732 0.65872943
-0.060476419 2.9802322e-08 0.64178121
-0.060276348 -0.0015455484 0.64116198
-0.060077969 -0.0030809045 0.64054799
-0.059880711 -0.0046062171 0.63993746
-0.059724014 -0.0061255097 0.63945246
-0.060058556 -0.0076997876 0.64048791
-0.060894623 -0.0093683898 0.64307564
-0.063492619 0.041771472 0.65628839
-0.063266568 0.039957821 0.65557033
-0.063450247 0.038404107 0.6561538
-0.06339968 0.036705047 0.65599316
-0.0638474 0.035284072 0.65741539
-0.065658197 0.034556955 0.6631676
-0.066070475 0.033035219 0.66447717
-0.066109069 0.03131482 0.66459978
-0.065766074 0.029421657 0.6635102
-0.066024125 0.027799666 0.66432995
-0.067375481 0.026595563 0.66862261
-0.06759128 0.024902046 0.66930819
-0.067748547 0.023177117 0.66980773
-0.067667775 0.021368772 0.66955113
-0.067172915 0.019444793 0.66797924
-0.067001536 0.017632008 0.66743481
-0.067086644 0.015888929 0.66770518
-0.067407243 0.014191031 0.66872352
-0.067740582 0.01247856 0.6697824
-0.06772007 0.010692656 0.66971731
-0.067507282 0.0088825524 0.66904134
-0.065917462 0.0069386959 0.66399115
-0.065813877 0.0051958561 0.66366208
-0.066363342 0.0034928024 0.66540748
-0.065884575 0.0017338395 0.66388661
-0.064519905 2.9802322e-08 0.65955168
-0.058826376 -0.0015480518 0.64146554
-0.057907116 -0.0030477345 0.63854545
-0.057792708 -0.0045625865 0.63818204
-0.05852003 -0.006159991 0.6404925
-0.05882274 -0.0077398419 0.64145404
-0.059449352 -0.0093867183 0.64344454
-0.061316632 0.043087333 0.65464044
-0.061100103 0.041283876 0.653934
-0.061794937 0.04008323 0.65620089
-0.062169712 0.038646042 0.65742356
-0.062119856 0.036936164 0.65726089
-0.062366582 0.035397261 0.6580658
-0.064191699 0.034698218 0.66402018
-0.064640626 0.033193856 0.66548479
-0.064844623 0.031546026 0.66615033
-0.064495608 0.029633105 0.66501164
-0.064606562 0.027937979 0.66537368
-0.065963812 0.026742131 0.66980159
-0.066189028 0.025044501 0.6705364
-0.066373408 0.023320347 0.67113793
-0.066392697 0.021532774 0.67120081
-0.065974623 0.0196141 0.66983688
-0.065699749 0.017756701 0.66894019
-0.065711647 0.015983939 0.66897893
-0.065961458 0.014261961 0.6697939
-0.066337973 0.012550443 0.6710223
-0.066412464 0.010769576 0.6712653
-0.06623213 0.0089502931 0.67067695
-0.065910965 0.0071254969 0.66962922
-0.064434096 0.0052243769 0.66481096
-0.065009482 0.0035140514 0.66668814
-0.064717233 0.0017491281 0.66573471
-0.063263386 -0 0.66099161
-0.057729848 -0.001560241 0.64293867
-0.055782516 -0.0030152798 0.63658565
-0.056372423 -0.0045707226 0.63851023
-0.057300478 -0.0061946213 0.6415379
-0.057603568 -0.0077842772 0.64252675
-0.05812132 -0.0094250739 0.64421588
-0.059176106 0.044382066 0.65301979
-0.05896882 0.042588592 0.6523248
-0.058762979 0.040807635 0.65163457
-0.058558766 0.039039195 0.65094984
-0.06081621 0.038854808 0.65851921
-0.060902573 0.037218273 0.65880883
-0.060935125 0.035545498 0.65891796
-0.061616942 0.034231633 0.6612041
-0.063167736 0.033338577 0.66640401
-0.063499078 0.031749517 0.6675151
-0.063345224 0.029913038 0.66699922
-0.063192554 0.028085589 0.66648722
-0.063650541 0.026521087 0.66802287
-0.064769484 0.025188118 0.67177486
-0.064962432 0.02345866 0.67242175
-0.065074138 0.021691382 0.67279637
-0.064794183 0.019798249 0.6718576
-0.064387478 0.017885447 0.6704939
-0.064346075 0.016086519 0.67035508
-0.064513855 0.014336377 0.67091763
-0.064903207 0.012620062 0.67222321
-0.065076485 0.010846078 0.67280424
-0.06493222 0.0090183914 0.67232049
-0.064685054 0.0071872473 0.67149174
-0.063096046 0.0052580237 0.66616362
-0.063508257 0.0035282373 0.66754591
-0.054221619 0.0015061498 0.63640708
-0.0540477 -0 0.63582391
-0.053874575 -0.0014965236 0.63524342
-0.053983558 -0.0029990673 0.63560879
-0.054968353 -0.0045807064 0.63891095
-0.056021091 -0.0062245429 0.6424408
-0.056370322 -0.0078292191 0.64361185
-0.056782577 -0.0094637871 0.64499414
-0.05706998 0.045655966 0.65142524
-0.057096962 0.044046223 0.65151829
-0.057056408 0.042384744 0.65137845
-0.056479346 0.040342391 0.64938825
-0.056634422 0.038835049 0.64992309
-0.059386324 0.039025337 0.65941405
-0.059633035 0.037483633 0.66026491
-0.059568532 0.035741121 0.66004241
-0.059957244 0.034261286 0.66138303
-0.061678253 0.033482492 0.66731858
-0.062081657 0.031927735 0.66870987
-0.062137607 0.03018111 0.66890287
-0.061809737 0.02825591 0.66777205
-0.062057678 0.026596129 0.6686272
-0.063331045 0.025332451 0.67301887
-0.063534617 0.023598582 0.67372102
-0.063678302 0.021832556 0.67421651
-0.063559979 0.01997599 0.67380846
-0.063102841 0.018029362 0.67223179
-0.062962636 0.016190439 0.67174828
-0.063085794 0.014419615 0.67217302
-0.063421406 0.012684256 0.67333055
-0.063680395 0.01091665 0.67422372
-0.063607991 0.0090868771 0.67397404
-0.063391335 0.007244736 0.67322683
-0.061795995 0.0052967966 0.66772467
-0.052402817 0.0029944479 0.63532877
-0.052160427 0.0014902949 0.63449275
-0.051994726 2.9802322e-08 0.63392127
-0.051973272 -0.0014849305 0.63384736
-0.052676775 -0.0030100644 0.63627362
-0.053581744 -0.0045927167 0.63939476
-0.054729458 -0.0062547922 0.6433531
-0.055122744 -0.0078746676 0.64470947
-0.055485487 -0.0095117688 0.64596051
-0.054997619 0.04690975 0.64985669
-0.054807678 0.045135736 0.64918244
-0.055750992 0.04427284 0.6525315
-0.054432746 0.041625053 0.64785129
-0.054336429 0.039953262 0.64750928
-0.054974869 0.038805783 0.64977598
-0.05783844 0.039125979 0.65994257
-0.05828429 0.037713379 0.66152549
-0.058271512 0.035991222 0.66148007
-0.058441464 0.034377337 0.66208345
-0.060165845 0.033622116 0.66820562
-0.060597472 0.032081008 0.66973794
-0.060811479 0.03040576 0.67049778
-0.060488231 0.028465062 0.66935015
-0.060590133 0.026730955 0.66971195
-0.061867252 0.025474757 0.67424613
-0.062081732 0.023737162 0.67500758
-0.062256441 0.021972865 0.67562789
-0.062251884 0.02014032 0.67561173
-0.061814424 0.018180698 0.67405856
-0.061603788 0.016306877 0.67331076
-0.061641067 0.014503777 0.67344308
-0.061924227 0.012749135 0.67444837
-0.062253933 0.01098603 0.67561895
-0.062261 0.0091560483 0.67564398
-0.062062029 0.00730142 0.67493761
-0.060587976 0.0053460002 0.66970426
-0.060512114 0.0035595 0.66943496
-0.050141893 0.0014747977 0.63261735
-0.050161704 2.9802322e-08 0.63268775
-0.050701842 -0.0014912486 0.63460541
-0.051360197 -0.0030212104 0.63694274
-0.052192003 -0.0046051741 0.63989592
-0.053344976 -0.0062758923 0.64398932
-0.053859573 -0.0079205334 0.64581633
-0.054181028 -0.0095613599 0.64695758
-0.055186018 -0.011361837 0.65052557
-0.053033546 0.0466052 0.64858931
-0.052596848 0.044627637 0.64699197
-0.052418187 0.042887628 0.6463384
-0.052299477 0.041205674 0.64590412
-0.052932389 0.040100306 0.64821923
-0.053417515 0.038849115 0.64999384
-0.054362994 0.037889361 0.65345228
-0.056859523 0.037906319 0.66258436
-0.057000261 0.036272883 0.66309911
-0.056982357 0.034534782 0.6630336
-0.057498667 0.033105284 0.66492224
-0.059076969 0.032223821 0.67069554
-0.059405562 0.030602872 0.67189753
-0.059282072 0.02874285 0.67144579
-0.059124988 0.026874989 0.6708712
-0.059583917 0.025278032 0.6725499
-0.060608577 0.023876101 0.67629802
-0.060791101 0.022105902 0.67696565
-0.060878068 0.020292699 0.67728376
-0.060566332 0.018353462 0.67614347
-0.060226344 0.016425371 0.67489988
-0.060214706 0.014597505 0.67485726
-0.060411438 0.012814552 0.67557693
-0.060780361 0.011050999 0.67692637
-0.06087178 0.0092230141 0.67726076
-0.060707737 0.007358551 0.67666072
-0.048467707 0.0044061542 0.63188791
-0.048316099 0.0029282272 0.63133335
-0.048471976 0.0014688373 0.63190353
-0.04891149 2.9802322e-08 0.63351119
-0.049426418 -0.0014977157 0.63539475
-0.050039198 -0.0030326545 0.63763624
-0.050822373 -0.0046202242 0.64050102
-0.051903605 -0.0062913299 0.64445603
-0.052579936 -0.0079666376 0.64692998
-0.052862909 -0.0096114576 0.64796513
-0.05352366 -0.011353493 0.65038204
-0.05146895 0.045035332 0.64874953
-0.05026551 0.042411536 0.64420992
-0.050097074 0.040703863 0.64357448
-0.051513661 0.040245086 0.64891815
-0.051934559 0.03895092 0.6505059
-0.052671932 0.03785792 0.65328741
-0.055343863 0.038048923 0.66336656
-0.055650476 0.0365206 0.66452312
-0.055594247 0.034746408 0.66431105
-0.055910874 0.033197075 0.66550541
-0.057536464 0.032364279 0.67163748
-0.057928432 0.030774504 0.67311609
-0.058000203 0.029000103 0.67338681
-0.057688829 0.027041674 0.67221224
-0.057925288 0.025342345 0.67310423
-0.059116751 0.024016172 0.67759866
-0.059307918 0.02224049 0.67831975
-0.059437592 0.020431668 0.67880899
-0.059285957 0.018526882 0.67823696
-0.058867022 0.016556382 0.6766566
-0.058775183 0.014693826 0.67631018
-0.058913592 0.012887388 0.67683232
-0.046954196 0.0088039041 0.63171893
-0.046807051 0.0073136091 0.63116384
-0.046661232 0.0058326721 0.6306138
-0.046558656 0.0043648779 0.63022685
-0.046874058 0.0029296279 0.63141668
-0.047233999 0.0014760494 0.63277441
-0.047649793 -0 0.63434291
-0.048139609 -0.0015043616 0.63619053
-0.048722636 -0.0030451715 0.63838989
-0.049443774 -0.004635334 0.64111012
-0.050423969 -0.0063029826 0.64480764
-0.051284149 -0.0080131292 0.64805245
-0.0515626 -0.0096679926 0.64910281
-0.052075937 -0.01139158 0.65103924
-0.050388094 0.045511812 0.65080374
-0.049965587 0.043518394 0.64915854
-0.048000783 0.040258735 0.6415078
-0.049990065 0.040314585 0.64925385
-0.050499972 0.039096773 0.6512394
-0.051018208 0.037852198 0.65325737
-0.052069776 0.036952734 0.65735209
-0.054225199 0.03673318 0.66574502
-0.054260291 0.035006642 0.66588163
-0.054359175 0.03331694 0.66626668
-0.055975799 0.032502085 0.67256171
-0.056388073 0.030922502 0.67416704
-0.056609098 0.029217601 0.67502773
-0.056312129 0.027247816 0.67387134
-0.056404889 0.025473177 0.67423254
-0.057598129 0.024154097 0.6788789
-0.057800744 0.022374451 0.67966783
-0.057965126 0.020568252 0.68030792
-0.057938706 0.018689901 0.68020499
-0.057499696 0.016693473 0.67849559
-0.057337102 0.014796674 0.67786241
-0.045160033 0.010197461 0.6304462
-0.045019913 0.0087135434 0.62990063
-0.044880662 0.0072388351 0.62935841
-0.045087308 0.0058177412 0.63016307
-0.045350429 0.0043887496 0.63118762
-0.045650069 0.0029451549 0.63235444
-0.045992386 0.001483649 0.63368732
-0.046386167 -0 0.63522065
-0.046843126 -0.0015110373 0.63700002
-0.047395039 -0.0030577183 0.63914913
-0.048068166 -0.0046517253 0.64177024
-0.04896294 -0.0063177645 0.64525437
-0.049932294 -0.0080536008 0.64902896
-0.05024983 -0.0097257793 0.65026534
-0.050662939 -0.011440009 0.65187395
-0.048890203 0.044001162 0.65131688
-0.046194911 0.040035576 0.64047188
-0.046506196 0.038755178 0.64172441
-0.049052365 0.03924191 0.65196943
-0.049480036 0.037934691 0.65369022
-0.050302465 0.03688848 0.65699941
-0.052726869 0.036908835 0.66675442
-0.045064226 0.030042857 0.63592231
-0.052879926 0.033490628 0.66737032
-0.053307902 0.031984746 0.66909242
-0.054816809 0.031062871 0.67516369
-0.055140194 0.029408097 0.67646492
-0.055040922 0.027520478 0.67606544
-0.044212095 0.020632297 0.63249362
-0.044073325 0.019098431 0.6319353
-0.043935169 0.017574072 0.63137937
-0.043798126 0.016059339 0.63082796
-0.043661941 0.014553964 0.63028002
-0.043526348 0.013057917 0.6297344
-0.043391842 0.011571139 0.62919319
-0.043304466 0.010104388 0.62884164
-0.043470632 0.0086941421 0.62951028
-0.043661691 0.0072769523 0.630279
-0.043880068 0.0058507025 0.63115764
-0.04412891 0.0044129193 0.63215894
-0.044412889 0.0029608905 0.63330162
-0.044737987 0.0014912784 0.6346097
-0.045112167 -0 0.63611525
-0.045546908 -0.0015182197 0.63786453
-0.04605756 -0.0030705035 0.63991928
-0.046694264 -0.0046694279 0.64248115
-0.047512025 -0.0063349009 0.6457715
-0.048564207 -0.0080940127 0.65000522
-0.048921272 -0.0097842813 0.65144193
-0.049264703 -0.011495113 0.65282381
-0.047734089 0.044442117 0.65328807
-0.04562502 0.040905207 0.6445092
-0.04513175 0.038906693 0.64245605
-0.047551539 0.039353013 0.65252823
-0.047990162 0.038061112 0.65435398
-0.048583552 0.036856502 0.65682387
-0.043241825 0.031313032 0.63458931
-0.043104377 0.029727191 0.63401723
-0.051452223 0.033710122 0.66876453
-0.05169915 0.032089114 0.66979241
-0.053223204 0.031199813 0.67613614
-0.042563476 0.023483276 0.63176572
-0.0424303 0.021946728 0.6312114
-0.042364519 0.020451844 0.63093758
-0.042456996 0.019032449 0.6313225
-0.042099152 0.017420352 0.62983298
-0.041905839 0.015895337 0.62902832
-0.041776739 0.014405757 0.62849104
-0.041878745 0.012996852 0.62891555
-0.041986715 0.011582524 0.62936497
-0.04211944 0.010166764 0.62991744
-0.042274423 0.0087464452 0.63056254
-0.04245339 0.0073195696 0.63130748
-0.042658951 0.0058840215 0.63216311
-0.042893879 0.0044372976 0.63314104
-0.043162588 0.0029767156 0.63425946
-0.043470602 0.0014989972 0.63554156
-0.043825619 2.9802322e-08 0.63701928
-0.044238213 -0.0015254319 0.63873672
-0.044723347 -0.0030843616 0.64075601
-0.045309883 -0.0046872199 0.64319748
-0.046062861 -0.0063534975 0.64633167
-0.047110312 -0.0081224442 0.65069163
-0.047576956 -0.0098434985 0.65263402
-0.047879625 -0.011557132 0.65389383
-0.046791695 0.045120567 0.65632141
-0.046229213 0.042927116 0.65389651
-0.043746654 0.03905955 0.64319396
-0.044086955 0.037788838 0.64466095
-0.046511613 0.038205981 0.65511388
-0.041615918 0.032698244 0.63400817
-0.041315366 0.030986547 0.63271242
-0.041185409 0.029418141 0.6321522
-0.041056387 0.027859658 0.63159597
-0.040928051 0.026310891 0.63104266
-0.040800516 0.02477172 0.63049287
-0.040673655 0.023242086 0.62994593
-0.040547814 0.021722049 0.62940341
-0.041102037 0.020551026 0.63179278
-0.04128347 0.019167334 0.63257486
-0.040174693 0.017217696 0.62779486
-0.040051799 0.015734613 0.6272651
-0.040469926 0.01445353 0.6290676
-0.040684875 0.013077289 0.62999427
-0.040797427 0.011656404 0.63047945
-0.040919684 0.010229975 0.6310066
-0.041063607 0.0087993443 0.63162708
-0.041230861 0.0073626637 0.63234806
-0.041423842 0.0059176683 0.63318008
-0.041645113 0.0044620037 0.63413393
-0.041900441 0.0029928684 0.63523477
-0.042192183 0.001506865 0.63649243
-0.042526189 -0 0.63793242
-0.042917136 -0.0015327334 0.6396178
-0.043376889 -0.0030983388 0.64159983
-0.043926198 -0.0047063529 0.64396793
-0.044624645 -0.0063749552 0.64697903
-0.045597889 -0.0081424713 0.65117478
-0.046213508 -0.0099028647 0.6538288
-0.046479512 -0.011619866 0.65497553
-0.047164235 -0.013475478 0.65792745
-0.045028675 0.043360949 0.65591061
-0.042662784 0.039502591 0.64533317
-0.042681251 0.037938863 0.64541578
-0.045013521 0.03834486 0.65584284
-0.040539667 0.033032328 0.63584131
-0.040234089 0.031293154 0.63447511
-0.039994083 0.029625237 0.63340211
-0.039787132 0.027998328 0.63247687
-0.039652023 0.02643469 0.63187283
-0.039516784 0.024880946 0.63126826
-0.038956039 0.023085058 0.62876129
-0.038703702 0.021502048 0.62763309
-0.038585313 0.020007223 0.62710381
-0.038467858 0.018521547 0.62657869
-0.038511395 0.017116189 0.62677336
-0.038757108 0.015789956 0.62787187
-0.039181553 0.014511704 0.62976944
-0.039469678 0.013156563 0.63105762
-0.039592873 0.011731207 0.63160837
-0.03970493 0.010293871 0.6321094
-0.039838172 0.0088529289 0.63270509
-0.03999456 0.0074063838 0.63340425
-0.040179048 0.0059524775 0.634229
-0.040390104 0.0044877827 0.63517261
-0.040631358 0.0030097365 0.63625121
-0.040907193 0.0015150905 0.63748437
-0.041223623 -0 0.63889909
-0.041588984 -0.001540333 0.64053255
-0.042018302 -0.0031124651 0.64245188
-0.042537719 -0.0047264099 0.64477414
-0.043176822 -0.0063965321 0.64763141
-0.044053551 -0.0081580877 0.65155107
-0.044832621 -0.0099627972 0.65503407
-0.045083672 -0.011688322 0.65615648
-0.045579076 -0.013504922 0.65837133
-0.04391348 0.043913513 0.65847582
-0.043497518 0.041824549 0.65654463
-0.041264333 0.038090199 0.64617658
-0.041590441 0.036791593 0.64769065
-0.039463211 0.033391953 0.63781452
-0.039140854 0.031613767 0.63631791
-0.038870234 0.029900193 0.63506144
-0.038666669 0.028256416 0.63411641
-0.038508605 0.026659817 0.6333825
-0.03837717 0.025092781 0.63277233
-0.038154982 0.023479998 0.63174081
-0.037421286 0.02158922 0.6283344
-0.037232149 0.020048082 0.62745631
-0.037205957 0.018602967 0.62733471
-0.037297584 0.017214268 0.62776011
-0.037501652 0.015866101 0.62870753
-0.037868109 0.014564663 0.63040888
-0.038225051 0.013231754 0.63206607
-0.038372755 0.011807024 0.63275176
-0.038474891 0.010358632 0.63322604
-0.038601272 0.0089080036 0.63381279
-0.038750172 0.0074519813 0.63450402
-0.038922571 0.0059880912 0.63530445
-0.039120842 0.0045139492 0.63622499
-0.039347909 0.0030267537 0.63727915
-0.039608229 0.0015234053 0.63848776
-0.03990737 2.9802322e-08 0.6398766
-0.040252868 -0.001548171 0.64148062
-0.040655661 -0.0031273663 0.64335072
-0.041137502 -0.0047466159 0.64558774
-0.04173588 -0.0064209104 0.64836586
-0.042529281 -0.0081787109 0.65204942
-0.043400872 -0.010015577 0.65609592
-0.043682862 -0.011760771 0.65740514
-0.044084612 -0.013564467 0.65927035
-0.042261019 0.042261034 0.65865219
-0.039836202 0.038242757 0.64694411
-0.040152296 0.036940098 0.6484704
-0.042361777 0.037278324 0.65913868
-0.038024869 0.031940907 0.63819826
-0.037734549 0.030187607 0.63679647
-0.037525807 0.028519601 0.63578856
-0.037345655 0.026888877 0.63491875
-0.037217099 0.025307626 0.63429797
-0.037074473 0.023727626 0.63360935
-0.036375534 0.021825343 0.63023454
-0.036104344 0.020218432 0.62892509
-0.036038503 0.018740028 0.62860721
-0.03608685 0.017321706 0.62884068
-0.03623791 0.01594469 0.62957007
-0.036542159 0.014616847 0.63103908
-0.036943845 0.013299793 0.63297862
-0.037134789 0.01188314 0.63390052
-0.037235379 0.010425895 0.63438624
-0.037352346 0.0089645684 0.634951
-0.037490379 0.0074980557 0.63561749
-0.037650954 0.0060241818 0.63639277
-0.037836589 0.0045403838 0.63728917
-0.038049851 0.003044039 0.6383189
-0.038294822 0.0015317798 0.63950169
-0.038576961 -0 0.64086401
-0.038903173 -0.0015561283 0.64243907
-0.039283741 -0.0031426847 0.64427662
-0.039732821 -0.0047679543 0.64644498
-0.040288471 -0.0064461231 0.64912784
-0.041008431 -0.0082016885 0.65260416
-0.041948523 -0.010067672 0.65714329
-0.042264447 -0.011834055 0.65866876
-0.042581104 -0.01362595 0.66019768
-0.041020431 0.042729646 0.66091472
-0.040638816 0.040638834 0.65899539
-0.038702361 0.037089795 0.64925575
-0.040782347 0.037383825 0.65971732
-0.036892574 0.032281011 0.64015323
-0.036601115 0.030500948 0.63868731
-0.036363598 0.028787851 0.63749266
-0.036170609 0.027127951 0.63652205
-0.036036883 0.025526166 0.63584942
-0.035912622 0.023941725 0.63522446
-0.035490096 0.022181332 0.63309932
-0.034967795 0.020397872 0.63047236
-0.034856554 0.018880665 0.62991285
-0.03487356 0.017436802 0.62999833
-0.034991026 0.016037524 0.63058919
-0.035222359 0.014676005 0.63175273
-0.035623383 0.013358772 0.63376969
-0.035870358 0.011956781 0.63501191
-0.035980519 0.010494322 0.635566
-0.036087457 0.0090218782 0.63610381
-0.036214788 0.0075447559 0.63674426
-0.036363933 0.0060606301 0.63749439
-0.036537196 0.0045671165 0.63836581
-0.036737833 0.0030615032 0.63937497
-0.036968783 0.0015403628 0.64053649
-0.03723345 -0 0.6418677
-0.037539564 -0.0015641451 0.64340734
-0.037898302 -0.0031581819 0.64521164
-0.038321711 -0.0047902167 0.64734125
-0.038829632 -0.0064716041 0.64989591
-0.039492514 -0.0082275867 0.65322995
-0.040418323 -0.010104567 0.65788645
-0.040829495 -0.011908591 0.65995443
-0.041106787 -0.013702244 0.66134906
-0.03942018 0.041134089 0.66148651
-0.037240747 0.037240744 0.6500482
-0.037541058 0.035908848 0.65162426
-0.039616812 0.036171883 0.66251844
-0.035443909 0.030820787 0.64061785
-0.035179216 0.029061109 0.6392287
-0.03499075 0.027384102 0.6382395
-0.034836214 0.025748521 0.63742846
-0.034714632 0.024149328 0.63679039
-0.034534931 0.022522748 0.63584727
-0.033853166 0.02060625 0.63226914
-0.033671703 0.019031823 0.63131678
-0.033643942 0.017553329 0.63117111
-0.033729631 0.01613161 0.63162076
-0.033921216 0.014748365 0.6326263
-0.034266748 0.01340875 0.63443977
-0.034585785 0.012029856 0.63611418
-0.034709085 0.010563672 0.63676125
-0.034806289 0.0090799034 0.63727152
-0.034923322 0.0075920224 0.63788569
-0.035064422 0.0060981512 0.63862616
-0.035228323 0.0045950115 0.63948637
-0.035416968 0.0030797422 0.64047647
-0.035633665 0.0015493035 0.64161372
-0.03588254 2.9802322e-08 0.6429199
-0.036169101 -0.0015726089 0.6444239
-0.036500979 -0.0031740069 0.64616567
-0.036897473 -0.0048126876 0.64824653
-0.037375122 -0.0065000355 0.65075344
-0.037979513 -0.0082564056 0.65392542
-0.038829371 -0.010129392 0.65838575
-0.039373383 -0.011983186 0.66124082
-0.039615996 -0.013779461 0.66251421
-0.040476114 -0.015838504 0.66702831
-0.038103163 0.041567117 0.66366422
-0.036291823 0.037941426 0.65372562
-0.036056686 0.036056638 0.65243554
-0.038032863 0.036304116 0.66327852
-0.034262177 0.03114745 0.64258933
-0.033994272 0.029358685 0.64111936
-0.033788506 0.027645171 0.63999033
-0.033614337 0.025974751 0.63903469
-0.033496097 0.024360806 0.63838595
-0.033372916 0.022754252 0.63771009
-0.032754753 0.020843923 0.63431829
-0.032487556 0.019197226 0.63285226
-0.032424305 0.017686009 0.63250518
-0.03246801 0.01623401 0.63274497
-0.032607853 0.014821738 0.63351232
-0.032897081 0.013457894 0.63509917
-0.033256061 0.012093097 0.63706899
-0.033420738 0.010633856 0.63797247
-0.033511393 0.0091394484 0.63846993
-0.033621836 0.0076413155 0.63907588
-0.033752244 0.0061368048 0.63979137
-0.033904333 0.0046233237 0.64062589
-0.034080364 0.0030981898 0.64159173
-0.034282986 0.0015583038 0.64270353
-0.034516256 -0 0.64398342
-0.034785446 -0.0015811324 0.64546043
-0.035097547 -0.0031906664 0.64717281
-0.035462648 -0.0048357844 0.64917612
-0.035907783 -0.0065286458 0.65161848
-0.036456846 -0.0082856417 0.65463114
-0.037214845 -0.010149509 0.65879017
-0.037897997 -0.012058467 0.66253853
-0.038117018 -0.013860732 0.66374028
-0.03861212 -0.015795887 0.66645682
-0.036996264 0.042281479 0.66725713
-0.036489047 0.039964199 0.66434163
-0.034560043 0.036205739 0.65325344
-0.034843337 0.034843355 0.65488183
-0.033074897 0.031499892 0.64471668
-0.032793913 0.029670715 0.64310151
-0.032563012 0.027911156 0.6417743
-0.032386169 0.026217431 0.64075774
-0.032255929 0.024575979 0.64000911
-0.03214246 0.022958905 0.63935691
-0.031847373 0.021231562 0.63766068
-0.031298496 0.019375265 0.63450563
-0.031187853 0.01782164 0.63386965
-0.031202763 0.016344279 0.63395542
-0.031311177 0.014910102 0.63457859
-0.031525649 0.013511002 0.63581133
-0.031898804 0.012151927 0.63795638
-0.032105926 0.010701984 0.63914686
-0.032202944 0.0092008114 0.63970453
-0.03230343 0.007691294 0.64028215
-0.032423243 0.0061758757 0.64097083
-0.032563921 0.0046519935 0.64177954
-0.032727521 0.0031169355 0.64271986
-0.032916471 0.0015674531 0.64380598
-0.033134554 -0 0.64505959
-0.033386599 -0.0015898645 0.64650834
-0.03367928 -0.0032075346 0.64819074
-0.03402191 -0.0048602521 0.65016019
-0.034427669 -0.0065576732 0.65249252
-0.034941014 -0.0083192587 0.65544331
-0.035620078 -0.010177135 0.6593467
-0.036376618 -0.012125522 0.66369539
-0.036618371 -0.013949841 0.66508496
-0.03699366 -0.015854418 0.66724223
-0.035120897 0.040389031 0.66657132
-0.033185564 0.036504149 0.65489054
-0.033323143 0.034989327 0.65572083
-0.035166934 0.035166949 0.66684914
-0.031567771 0.029989421 0.64512628
-0.031317726 0.028185934 0.64361715
-0.031142103 0.02647078 0.64255714
-0.030993761 0.024795026 0.64166176
-0.030883092 0.023162335 0.64099389
-0.030735314 0.021514714 0.64010197
-0.030119766 0.019577831 0.63638681
-0.029948682 0.017969221 0.63535422
-0.029920116 0.016456038 0.63518178
-0.029998867 0.014999449 0.63565707
-0.030175896 0.01357916 0.63672554
-0.030497026 0.012198806 0.63866377
-0.030772172 0.010770291 0.64032435
-0.030876709 0.0092630386 0.64095533
-0.030967671 0.0077418983 0.64150435
-0.031077307 0.006215483 0.64216602
-0.031206781 0.004681021 0.64294749
-0.031359043 0.0031358898 0.64386654
-0.031535637 0.0015767515 0.64493233
-0.031738877 -0 0.64615899
-0.031972818 -0.0015986264 0.64757097
-0.032245938 -0.0032246113 0.64921939
-0.032566529 -0.0048849583 0.65115434
-0.032946292 -0.0065892637 0.65344644
-0.033412818 -0.0083532035 0.6562621
-0.03402273 -0.010206789 0.65994322
-0.034831185 -0.012190908 0.66482276
-0.035100326 -0.014040172 0.66644716
-0.035394304 -0.015927434 0.66822147
-0.033813789 0.040932506 0.66942346
-0.033473637 0.038758993 0.66726243
-0.031790048 0.035136372 0.65656626
-0.033502772 0.035266101 0.66744757
-0.030321669 0.030321628 0.64723736
-0.03007229 0.02848956 0.64565301
-0.029873751 0.026729137 0.64439166
-0.029710557 0.025019407 0.64335489
-0.029601764 0.023369819 0.64266366
-0.029495411 0.021733463 0.64198792
-0.028967936 0.019820184 0.63863683
-0.02870406 0.018128872 0.63696033
-0.02864447 0.016583622 0.63658178
-0.028683277 0.015096456 0.6368283
-0.028812367 0.013647974 0.63764846
-0.029080294 0.012244344 0.63935065
-0.029395184 0.010829836 0.64135122
-0.029532429 0.0093260407 0.64222312
-0.029614396 0.0077932775 0.64274389
-0.029716685 0.0062561333 0.64339381
-0.029837653 0.0047112107 0.6441623
-0.029979073 0.0031557083 0.64506078
-0.030142849 0.001586467 0.6461013
-0.030331925 -0 0.64730251
-0.030549968 -0.0016078949 0.64868778
-0.030802073 -0.0032423139 0.65028942
-0.031096168 -0.0049099326 0.6521579
-0.031450566 -0.0066211522 0.65440947
-0.031877242 -0.0083887279 0.65712023
-0.032431852 -0.010241657 0.66064376
-0.03321645 -0.012237638 0.66562843
-0.033562861 -0.014131695 0.66782928
-0.033807654 -0.016014129 0.66938448
-0.032063309 0.039188504 0.66961926
-0.030244013 0.035284668 0.65741879
-0.030497173 0.033885747 0.65911651
-0.032193165 0.033981651 0.67049009
-0.028799644 0.028799653 0.64773262
-0.028580306 0.0269925 0.64626169
-0.028421393 0.025263458 0.64519602
-0.028297359 0.023581147 0.64436424
-0.028195042 0.021929473 0.64367807
-0.02797444 0.020203769 0.64219868
-0.027457029 0.018304676 0.63872886
-0.027349805 0.016713738 0.63800979
-0.027362518 0.01520139 0.63809502
-0.027460545 0.013730288 0.63875246
-0.027655583 0.012291372 0.64006042
-0.02799583 0.010887295 0.64234209
-0.028164973 0.0093882978 0.64347643
-0.028248455 0.0078468025 0.64403623
-0.028341079 0.0062980056 0.64465743
-0.028451649 0.0047419369 0.64539891
-0.028581578 0.0031757653 0.64627022
-0.028732941 0.001596272 0.64728528
-0.028908074 -0 0.64845979
-0.029110646 -0.0016172528 0.64981824
-0.029345304 -0.0032605827 0.65139192
-0.029618314 -0.0049363971 0.65322274
-0.02994038 -0.0066534281 0.65538257
-0.030337024 -0.0084269345 0.65804249
-0.030836422 -0.010278761 0.66139156
-0.031545371 -0.012267649 0.66614586
-0.032004636 -0.014224261 0.66922575
-0.032215733 -0.016107827 0.67064142
-0.030635823 0.039646357 0.67213148
-0.029417899 0.03633976 0.6634835
-0.028926104 0.034030706 0.65999144
-0.030516678 0.034106851 0.67128551
-0.027499076 0.02911669 0.64985865
-0.027275894 0.02727589 0.64827389
-0.027108127 0.0255135 0.64708269
-0.026969062 0.023796231 0.64609522
-0.026870577 0.022128701 0.64539593
-0.026752938 0.020458162 0.64456058
-0.026209136 0.018500596 0.64069921
-0.026051484 0.016856879 0.63957983
-0.026023271 0.015307814 0.6393795
-0.026094081 0.013814479 0.63988233
-0.026254032 0.012354821 0.64101803
-0.026545133 0.010930359 0.64308506
-0.026773989 0.0094496608 0.64471006
-0.02686362 0.0079010725 0.64534646
-0.026946934 0.0063404739 0.6459381
-0.027047357 0.0047730803 0.64665115
-0.027166219 0.0031960309 0.64749515
-0.027305402 0.001606226 0.6484834
-0.02746702 2.9802322e-08 0.64963102
-0.027654367 -0.00162673 0.65096134
-0.027871935 -0.0032790303 0.65250617
-0.028125372 -0.0049633086 0.6543057
-0.028423198 -0.0066877902 0.65642047
-0.028782807 -0.0084655583 0.65897393
-0.029234692 -0.01031813 0.66218263
-0.029854229 -0.012292922 0.66658169
-0.030424012 -0.014317185 0.67062753
-0.030605618 -0.016202956 0.67191702
-0.031084994 -0.018285275 0.67532086
-0.028917661 0.03795445 0.67276484
-0.027341442 0.034176797 0.66087317
-0.027574236 0.032744408 0.66262949
-0.026186418 0.029459745 0.65215915
-0.025954818 0.027577013 0.6504119
-0.02576852 0.025768548 0.64900637
-0.025623526 0.024022043 0.6479125
-0.02552191 0.022331685 0.64714587
-0.025429005 0.020661086 0.64644492
-0.025002617 0.018751949 0.64322811
-0.024742132 0.017010212 0.64126289
-0.02468735 0.015429616 0.64084959
-0.024721047 0.013905585 0.6411038
-0.024837855 0.012418926 0.64198506
-0.025079373 0.010972232 0.64380723
-0.025348732 0.0095057487 0.64583933
-0.025459494 0.0079561174 0.64667493
-0.025533874 0.0063834488 0.64723611
-0.025624592 0.004804641 0.64792055
-0.025733814 0.0032167733 0.64874452
-0.025862087 0.0016163886 0.64971226
-0.026010811 2.9802322e-08 0.65083432
-0.026182821 -0.0016364157 0.65213203
-0.026381787 -0.0032977164 0.65363312
-0.026616059 -0.0049905181 0.65540063
-0.026891604 -0.0067228973 0.65747941
-0.027219201 -0.008506 0.65995097
-0.027630957 -0.010361612 0.66305739
-0.028180588 -0.012329012 0.66720402
-0.028801868 -0.014400959 0.67189127
-0.02899779 -0.016311258 0.67336935
-0.029328058 -0.018330008 0.675861
-0.027410807 0.038375109 0.67518306
-0.026006436 0.03467527 0.66388154
-0.025963344 0.032886922 0.66353476
-0.027408304 0.032889992 0.67516291
-0.024604253 0.027884811 0.65259767
-0.024404166 0.026031107 0.65098751
-0.02426295 0.024262965 0.64985108
-0.024148351 0.022538453 0.64892888
-0.024058789 0.020850927 0.64820808
-0.023896316 0.019117028 0.64690065
-0.023430806 0.017182589 0.6431545
-0.023330295 0.015553534 0.64234561
-0.023340814 0.014004469 0.64243031
-0.023427149 0.012494475 0.64312506
-0.023602638 0.011014551 0.64453727
-0.023896165 0.0095584989 0.6468994
-0.024034595 0.0080115199 0.64801335
-0.02410453 0.0064278543 0.64857626
-0.024187416 0.004837513 0.64924324
-0.024286661 0.0032382309 0.65004182
-0.024403453 0.0016269088 0.65098172
-0.024539575 2.9802322e-08 0.65207714
-0.024697522 -0.0016464889 0.65334821
-0.024880508 -0.0033174157 0.6548208
-0.025092876 -0.0050185919 0.65652978
-0.025343768 -0.0067583025 0.65854877
-0.025645738 -0.0085485876 0.66097891
-0.02601365 -0.010405421 0.6639396
-0.026499333 -0.012366354 0.66784811
-0.027152872 -0.014481544 0.67310739
-0.027368326 -0.01642102 0.67484117
-0.027626825 -0.018417865 0.67692143
-0.026077908 0.03911683 0.67944664
-0.025671456 0.036673516 0.67594212
-0.024338285 0.03303054 0.66444731
-0.025653122 0.032982588 0.67578405
-0.0232292 0.028206885 0.65488458
-0.023029877 0.026319861 0.65316588
-0.022875106 0.024509043 0.65183151
-0.022749631 0.022749633 0.65074956
-0.022663882 0.021045029 0.65001023
-0.022569684 0.019345433 0.64919811
-0.022110412 0.017372489 0.6452381
-0.021967782 0.01569128 0.64400834
-0.021941084 0.014104992 0.6437782
-0.022002628 0.012572944 0.64430881
-0.022142772 0.011071414 0.64551711
-0.022398721 0.0095994771 0.64772391
-0.022582345 0.0080651045 0.64930719
-0.022656918 0.0064734221 0.64995021
-0.022730732 0.0048708916 0.65058666
-0.022819962 0.0032600164 0.65135598
-0.022925712 0.0016375482 0.65226781
-0.023049654 -2.9802322e-08 0.65333647
-0.023193821 -0.0016567111 0.65457946
-0.023361282 -0.0033373237 0.65602338
-0.023556108 -0.0050477087 0.65770316
-0.023783645 -0.0067952871 0.65966505
-0.024056366 -0.0085915625 0.66201651
-0.024390826 -0.010453224 0.6649003
-0.024823599 -0.012411803 0.66863173
-0.0254444 -0.014539659 0.67398441
-0.025716787 -0.016532242 0.67633301
-0.025918124 -0.018512934 0.67806894
-0.024105091 0.037084788 0.67842424
-0.022716966 0.033201754 0.66553485
-0.022896485 0.031702816 0.66720182
-0.024177577 0.031616867 0.67909724
-0.021626987 0.026617855 0.65541393
-0.021458751 0.024760097 0.65385175
-0.021334736 0.022975892 0.6527003
-0.021242835 0.021242857 0.65184689
-0.021164386 0.019536376 0.65111852
-0.020834386 0.017629087 0.6480543
-0.020588674 0.015837431 0.64577276
-0.020540172 0.014220148 0.64532238
-0.020568362 0.012657464 0.64558411
-0.020670457 0.011130273 0.64653212
-0.0208806 0.0096372068 0.6484834
-0.021103 0.0081165433 0.65054852
-0.021188652 0.0065195858 0.65134382
-0.0212538 0.0049047172 0.65194875
-0.021333477 0.0032820702 0.6526885
-0.021428494 0.0016483366 0.65357089
-0.021540543 -0 0.65461123
-0.021671372 -0.0016670227 0.65582609
-0.021823771 -0.0033574998 0.65724117
-0.022001375 -0.005077213 0.65889031
-0.022209156 -0.0068335831 0.66081965
-0.022454184 -0.0086362064 0.66309482
-0.02275575 -0.010502666 0.66589499
-0.023137396 -0.012458563 0.66943878
-0.023684667 -0.014575183 0.67452043
-0.024043525 -0.016645521 0.67785257
-0.024213396 -0.018625677 0.67942995
-0.022567905 0.037613153 0.68161356
-0.022319837 0.035339743 0.67911816
-0.021229224 0.031843841 0.66814744
-0.022400608 0.031734198 0.67993069
-0.020191967 0.026922643 0.65771341
-0.020021552 0.025026947 0.65599924
-0.019896293 0.023212343 0.65473914
-0.019794757 0.021444321 0.65371776
-0.019719603 0.019719601 0.65296185
-0.019601408 0.017967939 0.65177286
-0.019206334 0.016005278 0.64779872
-0.019116141 0.014337122 0.64689147
-0.019124482 0.012749642 0.6469754
-0.019197492 0.011198521 0.64770979
-0.019350681 0.0096753836 0.64925069
-0.019590344 0.0081626475 0.65166157
-0.019699289 0.0065664351 0.65275741
-0.019757042 0.0049392581 0.65333843
-0.01982842 0.0033047497 0.65405643
-0.019913914 0.0016594827 0.65491641
-0.020014679 -2.9802322e-08 0.65593004
-0.020132389 -0.0016776919 0.65711415
-0.020269128 -0.0033781826 0.65848964
-0.020428361 -0.005107075 0.66009134
-0.020616839 -0.0068722665 0.6619873
-0.020839231 -0.008682996 0.66422439
-0.021105204 -0.010552585 0.66689992
-0.021445857 -0.012510091 0.67032659
-0.021910161 -0.014606804 0.67499709
-0.022344923 -0.01675868 0.67937046
-0.022487694 -0.01873973 0.68080664
-0.020707171 0.035766959 0.68183213
-0.019546997 0.031985998 0.66910076
-0.019720122 0.03047657 0.6710006
-0.018736644 0.0272533 0.66020817
-0.018563803 0.025314271 0.65831155
-0.018427873 0.023453683 0.65681982
-0.018321322 0.02165249 0.65565062
-0.018248729 0.019907713 0.65485394
-0.018175872 0.01817587 0.65405446
-0.017811831 0.016192585 0.65005958
-0.017683698 0.014468491 0.64865351
-0.017660094 0.012843698 0.64839447
-0.017710954 0.011270612 0.6489526
-0.017828217 0.0097244978 0.65023941
-0.018043058 0.0082013607 0.65259701
-0.018183017 0.0066120028 0.65413284
-0.018242078 0.0049751401 0.65478098
-0.018304626 0.0033281446 0.65546739
-0.018380241 0.0016709268 0.65629715
-0.018470047 -0 0.65728265
-0.018575331 -0.001688689 0.65843797
-0.018698134 -0.0033996403 0.65978563
-0.018840997 -0.0051384568 0.66135335
-0.019007502 -0.006911844 0.66318047
-0.019206755 -0.0087303221 0.66536701
-0.019446097 -0.010606945 0.66799355
-0.019744812 -0.012564868 0.67127156
-0.020147318 -0.01465258 0.67568851
-0.020609088 -0.016861975 0.68075585
-0.020752769 -0.018866152 0.68233258
-0.021033036 -0.021033019 0.68540812
-0.019057363 0.036209017 0.68464065
-0.018178269 0.032720923 0.67402899
-0.018008552 0.030614555 0.67198038
-0.019017164 0.030427486 0.68415534
-0.017072251 0.025608391 0.66067821
-0.016929917 0.023701906 0.6589601
-0.016828338 0.021876842 0.65773392
-0.016749583 0.020099491 0.65678328
-0.016686408 0.018355072 0.65602064
-0.016468862 0.016468883 0.6533947
-0.016229602 0.014606684 0.65050656
-0.016188907 0.012951106 0.65001529
-0.016211251 0.01134786 0.65028501
-0.016295779 0.0097774863 0.65130538
-0.01646908 0.0082345605 0.65339726
-0.016642395 0.0066569746 0.65548939
-0.016705016 0.0050115287 0.65624529
-0.016759122 0.0033518374 0.65689838
-0.016825339 0.0016825497 0.65769774
-0.016904464 -0 0.65865284
-0.01699784 -0.0016998053 0.65978003
-0.017107038 -0.0034214258 0.66109812
-0.017234491 -0.0051703453 0.66263664
-0.017383281 -0.006953299 0.66443264
-0.0175578 -0.0087788701 0.66653931
-0.017770248 -0.010662168 0.6691038
-0.018029708 -0.012620807 0.67223573
-0.018374464 -0.014699548 0.67639732
-0.018844482 -0.016960025 0.68207097
-0.018998317 -0.018998325 0.68392789
-0.01919974 -0.021119714 0.68635929
-0.017203981 0.034407943 0.68534285
-0.016281357 0.030753672 0.67296833
-0.017160319 0.030507237 0.68475723
-0.015550303 0.025917172 0.66316319
-0.015410982 0.02397266 0.66129458
-0.015305336 0.022107691 0.65987766
-0.015221218 0.020294964 0.6587494
-0.015161923 0.018531233 0.65795416
-0.015080582 0.016756237 0.65686315
-0.014768458 0.014768451 0.65267688
-0.014692854 0.013060302 0.65166289
-0.014699089 0.011432588 0.65174651
-0.014757036 0.0098380148 0.65252376
-0.014882324 0.0082679689 0.65420413
-0.015065849 0.006695956 0.65666556
-0.01514525 0.005048424 0.65773052
-0.015191436 0.0033758879 0.65834999
-0.015248638 0.0016942918 0.65911722
-0.01531757 2.9802322e-08 0.66004175
-0.015399389 -0.0017110407 0.66113913
-0.015495458 -0.0034434199 0.6624276
-0.015607865 -0.0052026212 0.66393518
-0.015739499 -0.0069953203 0.66570073
-0.015893988 -0.0088300109 0.66777283
-0.01607687 -0.010717899 0.67022568
-0.016306177 -0.012682617 0.67330122
-0.016601641 -0.014757037 0.67726409
-0.017031426 -0.017031431 0.68302846
-0.017219178 -0.019132435 0.68554664
-0.01736653 -0.02122578 0.68752301
-0.015471523 0.034810901 0.68804514
-0.014631333 0.031091601 0.67536771
-0.014670101 0.029340208 0.67595267
-0.015496379 0.029055715 0.68842024
-0.013860159 0.024255276 0.66373158
-0.013749895 0.022343606 0.66206777
-0.013667733 0.020501614 0.66082805
-0.013609137 0.01871258 0.65994394
-0.013556594 0.01694575 0.65915114
-0.013290135 0.014951408 0.65513057
-0.013184246 0.013184249 0.65353286
-0.013164951 0.011519343 0.65324169
-0.013203859 0.0099028945 0.65382874
-0.013294813 0.0083092451 0.6552012
-0.013461946 0.0067309737 0.65772301
-0.013560038 0.0050850213 0.65920311
-0.013603401 0.0034008622 0.65985739
-0.013652443 0.0017065704 0.66059738
-0.013711836 -0 0.66149354
-0.013782371 -0.001722753 0.66255784
-0.013865295 -0.0034663081 0.66380906
-0.013962118 -0.0052357912 0.66526997
-0.014075677 -0.0070378482 0.66698349
-0.014210698 -0.0088816881 0.66902077
-0.014370638 -0.01077798 0.6714341
-0.014565741 -0.012745053 0.67437798
-0.014814907 -0.014814883 0.6781376
-0.015176009 -0.017073005 0.68358618
-0.015415633 -0.019269556 0.68720192
-0.015532397 -0.02135703 0.68896371
-0.013587262 0.032997608 0.6889019
-0.012895795 0.029476106 0.67697799
-0.013610071 0.029164463 0.68929517
-0.012272287 0.024544567 0.66622591
-0.012164494 0.022591174 0.66436708
-0.012086959 0.020720482 0.66303003
-0.012025622 0.018897414 0.66197234
-0.0119789 0.017112732 0.66116667
-0.01185724 0.01524502 0.6590687
-0.011649135 0.013313323 0.65548009
-0.011618068 0.011618108 0.6549443
-0.011634238 0.0099721849 0.65522319
-0.011697963 0.0083557069 0.65632206
-0.01182813 0.0067589283 0.65856677
-0.011948904 0.0051209927 0.66064942
-0.011992229 0.0034263432 0.6613965
-0.012033183 0.0017190278 0.66210276
-0.012083289 -0 0.66296679
-0.012143238 -0.0017347336 0.66400057
-0.012214083 -0.0034897625 0.66522229
-0.012297105 -0.0052702129 0.66665393
-0.012394143 -0.0070823431 0.66832721
-0.012507627 -0.008934021 0.67028421
-0.012645219 -0.010838747 0.67265695
-0.012810236 -0.01281023 0.67550254
-0.013020971 -0.014881074 0.67913651
-0.013310446 -0.017113417 0.68412834
-0.013584311 -0.01940614 0.688851
-0.013677676 -0.021493524 0.69046098
-0.011784376 0.033389062 0.69168127
-0.011104933 0.029613167 0.67801195
-0.011207413 0.028018504 0.68007368
-0.010654052 0.024859488 0.6689409
-0.010551415 0.022861391 0.66687596
-0.010472465 0.020944953 0.66528767
-0.010411521 0.019087791 0.66406155
-0.010368946 0.017281592 0.66320497
-0.010317773 0.015476674 0.66217548
-0.010100706 0.01346764 0.65780842
-0.01004447 0.011718541 0.65667707
-0.010048573 0.010048568 0.65675962
-0.010089503 0.0084079206 0.657583
-0.010180617 0.0067870617 0.65941614
-0.010305588 0.0051527917 0.66193032
-0.010356712 0.0034522712 0.66295886
-0.010390082 0.0017316639 0.66363025
-0.010431419 -0 0.66446185
-0.010481239 -0.0017468929 0.66546416
-0.010540449 -0.0035134852 0.66665536
-0.010610073 -0.005305022 0.66805613
-0.01069169 -0.0071278214 0.66969812
-0.010787428 -0.0089895129 0.67162418
-0.010900229 -0.010900229 0.67389357
-0.011039353 -0.012879252 0.67669255
-0.011211682 -0.014948875 0.68015951
-0.011446232 -0.017169327 0.68487835
-0.011719375 -0.019532293 0.69037354
-0.011803325 -0.021639407 0.6920625
-0.011997428 -0.023994833 0.6959675
-0.0099690128 0.033894658 0.69527119
-0.0098468279 0.031509876 0.69232136
-0.0093835434 0.028150648 0.68113673
-0.0099126864 0.027755529 0.69391131
-0.0088993469 0.023138344 0.66944718
-0.0088231424 0.021175534 0.66760743
-0.0087683154 0.019290298 0.66628385
-0.0087275412 0.017455101 0.66529942
-0.0086933319 0.015647978 0.66447353
-0.0085276002 0.013644159 0.66047239
-0.0084526604 0.011833757 0.65866321
-0.0084391739 0.010127038 0.65833759
-0.008464816 0.008464843 0.65895665
-0.0085254787 0.0068203807 0.66042119
-0.0086372374 0.0051823556 0.66311932
-0.0086959917 0.0034784079 0.66453773
-0.0087233409 0.0017446578 0.66519797
-0.0087564075 -0 0.66599631
-0.0087964935 -0.0017592609 0.66696405
-0.0088441959 -0.0035376847 0.66811574
-0.0089005819 -0.0053403378 0.66947699
-0.0089672906 -0.0071738064 0.67108744
-0.0090456894 -0.0090456903 0.67298019
-0.0091381036 -0.010965735 0.67521125
-0.0092492532 -0.01294896 0.67789465
-0.0093880864 -0.015020907 0.6812464
-0.009571773 -0.017229199 0.68568093
-0.0098253265 -0.019650698 0.69180232
-0.0099079749 -0.021797538 0.69379759
-0.010025501 -0.024061203 0.69663495
-0.0079833223 0.031933337 0.69551599
-0.007542423 0.028284073 0.68221068
-0.0079480996 0.027818352 0.69445306
-0.0072092596 0.023430109 0.67215657
-0.0071416809 0.021425039 0.67011726
-0.0070917034 0.019502223 0.66860902
-0.0070528178 0.017632067 0.66743553
-0.0070245494 0.015805244 0.66658247
-0.006965897 0.013931811 0.66481245
-0.0068309284 0.011954099 0.66073942
-0.0068107052 0.010216087 0.66012907
-0.0068202438 0.0085253119 0.66041696
-0.0068594902 0.0068594813 0.66160136
-0.006939522 0.0052046776 0.66401654
-0.0070073577 0.0035036802 0.66606367
-0.0070323735 0.0017580986 0.66681856
-0.0070576682 -0 0.66758192
-0.0070886388 -0.0017721653 0.66851658
-0.0071257642 -0.0035628974 0.66963691
-0.007169669 -0.005377233 0.67096186
-0.0072211991 -0.0072211921 0.67251688
-0.0072820489 -0.0091025531 0.67435318
-0.0073547815 -0.011032164 0.67654812
-0.007441246 -0.013022214 0.67915738
-0.0075487671 -0.015097529 0.68240207
-0.0076885992 -0.017299324 0.6866219
-0.0078950198 -0.019737542 0.69285125
-0.007984723 -0.021957964 0.69555825
-0.0080624344 -0.024187267 0.69790339
-0.0060660075 0.03235206 0.69867522
-0.0057615805 0.028807908 0.68642598
-0.0057374444 0.026774704 0.68545485
-0.0060628965 0.026272565 0.69855011
-0.00542212 0.021688461 0.67276716
-0.0053779646 0.019719213 0.67099053
-0.0053448938 0.017816365 0.66965985
-0.0053218887 0.01596567 0.66873419
-0.0052975849 0.014126897 0.66775626
-0.0051846518 0.012097508 0.66321224
-0.0051533603 0.010306716 0.66195309
-0.005155378 0.0085922778 0.66203433
-0.0051770881 0.0069027841 0.6629079
-0.0052267876 0.0052267909 0.66490763
-0.0052906391 0.0035271049 0.66747677
-0.0053151804 0.0017717183 0.6684643
-0.0053332527 2.9802322e-08 0.66919148
-0.0053556492 -0.0017852187 0.67009264
-0.0053826701 -0.003588438 0.67117983
-0.0054148245 -0.0054148138 0.67247367
-0.0054527083 -0.0072702765 0.67399794
-0.0054971781 -0.0091619194 0.67578733
-0.0055497158 -0.011099428 0.67790127
-0.0056135347 -0.01309824 0.6804691
-0.0056906142 -0.015174955 0.6835705
-0.0057905852 -0.017371774 0.6875931
-0.0059356643 -0.019785553 0.69343066
-0.006033313 -0.022122115 0.69735968
-0.0060825748 -0.024330288 0.69934177
-0.0040570064 0.030427545 0.69945991
-0.0038434435 0.026904106 0.68657023
-0.0040571871 0.026371747 0.69947082
-0.0036597596 0.02195853 0.67548394
-0.0036266414 0.019946516 0.6734851
-0.0036026444 0.018013209 0.67203677
-0.0035844878 0.016130179 0.67094094
-0.0035702162 0.014280856 0.67007953
-0.0035057534 0.012270123 0.66618884
-0.0034705673 0.01041171 0.66406524
-0.0034645479 0.0086613894 0.66370189
-0.0034753645 0.0069507062 0.66435474
-0.0035013007 0.0052519441 0.66592014
-0.003548492 0.0035485029 0.66876835
-0.0035711462 0.0017855763 0.67013568
-0.0035825758 2.9802322e-08 0.67082548
-0.003596921 -0.0017984509 0.6716913
-0.0036143942 -0.0036143959 0.67274588
-0.0036352838 -0.0054529011 0.6740067
-0.0036600139 -0.0073200464 0.67549932
-0.0036891308 -0.0092228055 0.6772567
-0.0037234055 -0.011170208 0.67932534
-0.0037643453 -0.013175189 0.68179625
-0.0038147417 -0.015258968 0.68483794
-0.0038786596 -0.017453939 0.68869567
-0.0039673536 -0.019836754 0.69404888
-0.0040521435 -0.022286832 0.69916642
-0.0040821116 -0.024492651 0.70097512
-0.0020536974 0.030805439 0.70250112
-0.0019356834 0.02709958 0.68825555
-0.0019496445 0.025345385 0.68994081
-0.0018544303 0.022253186 0.67844748
-0.0018357475 0.020193219 0.67619228
-0.0018216919 0.018216968 0.67449558
-0.001811017 0.016299188 0.67320704
-0.0018034257 0.014427394 0.67229068
-0.0017905699 0.012533993 0.67073882
-0.0017538229 0.010522902 0.6663031
-0.0017479107 0.0087395906 0.66558939
-0.001750381 0.0070015192 0.66588759
-0.0017609581 0.0052828789 0.66716439
-0.0017825705 0.0035651624 0.66977322
-0.0017990877 0.0017991066 0.67176706
-0.0018054234 -0 0.67253184
-0.0018122634 -0.0018122792 0.67335749
-0.0018206512 -0.0036413074 0.67436999
-0.0018307167 -0.0054921508 0.67558497
-0.0018426295 -0.0073705316 0.67702293
-0.0018569009 -0.0092844963 0.67874575
-0.0018737499 -0.011242479 0.68077952
-0.0018936985 -0.013255894 0.6831876
-0.0019180753 -0.01534459 0.68613011
-0.0019485512 -0.017536938 0.68980879
-0.0019904475 -0.019904494 0.69486618
-0.0020399906 -0.022439867 0.70084655
-0.0020550133 -0.02466017 0.70265996
0 0.028861582 0.70344794
0 0.025470138 0.69109917
0 0.024846375 0.70453334
0 0.020448625 0.67899472
0 0.018425971 0.67701888
0 0.016476989 0.67559224
0 0.014578134 0.67456448
0 0.012699991 0.67360175
0 0.010652602 0.66891193
0 0.0088198781 0.66752857
0 0.0070579946 0.66759169
0 0.0053165853 0.66852033
0 0.0035805106 0.67070091
0 0.0018119514 0.67332262
0 -0 0.67426848
0 -0.0018263161 0.67505664
0 -0.0036688447 0.67603379
0 -0.0055326223 0.6772148
0 -0.0074234307 0.67862099
0 -0.0093480945 0.68028092
0 -0.011315703 0.68225265
0 -0.013339132 0.68462312
0 -0.015432179 0.68745112
0 -0.017628342 0.69103444
0 -0.019979835 0.69577575
0 -0.022581577 0.70240152
0 -0.024848461 0.70455402
0 -0.027299166 0.70808291
0.002087716 0.029228002 0.70660758
0.0019689396 0.025596231 0.69226992
0.0019882724 0.023859292 0.69460362
0.001883526 0.020718813 0.68195957
0.0018650335 0.018650323 0.67972744
0.0018516852 0.016665161 0.67811614
0.001841558 0.01473248 0.67689365
0.0018340586 0.012838423 0.67598838
0.0018033347 0.010820031 0.67227972
0.0017824753 0.0089123845 0.66976178
0.0017791162 0.0071164668 0.66935629
0.0017848343 0.0053544939 0.67004645
0.001798706 0.0035974383 0.67172092
0.0018235176 0.0018234849 0.674716
0.0018344217 -0 0.67603219
0.00184063 -0.0018406212 0.67678159
0.0018484223 -0.0036968589 0.67772222
0.0018579215 -0.0055737495 0.67886889
0.0018692977 -0.0074771643 0.68024212
