# .PCD v0.7 - Point Cloud Data file format
VERSION 0.7
FIELDS x y z
SIZE 4 4 4
TYPE F F F
COUNT 1 1 1
WIDTH 1336
HEIGHT 1
VIEWPOINT 0 0 0 1 0 0 0
POINTS 1336
DATA ascii
-0.015965749 -0.065459579 0.64732158
-0.015962033 -0.067040533 0.6472767
-0.019075526 -0.082024753 0.68485987
-0.019011239 -0.083649457 0.68408388
-0.018947383 -0.085263237 0.68331313
-0.018883098 -0.086862251 0.68253708
-0.022205055 0.078951329 0.75241876
-0.022057895 0.075977206 0.75044495
-0.021886153 0.07295385 0.74814153
-0.021618543 0.06965977 0.74455225
-0.021198649 0.065951377 0.73892051
-0.020949636 0.062848896 0.73558068
-0.020730808 0.059888989 0.73264569
-0.020538962 0.057052642 0.73007262
-0.020354589 0.05427894 0.72759974
-0.020188149 0.051591933 0.72536737
-0.020024497 0.048948795 0.72317243
-0.019868208 0.046359152 0.72107625
-0.019721076 0.043824613 0.71910286
-0.019576192 0.041327536 0.71715963
-0.01943342 0.038866848 0.71524471
-0.019299332 0.03645429 0.71344626
-0.019168058 0.034076571 0.71168566
-0.01903856 0.03173098 0.70994872
-0.018910799 0.0294168 0.7082352
-0.018788347 0.02713871 0.7065928
-0.018669173 0.024892241 0.70499444
-0.018551501 0.022674054 0.70341611
-0.018435229 0.020483613 0.70185667
-0.018320478 0.018320471 0.70031762
-0.018209724 0.016186416 0.69883215
-0.01810161 0.014079064 0.69738215
-0.017994702 0.011996478 0.69594824
-0.017889122 0.0099383891 0.69453216
-0.017784771 0.0079043508 0.69313258
-0.017681561 0.0058938563 0.69174826
-0.017581807 0.0039070845 0.69041038
-0.017483851 0.0019426644 0.68909651
-0.017386982 2.9802322e-08 0.68779731
-0.017291179 -0.0019212365 0.68651235
-0.017196426 -0.0038214326 0.68524146
-0.017102707 -0.0057008862 0.68398452
-0.017010003 -0.0075600147 0.68274117
-0.016920142 -0.0094000995 0.6815359
-0.016831603 -0.011221051 0.6803484
-0.016743986 -0.013023078 0.67917323
-0.016657276 -0.014806449 0.67801023
-0.01657152 -0.016571522 0.67686009
-0.016486585 -0.018318415 0.67572087
-0.016402513 -0.020047516 0.67459333
-0.016319295 -0.021759033 0.67347717
-0.016238265 -0.023455262 0.67239034
-0.016187947 -0.025181234 0.6717155
-0.016108673 -0.02684778 0.67065227
-0.01603023 -0.028498173 0.66960013
-0.015952488 -0.030132473 0.66855741
-0.015875498 -0.031751007 0.66752481
-0.015799247 -0.033353955 0.66650212
-0.015723726 -0.034941614 0.6654892
-0.015649032 -0.036514401 0.66448742
-0.015575151 -0.038072556 0.66349643
-0.015502285 -0.039616972 0.66251922
-0.015430891 -0.04114902 0.66156161
-0.015360099 -0.042666942 0.66061211
-0.015290005 -0.044171154 0.65967202
-0.015220498 -0.045661449 0.65873975
-0.015151669 -0.047138512 0.65781659
-0.015083511 -0.048602432 0.65690243
-0.015015915 -0.05005306 0.65599585
-0.01494897 -0.051490903 0.65509796
-0.01488257 -0.052915812 0.65420735
-0.014817342 -0.05433026 0.65333253
-0.014753023 -0.055733651 0.65246987
-0.01468926 -0.057124913 0.65161467
-0.014626045 -0.058504164 0.65076679
-0.014563372 -0.059871659 0.64992619
-0.014501234 -0.061227426 0.64909279
-0.014439623 -0.062571704 0.64826643
-0.014378535 -0.063904569 0.64744711
-0.01431796 -0.065226272 0.6466347
-0.014315229 -0.066804409 0.64659804
-0.017245488 -0.082395121 0.68589956
-0.017176552 -0.083974242 0.68497491
-0.017104721 -0.085523576 0.68401152
-0.017027754 -0.087030753 0.68297929
-0.019197866 0.08159095 0.7442714
-0.01901285 0.078428 0.74147964
-0.018847503 0.075390041 0.73898482
-0.018687014 0.072412163 0.73656315
-0.018531721 0.069493979 0.73422003
-0.018387854 0.066655993 0.73204917
-0.018246202 0.063861698 0.72991186
-0.018106636 0.06110993 0.72780597
-0.017975561 0.058420599 0.72582823
-0.017847408 0.055773169 0.72389448
-0.017721144 0.053163439 0.72198933
-0.017596656 0.050590396 0.72011101
-0.017478256 0.048065245 0.71832442
-0.017362265 0.045575947 0.71657425
-0.017247729 0.043119341 0.71484601
-0.017134765 0.040695071 0.71314156
-0.017023493 0.038302839 0.71146256
-0.016917229 0.035949111 0.70985913
-0.016812211 0.03362447 0.7082746
-0.01670856 0.031328559 0.70671058
-0.016606111 0.029060692 0.70516479
-0.016504979 0.0268206 0.70363879
-0.016406212 0.024609357 0.70214856
-0.016310284 0.022426635 0.70070112
-0.01621547 0.020269334 0.69927049
-0.016121753 0.018136978 0.69785637
-0.01602911 0.01602909 0.69645852
-0.015937528 0.013945341 0.69507664
-0.015846986 0.011885256 0.69371051
-0.015759205 0.0098494887 0.69238591
-0.01567282 0.0078364015 0.69108254
-0.015587376 0.0058452487 0.68979329
-0.01550286 0.0038757324 0.68851799
-0.015419256 0.0019274354 0.68725652
-0.015336547 -0 0.68600857
-0.01525478 -0.001906842 0.68477476
-0.015173995 -0.003793478 0.68355584
-0.015095541 -0.0056608021 0.68237203
-0.01501795 -0.0075089633 0.68120128
-0.014941097 -0.0093381703 0.68004167
-0.014865082 -0.011148781 0.6788947
-0.014789782 -0.012941062 0.67775846
-0.014715241 -0.014715254 0.67663378
-0.014641501 -0.016471684 0.67552108
-0.014568444 -0.01821059 0.67441881
-0.014496375 -0.019932479 0.67333132
-0.014426107 -0.021639168 0.67227107
-0.014356515 -0.023329347 0.67122102
-0.014312421 -0.025046706 0.67055571
-0.014243971 -0.02670747 0.66952282
-0.014176223 -0.028352469 0.66850066
-0.014109067 -0.029981762 0.66748726
-0.014042594 -0.031595826 0.66648424
-0.013976694 -0.033194661 0.66548991
-0.013911459 -0.034778625 0.6645056
-0.013846781 -0.036347806 0.66352969
-0.013783036 -0.037903368 0.66256785
-0.013720439 -0.039446235 0.66162336
-0.013658405 -0.040975243 0.66068733
-0.013596933 -0.042490423 0.65975982
-0.013536011 -0.043992043 0.65884054
-0.013475768 -0.045480698 0.65793157
-0.013416015 -0.046956033 0.65702999
-0.013356833 -0.048418492 0.65613693
-0.013298171 -0.049868137 0.6552518
-0.013239978 -0.051304907 0.65437376
-0.013182553 -0.052730203 0.65350729
-0.013126054 -0.054144979 0.65265477
-0.013069995 -0.055547476 0.65180892
-0.013014412 -0.056938052 0.65097028
-0.012959342 -0.058317021 0.65013933
-0.012904695 -0.059684187 0.64931476
-0.01285055 -0.061040118 0.64849776
-0.012796815 -0.062384486 0.64768696
-0.012743525 -0.063717633 0.64688289
-0.012690721 -0.065039933 0.6460861
-0.012688025 -0.066612139 0.64604545
-0.015196461 -0.081680983 0.68389487
-0.015137613 -0.083256856 0.68300682
-0.015079789 -0.084823802 0.68213439
-0.01502449 -0.086390793 0.68129992
-0.016645573 0.0856058 0.74164057
-0.01651871 0.08259356 0.73945284
-0.016395146 0.079633564 0.73732209
-0.016273342 0.076717198 0.73522168
-0.01615341 0.073844165 0.73315346
-0.016040225 0.071035266 0.73120177
-0.015928542 0.06826517 0.72927582
-0.015818477 0.065533698 0.72737777
-0.015709922 0.062839717 0.72550583
-0.015604445 0.060188591 0.72368693
-0.015502434 0.057580471 0.72192788
-0.015401679 0.055006027 0.72019041
-0.015302293 0.052464992 0.71847653
-0.015204116 0.049956411 0.71678352
-0.01510745 0.047480583 0.71511656
-0.015014516 0.045043558 0.71351397
-0.014922719 0.042636335 0.71193099
-0.014832036 0.040258408 0.71036726
-0.01474245 0.03790915 0.70882237
-0.014653939 0.035588175 0.70729601
-0.014566484 0.033294827 0.70578796
-0.014481684 0.031032175 0.70432556
-0.014398338 0.028796643 0.70288837
-0.014315948 0.026586801 0.70146763
-0.014234493 0.024401993 0.70006293
-0.014153961 0.02224195 0.6986742
-0.014074336 0.020106196 0.69730115
-0.013995601 0.017994374 0.69594342
-0.013918515 0.0159069 0.69461411
-0.013843096 0.013843119 0.6933136
-0.013768543 0.011801571 0.69202799
-0.013694736 0.0097819269 0.69075519
-0.013621768 0.0077838898 0.68949687
-0.013549522 0.0058069527 0.68825108
-0.013478038 0.0038508773 0.68701839
-0.013407356 0.0019153357 0.68579954
-0.01333736 -0 0.68459249
-0.013269348 -0.0018956065 0.68341964
-0.013202026 -0.0037719905 0.68225873
-0.013135434 -0.0056294501 0.68111038
-0.01306951 -0.0074682534 0.67997348
-0.013004195 -0.0092886984 0.67884725
-0.012939578 -0.011091053 0.67773294
-0.012875552 -0.012875527 0.67662883
-0.012812204 -0.014642537 0.67553651
-0.012749476 -0.016392171 0.67445475
-0.012687499 -0.018124998 0.67338598
-0.012626938 -0.019842327 0.6723417
-0.012566955 -0.021543354 0.67130733
-0.012507582 -0.023228317 0.67028344
-0.01246951 -0.024939001 0.66962689
-0.012411052 -0.026595116 0.66861886
-0.012353184 -0.028235853 0.66762096
-0.012295852 -0.029861331 0.66663229
-0.012239009 -0.031471729 0.6656521
-0.01218273 -0.033067405 0.66468155
-0.012126966 -0.034648448 0.66371995
-0.01207167 -0.036214978 0.6627664
-0.012017493 -0.037769228 0.66183221
-0.011963801 -0.039309651 0.66090631
-0.011910628 -0.040836424 0.65998936
-0.011857883 -0.042349577 0.65907979
-0.011805644 -0.043849528 0.65817899
-0.011753903 -0.045336515 0.65728676
-0.011702614 -0.046810448 0.65640229
-0.011651731 -0.048271447 0.65552485
-0.011601712 -0.049721628 0.65466231
-0.011552197 -0.051159739 0.65380847
-0.011503101 -0.052585632 0.65296185
-0.011454422 -0.053999424 0.65212238
-0.011406191 -0.055401474 0.6512906
-0.011358363 -0.056791827 0.65046585
-0.011310935 -0.058170542 0.64964807
-0.011263902 -0.059537783 0.64883697
-0.011217258 -0.060893685 0.64803261
-0.011170998 -0.062238395 0.64723486
-0.011125119 -0.063572109 0.64644372
-0.011079616 -0.064894915 0.64565909
-0.011076602 -0.066459596 0.64560711
-0.013344881 -0.081975713 0.68472219
-0.013302105 -0.083613232 0.68398452
-0.013265579 -0.08527872 0.68335468
-0.013242858 -0.08702448 0.68296283
-0.014141886 0.087208331 0.73911071
-0.014043582 0.084261507 0.73713297
-0.013947218 0.08135882 0.73519427
-0.013852104 0.078495294 0.73328072
-0.013758342 0.075670898 0.73139441
-0.013665778 0.072884142 0.72953212
-0.013576414 0.070144832 0.72773433
-0.01348888 0.067444414 0.72597325
-0.013402467 0.064778596 0.7242347
-0.013317154 0.062146723 0.72251838
-0.01323292 0.05954814 0.72082376
-0.013149745 0.056982219 0.71915042
-0.013069088 0.054454535 0.71752763
-0.01298992 0.051959664 0.71593499
-0.012911707 0.049494863 0.71436137
-0.012834428 0.047059596 0.71280664
-0.01275807 0.044653296 0.71127045
-0.012682614 0.042275399 0.70975244
-0.012608048 0.039925456 0.70825219
-0.012535607 0.037606835 0.70679486
-0.012464252 0.035315394 0.70535934
-0.012393758 0.033050001 0.70394105
-0.012324005 0.030810028 0.70253778
-0.012255083 0.028595209 0.70115113
-0.012186878 0.026404887 0.69977897
-0.012119429 0.024238884 0.69842201
-0.012052771 0.022096753 0.69708097
-0.011987654 0.019979417 0.69577086
-0.011923617 0.017885417 0.69448256
-0.011860261 0.015813708 0.69320798
-0.011797528 0.013763756 0.69194585
-0.011735501 0.011735499 0.69069791
-0.011674122 0.0097284317 0.68946308
-0.011613336 0.0077422261 0.68824023
-0.011553227 0.005776614 0.68703091
-0.011493691 0.0038312078 0.68583316
-0.011435201 0.0019058585 0.68465644
-0.011377865 -0 0.68350291
-0.011321058 -0.0018868446 0.68236005
-0.011264816 -0.0037549138 0.68122852
-0.01120917 -0.0056045949 0.68010902
-0.011154031 -0.0074360073 0.67899972
-0.011099432 -0.0092495084 0.67790121
-0.011045405 -0.011045396 0.67681426
-0.01099186 -0.01282385 0.67573702
-0.010938874 -0.014585137 0.67467105
-0.010886355 -0.016329527 0.6736145
-0.010834222 -0.018057048 0.67256564
-0.010782546 -0.019768 0.67152596
-0.010730556 -0.021461099 0.67048001
-0.010678609 -0.023136973 0.66943496
-0.01065114 -0.024852663 0.66888231
-0.010602017 -0.026505023 0.66789401
-0.010553343 -0.028142214 0.66691476
-0.010505299 -0.02976501 0.66594821
-0.010457945 -0.031373858 0.66499549
-0.010411016 -0.032968223 0.66405141
-0.010364506 -0.034548372 0.66311574
-0.010318411 -0.036114454 0.66218829
-0.010272687 -0.0376665 0.66126841
-0.010227403 -0.039205015 0.66035736
-0.01018255 -0.040730178 0.65945506
-0.01013809 -0.04224205 0.65856057
-0.010094015 -0.04374072 0.65767384
-0.010050322 -0.045226455 0.65679479
-0.010007006 -0.046699375 0.65592337
-0.0099642267 -0.048160404 0.65506268
-0.0099221068 -0.049610525 0.65421534
-0.0098803416 -0.051048458 0.65337503
-0.0098388949 -0.052474111 0.65254122
-0.0097978255 -0.053888023 0.65171498
-0.0097570978 -0.055290222 0.6508956
-0.0097166756 -0.05668059 0.65008235
-0.0096766194 -0.058059692 0.64927644
-0.0096368911 -0.059427515 0.6484772
-0.009597457 -0.060783893 0.6476838
-0.009558375 -0.062129438 0.64689755
-0.0095196096 -0.063464031 0.64611769
-0.0094811581 -0.064787909 0.64534408
-0.0094776256 -0.066343367 0.64527297
-0.011622103 -0.083291724 0.6884166
-0.011578803 -0.084911227 0.68754548
-0.011535824 -0.08651869 0.68668079
-0.011493163 -0.088114217 0.68582249
-0.011651153 0.086218536 0.73588169
-0.011573806 0.083331436 0.73401433
-0.0114988 0.080491602 0.73220348
-0.011425282 0.077691942 0.73042864
-0.011352696 0.074927807 0.72867632
-0.011281029 0.0721986 0.72694606
-0.01121026 0.069503605 0.72523755
-0.011140374 0.066842228 0.72355038
-0.01107155 0.064214975 0.72188878
-0.01100478 0.061626762 0.72027683
-0.01093886 0.059069842 0.71868539
-0.010873724 0.05654338 0.7171129
-0.010809313 0.054046571 0.71555781
-0.010745705 0.051579416 0.71402222
-0.010682798 0.049140871 0.71250343
-0.010620622 0.046730727 0.71100241
-0.010559745 0.044350952 0.70953274
-0.010500135 0.042000592 0.70809358
-0.010441151 0.039676398 0.70666957
-0.010382868 0.037378341 0.70526254
-0.010325233 0.035105765 0.70387113
-0.010268192 0.032858223 0.70249397
-0.010211819 0.030635446 0.70113301
-0.010156062 0.028436959 0.69978696
-0.010100869 0.026262254 0.6984545
-0.01004692 0.024112612 0.69715202
-0.0099937823 0.021986336 0.69586915
-0.0099412045 0.019882411 0.69459987
-0.0098892152 0.01780057 0.69334471
-0.0098377289 0.015740395 0.69210172
-0.0097868135 0.013701528 0.69087255
-0.0097363852 0.011683673 0.68965507
-0.0096864747 0.00968647 0.6884501
-0.009637109 0.007709682 0.6872583
-0.009588208 0.0057529211 0.68607771
-0.0095397271 0.0038158894 0.68490732
-0.0094916625 0.0018983483 0.68374693
-0.0094434377 -2.9802322e-08 0.68258274
-0.0093951728 -0.0018790364 0.68141741
-0.0093463492 -0.0037385225 0.68023872
-0.0092976857 -0.0055785775 0.67906392
-0.0092483982 -0.0073987246 0.67787397
-0.0091983108 -0.0091982782 0.67666477
-0.0091474252 -0.010976881 0.67543632
-0.0090948837 -0.012732834 0.67416787
-0.0090396423 -0.014463425 0.67283416
-0.0089799073 -0.016163856 0.67139208
-0.0089236619 -0.0178473 0.67003417
-0.0088681486 -0.019509912 0.6686939
-0.0088151218 -0.021156311 0.66741383
-0.0088801412 -0.023088366 0.66898352
-0.0088529279 -0.024788171 0.6683265
-0.0088125756 -0.0264377 0.66735232
-0.0087728044 -0.028072953 0.66639221
-0.0087336339 -0.029694349 0.66544652
-0.0086947829 -0.03130123 0.66450858
-0.0086563053 -0.032893956 0.66357958
-0.0086181657 -0.034472644 0.66265887
-0.0085803317 -0.036037415 0.66174543
-0.008542859 -0.037588567 0.66084075
-0.0085057113 -0.039126247 0.65994394
-0.0084688561 -0.040650517 0.65905416
-0.0084323483 -0.042161763 0.65817279
-0.0083961524 -0.043659985 0.65729898
-0.0083602397 -0.045145273 0.65643197
-0.0083246594 -0.046618104 0.65557301
-0.0082896557 -0.048079997 0.65472794
-0.0082549993 -0.04952997 0.65389127
-0.0082206596 -0.050968081 0.65306216
-0.008186603 -0.052394241 0.65223998
-0.0081528015 -0.053808451 0.65142393
-0.0081193047 -0.055211246 0.65061527
-0.0080860555 -0.056602389 0.64981252
-0.0080531025 -0.057982311 0.64901704
-0.0080204178 -0.059351102 0.64822793
-0.0079879733 -0.060708582 0.64744461
-0.0079558138 -0.062055334 0.64666826
-0.0079239123 -0.063391313 0.6458981
-0.0078922408 -0.064716384 0.6451335
-0.0078882352 -0.066261142 0.6450367
-0.0080184396 -0.06895858 0.64818019
-0.0096666748 -0.085066736 0.68797207
-0.0096304314 -0.086673871 0.68709707
-0.0095944218 -0.088268697 0.68622774
-0.0093010841 0.088360339 0.73528296
-0.0092422413 0.085490704 0.73350728
-0.0091840969 0.08265689 0.73175251
-0.009126721 0.07985881 0.73002106
-0.0090700164 0.077095151 0.72830987
-0.0090140523 0.074365914 0.72662103
-0.0089590149 0.071672112 0.72496015
-0.0089053987 0.069016904 0.72334212
-0.0088523822 0.066392899 0.72174215
-0.0088000307 0.063800246 0.72016233
-0.0087482566 0.061237782 0.71859992
-0.008697127 0.058705598 0.71705693
-0.0086465906 0.056202829 0.71553183
-0.0085966019 0.053728759 0.71402335
-0.0085472232 0.05128336 0.71253318
-0.0084991315 0.048869997 0.71108186
-0.0084516127 0.046483845 0.70964795
-0.0084046591 0.044124454 0.70823097
-0.008358187 0.041790932 0.70682853
-0.0083122626 0.039483279 0.70544267
-0.0082668057 0.0372006 0.70407081
-0.0082218423 0.034942836 0.70271397
-0.0081773987 0.032709599 0.7013728
-0.0081334012 0.030500263 0.70004505
-0.0080898413 0.028314471 0.69873047
-0.008046519 0.02615121 0.6974231
-0.0080033699 0.024010122 0.69612098
-0.0079600802 0.021890223 0.69481456
-0.0079161599 0.019790381 0.69348919
-0.0078724427 0.01771301 0.6921699
-0.007828135 0.015656263 0.69083273
-0.0077829291 0.013620108 0.68946862
-0.0077371965 0.011605799 0.68808848
-0.007689368 0.009611696 0.68664515
-0.0076374603 0.0076374412 0.68507874
-0.0075853583 0.0056890249 0.68350637
-0.0075352103 0.0037676394 0.68199301
-0.0074857487 0.0018714368 0.68050039
-0.0074426848 -0 0.67920083
-0.0074009621 -0.0018502176 0.67794168
-0.007359704 -0.0036798716 0.67669666
-0.0073189037 -0.0054892004 0.67546535
-0.0072788177 -0.0072788298 0.67425573
-0.0072417613 -0.0090521872 0.67313743
-0.0072050807 -0.010807574 0.67203045
-0.0071687703 -0.012545347 0.67093474
-0.0071328236 -0.014265627 0.66984993
-0.0070972606 -0.015968829 0.66877675
-0.0070620258 -0.017655075 0.6677134
-0.00702783 -0.019326538 0.66668141
-0.006994966 -0.020984888 0.66568965
-0.0070927837 -0.02305153 0.66864157
-0.0070689097 -0.024741203 0.66792113
-0.0070371707 -0.02638939 0.66696334
-0.0070059844 -0.028023928 0.66602218
-0.0069750734 -0.029644072 0.66508937
-0.0069444347 -0.03124994 0.66416472
-0.0069140391 -0.032841712 0.66324759
-0.0068839327 -0.034419656 0.66233897
-0.0068540871 -0.03598395 0.66143835
-0.0068244995 -0.037534744 0.66054541
-0.0067951656 -0.039072245 0.65966022
-0.0067660837 -0.040596515 0.65878254
-0.0067372485 -0.042107821 0.65791237
-0.0067086369 -0.043606132 0.65704894
-0.0066802884 -0.045091957 0.65619349
-0.0066521792 -0.046565264 0.6553452
-0.0066245249 -0.048027813 0.65451062
-0.0065971427 -0.049478561 0.65368432
-0.0065699648 -0.050917238 0.6528641
-0.0065430305 -0.052344263 0.65205133
-0.0065162955 -0.053759426 0.65124452
-0.0064897989 -0.055163294 0.65044492
-0.0064634965 -0.056555569 0.64965117
-0.0064374264 -0.057936862 0.64886451
-0.0064115454 -0.059306785 0.64808339
-0.0063858926 -0.060665965 0.64730924
-0.0063604238 -0.062014163 0.6465407
-0.006335177 -0.063351765 0.64577883
-0.00631011 -0.064678624 0.64502233
-0.0063058361 -0.066211283 0.64489341
-0.0063981819 -0.068780482 0.64768016
-0.0077426438 -0.085169062 0.68825287
-0.007712658 -0.086767375 0.68734795
-0.0076820776 -0.088343889 0.68642509
-0.0076548704 -0.08994472 0.6856041
-0.0069299531 0.087779403 0.73343772
-0.0068871561 0.084941596 0.73171568
-0.0068449159 0.082138956 0.73001605
-0.0068033133 0.079371989 0.72834212
-0.0067627323 0.076644331 0.72670925
-0.0067226621 0.073949277 0.72509694
-0.0066830339 0.071285695 0.72350252
-0.0066439002 0.068653643 0.72192788
-0.0066051926 0.06605193 0.72037035
-0.0065669338 0.063480377 0.71883094
-0.0065291435 0.060938686 0.71731037
-0.0064917579 0.058425814 0.71580613
-0.0064547979 0.055941552 0.71431899
-0.0064179278 0.053482711 0.71283537
-0.0063813394 0.051050752 0.7113632
-0.0063448185 0.048643619 0.7098937
-0.0063074399 0.046254545 0.70838976
-0.0062704477 0.043893099 0.70690131
-0.0062327217 0.041551471 0.7053833
-0.0061942963 0.039230525 0.70383716
-0.0061550289 0.036930174 0.70225716
-0.0061136163 0.034643829 0.70059085
-0.0060684849 0.032365233 0.69877487
-0.0060257325 0.030128658 0.69705462
-0.0059835776 0.027923375 0.69535846
-0.0059447852 0.02576074 0.69379759
-0.0059093065 0.023637205 0.69237006
-0.0058742487 0.021538913 0.69095945
-0.0058396044 0.019465357 0.68956542
-0.0058053881 0.017416149 0.68818873
-0.0057739466 0.015397221 0.68692362
-0.0057428661 0.013399988 0.685673
-0.0057121175 0.011424243 0.68443578
-0.0056817187 0.0094695389 0.68321264
-0.0056516207 0.0075354874 0.68200159
-0.0056218393 0.0056218505 0.68080324
-0.0055933916 0.003728956 0.67965859
-0.0055656424 0.0018552244 0.67854208
-0.0055381679 -0 0.67743659
-0.0055109626 -0.0018369853 0.67634189
-0.0054840236 -0.0036559999 0.67525798
-0.0054573668 -0.0054573417 0.6741854
-0.005430948 -0.0072412491 0.67312241
-0.0054047839 -0.0090079606 0.67206967
-0.005379661 -0.010759324 0.67105877
-0.0053549805 -0.012494951 0.6700657
-0.0053305444 -0.014214784 0.66908246
-0.0053063114 -0.01591894 0.66810739
-0.0052822982 -0.017607689 0.6671412
-0.005258501 -0.019281179 0.66618371
-0.0052349176 -0.020939678 0.6652348
-0.0053131105 -0.023023486 0.66838098
-0.0052952305 -0.024711072 0.66766155
-0.0052718353 -0.026359171 0.66672015
-0.0052487194 -0.027993143 0.66579008
-0.0052258051 -0.029612899 0.66486806
-0.0052030906 -0.031218529 0.66395414
-0.0051805717 -0.032810271 0.66304809
-0.0051582479 -0.034388334 0.66214979
-0.0051361155 -0.035952777 0.66125917
-0.0051141717 -0.037503928 0.66037631
-0.005092415 -0.039041817 0.65950084
-0.0050708428 -0.040566713 0.65863287
-0.0050494522 -0.042078793 0.65777218
-0.0050282418 -0.043578058 0.6569187
-0.0050072083 -0.045064867 0.65607244
-0.00498635 -0.046539277 0.65523314
-0.0049658134 -0.048002869 0.65440679
-0.004945477 -0.049454778 0.65358853
-0.0049253069 -0.050894827 0.65277696
-0.0049052844 -0.052323043 0.65197134
-0.0048854402 -0.053739816 0.65117282
-0.00486574 -0.055145085 0.65038019
-0.0048462134 -0.056539148 0.64959449
-0.0048268279 -0.057921931 0.64881444
-0.0048076119 -0.059293881 0.64804125
-0.0047885482 -0.060654923 0.64727426
-0.0047696205 -0.062005073 0.64651263
-0.0047508567 -0.063344747 0.64575762
-0.0047322246 -0.064673707 0.64500791
-0.0047280509 -0.066192701 0.64484
-0.0047862274 -0.068602577 0.64718086
-0.005737883 -0.084155604 0.68547249
-0.0057143793 -0.085715666 0.6845268
-0.0056916075 -0.087271333 0.6836105
-0.0057234871 -0.089667976 0.68489325
-0.0045967102 0.087337494 0.73203391
-0.0045685894 0.084518909 0.73033667
-0.0045407903 0.08173424 0.72865885
-0.004513083 0.078978956 0.72698659
-0.004484687 0.076239705 0.72527272
-0.0044566458 0.073534667 0.7235803
-0.0044276989 0.07084319 0.72183323
-0.004398623 0.068178654 0.72007835
-0.0043684384 0.065526605 0.71825653
-0.0043358831 0.062870324 0.71629161
-0.0043020886 0.060229242 0.71425194
-0.0042698737 0.057643294 0.71230763
-0.0042386577 0.055102557 0.71042359
-0.0042116144 0.052645177 0.70879132
-0.0041849134 0.05021894 0.70717978
-0.0041585662 0.047823519 0.70558965
-0.004132532 0.04545787 0.70401829
-0.0041084737 0.043138981 0.70256627
-0.0040848777 0.040848762 0.70114213
-0.0040615671 0.038584888 0.69973516
-0.0040385053 0.036346585 0.69834328
-0.0040157042 0.034133524 0.69696707
-0.0039931745 0.031945407 0.6956073
-0.0039719678 0.029789776 0.69432735
-0.003951001 0.027657032 0.69306189
-0.0039302385 0.025546551 0.69180882
-0.0039096936 0.023458153 0.6905688
-0.0038893626 0.021391481 0.68934172
-0.0038692416 0.019346178 0.68812734
-0.0038493127 0.017321914 0.68692446
-0.003830072 0.015320301 0.68576324
-0.0038113128 0.013339579 0.68463099
-0.0037927367 0.011378199 0.68350983
-0.0037743552 0.0094358623 0.68240041
-0.0037561364 0.0075122714 0.68130082
-0.003738093 0.0056071281 0.68021178
-0.0037202218 0.0037202239 0.67913318
-0.0037025209 0.0018512607 0.67806482
-0.0036850013 -0 0.67700744
-0.0036682247 -0.0018340945 0.67599481
-0.0036516399 -0.003651619 0.67499387
-0.0036352046 -0.0054528117 0.67400199
-0.0036189167 -0.0072378218 0.67301887
-0.0036027741 -0.0090069175 0.67204458
-0.0035867747 -0.010760337 0.67107898
-0.0035709168 -0.01249823 0.67012179
-0.0035551989 -0.014220774 0.66917312
-0.0035396181 -0.015928268 0.6682328
-0.0035244713 -0.017622352 0.66731858
-0.0035097494 -0.01930359 0.66643006
-0.0034951374 -0.020970792 0.66554815
-0.0035392174 -0.023004919 0.6682086
-0.0035281621 -0.024697125 0.66754133
-0.0035127678 -0.02634573 0.66661221
-0.0034975195 -0.027980149 0.66569185
-0.0034823909 -0.029600352 0.66477883
-0.0034673926 -0.031206548 0.66387361
-0.0034525353 -0.032799095 0.66297686
-0.0034377924 -0.034377933 0.66208708
-0.0034231751 -0.035943329 0.66120481
-0.0034086932 -0.037495613 0.66033077
-0.0033943215 -0.039034694 0.65946341
-0.0033800821 -0.040560961 0.65860391
-0.0033659504 -0.042074382 0.65775102
-0.0033519363 -0.043575168 0.65690517
-0.0033380499 -0.045063645 0.65606701
-0.0033242665 -0.046539724 0.65523517
-0.0033106734 -0.048004776 0.65441477
-0.0032972235 -0.049458325 0.65360296
-0.0032838825 -0.050900191 0.65279782
-0.0032706494 -0.052330375 0.65199906
-0.0032575219 -0.053749114 0.65120673
-0.0032444997 -0.055156529 0.65042084
-0.0032315813 -0.056552678 0.6496411
-0.0032187649 -0.057937756 0.64886755
-0.0032060398 -0.059311748 0.64809954
-0.003193425 -0.06067504 0.64733815
-0.0031809092 -0.062027752 0.64658284
-0.0031684912 -0.063369811 0.64583331
-0.0031561696 -0.064701483 0.64508963
-0.0031526296 -0.066205204 0.64487594
-0.0038391382 -0.082541496 0.68631041
-0.0038243344 -0.084135368 0.68541694
-0.0038096441 -0.085716993 0.68453026
-0.0037950091 -0.087285221 0.68364698
-0.0038038809 -0.089391172 0.68418247
-0.0022782623 0.088852227 0.72960848
-0.00226203 0.08595717 0.72764909
-0.0022466327 0.083125383 0.7257905
-0.0022314533 0.080332339 0.72395813
-0.0022164679 0.077576369 0.72214925
-0.0022025353 0.074886203 0.72046745
-0.0021889873 0.072236568 0.71883208
-0.0021755958 0.06961906 0.71721554
-0.0021623764 0.067033678 0.71561986
-0.0021493074 0.064479232 0.71404225
-0.002136596 0.061961323 0.71250784
-0.0021244581 0.059484839 0.7110427
-0.0021124573 0.05703637 0.70959407
-0.0021005911 0.054615408 0.70816171
-0.0020888578 0.052221477 0.70674539
-0.0020772461 0.049853921 0.70534372
-0.0020657713 0.04751274 0.70395857
-0.0020545996 0.045201182 0.70261002
-0.0020438072 0.042919964 0.70130724
-0.0020331354 0.040662706 0.70001912
-0.0020225665 0.038428783 0.69874328
-0.0020121152 0.036218107 0.69748169
-0.0020017631 0.034029961 0.69623208
-0.0019915171 0.031864285 0.69499528
-0.0019813753 0.029720634 0.69377106
-0.0019714606 0.027600437 0.69257426
-0.0019618832 0.02550447 0.69141823
-0.0019523983 0.023428798 0.69027328
-0.0019430047 0.021373034 0.68913937
-0.0019337011 0.019337028 0.6880163
-0.001924486 0.017320395 0.68690395
-0.0019153585 0.015322864 0.68580216
-0.0019063171 0.013344198 0.6847108
-0.0018973607 0.011384189 0.68362963
-0.0018886663 0.0094433427 0.68258011
-0.0018802065 0.0075208247 0.68155897
-0.0018718293 0.0056154728 0.68054771
-0.0018635194 0.0037270486 0.67954463
-0.0018552898 0.001855284 0.6785512
-0.0018471327 2.9802322e-08 0.67756653
-0.0018390401 -0.0018390119 0.67658967
-0.0018310248 -0.0036620796 0.67562222
-0.0018230793 -0.0054692626 0.67466307
-0.001815426 -0.0072616935 0.67373919
-0.0018079808 -0.0090399086 0.67284048
-0.0018005961 -0.01080358 0.67194915
-0.001793278 -0.012552977 0.67106575
-0.001786013 -0.014288068 0.67018878
-0.0017788064 -0.016009271 0.66931885
-0.001771664 -0.017716587 0.66845661
-0.0017645726 -0.019410282 0.66760063
-0.0017577105 -0.021092534 0.66677237
-0.0017685768 -0.022991478 0.66808403
-0.0017642303 -0.024699211 0.66755939
-0.0017565998 -0.026348978 0.66663826
-0.0017490288 -0.02798447 0.6657244
-0.0017415289 -0.029606014 0.66481906
-0.0017340929 -0.031213671 0.66392148
-0.0017267202 -0.032807678 0.66303146
-0.0017194041 -0.034388065 0.66214836
-0.0017121556 -0.03595528 0.66127336
-0.0017049678 -0.037509322 0.66040576
-0.0016978404 -0.039050311 0.65954536
-0.0016907721 -0.040578514 0.65869218
-0.0016837568 -0.042093933 0.65784538
-0.001676805 -0.043596894 0.65700614
-0.0016699105 -0.045087576 0.65617394
-0.0016630724 -0.04656601 0.65534854
-0.0016563176 -0.048033237 0.65453315
-0.0016496337 -0.049488991 0.65372628
-0.0016430088 -0.050933272 0.65292668
-0.0016364317 -0.05236581 0.65213269
-0.0016299123 -0.053787082 0.65134579
-0.0016234394 -0.055196911 0.65056437
-0.0016170229 -0.056595773 0.64978981
-0.0016106516 -0.057983473 0.64902079
-0.0016043357 -0.059360415 0.64825833
-0.0015980639 -0.060726419 0.64750129
-0.001591846 -0.062081993 0.64675075
-0.0015856714 -0.063426867 0.64600539
-0.0015795494 -0.064761549 0.64526641
-0.0015773387 -0.066248223 0.64499956
-0.0019204677 -0.082580119 0.68641889
-0.0019131395 -0.084178135 0.6855343
-0.0019060412 -0.085771859 0.68467742
-0.0018989954 -0.087353781 0.68382692
-0.001896124 -0.08911781 0.68348032
0 0.090792745 0.72858924
0 0.087988466 0.72693497
0 0.085218251 0.7253018
0 0.082480997 0.72368813
0 0.079780161 0.72210658
0 0.077124715 0.72059155
0 0.074499249 0.71909362
0 0.071903467 0.71761358
0 0.069336325 0.71614885
0 0.066797823 0.71470147
0 0.064287007 0.71326894
0 0.061803758 0.71185207
0 0.059356034 0.71048748
0 0.056937307 0.70915133
0 0.054543734 0.70782894
0 0.052174807 0.70652032
0 0.049830347 0.70522511
0 0.047509849 0.70394313
0 0.045212865 0.70267421
0 0.042939246 0.70141816
0 0.040692806 0.70020068
0 0.038471669 0.69901597
0 0.0362719 0.69784266
0 0.034093231 0.6966815
0 0.031935215 0.69553035
0 0.029797673 0.69439113
0 0.027680308 0.69326264
0 0.025582641 0.69214374
0 0.023505986 0.69105011
0 0.02145195 0.690005
0 0.019415915 0.68896824
0 0.017397732 0.68794143
0 0.015397131 0.68692273
0 0.013413906 0.68591285
0 0.011447936 0.68491262
0 0.0094988644 0.68392003
0 0.0075678527 0.68297839
0 0.0056534111 0.68207437
0 0.0037540793 0.68117666
0 0.0018696487 0.68028682
0 2.9802322e-08 0.67940307
0 -0.0018550754 0.67852712
0 -0.0036958158 0.67766124
0 -0.0055226386 0.6768102
0 -0.0073354244 0.67596483
0 -0.0091341138 0.67511463
0 -0.010916859 0.67422771
0 -0.012685329 0.67334872
0 -0.014439732 0.67247677
0 -0.016179115 0.67159694
0 -0.017902821 0.67070407
0 -0.019612402 0.66981846
0 -0.021308035 0.66894019
0 -0.022989959 0.66806972
0 -0.024716496 0.66770816
0 -0.026368141 0.66679245
0 -0.0280056 0.6658839
0 -0.029629201 0.66498381
0 -0.031238973 0.66409135
0 -0.032835066 0.66320568
0 -0.034417868 0.66232824
0 -0.035987407 0.66145813
0 -0.037543684 0.66059458
0 -0.039087176 0.6597389
0 -0.040617794 0.65888965
0 -0.042136341 0.65805006
0 -0.043642849 0.65721941
0 -0.045137137 0.65639549
0 -0.046619475 0.65557897
0 -0.048089713 0.65476835
0 -0.049548119 0.65396428
0 -0.050994903 0.65316659
0 -0.052430481 0.65237659
0 -0.053854614 0.65159279
0 -0.055267602 0.65081519
0 -0.056669593 0.65004444
0 -0.058060452 0.649279
0 -0.059440657 0.64852011
0 -0.060809925 0.64776659
0 -0.062168777 0.64701951
0 -0.063517034 0.64627755
0 -0.06485489 0.64554125
0 -0.066322446 0.64521283
0 -0.068075761 0.64570194
0 -0.084509328 0.68644291
0 -0.086117938 0.68560588
0 -0.08771497 0.68477476
0 -0.089300215 0.68394881
0.0022666822 0.090667278 0.72821069
0.0022540309 0.087907195 0.7266835
0.0022415197 0.08517772 0.72517323
0.0022291469 0.082478464 0.72367978
0.0022169098 0.079808742 0.7222026
0.0022050687 0.077177435 0.72077322
0.0021935459 0.07458058 0.71938229
0.0021821426 0.072010696 0.71800584
0.0021708668 0.069467753 0.71664476
0.0021596977 0.066950679 0.71529651
0.0021486429 0.064459294 0.71396202
0.0021377096 0.061993569 0.71264231
0.0021268872 0.059552848 0.71133596
0.0021166394 0.057149261 0.71009892
0.0021065341 0.054769903 0.70887911
0.0020965161 0.052412897 0.70766979
0.0020866017 0.050078452 0.70647305
0.0020767718 0.047765732 0.70528644
0.0020670341 0.045474768 0.70411098
0.0020573961 0.043205321 0.70294756
0.0020484342 0.040968686 0.70186579
0.0020396498 0.038753331 0.70080543
0.0020309405 0.036556959 0.69975412
0.0020223132 0.034379333 0.69871271
0.0020137511 0.032220036 0.69767916
0.002005277 0.030079186 0.69665623
0.0019969777 0.027957678 0.69565445
0.0019886517 0.025852501 0.69464946
0.0019803089 0.023763686 0.69364232
0.0019718958 0.021690845 0.69262683
0.0019633381 0.019633353 0.69159383
0.0019548088 0.017593294 0.69056416
0.001946088 0.015568703 0.68951154
0.0019374524 0.013562173 0.68846905
0.0019288632 0.011573166 0.68743235
0.0019203573 0.0096018016 0.68640554
0.0019119113 0.0076476634 0.685386
0.0019033368 0.0057100058 0.68435097
0.0018948388 0.0037896633 0.68332517
0.0018863166 0.001886338 0.68229651
0.0018778426 -0 0.68127364
0.0018694444 -0.0018694401 0.68025982
0.0018611002 -0.0037221909 0.67925256
0.0018527685 -0.0055582821 0.67824686
0.0018444703 -0.0073778629 0.6772452
0.0018362461 -0.0091812313 0.67625242
0.0018280814 -0.010968477 0.67526686
0.0018199825 -0.012739867 0.67428923
0.0018119485 -0.014495581 0.67331946
0.0018039913 -0.016235918 0.67235899
0.0017961039 -0.017961025 0.67140687
0.0017882853 -0.019671142 0.67046309
0.001780528 -0.021366328 0.6695267
0.0017728441 -0.02304697 0.66859913
0.001767933 -0.024751067 0.6680063
0.0017603695 -0.026405513 0.66709334
0.0017528645 -0.028045833 0.66618741
0.001745423 -0.029672176 0.6652891
0.0017380443 -0.031284779 0.66439843
0.001730728 -0.032883823 0.66351521
0.0017234848 -0.034469724 0.66264093
0.0017163077 -0.036042452 0.66177458
0.0017091845 -0.037602067 0.66091472
0.0017021259 -0.039148867 0.66006267
0.0016951254 -0.040683031 0.65921766
0.0016882165 -0.042205423 0.65838367
0.0016813634 -0.043715447 0.65755641
0.0016745715 -0.045213431 0.65673661
0.0016678288 -0.046699226 0.65592265
0.00166114 -0.0481731 0.65511525
0.0016545048 -0.049635142 0.65431434
0.0016479277 -0.05108574 0.65352035
0.0016414027 -0.052524865 0.65273273
0.0016349346 -0.053952843 0.65195197
0.0016285118 -0.055369377 0.65117669
0.0016221446 -0.056775048 0.65040809
0.001615827 -0.058169782 0.64964551
0.0016095585 -0.059553653 0.64888883
0.0016033384 -0.06092687 0.64813799
0.0015971609 -0.062289298 0.64739233
0.0015910362 -0.063641459 0.646653
0.0015849581 -0.064983308 0.64591932
0.0015816315 -0.066428512 0.64551777
0.0015821366 -0.068031862 0.64557874
0.0019259603 -0.084742248 0.68708193
0.0019185534 -0.086334914 0.6861878
0.001911203 -0.087915301 0.68530053
0.0019039016 -0.08948338 0.68441921
0.0045566279 0.091132581 0.72961473
0.0045332205 0.088397801 0.72820199
0.0045100325 0.085690618 0.72680247
0.0044872612 0.083014339 0.72542804
0.0044662128 0.080391884 0.72415769
0.0044453414 0.077793479 0.72289801
0.0044246842 0.075219661 0.7216512
0.0044041979 0.072669297 0.72041476
0.0043839011 0.070142388 0.71918976
0.0043639047 0.067640513 0.71798289
0.0043438254 0.065157413 0.71677095
0.0043239305 0.062696964 0.71557027
0.0043042167 0.060259044 0.71438038
0.0042839851 0.057833821 0.71315926
0.0042631435 0.055420876 0.71190137
0.0042424314 0.053030372 0.71065134
0.0042219199 0.050663024 0.70941329
0.0042015882 0.048318237 0.70818621
0.0041814162 0.045995563 0.70696872
0.0041612294 0.043692917 0.70575035
0.0041408427 0.04140842 0.70451993
0.0041204342 0.039144099 0.70328808
0.0041001919 0.036901742 0.70206642
0.0040801312 0.034681112 0.70085561
0.0040602656 0.032482147 0.69965667
0.0040405928 0.030304462 0.69846928
0.0040208995 0.028146297 0.6972807
0.0040013492 0.026008755 0.69610071
0.0039819563 0.023891747 0.69493026
0.0039627505 0.021795124 0.69377112
0.0039437297 0.019718647 0.69262308
0.00392489 0.017662019 0.691486
0.0039062141 0.015624881 0.69035882
0.0038877307 0.013607085 0.6892432
0.0038694208 0.011608273 0.68813813
0.0038512831 0.0096282363 0.68704337
0.0038332995 0.0076665878 0.68595803
0.0038154982 0.0057232082 0.68488365
0.0037978608 0.003797859 0.68381912
0.0037803864 0.0018902123 0.68276441
0.0037630573 -0 0.68171853
0.0037459005 -0.0018729568 0.68068302
0.0037288996 -0.0037288666 0.67965692
0.0037120385 -0.0055680573 0.67863929
0.0036953976 -0.0073907673 0.67763489
0.0036789726 -0.0091974139 0.67664355
0.0036626796 -0.010988027 0.67566025
0.0036465437 -0.012762904 0.67468631
0.0036305492 -0.014522195 0.67372096
0.0036146815 -0.016266078 0.67276323
0.0035989648 -0.017994821 0.67181468
0.0035833709 -0.019708574 0.67087352
0.003567925 -0.021407545 0.66994119
0.0035526115 -0.023091942 0.66901696
0.0035429515 -0.024800628 0.66843396
0.0035278636 -0.026458949 0.66752326
0.0035129033 -0.028103203 0.66662037
0.0034980697 -0.029733598 0.66572511
0.003483373 -0.031350344 0.66483808
0.0034687871 -0.032953471 0.66395772
0.0034543467 -0.034543455 0.66308618
0.0034400257 -0.036120266 0.66222185
0.0034258235 -0.037684053 0.66136461
0.003411761 -0.039235234 0.6605159
0.0033978596 -0.040774286 0.65967691
0.0033840828 -0.042301029 0.65884537
0.003370417 -0.043815374 0.65802056
0.00335685 -0.045317501 0.65720171
0.0033434029 -0.046807617 0.65639013
0.0033300633 -0.048285902 0.65558499
0.0033168185 -0.049752265 0.65478563
0.0033036894 -0.051207185 0.65399325
0.0032906749 -0.052650779 0.65320772
0.0032777626 -0.054083079 0.65242839
0.0032649508 -0.055504173 0.65165514
0.0032522392 -0.056914151 0.65088791
0.0032396365 -0.058313459 0.65012729
0.0032271207 -0.059701696 0.64937186
0.0032147013 -0.061079338 0.64862233
0.0032023769 -0.062446356 0.64787853
0.0031901472 -0.063802943 0.64714026
0.0031780102 -0.065149173 0.64640778
0.0031699364 -0.066568628 0.64592052
0.0031713326 -0.068183646 0.6460048
0.0038434877 -0.084556729 0.68657297
0.0038281085 -0.086132452 0.68564475
0.0038128521 -0.087695584 0.68472391
0.0037977311 -0.08924666 0.68381125
0.0068826722 0.089474708 0.73153532
0.0068454156 0.086708605 0.73003614
0.006808158 0.083967268 0.72853708
0.0067713046 0.081255674 0.72705418
0.0067348476 0.078573227 0.72558725
0.0066987812 0.075919539 0.72413599
0.0066630989 0.073294103 0.72270036
0.0066277366 0.070695877 0.72127748
0.0065923128 0.068120599 0.71985215
0.0065572374 0.065572381 0.71844077
0.006522533 0.063051164 0.71704435
0.0064881947 0.060556471 0.71566272
0.0064542154 0.058087945 0.71429545
0.0064205904 0.055645138 0.71294254
0.0063872868 0.053227454 0.71160245
0.0063543534 0.050834835 0.71027738
0.0063217585 0.048466802 0.70896584
0.0062894956 0.046122968 0.70766771
0.006257561 0.043802917 0.70638275
0.0062259221 0.041506171 0.70510972
0.0061946283 0.039232641 0.70385051
0.0061636474 0.036981851 0.70260394
0.0061329496 0.034753352 0.70136881
0.0061026798 0.032547623 0.70015079
0.0060728304 0.030364156 0.69894975
0.0060432469 0.028201848 0.69775939
0.006013975 0.026060581 0.6965816
0.0059849848 0.023939937 0.69541514
0.0059562498 0.021839589 0.69425887
0.0059278123 0.019759387 0.69311464
0.0058996449 0.017698914 0.69198132
0.0058717211 0.015657932 0.69085771
0.0058440831 0.013636202 0.68974566
0.0058166818 0.011633366 0.6886431
0.0057895579 0.0096492767 0.68755174
0.005762686 0.007683605 0.68647051
0.0057360409 0.005736053 0.68539834
0.005709663 0.003806442 0.68433702
0.0056835259 0.0018945336 0.68328536
0.0056576058 -0 0.68224239
0.0056319423 -0.0018773079 0.6812098
0.0056066364 -0.0037377775 0.68019158
0.0055815983 -0.0055815876 0.67918414
0.0055567827 -0.0074090362 0.67818558
0.0055321869 -0.0092202723 0.67719591
0.0055078282 -0.011015654 0.67621583
0.0054836632 -0.01279521 0.67524344
0.0054597091 -0.014559209 0.67427963
0.0054359632 -0.01630789 0.67332417
0.0054124231 -0.018041402 0.67237699
0.0053891051 -0.019760013 0.67143875
0.0053659682 -0.021463841 0.67050779
0.0053430293 -0.023153126 0.66958481
0.0053287656 -0.024867564 0.66901094
0.0053061615 -0.026530802 0.66810143
0.0052837674 -0.028180093 0.66720033
0.0052615609 -0.029815495 0.66630679
0.0052395407 -0.031437248 0.66542077
0.0052177217 -0.03304556 0.66454285
0.0051960843 -0.034640551 0.66367221
0.0051746606 -0.036222637 0.66281021
0.0051535019 -0.037792355 0.66195881
0.005132515 -0.039349258 0.66111439
0.005111699 -0.040893584 0.66027683
0.0050910506 -0.042425424 0.659446
0.0050705685 -0.043944925 0.65862185
0.0050502336 -0.045452088 0.65780365
0.0050300783 -0.04694739 0.65699267
0.0050100829 -0.048430771 0.65618807
0.0049902457 -0.049902439 0.6553899
0.0049705817 -0.051362693 0.65459871
0.0049510719 -0.052811444 0.65381372
0.0049317149 -0.05424884 0.65303481
0.0049124924 -0.055674911 0.65226138
0.0048934352 -0.057090044 0.6514945
0.0048745251 -0.058494285 0.65073365
0.0048557608 -0.059887692 0.64997864
0.0048371246 -0.061270252 0.64922881
0.0048186467 -0.062642395 0.6484853
0.004800309 -0.064004108 0.6477474
0.0047821105 -0.065355524 0.64701521
0.0047674691 -0.066744581 0.64642608
0.0047703176 -0.068374559 0.64654064
0.0057433937 -0.084236443 0.68569422
0.0057203248 -0.085804865 0.68476599
0.0056974399 -0.08736074 0.68384516
0.0056747384 -0.088904232 0.68293172
0.0092025083 0.089724451 0.73230821
0.0091512585 0.086936921 0.73076159
0.0091005759 0.084180355 0.72923207
0.0090505751 0.081455171 0.72772318
0.0090013631 0.078761935 0.72623813
0.0089526437 0.076097459 0.72476786
0.0089044878 0.073462039 0.72331464
0.0088568479 0.070854813 0.72187698
0.0088096755 0.068275005 0.72045338
0.0087630423 0.065722823 0.71904612
0.008716899 0.063197553 0.71765363
0.0086712027 0.06069839 0.71627462
0.0086260196 0.058225632 0.7149111
0.0085813049 0.055778533 0.71356171
0.0085370159 0.053356379 0.71222514
0.0084932167 0.050959259 0.71090341
0.0084498646 0.048586756 0.70959508
0.0084069176 0.046238065 0.7082991
0.0083644399 0.043913305 0.70701724
0.0083225286 0.041612655 0.70575243
0.0082811713 0.039335549 0.70450437
0.0082402229 0.037081003 0.70326865
0.0081996778 0.03484863 0.70204508
0.0081595303 0.032638133 0.7008335
0.0081197731 0.030449182 0.69963378
0.0080804024 0.028281391 0.69844568
0.0080414107 0.02613458 0.69726896
0.008002826 0.024008512 0.69610453
0.0079645785 0.021902591 0.69495034
0.0079266941 0.019816756 0.69380707
0.0078891693 0.01775068 0.69267464
0.0078519965 0.015704036 0.69155288
0.0078152046 0.013676614 0.69044262
0.0077787251 0.011668116 0.68934166
0.0077425842 0.0096782446 0.68825108
0.0077067781 0.0077067912 0.68717051
0.0076713013 0.0057534873 0.68609995
0.0076361783 0.0038180947 0.68504
0.0076016071 0.0019004047 0.68399674
0.0075673186 -0 0.682962
0.0075333384 -0.001883328 0.6819365
0.0074996618 -0.0037498474 0.68092024
0.0074663125 -0.0055997372 0.67991382
0.0074332315 -0.0074332356 0.6789155
0.0074004414 -0.0092505217 0.67792594
0.0073679406 -0.011051893 0.67694521
0.0073357499 -0.012837559 0.67597377
0.007303813 -0.014607608 0.67500997
0.0072721527 -0.016362339 0.67405456
0.0072407662 -0.018101931 0.67310739
0.0072096749 -0.019826621 0.67216915
0.0071788239 -0.021536469 0.67123812
0.007148236 -0.023231745 0.67031503
0.0071293428 -0.02495271 0.66974491
0.0070994259 -0.026622862 0.66884208
0.0070695588 -0.028278232 0.66794074
0.0070399675 -0.029919863 0.66704774
0.0070106471 -0.031547904 0.66616291
0.006981716 -0.03316313 0.66528988
0.0069530229 -0.034765095 0.66442394
0.0069245407 -0.036353827 0.66356444
0.0068963142 -0.037929744 0.66271263
0.0068683173 -0.039492846 0.66186774
0.0068405466 -0.041043282 0.6610297
0.0068130004 -0.04258126 0.66019845
0.0067856512 -0.044106752 0.65937304
0.0067585432 -0.045620173 0.65855503
0.0067316522 -0.047121555 0.65774345
0.0067049735 -0.048611045 0.65693843
0.0066785058 -0.050088793 0.65613961
0.0066522676 -0.051555097 0.65534788
0.0066262134 -0.053009689 0.65456164
0.0066003841 -0.054453164 0.65378219
0.0065747341 -0.055885255 0.6530081
0.0065493034 -0.057306439 0.65224069
0.0065240487 -0.058716416 0.65147847
0.0064989869 -0.060115635 0.65072221
0.0064741382 -0.061504319 0.64997232
0.0064494577 -0.06288223 0.6492275
0.0064249858 -0.064249828 0.648489
0.0064006783 -0.065606952 0.64775544
0.0063771224 -0.066959798 0.64704466
0.0063822269 -0.068608925 0.64719868
0.0076217842 -0.08383961 0.6846056
0.0075911703 -0.085400671 0.68368179
0.0075608008 -0.086949214 0.68276525
0.0075306171 -0.088484749 0.68185437
0.011474013 0.087202489 0.73160511
0.011411158 0.084442586 0.73008764
0.011348989 0.081712723 0.72858679
0.011287494 0.079012454 0.7271021
0.01122671 0.076341659 0.72563469
0.011166529 0.073699087 0.72418177
0.011106989 0.071084708 0.72274435
0.011048081 0.068498105 0.72132218
0.010989795 0.065938771 0.71991503
0.01093212 0.063406289 0.71852267
0.010875047 0.060900271 0.71714473
0.010818568 0.0584203 0.71578121
0.010762718 0.055966169 0.7144329
0.010707716 0.053538561 0.71310508
0.010653365 0.051136136 0.71179295
0.010599518 0.048757821 0.71049291
0.010546213 0.046403348 0.70920599
0.010493484 0.044072628 0.70793307
0.010441238 0.041764945 0.70667171
0.010389508 0.03948015 0.70542282
0.01033829 0.037217826 0.70418632
0.010287615 0.034977883 0.70296288
0.010237393 0.032759666 0.7017504
0.010187659 0.030562997 0.70054978
0.010138405 0.028387547 0.69936067
0.010089668 0.026233166 0.69818401
0.010041355 0.024099261 0.69701767
0.0099935029 0.02198571 0.69586241
0.0099461051 0.019892216 0.69471812
0.0098991934 0.01781857 0.69358557
0.0098526841 0.015764296 0.6924628
0.0098066088 0.013729215 0.6913504
0.0097611919 0.011713415 0.69025391
0.0097162686 0.0097162724 0.68916941
0.009671757 0.0077373981 0.68809485
0.0096276514 0.0057765841 0.68702996
0.0095839836 0.0038336217 0.68597573
0.0095406724 0.0019081533 0.68493015
0.0094977524 -0 0.68389392
0.0094552161 -0.0018910468 0.68286705
0.0094130589 -0.0037652254 0.68184924
0.0093712769 -0.0056227446 0.68084055
0.0093298629 -0.0074638724 0.67984068
0.0092888139 -0.0092888176 0.67884976
0.0092481244 -0.011097789 0.67786741
0.0092077898 -0.012890935 0.67689365
0.0091678053 -0.014668465 0.67592835
0.0091281673 -0.016430706 0.67497134
0.0090888701 -0.018177748 0.67402267
0.0090499427 -0.019909859 0.67308283
0.0090113152 -0.021627128 0.67215025
0.0089730155 -0.023329824 0.67122567
0.0089400206 -0.025032073 0.67042911
0.008912758 -0.026738286 0.66977096
0.0088756047 -0.028401941 0.66887403
0.008838729 -0.030051678 0.66798371
0.0088021886 -0.031687886 0.66710156
0.0087659499 -0.033310592 0.66622663
0.0087299775 -0.034919947 0.66535825
0.0086943293 -0.03651616 0.66449761
0.0086589707 -0.038099468 0.66364396
0.0086238692 -0.039669782 0.66279662
0.0085890815 -0.041227609 0.66195673
0.0085545722 -0.042772859 0.66112351
0.0085203098 -0.044305593 0.66029644
0.008486351 -0.045826286 0.65947658
0.0084526604 -0.047334909 0.65866321
0.0084192092 -0.048831433 0.65785563
0.0083860485 -0.050316274 0.65705502
0.0083531486 -0.051789522 0.65626079
0.0083205067 -0.053251237 0.6554727
0.0082880901 -0.054701388 0.65469009
0.008255953 -0.056140482 0.65391427
0.0082240645 -0.057568461 0.65314442
0.00819242 -0.058985427 0.65238047
0.0081609925 -0.060391381 0.6516217
0.0081298314 -0.061786741 0.65086943
0.0080989338 -0.063171685 0.65012348
0.0080684265 -0.06454742 0.64938694
0.0080381474 -0.065912828 0.64865601
0.0080080954 -0.067268014 0.6479305
0.0080106091 -0.068891197 0.64799106
0.0094724717 -0.083357751 0.68328363
0.0094339661 -0.084905684 0.68235403
0.0093957372 -0.086440757 0.68143106
0.009357851 -0.087963805 0.68051642
0.013827413 0.087573647 0.73278397
0.013751913 0.084803462 0.73126507
0.013677171 0.082063049 0.7297613
0.013603237 0.0793522 0.72827393
0.013530158 0.076670885 0.72680366
0.0134578 0.074017882 0.72534794
0.01338669 0.071395695 0.72391731
0.013316328 0.068801045 0.72250175
0.0132467 0.066233486 0.72110093
0.013177796 0.063692689 0.71971476
0.013109607 0.061178178 0.7183429
0.01304212 0.058689535 0.71698511
0.012975323 0.056226432 0.71564126
0.012909208 0.053788364 0.71431112
0.012843763 0.051375061 0.71299446
0.012778978 0.048986048 0.71169108
0.012714843 0.046621084 0.71040082
0.012651348 0.044279724 0.70912337
0.012588538 0.041961789 0.70785975
0.012526296 0.039666623 0.70660752
0.012464667 0.037393987 0.70536762
0.01240364 0.035143644 0.70413989
0.012343208 0.032915205 0.70292413
0.012283363 0.030708402 0.70172012
0.012224096 0.028522909 0.70052779
0.012165545 0.026358664 0.69934982
0.012107796 0.024215579 0.69818801
0.012050545 0.02209267 0.69703615
0.01199388 0.019989818 0.69589615
0.011937747 0.017906636 0.69476688
0.011882088 0.015842825 0.69364709
0.011826993 0.013798177 0.69253868
0.011772407 0.011772454 0.69144046
0.011718323 0.0097652972 0.69035238
0.011664688 0.007776469 0.6892733
0.011611585 0.0058058202 0.688205
0.011558966 0.0038530231 0.68714631
0.011506775 0.0019178092 0.68609631
0.011455098 -2.9802322e-08 0.68505675
0.011403883 -0.0019006431 0.68402636
0.011353082 -0.0037843287 0.68300426
0.011302773 -0.0056513846 0.68199217
0.011252908 -0.00750193 0.68098897
0.011203439 -0.0093362033 0.67999369
0.011154446 -0.011154413 0.67900801
0.011105878 -0.012956858 0.67803097
0.011057691 -0.014743626 0.67706156
0.01100996 -0.016514957 0.67610121
0.010962681 -0.018271118 0.67515004
0.010916043 -0.020012766 0.67421174
