# .PCD v0.7 - Point Cloud Data file format
VERSION 0.7
FIELDS x y z
SIZE 4 4 4
TYPE F F F
COUNT 1 1 1
WIDTH 242
HEIGHT 1
VIEWPOINT 0 0 0 1 0 0 0
POINTS 242
DATA ascii
0.0041202689 0.026095033 0.62038469
-0.0055292365 0.024881572 0.6214574
-0.0041713235 0.022247046 0.62243903
0.0069594192 0.025053918 0.62261319
-0.0013957743 0.026519686 0.62308282
0.011172335 0.030723929 0.62317538
-0.01694355 0.029651225 0.6250369
-0.018379526 0.03110379 0.62525988
0.018361004 0.033897251 0.62508786
0.018361004 0.033897251 0.62508786
-0.010044364 0.022958547 0.62780678
0.021904241 0.042348206 0.63086963
-0.023394769 0.043865174 0.63109785
0.0073762862 0.019178361 0.6326772
-0.02219338 0.047345877 0.63319641
-0.02219338 0.047345877 0.63319641
0.023995642 0.047991306 0.63563102
-0.01654073 0.02255556 0.6361109
0 0.010605395 0.63748109
0.0030376127 0.012150466 0.63793409
-0.025976066 0.03820011 0.63904434
0.018430149 0.05529049 0.63999093
0.02005229 0.053986937 0.64079219
-0.021633921 0.052539527 0.64112973
-0.0078298235 0.012527734 0.64362657
-0.018816192 0.020384163 0.64387423
-0.0015636744 0.064110637 0.64335012
-0.0094384132 0.066068888 0.6444841
0.014201554 0.015779465 0.64507341
0.0079012392 0.06479013 0.64535075
-0.0031661554 0.068072319 0.64569235
-0.017478833 0.05084753 0.64640534
-0.017478833 0.05084753 0.64640534
-0.014300001 0.060377777 0.64639378
0.011146681 0.062102973 0.64681554
0.011146681 0.062102973 0.64681554
-0.025711829 0.032139808 0.6485787
-0.014509222 0.012897074 0.64919996
-0.01294342 0.056627482 0.64989907
-0.0064662946 0.063046366 0.64973563
0.0048516332 0.063071251 0.64981252
-0.004872737 0.0064969659 0.65066171
-0.027584329 0.032452136 0.65046394
-0.0048601157 0.06318152 0.65015388
0.016278548 0.048835665 0.65109736
0.0016284005 0.060250819 0.65116322
0.0016284005 0.060250819 0.65116322
-0.021471713 0.01816839 0.65397215
0.0082730707 0.0066184998 0.65432751
-0.014913622 0.0099424124 0.65462387
0.02651328 0.029827476 0.65462518
0.0066736951 0.0050052702 0.65599447
0.016676953 0.011673898 0.65590656
0.024936058 0.028260887 0.65526783
0.0016703341 2.9802322e-08 0.65622514
-0.010058673 0.053646266 0.65696281
-0.011957756 0.049539268 0.66080207
-0.013667688 0.051253825 0.66082734
-0.010228901 0.051144511 0.66038752
0.0017070853 0.054626733 0.66066134
-0.0051369416 0.056506366 0.66129249
0.0017437077 -0.005231142 0.6650821
0.013969913 0.0034924746 0.66538763
-0.0017486743 0.050711542 0.66568154
-0.015777439 0.047332317 0.66620964
-0.015777439 0.047332317 0.66620964
-0.026506258 0.021205008 0.66790384
-0.014115336 0.047639251 0.66758192
0 0.049526304 0.66811043
0.0070818416 0.051343352 0.66831142
-0.0053882347 -0.0053882301 0.67140377
0 0.046925306 0.67245865
-0.016380915 0.041862339 0.67430365
0.0072941771 0.047412157 0.67471921
-0.011002335 -0.0055011511 0.67594779
0.0073735868 -0.0073736012 0.67711556
0.013036236 -0.005586952 0.67939979
0.013036236 -0.005586952 0.67939979
-0.022492664 0.0037487745 0.68085665
-0.011344115 -0.0094534457 0.6828239
0.01140787 -0.0095065534 0.68410653
-0.013362904 -0.0095449388 0.68503296
-0.013578097 -0.011638373 0.68874389
0.0019428312 -0.019428283 0.68911844
0.027269309 0.0097390413 0.68971908
0.0019750481 -0.021725506 0.69300729
-0.0099935429 -0.017988384 0.69586343
0.010046233 -0.018083215 0.69713545
0.024156455 0.0020130277 0.69759309
0.026159706 0.0040245652 0.6975022
0.010215155 -0.020430297 0.7012136
0.0086808689 -0.03038305 0.71656626
0.0088386992 -0.0331451 0.72132927
-0.002258742 -0.042916059 0.72725213
-0.0094982591 -0.045116723 0.74123323
0.010161634 -0.055888981 0.76125228
0.0048203105 0.026857935 0.62084448
0.012532532 0.027850062 0.622688
0.011109975 0.029163688 0.62223452
-0.0014104262 0.018335551 0.62485147
0 0.025469601 0.62540078
-0.014159382 0.026902854 0.62551677
-0.018379526 0.03110379 0.62525988
0.0098309452 0.032301664 0.62412655
0.0098309452 0.032301664 0.62412655
0.018802477 0.033374548 0.6248154
-0.010044364 0.022958547 0.62780678
-0.010044364 0.022958547 0.62780678
-0.010044364 0.022958547 0.62780678
-0.018857809 0.029012024 0.6297009
0.010962484 0.021919817 0.63099492
0.023417421 0.038053334 0.63126874
-0.026488325 0.042675644 0.63223255
-0.026488325 0.042675644 0.63223255
-0.022797626 0.045595244 0.63214093
0 0.011969537 0.63520449
0 0.011969537 0.63520449
0.0074658105 0.017917931 0.63483858
0.0090054376 0.018010885 0.6357733
-0.013420036 0.020875603 0.63459146
0.023209117 0.050910294 0.63534558
-0.0090943975 0.016673088 0.63756305
0.0045962227 0.0137887 0.63953567
0.0045962227 0.0137887 0.63953567
-0.0092081781 0.015346974 0.63985217
-0.013762794 0.018350393 0.63918859
0.015338589 0.019940168 0.63975108
0.003077378 0.010770857 0.64033413
-0.018555224 0.021647751 0.64124906
-0.027740678 0.03852874 0.64063102
0.012497133 0.015621454 0.64316505
0.020386379 0.051750064 0.64389437
-0.018632034 0.052790791 0.64202172
-0.019194853 0.049586713 0.6476832
-0.019194853 0.049586713 0.6476832
0.020704407 0.049372047 0.64684737
0.020704407 0.049372047 0.64684737
-0.015905203 0.058849275 0.64659071
0.011280517 0.011280537 0.64912349
-0.017698539 0.016089559 0.64881635
0.025856907 0.032321155 0.64967322
0.0080398787 0.06271103 0.64869779
0.016199494 0.014579535 0.65014315
-0.027584329 0.032452136 0.65046394
0.0032973976 0.0032973886 0.65361345
-0.0065686917 0.0065687001 0.65282577
-0.013121407 0.0098410547 0.65258467
-0.021471713 0.01816839 0.65397215
-0.011513387 0.05427739 0.65313917
0 2.9802322e-08 0.65517783
0.0016589866 0.05806455 0.65485531
-0.0033416501 0.056808054 0.65628433
0.015230588 0.0084614456 0.65887511
0.015230588 0.0084614456 0.65887511
0.011918612 0.0051079392 0.66012704
0.0085659362 0.054822028 0.66139793
-0.0051559624 -0 0.66205782
0.0086467611 0.053609937 0.66334921
0.0017407291 0.052221894 0.66472244
-0.0035095033 0.050887793 0.66641515
-0.016043192 0.0017825961 0.669774
-0.016043192 0.0017825961 0.669774
0.010720823 0.048243701 0.67028421
-0.0036185763 0.047041476 0.67299837
0.014622247 -0.0018277466 0.67523062
0.013036236 -0.005586952 0.67939979
-0.0074606068 0.044763654 0.67974168
0.00094072189 -0.014998853 0.68091321
0.011230555 -0.0074870586 0.68053925
-0.017088169 -0.0056960285 0.68378955
0.0037725619 0.043384492 0.68229216
-0.017982559 -0.011988372 0.69578534
-0.0060146977 -0.020049006 0.69661069
0 -0.028852642 0.70337105
0 -0.028852642 0.70337105
0.0042735203 -0.029914647 0.71252769
0.021373078 -0.014961153 0.71259385
-0.024692889 -0.017958462 0.72557026
-0.0091176573 -0.038750052 0.72974759
0.0068231365 -0.03866443 0.72913969
-0.018183211 -0.031820625 0.72896135
0.018511238 -0.032394707 0.73391098
0.0047083511 -0.044729322 0.73877203
0.0047083511 -0.044729322 0.73877203
-0.0094982591 -0.045116723 0.74123323
-0.0024327524 -0.051087797 0.7482571
-0.010081731 -0.055449516 0.7588411
0.0075434013 -0.055318236 0.75812095
0 -0.058208615 0.76009369
0.0013608619 0.022674724 0.61882782
-0.014469139 0.029981926 0.62292409
0.01431255 0.030016247 0.62312132
-0.002136929 0.017785348 0.62638915
0.013147609 0.023373544 0.63093758
0.021635478 0.046410091 0.63313687
-0.0057062237 0.014449492 0.6381799
-0.0075427457 0.016594052 0.63669586
0.016761431 0.022089481 0.63853276
-0.021186903 0.041613981 0.63727546
0.013930878 0.01779557 0.64140075
-0.018812537 0.051734477 0.64383745
-0.018812537 0.051734477 0.64383745
-0.013677919 0.064090818 0.64329171
-0.021209877 0.022267153 0.64660299
-0.021209877 0.022267153 0.64660299
0.017943911 0.051047526 0.64715981
-0.011109609 0.058712929 0.64617628
-0.004872737 0.0064969659 0.65066171
-0.011408642 0.055413425 0.65133291
-0.001620831 0.059970766 0.65024954
0.0113912 0.059393436 0.65103209
0.0113912 0.059393436 0.65103209
-0.0060555711 0.0055008135 0.65390754
0.0014486513 0.058661915 0.65407223
0.02685516 0.028533608 0.65720451
0.011918612 0.0051079392 0.66012704
-0.027785545 0.024312377 0.66422367
-0.0035587514 -0.00711748 0.66938758
0.0095356181 -0.0023881695 0.67041659
-0.016934227 0.0026738495 0.66977096
-0.0091010043 0.047325224 0.67431563
0.0036187074 0.048852563 0.67300618
0.0036187074 0.048852563 0.67300618
-0.011045771 0.040501177 0.67682165
0.011230555 -0.0074870586 0.68053925
-0.0066049816 0.043414384 0.6824491
0.00095582427 -0.018243924 0.68635917
-0.019358633 -0.0058075786 0.6882773
0.009228792 -0.021548495 0.70227444
-0.016264621 -0.016264588 0.70001209
-0.0087909857 -0.032966197 0.71988934
-0.0044242144 -0.037605822 0.72162294
0.0044322289 -0.03545779 0.72210658
-0.017829362 -0.028972715 0.7236222
-0.0067935223 -0.038496614 0.72794813
0.020643 -0.027524024 0.73146796
0.0057965266 -0.04170996 0.73431122
-0.023271421 -0.02792573 0.7355088
0.025519868 -0.018559903 0.73464525
-0.0061156163 -0.051346213 0.74974263
0.0048943465 -0.051390618 0.74999785
-0.013018042 -0.059883028 0.76888126
