# .PCD v0.7 - Point Cloud Data file format
VERSION 0.7
FIELDS x y z
SIZE 4 4 4
TYPE F F F
COUNT 1 1 1
WIDTH 251
HEIGHT 1
VIEWPOINT 0 0 0 1 0 0 0
POINTS 251
DATA ascii
-0.01935222 0.082686752 0.66696334
-0.029989272 0.077619284 0.66754061
-0.015962893 0.074493498 0.668697
-0.017842742 0.064233869 0.66997886
-0.024953233 0.065947831 0.6697495
-0.017768165 0.069295824 0.66907871
-0.035669204 0.076688766 0.66988063
-0.035593212 0.078305095 0.66942197
-0.012464938 0.080131739 0.66954809
-0.021557426 0.057486475 0.67144895
-0.0089998068 0.073798448 0.6718725
-0.0090161208 0.066719323 0.67226636
-0.0090161208 0.066719323 0.67226636
-0.012706276 0.047194749 0.67370981
-0.0090647973 0.054388791 0.67344153
-0.0072446978 0.083314061 0.673226
-0.021882292 0.045588136 0.67471677
-0.0054757213 0.082135826 0.67492396
-0.0091731837 0.036692739 0.67605817
0.0018417749 0.038677305 0.67691982
-0.0036831293 0.081028819 0.67689449
-0.024022479 0.038805544 0.67765713
-0.03142852 0.04991591 0.67776012
-0.038758308 0.064597189 0.67738563
-0.020437894 0.029727876 0.67887723
-0.0018525422 0.074101716 0.67821956
0.0037285802 0.027964354 0.67963767
-0.027887357 0.040901452 0.67901802
-0.0018700314 0.016830295 0.68033069
0.001868488 0.050449193 0.68014437
0.0018750349 0.060001135 0.68093461
0.0018822293 0.013175637 0.68180311
-0.01882796 0.018827975 0.68187147
0.0056489618 0.018829882 0.6818946
0.0075099617 0.018774927 0.68123102
-0.028191021 0.035708606 0.68146175
-0.015125259 0.011343956 0.68282044
0.0037753945 0.013213903 0.68246317
-0.018886235 0.016997635 0.68257499
0.0037691805 0.050883949 0.68208808
0.0056966399 0.0075955689 0.68381298
0.011381703 0.0075877905 0.68358016
0.011363911 0.0094699264 0.68322217
-0.028423978 0.026529074 0.6833365
0.013312571 0.0057054162 0.684165
-0.015209453 0.007604748 0.68409085
0 0.083914429 0.68481076
0.0076614637 -0.0038307011 0.68580306
-0.028721033 0.017232597 0.68572694
-0.026752142 0.017197818 0.68526
0.0096339919 -0.0096339881 0.68718308
-0.021224041 0.0077178478 0.68750417
0.0077354917 -0.019338727 0.68803704
0.0077354917 -0.019338727 0.68803704
0.019400893 -0.015520722 0.68878746
0.019387059 -0.005816102 0.68862039
-0.017545091 -0.0038989186 0.68991786
0.0097693112 -0.031261802 0.69044995
0.021492064 -0.023445904 0.69044536
-0.013685319 -0.011730283 0.69059283
-0.015621991 -0.0078109801 0.69031554
-0.013735499 -0.013735503 0.69145811
0.013813342 -0.04144004 0.69280046
0.015757406 -0.035454184 0.69235885
-0.0019702264 -0.029553413 0.69242531
-0.0059010363 -0.02753818 0.69203734
-0.015775416 -0.015775412 0.69263053
0.027861055 -0.039801508 0.69482124
-0.013900233 -0.023828983 0.69429886
0.025915198 -0.045849979 0.69523191
-0.0039930311 -0.039930314 0.69559866
0.01603232 -0.060121208 0.69650698
0.028123921 -0.054238975 0.69708776
-0.0100707 -0.040282786 0.69772619
0.0020273442 -0.058792949 0.69932002
-0.0081025483 -0.046589613 0.69911397
0.008236561 -0.078247339 0.70315814
0.039165407 -0.078330785 0.70342332
-0.0020642118 -0.068118989 0.70377028
-0.0020581493 -0.06380263 0.70303857
-0.0062151733 -0.066295177 0.70467722
0.0083555365 -0.08773315 0.7067486
0.0041787974 -0.081486553 0.70681071
0.038634095 -0.051512122 0.7136839
-0.019993823 0.037766129 0.72276103
-0.017806124 0.040063739 0.72327161
-0.013478342 0.0067391694 0.72576123
-0.013532658 0.022554427 0.72685397
-0.013500405 0.027000815 0.72620511
-0.0091243079 0.009124279 0.72994822
-0.0091122184 0.011390269 0.72958344
-0.0069034048 -0.0046022534 0.73236954
-0.0023301004 -0.030291319 0.73586595
0.0023601942 -0.037763059 0.73949856
0.0023578918 -0.035368383 0.73922062
0.0071392795 -0.045215398 0.74186033
0.0071725748 -0.054989725 0.7432
0.012073538 -0.06519708 0.74607891
-0.029087311 0.077564493 0.66739029
-0.022877079 0.077430129 0.66702157
-0.021131795 0.077483267 0.66716737
-0.019394157 0.077576607 0.66742355
-0.017624097 0.0810709 0.66733956
-0.024903731 0.06759584 0.66932273
-0.033715338 0.079852104 0.66879803
-0.017059289 0.057463586 0.67136252
-0.025110845 0.060983479 0.67110837
-0.012522117 0.06887126 0.67053407
-0.014466408 0.050632447 0.67287916
-0.027125046 0.056961462 0.67288339
-0.030653927 0.063111067 0.67226005
-0.014559437 0.043678313 0.67428285
-0.010918028 0.045491785 0.67425168
-0.0054909848 0.047588497 0.67553806
-0.0054909848 0.047588497 0.67553806
-0.0036653762 0.058646023 0.67582297
-0.003664752 0.06504938 0.6757853
-0.0054624504 0.069191039 0.67438996
-0.0054666083 0.076532543 0.67455727
-0.0018503499 0.035156637 0.67795491
0.0036953019 0.035105348 0.67762911
-0.0055146678 0.036764413 0.67649102
-0.0055146678 0.036764413 0.67649102
-0.022998843 0.040475413 0.67668045
0.00093213463 0.029802904 0.67944348
0 0.046394825 0.67861187
-0.031542853 0.048242003 0.67857194
-0.0018525422 0.074101716 0.67821956
-0.022586837 0.024469107 0.68180394
-0.026240066 0.033737272 0.68084478
0.0037664848 0.048964322 0.68192542
-0.037607804 0.054531306 0.68158114
-0.042991761 0.06916064 0.68023121
-0.042991761 0.06916064 0.68023121
0.0056966399 0.0075955689 0.68381298
0.0018865372 0.0094326735 0.6823231
-0.018886235 0.016997635 0.68257499
-0.020739241 0.020739228 0.6821841
0.00095221895 -0.0038073957 0.68439519
-0.017241461 0.0057471693 0.68584555
-0.028637089 0.019091398 0.68505144
-0.028573638 0.020954043 0.68454081
0.0057182326 0.051464081 0.68468183
0.0019165471 0.076661885 0.68594563
0.009653247 -0.013514549 0.68764794
0.017338848 -0.0077061355 0.68715167
0.011547805 -0.003849268 0.68692183
-0.023176735 0.0057941675 0.68773788
0.0058140229 -0.023256093 0.68853617
0.019491736 -0.021440923 0.68988395
0.015592599 -0.017541677 0.68987203
-0.0097065428 -0.013589174 0.68893456
0.019382328 -0.013567597 0.68856335
0.017447475 0.0038772523 0.68860865
0.021600958 -0.029455811 0.69164026
-0.003907999 -0.025402009 0.69046652
0.015681969 -0.025483191 0.69122058
0.015681969 -0.025483191 0.69122058
0.015757406 -0.035454184 0.69235885
0.015757406 -0.035454184 0.69235885
0.015757406 -0.035454184 0.69235885
0.023616122 -0.03148815 0.6921578
-0.015846862 -0.021789432 0.69370854
-0.011874099 -0.021769196 0.69348639
-0.017732458 -0.01576221 0.69243091
-0.021716015 -0.011845112 0.69290292
0.017995782 -0.055986881 0.69596273
0.019938264 -0.047851831 0.69527411
0.00099508918 -0.04585743 0.69527102
-0.0059807403 -0.03588444 0.69524437
-0.0079352111 -0.029757023 0.69406408
0.028123921 -0.054238975 0.69708776
-0.010055643 -0.038211405 0.69736254
-0.010055643 -0.038211405 0.69736254
0.022097722 -0.0040177703 0.69709164
0.026409836 -0.067040354 0.69982475
0.034548983 -0.063001096 0.69991744
0.032343809 -0.060644627 0.69861317
0.032363813 -0.050568432 0.69876403
-0.0080657164 -0.040328592 0.69800246
0.02247224 -0.081717193 0.7012015
0.024429392 -0.075323969 0.70033866
0.026523339 -0.075489521 0.70087874
0.036890391 -0.075830251 0.70199037
0.036890391 -0.075830251 0.70199037
0.036890391 -0.075830251 0.70199037
0.028621716 -0.073598683 0.70137984
0.028565809 -0.069374114 0.70089781
-0.0081350543 -0.050844103 0.70009494
0.028739966 -0.08211419 0.70239937
0.030800024 -0.075973421 0.70245737
0.0020650125 -0.070210427 0.70386696
0 -0.063683957 0.7025764
0 -0.070384741 0.70448577
0.040608328 -0.064118385 0.71259052
-0.017824758 0.037877589 0.72355276
-0.01788241 0.02682364 0.72442257
-0.013569972 0.01583162 0.72760463
-0.0091592148 -0 0.73100173
-0.004580698 0.0022903681 0.73106748
-0.0069058817 -0.013811767 0.73246914
-0.00231444 -0.0092577338 0.73397559
-0.0023004049 -0.0046008229 0.73228133
-0.0068967757 -0.0022989213 0.73210275
-0.002322993 -0.01393795 0.735008
0 -0.013917267 0.73459202
-0.0023337086 -0.025670767 0.73630142
-0.0023337086 -0.025670767 0.73630142
0 -0.03523156 0.73811972
0.00715756 -0.064418048 0.74259591
0.014592472 -0.075394422 0.74817586
-0.018436022 0.055757947 0.67171335
-0.022106117 0.072508454 0.66807461
-0.010380033 0.037856393 0.67571372
-0.021669677 0.042421192 0.67563885
-0.025639417 0.046699107 0.67566586
-0.017582051 0.053195782 0.67227221
-0.032955043 0.057669744 0.67559934
-0.03376485 0.065718159 0.67293519
-0.037188493 0.06983497 0.67355943
-0.0063521727 0.069902621 0.67376667
-0.0063521727 0.069902621 0.67376667
-0.030313222 0.046082705 0.67860955
-0.0024521758 0.053995471 0.6767925
0 0.058502987 0.67878568
-0.013282103 0.0066397488 0.68363965
0.011381703 0.0075877905 0.68358016
-0.01798851 0.014198437 0.68314075
-0.025563648 0.030254347 0.68146938
-0.010590796 -0.0067399293 0.68700022
0.0066930205 -0.0028683916 0.68538809
0.013332791 0.017142147 0.68451369
0.0038250571 0.06598407 0.68546057
-0.022424662 -0.0026835948 0.6899628
-0.018502517 -0.0029224455 0.68969071
0.022989374 -0.045978308 0.69590533
0.0040070773 -0.053095192 0.69644642
-0.0090763886 -0.041351281 0.69808245
-0.0090763886 -0.041351281 0.69808245
0.0061878357 -0.076316625 0.70357722
0.033775114 -0.074718371 0.70169801
0.0054579116 -0.070290625 0.70172763
0.0081390906 -0.06511271 0.70021671
0.037792556 -0.065087169 0.70804042
-0.014903812 0.03427735 0.72444695
-0.010251977 0.0011405796 0.72973108
-0.010260376 0.0057010055 0.72988296
-0.0023301004 -0.030291319 0.73586595
0.0096372971 -0.069870383 0.74542904
0.0096372971 -0.069870383 0.74542904
0.01328651 -0.066434577 0.74620563
