# .PCD v0.7 - Point Cloud Data file format
VERSION 0.7
FIELDS x y z
SIZE 4 4 4
TYPE F F F
COUNT 1 1 1
WIDTH 275
HEIGHT 1
VIEWPOINT 0 0 0 1 0 0 0
POINTS 275
DATA ascii
0.064955525 0.0061862469 0.64128423
0.064955525 0.0061862469 0.64128423
0.059352297 2.9802322e-08 0.6431362
0.059458278 0.0046940744 0.64347291
0.058235042 0.0062956512 0.64458692
0.055846442 0.009573698 0.64720535
0.061324984 -0.016138166 0.64940268
0.058203042 -0.014550775 0.64975709
0.051863566 -0.0097244382 0.65023816
0.053546395 0.012980968 0.65046525
0.048926696 0.0097853243 0.65146375
0.042786371 -0.0016455948 0.65324295
0.053099368 -0.016593546 0.65489984
0.047908403 0.013216108 0.65401363
0.043166853 0.0099615753 0.65500951
0.040510222 -0.011815488 0.65834862
0.033925265 0.0067850947 0.65935498
0.033925265 0.0067850947 0.65935498
0.042616937 0.017046779 0.66037071
0.02922244 -0.0051569045 0.66209567
0.027535541 -2.9802322e-08 0.66233754
0.025989328 0.0051978827 0.66374385
0.026178606 -0.0087262094 0.66526711
0.026178606 -0.0087262094 0.66526711
0.031990308 -0.017772406 0.66912973
0.021412741 -0.012490779 0.66999346
0.014214936 -0.0035537183 0.66908479
0.030368073 -0.017863572 0.67023027
0.019725492 -0.012552589 0.67105955
0.014417896 -0.0090111494 0.67214721
0.009020607 -0.0036082268 0.67237467
0.009020607 -0.0036082268 0.67237467
0.012749012 0.012749046 0.67444676
0.016548989 -0.016548961 0.6765579
0.0073879305 -0.011081904 0.67754847
0.0018539493 -0.0055618286 0.67838937
-0.0055766841 0.0037177503 0.67898643
0.08154235 0.012972653 0.67830318
0.08154235 0.012972653 0.67830318
0.009322145 0.01677987 0.67965436
0.022329383 0.02232939 0.67921412
0.084272675 -0.0093636215 0.68065596
0 0.01126644 0.68126082
0.0037819005 -0.015127599 0.68285573
-0.013212783 0.0018875301 0.68244421
0.081907354 0.0057144761 0.68453032
-0.017230971 -0.0019145608 0.68570483
0.032454502 0.028636336 0.68504524
-0.013445081 -0.0038414299 0.68645
-0.01924723 -0.0019246936 0.6869325
-0.0077088857 0.013490558 0.68723416
-0.0077088857 0.013490558 0.68723416
-0.0077088857 0.013490558 0.68723416
-0.0096762087 -0.011611432 0.68820226
0.025144916 0.027079135 0.68807948
-0.0019446207 0.019446224 0.68933439
-0.01970242 0.0098512173 0.69242716
0.01573851 0.025575072 0.6920737
0.01573851 0.025575072 0.6920737
-0.017816082 0.013856977 0.69355249
-0.023801953 -0.0059504807 0.69402707
-0.033842321 0.0019907355 0.69489968
-0.021888306 0.011939079 0.69479358
0 -0.021924049 0.69518578
-0.027931156 -0.0039901733 0.69542575
-0.026471419 -0.014253825 0.7003966
-0.026471419 -0.014253825 0.7003966
-0.040670145 -0.0020335317 0.700064
-0.045007326 2.9802322e-08 0.70154631
-0.032725643 0.012272149 0.7014938
-0.039030343 0.006162703 0.70256519
-0.039178807 0.00824821 0.70350844
-0.022662947 0.020602673 0.70329428
-0.033144571 -0.014500707 0.70465446
-0.052043933 0.0020817816 0.70588827
-0.031243131 0.018745899 0.70602322
-0.033472449 -0.016736269 0.70712805
-0.048277114 -0.0041980147 0.70797026
-0.052316673 -0.0020926297 0.70720518
-0.052316673 -0.0020926297 0.70720518
-0.056857511 0.0021058619 0.70879453
-0.046318792 0.010527015 0.70874214
-0.046318792 0.010527015 0.70874214
-0.008492928 -0.027602017 0.7108947
-0.008492928 -0.027602017 0.7108947
-0.046557989 0.012697667 0.71005458
-0.05972166 0.0042658448 0.71206367
-0.056331579 0.012999624 0.71612954
-0.054224618 0.015182883 0.71641755
-0.058805261 -0.010889828 0.71750247
-0.039624006 0.024214685 0.72032237
-0.033348802 0.026679039 0.7229684
-0.073539235 0.006685406 0.72359705
-0.071429439 -0.0089286566 0.72404468
-0.082698017 0.0022350848 0.72439611
-0.038210426 -0.024724394 0.72591591
-0.033640429 0.029155046 0.72531521
-0.036134977 0.029359668 0.72721529
-0.065910846 0.020455092 0.72894764
-0.052447792 -0.022803366 0.72985917
-0.077342592 0.013648659 0.72918838
-0.068538547 -0.01827696 0.73037571
-0.052700218 0.02520445 0.73118401
-0.085229009 0.011517435 0.73265338
-0.0714048 0.020730406 0.73264062
-0.075371355 -0.024313301 0.74808592
0.060767192 0.0046744049 0.64268124
0.065444238 0.010907382 0.64268887
0.059996929 -0.0094732046 0.64518398
0.059996929 -0.0094732046 0.64518398
0.054089211 -0.0031817555 0.6466316
0.05411106 0.0047744811 0.6467092
0.060889591 -0.014421225 0.64801955
0.056290906 0.012866527 0.64873827
0.057269353 0.014519453 0.64933705
0.048634857 -0.0048635006 0.65028948
0.047247142 0.0065168142 0.65126121
0.056957129 0.016273439 0.65103602
0.072216742 -0.021336764 0.65271914
0.042831451 -0.0032947063 0.65345228
0.039103672 -0.0016640723 0.65546834
0.044799171 0.011614621 0.65488446
0.051380035 0.016574234 0.65466624
0.051380035 0.016574234 0.65466624
0.050253291 -0.016751111 0.65680158
0.038673308 -0.0084072351 0.65756673
0.038673308 -0.0084072351 0.65756673
0.036897253 -0.0033542812 0.65704763
0.035324123 0.00084108114 0.65764546
0.045273431 0.015091181 0.65700483
0.075926192 -0.020246953 0.65826684
0.037271574 0.011013761 0.65910143
0.030709619 -0.0017060637 0.66054118
0.03081511 0.006847769 0.66124862
0.037534364 0.013648897 0.66054332
0.032671709 -0.010317355 0.66216761
0.029389845 -0.008644104 0.6632843
0.034859575 -0.01568681 0.66499406
0.024319652 0.00086860359 0.66428661
0.043512475 0.020886004 0.66469473
0.010660332 0.0035534501 0.66906726
0.026638437 0.015983075 0.66896755
0.028507013 0.017816871 0.66966677
0.023230771 -0.014295876 0.67030579
0.019725492 -0.012552589 0.67105955
0.016993735 -0.0089452267 0.67055464
0.01608422 -0.0071485043 0.67032427
0.010881423 -0.0072543025 0.6735152
0.0054098871 0.0036065876 0.67227495
0.0091194166 0.0091194212 0.6747601
0.018486273 -0.018486291 0.67774695
0.020225428 -0.018386751 0.67654562
0.020225428 -0.018386751 0.67654562
0.082932986 -0.011057734 0.67706233
0.0036915261 0.0073830485 0.67740119
0.08154235 0.012972653 0.67830318
0.0056428886 -0.015047699 0.68165022
0.0056428886 -0.015047699 0.68165022
-0.001872768 -0.0056182742 0.68066096
0.0074967123 0.016867608 0.68083119
0.0094084926 0.018817008 0.68173897
0.0094084926 0.018817008 0.68173897
-0.0056933342 -0.0075911283 0.68368
0.083013892 -0.0018866956 0.68234026
-0.0075766575 0.0056824982 0.68324375
-0.005721109 0.011442244 0.68479759
0.026917648 -0.024994969 0.68668699
-0.0019215447 -0.015372366 0.68654883
-0.013521067 -0.0057947636 0.68776041
-0.011623633 0.011623621 0.68844736
-0.0039029389 -0.017563254 0.69016111
-0.01779693 -0.011864632 0.69329572
-0.029531013 0.00098462403 0.69224519
-0.0019718104 0.021689922 0.69261652
0.0099840909 -0.023961812 0.6956352
-0.019903764 0.013932616 0.6948576
-0.0020063948 -0.022070348 0.69679117
-0.034051087 0.0040060282 0.69638205
0.0080534481 0.026173741 0.69763219
0.0080534481 0.026173741 0.69763219
0.0080534481 0.026173741 0.69763219
-0.026506046 0.016311407 0.70071816
-0.039159764 -0.0061831176 0.7033875
-0.041631859 0.010408014 0.70586836
-0.033523187 0.018856794 0.70751083
-0.016890032 -0.023223788 0.70944881
-0.035776887 -0.016836166 0.70863628
-0.044154122 -0.010512888 0.7084015
-0.050721459 0.0063401759 0.7097072
-0.050885879 -0.0063607693 0.71053416
-0.059635483 -0.0021298528 0.71169215
-0.040537339 0.019201905 0.71213943
-0.060522735 -0.0043230355 0.71551722
-0.066801846 2.9802322e-08 0.71471715
-0.066826597 0.0021556914 0.71481347
-0.069367819 2.9802322e-08 0.71626782
-0.069367819 2.9802322e-08 0.71626782
-0.058518447 0.01083672 0.71622026
-0.052201588 0.017400563 0.71715164
-0.028513843 -0.024127096 0.71936142
-0.028513843 -0.024127096 0.71936142
-0.045965113 -0.019699335 0.71881127
-0.065878287 -0.0065878332 0.71967161
-0.048471354 -0.019829184 0.72055292
-0.064386807 -0.013321429 0.72260398
-0.077767566 -0.0022219121 0.72280872
-0.07411325 -0.0089834332 0.72569674
-0.071895465 0.013480425 0.72580266
-0.036051825 -0.027038842 0.72658795
-0.07238856 -0.013572872 0.72766268
-0.07238856 -0.013572872 0.72766268
-0.083239771 -0.0022496879 0.72616357
-0.074602135 0.01356402 0.727485
-0.080697827 -0.01383388 0.73291475
-0.085229009 0.011517435 0.73265338
-0.080758855 0.016151756 0.73312521
-0.053591065 -0.025630474 0.73585939
-0.076936312 -0.018651247 0.73602319
0.059200972 -0.012800187 0.64773822
0.067749098 -0.0094533563 0.64478493
0.054028071 0.0019868985 0.64643061
0.054028071 0.0019868985 0.64643061
0.066225111 0.014981946 0.64493644
0.059309594 -0.016249701 0.65074933
0.061723322 0.018016145 0.65003437
0.068858042 -0.02131322 0.65250039
0.049942028 -0.013893622 0.65423012
0.042050298 0.0020618178 0.65366226
0.042422891 0.0097762235 0.65542084
0.046099789 0.013291523 0.65515161
0.052442312 0.014749408 0.65242124
0.076008722 0.021958113 0.65848821
0.035185728 -0.017592877 0.66696256
0.035185728 -0.017592877 0.66696256
0.019725492 -0.012552589 0.67105955
0.018518912 -0.0098206103 0.6701045
0.082541853 -0.0175971 0.67439389
0.085911036 -0.010967374 0.67524433
0.016865689 0.013855955 0.67273796
-0.0061851363 0.0018572311 0.67854661
-0.0061851363 0.0018572311 0.67854661
0.0055097691 0.0073463917 0.67629391
0.0061448328 0.010448933 0.67716777
-0.0056846151 -0.0066335052 0.68332922
0.010589021 -0.021183789 0.6870625
0.0028804443 -0.017940119 0.68657756
-0.0182391 -0.0019196272 0.68631864
-0.014616376 0.010718912 0.68980342
-0.022615924 -0.010643512 0.6954664
-0.012155693 -0.02025947 0.69915152
-0.026030835 0.010011882 0.69630557
-0.02081888 0.01679196 0.69779241
-0.033739347 -0.0092032179 0.70140731
-0.033739347 -0.0092032179 0.70140731
-0.0020747911 -0.025938839 0.70504737
-0.047577754 -0.0020685792 0.70429981
-0.035184931 0.014487892 0.70443308
-0.018636644 0.022778153 0.70455813
-0.034846235 -0.017956838 0.70955372
-0.053974837 0.0052964985 0.71012223
-0.053974837 0.0052964985 0.71012223
-0.018314693 -0.025851741 0.71464634
-0.041957237 -0.018295273 0.71435219
-0.054224618 0.015182883 0.71641755
-0.039624006 0.024214685 0.72032237
-0.061801657 -0.01797761 0.72585905
-0.071635514 -0.01007694 0.72482204
-0.081963487 0.0044909865 0.72565126
-0.046009883 0.02468583 0.72549307
-0.068538547 -0.01827696 0.73037571
-0.077342592 0.013648659 0.72918838
-0.071300097 -0.018400043 0.73223281
-0.065812349 0.023090571 0.73332608
-0.062381141 -0.023538232 0.73872936
-0.069549903 -0.023982704 0.74409497
