# .PCD v0.7 - Point Cloud Data file format
VERSION 0.7
FIELDS x y z
SIZE 4 4 4
TYPE F F F
COUNT 1 1 1
WIDTH 1339
HEIGHT 1
VIEWPOINT 0 0 0 1 0 0 0
POINTS 1339
DATA ascii
-0.041250538 0.068063378 0.70356697
-0.0410726 0.065716147 0.70249295
-0.04090973 0.063410103 0.70150995
-0.040780362 0.061170578 0.70072913
-0.040691976 0.059003413 0.70019573
-0.040628701 0.056880206 0.69981384
-0.040593762 0.054801553 0.69960296
-0.040596563 0.052775532 0.69961983
-0.040668327 0.050835401 0.70005298
-0.04134376 0.049612522 0.70412958
-0.041533712 0.047763765 0.70527601
-0.041606415 0.045767039 0.70571482
-0.041696388 0.043781221 0.70625794
-0.041807175 0.041807175 0.70692652
-0.04194561 0.039848328 0.70776206
-0.04212359 0.037911236 0.70883632
-0.042361278 0.036007106 0.71027082
-0.042697828 0.03415826 0.71230209
-0.043436937 0.032577693 0.71676302
-0.039657172 0.083488762 0.70654762
-0.03958188 0.081247032 0.70606929
-0.039506875 0.079013765 0.70559269
-0.039442621 0.076809317 0.70518452
-0.039380211 0.074615151 0.70478803
-0.039325476 0.072441638 0.7044403
-0.039275758 0.070282966 0.70412445
-0.039220344 0.068119556 0.70377237
-0.039138641 0.06591773 0.70325327
-0.039012406 0.0636518 0.70245129
-0.038845506 0.061335027 0.70139092
-0.038683172 0.059042752 0.70035964
-0.038561415 0.056827337 0.69958603
-0.038470287 0.054668278 0.69900715
-0.038402531 0.052550822 0.69857669
-0.038359918 0.050473601 0.6983059
-0.038359765 0.048454463 0.69830489
-0.038409203 0.046495348 0.69861901
-0.038600713 0.044695586 0.69983578
-0.039225686 0.04335469 0.70380628
-0.03929979 0.041368186 0.7042771
-0.039378252 0.039378226 0.70477557
-0.039475214 0.037397593 0.70539159
-0.039596226 0.035428196 0.70616043
-0.039751358 0.033474863 0.70714605
-0.039958037 0.031545818 0.70845908
-0.040248331 0.029656708 0.71030331
-0.040747046 0.027879596 0.71347183
-0.037548181 0.083440393 0.70640165
-0.037465241 0.081174701 0.70584536
-0.03738267 0.078918964 0.70529169
-0.037311587 0.076696038 0.70481503
-0.037241232 0.074482471 0.70434314
-0.037179124 0.072292775 0.70392668
-0.037120741 0.070116967 0.70353514
-0.037067421 0.067956954 0.70317757
-0.037020799 0.065814763 0.70286489
-0.036972016 0.063674033 0.70253778
-0.036903393 0.061505646 0.70207751
-0.036794238 0.059279621 0.70134556
-0.036638275 0.056992888 0.70029962
-0.036480818 0.054721266 0.69924366
-0.036363132 0.052524537 0.6984545
-0.036269996 0.050374985 0.69782996
-0.036198713 0.048264951 0.69735187
-0.03615744 0.046201199 0.69707507
-0.036149457 0.044182658 0.69702154
-0.036182716 0.042213172 0.69724458
-0.036299087 0.040332317 0.69802499
-0.036940321 0.038992554 0.70232522
-0.037019275 0.037019283 0.70285469
-0.037087418 0.035026997 0.70331162
-0.037173599 0.033043206 0.70388961
-0.037283782 0.031069815 0.70462853
-0.037421189 0.029105365 0.70555001
-0.037597399 0.027153701 0.70673168
-0.037838284 0.02522552 0.70834708
-0.03821753 0.023355156 0.71089035
-0.0355618 0.085766703 0.70710909
-0.035463799 0.083444238 0.70641315
-0.035374571 0.081153452 0.70577955
-0.03528652 0.07887575 0.70515442
-0.035208967 0.076631308 0.70460367
-0.035131745 0.07439667 0.70405537
-0.035063826 0.072190225 0.70357311
-0.034998037 0.069996089 0.70310599
-0.03493838 0.067821532 0.70268238
-0.034883648 0.065663368 0.70229369
-0.034832079 0.063517332 0.70192754
-0.034788489 0.061391413 0.70161802
-0.034745004 0.059270918 0.70130926
-0.03468677 0.057131141 0.70089579
-0.034589868 0.054936856 0.70020771
-0.034450755 0.052689373 0.69921994
-0.034302935 0.050445497 0.6981703
-0.034184925 0.048261076 0.69733238
-0.034090798 0.046122849 0.69666409
-0.034018543 0.04402402 0.6961509
-0.033978317 0.041973203 0.69586533
-0.033962309 0.039955646 0.69575167
-0.033981305 0.037979096 0.69588649
-0.034068 0.036072016 0.69650209
-0.034674611 0.034674615 0.70080948
-0.034764599 0.032719612 0.70144844
-0.03482452 0.030727506 0.7018739
-0.034903545 0.028744102 0.70243496
-0.035000198 0.026764899 0.7031213
-0.035120577 0.024790972 0.70397615
-0.035274524 0.022824705 0.70506918
-0.03547933 0.020870209 0.70652342
-0.03578607 0.018945545 0.70870149
-0.033504248 0.085854679 0.70736802
-0.033401366 0.083503395 0.70659173
-0.033306453 0.081184506 0.70587569
-0.033213876 0.078882992 0.70517725
-0.033130579 0.076614469 0.70454884
-0.033047836 0.074357659 0.7039246
-0.032975011 0.072132856 0.70337516
-0.032903049 0.06991896 0.70283228
-0.032838266 0.067728937 0.70234346
-0.032776959 0.065553933 0.70188105
-0.032719892 0.063394785 0.70145047
-0.032668885 0.061254174 0.70106566
-0.032619104 0.059122145 0.70069009
-0.032578487 0.057012349 0.7003836
-0.032538101 0.054908037 0.70007896
-0.032486606 0.052790761 0.69969046
-0.032403111 0.050629884 0.69906056
-0.032282248 0.04842338 0.69814867
-0.032144208 0.046207279 0.6971072
-0.032026671 0.044036657 0.69622052
-0.031932399 0.041911274 0.69550925
-0.031865034 0.039831311 0.69500107
-0.03182083 0.037787259 0.69466752
-0.031797953 0.035772711 0.69449496
-0.031804271 0.033792049 0.69454259
-0.031864781 0.031864792 0.6949991
-0.032398652 0.030373752 0.69902688
-0.032535326 0.02846843 0.70005798
-0.032591086 0.026480287 0.70047867
-0.032659825 0.024494886 0.70099723
-0.032743979 0.022511512 0.70163214
-0.032848507 0.020530313 0.70242077
-0.032982077 0.018552452 0.70342851
-0.03315926 0.016579628 0.7047652
-0.033407498 0.014615774 0.70663804
-0.033872824 0.012702316 0.71014863
-0.031465538 0.086005777 0.70781308
-0.031357348 0.083619624 0.70694238
-0.031257834 0.081270337 0.70614153
-0.03116115 0.078941584 0.70536345
-0.031073036 0.076646835 0.7046544
-0.030985802 0.074365914 0.70395243
-0.030908599 0.0721201 0.70333111
-0.030831782 0.069885403 0.70271295
-0.030762909 0.067678422 0.70215869
-0.0306961 0.06548503 0.70162106
-0.030634584 0.063311458 0.70112598
-0.030577669 0.061155319 0.70066804
-0.030523201 0.059011549 0.7002297
-0.030475859 0.056888282 0.69984865
-0.030428782 0.054771781 0.69946986
-0.030390462 0.052676827 0.69916147
-0.030352978 0.05058831 0.69885981
-0.030307747 0.048492402 0.69849586
-0.030236688 0.046362936 0.69792402
-0.030131927 0.044193476 0.69708091
-0.030004241 0.042005897 0.69605339
-0.029888103 0.039850831 0.69511878
-0.029796025 0.037741631 0.69437784
-0.029731935 0.035678327 0.69386208
-0.029684661 0.03364265 0.69348162
-0.029656041 0.031633139 0.69325137
-0.029655922 0.029655933 0.69325042
-0.029697228 0.027717412 0.69358277
-0.029858258 0.025877178 0.69487858
-0.030328691 0.024262965 0.69866443
-0.030382836 0.022280753 0.69910014
-0.030442111 0.020294726 0.69957709
-0.030514641 0.018308789 0.70016074
-0.030605599 0.016323 0.70089275
-0.030721985 0.014336973 0.70182931
-0.03087135 0.012348533 0.70303136
-0.031083459 0.010361135 0.70473826
-0.031423252 0.008379519 0.70747274
-0.029443013 0.086225957 0.70846123
-0.029329473 0.083798498 0.70748222
-0.029225951 0.081415147 0.70658964
-0.029124975 0.079053491 0.70571899
-0.02903299 0.076730072 0.70492595
-0.028942665 0.074424028 0.7041471
-0.028861219 0.072153032 0.7034449
-0.028780114 0.069894582 0.70274556
-0.028708164 0.067669243 0.70212525
-0.028637046 0.065456122 0.70151198
-0.028572334 0.063267291 0.70095408
-0.028510585 0.061094075 0.70042169
-0.028452566 0.05893746 0.69992143
-0.028399849 0.05679968 0.69946688
-0.028348247 0.054671645 0.69902194
-0.028304491 0.052565485 0.69864464
-0.028260872 0.050465852 0.69826853
-0.028224092 0.04838416 0.69795144
-0.028189337 0.046311051 0.69765174
-0.028150141 0.044235945 0.69731379
-0.028090315 0.042135477 0.69679797
-0.028000375 0.040000528 0.69602251
-0.027882682 0.037840784 0.69500774
-0.027769055 0.035703093 0.69402802
-0.027683893 0.033616185 0.69329375
-0.027618948 0.031564534 0.69273376
-0.027569491 0.029538751 0.69230735
-0.027538711 0.027538717 0.69204193
-0.027536111 0.02556926 0.69201958
-0.0275645 0.023626715 0.69226432
-0.027656022 0.021729738 0.69305348
-0.028141998 0.020101428 0.69724363
-0.028199095 0.018128008 0.69773591
-0.028249701 0.016142666 0.69817227
-0.028313987 0.014157027 0.69872653
-0.028395591 0.01216954 0.69943017
-0.028496552 0.010177344 0.70030063
-0.028625343 0.0081786513 0.70141107
-0.028796323 0.0061706603 0.70288539
-0.029064672 0.0041521192 0.70519912
-0.027557813 0.089032918 0.71048427
-0.027434608 0.086524546 0.70934027
-0.027315713 0.084048331 0.70823622
-0.027208423 0.081625283 0.70723999
-0.027103104 0.079224467 0.70626205
-0.027008012 0.076868981 0.70537907
-0.026914252 0.074531764 0.70450848
-0.02682955 0.072233409 0.703722
-0.026745601 0.069950044 0.70294249
-0.0266707 0.067702562 0.70224702
-0.026596107 0.065467358 0.70155436
-0.026528856 0.063261092 0.70092994
-0.026463557 0.061069727 0.70032364
-0.026402975 0.058898956 0.69976103
-0.02634619 0.056745648 0.69923377
-0.026291665 0.054605752 0.69872749
-0.026243296 0.052486569 0.69827843
-0.026195103 0.050375193 0.69783092
-0.026154341 0.048284948 0.69745243
-0.026114233 0.046202123 0.69708002
-0.026079053 0.044133782 0.69675332
-0.026047096 0.042076081 0.69645655
-0.026013242 0.040020347 0.69614226
-0.025963506 0.037946671 0.69568038
-0.02588694 0.035843492 0.69496948
-0.025779421 0.033711523 0.6939711
-0.025671573 0.031595767 0.69296968
-0.025590673 0.029527694 0.69221854
-0.025525801 0.027489334 0.69161618
-0.025475016 0.025475025 0.69114459
-0.025446711 0.023489267 0.69088173
-0.025438055 0.021524519 0.69080138
-0.025455175 0.019580901 0.69096041
-0.025523197 0.017669886 0.69159198
-0.02597657 0.015985578 0.69580173
-0.026039589 0.014021307 0.69638693
-0.026083548 0.012038559 0.69679511
-0.026141308 0.01005435 0.69733143
-0.026211677 0.0080651641 0.69798481
-0.026298575 0.0060689449 0.69879162
-0.026409084 0.0040629208 0.69981784
-0.026555499 0.0020427108 0.70117736
-0.026763206 -2.9802322e-08 0.70310599
-0.027207514 -0.0020928681 0.70723152
-0.025570581 0.08949703 0.7118181
-0.025438411 0.086914599 0.71048856
-0.025316246 0.084387451 0.70925969
-0.025202863 0.081909329 0.70811909
-0.025094161 0.079464823 0.70702565
-0.024995234 0.077068657 0.70603055
-0.024898425 0.074695289 0.70505673
-0.024811177 0.072365969 0.70417905
-0.024724843 0.070053726 0.70331067
-0.024647303 0.067780107 0.70253062
-0.024570348 0.065520942 0.70175648
-0.024501065 0.063294411 0.70105958
-0.02443297 0.061082423 0.7003746
-0.024370592 0.058895618 0.69974715
-0.024310796 0.056725204 0.69914562
-0.024254426 0.054572433 0.6985786
-0.024202611 0.052439034 0.69805735
-0.024151694 0.050316036 0.69754517
-0.024107475 0.048214972 0.6971004
-0.02406342 0.046121567 0.69665724
-0.024025002 0.044045836 0.69627076
-0.023988431 0.04197973 0.69590294
-0.02395503 0.039925069 0.69556695
-0.02392582 0.037882566 0.6952731
-0.023896493 0.035844773 0.69497806
-0.023855478 0.033795297 0.69456547
-0.023789411 0.031719208 0.69390094
-0.023694498 0.029618144 0.69294614
-0.023595519 0.027528107 0.69195056
-0.023516228 0.025475919 0.69115293
-0.023452299 0.023452312 0.6905098
-0.023403758 0.02145347 0.69002151
-0.023375059 0.019479215 0.68973285
-0.023361417 0.017521054 0.68959564
-0.023368962 0.015579313 0.68967152
-0.023416353 0.013659537 0.69014823
-0.023812054 0.011906028 0.69412869
-0.023903912 0.0099599659 0.69505268
-0.023944046 0.0079813302 0.69545639
-0.023993418 0.0059983432 0.69595307
-0.024053298 0.0040088594 0.69655544
-0.024127334 0.0020106137 0.6973002
-0.024221357 -2.9802322e-08 0.698246
-0.024345296 -0.0020287931 0.69949269
-0.024517974 -0.0040863454 0.70122969
-0.024813227 -0.0062032938 0.70419967
-0.023596464 0.090095609 0.71353841
-0.023455482 0.087425023 0.71199131
-0.023327736 0.084828138 0.71058947
-0.023206951 0.082279205 0.70926404
-0.023096031 0.079786271 0.70804679
-0.02299241 0.077338099 0.70690972
-0.022893712 0.074924856 0.70582658
-0.022803225 0.072555721 0.70483357
-0.022715231 0.070210725 0.70386803
-0.022635359 0.067906111 0.70299155
-0.022556877 0.065620035 0.70213032
-0.022485735 0.063368917 0.70134956
-0.022415953 0.061134428 0.70058382
-0.022352228 0.058928609 0.69988453
-0.022290401 0.056739181 0.69920605
-0.022232864 0.054571599 0.69857466
-0.022178663 0.052422285 0.69797987
-0.022126593 0.050287694 0.6974085
-0.02207946 0.048173368 0.69689119
-0.022032617 0.046068192 0.69637716
-0.021992208 0.043984413 0.69593376
-0.02195221 0.041908771 0.69549483
-0.021916371 0.03984797 0.6951015
-0.021883084 0.037798047 0.6947363
-0.02185172 0.035757393 0.69439209
-0.021825206 0.033729881 0.6941011
-0.021798754 0.031707287 0.69381088
-0.021764705 0.029679179 0.69343722
-0.021708306 0.02762875 0.69281834
-0.021627866 0.0255602 0.6919356
-0.021537226 0.023495167 0.69094092
-0.021460304 0.021460325 0.6900968
-0.02139798 0.019452721 0.68941283
-0.021353897 0.017471373 0.6889292
-0.021323452 0.015507936 0.68859506
-0.02130587 0.013558298 0.68840212
-0.021305788 0.011621356 0.68840122
-0.021337505 0.0096988976 0.68874925
-0.021462228 0.0078044534 0.69011796
-0.021790987 0.0059430301 0.69372559
-0.021828149 0.0039687753 0.6941334
-0.021869693 0.0019881725 0.69458938
-0.02192021 -0 0.6951437
-0.021984214 -0.0019985437 0.69584602
-0.022065032 -0.0040118098 0.69673294
-0.022167677 -0.0060457587 0.69785935
-0.022309013 -0.008112371 0.69941032
-0.022526136 -0.010239154 0.7017929
-0.021489473 0.088106871 0.71399879
-0.021348823 0.085395306 0.71230096
-0.021221874 0.082765311 0.71076858
-0.021106126 0.080203295 0.70937145
-0.020996744 0.077687979 0.70805103
-0.020896953 0.075229019 0.70684648
-0.020802947 0.072810352 0.70571172
-0.020714071 0.070427805 0.7046389
-0.020631902 0.068085313 0.70364696
-0.020552749 0.065768808 0.70269156
-0.02048015 0.063488454 0.70181519
-0.020409476 0.061228424 0.70096213
-0.020344747 0.058999777 0.70018071
-0.020281825 0.0567891 0.69942117
-0.020223785 0.054604232 0.69872063
-0.020168109 0.052437127 0.69804853
-0.020115571 0.050288886 0.69741434
-0.020066682 0.048160017 0.69682419
-0.020019073 0.046043903 0.69624949
-0.019976633 0.043948591 0.69573718
-0.019934371 0.04186219 0.69522703
-0.019897193 0.039794385 0.69477826
-0.019861178 0.037736237 0.69434357
-0.019828044 0.035690516 0.69394356
-0.019798074 0.033656746 0.69358182
-0.019768819 0.031630099 0.69322866
-0.019744948 0.029617429 0.69294047
-0.019721212 0.027609706 0.69265401
-0.019692263 0.025599927 0.69230449
-0.019645408 0.023574442 0.69173896
-0.019577917 0.021535724 0.69092423
-0.019496368 0.019496381 0.68993992
-0.019422732 0.017480463 0.68905103
-0.0193644 0.015491545 0.68834692
-0.019323045 0.013526142 0.68784773
-0.019291606 0.011574954 0.68746817
-0.0192711 0.0096355677 0.68722063
-0.019271025 0.0077084303 0.68721974
-0.019292947 0.005787909 0.68748438
-0.019358857 0.0038717985 0.68827999
-0.019697301 0.0019697547 0.69236541
-0.019735292 -0 0.69282401
-0.019769913 -0.0019770265 0.69324189
-0.01981399 -0.0039628148 0.69377393
-0.019869382 -0.0059608221 0.69444257
-0.019937629 -0.0079750717 0.69526637
-0.020024199 -0.01001206 0.69631135
-0.020138482 -0.012083083 0.69769096
-0.020309567 -0.014216721 0.69975615
-0.019491544 0.090960562 0.71602434
-0.019445503 0.088585109 0.71540678
-0.019368725 0.086083233 0.71437705
-0.019248597 0.083410621 0.71276581
-0.019122558 0.080739677 0.71107537
-0.019009385 0.078149706 0.70955747
-0.018905638 0.075622559 0.70816594
-0.018807493 0.073140234 0.70684958
-0.018718528 0.070714474 0.70565641
-0.018634178 0.068325341 0.70452505
-0.018554941 0.065973133 0.7034623
-0.018481076 0.063657045 0.70247161
-0.018410508 0.061368376 0.70152509
-0.018345181 0.059112281 0.7006489
-0.018282173 0.056877851 0.69980389
-0.018223872 0.054671645 0.69902194
-0.01816785 0.05248487 0.69827056
-0.018115448 0.050320685 0.6975677
-0.01806581 0.048175514 0.69690192
-0.018018248 0.046046615 0.69626403
-0.017974734 0.043938249 0.69568044
-0.017931575 0.041840345 0.69510156
-0.017893741 0.039763898 0.69459403
-0.017856065 0.037696153 0.69408882
-0.017822145 0.035644293 0.69363379
-0.01779004 0.0336034 0.69320321
-0.01775966 0.031572729 0.69279575
-0.017733015 0.029554993 0.69243842
-0.017706381 0.027543247 0.69208121
-0.017684754 0.025544643 0.69179118
-0.017663598 0.023551494 0.69150734
-0.017639313 0.021559209 0.6911816
-0.017601049 0.019556731 0.6906684
-0.017545227 0.017545193 0.68991977
-0.017472658 0.015531242 0.68894649
-0.017403107 0.013535738 0.68801361
-0.017351074 0.011567414 0.6873157
-0.017310787 0.00961712 0.68677533
-0.017279236 0.007679671 0.68635219
-0.017260427 0.0057534873 0.68609995
-0.017256724 0.0038348138 0.68605024
-0.017270289 0.0019189417 0.68623221
-0.017318377 -0 0.68687713
-0.017624469 -0.0019582808 0.69098258
-0.017665122 -0.0039255917 0.69152778
-0.017694414 -0.005898118 0.69192064
-0.017732736 -0.0078811944 0.69243467
-0.017779013 -0.0098772645 0.69305539
-0.01783591 -0.01189062 0.69381845
-0.017907832 -0.013928294 0.69478309
-0.018002473 -0.016002178 0.69605243
-0.018134195 -0.018134177 0.69781917
-0.018377524 -0.020419449 0.70108277
-0.01733572 0.091012537 0.71617377
-0.017279074 0.088555247 0.71531898
-0.017240152 0.086200774 0.71473169
-0.017199926 0.083849639 0.7141248
-0.017133299 0.081383198 0.71311945
-0.017028851 0.078758419 0.71154344
-0.016917299 0.076127887 0.70986027
-0.016817721 0.073577553 0.70835769
-0.016725875 0.071085006 0.70697188
-0.016638968 0.068635732 0.70566058
-0.016560562 0.066242218 0.70447749
-0.016485741 0.063882262 0.70334858
-0.016416036 0.061560124 0.70229673
-0.016350523 0.05927062 0.70130831
-0.016288316 0.057009101 0.7003696
-0.01623033 0.054777384 0.69949466
-0.016174845 0.052568257 0.69865751
-0.016122986 0.050384343 0.69787496
-0.016073588 0.048220783 0.69712961
-0.016026929 0.04607743 0.69642562
-0.01598322 0.043953836 0.69576609
-0.015940765 0.041844487 0.69512552
-0.015902389 0.03975597 0.6945464
-0.015864259 0.037677616 0.6939711
-0.015830504 0.035618633 0.69346178
-0.01579733 0.033569336 0.69296122
-0.01576684 0.031533659 0.69250119
-0.01573851 0.029509693 0.6920737
-0.015711082 0.027494431 0.69165987
-0.015687561 0.025492281 0.69130492
-0.01566411 0.023496181 0.69095111
-0.015644338 0.021510988 0.69065273
-0.015625648 0.019532055 0.6903708
-0.015605608 0.01755631 0.69006836
-0.015574943 0.015574932 0.68960571
-0.015529144 0.013588041 0.6889146
-0.015465963 0.011599481 0.68796122
-0.01540288 0.009626776 0.68700945
-0.015355432 0.0076777041 0.68629348
-0.015316947 0.0057438612 0.68571281
-0.015286121 0.0038215518 0.68524766
-0.015269503 0.0019087195 0.6849969
-0.015262575 2.9802322e-08 0.68489236
-0.015269327 -0.0019086599 0.68499428
-0.015302191 -0.0038255155 0.68549013
-0.015562773 -0.0058360696 0.68942201
-0.01561742 -0.0078087449 0.69024658
-0.015643176 -0.0097769797 0.69063514
-0.015674662 -0.011755973 0.69111031
-0.015712686 -0.013748616 0.69168407
-0.015759328 -0.015759319 0.69238782
-0.015818117 -0.017795384 0.69327492
-0.015895126 -0.019868881 0.69443685
-0.016001942 -0.022002667 0.69604856
-0.016172297 -0.024258465 0.69861907
-0.015276065 0.091656417 0.71802425
-0.015162977 0.088811725 0.71607411
-0.015094038 0.086251646 0.71488523
-0.015044634 0.083820105 0.71403337
-0.015010848 0.081487507 0.71345073
-0.014976253 0.079160213 0.71285415
-0.014919476 0.076728761 0.71187508
-0.014830027 0.074150115 0.71033257
-0.0147329 0.071559817 0.70865768
-0.014646585 0.069048166 0.70716923
-0.014566484 0.066589653 0.70578796
-0.014490731 0.064173251 0.70448166
-0.014422766 0.061811864 0.70330966
-0.014357495 0.059481084 0.70218408
-0.014297014 0.057188064 0.70114112
-0.014239817 0.054925025 0.70015478
-0.014185893 0.052690476 0.69922489
-0.014135168 0.05048275 0.69835019
-0.014087073 0.048298538 0.69752079
-0.014041665 0.046136886 0.69673777
-0.013998845 0.043996364 0.69599938
-0.013957952 0.041873872 0.6952942
-0.013920009 0.039771467 0.69463986
-0.013882712 0.037681639 0.69399673
-0.0138495 0.035612971 0.69342405
-0.013816448 0.033554226 0.69285405
-0.013786645 0.03151232 0.69234014
-0.013757889 0.029481173 0.69184422
-0.013730868 0.027461767 0.69137824
-0.013706312 0.025454611 0.6909548
-0.01368195 0.023454785 0.69053471
-0.013661564 0.021468133 0.69018316
-0.013641239 0.01948747 0.68983269
-0.013623411 0.017515838 0.68952519
-0.013607216 0.01555112 0.68924594
-0.013590847 0.013590842 0.68896365
-0.013567 0.011628896 0.68855244
-0.013529059 0.0096636415 0.68789822
-0.01347612 0.0077006221 0.68698531
-0.013421331 0.005752027 0.68604046
-0.013377246 0.0038220584 0.68528032
-0.013341272 0.0019058883 0.68465996
-0.013314392 -2.9802322e-08 0.68419641
-0.013297459 -0.0018996596 0.68390441
-0.013288277 -0.0037966371 0.6837461
-0.013289589 -0.0056955516 0.68376869
-0.01330994 -0.0076056719 0.68411958
-0.013392387 -0.0095659792 0.68554139
-0.013591426 -0.011649787 0.68897372
-0.013614038 -0.013614029 0.6893636
-0.013639433 -0.015587926 0.68980151
-0.013669935 -0.017575622 0.69032753
-0.013709101 -0.019584417 0.69100291
-0.013757781 -0.02161938 0.69184238
-0.013819282 -0.023690194 0.69290292
-0.013900563 -0.025815338 0.69430459
-0.014027607 -0.028055191 0.69649535
-0.01302978 0.086865187 0.71673685
-0.012933122 0.084065318 0.71479225
-0.012874331 0.081537455 0.71360946
-0.012832125 0.079131424 0.71276033
-0.012803447 0.076820672 0.71218336
-0.012774302 0.074516743 0.71159703
-0.012726862 0.072118908 0.71064264
-0.012651882 0.069585383 0.7091341
-0.012568985 0.067034602 0.70746636
-0.012495692 0.064561069 0.7059918
-0.01242731 0.062136561 0.70461607
-0.012362727 0.05975318 0.70331675
-0.012304861 0.057422668 0.70215261
-0.012249083 0.055120885 0.70103043
-0.012197723 0.052856803 0.69999713
-0.012148757 0.050619811 0.69901204
-0.012103013 0.048412055 0.69809175
-0.012059549 0.04622829 0.69721735
-0.012018704 0.044068605 0.69639564
-0.011979714 0.041929007 0.69561112
-0.011943398 0.039811343 0.69488055
-0.011908199 0.037709296 0.69417238
-0.011876025 0.03562808 0.69352508
-0.011844024 0.033558071 0.69288129
-0.01181573 0.031508595 0.692312
-0.011787615 0.029469073 0.69174641
-0.011761845 0.027444303 0.69122797
-0.011737473 0.025431186 0.69073766
-0.011714024 0.023428053 0.69026589
-0.01169322 0.021437585 0.68984729
-0.011672443 0.019454062 0.68942934
-0.011654679 0.017482042 0.68907195
-0.011637421 0.015516609 0.6887247
-0.0116217 0.013558656 0.68840849
-0.01160795 0.011607945 0.68813181
-0.011594186 0.0096618235 0.68785495
-0.011575722 0.0077171624 0.68748349
-0.011546029 0.0057730079 0.68688607
-0.011503204 0.0038343966 0.68602449
-0.011456278 0.001909405 0.68508041
-0.01141633 -0 0.6842767
-0.011383517 -0.0018972158 0.68361658
-0.011360686 -0.0037868619 0.68315727
-0.01134403 -0.0056720078 0.68282217
-0.011333538 -0.0075556636 0.68261111
-0.011333495 -0.0094445646 0.68261027
-0.011347545 -0.011347532 0.68289292
-0.011391291 -0.013289839 0.68377304
-0.011585462 -0.015447259 0.68767941
-0.011606647 -0.01740995 0.68810564
-0.011626605 -0.019377679 0.68850714
-0.011651966 -0.021361917 0.68901736
-0.011683662 -0.023367375 0.68965513
-0.011722395 -0.025398523 0.69043428
-0.011771253 -0.027466238 0.69141722
-0.011835433 -0.02958858 0.69270843
-0.011926697 -0.031804502 0.69454455
-0.012116787 -0.034330904 0.69836885
-0.010805344 0.082120627 0.71546203
-0.010725021 0.079365134 0.71352285
-0.010676279 0.07686922 0.71234608
-0.010641176 0.074488252 0.71149862
-0.010617557 0.072199374 0.71092844
-0.010593683 0.069918305 0.71035206
-0.010555157 0.067553014 0.70942187
-0.010494013 0.065062881 0.70794576
-0.0104254 0.062552392 0.70628929
-0.010364716 0.060115367 0.70482427
-0.010308003 0.057724863 0.70345515
-0.010254682 0.055375308 0.70216781
-0.010206612 0.053074419 0.70100731
-0.010160228 0.050801158 0.69988751
-0.010117822 0.048565537 0.69886374
-0.01007711 0.046354711 0.69788086
-0.010039301 0.044172913 0.69696808
-0.010003093 0.04201299 0.69609398
-0.0099693704 0.039877534 0.69527978
-0.0099368999 0.037760258 0.69449592
-0.0099068768 0.035664767 0.69377106
-0.009877502 0.033583522 0.69306195
-0.0098509379 0.031523019 0.6924206
-0.0098245163 0.029473543 0.69178271
-0.0098007703 0.027442157 0.69120944
-0.0097775953 0.025421739 0.69064999
-0.0097559392 0.023414314 0.69012713
-0.0097358171 0.02141881 0.68964136
-0.0097160423 0.019432068 0.68916392
-0.0096988659 0.017457962 0.68874925
-0.009681751 0.0154908 0.68833601
-0.0096666003 0.013533235 0.68797028
-0.0096523529 0.011582822 0.68762636
-0.0096389279 0.0096389055 0.68730223
-0.0096275778 0.0077021122 0.68702817
-0.0096162539 0.0057697594 0.68675482
-0.0096022654 0.0038408935 0.6864171
-0.0095791761 0.0019158423 0.68585968
-0.0095465342 -0 0.68507165
-0.0095074251 -0.0019014776 0.68412745
-0.0094724 -0.0037889481 0.6832819
-0.0094446149 -0.0056667626 0.68261105
-0.0094245831 -0.0075396597 0.68212748
-0.0094089881 -0.0094089806 0.68175101
-0.009398913 -0.011278689 0.68150771
-0.009398031 -0.013157248 0.68148643
-0.0094064409 -0.015050322 0.6816895
-0.0094336104 -0.016980499 0.68234545
-0.0095996121 -0.019199193 0.68635309
-0.0096206544 -0.021165431 0.68686104
-0.0096362922 -0.023127109 0.68723863
-0.0096566752 -0.025107354 0.68773067
-0.0096811512 -0.027107239 0.68832159
-0.0097110644 -0.029133201 0.68904376
-0.0097486395 -0.031195641 0.68995094
-0.0097977761 -0.03331244 0.69113719
-0.0098657785 -0.035516828 0.69277889
-0.0099813426 -0.037929118 0.69556886
-0.0086024022 0.077421606 0.71419841
-0.0085383262 0.074710369 0.71226472
-0.0084995646 0.072246253 0.71109498
-0.0084715746 0.069890499 0.71025032
-0.0084528262 0.067622602 0.70968455
-0.0084340554 0.065363914 0.70911807
-0.0084040584 0.063030452 0.70821285
-0.0083561987 0.060582459 0.70676851
-0.0083018504 0.058112979 0.70512843
-0.0082534757 0.055710942 0.70366859
-0.0082082534 0.053353637 0.70230395
-0.0081659891 0.051037461 0.70102841
-0.008127654 0.048765928 0.6998716
-0.008090659 0.046521306 0.69875515
-0.0080570467 0.044313759 0.69774079
-0.0080245165 0.042128712 0.69675916
-0.0079945466 0.039972723 0.69585472
-0.0079656243 0.037836701 0.69498187
-0.0079388935 0.035725027 0.69417518
-0.0079128733 0.033629715 0.69339001
-0.0078891069 0.031556457 0.69267273
-0.0078655444 0.029495806 0.69196171
-0.0078444881 0.027455688 0.69132632
-0.0078235446 0.025426507 0.69069427
-0.0078044469 0.02341336 0.69011796
-0.0077860481 0.021411657 0.68956268
-0.0077686105 0.019421518 0.68903649
-0.0077526611 0.017443508 0.68855512
-0.0077367476 0.015473485 0.68807495
-0.0077230451 0.013515294 0.68766141
-0.007709479 0.011564195 0.68725204
-0.007697145 0.0096214414 0.68687987
-0.0076858541 0.0076858401 0.68653905
-0.007674831 0.0057561398 0.68620646
-0.0076658363 0.0038329065 0.68593502
-0.0076568616 0.0019142032 0.68566418
-0.007646448 -0 0.68534988
-0.0076295994 -0.0019074082 0.68484151
-0.0076055937 -0.0038028061 0.68411702
-0.0075746216 -0.0056810081 0.68318236
-0.00754521 -0.007545203 0.68229473
-0.007523173 -0.009403944 0.68162972
-0.007505849 -0.011258781 0.68110698
-0.0074919974 -0.013110995 0.68068898
-0.0074840132 -0.014968038 0.680448
-0.0074815517 -0.016833484 0.68037367
-0.0074856929 -0.018714249 0.68049872
-0.0075026983 -0.020632416 0.68101192
-0.0076310835 -0.02289325 0.68488622
-0.0076557193 -0.024881065 0.68562973
-0.007668097 -0.026838362 0.68600327
-0.007683198 -0.028811991 0.68645895
-0.0077012619 -0.030805051 0.68700409
-0.0077233133 -0.032824069 0.68766952
-0.00775128 -0.034880757 0.68851346
-0.0077869263 -0.036987901 0.6895892
-0.0078363493 -0.039181739 0.69108069
-0.0079105599 -0.04153043 0.69332016
-0.0064207278 0.072768241 0.71294802
-0.0063728062 0.070100874 0.71101981
-0.0063438797 0.067668051 0.70985591
-0.0063229566 0.065337211 0.70901406
-0.006309031 0.063090324 0.70845377
-0.006295193 0.060853541 0.70789689
-0.006273278 0.058550566 0.70701516
-0.0062381867 0.056143731 0.70560312
-0.0061977748 0.053714067 0.70397711
-0.0061616488 0.051347077 0.70252347
-0.0061278669 0.049022943 0.70116425
-0.006096459 0.046739489 0.69990051
-0.0060677733 0.044497013 0.69874632
-0.0060401103 0.042280793 0.69763315
-0.0060151317 0.040100873 0.69662815
-0.0059907651 0.037941515 0.69564772
-0.0059685176 0.035811126 0.69475251
-0.0059468108 0.033698618 0.69387913
-0.0059269695 0.031610548 0.69308078
-0.0059074461 0.029537201 0.69229519
-0.0058897603 0.027485579 0.69158357
-0.0058722035 0.025446206 0.69087714
-0.0058564181 0.023425698 0.69024199
-0.005840831 0.021416366 0.68961483
-0.0058264346 0.019421458 0.68903553
-0.0058127842 0.017438352 0.68848634
-0.0057996013 0.015465617 0.68795586
-0.0057877279 0.013504714 0.68747807
-0.005775902 0.011551827 0.68700224
-0.0057654977 0.0096091926 0.68658364
-0.005755417 0.0076739192 0.68617797
-0.0057459879 0.0057459772 0.68579865
-0.0057376195 0.0038250685 0.68546188
-0.0057292543 0.0019097626 0.68512529
-0.0057224617 -0 0.684852
-0.0057157935 -0.0019052625 0.68458366
-0.0057085557 -0.003805697 0.68429244
-0.0056970511 -0.0056970417 0.68382955
-0.0056803431 -0.0075737834 0.68315732
-0.0056576701 -0.0094294846 0.68224502
-0.0056351773 -0.011270374 0.68133998
-0.0056182197 -0.013109148 0.68065763
-0.0056042504 -0.014944643 0.68009555
-0.005593183 -0.016779542 0.67965019
-0.005586917 -0.018623054 0.67939806
-0.0055837785 -0.020473838 0.67927182
-0.0055850046 -0.02234 0.67932111
-0.0055942875 -0.024241894 0.67969465
-0.0056302105 -0.026274294 0.68114012
-0.0057113785 -0.028556913 0.68440604
-0.0057206945 -0.030510366 0.68478084
-0.0057311351 -0.032476425 0.68520105
-0.0057435692 -0.034461379 0.68570131
-0.0057596792 -0.036477983 0.68634951
-0.0057794601 -0.038529724 0.68714541
-0.0058043115 -0.040630192 0.68814534
-0.0058368794 -0.042803794 0.68945581
-0.00591753 -0.045367718 0.69270092
-0.0042599672 0.068159461 0.71170974
-0.00422811 0.065535694 0.70978689
-0.0042089219 0.063133806 0.70862883
-0.004195001 0.060827523 0.70778859
-0.0041858237 0.058601558 0.70723474
-0.0041767391 0.056385994 0.70668644
-0.0041625276 0.054112881 0.70582867
-0.0041396436 0.051745534 0.70444751
-0.0041129487 0.049355388 0.70283633
-0.0040889671 0.047023147 0.7013889
-0.004066519 0.044731736 0.70003402
-0.004045771 0.042480648 0.69878179
-0.0040267077 0.04026708 0.69763124
-0.0040083532 0.038079351 0.69652343
-0.0039918204 0.035926372 0.69552559
-0.003975613 0.033792675 0.69454741
-0.0039609 0.03168717 0.69365942
-0.0039464515 0.029598385 0.69278735
-0.0039333282 0.027533293 0.69199526
-0.0039203078 0.025481999 0.69120944
-0.0039086402 0.023451865 0.69050521
-0.0038970262 0.021433681 0.68980426
-0.0038864773 0.019432396 0.68916762
-0.0038761804 0.017442822 0.68854612
-0.0038665356 0.015466124 0.68796396
-0.0038575036 0.013501257 0.68741888
-0.0038486465 0.011545986 0.68688428
-0.0038408178 0.0096020401 0.6864118
-0.0038330059 0.0076660514 0.68594027
-0.0038259719 0.0057389736 0.68551576
-0.0038193131 0.0038193166 0.68511385
-0.003812925 0.0019064844 0.68472826
-0.0038073831 -0 0.68439382
-0.0038018723 -0.0019009411 0.68406117
-0.0037971982 -0.0037972033 0.68377912
-0.0037927942 -0.0056891441 0.68351328
-0.0037883145 -0.0075766444 0.68324298
-0.003781429 -0.0094535649 0.68282735
-0.0037708706 -0.011312574 0.68219006
-0.0037563762 -0.013147295 0.6813153
-0.003741503 -0.014966011 0.6804176
-0.0037294971 -0.016782731 0.67969298
-0.0037195582 -0.018597782 0.67909312
-0.0037122453 -0.020417362 0.67865175
-0.0037073903 -0.022244304 0.67835879
-0.0037044396 -0.024078876 0.67818063
-0.0037044261 -0.025930971 0.6781798
-0.0037093691 -0.027820259 0.67847818
-0.0037252766 -0.029802203 0.67943823
-0.0037871676 -0.032190919 0.68317372
-0.0037937574 -0.034143835 0.68357146
-0.0038001251 -0.036101192 0.68395579
-0.0038082525 -0.03808248 0.68444628
-0.0038183224 -0.040092379 0.68505406
-0.0038403019 -0.042243332 0.68638062
-0.0038569979 -0.044355512 0.68738836
-0.003878915 -0.046546996 0.68871117
-0.0039126901 -0.048908621 0.69074965
-0.0021198229 0.063594639 0.71048319
-0.0021039387 0.061014205 0.70856583
-0.0020943924 0.058642983 0.70741343
-0.0020874722 0.056361765 0.70657808
-0.0020829013 0.054155409 0.70602638
-0.0020784456 0.051961154 0.7054885
-0.0020715271 0.049716651 0.70465338
-0.0020603358 0.047387719 0.70330244
-0.0020471183 0.045036614 0.70170695
-0.0020351699 0.042738587 0.70026469
-0.00202399 0.040479779 0.69891512
-0.0020137103 0.03826049 0.69767427
-0.0020042006 0.036075652 0.69652629
-0.0019951062 0.033916801 0.69542861
-0.0019868591 0.03178978 0.69443303
-0.0019787662 0.029681474 0.69345617
-0.0019714762 0.027600676 0.69257611
-0.0019642552 0.025535345 0.69170451
-0.0019577611 0.023493141 0.69092059
-0.0019513019 0.021464318 0.69014084
-0.0019454601 0.019454628 0.68943572
-0.0019397131 0.017457426 0.68874204
-0.0019344188 0.015475363 0.68810296
-0.0019293169 0.01350522 0.68748707
-0.0019244639 0.011546791 0.68690121
-0.0019199962 0.0095999837 0.68636197
-0.0019155493 0.0076622069 0.68582523
-0.0019116557 0.0057349801 0.68535519
-0.0019077854 0.0038155615 0.68488795
-0.0019042277 0.0019042194 0.68445849
-0.0019009217 -0 0.68405944
-0.0018976773 -0.0018976629 0.68366784
-0.001894932 -0.0037898421 0.6833365
-0.0018921946 -0.0056765676 0.68300599
-0.0018897933 -0.0075592101 0.68271619
-0.0018876117 -0.0094380677 0.68245286
-0.001885414 -0.011312455 0.6821875
-0.0018823426 -0.013176411 0.68181682
-0.0018774974 -0.015019983 0.68123192
-0.0018706117 -0.016835511 0.68040073
-0.0018631724 -0.018631727 0.67950273
-0.0018568321 -0.020425171 0.6787374
-0.0018515482 -0.022218555 0.67809957
-0.0018479238 -0.024022996 0.67766207
-0.0018451572 -0.025832206 0.67732811
-0.0018432676 -0.027649045 0.6771
-0.0018432607 -0.02949214 0.67709917
-0.0018451029 -0.031366736 0.67732149
-0.0018506238 -0.033311218 0.67798793
-0.0018830439 -0.035777837 0.68190145
-0.001886964 -0.037739277 0.6823746
-0.0018932613 -0.039758503 0.68313479
-0.0018978356 -0.041752398 0.68368697
-0.0019028807 -0.04376626 0.68429595
-0.0019090374 -0.045816839 0.6850391
-0.0019167747 -0.047919363 0.68597305
-0.0019268873 -0.050099075 0.68719375
-0.0019409849 -0.052406579 0.68889546
-0.0019692339 -0.055138499 0.69230545
0 0.05907324 0.70926833
0 0.05653584 0.70735633
0 0.054194927 0.70620966
0 0.05193913 0.70538223
0 0.049751908 0.70483053
0 0.047577977 0.70430082
0 0.045361191 0.70348799
0 0.043069839 0.70216882
0 0.040756792 0.7005868
0 0.038492858 0.69915062
0 0.036266387 0.6978054
0 0.034078479 0.69657671
0 0.031922221 0.69543236
0 0.029791802 0.69434357
0 0.02769047 0.69335037
0 0.025608093 0.69238031
0 0.023551136 0.69150364
0 0.021509647 0.69063795
0 0.019489318 0.68985462
0 0.017482877 0.68908286
0 0.015493423 0.68837589
0 0.013516873 0.68768841
0 0.011554033 0.687047
0 0.0096031129 0.68643761
0 0.0076630116 0.68584907
0 0.005733937 0.68531376
0 0.003813833 0.68478179
0 0.0019029975 0.68430734
0 -0 0.68384522
0 -0.0018955469 0.68341011
0 -0.0037845373 0.68301463
0 -0.005667001 0.68262142
0 -0.0075449944 0.68228877
0 -0.0094176829 0.68196136
0 -0.011286378 0.68166304
0 -0.013152361 0.68140209
0 -0.015013993 0.68114179
0 -0.016865879 0.68080831
0 -0.018694937 0.68026578
0 -0.020494044 0.67949355
0 -0.022267848 0.67859519
0 -0.024036676 0.67778897
0 -0.025811553 0.67715007
0 -0.02759698 0.6766811
0 -0.029387206 0.67630696
0 -0.031191349 0.67607605
0 -0.033019096 0.67602897
0 -0.034876645 0.67617601
0 -0.036799848 0.67670482
0 -0.039441913 0.68131518
0 -0.04137665 0.68162549
0 -0.04332599 0.68198538
0 -0.045303881 0.68245882
0 -0.047308654 0.68302417
0 -0.049349308 0.68371302
0 -0.05144015 0.68457496
0 -0.053605825 0.68569773
0 -0.05589202 0.68724489
0 -0.058456749 0.68980974
0.002099789 0.054594517 0.70806491
0.0020839944 0.052099884 0.70615828
0.0020745418 0.049789011 0.70501727
0.0020677519 0.047558308 0.70419765
0.0020631733 0.045389801 0.70364493
0.002058869 0.043236256 0.70312536
0.002052316 0.041046292 0.7023344
0.0020416304 0.038791001 0.7010445
0.0020286429 0.036515623 0.69947678
0.0020167865 0.034285367 0.69804561
0.0020056949 0.032091141 0.69670671
0.0019955996 0.029934019 0.6954881
0.0019861495 0.027806133 0.69434732
0.0019772102 0.025703728 0.6932683
0.0019689936 0.023627907 0.69227648
0.0019610373 0.021571368 0.69131613
0.0019537783 0.019537777 0.69043982
0.0019466711 0.01752007 0.68958187
0.0019401871 0.015521467 0.68879926
0.0019338431 0.0135369 0.68803346
0.0019279862 0.011567891 0.68732643
0.0019223345 0.0096116662 0.6866442
0.0019170097 0.0076680481 0.68600142
0.0019120064 0.0057360232 0.68539751
0.0019071018 0.0038141906 0.68480551
0.0019027144 0.0019027293 0.68427587
0.0018983469 -0 0.68374866
0.0018943796 -0.0018944144 0.6832698
0.001890586 -0.0037811697 0.68281186
0.0018869354 -0.0056608021 0.6823712
0.0018836962 -0.0075347722 0.68198013
0.0018804609 -0.0094023049 0.6815896
0.0018776453 -0.011265844 0.68124974
0.0018749576 -0.013124675 0.68092531
0.0018724247 -0.014979362 0.68061954
0.0018702829 -0.01683256 0.68036103
0.0018681462 -0.018681437 0.68010306
0.0018656178 -0.02052179 0.67979789
0.0018614464 -0.022337377 0.67929441
0.0018556408 -0.024123341 0.67859358
0.0018482038 -0.025874853 0.67769587
0.001841192 -0.027617872 0.67684948
0.0018359429 -0.029375076 0.67621589
0.0018317421 -0.031139612 0.67570877
0.0018283151 -0.032909691 0.67529511
0.0018264198 -0.034701973 0.67506635
0.0018644081 -0.037288159 0.67965186
0.0018654091 -0.039173573 0.67977273
0.0018669334 -0.041072518 0.67995667
0.0018686556 -0.042979091 0.68016458
0.0018710174 -0.044904441 0.68044972
0.0018739605 -0.046848983 0.68080497
0.001877596 -0.048817486 0.68124378
0.0018819319 -0.050812185 0.68176723
0.0018871918 -0.052841336 0.68240213
0.0018939136 -0.054923475 0.68321353
0.0019024176 -0.05707255 0.6842401
0.0019139298 -0.059331834 0.68562967
0.001931417 -0.061805367 0.68774062
0.0041798097 0.050157726 0.70687175
0.0041483096 0.047705561 0.7049706
0.0041295136 0.04542467 0.70383614
0.0041160616 0.043218642 0.70302421
0.0041069062 0.041069061 0.70247161
0.0040983949 0.038934767 0.70195794
0.0040856116 0.036770493 0.70118642
0.0040648174 0.034550965 0.69993138
0.0040390762 0.032312632 0.69837773
0.0040154462 0.030115843 0.69695151
0.0039933338 0.027953357 0.6956169
0.0039733397 0.025826722 0.6944102
0.0039544823 0.02372691 0.69327205
0.0039367634 0.021652192 0.69220263
0.0039203693 0.019601852 0.69121313
0.0039045988 0.017570674 0.69026136
0.0038900881 0.015560359 0.68938547
0.0038760155 0.013566047 0.68853617
0.0038630278 0.01158905 0.68775231
0.0038504682 0.0096261799 0.68699419
0.0038387256 0.0076774657 0.6862855
0.0038275376 0.005741328 0.68561023
0.0038168514 0.0038168728 0.68496525
0.0038069342 0.0019034743 0.6843667
0.0037970827 -0 0.68377215
0.0037883865 -0.001894176 0.68324721
0.0037797152 -0.0037797093 0.68272388
0.0037717232 -0.0056576133 0.68224156
0.003764204 -0.0075283945 0.68178773
0.003756813 -0.0093920231 0.68134165
0.0037503929 -0.011251181 0.68095422
0.0037439947 -0.013103992 0.68056798
0.0037382464 -0.014952958 0.68022102
0.0037329197 -0.016798139 0.67989957
0.0037277192 -0.018638611 0.6795857
0.0037234749 -0.020479113 0.67932951
0.00371924 -0.022315443 0.67907393
0.0037145466 -0.02414456 0.67879063
0.0037069232 -0.025948465 0.67833054
0.0036960798 -0.0277206 0.67767608
0.003681612 -0.02945292 0.67680287
0.0036673239 -0.031172276 0.67594051
0.0036565235 -0.032908708 0.67528862
0.0036480059 -0.034656078 0.67477459
0.0037090667 -0.037090659 0.67845988
0.0037096443 -0.038951278 0.67849475
0.0037107586 -0.040818363 0.67856205
0.0037126169 -0.042695105 0.67867416
0.0037153049 -0.044583648 0.67883635
0.0037185352 -0.046481669 0.67903137
0.0037229345 -0.048398167 0.67929685
0.0037285802 -0.050335854 0.67963767
0.0037352883 -0.052294046 0.68004251
0.0037433363 -0.054278404 0.68052828
0.0037535583 -0.056303382 0.68114519
0.0037660738 -0.058374137 0.68190056
0.0037818719 -0.06050995 0.68285412
0.0038025656 -0.062742352 0.68410307
0.0038327712 -0.065157086 0.68592614
0.0038998057 -0.068246543 0.68997204
0.0062403656 0.045762688 0.7056908
0.0061932486 0.043352753 0.70379502
0.006165192 0.041101277 0.70266604
0.0061452021 0.038919598 0.70186174
0.0061314711 0.036788851 0.70130926
0.0061188494 0.034673482 0.70080149
0.0061001503 0.032534152 0.70004898
0.0060697608 0.030348778 0.69882625
0.0060315183 0.028147101 0.6972875
0.0059962212 0.025983632 0.69586718
0.0059631825 0.023852706 0.69453782
0.0059334589 0.021756023 0.69334185
0.005905238 0.019684106 0.69220632
0.0058788955 0.017636657 0.69114643
0.0058543626 0.015611649 0.69015926
0.0058308933 0.013605416 0.689215
0.0058091856 0.011618376 0.6883415
0.0057882406 0.0096471012 0.68749875
0.0057687769 0.0076917112 0.6867156
0.0057500815 0.0057501197 0.68596333
0.0057324702 0.0038217008 0.68525469
0.0057158158 0.0019052625 0.68458462
0.0056997547 -0 0.68393838
0.0056850114 -0.0018950105 0.68334508
0.0056703221 -0.0037801862 0.68275404
0.0056572221 -0.005657196 0.68222696
0.0056443522 -0.0075258315 0.68170917
0.0056322594 -0.0093870461 0.68122256
0.0056210603 -0.011242121 0.68077195
0.0056099263 -0.013089836 0.68032396
0.0056003197 -0.014934182 0.67993736
0.0055908081 -0.016772419 0.67955464
0.0055820341 -0.018606782 0.6792016
0.005574116 -0.020438433 0.67888308
0.0055662203 -0.022264868 0.67856532
0.0055598086 -0.024092495 0.67830735
0.0055535142 -0.025916398 0.67805409
0.005547029 -0.027735144 0.67779315
0.0055366559 -0.029528826 0.67737579
0.0055212197 -0.031286955 0.67675471
0.0055004014 -0.033002406 0.67591697
0.005540723 -0.035091221 0.67753941
0.0055384743 -0.03692314 0.67744887
0.0055376361 -0.038763434 0.67741519
0.0055370233 -0.04060486 0.67739058
0.0055378815 -0.042457104 0.67742503
0.0055391281 -0.044313043 0.67747521
0.0055418685 -0.046182245 0.67758548
0.0055453898 -0.04806003 0.67772722
0.0055501875 -0.049951702 0.67792022
0.0055562691 -0.051858515 0.67816496
0.0055641569 -0.053786844 0.67848229
0.005573371 -0.055733681 0.67885303
0.0055851913 -0.057713628 0.67932862
0.0055994629 -0.059727609 0.67990291
0.0056170216 -0.061787248 0.68060946
0.0056389244 -0.063907802 0.68149072
0.0056674108 -0.06611979 0.68263692
0.0057069492 -0.068483382 0.68422782
0.0057759462 -0.0712367 0.68700409
0.0082817199 0.041408598 0.70452094
0.0082190735 0.039040625 0.70263046
0.0081818458 0.036818326 0.70150697
0.0081554409 0.034660637 0.70071012
0.008137105 0.032548428 0.70015675
0.0081204651 0.030451745 0.69965464
0.0080961902 0.028336644 0.69892204
0.0080567226 0.02618435 0.69773102
0.0080062198 0.024018675 0.69620693
0.0079593519 0.021888196 0.69479263
0.00791544 0.019788593 0.6934675
0.0078761606 0.017721415 0.69228208
0.0078386813 0.015677363 0.69115108
0.0078038685 0.013656765 0.69010043
0.0077712042 0.011656791 0.68911475
0.0077401889 0.0096752346 0.68817878
0.0077112615 0.0077112913 0.68730581
0.0076835817 0.0057626963 0.68647051
0.0076576234 0.0038287938 0.68568712
0.0076329461 0.0019082427 0.68494248
0.0076094107 -0 0.68423223
0.0075874291 -0.0018968582 0.68356889
0.0075659454 -0.0037829876 0.68292052
0.0075464328 -0.0056598186 0.68233168
0.0075270487 -0.0075270534 0.68174672
0.0075094821 -0.0093868673 0.6812166
0.0074924459 -0.011238664 0.68070251
0.0074761859 -0.013083339 0.68021178
0.0074614137 -0.014922827 0.679766
0.0074467002 -0.016755074 0.67932194
0.0074337008 -0.018584222 0.67892969
0.0074211317 -0.020408094 0.67855036
0.0074092085 -0.022227645 0.67819059
0.007398746 -0.024045914 0.6778748
0.0073883394 -0.025859177 0.67756081
0.0073795132 -0.027673185 0.67729449
0.007371197 -0.029484779 0.67704344
0.0073627634 -0.031291753 0.67678893
0.0073504867 -0.033077151 0.67641854
0.0073618158 -0.034968615 0.67676038
0.0073566204 -0.036783069 0.67660356
0.0073533771 -0.038605243 0.67650568
0.0073501896 -0.040426046 0.67640948
0.0073488941 -0.042256147 0.67637044
0.0073478422 -0.044087023 0.67633867
0.0073487326 -0.045929581 0.67636549
0.0073498935 -0.047774285 0.6764006
0.0073534572 -0.049635798 0.67650813
0.0073575121 -0.051502615 0.6766305
0.0073637925 -0.053387463 0.67681998
0.007371278 -0.05528456 0.67704594
0.0073809829 -0.057202607 0.67733878
0.0073928698 -0.059142947 0.67769748
0.0074075903 -0.061112642 0.67814171
0.007425427 -0.063116103 0.67867994
0.0074470602 -0.065161765 0.67933285
0.007474008 -0.067266107 0.6801461
0.0075088907 -0.069457263 0.68119872
0.0075566904 -0.071788549 0.68264127
0.0076307054 -0.074399382 0.68487483
0.01030414 0.037094921 0.70336181
0.010226053 0.034768581 0.70147669
0.010179741 0.03257516 0.70035863
0.010147042 0.030441135 0.69956917
0.010124128 0.028347522 0.69901603
0.010103563 0.026269257 0.69851947
0.010073904 0.024177372 0.6978035
0.010025903 0.022056997 0.6966446
0.0099634547 0.019926935 0.69513696
0.0099050729 0.01782915 0.69372749
0.0098503949 0.01576066 0.69240749
0.0098017296 0.01372245 0.69123256
0.0097549884 0.011705965 0.69010419
0.009711856 0.0097118616 0.68906283
0.0096711218 0.0077369213 0.68807948
0.0096326936 0.0057795942 0.68715173
0.0095965564 0.0038386285 0.6862793
0.0095622977 0.0019124448 0.68545222
0.009529843 -0 0.68466872
0.0094992304 -0.0018998384 0.68392968
0.0094697829 -0.003787905 0.68321872
0.0094425473 -0.0056655109 0.68256116
0.0094156452 -0.0075325072 0.68191171
0.0093914689 -0.0093914568 0.68132806
0.009367452 -0.011240929 0.68074822
0.0093453368 -0.013083458 0.68021429
0.0093242638 -0.014918804 0.67970556
0.009303771 -0.016746819 0.67921084
0.0092854695 -0.01857093 0.67876893
0.0092672054 -0.020387888 0.6783281
0.0092507573 -0.022201836 0.67793095
0.0092351856 -0.024011493 0.67755508
0.0092200404 -0.025816143 0.67718941
0.0092070783 -0.027621239 0.67687649
0.0091941524 -0.0294213 0.6765644
0.0091828136 -0.031221539 0.67629063
0.009185073 -0.033066273 0.67634523
0.0091751358 -0.034865499 0.67610526
0.0091668656 -0.036667407 0.67590559
0.0091602197 -0.038472921 0.67574519
0.0091537843 -0.040276676 0.6755898
0.0091492981 -0.04208675 0.67548156
0.0091453521 -0.043897659 0.67538625
0.0091432128 -0.045716077 0.67533463
0.0091418764 -0.047537744 0.67530233
0.0091424445 -0.049369216 0.67531604
0.0091438815 -0.051205724 0.67535079
0.0091475928 -0.053056031 0.67544031
0.0091520762 -0.054912448 0.67554861
0.0091596162 -0.056789637 0.67573059
0.0091682095 -0.058676511 0.67593807
0.0091794105 -0.060584128 0.6762085
0.0091938488 -0.062518179 0.67655706
0.0092110103 -0.064477056 0.67697138
0.0092316419 -0.066467851 0.67746949
0.0092574321 -0.068504989 0.67809212
0.0092893662 -0.070599169 0.67886311
0.009329549 -0.072770536 0.67983317
0.0093821352 -0.075057119 0.68110275
0.0094624758 -0.077592298 0.68304235
0.012307888 0.032821059 0.70221353
0.012214446 0.030536115 0.7003336
0.012159139 0.028371364 0.6992209
0.012120261 0.026260585 0.69843876
0.012092775 0.024185568 0.69788575
0.012068324 0.022125244 0.69739377
0.012033542 0.02005592 0.69669408
0.011977611 0.017966419 0.69556886
0.011903383 0.015871197 0.69407547
0.011833613 0.013805896 0.69267178
0.011768578 0.011768579 0.69136339
0.011710323 0.0097585917 0.69019151
0.011654408 0.0077696145 0.68906647
0.011603104 0.0058015585 0.68803436
0.011554339 0.0038514137 0.68705332
0.011508627 0.0019181073 0.68613362
0.011465335 -0 0.68526268
0.01142454 -0.0019041002 0.68444198
0.011385589 -0.0037951767 0.6836583
0.01134922 -0.0056746304 0.68292654
0.011313848 -0.0075425506 0.68221498
0.011281409 -0.0094011724 0.6815623
0.011249198 -0.011249155 0.68091428
0.011220314 -0.013090342 0.6803332
0.011191745 -0.014922351 0.67975843
0.011165065 -0.016747594 0.67922169
0.011139959 -0.018566579 0.67871654
0.011115212 -0.020377874 0.67821872
0.011093402 -0.022186786 0.67777991
0.011071719 -0.023988724 0.67734373
0.011051748 -0.025787413 0.67694193
0.011033186 -0.027582943 0.67656845
0.011014727 -0.029372603 0.67619711
0.010999311 -0.031164706 0.67588693
0.010998787 -0.032996386 0.67587644
0.010984943 -0.034785658 0.67559791
0.010972657 -0.036575526 0.67535073
0.010960479 -0.038361669 0.67510569
0.010950645 -0.040152341 0.67490792
0.010942263 -0.041945308 0.67473924
0.010934611 -0.043738425 0.67458534
0.010928719 -0.045536309 0.67446673
0.010923987 -0.047337264 0.67437154
0.010920848 -0.049143791 0.67430842
0.010919259 -0.050956547 0.67427647
0.010919259 -0.052776426 0.67427647
0.010920967 -0.054604858 0.67431086
0.010924583 -0.056443661 0.67438352
0.010929913 -0.058292866 0.67449081
0.010937957 -0.060158759 0.67465264
0.01094733 -0.062034875 0.67484123
0.010960559 -0.063936591 0.67510736
0.010976509 -0.06585905 0.67542821
0.010995685 -0.067806751 0.67581409
0.011019498 -0.069790155 0.67629313
0.011048779 -0.07181704 0.67688215
