# .PCD v0.7 - Point Cloud Data file format
VERSION 0.7
FIELDS x y z
SIZE 4 4 4
TYPE F F F
COUNT 1 1 1
WIDTH 1338
HEIGHT 1
VIEWPOINT 0 0 0 1 0 0 0
POINTS 1338
DATA ascii
-0.040437385 0.085367799 0.72577709
-0.040127683 0.082484722 0.72370011
-0.039953943 0.079907924 0.72253501
-0.039789785 0.077369004 0.72143412
-0.039636038 0.074868083 0.72040313
-0.039487805 0.072394282 0.71940899
-0.039352365 0.06995976 0.71850067
-0.039222803 0.067550391 0.71763188
-0.039102405 0.065170705 0.71682447
-0.038990851 0.062818617 0.71607637
-0.038886141 0.060489565 0.71537411
-0.038792677 0.058189034 0.71474743
-0.038706154 0.055908918 0.71416712
-0.038630117 0.053652942 0.71365726
-0.038562469 0.051416636 0.71320355
-0.038506906 0.049203277 0.71283096
-0.038458563 0.047004908 0.71250677
-0.038426895 0.044831365 0.7122944
-0.03840543 0.042672694 0.71215045
-0.038396262 0.040529341 0.712089
-0.038407721 0.038407743 0.71216583
-0.037417304 0.035338551 0.70552391
-0.037372589 0.033220083 0.70522404
-0.037417147 0.031181008 0.70552289
-0.038594525 0.030017972 0.7134186
-0.038770802 0.028001159 0.71460068
-0.039049514 0.026032984 0.71646976
-0.039797343 0.024320573 0.7214849
-0.038033932 0.085017025 0.72466272
-0.037846938 0.082372755 0.72333497
-0.037666772 0.079764932 0.72205567
-0.03750005 0.077205986 0.72087181
-0.037339713 0.074679404 0.71973336
-0.037188057 0.072188586 0.71865654
-0.037045695 0.069733083 0.71764559
-0.036908738 0.067304194 0.71667314
-0.036783289 0.064911664 0.7157824
-0.036663111 0.062542945 0.71492904
-0.036551885 0.060203135 0.71413928
-0.036447886 0.057887822 0.71340084
-0.036351472 0.055596381 0.71271622
-0.036264062 0.053329527 0.71209556
-0.036182616 0.051081359 0.71151721
-0.036112566 0.048858166 0.71101987
-0.036048595 0.046651095 0.71056557
-0.035995964 0.044465661 0.71019185
-0.035951085 0.042295426 0.7098732
-0.035919808 0.040145695 0.70965111
-0.035348549 0.037427872 0.70559478
-0.035198476 0.03519848 0.70452917
-0.035075825 0.033012509 0.70365834
-0.034983214 0.030867577 0.70300066
-0.03493049 0.028766274 0.70262635
-0.034950871 0.02672717 0.70277107
-0.036045846 0.02544412 0.71054602
-0.036195241 0.023420483 0.71160686
-0.036431182 0.021430135 0.71328223
-0.036908418 0.019539773 0.71667087
-0.035792165 0.085006356 0.72462893
-0.035599422 0.082323641 0.72317481
-0.035418145 0.079690814 0.72180718
-0.035246305 0.07710132 0.72051072
-0.035080735 0.074546576 0.71926165
-0.034927227 0.072037429 0.71810353
-0.03477959 0.069559187 0.71698964
-0.034640089 0.067115158 0.7159372
-0.034508687 0.064703792 0.71494585
-0.034382712 0.062318683 0.71399546
-0.034266744 0.059966832 0.71312058
-0.034155346 0.057637155 0.71228015
-0.03405321 0.055336475 0.71150959
-0.033956438 0.053056985 0.71077949
-0.033867806 0.050801694 0.71011078
-0.033786476 0.04856807 0.70949721
-0.033710364 0.04635179 0.70892298
-0.03364576 0.044160098 0.7084356
-0.033585347 0.041981697 0.7079798
-0.033535827 0.0398238 0.7076062
-0.033301331 0.037464023 0.70583707
-0.033127975 0.03519848 0.70452917
-0.032953024 0.032953054 0.70320928
-0.032809198 0.030758619 0.70212424
-0.032690097 0.028603852 0.70122564
-0.032597587 0.026485533 0.70052773
-0.032540746 0.024405539 0.70009887
-0.0325385 0.022370219 0.70008194
-0.032727249 0.020454496 0.70150596
-0.033678174 0.018943965 0.70868015
-0.033875976 0.016938001 0.71017247
-0.034218851 0.014970779 0.7127592
-0.033981759 0.088352621 0.72806203
-0.033578873 0.085066468 0.72481984
-0.033382621 0.082343787 0.72324055
-0.033199366 0.079678506 0.72176582
-0.033023492 0.077054799 0.7203505
-0.032856949 0.074475765 0.71901017
-0.032699768 0.071939498 0.7177453
-0.032548174 0.069436133 0.71652538
-0.032407355 0.066975206 0.71539217
-0.032271907 0.064543813 0.71430218
-0.032144062 0.062145203 0.71327335
-0.032023095 0.059776425 0.71229994
-0.031907648 0.057433784 0.71137083
-0.031801112 0.055121928 0.71051353
-0.0316981 0.052830189 0.70968455
-0.031604666 0.050567448 0.70893264
-0.031515088 0.048323125 0.70821178
-0.03143378 0.046102881 0.70755744
-0.031358395 0.043901742 0.70695078
-0.031288456 0.041717917 0.70638794
-0.03117707 0.039490998 0.7054916
-0.03111903 0.037342876 0.70502454
-0.031041035 0.035179853 0.7043969
-0.030920442 0.032981783 0.70342648
-0.030763665 0.030763656 0.70216477
-0.030602606 0.028562427 0.70086873
-0.030465342 0.026403338 0.69976401
-0.030350644 0.024280518 0.69884104
-0.030260094 0.02219072 0.69811237
-0.030206749 0.020137846 0.6976831
-0.030195205 0.01811716 0.69759017
-0.030298939 0.016159445 0.69842494
-0.031223245 0.014570862 0.70586318
-0.031381473 0.012552619 0.70713651
-0.031664666 0.01055491 0.70941544
-0.031671856 0.088228792 0.72767872
-0.031391542 0.085205644 0.72526181
-0.031194435 0.082442462 0.7235623
-0.031006789 0.079731762 0.72194439
-0.030827487 0.077068716 0.72039843
-0.030661115 0.074462712 0.71896398
-0.030501043 0.071895301 0.71758378
-0.030348815 0.06936872 0.71627122
-0.03020565 0.066883981 0.71503681
-0.030067571 0.064430505 0.71384627
-0.029938936 0.062016398 0.71273714
-0.029815078 0.059630156 0.71166921
-0.029698281 0.057275265 0.71066213
-0.029587768 0.054948717 0.70970929
-0.029482292 0.052646935 0.7087999
-0.029384591 0.050373584 0.70795751
-0.029289987 0.048119277 0.70714176
-0.029204627 0.045892984 0.70640588
-0.029122312 0.043683439 0.70569605
-0.02904515 0.041493088 0.70503074
-0.028932266 0.039265186 0.70405746
-0.028868474 0.037116587 0.70350748
-0.02881089 0.034984648 0.70301092
-0.028757783 0.032866061 0.70255303
-0.028690293 0.030739605 0.70197111
-0.028584694 0.028584659 0.70106065
-0.028444018 0.026412338 0.6998477
-0.028295917 0.024253637 0.69857073
-0.028165875 0.02213037 0.69744945
-0.028055886 0.020039946 0.69650114
-0.027972981 0.017982692 0.6957863
-0.027918244 0.015953302 0.69531435
-0.027898893 0.013949454 0.69514751
-0.027949542 0.011978388 0.69558424
-0.028827608 0.0102956 0.70315504
-0.02896145 0.0082747042 0.70430911
-0.029175799 0.0062519908 0.70615727
-0.029765287 0.0042521954 0.71123993
-0.029452194 0.088356584 0.72807443
-0.029230898 0.085444182 0.72601956
-0.029028052 0.082618326 0.72413605
-0.02883631 0.079854399 0.7223556
-0.028658316 0.077157021 0.72070289
-0.028488744 0.074509025 0.71912837
-0.02832647 0.071905643 0.71762156
-0.028175427 0.069354892 0.71621907
-0.028030576 0.066842169 0.71487409
-0.027892113 0.06436643 0.71358836
-0.027762471 0.06193167 0.71238458
-0.027637083 0.059526026 0.71122026
-0.027520271 0.057157487 0.71013564
-0.027407559 0.054815114 0.7090891
-0.027301496 0.052502871 0.70810425
-0.027200915 0.050217062 0.70717031
-0.02710491 0.047954828 0.70627886
-0.027015975 0.045719326 0.70545304
-0.026929516 0.043501556 0.70465022
-0.026811194 0.041247994 0.70355153
-0.026735045 0.039074332 0.7028445
-0.026667308 0.036923975 0.70221555
-0.026602415 0.034787744 0.70161301
-0.026544228 0.032669812 0.70107269
-0.026491042 0.030566573 0.70057881
-0.026442688 0.028476745 0.70012987
-0.026384661 0.026384681 0.69959104
-0.026292408 0.024269909 0.6987344
-0.026167493 0.022141755 0.6975745
-0.026031982 0.020024627 0.69631624
-0.025909316 0.017937183 0.6951772
-0.025805295 0.015880167 0.69421136
-0.02572925 0.013854206 0.69350523
-0.025673905 0.011849523 0.69299138
-0.025648292 0.0098647177 0.69275349
-0.025679681 0.0079014599 0.69304496
-0.026483167 0.0061115026 0.70050573
-0.026595131 0.0040915906 0.70154536
-0.026769262 0.0020591915 0.70316219
-0.027128648 -2.9802322e-08 0.70649928
-0.027337153 0.088845789 0.72958845
-0.027089126 0.0857822 0.72709352
-0.02688246 0.08288762 0.72501457
-0.026689835 0.080069482 0.72307694
-0.026508253 0.077315748 0.72125036
-0.02633629 0.074619502 0.71952051
-0.026175437 0.071982473 0.71790248
-0.026023306 0.069395483 0.71637213
-0.0258775 0.066850215 0.7149055
-0.025740827 0.064352065 0.71353066
-0.025610499 0.061892003 0.71221966
-0.02548538 0.059465885 0.7109611
-0.025368659 0.057079494 0.70978695
-0.025255442 0.054720134 0.70864809
-0.025149763 0.052395344 0.70758504
-0.025048099 0.050096184 0.70656234
-0.024952125 0.047824919 0.70559692
-0.024861205 0.045578867 0.70468235
-0.024737578 0.043290794 0.70343876
-0.024656715 0.041094542 0.70262533
-0.024578596 0.038916141 0.70183945
-0.024507666 0.036761492 0.70112598
-0.02443834 0.034621 0.70042861
-0.024377024 0.032502681 0.69981188
-0.024317689 0.030397087 0.69921499
-0.024265012 0.028309166 0.69868517
-0.024216278 0.026234299 0.69819486
-0.024172405 0.024172395 0.69775355
-0.02412181 0.022111684 0.69724458
-0.02404126 0.020034403 0.69643426
-0.023932783 0.017949581 0.69534314
-0.023809411 0.015872955 0.69410205
-0.023694687 0.0138219 0.69294804
-0.023600433 0.0118002 0.69199991
-0.023527469 0.0098031461 0.691266
-0.023472467 0.0078241527 0.69071275
-0.023442043 0.0058604777 0.69040668
-0.023457155 0.0039095283 0.69055867
-0.024188085 0.0020156801 0.6979112
-0.024280615 -0 0.69884205
-0.024424421 -0.0020353794 0.70028865
-0.024678096 -0.0041130185 0.70284045
-0.024973441 0.086271882 0.7286489
-0.024758423 0.083278328 0.72628939
-0.024559567 0.080376804 0.72410721
-0.02437456 0.077555448 0.72207701
-0.024203276 0.074810177 0.72019738
-0.024041735 0.072125196 0.71842468
-0.023888761 0.069494575 0.71674597
-0.023744272 0.066915691 0.71516037
-0.023608711 0.064387411 0.71367276
-0.023478495 0.061897874 0.7122438
-0.023355851 0.059451252 0.71089804
-0.023239383 0.057042122 0.70961994
-0.023126893 0.054663569 0.70838547
-0.023022512 0.052323908 0.70723999
-0.022920979 0.0500094 0.70612586
-0.022826206 0.047727525 0.70508581
-0.022734936 0.04546988 0.70408428
-0.022615269 0.043174624 0.70277107
-0.022533607 0.040970176 0.70187491
-0.022455553 0.038786858 0.70101839
-0.022382772 0.036626339 0.70021969
-0.022312541 0.034483045 0.69944894
-0.022248503 0.032361448 0.69874626
-0.022185994 0.030253679 0.69806027
-0.022130687 0.028166354 0.69745338
-0.022076892 0.02609086 0.69686306
-0.022029618 0.024032295 0.69634432
-0.021985091 0.021985084 0.69585574
-0.021945644 0.019950569 0.69542283
-0.021901632 0.01791954 0.69493979
-0.021832045 0.015877873 0.6941762
-0.021738315 0.013833493 0.69314766
-0.02162727 0.011796683 0.6919291
-0.021520637 0.0097821355 0.69075882
-0.021435816 0.007794857 0.6898281
-0.021366663 0.0058272779 0.68906921
-0.021312719 0.003875047 0.68847722
-0.021278853 0.0019344389 0.68810558
-0.021280499 2.9802322e-08 0.6881237
-0.021397648 -0.0019452274 0.68940926
-0.022016311 -0.0040029585 0.69619834
-0.022133267 -0.0060363412 0.69748169
-0.02233273 -0.0081210136 0.69967055
-0.022882331 0.086952895 0.73081207
-0.022654507 0.083821684 0.72806197
-0.022448486 0.08081457 0.72557509
-0.022259735 0.077909082 0.7232967
-0.022084849 0.075088501 0.72118562
-0.021921907 0.072342277 0.71921873
-0.021769494 0.069662392 0.71737897
-0.021627035 0.067043811 0.71565932
-0.021491872 0.064475626 0.71402776
-0.021363223 0.061953366 0.71247482
-0.021243408 0.059481561 0.71102858
-0.02112814 0.057045966 0.70963717
-0.021018796 0.054648876 0.70831722
-0.020915559 0.05228889 0.70707107
-0.020815322 0.049956769 0.70586109
-0.020722821 0.047662467 0.70474446
-0.02060217 0.045324802 0.70328814
-0.020517688 0.043087125 0.70226836
-0.020436568 0.04087311 0.70128912
-0.020359814 0.038683683 0.70036262
-0.020287089 0.036516786 0.69948471
-0.020217495 0.034369767 0.69864464
-0.020152515 0.032244027 0.6978603
-0.020089885 0.030134857 0.69710433
-0.020032618 0.028045654 0.69641304
-0.019976873 0.025969923 0.69574004
-0.019927226 0.023912638 0.69514084
-0.019878853 0.021866739 0.69455689
-0.019836612 0.019836634 0.69404703
-0.019796351 0.017816722 0.69356108
-0.019761246 0.015809029 0.69313723
-0.019723233 0.013806283 0.69267845
-0.019663705 0.011798233 0.69195986
-0.019583128 0.0097915828 0.69098723
-0.019484373 0.0077937245 0.68979514
-0.01938751 0.005816251 0.68862581
-0.019310517 0.003862083 0.68769652
-0.019245528 0.0019245744 0.68691194
-0.019193482 -0 0.68628371
-0.019162022 -0.0019162297 0.68590397
-0.019157546 -0.0038315058 0.68584996
-0.019221352 -0.0057663918 0.68662018
-0.019805832 -0.0079223216 0.69367546
-0.019899013 -0.0099495053 0.69480026
-0.020052688 -0.012031585 0.69665527
-0.020831406 0.087954819 0.73399496
-0.020576783 0.084593445 0.73057985
-0.020355325 0.081421316 0.72760963
-0.020158326 0.078393489 0.72496742
-0.01997963 0.075478613 0.72257066
-0.01981549 0.07265681 0.72036916
-0.019663209 0.069913626 0.71832669
-0.019521117 0.067239404 0.71642095
-0.019386902 0.064623028 0.71462083
-0.019262347 0.062067568 0.71295023
-0.019144263 0.059559941 0.71136647
-0.019031078 0.057093233 0.7098484
-0.01892582 0.054674625 0.70843667
-0.01882479 0.052291095 0.70708162
-0.018728415 0.049942434 0.70578897
-0.018637726 0.047629774 0.70457262
-0.018522125 0.045276284 0.70302212
-0.018440664 0.043028235 0.70192957
-0.018361488 0.040803283 0.70086765
-0.018286999 0.038605928 0.69986862
-0.018215543 0.036431104 0.69891024
-0.018147789 0.034279138 0.6980015
-0.018083511 0.032148451 0.69713938
-0.01802207 0.030036807 0.69631529
-0.017964697 0.027945071 0.69554579
-0.017909396 0.025869131 0.69480413
-0.017858686 0.023811549 0.69412392
-0.017809387 0.02176702 0.69346273
-0.017765336 0.0197393 0.69287193
-0.017722199 0.017722219 0.69229329
-0.017684963 0.01571998 0.69179392
-0.017648853 0.01372689 0.69130957
-0.01761785 0.011745274 0.69089377
-0.01758524 0.0097695589 0.69045639
-0.017535117 0.0077933967 0.68978411
-0.017466288 0.0058220923 0.68886101
-0.017379668 0.0038621426 0.6876992
-0.017294034 0.0019215643 0.68655068
-0.017223394 -0 0.6856032
-0.017163131 -0.001906991 0.6847949
-0.017114861 -0.0038033128 0.68414754
-0.017085835 -0.0056952834 0.68375826
-0.017076764 -0.007589668 0.68363655
-0.017107839 -0.009504348 0.6840533
-0.017642353 -0.011761546 0.69122237
-0.017718432 -0.013781011 0.6922428
-0.017834779 -0.015853137 0.69380331
-0.018079665 -0.018079638 0.69708776
-0.018546747 0.085778683 0.73444676
-0.018291058 0.082309753 0.73058867
-0.018075239 0.079079181 0.72733223
-0.017887205 0.076020628 0.72449493
-0.017718792 0.073090017 0.72195387
-0.017565537 0.070262164 0.71964145
-0.01742401 0.067518055 0.71750593
-0.017293032 0.06484884 0.71552962
-0.017170561 0.062243313 0.7136817
-0.017054753 0.059691638 0.71193427
-0.016946306 0.057193756 0.71029794
-0.01684426 0.054743856 0.70875818
-0.016746378 0.052332431 0.70728123
-0.016654683 0.04996407 0.70589775
-0.016541878 0.04755789 0.70419556
-0.016457951 0.045259356 0.70292926
-0.016379964 0.04299742 0.70175248
-0.016303839 0.040759623 0.70060384
-0.01623283 0.03855294 0.69953239
-0.016164003 0.036369026 0.6984939
-0.016099058 0.034210503 0.69751394
-0.016036881 0.032073766 0.69657576
-0.015977798 0.029958397 0.69568419
-0.015921807 0.027863175 0.69483942
-0.01586822 0.025785834 0.69403088
-0.015818117 0.023727208 0.69327486
-0.015769884 0.021683604 0.69254708
-0.015725464 0.019656837 0.69187689
-0.015682522 0.017642856 0.69122887
-0.015643848 0.015643865 0.69064534
-0.015606155 0.013655394 0.69007659
-0.015573368 0.011680037 0.68958187
-0.015541443 0.0097134113 0.68910015
-0.015514396 0.0077572465 0.68869209
-0.015486786 0.0058075786 0.68827546
-0.015445136 0.0038612783 0.68764699
-0.015386597 0.0019233525 0.68676376
-0.015312083 -0 0.68563944
-0.015237302 -0.0019046366 0.68451107
-0.015173362 -0.003793329 0.6835463
-0.015118289 -0.0056693554 0.6827153
-0.015076153 -0.0075380802 0.68207955
-0.015047816 -0.0094048679 0.68165195
-0.015035437 -0.011276543 0.68146515
-0.015054324 -0.013172507 0.68175012
-0.01552288 -0.015522867 0.68882006
-0.015583736 -0.017531723 0.68973839
-0.015676748 -0.019595951 0.69114178
-0.015845982 -0.02178821 0.69369531
-0.016296891 0.083812565 0.73562777
-0.016024666 0.080123335 0.73093337
-0.015812479 0.076803446 0.72727436
-0.015632931 0.073698103 0.72417819
-0.015475515 0.0707452 0.72146362
-0.01533331 0.067904651 0.71901143
-0.015203719 0.065158814 0.71677661
-0.015083508 0.062488824 0.71470368
-0.01497254 0.059890181 0.71279013
-0.014868681 0.057350606 0.71099913
-0.014770302 0.054861128 0.70930266
-0.014677336 0.052419037 0.70769954
-0.014590573 0.050024807 0.70620334
-0.014484558 0.047592133 0.70437515
-0.014406038 0.045276135 0.70302117
-0.01433194 0.04299584 0.70174336
-0.014259993 0.040742844 0.70050269
-0.014193365 0.038524866 0.69935375
-0.014128326 0.036329955 0.69823217
-0.014067383 0.034163654 0.69718122
-0.01400853 0.032019526 0.6961664
-0.013952782 0.029898852 0.69520497
-0.01389946 0.027798921 0.69428557
-0.013848734 0.025719106 0.69341075
-0.013800714 0.023658395 0.69258273
-0.013754701 0.021614522 0.69178927
-0.013711623 0.019588083 0.69104636
-0.013670202 0.017575979 0.69033217
-0.013631948 0.015579343 0.68967247
-0.013595068 0.013595045 0.68903649
-0.013561641 0.011624247 0.68846005
-0.013529268 0.0096637905 0.68790179
-0.013500794 0.0077147484 0.68741071
-0.013473061 0.0057741702 0.68693256
-0.01344978 0.0038428009 0.68653107
-0.013426372 0.0019180477 0.68612742
-0.013392847 -0 0.68554932
-0.013343763 -0.0019062459 0.68470287
-0.013280921 -0.0037945211 0.68361914
-0.013216473 -0.0056641996 0.68250781
-0.013159567 -0.0075197518 0.68152654
-0.013110112 -0.0093643367 0.68067372
-0.0130739 -0.01120618 0.68004918
-0.013046919 -0.01304689 0.67958397
-0.013032453 -0.014894247 0.67933452
-0.013041624 -0.01676777 0.67949265
-0.013445958 -0.019208521 0.68646514
-0.013493564 -0.021204174 0.68728614
-0.013566159 -0.023256272 0.68853796
-0.013688207 -0.025420934 0.6906426
-0.014116816 0.082348108 0.73860633
-0.013777979 0.0780752 0.73178941
-0.013565374 0.074609518 0.72751212
-0.013394036 0.071434885 0.72406512
-0.013247986 0.068447888 0.72112679
-0.013118143 0.065590739 0.71851456
-0.013000553 0.062835991 0.71614885
-0.012892632 0.060165614 0.71397763
-0.012793355 0.0575701 0.71198034
-0.012700265 0.055034518 0.71010756
-0.01261398 0.052558273 0.70837158
-0.0125321 0.0501284 0.70672429
-0.012433951 0.04766348 0.7047497
-0.012361862 0.045326829 0.7032994
-0.01229287 0.043025047 0.70191133
-0.012226884 0.040756285 0.70058382
-0.012165052 0.038522661 0.69933987
-0.012104818 0.036314487 0.69812804
-0.012048853 0.034138411 0.69700211
-0.011994408 0.031985074 0.69590676
-0.011943161 0.029857934 0.69487578
-0.011893763 0.027752131 0.69388193
-0.011846875 0.025668234 0.69293869
-0.011802166 0.023604333 0.69203913
-0.01175945 0.02155897 0.69117981
-0.011719055 0.019531757 0.6903671
-0.011680345 0.017520517 0.68958831
-0.011644057 0.01552543 0.68885827
-0.01160925 0.013544142 0.68815804
-0.011576928 0.011576921 0.68750775
-0.011545895 0.0096215904 0.68688339
-0.011517636 0.0076784194 0.68631482
-0.011490392 0.0057452023 0.68576676
-0.011466211 0.0038220584 0.68528032
-0.011442785 0.00190714 0.68480897
-0.011422975 -0 0.68441045
-0.011403364 -0.0019005537 0.68401587
-0.011376701 -0.0037922561 0.68347949
-0.011336919 -0.0056684315 0.68267912
-0.011285055 -0.0075233579 0.68163574
-0.011230555 -0.0093587935 0.68053925
-0.011180949 -0.011180937 0.67954123
-0.011138967 -0.012995452 0.67869663
-0.011107028 -0.01480937 0.67805403
-0.011082141 -0.016623199 0.67755336
-0.011066739 -0.018444538 0.67724353
-0.011068536 -0.020292312 0.67727965
-0.011126293 -0.022252589 0.67844164
-0.011446887 -0.024801552 0.68489146
-0.011501528 -0.026836902 0.68599081
-0.011593693 -0.028984249 0.68784505
-0.011567652 0.076346487 0.73386574
-0.011333103 0.072531849 0.7282033
-0.011167476 0.069238394 0.72420466
-0.01103322 0.066199332 0.72096342
-0.010916522 0.063315809 0.71814603
-0.010812536 0.060550213 0.7156356
-0.010717946 0.057876915 0.71335202
-0.010630821 0.055280268 0.71124864
-0.010550705 0.052753568 0.70931447
-0.010474944 0.050279707 0.70748544
-0.010387093 0.047780633 0.70536453
-0.01032157 0.045414925 0.70378268
-0.010258887 0.043087363 0.70226932
-0.010199996 0.040799975 0.70084763
-0.010144038 0.038547337 0.69949669
-0.010090115 0.036324412 0.69819486
-0.010039864 0.03413555 0.69698167
-0.0099909091 0.031970918 0.69579983
-0.0099451561 0.029835463 0.69469523
-0.0099008 0.027722239 0.69362438
-0.009858896 0.025633126 0.69261271
-0.0098186554 0.023564786 0.69164127
-0.0097802719 0.021516621 0.6907146
-0.0097437799 0.01948756 0.68983358
-0.0097088786 0.017475933 0.68899101
-0.0096758343 0.015481323 0.68819326
-0.0096441675 0.013501823 0.68742871
-0.0096144434 0.011537313 0.68671107
-0.00958593 0.009585917 0.68602276
-0.0095594479 0.0076475739 0.68538338
-0.0095340554 0.0057204664 0.68477035
-0.0095107509 0.0038042963 0.68420774
-0.0094884587 0.0018977225 0.68366957
-0.0094684921 -0 0.6831876
-0.009449359 -0.0018898547 0.68272567
-0.0094328634 -0.0037731528 0.68232739
-0.0094169211 -0.0056501329 0.68194246
-0.00939616 -0.0075168908 0.68144125
-0.0093645761 -0.0093645751 0.68067873
-0.0093234656 -0.011188149 0.67968625
-0.0092786159 -0.012990028 0.67860353
-0.0092366859 -0.014778733 0.67759126
-0.0092023034 -0.016564161 0.67676121
-0.009174698 -0.018349349 0.67609471
-0.0091525111 -0.020135552 0.6755591
-0.0091381697 -0.021931589 0.67521286
-0.0091373017 -0.023756951 0.67519188
-0.0091668656 -0.025667191 0.67590559
-0.0094447937 -0.028334379 0.6826154
-0.0094861919 -0.030355811 0.68361485
-0.0095486837 -0.032465488 0.6851235
-0.0096831378 -0.034859329 0.68836951
-0.0091178231 0.070663154 0.7297526
-0.0089518819 0.067139119 0.72474492
-0.00882864 0.06400764 0.72102571
-0.0087265149 0.061085612 0.71794379
-0.0086371126 0.058300495 0.7152459
-0.0085569434 0.055620134 0.71282655
-0.008483856 0.053024113 0.71062094
-0.0084161442 0.050496876 0.70857751
-0.0083389999 0.047949225 0.70624948
-0.0082809655 0.04554531 0.70449817
-0.0082261674 0.04318741 0.7028445
-0.0081753284 0.040876627 0.70131028
-0.0081265327 0.038601041 0.69983768
-0.0080803372 0.036361486 0.69844365
-0.0080367615 0.034156233 0.69712865
-0.0079944832 0.031977981 0.69585276
-0.0079552718 0.029832274 0.69466949
-0.0079170372 0.027709633 0.69351566
-0.0078810919 0.025613546 0.69243091
-0.0078464253 0.023539335 0.69138479
-0.0078135263 0.021487176 0.69039196
-0.0077820215 0.019455075 0.6894412
-0.0077519105 0.017441809 0.68853253
-0.007723283 0.015446603 0.68766856
-0.0076958723 0.013467759 0.68684149
-0.0076699485 0.011504948 0.68605912
-0.0076450752 0.0095563531 0.68530852
-0.0076216972 0.0076216757 0.68460298
-0.0075992979 0.0056994557 0.68392706
-0.0075784363 0.0037891865 0.68329751
-0.0075584594 0.0018896163 0.68269461
-0.0075400649 -0 0.68213952
-0.0075225504 -0.0018806159 0.68161094
-0.0075067221 -0.0037533641 0.68113333
-0.0074916608 -0.005618751 0.68067878
-0.0074785044 -0.0074784756 0.68028176
-0.0074659786 -0.0093325078 0.67990375
-0.0074503594 -0.011175483 0.67943233
-0.0074262805 -0.012995988 0.67870581
-0.0073950007 -0.014789999 0.67776185
-0.0073598665 -0.01655969 0.67670155
-0.007325815 -0.01831454 0.67567396
-0.0072987792 -0.020071626 0.67485803
-0.0072759334 -0.021827817 0.67416865
-0.0072570965 -0.023585528 0.6736002
-0.0072458256 -0.025360376 0.67326003
-0.0072430721 -0.027161509 0.67317694
-0.0072562546 -0.029024988 0.67357475
-0.0074818595 -0.031797886 0.68038297
-0.00751185 -0.033803314 0.68128806
-0.0075570042 -0.035895765 0.68265069
-0.0076414556 -0.038207293 0.68519926
-0.0067432583 0.065184861 0.72592568
-0.0066309278 0.061888665 0.72140586
-0.006544915 0.058904231 0.71794498
-0.0064717182 0.056088239 0.71499974
-0.0064072981 0.053394169 0.71240771
-0.0062972 0.050377607 0.70797765
-0.0062716003 0.048082262 0.70694762
-0.0062349737 0.04572311 0.7054739
-0.0061907452 0.043335229 0.70369428
-0.0061485246 0.040990174 0.70199543
-0.0061083911 0.038686484 0.70038062
-0.0060712341 0.036427408 0.6988855
-0.0060356418 0.03420195 0.69745338
-0.0060016634 0.032008857 0.69608623
-0.0059698229 0.029849142 0.69480503
-0.0059389053 0.027714878 0.69356102
-0.0059100506 0.025610238 0.69239998
-0.0058820518 0.023528188 0.69127345
-0.0058556185 0.021470636 0.69020981
-0.0058301911 0.019433945 0.68918675
-0.005805972 0.017417938 0.68821222
-0.0057828669 0.015420973 0.6872825
-0.0057606739 0.013441563 0.68638957
-0.0057396377 0.011479288 0.68554312
-0.0057194531 0.0095324516 0.68473089
-0.0057003824 0.0076005161 0.68396366
-0.0056820628 0.005682081 0.68322647
-0.0056648231 0.0037765503 0.68253279
-0.0056483243 0.0018827319 0.68186897
-0.0056328941 -0 0.68124807
-0.0056181992 -0.0018727183 0.68065679
-0.0056045642 -0.003736347 0.68010819
-0.0055916617 -0.0055916309 0.67958903
-0.0055798762 -0.007439822 0.67911482
-0.0055687809 -0.0092813075 0.67866838
-0.0055589438 -0.011117935 0.67827255
-0.0055497158 -0.012949318 0.67790127
-0.0055385763 -0.014769524 0.67745298
-0.0055215037 -0.016564488 0.67676604
-0.0054992326 -0.018330753 0.67586994
-0.0054734256 -0.020069182 0.67483151
-0.0054479386 -0.021791726 0.67380607
-0.0054276097 -0.023519635 0.67298806
-0.0054099262 -0.025246322 0.67227656
-0.0053955363 -0.026977658 0.67169756
-0.0053866878 -0.028728992 0.67134148
-0.0053831334 -0.030504435 0.67119849
-0.0053900341 -0.032340169 0.67147613
-0.005557009 -0.035194397 0.67819476
-0.0055772434 -0.037181616 0.6790089
-0.0056075794 -0.039253056 0.68022949
-0.0056579686 -0.041491747 0.68225694
-0.0045492742 0.063689828 0.72917092
-0.0044364338 0.05989188 0.72236043
-0.0043679234 0.056782991 0.71822548
-0.0043135118 0.053918898 0.71494138
-0.0041840039 0.050208062 0.70712489
-0.0041704034 0.047959685 0.70630401
-0.0041579101 0.045736969 0.70555001
-0.0041401917 0.043471992 0.70448065
-0.0041146567 0.041146576 0.70293945
-0.0040856786 0.038813949 0.70119041
-0.0040583885 0.036525458 0.69954336
-0.0040323869 0.034275264 0.69797397
-0.0040080962 0.032064795 0.69650793
-0.0039850166 0.029887646 0.69511497
-0.0039627822 0.027739495 0.69377303
-0.0039421292 0.025623828 0.69252652
-0.0039220289 0.023532182 0.69131333
-0.0039031517 0.021467328 0.69017398
-0.0038849234 0.019424587 0.6890738
-0.0038676264 0.017404348 0.68802983
-0.0038510608 0.015404254 0.68702996
-0.0038352094 0.013423234 0.6860733
-0.0038201152 0.011460364 0.68516225
-0.0038056024 0.009514004 0.68428636
-0.0037918601 0.0075837076 0.6834569
-0.0037786446 0.0056679547 0.68265927
-0.0037661449 0.0037661791 0.68190485
-0.0037541497 0.0018770695 0.68118083
-0.0037428606 -2.9802322e-08 0.68049955
-0.0037320566 -0.0018660426 0.67984748
-0.0037219236 -0.0037219226 0.67923588
-0.0037123002 -0.0055684447 0.67865509
-0.0037033157 -0.007406652 0.6781128
-0.0036948654 -0.0092371702 0.67760277
-0.0036870649 -0.011061221 0.67713201
-0.0036798115 -0.012879342 0.67669415
-0.0036732603 -0.014693081 0.6762988
-0.0036672163 -0.01650244 0.67593396
-0.003660121 -0.018300623 0.67550576
-0.0036494161 -0.020071775 0.67485964
-0.0036353369 -0.021811992 0.67400992
-0.0036184718 -0.023520082 0.67299199
-0.0036017627 -0.025212318 0.67198354
-0.0035879449 -0.02690959 0.67114955
-0.0035758039 -0.028606445 0.67041683
-0.0035663736 -0.030314177 0.66984761
-0.0035598907 -0.032039016 0.66945636
-0.0035565633 -0.03378734 0.6692555
-0.0035592448 -0.035592437 0.66941738
-0.0036690987 -0.038525552 0.67604756
-0.0036811379 -0.040492505 0.6767742
-0.0036991131 -0.042539805 0.67785913
-0.0037288303 -0.044745982 0.67965275
-0.0022363202 0.058144301 0.72454566
-0.0021897538 0.054743826 0.71892464
-0.0020917482 0.050201952 0.70709425
-0.0020804245 0.047849774 0.70572734
-0.0020716731 0.045576811 0.70467103
-0.0020654984 0.043375462 0.70392561
-0.0020590893 0.041181773 0.703152
-0.0020498189 0.038946569 0.70203292
-0.0020367107 0.03666079 0.70045066
-0.0020225095 0.034382641 0.69873643
-0.0020092709 0.032148361 0.69713837
-0.0019966429 0.029949635 0.69561404
-0.0019847313 0.027786255 0.6941762
-0.0019734979 0.025655478 0.69282019
-0.0019626375 0.023551673 0.69150919
-0.0019525355 0.021477878 0.6902898
-0.0019427331 0.019427329 0.68910658
-0.0019334694 0.017401218 0.6879884
-0.0019245748 0.015396625 0.68691468
-0.0019160773 0.013412535 0.68588895
-0.0019079817 0.011447877 0.68491167
-0.0019001997 0.0095010102 0.6839723
-0.0018928173 0.0075712502 0.68308115
-0.0018856839 0.0056570768 0.6822201
-0.0018789497 0.003757894 0.68140721
-0.0018724598 0.0018724799 0.68062377
-0.0018663276 2.9802322e-08 0.6798836
-0.0018604359 -0.00186041 0.6791724
-0.0018548841 -0.0037097633 0.67850226
-0.0018495769 -0.0055487156 0.67786163
-0.001844579 -0.0073782802 0.67725825
-0.0018398516 -0.0091992915 0.67668766
-0.0018354175 -0.011012524 0.67615241
-0.0018312661 -0.012818843 0.67565131
-0.0018274003 -0.014619201 0.67518467
-0.0018238301 -0.016414493 0.67475373
-0.0018205717 -0.018205702 0.67436033
-0.0018175958 -0.019993544 0.67400116
-0.0018142018 -0.021770447 0.67359149
-0.0018091901 -0.023519456 0.67298651
-0.0018025098 -0.025235146 0.67218006
-0.0017942556 -0.026913822 0.67118371
-0.0017860385 -0.028576583 0.67019182
-0.0017789898 -0.030242831 0.66934097
-0.0017727499 -0.031909496 0.6685878
-0.0017681143 -0.033594161 0.66802818
-0.0017645974 -0.03529194 0.66760367
-0.0017624717 -0.037011892 0.66734707
-0.0017628877 -0.03878355 0.66739726
-0.0017716389 -0.040747672 0.66845363
-0.0018226542 -0.0437437 0.67461181
-0.001830777 -0.045769423 0.67559224
-0.0018433355 -0.047926754 0.67710817
-0.0018712063 -0.050522596 0.68047249
0 0.050543249 0.70881057
0 0.04794845 0.7062453
0 0.045558691 0.7045716
0 0.043266714 0.70330042
0 0.041044444 0.7023232
0 0.038877457 0.70159382
0 0.036712945 0.70080036
0 0.034507781 0.69962478
0 0.032264024 0.69801128
0 0.030038714 0.69633073
0 0.02785641 0.69478118
0 0.025707066 0.69329941
0 0.023589402 0.69188893
0 0.021503419 0.69056976
0 0.019442648 0.68929154
0 0.017409265 0.68809569
0 0.015398294 0.68694061
0 0.013409942 0.68584377
0 0.011442065 0.68479407
0 0.0094933808 0.68378782
0 0.0075630248 0.68283165
0 0.0056492984 0.68190908
0 0.0037517548 0.68103647
0 0.0018688738 0.68019158
0 -2.9802322e-08 0.67939389
0 -0.0018559098 0.67862433
0 -0.0036997497 0.67789793
0 -0.0055322349 0.67719918
0 -0.0073544979 0.6765399
0 -0.0091670454 0.67591047
0 -0.010970891 0.67531604
0 -0.012766927 0.67475533
0 -0.014555663 0.67422616
0 -0.016338438 0.67373371
0 -0.018115401 0.67327034
0 -0.019888431 0.67284763
0 -0.021657407 0.67245477
0 -0.023424268 0.67210257
0 -0.025180638 0.67171007
0 -0.026908904 0.67114413
0 -0.028601736 0.67038131
0 -0.030251861 0.6694051
0 -0.031885892 0.66842943
0 -0.033520818 0.66756237
0 -0.035159767 0.66680592
0 -0.036819309 0.66624004
0 -0.038489252 0.66578269
0 -0.04017964 0.66547227
0 -0.041926682 0.66547298
0 -0.043811172 0.66613698
0 -0.04694131 0.67253339
0 -0.048946202 0.67342484
0 -0.051065952 0.67474812
0 -0.053499669 0.67728704
0.002081281 0.045788169 0.70583081
0.0020632073 0.043327361 0.70364904
0.0020503732 0.041007489 0.7020998
0.0020405981 0.038771391 0.70091993
0.0020331354 0.036596417 0.70001912
0.0020272539 0.034463316 0.69930911
0.0020203046 0.03232488 0.69847023
0.0020100942 0.030151397 0.69723779
0.0019966986 0.027953774 0.69562078
0.0019831581 0.025781035 0.6939863
0.0019705833 0.02364701 0.6924684
0.0019586578 0.021545261 0.69102883
0.0019471938 0.019471943 0.68964493
0.00193656 0.017429054 0.68836141
0.001926242 0.015409946 0.68711591
0.0019165177 0.013415635 0.68594205
0.0019071818 0.011443079 0.68481517
0.0018982532 0.0094912648 0.6837374
0.0018897647 0.0075590611 0.68271267
0.001881571 0.0056447387 0.68172359
0.0018738272 0.0037476718 0.68078887
0.0018663205 0.0018663108 0.67988276
0.00185924 2.9802322e-08 0.67902803
0.0018523638 -0.0018523633 0.67819804
0.0018458925 -0.0036917627 0.67741686
0.0018396216 -0.0055188537 0.67665988
0.0018337157 -0.0073348582 0.67594701
0.0018280213 -0.0091401041 0.67525965
0.0018226476 -0.010935873 0.67461091
0.0018175298 -0.012722701 0.67399317
0.001812677 -0.014501423 0.67340744
0.0018081113 -0.016272992 0.67285627
0.0018037702 -0.018037707 0.67233229
0.0017997606 -0.019797355 0.67184824
0.0017959621 -0.02155152 0.6713897
0.0017925136 -0.023302704 0.67097348
0.0017892702 -0.025049776 0.67058194
0.0017864018 -0.026796013 0.67023569
0.001783295 -0.028532714 0.6698606
0.0017789139 -0.030241549 0.66933179
0.0017728567 -0.031911403 0.66860068
0.001765058 -0.033536106 0.66765928
0.0017570686 -0.035141379 0.66669482
0.0017497687 -0.036745161 0.66581374
0.0017435983 -0.038359135 0.66506881
0.0017387269 -0.039990723 0.66448081
0.001734682 -0.041632354 0.66399258
0.001732112 -0.043302804 0.66368234
0.0017316863 -0.045023829 0.66363096
0.0017348385 -0.046840638 0.66401148
0.0017885346 -0.050078988 0.67049313
0.0017952148 -0.05206123 0.67129952
0.0018050849 -0.054152548 0.67249095
0.0018212876 -0.056459904 0.67444676
0.0043655033 0.04583782 0.71807933
0.0041172975 0.041172951 0.70309889
0.0040842774 0.038800627 0.70110589
0.0040605948 0.036545366 0.69967651
0.0040425025 0.034361243 0.69858456
0.004028799 0.032230407 0.69775742
0.0040173642 0.030130237 0.69706732
0.0040024375 0.028017074 0.6961664
0.0039813383 0.025878698 0.69489294
0.0039545451 0.023727298 0.69327581
0.0039282637 0.021605462 0.69168961
0.0039035932 0.019517988 0.69020063
0.0038804039 0.017461836 0.68880099
0.0038580387 0.015432179 0.68745118
0.0038372097 0.013430238 0.686194
0.0038170842 0.011451244 0.68497932
0.0037979907 0.0094949901 0.68382698
0.0037797722 0.0075595379 0.68272734
0.0037622368 0.005643338 0.681669
0.0037456483 0.0037456751 0.68066776
0.0037295669 0.0018647909 0.67969722
0.003714422 -0 0.67878312
0.0036996598 -0.0018498302 0.67789221
0.003685802 -0.0036857724 0.67705572
0.0036722899 -0.0055084527 0.67624021
0.0036595857 -0.0073191524 0.67547345
0.0036472746 -0.0091181993 0.67473042
0.0036356538 -0.010906935 0.67402899
0.0036244742 -0.012685627 0.67335427
0.0036138983 -0.014455616 0.67271596
0.0036038379 -0.016217262 0.67210877
0.0035942595 -0.017971307 0.6715306
0.0035852841 -0.019719034 0.67098898
0.0035767115 -0.021460265 0.67047155
0.0035688283 -0.023197412 0.66999578
0.0035612844 -0.024928957 0.66954046
0.0035545041 -0.026658773 0.66913128
0.0035480389 -0.028384328 0.66874105
0.0035423997 -0.030110389 0.66840065
0.0035364658 -0.031828195 0.66804248
0.0035282988 -0.033518851 0.66754961
0.003516681 -0.0351668 0.66684842
0.0035016073 -0.036766857 0.66593862
0.0034858724 -0.038344622 0.66498899
0.003471025 -0.039916784 0.66409284
0.0034588957 -0.041506737 0.66336077
0.003448799 -0.043109983 0.66275138
0.0034402034 -0.044722646 0.66223258
0.0034351489 -0.04637447 0.66192746
0.0034333812 -0.048067302 0.66182077
0.0034378632 -0.049849004 0.66209131
0.003543905 -0.053158581 0.66849154
0.0035558934 -0.055116355 0.66921508
0.0035735311 -0.057176501 0.67027962
0.0036023201 -0.059438258 0.67201722
0.0061889072 0.039196432 0.70362031
0.0061094859 0.036656916 0.70042461
0.0060644881 0.034365445 0.69861412
0.0060318094 0.03216967 0.69729924
0.0060068276 0.030034125 0.69629401
0.0059880172 0.027944088 0.69553709
0.0059710816 0.025874674 0.69485569
0.0059474469 0.023789823 0.6939047
0.005914452 0.021686345 0.69257706
0.0058746622 0.019582242 0.69097608
0.0058363797 0.017509133 0.68943572
0.0058000949 0.015466928 0.6879757
0.005766273 0.013454646 0.68661481
0.0057336087 0.011467218 0.68530053
0.005702938 0.0095049143 0.68406647
0.0056735151 0.0075646937 0.68288255
0.0056453925 0.0056453943 0.68175101
0.005618725 0.0037458241 0.68067795
0.005592891 0.0018643141 0.67963845
0.0055685742 2.9802322e-08 0.67866004
0.0055448776 -0.0018482804 0.6777066
0.0055226414 -0.0036817193 0.67681187
0.0055009052 -0.0055009127 0.67593729
0.0054805195 -0.0073073506 0.67511702
0.0054606027 -0.0091010034 0.67431557
0.0054419148 -0.010883838 0.67356366
0.0054237656 -0.012655467 0.67283338
0.0054066526 -0.014417738 0.67214483
0.0053901696 -0.016170502 0.67148161
0.0053745564 -0.017915159 0.67085332
0.0053597032 -0.019652218 0.67025572
0.0053455601 -0.021382242 0.66968668
0.0053323242 -0.023106724 0.66915411
0.0053196065 -0.024824798 0.66864234
0.0053079817 -0.026539892 0.66817462
0.0052967439 -0.028249294 0.6677224
0.0052867634 -0.029958308 0.66732085
0.00527708 -0.031662464 0.66693115
0.0052687633 -0.033368796 0.66659653
0.0052602701 -0.035068512 0.66625488
0.0052488293 -0.036741793 0.66579449
0.005231834 -0.038366765 0.66511065
0.0052102059 -0.039944917 0.66424042
0.0051870882 -0.041496694 0.66331023
0.005164477 -0.043037295 0.66240048
0.0051465579 -0.044603497 0.66167945
0.005130901 -0.046178102 0.66104949
0.0051179556 -0.04776755 0.66052854
0.0051098368 -0.049395084 0.66020185
0.0051058568 -0.051058561 0.66004169
0.0051099411 -0.052802712 0.66020608
0.0052670073 -0.056181431 0.66652596
0.0052830419 -0.058113456 0.66717112
0.0053064618 -0.060139894 0.66811347
0.005344437 -0.062351763 0.66964149
0.0054301624 -0.065161914 0.6730907
0.0081468103 0.034623951 0.70044965
0.0080614928 0.032245994 0.69787496
0.0080078216 0.030029327 0.69625533
0.0079666395 0.027883232 0.69501251
0.0079345824 0.025787413 0.69404507
0.0079117473 0.023735255 0.69335604
0.0078889206 0.021694511 0.69266713
0.0078563737 0.019640952 0.69168496
0.0078103556 0.017573327 0.69029623
0.0077581303 0.015516281 0.68872023
0.0077085886 0.013490021 0.68722522
0.007661141 0.011491746 0.68579328
0.0076172585 0.0095216036 0.68446904
0.0075748507 0.0075748563 0.68318927
0.0075346995 0.005651027 0.68197757
0.0074964594 0.0037482381 0.68082356
0.007459634 0.0018649101 0.6797123
0.0074249036 -0 0.67866421
0.0073910682 -0.0018477738 0.67764318
0.0073594064 -0.0036796927 0.67668766
0.0073283366 -0.0054962635 0.67575002
0.0072993375 -0.0072993636 0.67487496
0.0072708586 -0.0090885758 0.67401546
0.0072442517 -0.010866374 0.67321253
0.0072181518 -0.012631774 0.67242497
0.0071937125 -0.014387429 0.67168742
0.0071699005 -0.016132265 0.67096883
0.0071474961 -0.017868727 0.67029274
0.0071258908 -0.019596189 0.66964072
0.0071053994 -0.021316171 0.66902232
0.0070859282 -0.023029238 0.66843474
0.0070673125 -0.0247356 0.66787297
0.0070499615 -0.026437372 0.66734928
0.0070332135 -0.028132826 0.66684389
0.0070179729 -0.029826373 0.66638398
0.0070031164 -0.031514049 0.66593564
0.0069900067 -0.033202559 0.66554004
0.0069771409 -0.034885705 0.66515177
0.006966237 -0.036572754 0.6648227
0.0069553182 -0.038254261 0.6644932
0.0069408701 -0.039910018 0.66405725
0.0069190348 -0.041514188 0.66339827
0.0068915891 -0.043072402 0.66257
0.0068613477 -0.044598758 0.66165745
0.0068313009 -0.046111286 0.66075063
0.0068072765 -0.047650903 0.66002566
0.0067857429 -0.049196601 0.65937585
0.0067687607 -0.050765693 0.65886337
0.0067568775 -0.05236581 0.65850478
0.0067498591 -0.053998888 0.65829295
0.0067519317 -0.055703402 0.65835553
0.0067838337 -0.057662576 0.65931821
0.0069790869 -0.061067015 0.66521049
0.0070081679 -0.063073486 0.66608804
0.0070508057 -0.065219939 0.66737479
0.0071344511 -0.067777276 0.66989899
0.010761792 0.034437746 0.71441054
0.01006353 0.030190587 0.69755304
0.0099762874 0.027933598 0.69544685
0.0099140611 0.025776565 0.69394445
0.0098661277 0.02367872 0.69278729
0.0098288013 0.021623373 0.69188619
0.0098010004 0.019601971 0.69121504
0.0097717149 0.017589122 0.69050801
0.0097291917 0.015566707 0.68948138
0.0096700378 0.013538063 0.68805331
0.0096059889 0.011527181 0.68650705
0.0095458422 0.0095458925 0.68505496
0.009488171 0.0075905621 0.68366265
0.0094343219 0.0056606233 0.68236256
0.0093826987 0.0037530661 0.68111634
0.0093334131 0.0018666983 0.6799264
0.0092867799 -0 0.67880058
0.0092415651 -0.0018483102 0.67770904
0.0091992244 -0.0036797225 0.67668688
0.0091576381 -0.0054945648 0.67568284
0.0091189509 -0.0072951615 0.6747489
0.0090808207 -0.0090808272 0.6738283
0.0090453289 -0.010854393 0.67297149
0.009010341 -0.012614459 0.67212677
0.0089777485 -0.014364421 0.67133999
0.0089456793 -0.016102225 0.67056572
0.0089157121 -0.017831415 0.66984224
0.0088864816 -0.019550264 0.66913658
0.0088589471 -0.021261483 0.66847181
0.0088323634 -0.02296415 0.66782999
0.0088071777 -0.024660051 0.66722196
0.0087832455 -0.026349723 0.66664428
0.0087603014 -0.028032959 0.66609031
0.0087389732 -0.029712498 0.66557539
0.0087182643 -0.03138575 0.66507542
0.0086995298 -0.033058226 0.66462314
0.008681085 -0.034724325 0.66417783
0.0086649992 -0.036392987 0.66378951
0.008648973 -0.038055509 0.66340256
0.0086355684 -0.039723605 0.66307902
0.0086222049 -0.041386575 0.66275632
0.0086048571 -0.043024272 0.66233754
0.0085790083 -0.044610858 0.66171348
0.0085463608 -0.046150357 0.66092527
0.0085093277 -0.047652245 0.66003126
0.0084723551 -0.049139649 0.65913868
0.0084416522 -0.050649881 0.65839744
0.0084139425 -0.052166432 0.65772843
0.0083930539 -0.053715527 0.65722412
0.0083769504 -0.055287868 0.65683544
0.0083661098 -0.056889564 0.65657371
0.0083661377 -0.058562934 0.65657431
0.0083918152 -0.060421079 0.65719426
0.0086449077 -0.063972354 0.66330445
0.0086779837 -0.065952674 0.66410297
0.0087261405 -0.0680639 0.66526562
0.0088071153 -0.070456907 0.66722047
0.012678009 0.029582024 0.70965976
0.011949197 0.025889933 0.69499719
0.01185333 0.023706675 0.69306856
0.011784145 0.02160427 0.69167662
0.011730823 0.019551367 0.69060385
0.01168944 0.017534167 0.68977129
0.011656987 0.015542626 0.68911839
0.011620395 0.013557136 0.68838221
0.011566624 0.011566639 0.68730044
0.01149466 0.0095788836 0.68585265
0.011419239 0.0076128542 0.68433523
0.011349176 0.0056746006 0.6829257
0.011281833 0.0037606359 0.68157089
0.011218385 0.0018697083 0.68029439
0.011158052 2.9802322e-08 0.67908061
0.011099965 -0.001850009 0.677912
0.011045405 -0.0036818087 0.67681432
0.010992102 -0.0054960549 0.67574197
0.010942463 -0.0072949827 0.67474329
0.010893466 -0.0090779066 0.67375755
0.01084808 -0.010848045 0.67284447
0.01080311 -0.012603641 0.67193973
0.010761443 -0.014348567 0.67110145
0.010720172 -0.01608023 0.67027116
0.0106818 -0.017803013 0.66949916
0.010643966 -0.019513935 0.66873801
0.010608685 -0.021217346 0.66802824
0.010574197 -0.022910774 0.66733432
0.010541708 -0.024597287 0.66668069
0.010510375 -0.026275903 0.66605031
0.010480617 -0.02794832 0.66545165
0.010452375 -0.029615074 0.66488349
0.010425189 -0.03127557 0.66433656
0.010400017 -0.032933384 0.66383004
0.010375432 -0.034584761 0.66333544
0.010353319 -0.036236614 0.66289061
0.010331407 -0.037881821 0.66244984
0.010312385 -0.039530784 0.66206712
0.010293433 -0.041173697 0.66168582
0.0102774 -0.04282251 0.66136324
0.010261627 -0.044467032 0.66104591
0.010241638 -0.046087354 0.66064382
0.010212443 -0.047658056 0.66005641
0.010175199 -0.04918015 0.65930712
0.010131624 -0.050658077 0.6584304
0.010087944 -0.052121073 0.65755171
0.010050355 -0.053601921 0.65679544
0.010016421 -0.055090308 0.65611279
0.0099915192 -0.056618601 0.65561175
0.0099707125 -0.058162451 0.65519321
0.0099565275 -0.059739143 0.65490776
0.0099553382 -0.061391249 0.65488386
0.0099734953 -0.063165471 0.65524912
0.010280884 -0.066825718 0.66143334
0.010316708 -0.068778053 0.66215408
0.010368623 -0.07085228 0.66319847
0.010452338 -0.073166355 0.66488272
0.014000188 0.024000347 0.69602251
0.013795551 0.021678746 0.69249368
0.013693559 0.019562244 0.69073486
0.013619173 0.017510355 0.68945217
0.013561589 0.015498966 0.68845916
0.013517207 0.013517201 0.68769377
0.013480321 0.011554569 0.68705773
0.013434406 0.0095959902 0.68626595
0.013369383 0.0076396763 0.68514466
0.013285252 0.0056936741 0.68369395
0.013199041 0.0037711561 0.68220729
0.013119442 0.0018742085 0.68083465
0.013043033 -0 0.67951697
0.01297034 -0.0018528998 0.67826343
0.01290178 -0.0036862493 0.67708117
0.012835164 -0.0055007637 0.67593241
0.012773096 -0.0072988868 0.67486209
0.012712134 -0.009080112 0.67381084
0.012655454 -0.010847539 0.67283344
0.012599548 -0.012599498 0.67186934
0.01254755 -0.014340043 0.67097265
0.012496113 -0.016066432 0.67008573
0.01244837 -0.017783403 0.66926241
0.012401033 -0.019487351 0.66844612
0.012357194 -0.021183759 0.6676901
0.012313792 -0.022868454 0.66694164
0.012273361 -0.024546683 0.66624445
0.012233793 -0.026215285 0.66556215
0.01219656 -0.027877837 0.66492009
0.012160608 -0.029532909 0.66430008
0.012126379 -0.03118214 0.66370988
0.012094012 -0.032826573 0.66315162
0.012062731 -0.034464926 0.66261226
0.012033843 -0.03610152 0.66211414
0.012005466 -0.037731439 0.66162473
0.011980088 -0.039363146 0.66118711
0.011954818 -0.040987968 0.66075134
0.011932864 -0.042617351 0.66037279
0.011911155 -0.044241428 0.65999842
0.011892429 -0.045870781 0.65967548
0.011874327 -0.047497302 0.65936333
0.011851945 -0.049100906 0.65897739
0.011819908 -0.050656766 0.65842497
0.011778687 -0.052162737 0.65771413
0.011728832 -0.053617477 0.65685439
0.011678655 -0.055056512 0.65598911
0.011633928 -0.056507647 0.65521783
0.01159499 -0.057974964 0.65454638
0.011564706 -0.059475675 0.65402424
0.011538799 -0.060990766 0.65357739
0.011522516 -0.062550798 0.65329659
0.011518157 -0.064172596 0.65322149
0.01153348 -0.065905586 0.65348566
0.011887787 -0.069628492 0.65959549
0.011925226 -0.071551353 0.66024113
0.011979146 -0.073586181 0.66117096
0.012065474 -0.07584013 0.66265953
0.012269407 -0.078874722 0.6661762
0.015774855 0.019718587 0.69262213
0.015603905 0.017554402 0.69004267
0.01549992 0.01549989 0.6884737
0.015420027 0.013492525 0.6872682
0.015359381 0.011519521 0.68635309
0.015312962 0.0095705986 0.68565261
0.01527125 0.007635653 0.68502331
0.015215871 0.0057059824 0.68418765
0.015138816 0.0037847161 0.683025
0.01504267 0.0018803477 0.68157429
0.0149469 -0 0.68012923
0.014857633 -0.0018571615 0.67878228
0.014772643 -0.0036931336 0.67749989
0.014691046 -0.0055091381 0.6762687
0.014614719 -0.0073073506 0.67511702
0.014540026 -0.0090875328 0.67399001
0.014470748 -0.010853052 0.67294461
0.014402696 -0.012602359 0.6719178
0.01433903 -0.01433903 0.67095721
0.014276535 -0.016061068 0.6700142
0.014218068 -0.017772585 0.66913199
0.014160526 -0.019470721 0.66826379
0.014106879 -0.021160305 0.6674543
0.014053686 -0.022837222 0.66665173
0.014004566 -0.024507999 0.66591054
0.013955789 -0.026167125 0.66517454
0.013910492 -0.027820975 0.664491
0.013865968 -0.029465199 0.66381919
0.013824162 -0.031104326 0.6631884
0.0137837 -0.032736272 0.66257787
0.013745219 -0.034363061 0.66199732
0.013708831 -0.035985708 0.66144824
0.013673569 -0.037602305 0.66091615
0.013641092 -0.039218128 0.66042614
0.013608998 -0.040826976 0.65994185
0.013580465 -0.042438954 0.65951133
0.013552051 -0.044044137 0.65908253
0.013527137 -0.045654118 0.65870667
0.013502679 -0.047259361 0.65833759
0.013481305 -0.048869759 0.65801513
0.013460949 -0.050478548 0.65770799
0.013436414 -0.052066088 0.65733778
0.013402044 -0.053608179 0.65681916
0.013357368 -0.055099189 0.6561451
0.013301617 -0.056531876 0.65530378
0.013245015 -0.05794692 0.65444982
0.013193023 -0.05936861 0.6536653
0.013149166 -0.060814902 0.65300351
0.013113283 -0.062288076 0.65246201
0.013081827 -0.063773915 0.65198743
0.013063512 -0.065317541 0.65171111
0.013055246 -0.066908121 0.65158641
0.013066283 -0.068597972 0.65175295
0.013466338 -0.072381571 0.65778929
0.013513801 -0.074325919 0.65850544
0.014414781 -0.081083104 0.67210013
0.018792266 0.018792301 0.70664537
0.017542971 0.015593767 0.68988949
0.017384833 0.013521522 0.68776846
0.017275989 0.011517346 0.68630862
0.017191503 0.0095508397 0.68517542
0.017125081 0.0076111555 0.68428457
0.017077541 0.0056925118 0.68364698
0.017030975 0.0037846565 0.68302238
0.016965466 0.0018850565 0.68214375
0.01687582 2.9802322e-08 0.68094146
0.016767865 -0.0018630624 0.67949349
0.016663194 -0.0037029088 0.67808968
0.016564572 -0.0055215061 0.67676693
0.016471507 -0.0073206425 0.67551869
0.016381333 -0.0091007352 0.67430925
0.01629762 -0.010865062 0.67318642
0.016215693 -0.012612224 0.67208767
0.016139098 -0.014345855 0.67106032
0.016064253 -0.016064227 0.67005652
0.015993848 -0.017770946 0.66911221
0.01592507 -0.019463986 0.66818976
0.015860457 -0.021147251 0.66732311
0.01579703 -0.02281791 0.66647243
0.015737684 -0.02448082 0.66567636
0.015678998 -0.02613166 0.66488934
0.015624707 -0.027777225 0.66416115
0.015570735 -0.029411376 0.66343725
0.015520665 -0.031041324 0.66276574
0.015471447 -0.032661974 0.66210556
0.015425182 -0.034278214 0.66148508
0.015380401 -0.035887569 0.66088444
0.015337761 -0.037492245 0.66031253
0.015297485 -0.039093584 0.6597724
0.015258299 -0.040688783 0.6592468
0.015222349 -0.04228431 0.6587646
0.015186671 -0.043872595 0.65828609
0.015155086 -0.045465261 0.65786242
0.015123632 -0.047051281 0.65744054
0.015095748 -0.048641831 0.65706658
0.015068723 -0.050229073 0.65670413
0.015044659 -0.051820517 0.65638137
