# .PCD v0.7 - Point Cloud Data file format
VERSION 0.7
FIELDS x y z
SIZE 4 4 4
TYPE F F F
COUNT 1 1 1
WIDTH 214
HEIGHT 1
VIEWPOINT 0 0 0 1 0 0 0
POINTS 214
DATA ascii
0.0019086296 -0.040081233 0.68498993
0.0019086296 -0.024812162 0.68498987
0 -0.019078255 0.68489325
0.0019086296 -0.0057258904 0.68498987
0.013356281 -0.0057241023 0.68491876
0 2.9802322e-08 0.68489325
0 2.9802322e-08 0.68489325
-0.0019082074 0.0076328516 0.68493891
-0.0019082074 0.0076328516 0.68493891
0.0019086296 0.015269041 0.68498993
-0.0019082074 0.020990312 0.68493891
-0.0019082074 0.041980565 0.68493891
0.0019086296 0.059167475 0.68498993
0 0.061050504 0.68489325
-0.0019082074 0.066787243 0.68493891
-0.0019082074 0.072511882 0.68493891
0.0019086296 0.085888326 0.68498993
0.003826323 -0.074613273 0.68553692
0.0019110788 -0.064976692 0.68528557
0.0019110936 -0.059243888 0.68528736
0 -0.049667746 0.68519127
-0.007666599 -0.040249646 0.68595803
-0.007666599 -0.032583028 0.68595803
-0.0038195611 -0.026736945 0.68512881
-0.0038195611 -0.026736945 0.68512881
-0.0057377294 -0.017213196 0.68546629
0.009578919 -0.017242014 0.68585348
0.0057417676 -0 0.68562883
0.011452476 0.0076349974 0.685004
-0.007666599 0.0095832348 0.68595803
-0.0057377294 0.017213196 0.68546635
0.0095786257 0.022988677 0.68584645
-0.007666599 0.034499705 0.68595803
0.0057417676 0.038278431 0.68562883
0.0038212531 0.043944418 0.68523091
0.0038212531 0.049676299 0.68523097
0.0057417676 0.057417691 0.68562883
-0.007666599 0.059416175 0.68595803
0.0095781125 0.068962395 0.68583405
-0.0096247625 -0.086622879 0.68696022
0.007685293 -0.084538251 0.68652219
0.007685116 -0.059559673 0.68651676
0.0076730358 -0.023019135 0.68615228
0.007672742 0.011509091 0.6861434
0.007672566 0.032608449 0.68613803
-0.0096111186 0.063433439 0.68663085
0.0076722126 0.074804097 0.68612742
-0.011593961 -0.086954683 0.68785036
-0.011593961 -0.085022405 0.68785048
-0.011576928 -0.0038589537 0.68750775
-0.011576928 0.02122438 0.68750775
-0.011576928 0.044378221 0.68750775
-0.013590478 -0.079601347 0.68895733
-0.01356989 -0.029078364 0.68860233
0.013620708 -0.079778433 0.68947864
0.013620656 -0.075886518 0.68947774
-0.015599161 0.011699408 0.68997109
-0.015599223 0.074096322 0.68997204
-0.015599223 0.077996105 0.68997198
-0.015625833 -0.042971045 0.69037354
-0.017679339 -0.035358667 0.69171846
-0.017679408 -0.011786252 0.69171941
-0.017679408 -0 0.69171947
-0.017679408 -0 0.69171947
-0.017679408 0.019643813 0.69171941
-0.017679408 0.021608144 0.69171947
-0.017679408 0.068753272 0.69171941
-0.019736849 -0.037500024 0.69284272
-0.019736849 -0.033552647 0.69284272
0.01774049 -0.023653984 0.69253862
0.01774049 -0.019711643 0.69253862
0.01774049 0.0039423406 0.69253862
0.01774049 0.011827022 0.69253862
-0.019737314 0.015789837 0.69284844
-0.021708906 0.021708906 0.6928249
0.01774049 0.053221464 0.69253862
-0.019737625 0.057239115 0.6928522
0.01774049 0.084760129 0.69253868
0.01774049 0.084760129 0.69253868
0.017777469 -0.047406554 0.69303459
-0.023758065 0.023758084 0.69358563
-0.023758065 0.023758084 0.69358563
0.019975916 -0.059927732 0.69572854
0.019927068 0.045832247 0.69513893
-0.022168748 -0.084644318 0.69787103
-0.0057453718 -0.084265441 0.68577385
-0.0038245681 -0.082228228 0.685431
0.0038263376 -0.078439921 0.68553782
-0.0019106703 -0.076426774 0.68523622
-0.0038245388 -0.0573681 0.68542928
0.0038262645 -0.057393938 0.6855334
-0.0038245537 -0.053543746 0.68543011
0.0057495753 -0.053662717 0.68594295
0.009578919 -0.030652523 0.68585354
0.0038212531 -0.028659374 0.68523097
-0.0019082074 -0.024806678 0.68493891
0.013356331 -0.020988524 0.6849196
0.0038212531 -0.019106239 0.68523097
0.00095431478 -0.017174065 0.68494153
0.011452476 -0.005726248 0.68500394
-0.0038195611 -0.003819555 0.68512887
0.013356281 -0.0038160384 0.6849187
0.011452476 0.0057262182 0.685004
-0.0019082074 0.015265644 0.68493891
0.013356281 0.022896469 0.68491876
0.015326448 0.02298969 0.68585616
0.013356281 0.024804533 0.6849187
0.013356281 0.026712596 0.6849187
0.0057417676 0.028708845 0.68562877
0.0095785158 0.034482658 0.68584383
-0.0057377294 0.036338955 0.68546629
0.0038212531 0.038212538 0.68523091
0.0095783882 0.045018405 0.68584067
0.0038212531 0.059229404 0.68523097
-0.0019082074 0.06487903 0.68493891
0.0057417676 0.066987306 0.68562877
-0.007666599 0.076666027 0.68595803
-0.0019082074 0.080144733 0.68493891
0.0057417676 0.080384731 0.68562883
-0.007666599 0.084332585 0.68595803
0.0096377768 -0.079029769 0.68727446
-0.0096247997 -0.075073421 0.68696111
-0.0076770391 -0.072931856 0.6862731
-0.0096247997 -0.067373604 0.68696117
0.0096377768 -0.057826668 0.6872744
-0.0076770093 -0.047021672 0.68627214
-0.0076770093 -0.047021672 0.68627214
0.0076850862 -0.044189245 0.68651599
0.0076850862 -0.044189245 0.68651599
-0.009624837 -0.042349279 0.68696201
0.0076850862 -0.042267948 0.68651593
-0.011576928 -0.028942317 0.68750769
-0.011576928 -0.028942317 0.68750769
-0.0096111558 -0.01153338 0.68663174
-0.0096111558 0.0057666898 0.68663174
-0.0096111558 0.0057666898 0.68663174
0.0076726833 0.019181669 0.68614161
0.0076726833 0.019181669 0.68614161
0.0076726242 0.02493608 0.68613982
-0.011576928 0.0328013 0.68750775
-0.011576928 0.046307743 0.68750769
0.0076721245 0.082475364 0.6861248
-0.013590478 -0.083484352 0.68895733
0.013620656 -0.073940694 0.68947774
0.011613742 -0.058068693 0.6882484
-0.01356989 -0.021324128 0.68860227
-0.01356989 -0.019385546 0.68860227
-0.01356989 -0.013569862 0.68860227
-0.015599161 -0.0077995658 0.68997109
-0.01356989 -0.0019385219 0.68860227
-0.01356989 0.005815655 0.68860233
-0.015599161 0.037048012 0.68997109
-0.015599161 0.038997918 0.68997109
-0.015599223 0.060446978 0.68997198
-0.01356989 0.073665112 0.68860233
0.015669016 -0.068551928 0.69102514
0.015668832 -0.060716748 0.6910224
0.015668832 -0.052882314 0.69102234
0.015668832 -0.052882314 0.69102234
-0.015625833 -0.042971045 0.69037354
-0.017679408 0.0039287508 0.69171941
-0.017679408 0.017679423 0.69171941
-0.017679408 0.025536954 0.69171941
-0.017679408 0.029465675 0.69171941
-0.017679408 0.053038239 0.69171935
-0.017679408 0.062860161 0.69171941
-0.017711256 -0.059037536 0.6921466
0.01774049 -0.039423317 0.69253874
-0.021708906 -0.035523653 0.6928249
-0.019736849 -0.035526335 0.69284278
-0.021708906 -0.027629524 0.69282496
-0.021708906 -0.023682445 0.69282484
-0.019737082 -0.0059211254 0.69284558
-0.021708906 0.013814747 0.6928249
-0.019737471 0.031579971 0.69285023
0.01774049 0.031538665 0.69253862
-0.019737471 0.03355369 0.69285023
0.01774049 0.051250339 0.69253862
-0.021708906 0.078941524 0.6928249
-0.021708906 0.078941524 0.6928249
-0.019737082 0.086843163 0.69284558
0.019926352 0.0079705119 0.69513029
0.019926909 0.039853811 0.69513696
0.019927703 0.075725287 0.69514656
0.022354862 -0.048774242 0.69991344
0.022277409 -0.014176518 0.69906342
0.022279482 0.01822868 0.69908631
-0.02488305 -0.066354781 0.70490205
0.0096431263 -0.08871676 0.68740362
-0.0028676083 -0.07359159 0.68533278
-0.0106094 -0.062681027 0.68740618
-0.0106094 -0.062681027 0.68740618
0.0096377768 -0.06264554 0.68727446
-0.0028676246 -0.050654337 0.6853345
0.010515697 -0.037289165 0.68542874
-0.010594042 -0.014443941 0.68706971
0.010515653 0.0066928938 0.68542767
-0.0067021642 0.018188827 0.68571222
0.002387784 0.02577728 0.68508625
0.00670713 0.041194499 0.68588233
0.0067069903 0.073765546 0.68587816
-0.0028638842 0.077314265 0.68503386
-0.007666599 0.088165909 0.68595803
-0.014608167 -0.073996939 0.68966568
0.011613831 -0.070650816 0.68825018
-0.014584495 -0.030135423 0.68928623
-0.017679408 -0.010804072 0.69171941
-0.019736886 -0.030592173 0.69284326
-0.022733485 0.010871783 0.69320524
0.018833501 0.014864318 0.69383544
0.018833799 0.050539427 0.69383901
-0.01973716 0.081909209 0.69284654
-0.022168837 -0.05340673 0.69787204
0.022276461 -0.029364407 0.69905305
