# .PCD v0.7 - Point Cloud Data file format
VERSION 0.7
FIELDS x y z
SIZE 4 4 4
TYPE F F F
COUNT 1 1 1
WIDTH 1317
HEIGHT 1
VIEWPOINT 0 0 0 1 0 0 0
POINTS 1317
DATA ascii
-0.051078007 -0.0046434402 0.6414361
-0.050814398 -0.0061593056 0.64047188
-0.050373975 -0.0076324344 0.63886082
-0.050156083 -0.0091192722 0.63806379
-0.050141614 -0.010636121 0.63801092
-0.050385047 -0.012214541 0.63890135
-0.050998654 -0.013908744 0.64114588
-0.051081799 -0.015479326 0.64145005
-0.050915308 -0.016971737 0.64084101
-0.050695207 -0.018434614 0.64003587
-0.050320551 -0.019823253 0.63866544
-0.049771018 -0.021114975 0.63665533
-0.049840122 -0.022654593 0.63690811
-0.04990942 -0.024198502 0.63716161
-0.049979068 -0.025746793 0.63741636
-0.046727415 0.01022163 0.63086343
-0.046790227 0.0087731779 0.63110042
-0.046853345 0.0073208511 0.63133854
-0.047603611 0.0059504509 0.63416868
-0.048123699 0.0045115948 0.63613057
-0.048034042 0.0030021369 0.63579237
-0.047671929 0.0014897585 0.63442636
-0.047891084 -2.9802322e-08 0.63525307
-0.04992789 -0.001560241 0.64293635
-0.050146811 -0.003134191 0.64376217
-0.050118867 -0.0046986341 0.64365673
-0.049771603 -0.0062214434 0.6423468
-0.049392216 -0.0077174902 0.64091563
-0.049226239 -0.0092298985 0.6402896
-0.049267747 -0.010777295 0.64044613
-0.049704392 -0.012426108 0.6420933
-0.050157338 -0.014106721 0.64380193
-0.050117776 -0.015661806 0.64365262
-0.049921818 -0.017160624 0.64291346
-0.04967941 -0.01862976 0.64199901
-0.04917514 -0.019977391 0.64009684
-0.048083954 -0.021036744 0.63598061
-0.04815061 -0.02257058 0.63623208
-0.04839775 -0.02419886 0.63716435
-0.048284199 -0.025651008 0.63673604
-0.048351418 -0.027197659 0.63698959
-0.045104876 0.010185003 0.6302315
-0.045165289 0.0087416768 0.6304667
-0.045226 0.0072945058 0.63070309
-0.046836618 0.0060434341 0.63697469
-0.047240302 0.0045716465 0.63854659
-0.047052719 0.0030356944 0.63781619
-0.046761215 0.0015084147 0.63668108
-0.047142815 -2.9802322e-08 0.63816702
-0.049048092 -0.0015821755 0.64558595
-0.049222421 -0.0031756461 0.64626479
-0.049117208 -0.0047532618 0.64585507
-0.048710924 -0.00628528 0.64427304
-0.04838847 -0.0078046024 0.64301741
-0.048278376 -0.0093442202 0.64258873
-0.048435763 -0.010937124 0.64320159
-0.0489996 -0.012645036 0.64539713
-0.049243674 -0.014296532 0.64634752
-0.049108814 -0.015841544 0.64582241
-0.048899654 -0.017351508 0.64500797
-0.048599359 -0.018812627 0.64383864
-0.047897175 -0.020085931 0.6411044
-0.046764601 -0.021119475 0.63669431
-0.046989996 -0.022737086 0.63757193
-0.047338482 -0.024432778 0.63892889
-0.046928018 -0.025734723 0.63733059
-0.046666678 -0.027096808 0.63631296
-0.046731353 -0.02864179 0.63656479
-0.04343579 0.011582881 0.62937003
-0.043493811 0.010148555 0.62960351
-0.043551859 0.0087104142 0.62983704
-0.043610189 0.0072683692 0.63007176
-0.043668423 0.0058224797 0.63030607
-0.046311919 0.0046311915 0.64094269
-0.046023104 0.0030681789 0.63978058
-0.045862805 0.0015287697 0.6391356
-0.047883648 -0 0.64726686
-0.048138719 -0.0016046166 0.64829314
-0.048273247 -0.0032182336 0.64883447
-0.04805303 -0.0048053265 0.64794838
-0.047628257 -0.0063504577 0.64623922
-0.047381997 -0.0078970194 0.64524841
-0.04735703 -0.0094713867 0.64514792
-0.047586128 -0.011103451 0.64606977
-0.048179969 -0.01284799 0.64845914
-0.048243459 -0.014473051 0.6487146
-0.048070729 -0.016023546 0.64801955
-0.047850374 -0.017545164 0.64713299
-0.047435004 -0.018974006 0.64546162
-0.046219941 -0.020028651 0.64057261
-0.045778047 -0.021363109 0.63879454
-0.046566069 -0.023283035 0.64196533
-0.046230905 -0.024656445 0.64061666
-0.045805983 -0.02595669 0.63890696
-0.044994254 -0.026996523 0.63564086
-0.045056377 -0.028535724 0.63589078
-0.045118675 -0.030079126 0.63614142
-0.041783236 0.012967229 0.62851799
-0.041838657 0.011541754 0.62874866
-0.04199826 0.010137498 0.62941301
-0.042149659 0.0087206364 0.63004321
-0.042091947 0.0072572231 0.62980306
-0.045204021 0.0062350631 0.64275676
-0.045338627 0.0046902299 0.64331704
-0.044981211 0.0031021833 0.64182943
-0.044985674 0.0015512407 0.64184797
-0.046963025 2.9802322e-08 0.65007854
-0.047203183 -0.0016276836 0.65107822
-0.047241606 -0.0032580495 0.65123814
-0.046959832 -0.0048579276 0.65006524
-0.046557829 -0.0064217746 0.64839196
-0.046380293 -0.0079965889 0.64765298
-0.046410259 -0.0096021295 0.64777768
-0.04682738 -0.011303186 0.64951396
-0.047254987 -0.013035864 0.65129381
-0.047199648 -0.014648139 0.6510635
-0.047005318 -0.016208738 0.65025461
-0.04674923 -0.017732471 0.64918864
-0.046175878 -0.019107252 0.64680213
-0.044961002 -0.020154923 0.64174527
-0.044958498 -0.021704108 0.64173484
-0.045495991 -0.023532391 0.64397216
-0.045095004 -0.024879992 0.64230299
-0.044072676 -0.025835723 0.6380477
-0.043511532 -0.027007163 0.63571191
-0.043393768 -0.028430402 0.63522178
-0.043453675 -0.029968083 0.63547111
-0.043513618 -0.031509876 0.63572067
-0.040199593 0.012921274 0.62790221
-0.040252838 0.011500806 0.62813175
-0.041147307 0.010286808 0.63198793
-0.041216061 0.0088320076 0.63228428
-0.041223217 0.0073613226 0.63231516
-0.044312015 0.0063303113 0.64563125
-0.044324353 0.0047490299 0.64568448
-0.043954998 0.0031396747 0.64409214
-0.04411361 0.0015754998 0.64477593
-0.046015128 2.9802322e-08 0.65297353
-0.046223879 -0.0016508698 0.6538735
-0.0461835 -0.0032988191 0.6536994
-0.04581739 -0.0049089789 0.65212107
-0.045480058 -0.0064971447 0.65066683
-0.045353003 -0.0080987513 0.65011907
-0.045493647 -0.0097486079 0.65072536
-0.046041287 -0.011510313 0.6530863
-0.0462544 -0.013215572 0.65400505
-0.046115849 -0.01482293 0.65340775
-0.045906566 -0.016395211 0.65250558
-0.045564219 -0.017900229 0.65102965
-0.04471951 -0.019165486 0.64738804
-0.043877084 -0.020371526 0.64375627
-0.044611003 -0.022305489 0.6469202
-0.044342451 -0.023754895 0.64576244
-0.043931019 -0.02510342 0.64398873
-0.042769607 -0.02596724 0.63898176
-0.042504128 -0.02732408 0.63783729
-0.042349178 -0.028736949 0.63716936
-0.041965704 -0.029975504 0.63551605
-0.041858375 -0.031393766 0.6350534
-0.038627233 0.012875736 0.62729126
-0.039131615 0.011594564 0.62954617
-0.040260706 0.010437965 0.63459408
-0.04025843 0.0089463592 0.63458395
-0.040368136 0.0074755847 0.63507444
-0.043346252 0.0064216554 0.64838886
-0.043255899 0.0048062205 0.64798486
-0.042935587 0.0031804144 0.64655286
-0.043230847 0.0016011298 0.64787292
-0.045030177 2.9802322e-08 0.65591729
-0.045194525 -0.0016738474 0.65665209
-0.045060214 -0.0033377707 0.65605158
-0.044658188 -0.0049619973 0.6542542
-0.044381641 -0.0065750182 0.65301782
-0.044346821 -0.0082123578 0.65286219
-0.044563025 -0.0099028647 0.6538288
-0.045131262 -0.01170069 0.65636927
-0.045175333 -0.013385296 0.65656626
-0.04499808 -0.01499933 0.65577382
-0.044774674 -0.016583234 0.65477502
-0.044305809 -0.018050522 0.65267885
-0.043082643 -0.019147843 0.64721036
-0.042911448 -0.020661056 0.64644492
-0.043549698 -0.022581279 0.64929837
-0.043159444 -0.023977458 0.64755368
-0.042237028 -0.025029331 0.64342976
-0.041615374 -0.026202291 0.64065051
-0.041494455 -0.027662963 0.6401099
-0.041230164 -0.029013813 0.63892835
-0.040724933 -0.030166626 0.63666958
-0.040215164 -0.031278461 0.63439047
-0.040270429 -0.032812953 0.63463759
-0.036968805 0.015640616 0.6262337
-0.037017405 0.014237463 0.6264593
-0.037065923 0.012830555 0.62668455
-0.038539063 0.011858165 0.633524
-0.039327092 0.01058805 0.63718253
-0.039276514 0.0090638101 0.63694775
-0.039561015 0.0076078773 0.63826859
-0.042337723 0.0065134764 0.65116006
-0.042148024 0.0048632324 0.65027934
-0.041919317 0.0032245517 0.64921749
-0.043764275 0.0016832352 0.65778315
-0.044010937 -0 0.65892833
-0.044123936 -0.0016970932 0.65945292
-0.043891698 -0.0033762753 0.65837473
-0.043486465 -0.0050176382 0.65649331
-0.04329918 -0.0066613853 0.65562379
-0.043317921 -0.0083304048 0.65571082
-0.0437131 -0.010087639 0.65754557
-0.044113461 -0.011876702 0.65940428
-0.044043567 -0.013551861 0.65907979
-0.043849684 -0.01517874 0.65817964
-0.04357532 -0.016759723 0.65690583
-0.0429083 -0.018153489 0.65380907
-0.041891508 -0.019334555 0.64908838
-0.042499546 -0.021249771 0.65191132
-0.042346407 -0.022801906 0.65120035
-0.04194567 -0.024199426 0.64933985
-0.040829707 -0.02512598 0.64415872
-0.040553134 -0.026515484 0.64287472
-0.040403258 -0.027971476 0.64217883
-0.040024009 -0.029248327 0.64041811
-0.039460339 -0.030354083 0.63780117
-0.038861293 -0.031387955 0.63501996
-0.038636923 -0.03269276 0.63397825
-0.035376731 0.016980827 0.62541187
-0.035422813 0.015586048 0.62563437
-0.035476964 0.014190793 0.62589586
-0.035515439 0.012785584 0.62608165
-0.035561886 0.011379808 0.62630588
-0.035608452 0.009970367 0.62653071
-0.038280405 0.0091872811 0.63943207
-0.038782559 0.0077565312 0.64185667
-0.041276496 0.0066042542 0.65389848
-0.040989619 0.0049187541 0.65251327
-0.040912665 0.0032730103 0.65214175
-0.042729177 0.0017091632 0.66091263
-0.042960599 -0 0.66203004
-0.04298038 -0.0017192364 0.66212559
-0.042673927 -0.0034139156 0.6606459
-0.042325508 -0.005079031 0.65896356
-0.042188045 -0.006750077 0.6582998
-0.0423069 -0.008461386 0.65887374
-0.042834524 -0.010280281 0.6614213
-0.043016441 -0.012044609 0.66229969
-0.042874016 -0.013719678 0.66161203
-0.042668253 -0.015360564 0.66061848
-0.042289164 -0.016915679 0.65878808
-0.041145343 -0.018103957 0.65326518
-0.040807892 -0.019587815 0.65163589
-0.041481953 -0.021570623 0.65489054
-0.04111167 -0.023022532 0.65310264
-0.040554799 -0.024332851 0.65041381
-0.039616425 -0.025354505 0.64588296
-0.039492227 -0.026854694 0.64528322
-0.039233103 -0.028247803 0.64403212
-0.038734883 -0.029438496 0.64162648
-0.038162336 -0.030529886 0.63886195
-0.037552729 -0.031544298 0.63591856
-0.037015233 -0.032573432 0.63332331
-0.037065685 -0.034100443 0.63356686
-0.033843551 0.016921788 0.62481785
-0.034258425 0.015701771 0.62690449
-0.034550674 0.014396131 0.6283744
-0.034405459 0.012902051 0.627644
-0.034020256 0.011340111 0.62570655
-0.034064554 0.0099354684 0.62592936
-0.037271585 0.0093179047 0.64205956
-0.040025089 0.0083385706 0.65590858
-0.040164717 0.0066941082 0.65661085
-0.039830863 0.0049788654 0.65493172
-0.039914932 0.0033262372 0.6553545
-0.041661691 0.0017359257 0.66414005
-0.041857734 -2.9802322e-08 0.66512609
-0.041805569 -0.0017419159 0.66486371
-0.041428704 -0.0034523904 0.66296822
-0.04113565 -0.0051419437 0.66149431
-0.041082736 -0.0068471432 0.66122818
-0.041284427 -0.0086009204 0.66224253
-0.041823186 -0.010455787 0.66495228
-0.041848544 -0.012205809 0.66507983
-0.041668631 -0.013889551 0.66417497
-0.041436709 -0.015538782 0.66300845
-0.040906824 -0.017044485 0.66034329
-0.039808944 -0.018245727 0.65482152
-0.039971929 -0.019985944 0.6556412
-0.04023267 -0.02179271 0.65695262
-0.039845005 -0.02324295 0.65500283
-0.03878298 -0.024239361 0.64966124
-0.038491838 -0.02566123 0.64819694
-0.038347535 -0.02716285 0.64747107
-0.03797416 -0.028480589 0.64559323
-0.037422813 -0.029626399 0.64282012
-0.036835991 -0.03069666 0.63986868
-0.03621009 -0.031683832 0.63672066
-0.035405446 -0.032454967 0.6326735
-0.035453528 -0.033976287 0.63291538
-0.035501741 -0.035501719 0.63315785
-0.032604225 0.018428475 0.6257143
-0.032321088 0.016863167 0.62422842
-0.032362901 0.015477896 0.62444782
-0.033583466 0.014601499 0.63085371
-0.033398185 0.013068855 0.62988132
-0.032489166 0.011300564 0.62511051
-0.03253141 0.0099008679 0.62533224
-0.0362597 0.0094590485 0.64489937
-0.038989071 0.0084759295 0.65922385
-0.039008498 0.0067841113 0.6593259
-0.038675908 0.0050446987 0.65758032
-0.038901165 0.0033827126 0.65876257
-0.040552847 0.001763165 0.66743106
-0.040705178 -2.9802322e-08 0.66823053
-0.04054613 -0.0017628968 0.66739577
-0.040155232 -0.0034917593 0.66534424
-0.039952818 -0.0052112639 0.6642819
-0.039960865 -0.006949693 0.66432416
-0.04033114 -0.0087676346 0.66626745
-0.040701721 -0.010617852 0.66821241
-0.040618688 -0.012362212 0.66777658
-0.040427625 -0.014061809 0.6667738
-0.040122755 -0.015700191 0.66517377
-0.039291516 -0.017083287 0.66081119
-0.038613491 -0.018467307 0.65725273
-0.039274618 -0.020491123 0.66072249
-0.038942236 -0.022010803 0.65897804
-0.038484748 -0.02342549 0.65657705
-0.037503254 -0.024458677 0.65142596
-0.037375122 -0.026000082 0.65075338
-0.037122302 -0.027438194 0.64942652
-0.036633324 -0.028669566 0.64686024
-0.036073636 -0.029799968 0.64392287
-0.035476141 -0.030848861 0.64078707
-0.034808606 -0.031781763 0.63728362
-0.033807218 -0.032337338 0.63202798
-0.033853065 -0.033853054 0.63226861
-0.033898834 -0.035372674 0.63250887
-0.033945031 -0.036896765 0.63275129
-0.03149223 0.018609077 0.62739098
-0.030809136 0.016804963 0.62364304
-0.030848851 0.015424401 0.62386096
-0.030888671 0.014040321 0.62407941
-0.030928679 0.012652636 0.62429893
-0.030968705 0.011261374 0.62451851
-0.031265393 0.0099480748 0.62614638
-0.035240244 0.0096110106 0.64795583
-0.037876874 0.008608371 0.6624226
-0.037788324 0.0068705976 0.66193676
-0.037520032 0.0051163733 0.66046464
-0.03916939 0.0035608411 0.66951448
-0.039403398 0.00179106 0.67079842
-0.039494161 -0 0.67129642
-0.039254732 -0.0017842948 0.66998267
-0.038892195 -0.0035356283 0.66799355
-0.038746532 -0.0052836239 0.66719437
-0.038843885 -0.0070625246 0.66772842
-0.039346777 -0.0089424551 0.67048776
-0.039497558 -0.010772079 0.67131507
-0.039352402 -0.012521178 0.67051864
-0.039149188 -0.014236063 0.66940361
-0.038727861 -0.015843213 0.66709185
-0.037623007 -0.017101377 0.6610297
-0.037562285 -0.018781126 0.66069651
-0.037991386 -0.020722598 0.66305095
-0.03761851 -0.022229105 0.66100502
-0.03661985 -0.023303539 0.65552551
-0.036310617 -0.024757236 0.65382874
-0.036172442 -0.026307255 0.65307069
-0.035806749 -0.027668864 0.65106416
-0.035270616 -0.028857738 0.64812243
-0.034698825 -0.029967159 0.64498514
-0.034087751 -0.030988872 0.64163232
-0.032177214 -0.030714601 0.63114941
-0.032220632 -0.032220632 0.63138765
-0.032573503 -0.03405413 0.63332385
-0.032515194 -0.035471112 0.63300383
-0.032351404 -0.036762953 0.63210523
-0.032395199 -0.038285226 0.6323455
-0.030359635 0.01879406 0.62910897
-0.029726626 0.016986638 0.6254704
-0.029449439 0.01542592 0.62387705
-0.029382981 0.013991922 0.62349498
-0.029420909 0.012608945 0.62371308
-0.029610353 0.011280149 0.62480199
-0.03407741 0.011359155 0.6504792
-0.034235407 0.0097815692 0.65138739
-0.036713306 0.0087412894 0.6656307
-0.036522277 0.0069566667 0.6645326
-0.036365792 0.0051951408 0.66363311
-0.037998624 0.0036189258 0.67301887
-0.038216989 0.001819849 0.67427403
-0.038219631 2.9802322e-08 0.67428923
-0.037904594 -0.0018049777 0.67247832
-0.03760466 -0.0035814047 0.67075431
-0.037530921 -0.005361557 0.67033041
-0.037716832 -0.0071841478 0.67139912
-0.038221162 -0.009100318 0.67429805
-0.038223386 -0.010920942 0.6743108
-0.038049124 -0.012683034 0.67330915
-0.03780517 -0.014401972 0.67190689
-0.037189931 -0.01593855 0.66837043
-0.036309868 -0.017290384 0.66331172
-0.03691205 -0.019334882 0.66677314
-0.036640588 -0.020937473 0.66521269
-0.036233865 -0.022430509 0.66287482
-0.035263959 -0.023509324 0.6572997
-0.03513214 -0.02509439 0.65654194
-0.034887645 -0.026581049 0.65513659
-0.034410872 -0.02785641 0.65239602
-0.033866856 -0.029028744 0.64926893
-0.033284862 -0.030114859 0.64592355
-0.03159846 -0.030093759 0.63622987
-0.030604308 -0.030604333 0.6305154
-0.030645456 -0.03210476 0.63075191
-0.031549599 -0.034554303 0.63594908
-0.031330969 -0.035806835 0.63469231
-0.030821012 -0.036691666 0.63176101
-0.030810891 -0.038146794 0.6317029
-0.0292782 0.019030869 0.63130748
-0.028701641 0.017221004 0.62782764
-0.028436815 0.015640259 0.62622929
-0.027915331 0.013957679 0.6230818
-0.027923431 0.012565523 0.62313068
-0.028725781 0.011490345 0.62797332
-0.032919087 0.011521697 0.65328217
-0.033273172 0.0099819303 0.65541929
-0.035488568 0.0088721216 0.6687904
-0.035212968 0.0070426166 0.66712701
-0.035221022 0.0052831471 0.66717553
-0.036788914 0.0036788881 0.67663866
-0.036968991 0.0018484294 0.67772555
-0.03689063 -0 0.67725259
-0.03653013 -0.0018265247 0.67507678
-0.03630523 -0.0036305487 0.67371941
-0.036303382 -0.00544554 0.67370826
-0.036645576 -0.0073290765 0.6757735
-0.036983337 -0.0092458427 0.6778121
-0.036889676 -0.011066884 0.67724681
-0.036703907 -0.012846351 0.67612565
-0.036370941 -0.014548361 0.67411596
-0.035333194 -0.015899926 0.66785264
-0.035103526 -0.01755175 0.66646641
-0.035609927 -0.01958546 0.66952288
-0.035253529 -0.021152109 0.66737181
-0.034322504 -0.022309631 0.66175252
-0.033998571 -0.023799002 0.65979743
-0.033867285 -0.02540046 0.65900505
-0.03351162 -0.026809335 0.65685844
-0.032993652 -0.028044581 0.65373224
-0.032440264 -0.029196203 0.65039223
-0.031847864 -0.030255467 0.64681679
-0.029661953 -0.029661924 0.63362366
-0.029042659 -0.030494809 0.62988591
-0.029081484 -0.031989634 0.63012022
-0.029120412 -0.033488452 0.63035512
-0.029159445 -0.034991324 0.63059074
-0.029198669 -0.036498338 0.63082749
-0.029237909 -0.038009286 0.63106436
-0.028169168 0.019273639 0.63356215
-0.02764806 0.017461926 0.63025141
-0.027395735 0.015860707 0.6286484
-0.026796058 0.014103204 0.62483847
-0.026436307 0.012522459 0.62255287
-0.026470091 0.011145324 0.62276751
-0.031742074 0.011694461 0.65626144
-0.034065448 0.010757506 0.6710223
-0.034206528 0.0090017319 0.67191863
-0.03390532 0.007137984 0.67000496
-0.034055561 0.0053772032 0.67095947
-0.035532322 0.0037402511 0.6803416
-0.035669908 0.0018773973 0.68121576
-0.035493318 -0 0.68009388
-0.035141442 -0.0018495321 0.67785835
-0.034990892 -0.0036832392 0.67690182
-0.035067171 -0.0055369139 0.6773864
-0.035539098 -0.0074819028 0.68038464
-0.035659201 -0.0093840063 0.68114781
-0.035514269 -0.011215031 0.68022698
-0.035311915 -0.013009638 0.67894137
-0.034839068 -0.014669061 0.67593729
-0.033882841 -0.016049743 0.66986215
-0.0343684 -0.018088639 0.67294699
-0.034193117 -0.019795984 0.6718334
-0.033823051 -0.021361917 0.66948235
-0.032886788 -0.022501469 0.66353405
-0.032751966 -0.024133027 0.66267753
-0.03251816 -0.025672197 0.66119206
-0.032056537 -0.026995003 0.65825927
-0.031531826 -0.028212667 0.6549257
-0.030969342 -0.029339373 0.65135217
-0.029094534 -0.029094517 0.63944113
-0.028064061 -0.029541105 0.63289434
-0.027764251 -0.030686796 0.63098961
-0.027600702 -0.031958669 0.62995052
-0.027565487 -0.033368737 0.62972683
-0.027602384 -0.034866124 0.62996119
-0.027639218 -0.036367387 0.63019526
-0.027031476 0.019522727 0.63587499
-0.026568966 0.017712653 0.63277334
-0.026324887 0.016087443 0.63113654
-0.025637647 0.014243126 0.62652785
-0.024959343 0.012479693 0.621979
-0.024991201 0.011107177 0.62219262
-0.030542988 0.011877865 0.65942371
-0.032847021 0.010948986 0.67487496
-0.032873996 0.00913167 0.67505586
-0.032592289 0.007242769 0.67316663
-0.032959774 0.0054932833 0.67563111
-0.034227639 0.0038031042 0.68413359
-0.0342962 0.0019053519 0.68459332
-0.034043279 -2.9802322e-08 0.68289721
-0.033742916 -0.0018745959 0.68088293
-0.033651885 -0.0037390888 0.68027246
-0.033819955 -0.0056366324 0.68139952
-0.034284186 -0.0076186955 0.68451285
-0.034265015 -0.0095180571 0.68438417
-0.034097284 -0.011365801 0.68325937
-0.033836853 -0.013158768 0.68151283
-0.033051215 -0.014689416 0.67624426
-0.032546356 -0.016273171 0.67285866
-0.033072818 -0.018373787 0.67638922
-0.032738011 -0.020006537 0.67414391
-0.031878326 -0.021252215 0.66837871
-0.031543825 -0.02278164 0.66613555
-0.031420026 -0.024437785 0.66530532
-0.031076033 -0.025896668 0.66299838
-0.030580321 -0.027182519 0.65967411
-0.03004826 -0.028378904 0.656106
-0.029467817 -0.029467821 0.65221345
-0.027359609 -0.028879583 0.63807553
-0.026806917 -0.029785454 0.63436913
-0.026594779 -0.031027228 0.63294643
-0.026427468 -0.032300264 0.63182449
-0.026021643 -0.033249855 0.62910289
-0.026056273 -0.0347417 0.62933517
-0.026626069 -0.036980659 0.6331563
-0.025863986 0.019778311 0.6382485
-0.025460111 0.017971843 0.63538074
-0.025212286 0.016313821 0.63362098
-0.024456015 0.014385879 0.62825096
-0.023595797 0.012491912 0.62214285
-0.023522258 0.011069328 0.62162071
-0.029327728 0.012076169 0.66284317
-0.031553496 0.011136532 0.67864758
-0.031470612 0.0092560351 0.67805904
-0.031270232 0.0073577166 0.67663622
-0.032678179 0.0057667792 0.68663353
-0.032878384 0.0038680434 0.6880551
-0.032866061 0.0019333065 0.68796754
-0.032554116 -0 0.68575257
-0.032313827 -0.0019007921 0.68404639
-0.032303151 -0.0038003623 0.68397057
-0.032613277 -0.0057553053 0.68617266
-0.032915026 -0.0077446997 0.68831527
-0.032813825 -0.0096511245 0.68759668
-0.032636803 -0.011518866 0.68633974
-0.03227447 -0.013289481 0.68376696
-0.031319398 -0.01473856 0.67698532
-0.031415984 -0.016631991 0.67767113
-0.031586658 -0.018580407 0.67888308
-0.031242667 -0.020215869 0.67644048
-0.03035886 -0.021429777 0.67016494
-0.030222518 -0.023111343 0.66919678
-0.030001119 -0.024706781 0.66762471
-0.029558459 -0.026080996 0.66448158
-0.029057031 -0.027347803 0.6609211
-0.028518492 -0.028518498 0.6570971
-0.026673574 -0.028242588 0.64399707
-0.025828566 -0.028867215 0.63799697
-0.025574861 -0.030088067 0.63619548
-0.025444804 -0.031431824 0.63527203
-0.024782784 -0.032071859 0.63057125
-0.024488756 -0.033131868 0.62848347
-0.025404755 -0.035865515 0.63498759
-0.024677383 0.020050377 0.64077437
-0.024318321 0.018238783 0.63806552
-0.024055483 0.016538143 0.63608253
-0.023250459 0.014531553 0.63000906
-0.022453463 0.012630075 0.62399626
-0.022063306 0.011031657 0.62105274
-0.022116823 0.0096761286 0.62145644
-0.030194953 0.011323124 0.68240124
-0.030012479 0.0093788803 0.68102461
-0.02994322 0.0074857771 0.68050206
-0.031298093 0.0058684051 0.69072378
-0.031457849 0.0039322376 0.69192904
-0.031360254 0.0019600093 0.69119275
-0.03102711 2.9802322e-08 0.6886794
-0.030875856 -0.0019297302 0.68753827
-0.030931806 -0.0038664639 0.68796039
-0.03136443 -0.0058808327 0.69122428
-0.031455994 -0.0078639984 0.69191504
-0.031314742 -0.0097858906 0.69084942
-0.031110909 -0.011666596 0.68931162
-0.03056979 -0.013374269 0.68522918
-0.029853111 -0.014926553 0.67982227
-0.030355701 -0.017075092 0.68361402
-0.030056989 -0.018785626 0.68136036
-0.029286215 -0.02013424 0.67554533
-0.028932607 -0.021699429 0.67287755
-0.028817108 -0.023413926 0.67200625
-0.028487233 -0.024926305 0.66951752
-0.028015897 -0.026264876 0.6659615
-0.027508954 -0.027508974 0.66213697
-0.026945006 -0.028629035 0.65788227
-0.024926636 -0.028042495 0.6426549
-0.024540691 -0.029142082 0.63974315
-0.024366654 -0.030458331 0.63843012
-0.024098787 -0.031629652 0.63640928
-0.022936316 -0.031537443 0.62763911
-0.022966649 -0.033014566 0.62786794
-0.0234714 0.020341873 0.64348119
-0.023146961 0.018517584 0.64087027
-0.022866428 0.016768724 0.63861275
-0.022020433 0.014680326 0.6318047
-0.021303458 0.012782097 0.62603492
-0.020753155 0.011068344 0.62160641
-0.02094491 0.0097742975 0.62314951
-0.028765835 0.011506319 0.68608749
-0.028521625 0.0095072091 0.68412226
-0.028601186 0.0076269507 0.68476254
-0.029863365 0.0059727132 0.69491971
-0.029982906 0.0039977431 0.69588172
-0.029799338 0.0019866526 0.69440448
-0.029501356 -0 0.69200653
-0.029398046 -0.0019598603 0.69117516
-0.029546298 -0.0039394796 0.69236815
-0.029959807 -0.0059919357 0.69569582
-0.029926237 -0.0079803169 0.69542563
-0.029768726 -0.0099228919 0.69415808
-0.029491965 -0.011796802 0.69193095
-0.028610561 -0.01335156 0.68483794
-0.02849834 -0.015199095 0.68393487
-0.028804697 -0.017282784 0.68640023
-0.028485361 -0.018990248 0.6838305
-0.027668685 -0.020290375 0.67725831
-0.027529446 -0.022023559 0.6761378
-0.027322296 -0.023679316 0.67447078
-0.026902933 -0.02510941 0.67109597
-0.026429627 -0.026429594 0.66728711
-0.025920214 -0.02764824 0.66318774
-0.024165532 -0.027387589 0.6490671
-0.023476979 -0.028172344 0.64352608
-0.021342956 -0.027034402 0.62635279
-0.021370912 -0.028494567 0.62657773
-0.021398941 -0.029958487 0.62680328
-0.021427104 -0.0314264 0.62702996
-0.02145534 -0.032898217 0.62725723
-0.022229904 0.020642072 0.64626843
-0.021939574 0.018805355 0.64376515
-0.02164348 0.017005593 0.64121211
-0.020782525 0.014844656 0.63378882
-0.020125436 0.012937814 0.62812328
-0.019610533 0.011206031 0.62368369
-0.019958004 0.0099790096 0.62667966
-0.027271431 0.011687756 0.68973744
-0.027020961 0.0096503198 0.68757784
-0.027246293 0.0077846646 0.68952066
-0.02837144 0.0060796142 0.69922191
-0.02841863 0.0040598214 0.69962877
-0.02817335 0.0020124018 0.69751394
-0.027931487 -0 0.69542855
-0.027909899 -0.0019935369 0.69524235
-0.028183213 -0.0040261745 0.69759893
-0.02844494 -0.00609532 0.69985563
-0.028338842 -0.0080968142 0.69894087
-0.028171878 -0.010061383 0.69750124
-0.027776102 -0.011904061 0.69408882
-0.026999816 -0.013499886 0.68739545
-0.027438393 -0.015679061 0.69117701
-0.027192879 -0.017481148 0.68906015
-0.026518602 -0.018941879 0.68324637
-0.026149457 -0.020545989 0.68006361
-0.026043199 -0.022322714 0.6791473
-0.025731336 -0.023893356 0.67645836
-0.025289252 -0.025289237 0.67264664
-0.024812872 -0.026585191 0.66853923
-0.024270739 -0.027737975 0.66386485
-0.022418147 -0.027222037 0.64789146
-0.022139272 -0.028464764 0.64548695
-0.01987082 -0.026967525 0.62592793
-0.0198764 -0.028394848 0.62597603
-0.019902378 -0.029853523 0.62620008
-0.019928424 -0.031316072 0.62642461
-0.020951152 0.020951122 0.64913851
-0.020693474 0.019101679 0.64674586
-0.020354228 0.017222822 0.64359581
-0.019525075 0.015019298 0.6358968
-0.018918358 0.013097316 0.63026315
-0.01847275 0.011367887 0.62612545
-0.025687592 0.013831764 0.69311845
-0.025714908 0.011868387 0.69337207
-0.025502082 0.0098084807 0.69139588
-0.026650373 0.0082001388 0.70205832
-0.026825124 0.0061903894 0.70368093
-0.026799263 0.0041229725 0.70344079
-0.026509287 0.0020391643 0.70074821
-0.026347257 2.9802322e-08 0.69924366
-0.026384447 -0.0020295382 0.69958901
-0.026764309 -0.0041175783 0.70311618
-0.026833314 -0.0061923265 0.70375693
-0.026700256 -0.0082154572 0.70252144
-0.026493523 -0.010189801 0.70060182
-0.0258012 -0.011908263 0.69417334
-0.025476014 -0.01371786 0.69115382
-0.02582958 -0.015895128 0.69443691
-0.025536723 -0.017679274 0.69171757
-0.024797335 -0.019074917 0.68485206
-0.024656432 -0.020863146 0.68354374
-0.024465578 -0.022583604 0.68177152
-0.024074493 -0.024074495 0.6781401
-0.023634842 -0.025452912 0.67405772
-0.023160875 -0.0267241 0.66965675
-0.021516601 -0.026481986 0.65438902
-0.020985624 -0.027442753 0.64945859
-0.018854966 -0.026106894 0.62967455
-0.018645104 -0.027250528 0.62772584
-0.018452784 -0.028388888 0.62594008
-0.018416213 -0.029749274 0.62560052
-0.01844028 -0.031206638 0.62582397
-0.019633584 0.021269739 0.65209651
-0.019404525 0.019404531 0.64979237
-0.019022873 0.017437667 0.64595324
-0.01823769 0.015198082 0.63805485
-0.01768114 0.013260841 0.63245648
-0.017415337 0.01161021 0.62978268
-0.024159178 0.014092863 0.69762051
-0.024087459 0.012043744 0.69689906
-0.023963921 0.0099849701 0.69565636
-0.025063364 0.0083544552 0.70671588
-0.025197363 0.0062993169 0.70806384
-0.025091223 0.0041818619 0.70699614
-0.016469864 0.0013724864 0.62027198
-0.016490672 -0 0.62048125
-0.024838172 -0.0020698309 0.70445061
-0.025190493 -0.0041984022 0.7079947
-0.025149446 -0.006287396 0.70758182
-0.025006892 -0.0083355904 0.70614779
-0.024721993 -0.010300815 0.70328194
-0.023964494 -0.011982262 0.69566214
-0.024291418 -0.014169991 0.69895077
-0.02412753 -0.016084969 0.6973021
-0.023575323 -0.017681479 0.69174737
-0.023177452 -0.019314528 0.68774509
-0.023080874 -0.021157444 0.6867736
-0.022791404 -0.022791415 0.68386179
-0.022384491 -0.024249852 0.6797685
-0.021945234 -0.025602788 0.67534995
-0.020588066 -0.02573505 0.66169786
-0.019803504 -0.026404679 0.65380579
-0.019584082 -0.027744114 0.65159857
-0.017567022 -0.026350498 0.6313085
-0.017423825 -0.027587742 0.62986815
-0.016918486 -0.028197438 0.62478471
-0.016940491 -0.02964586 0.62500608
-0.01827527 0.021598041 0.65514523
-0.018073156 0.019716144 0.65292728
-0.017639097 0.017639101 0.64816403
-0.016919283 0.015381128 0.64026505
-0.016412636 0.013428539 0.63470519
-0.01631185 0.011863172 0.63359922
-0.022551147 0.014350742 0.70206743
-0.022395249 0.012215585 0.70035666
-0.022403089 0.010183215 0.70044267
-0.023411581 0.0085133314 0.71150959
-0.023503359 0.0064100027 0.71251667
-0.015027547 0.0027322769 0.61950564
-0.015046445 0.0013678968 0.61971307
-0.01506539 -0 0.61992091
-0.023293184 -0.0021175742 0.71021032
-0.023505669 -0.0042737424 0.712542
-0.02340591 -0.0063833892 0.7114473
-0.023249496 -0.0084543526 0.70973086
-0.022815987 -0.01037091 0.70497364
-0.022291666 -0.012159109 0.69921994
-0.0226402 -0.014407396 0.70304465
-0.022377949 -0.01627484 0.70016682
-0.021723215 -0.017773539 0.6929819
-0.021584608 -0.019622386 0.69146091
-0.02141255 -0.021412551 0.68957275
-0.021055806 -0.022969961 0.68565798
-0.020656269 -0.024411947 0.68127352
-0.020224832 -0.025740683 0.67653906
-0.01535566 -0.020939529 0.6231063
-0.015375433 -0.022364259 0.62332332
-0.016452866 -0.025427163 0.63514674
-0.016291378 -0.026658624 0.63337463
-0.01543498 -0.026660413 0.62397677
-0.015454917 -0.028099835 0.62419552
-0.017406262 0.024368763 0.6647101
-0.016882336 0.021947056 0.65838575
-0.016698325 0.020038009 0.65616459
-0.016216714 0.017838418 0.65035099
-0.015569307 0.015569329 0.64253604
-0.015114292 0.013602853 0.6370436
-0.015159212 0.012127399 0.63758582
-0.020861927 0.014603376 0.70642364
-0.020671794 0.012403071 0.70412862
-0.020795252 0.010397643 0.70561886
-0.021691069 0.0086764395 0.71643227
-0.013645014 0.0040934682 0.61930782
-0.013615532 0.0027231276 0.61895192
-0.013632634 0.0013632774 0.61915839
-0.013649778 -0 0.61936527
-0.021677351 -0.0021677315 0.71626675
-0.021724597 -0.0043449402 0.71683693
-0.021604437 -0.0064813197 0.71538657
-0.02139785 -0.0085591376 0.71289283
-0.020724624 -0.010362357 0.70476633
-0.020754108 -0.012452424 0.70512217
-0.020838296 -0.014586806 0.70613843
-0.020536805 -0.016429424 0.70249909
-0.019997951 -0.017998159 0.6959945
-0.019910257 -0.019910276 0.69493604
-0.019648571 -0.021613419 0.69177717
-0.01928365 -0.023140401 0.68737221
-0.018888945 -0.024555624 0.68260765
-0.014040738 -0.019657046 0.62408465
-0.013911834 -0.020867765 0.62252861
-0.013929649 -0.022287458 0.62274367
-0.01394751 -0.023710757 0.62295926
-0.013965496 -0.025137872 0.62317634
-0.01398341 -0.026568443 0.62339258
-0.01449739 -0.028994769 0.62959695
-0.015854595 0.024662703 0.66724449
-0.015444756 0.022309095 0.66174757
-0.015276468 0.020368636 0.65949047
-0.014761825 0.018042237 0.65258795
-0.014189963 0.015766621 0.64491796
-0.013785333 0.013785303 0.63949096
-0.01395402 0.012403548 0.64175338
-0.019097419 0.014853567 0.71073818
-0.018919142 0.01261276 0.70834708
-0.019764179 0.010980099 0.71968096
-0.019902894 0.0088457167 0.72154146
-0.012465267 0.0041550994 0.62178576
-0.012338588 0.0027419329 0.62008673
-0.012228257 0.0013587177 0.61860693
-0.012243585 -0 0.6188125
-0.012258916 -0.0013620853 0.61901814
-0.01227432 -0.0027276278 0.61922479
-0.019741911 -0.006580621 0.71938235
-0.019451216 -0.0086449385 0.71548343
-0.018898576 -0.010499179 0.70807123
-0.012336222 -0.0082241297 0.62005496
-0.012351788 -0.0096069276 0.62026376
-0.012367391 -0.010993242 0.62047309
-0.01238307 -0.012383074 0.62068331
-0.018142451 -0.020158261 0.69792986
-0.017827084 -0.021788657 0.69370013
-0.017475167 -0.023300201 0.68898004
-0.01708266 -0.024674922 0.68371564
-0.01275196 -0.019836366 0.62563097
-0.012477839 -0.020796388 0.62195444
-0.012493764 -0.022211134 0.622168
-0.012509763 -0.023629576 0.62238264
-0.012525804 -0.025051594 0.62259775
-0.012954864 -0.027349144 0.6283524
-0.014285604 0.024999827 0.67015105
-0.013960802 0.022686303 0.66525012
-0.013797955 0.020696938 0.66279292
-0.013274136 0.018251956 0.65488923
-0.012784103 0.015980124 0.64749515
-0.012422397 0.013975203 0.64203739
-0.017235104 0.01723513 0.71465552
-0.017258435 0.015101135 0.7150076
-0.017128462 0.012846351 0.71304643
-0.017922845 0.011201799 0.72503275
-0.011376472 0.0056882501 0.62625563
-0.011249448 0.0042185187 0.62433898
-0.011133398 0.0027833581 0.62258792
-0.011028097 0.0013785064 0.6209991
-0.010941822 -0 0.61969727
-0.010860361 -0.0013575256 0.61846811
-0.010873932 -0.0027184486 0.61867285
-0.010887567 -0.0040828288 0.6188786
-0.010901207 -0.0054506361 0.61908442
-0.01091491 -0.0068218112 0.61929119
-0.010928588 -0.0081964135 0.6194976
-0.011021174 -0.0096434951 0.62089455
-0.01101808 -0.011018068 0.62084788
-0.010969979 -0.012341261 0.62012213
-0.010983826 -0.013729781 0.62033105
-0.010997738 -0.015121847 0.62054098
-0.011011655 -0.01651746 0.62075096
-0.011025637 -0.01791665 0.6209619
-0.011039625 -0.019319326 0.62117296
-0.011053648 -0.020725578 0.62138462
-0.011067737 -0.022135466 0.62159717
-0.011227771 -0.023858994 0.62401187
-0.011549657 -0.025986701 0.62886882
-0.012694994 0.025389999 0.67351526
-0.012427609 0.023079842 0.66890436
-0.012266698 0.021028668 0.66612959
-0.011755047 0.018472224 0.65730643
-0.011339645 0.016199499 0.65014315
-0.011066348 0.014228165 0.64543027
-0.015396669 0.017596185 0.72010398
-0.015342847 0.015342861 0.71917582
-0.015298283 0.013112783 0.71840739
-0.016003069 0.01143077 0.73056096
-0.010106125 0.005774945 0.6288718
-0.0099959187 0.0042839646 0.62697136
-0.0098912464 0.002826035 0.62516636
-0.0098034553 0.0014005005 0.62365246
-0.0097255474 -0 0.62230897
-0.0096552512 -0.0013793409 0.62109673
-0.0096007576 -0.0027430654 0.62015712
-0.0095468489 -0.0040915012 0.61922741
-0.0095066074 -0.0054323375 0.61853349
-0.0095185181 -0.006798923 0.61873889
-0.0095304325 -0.0081689358 0.61894429
-0.0098360246 -0.0098360479 0.62421411
-0.0097808698 -0.011178136 0.623263
-0.0096148048 -0.012361884 0.6203993
-0.0095784403 -0.013683498 0.6197722
-0.0095905047 -0.015070796 0.61998028
-0.0096026268 -0.01646167 0.62018931
-0.0096147517 -0.017855972 0.6203984
-0.0096688177 -0.019337654 0.62133074
-0.0097781941 -0.020953268 0.62321681
-0.0099368189 -0.022712708 0.62595224
-0.010175267 -0.024711341 0.63006413
-0.010747424 -0.0276362 0.63993061
-0.011053945 0.025792539 0.67698616
-0.010840638 0.023488045 0.67269468
-0.010685183 0.021370381 0.66956717
-0.010210047 0.018718451 0.66000819
-0.0098549789 0.016424954 0.65286481
-0.0097109871 0.014566481 0.64996791
-0.013462869 0.017950505 0.72544992
-0.01335584 0.015581816 0.72329664
-0.013405759 0.01340577 0.72430092
-0.013999639 0.011666358 0.73624891
-0.0087974872 0.0058650076 0.63158965
-0.0087029226 0.0043514371 0.62968719
-0.0086103687 0.0028701723 0.62782514
-0.0085391011 0.0014231801 0.62639135
-0.0084701497 2.9802322e-08 0.62500417
-0.0084146671 -0.0014024675 0.62388796
-0.0083663845 -0.0027887821 0.62291658
-0.0083181215 -0.0041590631 0.62194562
-0.0082307104 -0.005487144 0.62018704
-0.0081314826 -0.0067762434 0.61819077
-0.0081416043 -0.008141607 0.61839437
-0.0085777957 -0.010007411 0.62716985
-0.0084861191 -0.011314809 0.62532544
-0.0081722327 -0.012258321 0.61901057
-0.0081824781 -0.013637453 0.61921668
-0.0082303034 -0.015088886 0.62017888
-0.0083492594 -0.016698539 0.62257206
-0.0084131341 -0.018228441 0.62385714
-0.0085006328 -0.019834787 0.62561744
-0.008621051 -0.021552622 0.62804008
-0.0088025182 -0.023473382 0.63169086
-0.0091293827 -0.025866598 0.63826692
-0.009360021 0.026208103 0.68056887
-0.0091986489 0.023916483 0.67667294
-0.0090406872 0.02169764 0.67285943
-0.0086233048 0.018971264 0.66278291
-0.0083285114 0.016657025 0.65566599
-0.0082895728 0.014921218 0.65472597
-0.011435569 0.018296897 0.73067701
-0.01132387 0.015853435 0.72798026
-0.011821938 0.014186323 0.74000478
-0.011909902 0.011909932 0.74212837
-0.0074498923 0.005959928 0.63445419
-0.0073685087 0.0044210851 0.63248944
-0.0072934744 0.0029173791 0.630678
-0.0072331242 0.0014466345 0.62922096
-0.0071742786 -0 0.62780029
-0.00713178 -0.001426369 0.62677437
-0.0070901443 -0.0028360486 0.62576914
-0.0070416708 -0.0042250156 0.62459892
-0.0069408063 -0.0055526793 0.62216383
-0.006798849 -0.0067988336 0.61873662
-0.0067620589 -0.0081144869 0.61784846
-0.0067704953 -0.0094786882 0.61805212
-0.0067789531 -0.010846317 0.61825627
-0.0067873946 -0.012217313 0.61846012
-0.0067959125 -0.013591826 0.61866581
-0.0070670517 -0.015547484 0.6252116
-0.0071204538 -0.017089069 0.6265009
-0.0071861693 -0.018684059 0.6280874
-0.0072799972 -0.020383984 0.63035256
-0.0074128737 -0.022238642 0.63356054
-0.0076326532 -0.024424493 0.63886648
-0.0076179546 0.026662827 0.68449003
-0.0074956734 0.024360955 0.68079984
-0.0073367991 0.022010416 0.67600536
-0.0069933287 0.019231647 0.66564029
-0.0067607127 0.016901761 0.65862048
-0.0067972196 0.015293747 0.65972215
-0.0093201846 0.018640399 0.73585939
-0.0092342254 0.016159892 0.73326528
-0.0096634468 0.014495164 0.74621826
-0.0061311317 0.0076639056 0.6396212
-0.0060579404 0.0060579479 0.63741243
-0.0059907041 0.0044929981 0.63538343
-0.0059333229 0.0029666424 0.63365179
-0.005883405 0.0014708936 0.63214535
-0.0058392566 -0 0.63081306
-0.0058043716 -0.0014510751 0.62976027
-0.005770117 -0.0028850734 0.6287266
-0.0057158526 -0.0042868853 0.62708902
-0.0056073423 -0.0056073368 0.62381446
-0.0055062515 -0.0068828166 0.62076378
-0.0054434431 -0.0081651509 0.61886835
-0.0054070605 -0.0094623864 0.61777043
-0.0054050894 -0.010810196 0.61771095
-0.005431979 -0.012221932 0.61852241
-0.0057237805 -0.014309436 0.62732828
-0.0057910029 -0.015925258 0.62935692
-0.0058395294 -0.01751855 0.63082129
-0.005906288 -0.019195437 0.63283592
-0.0060020946 -0.021007329 0.63572711
-0.0061504063 -0.023064017 0.64020282
-0.0065267715 -0.026107103 0.65156066
-0.0058163884 0.027143151 0.6886313
-0.0057276362 0.024819791 0.68506026
-0.0055744681 0.022297889 0.6788972
-0.0053194179 0.019504577 0.66863477
-0.0051462757 0.017154276 0.66166806
-0.0052284263 0.01568529 0.66497356
-0.0071168048 0.018978149 0.74095601
-0.0070748087 0.016507924 0.73926622
-0.0074077849 0.014815569 0.75266415
-0.0046741515 0.0077902675 0.64267123
-0.004619434 0.0061592162 0.64046961
-0.0045673298 0.0045673251 0.63837314
-0.0045264387 0.0030176342 0.63672775
-0.0044876952 0.0014958978 0.63516885
-0.0044572065 -0 0.63394213
-0.0044301213 -0.0014767349 0.63285226
-0.0044014785 -0.0029343665 0.63169974
-0.0043425108 -0.0043424964 0.62932706
-0.0042504729 -0.0056672692 0.62562376
-0.0041878601 -0.0069797635 0.62310439
-0.0041489331 -0.0082978606 0.6215381
-0.0041312682 -0.0096396208 0.62082732
-0.0041391058 -0.011037618 0.62114269
-0.0042044232 -0.012613267 0.62377083
-0.0044166306 -0.014722079 0.63230944
-0.0044498472 -0.016316086 0.63364589
-0.0044964468 -0.017985761 0.63552094
-0.0045616115 -0.019766957 0.638143
-0.0046594255 -0.021743983 0.64207876
-0.0048408997 -0.024204522 0.64938068
-0.0039487402 0.027641177 0.69292551
-0.0038913286 0.025293648 0.68946034
-0.0037650536 0.022590309 0.68183905
-0.0035976451 0.019787043 0.67173505
-0.0034837609 0.017418832 0.66486144
-0.0048475219 0.021813869 0.74717176
-0.0048265033 0.019306004 0.74590325
-0.0048287627 0.016900659 0.74603951
-0.0050486475 0.015145987 0.75931072
-0.003168782 0.0079219639 0.64585084
-0.0031320078 0.0062640011 0.64363134
-0.0030975724 0.0046463907 0.64155293
-0.0030703626 0.0030703247 0.6399107
-0.0030443678 0.0015221834 0.63834178
-0.0030251977 -0 0.63718474
-0.0030065654 -0.0015032887 0.63606024
-0.0029809864 -0.0029809773 0.63451636
-0.0029264672 -0.0043896735 0.63122582
-0.0028692177 -0.0057384372 0.62777054
-0.0028342907 -0.0070857108 0.62566251
-0.002814102 -0.0084423125 0.62444401
-0.0028091646 -0.0098320544 0.62414598
-0.0028305708 -0.01132226 0.62543797
-0.0029895625 -0.013453007 0.63503397
-0.0030173804 -0.015086889 0.63671291
-0.0030450535 -0.016747773 0.63838315
-0.0030840167 -0.018504083 0.64073479
-0.0031422554 -0.020424664 0.64424986
-0.0032388608 -0.022672057 0.65008044
-0.0020112658 0.028157741 0.69737923
-0.001983386 0.025784045 0.69401377
-0.0019077926 0.022893518 0.6848889
-0.0018266733 0.020093441 0.67509687
-0.0017813902 0.017813921 0.66963077
-0.0024777597 0.022299826 0.75369
-0.0024562913 0.01965034 0.75109851
-0.0025607164 0.017924994 0.76370376
-0.0016336534 0.0098019242 0.65179735
-0.0016121359 0.0080606937 0.64919996
-0.0015930979 0.006372422 0.64690185
-0.001576583 0.0047297478 0.64490831
-0.0015624928 0.0031250119 0.64320749
-0.0015502785 0.001550287 0.64173317
-0.0015404512 -0 0.64054686
-0.0015307899 -0.0015307963 0.63938063
-0.0015120868 -0.0030242205 0.63712293
-0.001478872 -0.0044366121 0.63311362
-0.0014552415 -0.0058209598 0.63026106
-0.0014409008 -0.007204473 0.62853003
-0.0014345431 -0.0086072385 0.62776256
-0.0014377749 -0.010064423 0.62815267
-0.0014662093 -0.011729687 0.631585
-0.0015352708 -0.0138174 0.63992149
-0.0015479956 -0.015479952 0.6414575
-0.0015659059 -0.017224967 0.64361954
-0.0015912993 -0.0190956 0.64668477
-0.0016319961 -0.021215945 0.65159732
-0.0017429728 -0.024401635 0.66499335
0 0.028697342 0.70203191
0 0.026282847 0.69864565
0 0.023205489 0.68802714
0 0.020409346 0.67856359
0 0.018292665 0.67540967
0 0.022777766 0.76009989
0 0.020043194 0.75702667
0 0.018348426 0.77100515
0 0.009973377 0.65524644
0 0.0082043111 0.65266776
0 0.0064846575 0.65028948
0 0.0048162341 0.64838696
0 0.0031816661 0.64662915
0 0.0015795529 0.64526641
0 2.9802322e-08 0.64403504
0 -0.0015574396 0.64259225
0 -0.0030604899 0.6393162
0 -0.0044932663 0.63539422
0 -0.0059131384 0.63304234
0 -0.0073352754 0.63168675
0 -0.0087864399 0.63136697
0 -0.010343343 0.63296282
0 -0.012487441 0.6430192
0 -0.014174849 0.64471549
0 -0.015909404 0.64664137
0 -0.017760456 0.64949572
0 -0.019799083 0.65376109
0 -0.022328287 0.66192609
0.0020910227 0.029274315 0.70700669
0.0020605139 0.026786685 0.70332396
0.001962699 0.023552388 0.69151664
0.0018854494 0.020739943 0.68219185
0.0018797826 0.018797874 0.68150777
0.0025834038 0.023250669 0.7664423
0.0025611487 0.020489186 0.76375592
0.0026842568 0.018789828 0.77861637
0.0016920299 0.010152161 0.65884399
0.0016706354 0.0083532035 0.65626144
0.0016508691 0.0066034794 0.65387547
0.0016352924 0.0049058795 0.65199518
0.001620831 0.0032416582 0.65024954
0.001609947 0.0016099513 0.64893574
0.0015995711 -0 0.64768326
0.0015818565 -0.0015818477 0.64554489
0.0015467944 -0.0030936003 0.64131254
0.001519789 -0.0045593679 0.63805264
0.0015038881 -0.0060155094 0.63613325
0.0014970039 -0.0074850321 0.63530231
0.0015009466 -0.0090056658 0.63577819
0.0015493089 -0.010845125 0.64161599
0.0016039707 -0.012831718 0.64821428
0.0016186131 -0.014567494 0.6499818
0.001639284 -0.016392827 0.65247703
0.0016709311 -0.018380225 0.65629715
0.0017243756 -0.020692497 0.66274846
0.0042681801 0.029877275 0.71220541
0.0041998602 0.027299076 0.7080819
0.0039867791 0.023920655 0.6952213
0.0038337403 0.02108559 0.68598461
0.0038663263 0.019331604 0.68795133
0.0052695978 0.023713201 0.77264625
0.0052530561 0.021012217 0.77164793
0.0054989024 0.019246131 0.78648603
0.0034464828 0.010339439 0.66261148
0.0034030247 0.0085075796 0.65998864
0.0033647057 0.006729424 0.65767586
0.0033326247 0.0049989223 0.65573961
0.0033054026 0.0033053756 0.6540966
0.0032830746 0.0016415417 0.652749
0.003259538 -0 0.65132844
0.003207427 -0.0016037226 0.64818329
0.003133469 -0.0031334758 0.64371949
0.0030898731 -0.0046347976 0.64108825
0.0030647961 -0.0061295927 0.63957471
0.0030598857 -0.0076496899 0.63927835
0.00309141 -0.0092742145 0.64118105
0.0032663895 -0.01143235 0.65174192
0.0032948568 -0.013179421 0.65346014
0.0033334796 -0.015000671 0.65579122
0.003388678 -0.016943365 0.65912271
0.0034783843 -0.019131124 0.66453701
0.0067631891 0.03381598 0.72672766
0.0065385862 0.030513406 0.71769029
0.006417159 0.027807683 0.71280444
0.006077108 0.024308413 0.69912189
0.0058480673 0.02144292 0.689906
0.0080943704 0.026981264 0.78029019
0.0080549307 0.024164826 0.77870333
0.0081061721 0.021616489 0.78076506
0.0053443038 0.012470037 0.66963613
0.0052683381 0.0105367 0.66657948
0.0052006929 0.0086677969 0.66385758
0.0051456052 0.0068608224 0.66164106
0.0050960802 0.0050961077 0.65964836
0.0050580273 0.0033720434 0.65811723
0.0050238157 0.0016745925 0.65674067
0.0049747 2.9802322e-08 0.65476435
0.0048656608 -0.0016218722 0.65037698
0.0047709695 -0.0031806529 0.64656693
0.0047179013 -0.0047178864 0.64443159
0.0046954402 -0.0062606037 0.64352787
0.0047097895 -0.0078496635 0.6441052
0.0049601519 -0.0099202991 0.65417904
0.0050373366 -0.011753798 0.65728474
0.0050879447 -0.013567865 0.65932101
0.0051631094 -0.01548931 0.66234541
0.0052786944 -0.017595649 0.66699618
0.005507404 -0.020193815 0.67619872
0.00915909 0.034346581 0.73099798
0.0089087291 0.031180531 0.72344261
0.0087015126 0.02827993 0.71718931
0.0082363235 0.024708956 0.70315099
0.0079336073 0.021817446 0.69401574
0.011064073 0.027660191 0.78848583
0.010960284 0.024660647 0.78535378
0.011458841 0.022917688 0.80039907
0.0072623896 0.0127092 0.67375994
0.0071610245 0.010741562 0.67070091
0.0070699584 0.0088374615 0.66795278
0.0069974605 0.0069974661 0.66576499
0.0069325999 0.0051994622 0.66380763
0.0068827257 0.0034413636 0.66230249
0.0068352674 0.0017088354 0.66087037
0.0067340755 2.9802322e-08 0.65781659
0.0065715178 -0.001642853 0.65291101
0.0064715217 -0.0032357872 0.6498934
0.0064153476 -0.0048114955 0.64819813
0.0064067021 -0.0064066947 0.6479373
0.0064814766 -0.0081018507 0.65019375
0.0068483879 -0.010272592 0.66126633
0.0069105779 -0.012093544 0.6631431
0.0070005194 -0.014001042 0.66585732
0.007137097 -0.016058445 0.66997886
0.007375434 -0.018438578 0.67717135
0.011674042 0.03502214 0.73643422
0.011387422 0.031884789 0.7295146
0.011044716 0.028716266 0.72124094
0.010469332 0.025126398 0.70735002
0.010200578 0.022441268 0.70086163
0.0141638 0.028327584 0.79654229
0.014022018 0.025239646 0.79311937
0.009256131 0.012958616 0.67806071
0.0091288006 0.010954559 0.67498666
0.0090166405 0.0090166628 0.67227888
0.0089248084 0.0071398616 0.67006183
0.0088480758 0.0053088665 0.66820937
0.0087845717 0.0035138428 0.66667628
0.0087074013 0.0017414987 0.66481322
0.0085231839 2.9802322e-08 0.66036582
0.0083401725 -0.001668036 0.65594751
0.0082398281 -0.0032959282 0.65352494
0.0081989449 -0.0049193501 0.65253794
0.0082277693 -0.0065822005 0.65323383
0.0087008905 -0.0087009072 0.66465604
0.0088082012 -0.01056987 0.6672467
0.0089073004 -0.012470245 0.66963923
0.0090597421 -0.014495581 0.67331946
0.0093073016 -0.016753137 0.67929608
0.014296102 0.035740256 0.74221331
0.013979691 0.032619268 0.73584759
0.013463292 0.029170483 0.72545844
0.012790466 0.025580943 0.71192223
0.012618911 0.023134649 0.70847076
0.011332597 0.013221383 0.68259215
0.011176288 0.011176288 0.67944747
0.011046746 0.0092056096 0.67684132
0.010933377 0.0072889328 0.67456043
0.0108471 0.0054235458 0.67282474
0.010769859 0.003589958 0.67127073
0.010628328 0.0017713904 0.66842341
0.010361395 -0 0.6630531
0.010188356 -0.0016980469 0.65957183
0.010093574 -0.0033645332 0.65766495
0.010082828 -0.0050413907 0.65744877
0.010228273 -0.006818831 0.66037488
0.010787931 -0.0089899302 0.67163438
0.010896431 -0.010896415 0.67381722
0.011055085 -0.012897581 0.67700911
0.011310012 -0.015080005 0.68213773
0.0118324 -0.017748594 0.6926474
0.016693015 0.033385992 0.74245864
0.015959535 0.029639125 0.72981024
0.015203983 0.026063949 0.71678126
0.015191387 0.023872197 0.71656406
0.013710604 0.015669286 0.69102883
0.013498297 0.013498306 0.68736768
0.013312874 0.011411041 0.68417019
0.01316382 0.0094027519 0.68159986
0.013035364 0.0074487627 0.67938471
0.012934464 0.0055433512 0.67764479
0.012830367 0.0036658347 0.67584968
0.012574037 0.0017963052 0.6714294
0.012278224 -0 0.66632831
0.012116143 -0.0017308593 0.66353333
0.01205339 -0.0034438372 0.66245121
0.012106554 -0.0051885247 0.66336799
0.012833329 -0.0073333681 0.67590082
0.0129689 -0.0092634857 0.67823857
0.013139326 -0.011262298 0.6811775
0.013398791 -0.013398767 0.68565178
0.01386798 -0.015849113 0.69374269
0.018546747 0.030138493 0.73444664
0.017710404 0.026565611 0.72182727
0.016001238 0.016001284 0.69603795
0.015756661 0.013787091 0.69234759
0.015545003 0.011658758 0.68915391
0.015374955 0.0096094012 0.68658805
0.015234575 0.007617265 0.68446994
0.015120003 0.005670011 0.68274117
0.014943272 0.0037358105 0.68007451
0.014559754 0.0018199682 0.67428768
0.014292796 2.9802322e-08 0.67025954
