# .PCD v0.7 - Point Cloud Data file format
VERSION 0.7
FIELDS x y z
SIZE 4 4 4
TYPE F F F
COUNT 1 1 1
WIDTH 256
HEIGHT 1
VIEWPOINT 0 0 0 1 0 0 0
POINTS 256
DATA ascii
0.057172269 0.040837318 0.65177798
0.057431761 0.050868124 0.65267301
0.067390807 0.032873571 0.65300739
0.056111597 0.03465721 0.65381169
0.053038679 0.034806639 0.65467089
0.053038679 0.034806639 0.65467089
0.065139994 0.028394341 0.65621573
0.046919405 0.04524371 0.65687197
0.051880985 0.055228144 0.65661693
0.051880985 0.055228144 0.65661693
0.047045454 0.031923711 0.65741539
0.059121881 0.025337964 0.65850198
0.042295028 0.038911432 0.6588164
0.040833797 0.030625373 0.65997607
0.042412046 0.030536652 0.65938145
0.040821444 0.040821463 0.65991396
0.042376988 0.042376995 0.65921211
0.042680334 0.025608182 0.66067684
0.042680334 0.025608182 0.66067684
0.03768019 0.037680238 0.6613434
0.056799866 0.0206545 0.66236615
0.036138035 0.037858903 0.66232395
0.039774548 0.020751923 0.66334629
0.062270667 0.0207569 0.66339612
0.032986064 0.024305522 0.66416478
0.032986064 0.024305522 0.66416478
0.047264751 0.015754908 0.66590756
0.029839151 0.019307703 0.66647464
0.031568479 0.040337533 0.66630083
0.024725901 0.022959799 0.6677894
0.033552911 0.045914561 0.66776603
0.030100808 0.014165074 0.66833258
0.023052445 0.02659896 0.66864997
0.026631162 0.037283629 0.66890895
0.03021629 0.012441993 0.66915262
0.025051393 0.010736346 0.67059582
0.014323073 0.023274988 0.6707164
0.037672073 0.0089695752 0.6711418
0.034283996 0.0072177052 0.67241079
0.034283996 0.0072177052 0.67241079
0.027081547 0.043330461 0.67253339
0.027184935 0.0054369867 0.67336541
0.014506513 0.010879904 0.67348427
0.01629827 0.028974712 0.67319512
0.025550013 0.043799996 0.67489499
0.014618242 0.0054818392 0.67517018
0.0018360103 0.0073440373 0.67622393
0.047736619 0.0073440969 0.6762256
-0.0037179 0.0037178695 0.67899305
0.011162823 0.031627983 0.67917657
0.024420019 -0.0037569404 0.68134844
0 0.018819541 0.68176979
0.018775679 0.041306496 0.68124038
0.0018907575 -0.0056723058 0.6828326
-0.015173477 2.9802322e-08 0.68354797
0.011388915 0.036064923 0.68372518
0.0095365997 -0.0095365942 0.68483186
0.043896973 -0.0019085407 0.68498194
-0.0019040466 0.020944506 0.68443668
-0.0038305118 -0.0095762908 0.6857897
0.032461312 -0.003818959 0.68509364
-0.0057443161 0.017232925 0.68573141
-0.023164218 -0.0057910681 0.68761194
-0.0077206613 0.017371446 0.68758953
-0.02141255 -0.0097329915 0.68957281
-0.015666256 -0.015666246 0.69098347
-0.0097974306 -0.017635345 0.69112879
-0.02761035 -0.013805181 0.69265962
-0.01781721 0.011878163 0.69356763
0.019842198 -0.01587376 0.69411445
-0.011992923 -0.023985833 0.69587696
-0.023945669 0.0059863925 0.69547272
-0.030007718 -0.0040010214 0.6960814
-0.032155048 -0.020096898 0.69718909
-0.028279124 -0.026259184 0.69842595
-0.028416784 -0.028416783 0.69961292
-0.036560044 -0.024373353 0.69977498
-0.028466094 0.0060998797 0.70003802
0.0020425306 -0.024510354 0.70115316
-0.036923662 -0.030769706 0.70221353
-0.014376353 -0.030806452 0.70250922
-0.0020531833 -0.026691347 0.70243907
0.002056018 0.034952313 0.70278126
-0.0041433112 -0.029003203 0.70466888
-0.054120742 -0.031223476 0.70586532
-0.054120742 -0.031223476 0.70586532
-0.01883148 -0.035570532 0.70717132
-0.01883148 -0.035570532 0.70717132
-0.058964584 -0.025270522 0.7087999
-0.05115445 -0.044760138 0.71188492
-0.057549249 -0.042629063 0.71188718
-0.017048361 -0.038358808 0.71183783
-0.075481579 -0.043132335 0.71492457
-0.075481579 -0.043132335 0.71492457
-0.070076719 -0.052557528 0.71894193
-0.034935154 -0.04803586 0.71816331
-0.07021378 -0.024136007 0.71945894
-0.064087361 -0.057457626 0.72135752
-0.073155753 -0.024385244 0.72219431
-0.038046349 -0.055950493 0.72475088
-0.073915184 -0.022398531 0.72497219
0.058756273 0.039170861 0.65161204
0.06099844 0.039039567 0.65095162
0.052724309 0.042838484 0.653485
0.05464948 0.044814311 0.65250587
0.064762533 0.029890388 0.65504736
0.05330389 0.031649172 0.6556713
0.064428963 0.031388491 0.65401495
0.04905533 0.041573659 0.65533316
0.051401176 0.048914686 0.65474856
0.053055201 0.053055227 0.65473318
0.066965029 0.025429517 0.65923858
0.066965029 0.025429517 0.65923858
0.047395267 0.027083039 0.65892345
0.040748999 0.035655349 0.65954959
0.042876929 0.023152113 0.6616261
0.051287975 0.022224814 0.66096473
0.059036732 0.022245586 0.66115785
0.039439905 0.025721699 0.66158998
0.040892892 0.028965801 0.66027331
0.039494451 0.044645876 0.66187632
0.048420522 0.019022346 0.66334343
0.034501188 0.029325992 0.66283101
0.036118045 0.036978483 0.66220903
0.031521965 0.019263446 0.66598892
0.031521965 0.019263446 0.66598892
0.029706491 0.033201337 0.66553265
0.064983927 0.019319534 0.66660482
0.01936979 0.021130681 0.66715616
0.026400529 0.022880465 0.66705298
0.026400529 0.022880465 0.66705298
0.033552911 0.045914561 0.66776603
0.026618648 0.015082672 0.66880834
0.024779096 0.030974567 0.668248
0.026631162 0.037283629 0.66890895
0.040745243 0.054917514 0.66844082
0.034962423 0.0089647174 0.67102504
0.034962423 0.0089647174 0.67102504
0.04469547 0.010726929 0.6704067
0.041730877 0.0072575808 0.67361367
0.021621393 0.0090089142 0.67209238
0.0072161476 0.016236305 0.67236447
0.016256377 0.027093977 0.67263329
0.021666881 0.036111444 0.6725499
0.012782746 0.00730443 0.67502844
0.0036381388 0.010914415 0.67417902
0.010926572 0.021853149 0.67442358
0.00092531531 0.0055470318 0.67779291
0.0073602181 0.00736022 0.67671216
-0.0037013979 0.0092535317 0.67799705
0.0055939746 0.024240553 0.67968214
0.013174812 -0.005646348 0.6817894
0.014960474 -0.0037401319 0.68033403
0 0.016887039 0.68109167
0.036095157 -0.0018997192 0.68391746
0.0056574568 0.028287321 0.68223643
0.0056574568 0.028287321 0.68223643
-0.0057031978 -0.0038021505 0.68407685
0.032461312 -0.003818959 0.68509364
0.032461312 -0.003818959 0.68509364
-0.0077168806 -0.011575311 0.68747538
-0.0096030766 -0.0076824427 0.68643665
0.0077175652 0.034729064 0.68749607
0.0077175652 0.034729064 0.68749607
-0.0058063096 -0.013548046 0.68822575
0.015481515 -0.011611134 0.68819594
-0.029396666 -0.011758685 0.69116408
0.027409621 -0.011746973 0.69092888
-0.019590948 0.0039182007 0.69108152
-0.017629093 0.0078351796 0.69104457
-0.017725337 -0.017725348 0.69233543
-0.027974546 -0.019981831 0.69579977
-0.020001547 -0.024001837 0.69603795
-0.010002334 -0.024005592 0.69607562
-0.030136282 -0.022099972 0.69711602
-0.040182192 -0.014063746 0.69711894
-0.042487293 -0.022255242 0.69882029
0.0060887681 -0.022325486 0.69959104
-0.036512762 -0.0081139207 0.69945794
-0.038708061 -0.024447173 0.70051771
-0.012367005 -0.030917495 0.70340282
-0.022605702 0.014385432 0.70266604
-0.037285171 -0.035213768 0.70463783
-0.03103295 -0.035170645 0.70433182
-0.047813777 -0.014552027 0.70553851
-0.035493247 0.0041756928 0.7066223
-0.052848693 -0.040164977 0.70977402
-0.041989438 -0.039889932 0.70802665
-0.050430279 -0.037822723 0.70824265
-0.059222061 -0.035956234 0.70990986
-0.060946058 -0.027320623 0.70828211
-0.058964584 -0.025270522 0.7087999
-0.044717476 -0.044717431 0.71163964
-0.044717476 -0.044717431 0.71163964
-0.042609468 -0.044739932 0.71176881
-0.031926382 -0.042568505 0.71152163
-0.070248798 -0.036188781 0.71156096
-0.012720769 0.025441527 0.71052003
-0.029911194 -0.042730272 0.71249801
-0.062312782 -0.021487147 0.71397096
-0.057997167 -0.015036315 0.71388972
-0.067202114 -0.047691792 0.71627575
-0.067202114 -0.047691792 0.71627575
-0.067202114 -0.047691792 0.71627575
-0.078147814 -0.045586228 0.71663338
-0.030685157 -0.048219502 0.71917117
-0.044109538 -0.052931428 0.72082257
-0.080033571 -0.033347309 0.72295642
-0.080033571 -0.033347309 0.72295642
-0.062501602 -0.060269415 0.72404832
-0.073915184 -0.022398531 0.72497219
-0.049654439 -0.058682531 0.72704434
0.060805302 0.041710701 0.65076315
0.033704653 0.033706777 0.66325104
0.043338053 0.05373922 0.66385257
0.046098776 0.017395794 0.66458368
0.062353831 0.016625455 0.66965628
0.022204122 0.022205621 0.66903579
0.029541623 0.0060263081 0.67291474
0.016242072 0.012632728 0.67244142
0.016242072 0.012632728 0.67244142
0.012723586 0.023629516 0.67400837
0.0027914657 0.0031023822 0.67931718
0.0068127974 0.024781397 0.6789493
0.0026036853 -0.0066314489 0.68324071
-0.0066407509 0.010433137 0.68359768
-0.0066407509 0.010433137 0.68359768
0.018775679 0.041306496 0.68124038
0.010539009 -0.01054246 0.68588972
0.021992175 -0.0076488554 0.68542254
-0.010511975 -0.0038225055 0.68530536
-0.01350436 0.0067540854 0.68747222
-0.01876656 -0.018767737 0.69304258
0.0024753029 -0.019312806 0.69366199
-0.026925262 0.00049813837 0.69532847
-0.017235298 -0.028388277 0.69936723
-0.014221085 -0.028442144 0.69983178
-0.014221085 -0.028442144 0.69983178
-0.029255714 -0.025221653 0.69814032
-0.03009218 -0.0020061433 0.69676107
-0.03009218 -0.0020061433 0.69676107
-0.041953027 -0.025583059 0.70162719
-0.041818663 -0.0095972028 0.70284408
-0.0083947871 -0.033579141 0.70793307
-0.03444501 0.005218789 0.7065897
-0.050071098 -0.044744045 0.71179235
-0.063161723 -0.02947548 0.70874107
-0.038261041 0.0042512119 0.71118212
-0.062046044 -0.041722044 0.7128607
-0.073645249 -0.037894361 0.71351516
-0.058798492 -0.018175304 0.71268493
-0.05390057 -0.053174686 0.7183609
-0.076949522 -0.035176903 0.71998727
-0.07041046 -0.055008203 0.7202009
-0.041130148 -0.053360075 0.72297841
-0.07330849 -0.016553521 0.74005336
