# .PCD v0.7 - Point Cloud Data file format
VERSION 0.7
FIELDS x y z
SIZE 4 4 4
TYPE F F F
COUNT 1 1 1
WIDTH 1338
HEIGHT 1
VIEWPOINT 0 0 0 1 0 0 0
POINTS 1338
DATA ascii
-0.037478339 0.0083285272 0.70593321
-0.037659027 0.0062765181 0.70714498
-0.037915699 0.0042128563 0.70886624
-0.038299926 0.0021277964 0.71144289
-0.039000813 -2.9802322e-08 0.71614319
-0.039328925 0.062463611 0.73385799
-0.03903259 0.059696943 0.73175383
-0.038806081 0.057067782 0.73014545
-0.038227081 0.053967625 0.72603416
-0.037696149 0.051000655 0.72226429
-0.037255492 0.048212975 0.71913528
-0.036885373 0.045564294 0.71650726
-0.036567599 0.043020725 0.7142508
-0.036289435 0.040558785 0.71227574
-0.036044624 0.038164914 0.71053743
-0.035828881 0.035828918 0.70900548
-0.035638832 0.033542424 0.70765603
-0.035475187 0.031301647 0.70649397
-0.03533284 0.029097617 0.70548332
-0.035210714 0.026925832 0.70461613
-0.035107967 0.024782091 0.70388651
-0.035014316 0.022656322 0.70322156
-0.034820955 0.020482928 0.70184857
-0.034495462 0.018262357 0.6995374
-0.034294359 0.016138524 0.69810939
-0.03419001 0.01407823 0.69736844
-0.03420623 0.012072802 0.69748366
-0.034483436 0.010142237 0.69945198
-0.035058476 0.0082490444 0.70353514
-0.035184786 0.0062091053 0.70443201
-0.035360452 0.0041600764 0.70567936
-0.035617195 0.0020951331 0.70750242
-0.036002669 -0 0.71023947
-0.03675754 -0.0021622181 0.71559954
-0.037262172 0.06287998 0.73571926
-0.036652628 0.059560508 0.73112065
-0.036436267 0.056931704 0.72948831
-0.036152437 0.054228693 0.72734702
-0.035579011 0.051144838 0.72302085
-0.035108585 0.048274308 0.71947169
-0.034726035 0.045577943 0.71658564
-0.034398075 0.042997628 0.71411139
-0.034113429 0.040509701 0.71196389
-0.033863939 0.038096964 0.71008158
-0.033644632 0.035747409 0.70842707
-0.03345133 0.033451319 0.70696867
-0.033280563 0.031200558 0.70568037
-0.033130854 0.028989494 0.70455092
-0.033003151 0.026815087 0.70358741
-0.03289507 0.024671316 0.70277208
-0.032804627 0.022553205 0.70208973
-0.032710936 0.020444334 0.70138288
-0.032490958 0.018276155 0.69972324
-0.032206275 0.016103119 0.69757551
-0.032034617 0.014015168 0.69628048
-0.031958912 0.011984617 0.69570935
-0.031997871 0.0099993646 0.6960032
-0.032572787 0.0081432164 0.70034057
-0.032795623 0.0061492026 0.70202178
-0.032918606 0.0041148663 0.70294964
-0.033092372 0.0020682812 0.70426059
-0.033343218 -0 0.70615304
-0.033726837 -0.0021079183 0.70904726
-0.034580983 -0.0043226182 0.71549129
-0.034402002 0.059630126 0.73144382
-0.034049746 0.056749612 0.7286092
-0.033881281 0.054210097 0.72725344
-0.033500034 0.051366717 0.72418541
-0.032989092 0.048384011 0.72007364
-0.032587603 0.045622677 0.71684271
-0.032248061 0.04299739 0.71411026
-0.031956013 0.040477633 0.71176004
-0.031702116 0.038042545 0.70971686
-0.0314794 0.035676658 0.70792454
-0.031283893 0.033369511 0.70635128
-0.031111419 0.031111419 0.70496327
-0.030959472 0.028895527 0.70374048
-0.030826211 0.026716083 0.70266813
-0.03071042 0.024568349 0.70173627
-0.03061334 0.022449791 0.70095503
-0.030534379 0.020356268 0.70031965
-0.030433718 0.01826027 0.6995095
-0.030196786 0.016104966 0.69760287
-0.029953348 0.013978213 0.6956439
-0.029811174 0.011924475 0.69449973
-0.029764006 0.0099213123 0.69412017
-0.029819466 0.0079518557 0.69456649
-0.030421996 0.0060844421 0.69941521
-0.030559991 0.0040746629 0.70052576
-0.030679287 0.0020453036 0.70148575
-0.030852821 2.9802322e-08 0.70288229
-0.031095693 -0.0020730793 0.70483679
-0.031483755 -0.0041978359 0.70795965
-0.033957623 -0.006791532 0.72786772
-0.031758152 0.056710988 0.72842276
-0.031518523 0.05403176 0.72635663
-0.031344209 0.051494092 0.72485369
-0.030901466 0.048559457 0.72103631
-0.030470794 0.045706213 0.71732295
-0.030116823 0.043024004 0.71427095
-0.029816471 0.040465206 0.71168125
-0.029558428 0.038003713 0.70945632
-0.029333651 0.035619467 0.70751828
-0.029135028 0.033297151 0.70580572
-0.028961333 0.031029969 0.70430809
-0.028808402 0.028808385 0.70298946
-0.02867385 0.026625723 0.70182937
-0.028556144 0.024476737 0.70081449
-0.028453955 0.022356689 0.69993335
-0.028366845 0.020262063 0.69918227
-0.02829626 0.018190444 0.69857371
-0.028182419 0.016104251 0.69759214
-0.027943524 0.013971776 0.69553232
-0.02773596 0.011886835 0.69374269
-0.027629189 0.0098675787 0.6928221
-0.027597839 0.0078850985 0.69255173
-0.027686739 0.0059328973 0.69331825
-0.028250612 0.0040358305 0.69818008
-0.028351229 0.0020250976 0.69904768
-0.028469911 -2.9802322e-08 0.70007098
-0.028637748 -0.002045542 0.70151806
-0.028878592 -0.0041255057 0.70359468
-0.029265024 -0.0062710643 0.70692658
-0.031521499 -0.0090061426 0.72638232
-0.029687699 0.057091743 0.73026115
-0.029203994 0.053915054 0.72576976
-0.029031679 0.051363736 0.72416973
-0.028825702 0.048781961 0.72225714
-0.028377261 0.045840174 0.71809316
-0.028004631 0.043084085 0.71463317
-0.027697098 0.040480375 0.71177757
-0.027436577 0.03798911 0.70935851
-0.027209789 0.035582036 0.70725274
-0.027010703 0.033243924 0.7054041
-0.026834864 0.030963302 0.70377135
-0.026679341 0.028731585 0.70232725
-0.026541522 0.026541561 0.70104754
-0.026423139 0.024390608 0.69994825
-0.026319643 0.022270501 0.69898736
-0.026230277 0.020177126 0.69815749
-0.026154341 0.018106848 0.69745243
-0.026089303 0.016054988 0.69684851
-0.025963817 0.013980538 0.6956833
-0.025728334 0.011874616 0.69349676
-0.025564322 0.009832412 0.69197381
-0.025477611 0.0078392625 0.69116867
-0.02545986 0.0058753788 0.6910038
-0.025576085 0.0039348006 0.692083
-0.026085326 0.0020065904 0.69681156
-0.026170336 -0 0.69760096
-0.026287097 -0.0020220876 0.69868505
-0.026446989 -0.0040687621 0.70016968
-0.026683282 -0.0061576664 0.70236385
-0.027067803 -0.008328557 0.70593423
-0.029111456 -0.011196703 0.7249105
-0.026992556 0.053985119 0.72612202
-0.026717385 0.051208317 0.7233541
-0.026587015 0.04874289 0.72204268
-0.026310207 0.046042919 0.71925819
-0.025912009 0.043186665 0.71525264
-0.02559478 0.040525079 0.71206152
-0.025329489 0.037994236 0.70939296
-0.025100663 0.035559297 0.70709109
-0.024901418 0.033201903 0.70508683
-0.02472627 0.03090784 0.70332503
-0.024571752 0.028667063 0.70177066
-0.02443506 0.026471347 0.70039564
-0.024313947 0.024313927 0.69917738
-0.024207098 0.022189826 0.69810253
-0.02411619 0.020096838 0.69718808
-0.024038564 0.018028945 0.6964072
-0.023972917 0.015981942 0.69574684
-0.023909148 0.01394701 0.69510537
-0.023770293 0.011885136 0.6937086
-0.023556914 0.0098153651 0.69156218
-0.023424942 0.0078083277 0.69023466
-0.023355599 0.0058389008 0.68953711
-0.023361143 0.0038934946 0.68959284
-0.023516782 0.0019597411 0.69115847
-0.02393784 -2.9802322e-08 0.69539398
-0.024017794 -0.0020014942 0.69619834
-0.024128789 -0.004021436 0.6973148
-0.024283169 -0.0060708225 0.69886774
-0.024509668 -0.0081698596 0.70114613
-0.024904 -0.010376692 0.70511281
-0.026766218 -0.01338309 0.72384524
-0.024476452 0.051178068 0.72319514
-0.02429151 0.048583031 0.7211656
-0.024163537 0.046130389 0.71976131
-0.023841057 0.043347359 0.71622252
-0.023507476 0.040603817 0.71256185
-0.023235951 0.038022459 0.70958221
-0.023005286 0.035553604 0.70705104
-0.02280606 0.033172458 0.70486474
-0.022632288 0.030862212 0.70295781
-0.022479307 0.028610051 0.70127904
-0.022344608 0.026407272 0.69980091
-0.022225413 0.024245888 0.69849288
-0.022119924 0.022119969 0.69733524
-0.022026973 0.020024508 0.69631529
-0.021945644 0.017955512 0.69542283
-0.021878039 0.015911311 0.69468087
-0.021822004 0.01388672 0.69406599
-0.021758424 0.011868238 0.69336832
-0.021606809 0.0098212659 0.69170451
-0.021426385 0.0077914298 0.68972456
-0.021316681 0.0058136582 0.68852073
-0.021266192 0.0038665831 0.6879667
-0.021288071 0.0019352734 0.68820679
-0.02153175 2.9802322e-08 0.69088084
-0.021813875 -0.0019830465 0.69397676
-0.021889873 -0.0039799511 0.69481081
-0.021994669 -0.0059985518 0.69596076
-0.022144843 -0.0080526769 0.69760877
-0.022364944 -0.01016587 0.70002401
-0.022757495 -0.012413174 0.70433176
-0.022401849 0.051524282 0.72501218
-0.022038158 0.048483938 0.72062206
-0.021908853 0.046008617 0.71906114
-0.021763435 0.043526888 0.71730578
-0.021435065 0.040726662 0.71334207
-0.021155564 0.038080007 0.70996821
-0.020922206 0.03556776 0.70715129
-0.020725483 0.033160776 0.70477664
-0.020554353 0.030831546 0.70271093
-0.020403817 0.028565347 0.70089376
-0.020270487 0.026351631 0.69928437
-0.020152759 0.024183303 0.69786322
-0.020049796 0.022054791 0.69662035
-0.019958703 0.019958675 0.69552082
-0.019878695 0.017890811 0.69455504
-0.019808812 0.015847057 0.6937114
-0.01974869 0.013824075 0.69298565
-0.01970079 0.011820465 0.69240749
-0.019631764 0.0098158717 0.69157434
-0.019478533 0.0077914298 0.68972456
-0.019328644 0.0057986081 0.68791533
-0.019240348 0.0038480759 0.68684947
-0.019209545 0.0019209683 0.68647766
-0.019239312 -0 0.68683696
-0.019607993 -0.001960814 0.69128734
-0.01971484 -0.0039429665 0.69257712
-0.01978633 -0.0059358776 0.69344002
-0.01988557 -0.00795421 0.69463801
-0.020028448 -0.010014206 0.69636267
-0.02024072 -0.012144446 0.69892502
-0.020647569 -0.014453322 0.70383614
-0.019862512 0.048552841 0.72099984
-0.019661061 0.045875818 0.71829796
-0.01956556 0.043479025 0.71701705
-0.019378394 0.040909976 0.71450675
-0.019087382 0.038174778 0.71060359
-0.018852452 0.035610229 0.7074526
-0.01865788 0.033169568 0.70484298
-0.018489879 0.030816436 0.70258969
-0.018343164 0.028533846 0.70062184
-0.018213922 0.026309013 0.69888848
-0.018099502 0.024132669 0.69735384
-0.017997866 0.021997392 0.69599068
-0.017907403 0.019897133 0.69477737
-0.017829625 0.017829597 0.69373417
-0.017761411 0.015787929 0.69281924
-0.017702134 0.013768315 0.69202423
-0.017651273 0.011767566 0.69134206
-0.017608827 0.0097827017 0.69077271
-0.017534638 0.0077932179 0.68977773
-0.017386109 0.0057953894 0.68778557
-0.01726334 0.0038363039 0.68613899
-0.017199052 0.0019109845 0.68527675
-0.017178977 2.9802322e-08 0.68500745
-0.017224578 -0.0019138157 0.68561906
-0.017572682 -0.0039050281 0.69028795
-0.017640142 -0.005880028 0.69119269
-0.017706728 -0.0078696609 0.69208586
-0.017801994 -0.0098900199 0.69336361
-0.017933648 -0.011955738 0.69512928
-0.018135436 -0.01410535 0.6978358
-0.018570168 -0.016506791 0.70366651
-0.017467577 0.045852363 0.71816325
-0.01733542 0.043338567 0.71616924
-0.017248472 0.04096511 0.71485722
-0.01703117 0.038320154 0.71157849
-0.01679204 0.035683125 0.70797026
-0.016599225 0.033198446 0.7050609
-0.016435044 0.03081575 0.70258355
-0.016293023 0.028512776 0.70044065
-0.0161689 0.026274443 0.69856775
-0.016059401 0.024089098 0.69691557
-0.015962569 0.021948576 0.69545448
-0.015876528 0.019845665 0.69415623
-0.015800012 0.017775029 0.69300169
-0.015732199 0.015732229 0.69197845
-0.015674599 0.013715297 0.69110942
-0.015624918 0.01171869 0.69035977
-0.015582644 0.0097391307 0.68972188
-0.015543977 0.0077719688 0.68913841
-0.015465544 0.0057995617 0.68795502
-0.015327915 0.0038319528 0.68587828
-0.015235503 0.0019044578 0.68448389
-0.015185277 2.9802322e-08 0.68372607
-0.015173995 -0.001896739 0.68355584
-0.015234053 -0.0038084984 0.68446207
-0.015538426 -0.0058269203 0.68905473
-0.01558944 -0.007794708 0.68982446
-0.015652351 -0.0097827017 0.69077367
-0.015740367 -0.011805266 0.69210172
-0.015863379 -0.013880432 0.69395781
-0.016055921 -0.016055942 0.69686311
-0.016570639 -0.018641979 0.7046296
-0.015388282 0.04616484 0.71995938
-0.015139382 0.043255419 0.71566719
-0.01505097 0.040852636 0.71414256
-0.014957514 0.038462192 0.71253103
-0.014738852 0.035794348 0.70876032
-0.014547849 0.033252239 0.70546663
-0.014388224 0.030831933 0.70271397
-0.014251986 0.028503984 0.70036465
-0.01413397 0.026248813 0.69832951
-0.014030641 0.024052531 0.69654769
-0.013939399 0.021904737 0.6949743
-0.013858762 0.019798219 0.69358373
-0.013787188 0.017726421 0.69234943
-0.013723497 0.015684009 0.69125116
-0.013667162 0.013667166 0.69027966
-0.013617585 0.011672229 0.68942475
-0.013576676 0.0096976161 0.68871933
-0.013542084 0.007738322 0.68812281
-0.013505948 0.0057882667 0.68749964
-0.013424057 0.0038354397 0.68608749
-0.013308171 0.0019011796 0.68408912
-0.013236453 -2.9802322e-08 0.68285239
-0.013198345 -0.0018855035 0.68219525
-0.013198594 -0.0037710369 0.68219954
-0.013268644 -0.0056865513 0.68340749
-0.013521224 -0.0077264011 0.68776309
-0.013563321 -0.0096880794 0.68848902
-0.01362145 -0.011675507 0.68949145
-0.013700468 -0.013700455 0.69085401
-0.01381454 -0.015788019 0.69282115
-0.013994091 -0.017992407 0.69591737
-0.01506612 -0.021523029 0.71440387
-0.012996556 0.043321848 0.71606839
-0.012865284 0.040740103 0.71342742
-0.012803066 0.038409203 0.71217573
-0.012690978 0.035957754 0.7099207
-0.012501884 0.033338338 0.70611644
-0.012347626 0.030869067 0.70301294
-0.012220363 0.028514206 0.70045269
-0.012110629 0.026239693 0.69824499
-0.012014616 0.024029225 0.69631332
-0.011929824 0.021871358 0.6946075
-0.011854548 0.019757569 0.69309294
-0.011787429 0.017681152 0.69174266
-0.011729082 0.015638769 0.6905688
-0.011677301 0.013623536 0.68952709
-0.011631515 0.011631489 0.6886059
-0.011591277 0.0096594393 0.68779641
-0.011556695 0.0077044368 0.68710071
-0.011529091 0.005764544 0.68654525
-0.011494219 0.0038314164 0.68584377
-0.011412119 0.0019020438 0.68419206
-0.011321357 -0 0.68236607
-0.011265618 -0.0018776059 0.68124467
-0.011238838 -0.0037462711 0.6807059
-0.011248397 -0.0056241751 0.68089819
-0.011335892 -0.0075572431 0.68265843
-0.011523824 -0.0096031725 0.68643928
-0.011561102 -0.011561096 0.68718934
-0.01161244 -0.013547868 0.68822217
-0.011682208 -0.015576273 0.68962574
-0.011785024 -0.017677516 0.69169426
-0.011950292 -0.01991716 0.69501925
-0.012847005 -0.023552835 0.71305972
-0.010716476 0.040722638 0.71331656
-0.010635295 0.038287103 0.71135664
-0.010584406 0.03598699 0.71012807
-0.010458872 0.033468366 0.70709747
-0.010311444 0.030934364 0.70353818
-0.01019372 0.028542429 0.70069611
-0.01009329 0.026242584 0.69827151
-0.010006294 0.024015099 0.69617128
-0.0099300379 0.021846086 0.69433022
-0.009862666 0.019725382 0.69270372
-0.0098028053 0.017645061 0.69125855
-0.0097494759 0.015599191 0.68997109
-0.0097017996 0.013582528 0.68882006
-0.0096606649 0.011592805 0.68782699
-0.0096245408 0.0096245706 0.68695486
-0.0095929131 0.0076743662 0.68619138
-0.0095655881 0.005739361 0.68553168
-0.0095431479 0.0038172305 0.68498987
-0.0095078591 0.001901567 0.68413794
-0.0094334325 -0 0.6823411
-0.0093641207 -0.0018728077 0.68066782
-0.0093228752 -0.0037291348 0.679672
-0.0093077868 -0.0055846572 0.67930776
-0.0093204081 -0.0074563324 0.67961246
-0.0094807278 -0.0094807148 0.68348294
-0.0095487572 -0.011458516 0.68512535
-0.0095810108 -0.013413399 0.68590397
-0.0096250223 -0.015400022 0.68696654
-0.0096868863 -0.017436385 0.68846005
-0.0097752651 -0.019550502 0.69059372
-0.0099274367 -0.021840364 0.69426745
-0.010660765 -0.02558583 0.71197152
-0.0086319717 0.041001856 0.71509075
-0.0084928554 0.038217843 0.7108925
-0.0084435549 0.035885125 0.70940471
-0.008394612 0.033578455 0.70792776
-0.0082756244 0.031033605 0.70433694
-0.0081690885 0.028591841 0.70112193
-0.0080798808 0.026259601 0.69842988
-0.0080036586 0.024010986 0.69612968
-0.0079374453 0.021827966 0.69413149
-0.0078793857 0.019698471 0.69237936
-0.0078280121 0.017613053 0.6908291
-0.007782415 0.015564859 0.68945307
-0.0077417456 0.013548076 0.68822575
-0.0077054421 0.011558175 0.68713021
-0.0076731243 0.0095914006 0.68615496
-0.007645688 0.0076456964 0.68532693
-0.0076218713 0.0057164133 0.68460822
-0.0076013762 0.0038006902 0.6839897
-0.007583519 0.0018958747 0.68345082
-0.0075502191 -0 0.68244594
-0.0074864486 -0.0018715858 0.68052149
-0.0074362694 -0.0037181377 0.67900717
-0.0074093458 -0.0055570006 0.6781947
-0.0074004689 -0.0074004531 0.67792684
-0.0074161547 -0.009270221 0.67840016
-0.0075612003 -0.01134181 0.68277735
-0.0075959815 -0.013292968 0.68382692
-0.0076226545 -0.015245318 0.68463194
-0.0076590301 -0.017232776 0.68572962
-0.0077112615 -0.019278139 0.68730581
-0.0077865329 -0.021412969 0.68957734
-0.0079178512 -0.023753524 0.69354022
-0.0085075488 -0.027649552 0.7113359
-0.0063801734 0.038281053 0.71131629
-0.0063160122 0.035790741 0.70873463
-0.006285598 0.033523202 0.70751083
-0.0062351292 0.031175673 0.70548016
-0.0061432901 0.028668702 0.70178479
-0.0060678958 0.026294202 0.69875121
-0.0060048332 0.024019361 0.69621372
-0.0059510777 0.021820605 0.69405079
-0.0059039146 0.019679695 0.6921531
-0.0058622048 0.017586619 0.69047481
-0.0058251237 0.015533686 0.68898273
-0.0057925968 0.013516068 0.68767405
-0.0057635931 0.011527181 0.68650705
-0.0057376851 0.00956285 0.6854645
-0.0057146624 0.0076195598 0.68453819
-0.0056943921 0.0056944191 0.68372256
-0.0056775715 0.003785044 0.68304574
-0.0056631984 0.0018877387 0.6824674
-0.0056491536 -0 0.68190229
-0.0056194188 -0.0018731058 0.6807059
-0.0055703307 -0.0037135482 0.67873073
-0.0055385558 -0.0055385232 0.67745221
-0.0055207931 -0.0073610544 0.67673749
-0.0055164513 -0.0091941059 0.67656279
-0.0055351248 -0.011070222 0.67731416
-0.0056456686 -0.013173223 0.6817621
-0.0056650578 -0.015106827 0.6825422
-0.0056857434 -0.01705724 0.68337458
-0.0057149017 -0.019049704 0.68454778
-0.0057550417 -0.021101803 0.68616295
-0.0058148564 -0.023259401 0.68856966
-0.0059271096 -0.025684148 0.69308639
-0.0042091873 0.035778105 0.70864481
-0.0041772621 0.033418089 0.70671797
-0.0041580657 0.031185508 0.70555937
-0.0041118502 0.028782994 0.70277005
-0.0040540812 0.026351571 0.69928336
-0.0040076468 0.024045885 0.69648081
-0.0039683292 0.02182582 0.69410783
-0.003934179 0.019670904 0.69204664
-0.0039042025 0.017568916 0.6902374
-0.0038776523 0.015510619 0.68863499
-0.0038539972 0.013489008 0.68720722
-0.0038328152 0.011498451 0.68592882
-0.0038143201 0.0095357895 0.68481255
-0.003797933 0.0075958967 0.68382347
-0.0037833734 0.0056750774 0.68294472
-0.0037705011 0.0037705302 0.68216777
-0.0037595232 0.0018797815 0.6815052
-0.0037505897 -2.9802322e-08 0.68096608
-0.0037403423 -0.0018701553 0.68034756
-0.0037167952 -0.0037167966 0.67892635
-0.0036861007 -0.0055291355 0.67707384
-0.0036669746 -0.0073339343 0.67591941
-0.003656684 -0.0091417134 0.67529833
-0.0036559892 -0.01096797 0.67525637
-0.0036722629 -0.012852877 0.6762386
-0.0037442888 -0.014977127 0.68058574
-0.003755657 -0.01690045 0.68127185
-0.0037703023 -0.018851489 0.68215579
-0.0037905385 -0.020847946 0.68337715
-0.0038180891 -0.022908539 0.68504
-0.0038600329 -0.025090218 0.68757147
-0.0039477902 -0.027634531 0.69286811
-0.0021191225 0.036025107 0.71039867
-0.0020850888 0.033361435 0.70629036
-0.0020730377 0.031095594 0.70483571
-0.0020617365 0.028864324 0.70347154
-0.0020337966 0.026439369 0.70009887
-0.0020075056 0.024090052 0.69692528
-0.0019856843 0.021842539 0.69429123
-0.0019670122 0.019670099 0.69203728
-0.0019507618 0.017556876 0.69007576
-0.0019364926 0.015491933 0.6883533
-0.0019238202 0.013466746 0.68682361
-0.0019125398 0.011475295 0.68546188
-0.0019024466 0.0095122159 0.68424356
-0.0018933903 0.007573545 0.68315035
-0.0018855559 0.0056566894 0.68220466
-0.0018786605 0.0037573278 0.68137228
-0.0018725859 0.0018725991 0.68063903
-0.0018672886 -0 0.67999959
-0.0018630128 -0.0018630028 0.67948341
-0.0018569975 -0.0037139952 0.67875737
-0.001843641 -0.0055308938 0.67714506
-0.0018296256 -0.0073184967 0.67545331
-0.0018209561 -0.0091047585 0.67440677
-0.0018166192 -0.010899723 0.67388326
-0.0018178666 -0.012725085 0.67403382
-0.001829572 -0.014636606 0.67544681
-0.0018620007 -0.016757995 0.67936128
-0.0018675884 -0.018675864 0.68003577
-0.0018752808 -0.020628065 0.68096435
-0.0018856769 -0.022628129 0.68221927
-0.0019003152 -0.024704099 0.68398631
-0.0019227704 -0.026918769 0.68669689
-0.0019789538 -0.029684305 0.69347882
0 0.033420235 0.70673382
0 0.031017542 0.70420802
0 0.028810292 0.70300579
0 0.026555955 0.70118135
0 0.024157017 0.69759899
0 0.021873802 0.69463414
0 0.019678712 0.69214094
0 0.017551392 0.69000226
0 0.015477687 0.68813813
0 0.013447791 0.68649721
0 0.011454284 0.68504
0 0.0094915032 0.68374258
0 0.0075546801 0.68258184
0 0.0056402087 0.68154097
0 0.0037446916 0.6806103
0 0.0018658042 0.67982143
0 -0 0.67912984
0 -0.001855135 0.67853045
0 -0.0037017465 0.67802018
0 -0.0055311322 0.67715329
0 -0.0073169768 0.67540729
0 -0.0090820193 0.6738562
0 -0.010852039 0.67292416
0 -0.012640029 0.67256796
0 -0.014462739 0.67282397
0 -0.01643762 0.67506468
0 -0.018517733 0.67812687
0 -0.020433426 0.67882812
0 -0.022386104 0.67978531
0 -0.02439034 0.68107295
0 -0.026483238 0.68294126
0 -0.02873379 0.68582958
0 -0.032983184 0.70343667
0.0020672649 0.031008989 0.70413888
0.002051567 0.028721988 0.70224392
0.0020424223 0.026551455 0.70114017
0.0020212757 0.024255365 0.69858748
0.0019930562 0.021923602 0.69518107
0.0019700867 0.019700855 0.69240844
0.0019508227 0.017557383 0.69008309
0.0019340748 0.015472591 0.68806142
0.0019193334 0.013435334 0.68628192
0.0019062518 0.011437505 0.68470287
0.0018945588 0.0094727874 0.68329138
0.0018842708 0.0075370967 0.68204951
0.0018751192 0.005625397 0.6809448
0.0018669195 0.0037338436 0.67995501
0.0018595855 0.0018596053 0.67906976
0.001853146 -2.9802322e-08 0.67829239
0.0018477534 -0.001847744 0.67764151
0.0018430977 -0.0036861897 0.6770795
0.0018388442 -0.0055165291 0.67656606
0.0018302681 -0.0073210299 0.67553079
0.0018150705 -0.0090753436 0.67369634
0.0018035233 -0.010821134 0.67230242
0.0017971621 -0.012580156 0.6715346
0.0017949571 -0.014359653 0.6712684
0.0017979369 -0.016181409 0.67162812
0.0018317086 -0.018317103 0.67570472
0.0018416529 -0.020258158 0.67690516
0.0018476852 -0.022172213 0.67763323
0.0018558541 -0.024126083 0.67861933
0.0018670866 -0.0261392 0.67997521
0.0018830794 -0.028246194 0.68190569
0.0019088262 -0.030541211 0.68501359
0.0020512305 -0.034870893 0.70220339
0.004163255 0.0312244 0.7058726
0.0040966002 0.028676182 0.70184964
0.0040730401 0.026474804 0.70042765
0.0040519964 0.02431199 0.69915754
0.003999766 0.021998763 0.69600511
0.0039477902 0.019738972 0.69286811
0.0039050863 0.01757288 0.69029069
0.0038684786 0.015473932 0.68808126
0.0038365768 0.013428003 0.68615586
0.00380847 0.011425376 0.68445939
0.0037834877 0.0094587207 0.68295157
0.0037611623 0.0075223446 0.68160415
0.0037411114 0.0056116581 0.68039399
0.0037234887 0.0037235022 0.67933035
0.0037079123 0.0018539727 0.67839026
0.0036939923 -0 0.67755008
0.0036816392 -0.0018408 0.67680448
0.0036711581 -0.0036711693 0.6761719
0.0036624784 -0.0054937303 0.67564809
0.0036533198 -0.0073066056 0.67509526
0.0036333306 -0.0090833008 0.6738888
0.0036023979 -0.010807216 0.67202187
0.003582794 -0.012539774 0.67083865
0.0035715797 -0.014286309 0.67016184
0.0035686374 -0.016058862 0.66998422
0.0035788089 -0.017894059 0.67059815
0.0036492695 -0.02007097 0.67485082
0.0036632831 -0.02197969 0.67569661
0.0036757835 -0.023892581 0.67645109
0.0036925748 -0.025848001 0.67746449
0.0037164085 -0.027873069 0.67890304
0.0037498027 -0.029998451 0.68091857
0.0038062104 -0.032352805 0.68432307
0.0040841941 -0.036757737 0.70110083
0.0061563919 0.028729826 0.70231199
0.0060949735 0.026411533 0.69984072
0.0060654934 0.024261951 0.69865453
0.0060244021 0.022089511 0.6970011
0.0059386939 0.019795656 0.69355249
0.0058666491 0.01759997 0.69065368
0.0058059501 0.015482515 0.68821132
0.0057538068 0.013425589 0.68611324
0.0057082735 0.011416554 0.68428111
0.0056681167 0.0094468594 0.68266535
0.0056323656 0.0075098276 0.68122679
0.005600445 0.0056004822 0.67994243
0.0055717574 0.0037145019 0.67878807
0.0055459226 0.0018486381 0.67774862
0.0055235149 -2.9802322e-08 0.67684704
0.005503749 -0.0018346012 0.67605174
0.0054862085 -0.0036574602 0.6753459
0.0054708323 -0.0054707825 0.6747272
0.0054585771 -0.0072780848 0.67423409
0.0054430789 -0.0090717971 0.67361057
0.0054078018 -0.010815591 0.67219108
0.0053651244 -0.012518644 0.67047387
0.0053382977 -0.014235467 0.66939443
0.0053237006 -0.015971124 0.66880715
0.0053216433 -0.017738819 0.6687243
0.005343067 -0.019591212 0.6695863
0.0054480573 -0.021792233 0.67381078
0.0054652351 -0.023682684 0.67450202
0.0054845847 -0.025594711 0.67528057
0.0055114082 -0.027557045 0.67635983
0.0055482183 -0.029590458 0.67784095
0.005601469 -0.031741649 0.67998362
0.0056924061 -0.034154415 0.68364263
0.0061050379 -0.038665235 0.70024562
0.0081249485 0.026406109 0.69978994
0.0080631813 0.024189532 0.69792593
0.008028347 0.022077948 0.69687474
0.0079511311 0.019877821 0.69454449
0.0078408001 0.017641783 0.69121498
0.0077501391 0.015500277 0.68847907
0.0076743308 0.013430089 0.68619132
0.0076085716 0.011412889 0.68420684
0.0075505897 0.0094382465 0.68245709
0.0074990438 0.007499069 0.68090153
0.0074535226 0.0055901706 0.67952782
0.0074129682 0.003706485 0.67830402
0.0073765218 0.0018441379 0.67720419
0.0073437174 -0 0.67621416
0.0073142764 -0.0018285811 0.67532575
0.0072893156 -0.003644675 0.67457247
0.0072672679 -0.0054504573 0.67390716
0.007247977 -0.0072479546 0.67332494
0.0072318446 -0.0090397596 0.67283809
0.0072071045 -0.010810614 0.67209154
0.0071550338 -0.012521297 0.67052019
0.0071029281 -0.014205843 0.6689477
0.0070705083 -0.015908629 0.66796941
0.0070539117 -0.017634779 0.66746849
0.0070573688 -0.019407779 0.66757286
0.0070939404 -0.021281809 0.6686765
0.0072270916 -0.023488045 0.67269474
0.007247794 -0.02536726 0.6733194
0.0072751134 -0.027281642 0.67414391
0.0073124859 -0.029249936 0.67527175
0.0073627634 -0.031291753 0.67678893
0.0074379002 -0.033470541 0.67905641
0.0075760554 -0.035986245 0.68322563
0.01022714 0.026590556 0.70150292
0.010063975 0.02415356 0.69756377
0.010006334 0.022013932 0.69617218
0.0099571096 0.01991424 0.69498378
0.0098354472 0.017703831 0.69204658
0.0097069945 0.015531212 0.68894553
0.0096024862 0.01344353 0.68642247
0.0095127039 0.011415243 0.68425488
0.0094343927 0.009434402 0.68236434
0.0093652075 0.0074921846 0.68069398
0.0093036322 0.0055821538 0.6792075
0.0092483982 0.0036993623 0.67787397
0.0091993595 0.0018398464 0.6766901
0.0091559961 2.9802322e-08 0.67564321
0.0091169905 -0.0018233955 0.67470157
0.0090819411 -0.0036327839 0.67385542
0.0090512196 -0.0054307282 0.6731137
0.0090252291 -0.0072201788 0.67248619
0.0090026241 -0.0090026259 0.67194051
0.0089825839 -0.010779083 0.67145669
0.0089463191 -0.012524843 0.67058116
0.0088760136 -0.014201641 0.66888386
0.0088163642 -0.015869439 0.66744375
0.0087801628 -0.017560363 0.66656983
0.008765704 -0.019284546 0.66622078
0.0087744966 -0.021058768 0.66643298
0.0088402592 -0.022984713 0.66802067
0.0089860689 -0.025160998 0.67154086
0.0090122242 -0.027036667 0.67217225
0.009047946 -0.028953433 0.67303467
0.0090959417 -0.030926228 0.67419338
0.0091617629 -0.032982349 0.67578244
0.009260037 -0.035188138 0.67815495
0.0094593279 -0.037837297 0.68296629
0.012100574 0.024201125 0.69804269
0.011980289 0.021963865 0.69562268
0.011922196 0.019870371 0.69445401
0.011847063 0.017770588 0.69294238
0.01168289 0.015577167 0.68963951
0.0115419 0.013465583 0.68680304
0.011422932 0.011422902 0.68440962
0.011320631 0.0094339252 0.68235141
0.011231102 0.0074874461 0.68055022
0.011152 0.0055759847 0.67895889
0.011081405 0.0036937892 0.67753857
0.011018123 0.0018363595 0.67626542
0.01096108 -0 0.67511779
0.010910688 -0.0018184483 0.67410403
0.010866181 -0.0036220849 0.67320865
0.010826251 -0.0054131448 0.6724053
0.010790568 -0.0071937144 0.67168742
0.010760594 -0.0089671314 0.67108428
0.010735237 -0.010735214 0.67057425
0.010710305 -0.012495339 0.67007262
0.010658098 -0.01421082 0.66902232
0.010571106 -0.015856653 0.66727215
0.010507175 -0.017511964 0.66598594
0.010471077 -0.019196957 0.66525972
0.010457945 -0.020915896 0.66499555
0.01049865 -0.02274707 0.66581446
0.010645401 -0.024839252 0.66876686
0.010728255 -0.02682063 0.6704337
0.01078154 -0.028750747 0.67150575
0.010827619 -0.030678242 0.67243278
0.010890226 -0.032670677 0.67369235
0.010979639 -0.03476885 0.67549121
0.011118628 -0.037062079 0.67828751
0.011484765 -0.040196687 0.68565357
0.013975106 0.021960884 0.69559002
0.013868748 0.019812465 0.69375592
0.013810674 0.017756611 0.69275451
0.013687671 0.01564306 0.69063342
0.013498817 0.013498843 0.68737662
0.013343509 0.011437297 0.68469846
0.013212086 0.0094372332 0.68243223
0.013098787 0.0074850321 0.68047839
0.012999416 0.0055711865 0.67876482
0.01291153 0.0036890209 0.67724925
0.012832953 0.0018332899 0.67589426
0.012762577 -0 0.67468071
0.012699091 -0.001814127 0.67358589
0.012641705 -0.0036119521 0.67259634
0.012591848 -0.0053964853 0.67173654
0.012547686 -0.0071701109 0.67097503
0.012508295 -0.0089344978 0.67029577
0.012473773 -0.010691792 0.66970044
0.012446159 -0.012446165 0.66922426
0.012414263 -0.014187694 0.66867423
0.012343562 -0.015870273 0.66745502
0.012242603 -0.017489403 0.66571403
0.012178325 -0.019137353 0.66460562
0.012289468 -0.021067679 0.6665222
0.012399585 -0.023027778 0.66842109
0.012421263 -0.024842501 0.66879493
0.012441516 -0.026660383 0.66914415
0.012472396 -0.028508335 0.66967666
0.012513705 -0.030390441 0.670389
0.012568983 -0.032320231 0.67134231
0.012646589 -0.034326434 0.67268056
0.01275384 -0.036439538 0.67453003
0.012931838 -0.038795471 0.67759943
0.013845723 -0.043515146 0.6933589
0.016083792 0.022115231 0.69728357
0.015827937 0.019784957 0.69342303
0.015737705 0.017704934 0.69206154
0.015663866 0.015663892 0.69094741
0.015482833 0.01354748 0.68821585
0.015280111 0.011460125 0.68515694
0.015115835 0.0094473958 0.68267828
0.014974914 0.0074874759 0.68055195
0.01485179 0.0055694282 0.67869413
0.014742882 0.0036857128 0.67705083
0.014645626 0.0018306971 0.67558336
0.014558853 -0 0.67427409
0.014482214 -0.0018102527 0.67311764
0.01441312 -0.0036032796 0.67207509
0.014350648 -0.0053814948 0.6711325
0.014294378 -0.0071472228 0.67028344
0.014246607 -0.0089041591 0.6695627
0.014204091 -0.010653049 0.66892111
0.01416664 -0.012395799 0.66835606
0.014135872 -0.014135867 0.66789174
0.014093666 -0.015855372 0.66725492
0.014000404 -0.01750049 0.66584772
0.014081718 -0.01936233 0.66707462
0.014094809 -0.021142185 0.66727215
0.014095156 -0.022904605 0.6672774
0.014102804 -0.024679929 0.66739285
0.014118522 -0.026472241 0.66762996
0.014142966 -0.028285921 0.66799879
0.014179287 -0.030131012 0.66854686
0.014228073 -0.032013178 0.66928297
0.014294992 -0.033950627 0.67029268
0.014386804 -0.035966992 0.67167801
0.014517404 -0.0381082 0.67364866
0.014736531 -0.040525466 0.67695504
0.017843259 0.019825876 0.69391704
0.017666647 0.017666638 0.69154823
0.01758064 0.015627235 0.6903947
0.017477268 0.013593405 0.6890083
0.017241923 0.011494607 0.68585169
0.017034905 0.0094638467 0.68307513
0.016860088 0.0074933767 0.6807304
0.01670938 0.0055698156 0.67870909
0.016577316 0.0036838353 0.67693782
0.01646043 0.0018289387 0.6753701
0.016355867 -0 0.67396766
0.016261896 -0.001806885 0.67270732
0.016177654 -0.0035950243 0.67157745
0.016103605 -0.0053678751 0.67058432
0.016036736 -0.007127434 0.66968739
0.015976371 -0.0088757575 0.66887772
0.01592355 -0.010615677 0.66816932
0.015878465 -0.012349933 0.66756463
0.015838923 -0.014079064 0.66703427
0.015804682 -0.015804678 0.66657501
0.015803738 -0.017559737 0.66656238
0.01578363 -0.019291073 0.66629267
0.015770696 -0.021027625 0.66611922
0.015765507 -0.022772431 0.6660496
0.01576766 -0.02452746 0.66607845
0.01577799 -0.026296645 0.66621709
0.015797364 -0.028084219 0.66647685
0.015826289 -0.029894084 0.66686481
0.015868505 -0.031737 0.667431
0.015926311 -0.033622175 0.66820633
0.016005216 -0.035567164 0.66926467
0.016111152 -0.037592679 0.67068547
0.016266948 -0.039763659 0.67277509
0.016539445 -0.042267412 0.67642987
0.019628221 0.017665446 0.69153154
0.019478684 0.015582949 0.68972647
0.019398935 0.013579279 0.6887638
0.019239755 0.01154384 0.68684232
0.018976269 0.0094881654 0.68366176
0.018758925 0.0075035691 0.68103814
0.0185748 0.0055724382 0.6788156
0.018415716 0.00368312 0.67689526
0.018276073 0.0018275976 0.67520964
0.018152218 -0 0.67371458
0.018041281 -0.0018041134 0.67237544
0.01794159 -0.003588289 0.67117208
0.017851399 -0.0053553879 0.67008334
0.017771132 -0.0071084499 0.66911447
0.017700471 -0.0088502467 0.66826153
0.017636769 -0.01058206 0.66749257
0.017579515 -0.012305677 0.66680139
0.017536201 -0.014028937 0.6662786
0.017517535 -0.015765816 0.6660533
0.017481795 -0.017481804 0.66562188
0.017455326 -0.019200861 0.6653024
0.017435072 -0.020922065 0.66505784
0.017421959 -0.022648573 0.66489959
0.017417107 -0.024383932 0.664841
0.017421473 -0.026132226 0.66489369
0.017434828 -0.027895749 0.66505492
0.017458187 -0.029678941 0.66533691
0.017492121 -0.031485826 0.66574651
0.017541671 -0.033329189 0.66634464
0.017609023 -0.03521803 0.66715765
0.017699154 -0.037168235 0.66824567
0.017821135 -0.039206505 0.66971803
0.018002916 -0.041406721 0.67191231
0.018345023 -0.044028074 0.67604196
0.02174364 0.017790258 0.69320607
0.021399559 0.015563369 0.68943024
0.02127729 0.013540089 0.68808848
0.021181894 0.011553764 0.68704164
0.020950811 0.0095230937 0.68450582
0.020677997 0.0075193048 0.681512
0.020453921 0.0055783391 0.67905307
0.020263776 0.0036843419 0.67696649
0.02009744 0.0018270314 0.67514122
0.019949926 -0 0.67352235
0.019818824 -0.0018016994 0.67208374
0.019702403 -0.0035822392 0.67080617
0.019597873 -0.0053448677 0.66965908
0.019503152 -0.0070920587 0.66861963
0.019417215 -0.0088260174 0.66767657
0.019342357 -0.01055035 0.6668551
0.019301185 -0.01228258 0.66640329
0.019245706 -0.013996899 0.66579449
0.019193761 -0.015704006 0.66522443
0.019151485 -0.017410427 0.66476053
0.019114504 -0.019114494 0.66435474
0.019087393 -0.020822614 0.6640572
0.019067356 -0.022534162 0.66383737
0.01905521 -0.024252087 0.66370404
0.019051386 -0.025979161 0.66366208
0.01905686 -0.027719051 0.66372216
0.019073568 -0.029477298 0.6639055
0.019101236 -0.031256586 0.66420913
0.019142093 -0.03306362 0.66465747
0.01919885 -0.034907013 0.66528028
0.019275296 -0.036798269 0.66611922
0.019377291 -0.038754582 0.66723847
0.019519681 -0.040813923 0.66880107
0.019731293 -0.043050081 0.67112315
0.020175308 -0.045852989 0.67599571
0.023394639 0.015596449 0.68992984
0.023163861 0.013512284 0.68760836
0.02305101 0.011525512 0.68647319
0.022924541 0.0095518529 0.68520105
0.022627356 0.0075424314 0.68221152
0.022354407 0.0055885911 0.67946589
0.022125812 0.00368765 0.67716646
0.021928484 0.001827389 0.67518139
0.021755354 -0 0.67343992
0.021601712 -0.0018001795 0.67189437
0.021464104 -0.0035773814 0.67051011
0.02133991 -0.0053350031 0.66926086
0.0212311 -0.0070770383 0.66816628
0.021132689 -0.008805275 0.66717637
0.021076014 -0.010537982 0.66660619
0.02099517 -0.012247175 0.66579306
0.020926096 -0.013950706 0.66509819
0.020864433 -0.015648305 0.66447788
0.020809837 -0.017341524 0.66392875
0.020765647 -0.01903519 0.66348422
0.020727796 -0.020727813 0.66310346
0.020700213 -0.022425234 0.66282594
0.020680819 -0.024127603 0.66263086
0.020669928 -0.025837392 0.66252136
0.020668149 -0.027557492 0.66250342
0.020676263 -0.029291362 0.66258502
0.020695431 -0.031043172 0.6627779
0.020727154 -0.03281799 0.66309696
0.020775132 -0.034625232 0.66357958
0.020839376 -0.036468893 0.66422588
0.020925367 -0.038363159 0.66509086
0.02104049 -0.040327609 0.66624892
0.021203808 -0.042407572 0.66789174
0.021450225 -0.044687986 0.67037058
0.022091134 -0.047864139 0.67681754
0.025094183 0.013512284 0.68760836
0.024902711 0.011493564 0.68583047
0.024802724 0.0095395148 0.68490207
0.024616124 0.0075742006 0.68316936
0.024281548 0.0056034327 0.68006271
0.024004661 0.0036930442 0.67749166
0.023769833 0.0018284619 0.67531121
0.023566594 -0 0.67342401
0.023387887 -0.0017990768 0.67176467
0.023229115 -0.0035737157 0.67029041
0.023086645 -0.0053277016 0.66896755
0.022958146 -0.0070640445 0.66777432
0.02287901 -0.0087996125 0.66703951
0.022776306 -0.010512143 0.6660859
0.022683298 -0.012214094 0.66522223
0.022599207 -0.013907194 0.66444147
0.022526111 -0.015594989 0.66376269
0.022463178 -0.017279357 0.66317832
0.022407617 -0.018960267 0.66266239
0.022360247 -0.020640224 0.66222256
0.02232318 -0.022323191 0.66187841
0.022294566 -0.024009496 0.66161275
0.022275859 -0.025702924 0.661439
0.022266556 -0.027405024 0.66135263
0.02226709 -0.029118478 0.66135758
0.022278301 -0.030846894 0.66146171
0.022301368 -0.032594293 0.66167581
0.022337822 -0.034365863 0.66201437
0.022391496 -0.0361709 0.66251278
0.022463644 -0.038015395 0.66318268
0.022560332 -0.039914399 0.66408044
0.022691527 -0.041892022 0.66529864
0.022874424 -0.043989241 0.6669969
0.023158073 -0.046316147 0.66963077
0.026788665 0.011480868 0.68557495
0.026634557 0.0095123649 0.68424618
0.026519706 0.0075770617 0.68325591
0.02624793 0.0056245327 0.68091261
0.025907774 0.0037011206 0.67797971
0.025626281 0.0018304586 0.67555267
0.025387503 2.9802322e-08 0.6734938
0.025179351 -0.0017984807 0.67169905
0.024995618 -0.0035707653 0.67011487
0.024832664 -0.0053212941 0.66870993
0.024727473 -0.0070649981 0.66780293
0.024593865 -0.0087835193 0.66665089
0.02447263 -0.010488272 0.6656056
0.024364952 -0.012182504 0.6646772
0.02426973 -0.013868421 0.66385615
0.024183683 -0.01554665 0.66311425
0.024106534 -0.017218918 0.66244906
0.024042163 -0.018890262 0.66189408
0.023986101 -0.02055949 0.66141069
0.023937579 -0.022227734 0.66099232
0.023900582 -0.023900568 0.66067332
0.023871666 -0.0255768 0.66042399
0.023853052 -0.027260631 0.66026348
0.023845419 -0.028955162 0.66019768
0.023848504 -0.030662388 0.66022432
0.023863209 -0.032385767 0.66035104
0.023890555 -0.034129322 0.66058683
0.023931935 -0.035897881 0.66094363
0.023991851 -0.037701458 0.66146028
0.024072817 -0.039548188 0.66215837
0.02418026 -0.041451901 0.66308475
0.024328481 -0.04344371 0.66436267
0.024533054 -0.045561373 0.66612661
0.024866603 -0.047957003 0.66900253
0.028764073 0.011505604 0.6860733
0.028481254 0.0094937682 0.68379736
0.028342832 0.0075581074 0.68268335
0.028196104 0.0056392252 0.68150264
0.027846485 0.0037128627 0.67868912
0.027508458 0.0018338859 0.67596889
0.027228132 -0 0.67371297
0.02698583 -0.001799047 0.67176306
0.026772991 -0.0035697222 0.67005026
0.026629083 -0.005325824 0.6688922
0.026458697 -0.0070556402 0.66752106
0.026307067 -0.0087690353 0.66630083
0.026170481 -0.010468215 0.66520172
0.026046418 -0.012154967 0.66420329
0.025933739 -0.013831317 0.66329658
0.025835631 -0.01550135 0.662507
0.02574824 -0.017165482 0.66180378
0.025669685 -0.018824428 0.66117156
0.025602 -0.020481557 0.66062689
0.025545705 -0.022139609 0.66017389
0.02549676 -0.023797005 0.65978003
0.025459658 -0.025459647 0.65948147
0.025431706 -0.027127147 0.65925646
0.025413448 -0.028801888 0.65910959
0.025406912 -0.030488312 0.65905696
0.025412848 -0.032189637 0.6591047
0.02543119 -0.033908248 0.65925235
0.025463112 -0.035648376 0.65950924
0.025510022 -0.0374147 0.65988672
0.025576785 -0.03921777 0.66042399
0.025666349 -0.04106614 0.66114473
0.025788048 -0.042980045 0.6621241
0.025951494 -0.044982582 0.66343945
0.026184175 -0.047131538 0.66531187
0.026569407 -0.04959622 0.66841203
0.030381965 0.0094943345 0.68381214
0.030151058 0.0075377524 0.68207014
0.030031169 0.005630821 0.68116558
0.02982164 0.0037277043 0.67958486
0.029422695 0.0018389225 0.67657501
0.029088719 -0 0.67405534
0.028804978 -0.0018003285 0.6719147
0.028593455 -0.0035741627 0.67031884
0.028394381 -0.0053239167 0.66881692
0.028198553 -0.00704965 0.66733962
0.028023055 -0.0087572038 0.66601557
0.027864849 -0.01044929 0.66482198
0.027725693 -0.012129992 0.66377217
0.027599428 -0.013799697 0.6628195
0.027484683 -0.015460104 0.66195381
0.027382029 -0.017113745 0.6611793
0.02729325 -0.018764079 0.66050959
0.02721411 -0.020410597 0.65991253
0.027143616 -0.022054195 0.65938067
0.02708686 -0.023701012 0.65895247
0.027037827 -0.025347948 0.65858257
0.027000895 -0.027000874 0.65830392
0.026974149 -0.028660029 0.65810221
0.026957797 -0.030327529 0.65797877
0.026952535 -0.032006115 0.65793908
0.02696025 -0.033700317 0.65799731
0.026982421 -0.035414428 0.65816456
0.027019212 -0.037151426 0.65844214
0.02707193 -0.038915902 0.65883988
0.02714647 -0.040719718 0.65940225
0.027247084 -0.042573571 0.66016126
0.02738109 -0.044494271 0.66117227
0.027561136 -0.046509415 0.66253066
0.027823303 -0.048690766 0.66450852
0.028276339 -0.051250875 0.66792643
0.032003678 0.007530272 0.68184412
0.03181836 0.0056150258 0.68052822
0.031686556 0.0037278235 0.67959237
0.031381909 0.0018459857 0.6774292
0.030977335 -0 0.67455649
0.030642003 -0.0018024445 0.67217535
0.030419117 -0.0035787225 0.67059273
0.030166138 -0.0053234398 0.66879642
0.029943138 -0.007045418 0.66721296
0.029744616 -0.0087484121 0.66580337
0.029566577 -0.010435253 0.66453922
0.02940549 -0.012108088 0.66339535
0.029259833 -0.013769329 0.66236115
0.029132066 -0.015422851 0.6614539
0.029015897 -0.017068177 0.66062903
0.02891057 -0.018706858 0.65988111
0.028819084 -0.020342857 0.65923154
0.028739726 -0.021977425 0.65866804
0.028669208 -0.023609936 0.6581673
0.028609714 -0.025243878 0.65774488
0.028561104 -0.026881039 0.65739965
0.0285249 -0.028524905 0.65714264
0.028499287 -0.030175716 0.65696073
0.028485162 -0.031836361 0.65686047
0.028482681 -0.033509016 0.65684283
0.028492987 -0.035197228 0.65691602
0.028517537 -0.03690505 0.65709037
0.028559282 -0.038639039 0.65738678
0.028620111 -0.040404856 0.65781868
0.028702779 -0.042209983 0.65840566
0.028813226 -0.044067234 0.65918994
0.028960574 -0.045996189 0.66023624
0.029159328 -0.048027128 0.66164744
0.029450592 -0.050239235 0.66371566
0.029993609 -0.052929908 0.66757143
0.033960357 0.0075467527 0.6823411
0.033627637 0.0056046247 0.68010986
0.033464458 0.003718257 0.67901558
0.033300512 0.0018500388 0.67791605
0.032906428 2.9802322e-08 0.6752733
0.032584272 -0.0018102229 0.67311287
0.032241337 -0.0035823584 0.67081308
0.031950362 -0.0053250492 0.66886181
0.031695016 -0.0070433319 0.66714942
0.031469207 -0.0087414086 0.66563511
0.031268507 -0.010422826 0.66428912
0.031088581 -0.012089998 0.6630826
0.030925684 -0.013744742 0.66199017
0.030777305 -0.015388638 0.66099513
0.03064473 -0.017024815 0.66010606
0.030527771 -0.018655866 0.65932167
0.030421766 -0.020281166 0.65861082
0.030327423 -0.021903157 0.65797812
0.030246958 -0.023525417 0.65743852
0.030176727 -0.025147259 0.65696752
0.030116182 -0.026769936 0.65656149
0.030068725 -0.028398246 0.65624332
0.03003183 -0.03003186 0.65599585
0.030008014 -0.0316751 0.65583616
0.029995922 -0.033328772 0.65575504
0.029996421 -0.034995824 0.65575838
0.030010514 -0.036679506 0.65585285
0.030039642 -0.038383961 0.65604824
0.030085701 -0.040114284 0.65635711
0.030153185 -0.041879416 0.65680969
0.030244116 -0.043685943 0.6574195
0.03036556 -0.045548379 0.65823388
0.030526115 -0.047485054 0.65931058
0.030747885 -0.049538255 0.66079777
0.031075388 -0.051792324 0.66299415
0.031747527 -0.054676265 0.66750157
0.035500214 0.0056053102 0.68013769
0.035232477 0.0037086606 0.6784367
0.03509267 0.0018469989 0.67754847
0.034864746 -0 0.67610037
0.034496974 -0.0018156469 0.67376387
0.034094647 -0.0035888851 0.67120779
0.033757117 -0.005330056 0.66906339
0.033464685 -0.0070451796 0.66720551
0.033207286 -0.0087387562 0.66557026
0.032978054 -0.010414124 0.66411388
0.032772172 -0.012073964 0.66280591
0.032589726 -0.013721973 0.66164672
0.032425549 -0.015359461 0.66060376
0.032275833 -0.016987264 0.65965259
0.032140419 -0.018607587 0.6587922
0.03202058 -0.020223528 0.65803087
0.031914379 -0.021836162 0.65735614
0.031818457 -0.023445159 0.65674675
0.031736668 -0.025055289 0.65622711
0.031666897 -0.02666688 0.65578383
0.03160657 -0.028279543 0.65540057
0.031559564 -0.029898554 0.65510195
0.031523358 -0.031523317 0.65487188
0.03149996 -0.033157855 0.65472329
0.031490464 -0.034805268 0.65466297
0.031494115 -0.036466837 0.65468609
0.031512279 -0.038146466 0.65480155
0.031546056 -0.039847642 0.65501612
0.031597745 -0.041575938 0.65534449
0.031671751 -0.043340296 0.65581465
0.031771775 -0.045149356 0.65645015
0.031903986 -0.047016382 0.6572901
0.032078709 -0.048962206 0.65840018
0.032324888 -0.051039308 0.6599642
0.03269317 -0.053341508 0.66230398
0.03360866 -0.056604028 0.66812027
0.0370529 0.0037052929 0.67823195
0.036836989 0.0018418431 0.67692888
0.037063878 -0 0.67829823
0.036467165 -0.0018233359 0.67469668
0.0359824 -0.003598243 0.67177093
0.035586122 -0.0053379238 0.66937917
0.035248689 -0.0070497096 0.66734254
0.034955651 -0.0087389052 0.66557395
0.03469725 -0.010409206 0.66401434
0.034466844 -0.012063354 0.66262376
0.034259643 -0.013703853 0.6613732
0.034072191 -0.01533249 0.66024178
0.033905379 -0.016952664 0.659235
0.033755101 -0.018565327 0.658328
0.033618007 -0.020170808 0.65750051
0.033496138 -0.021772504 0.65676498
0.033388741 -0.023372114 0.65611678
0.033293318 -0.024969995 0.65554088
0.033208687 -0.026566982 0.65503007
0.033139624 -0.028168708 0.65461326
0.033080142 -0.029772133 0.65425426
0.033033732 -0.031382024 0.65397412
0.032999311 -0.032999307 0.65376639
0.032976799 -0.034625649 0.6536305
0.032968871 -0.036265731 0.65358269
0.032976039 -0.037922442 0.65362591
0.032998331 -0.039597988 0.65376043
0.033037219 -0.041296542 0.65399522
0.033094909 -0.043023378 0.65434337
0.033176322 -0.044788033 0.65483475
0.033285122 -0.04659915 0.65549147
0.03342811 -0.048470765 0.65635443
0.033621959 -0.05043295 0.65752441
0.033889305 -0.052528441 0.65913796
0.034300741 -0.054881155 0.66162121
0.038991734 0.0037134886 0.67872739
0.039128371 0.0018632412 0.6795128
0.039472472 -2.9802322e-08 0.68149078
0.038527656 -0.0018346608 0.67605978
0.037918955 -0.0036112964 0.67256087
0.037445854 -0.0053493977 0.66984147
0.037052497 -0.007057637 0.66758037
0.036716897 -0.0087421238 0.66565132
0.03642441 -0.010406941 0.66397005
0.036165401 -0.012055129 0.66248131
0.035934485 -0.013689339 0.66115391
0.035726778 -0.01531148 0.65996003
0.035538159 -0.016922951 0.65887582
0.035367105 -0.01852563 0.65789258
0.035215385 -0.020123065 0.65702045
0.035078306 -0.021715105 0.65623248
0.034954261 -0.023302883 0.65551949
0.034845881 -0.024889916 0.6548965
0.034750577 -0.026476622 0.65434867
0.034666076 -0.028063029 0.65386295
0.034595314 -0.029653132 0.65345621
0.034536868 -0.031247675 0.65312028
0.034491971 -0.032849461 0.65286219
0.034459058 -0.034459054 0.65267301
0.034439292 -0.036079228 0.65255934
0.034432635 -0.037711948 0.65252113
0.034442339 -0.039362669 0.65257692
0.034469116 -0.041034669 0.65273082
0.034513272 -0.042730689 0.65298462
0.034577329 -0.044456542 0.6533528
0.034666192 -0.046221614 0.65386367
0.034784164 -0.048035264 0.65454173
0.034941014 -0.049915761 0.65544331
0.035153531 -0.051893264 0.65666491
0.035445247 -0.054011762 0.65834171
0.035915818 -0.056439131 0.66104662
0.040774498 -0.0018533766 0.67832142
0.03992996 -0.0036299825 0.67368758
0.039349169 -0.0053657889 0.67050087
0.038887519 -0.007070452 0.66796792
0.038503129 -0.0087507069 0.66585875
0.038170017 -0.010410011 0.66403109
0.037876479 -0.012051612 0.66242045
0.037615295 -0.013678282 0.66098738
0.037382804 -0.015292972 0.65971172
0.037174124 -0.016897321 0.65856671
0.036985151 -0.018492609 0.65752983
0.036812976 -0.020079821 0.65658522
0.036657896 -0.02166146 0.6557343
0.036520347 -0.023240238 0.65497959
0.036396094 -0.02481553 0.65429783
0.036286198 -0.026389956 0.65369481
0.036190879 -0.027965695 0.65317184
0.036107425 -0.029542416 0.65271389
0.036035087 -0.031121194 0.65231699
0.035977259 -0.032706589 0.65199971
0.035934158 -0.034300774 0.6517632
0.035903566 -0.035903573 0.65159541
0.035886128 -0.037517279 0.65149969
0.035882965 -0.039145052 0.65148234
0.035894901 -0.040789664 0.65154779
0.035924654 -0.042456448 0.65171111
0.035974436 -0.044150472 0.65198427
0.036045115 -0.045875579 0.652372
0.036141802 -0.047641456 0.65290254
0.036270894 -0.049460292 0.65361083
0.036443088 -0.051351607 0.65455562
0.036672428 -0.053341717 0.65581399
0.036996461 -0.055494696 0.65759194
0.037527196 -0.057996541 0.66050392
0.042069849 -0.0036582351 0.67539269
0.041315734 -0.0053890049 0.67143488
0.040764004 -0.0070893764 0.66853929
0.040316589 -0.0087644756 0.6661911
0.039935071 -0.010417849 0.6641888
0.039603315 -0.012053192 0.66244763
0.039310437 -0.013673186 0.66091055
0.039048869 -0.015280008 0.65953779
0.038813394 -0.016875416 0.65830189
0.038602479 -0.018462062 0.65719497
0.038413201 -0.020041674 0.65620148
0.038240626 -0.021614283 0.65529585
