# .PCD v0.7 - Point Cloud Data file format
VERSION 0.7
FIELDS x y z
SIZE 4 4 4
TYPE F F F
COUNT 1 1 1
WIDTH 1332
HEIGHT 1
VIEWPOINT 0 0 0 1 0 0 0
POINTS 1332
DATA ascii
-0.024471806 0.0061179399 0.70076525
-0.024471806 0.0040786266 0.70076531
-0.024471806 0.0020393431 0.70076525
-0.024471806 2.9802322e-08 0.70076525
-0.024471806 -0.0020393133 0.70076525
-0.024471806 -0.0040786266 0.70076525
-0.024471806 -0.0061179698 0.70076531
-0.024471806 -0.0081572533 0.70076525
-0.024471806 -0.010196596 0.70076531
-0.024471806 -0.01223591 0.70076525
-0.024471806 -0.014275193 0.70076525
-0.024471806 -0.016314536 0.70076531
-0.024471806 -0.01835385 0.70076525
-0.024471806 -0.020393133 0.70076525
-0.024471806 -0.022432476 0.70076525
-0.024471806 -0.02447179 0.70076525
-0.024471806 -0.026511103 0.70076537
-0.024471806 -0.028550446 0.70076525
-0.024471806 -0.030589759 0.70076537
-0.024471806 -0.032629073 0.70076525
-0.024471806 -0.034668386 0.70076525
-0.024471806 -0.036707699 0.70076537
-0.024471806 -0.038747013 0.70076525
-0.024570245 -0.040950418 0.70175552
-0.024570147 -0.042997777 0.70175451
-0.024570044 -0.045045078 0.70175344
-0.024569945 -0.047092348 0.70175248
-0.024569843 -0.049139678 0.70175147
-0.024569744 -0.051186949 0.70175046
-0.024569744 -0.053234428 0.7017504
-0.024569843 -0.055282146 0.70175141
-0.024569945 -0.057329834 0.70175248
-0.024570044 -0.059377611 0.70175344
-0.024570147 -0.061425358 0.70175451
-0.024570245 -0.063473135 0.70175552
-0.024570348 -0.065520912 0.70175654
-0.024570446 -0.067568719 0.70175749
-0.024570446 -0.069616258 0.70175755
-0.024570549 -0.071664095 0.7017585
-0.024570648 -0.073711962 0.70175958
-0.02457075 -0.075759798 0.70176059
-0.024570849 -0.077807635 0.70176154
-0.024570951 -0.079855591 0.70176256
-0.02457105 -0.081903517 0.70176363
-0.024571152 -0.083951414 0.70176464
-0.024571152 -0.085999042 0.70176464
-0.024571251 -0.088046968 0.70176566
-0.022044089 0.08817634 0.69650304
-0.022044089 0.086172342 0.69650304
-0.022044089 0.084168375 0.6965031
-0.022044089 0.082164317 0.6965031
-0.022044089 0.08016032 0.6965031
-0.022044089 0.078156322 0.6965031
-0.022044089 0.076152265 0.6965031
-0.022044089 0.074148297 0.6965031
-0.022044089 0.0721443 0.6965031
-0.022044089 0.070140302 0.6965031
-0.022044089 0.068136275 0.6965031
-0.022044089 0.066132277 0.6965031
-0.022044089 0.06412825 0.69650316
-0.022044089 0.062124223 0.6965031
-0.022044089 0.060120225 0.6965031
-0.022044089 0.058116227 0.6965031
-0.022044089 0.0561122 0.6965031
-0.022044089 0.054108202 0.6965031
-0.022044089 0.052104205 0.69650316
-0.022044089 0.050100207 0.69650304
-0.022044089 0.04809615 0.6965031
-0.022044089 0.046092212 0.6965031
-0.022044089 0.044088185 0.69650304
-0.022044089 0.042084157 0.69650304
-0.022044089 0.04008019 0.6965031
-0.022044089 0.038076162 0.6965031
-0.022044089 0.036072135 0.69650304
-0.022044089 0.034068137 0.6965031
-0.022044089 0.03206414 0.6965031
-0.022044089 0.030060112 0.6965031
-0.022044089 0.028056115 0.6965031
-0.022044089 0.026052117 0.6965031
-0.022044089 0.02404809 0.6965031
-0.022044089 0.022044092 0.6965031
-0.022044089 0.020040065 0.6965031
-0.022044089 0.018036038 0.6965031
-0.022044089 0.01603204 0.6965031
-0.022044089 0.014028043 0.6965031
-0.022043999 0.012024015 0.69650209
-0.022043999 0.010020018 0.69650209
-0.022043999 0.0080159903 0.69650209
-0.022043999 0.0060119927 0.69650209
-0.022043999 0.0040079951 0.69650209
-0.022043999 0.0020039976 0.69650209
-0.022043999 -0 0.69650209
-0.022043999 -0.0020039678 0.69650209
-0.022043999 -0.0040079951 0.69650209
-0.022043999 -0.0060119629 0.69650209
-0.022043999 -0.0080159903 0.69650209
-0.022043999 -0.010019988 0.69650209
-0.022043999 -0.012023985 0.69650209
-0.022043999 -0.014028013 0.69650209
-0.022043999 -0.01603201 0.69650209
-0.022043999 -0.018036008 0.69650215
-0.022043999 -0.020039976 0.69650209
-0.022043999 -0.022044003 0.69650209
-0.022043999 -0.024047971 0.69650209
-0.022043999 -0.026051998 0.69650209
-0.022043999 -0.028056026 0.69650209
-0.022043999 -0.030059993 0.69650209
-0.022043999 -0.032063991 0.69650209
-0.022043999 -0.034067959 0.69650209
-0.022043999 -0.036071956 0.69650209
-0.022043999 -0.038076013 0.69650209
-0.022043999 -0.040079981 0.69650209
-0.022099141 -0.04218927 0.69710726
-0.022099052 -0.044198066 0.6971063
-0.022098964 -0.046206892 0.69710529
-0.022098875 -0.048215747 0.69710428
-0.022098787 -0.050224513 0.69710332
-0.022098787 -0.052233517 0.69710338
-0.022098698 -0.054242253 0.69710237
-0.022098608 -0.056250989 0.69710141
-0.022098519 -0.058259755 0.6971004
-0.022098431 -0.060268432 0.69709945
-0.022098519 -0.062277675 0.6971004
-0.022098519 -0.06428656 0.6971004
-0.022098608 -0.066295803 0.69710135
-0.022098698 -0.068305075 0.69710237
-0.022098787 -0.070314318 0.69710332
-0.022098875 -0.072323561 0.69710433
-0.022098875 -0.074332535 0.69710428
-0.022098964 -0.076341867 0.69710523
-0.022099052 -0.0783512 0.69710624
-0.022099141 -0.080360532 0.6971072
-0.02209923 -0.082369834 0.69710821
-0.02209923 -0.084378868 0.69710821
-0.02209932 -0.08638823 0.6971091
-0.022099407 -0.088397622 0.69711018
-0.019812889 0.089158028 0.69376063
-0.019812889 0.08717674 0.69376063
-0.019812889 0.085195452 0.69376063
-0.019812889 0.083214164 0.69376069
-0.019812889 0.081232876 0.69376069
-0.019812889 0.079251587 0.69376069
-0.019812889 0.077270329 0.69376063
-0.019812889 0.075288981 0.69376069
-0.019812889 0.073307723 0.69376075
-0.019812889 0.071326435 0.69376063
-0.019812889 0.069345087 0.69376069
-0.019812889 0.067363858 0.69376063
-0.019812889 0.06538254 0.69376063
-0.019812889 0.063401222 0.69376069
-0.019812889 0.061419964 0.69376063
-0.019812889 0.059438705 0.69376063
-0.019812889 0.057457387 0.69376063
-0.019812889 0.055476099 0.69376069
-0.019812889 0.053494841 0.69376069
-0.019812889 0.051513523 0.69376069
-0.019812889 0.049532264 0.69376063
-0.019812889 0.047550976 0.69376069
-0.019812889 0.045569628 0.69376069
-0.019812889 0.04358837 0.69376063
-0.019812889 0.041607112 0.69376063
-0.019812889 0.039625794 0.69376063
-0.019812889 0.037644476 0.69376063
-0.019812889 0.035663188 0.69376069
-0.019812889 0.033681899 0.69376063
-0.019812889 0.031700611 0.69376069
-0.019812889 0.029719353 0.69376069
-0.019812889 0.027738035 0.69376069
-0.019812889 0.025756776 0.69376063
-0.019812889 0.023775488 0.69376069
-0.019812889 0.02179423 0.69376063
-0.019812889 0.019812912 0.69376069
-0.019812889 0.017831594 0.69376069
-0.019812889 0.015850335 0.69376063
-0.019812889 0.013869017 0.69376069
-0.019812889 0.011887729 0.69376063
-0.019812889 0.009906441 0.69376063
-0.019812889 0.007925123 0.69376069
-0.019812889 0.0059438646 0.69376063
-0.019812889 0.0039626062 0.69376063
-0.019812889 0.0019812882 0.69376069
-0.019812889 -0 0.69376069
-0.019812889 -0.0019812584 0.69376063
-0.019812889 -0.0039626062 0.69376069
-0.019812889 -0.0059438646 0.69376063
-0.019812889 -0.0079251528 0.69376063
-0.019812889 -0.0099064708 0.69376069
-0.019812889 -0.011887729 0.69376063
-0.019812889 -0.013868988 0.69376063
-0.019812889 -0.015850306 0.69376063
-0.019812889 -0.017831594 0.69376063
-0.019812813 -0.019812793 0.69375968
-0.019812813 -0.021794081 0.69375974
-0.019812813 -0.023775339 0.69375968
-0.019812813 -0.025756657 0.69375968
-0.019812813 -0.027737916 0.69375974
-0.019812813 -0.029719204 0.69375974
-0.019812813 -0.031700492 0.69375974
-0.019812813 -0.03368178 0.69375974
-0.019812813 -0.035663038 0.69375974
-0.019812813 -0.037644356 0.69375974
-0.019812813 -0.039625615 0.69375968
-0.019853299 -0.041691929 0.69424844
-0.019853219 -0.043677062 0.69424748
-0.019853219 -0.045662403 0.69424748
-0.019853141 -0.047647566 0.69424659
-0.019853061 -0.049632639 0.69424558
-0.019852983 -0.051617742 0.69424462
-0.019852905 -0.053602815 0.69424367
-0.019852826 -0.055587918 0.69424272
-0.019852826 -0.057573169 0.69424272
-0.019852746 -0.059558243 0.69424182
-0.019852668 -0.061543286 0.69424081
-0.01985259 -0.06352827 0.69423985
-0.01985251 -0.065513283 0.6942389
-0.019852431 -0.067498267 0.69423801
-0.019852353 -0.069483221 0.69423711
-0.019852353 -0.071468472 0.69423705
-0.019852275 -0.073453426 0.6942361
-0.019852353 -0.075438946 0.69423699
-0.019852431 -0.077424496 0.69423795
-0.019852431 -0.079409748 0.69423801
-0.01985251 -0.081395298 0.6942389
-0.01985259 -0.083380908 0.69423985
-0.019852668 -0.085366458 0.69424081
-0.019852668 -0.087351739 0.69424081
-0.019961013 -0.089824557 0.69554865
-0.017328573 0.08856827 0.68701392
-0.017328573 0.086642891 0.68701386
-0.017328573 0.084717453 0.68701386
-0.017328573 0.082792073 0.68701392
-0.017328573 0.080866665 0.68701386
-0.017328573 0.078941286 0.68701392
-0.017328573 0.077015847 0.68701386
-0.017328573 0.075090468 0.68701386
-0.017328573 0.073165089 0.68701392
-0.017328573 0.07123974 0.68701386
-0.017328573 0.069314301 0.68701392
-0.017328573 0.067388922 0.68701386
-0.017328573 0.065463513 0.68701386
-0.017328573 0.063538104 0.68701392
-0.017328573 0.061612695 0.68701386
-0.017328573 0.059687316 0.68701392
-0.017328573 0.057761937 0.68701392
-0.017328573 0.055836529 0.68701392
-0.017328573 0.05391112 0.68701386
-0.017328573 0.051985711 0.68701386
-0.017328573 0.050060332 0.68701392
-0.017328573 0.048134953 0.68701386
-0.017328573 0.046209514 0.68701386
-0.017328573 0.044284135 0.68701386
-0.017328573 0.042358726 0.68701386
-0.017328573 0.040433377 0.68701386
-0.017328573 0.038507938 0.68701392
-0.017328573 0.03658253 0.68701392
-0.017328573 0.034657151 0.68701386
-0.017328573 0.032731742 0.68701392
-0.017328573 0.030806333 0.68701392
-0.017328573 0.028880954 0.68701386
-0.017328573 0.026955575 0.68701386
-0.017328573 0.025030196 0.68701386
-0.017328573 0.023104757 0.68701386
-0.017328573 0.021179408 0.68701386
-0.017328573 0.019253999 0.68701392
-0.017328573 0.01732859 0.68701392
-0.017328573 0.015403181 0.68701386
-0.017328573 0.013477772 0.68701392
-0.017328573 0.011552423 0.68701386
-0.017328573 0.0096269846 0.68701392
-0.017328573 0.0077016056 0.68701386
-0.017328573 0.0057761967 0.68701386
-0.017328573 0.0038507879 0.68701392
-0.017328573 0.0019254386 0.68701386
-0.017328573 -0 0.68701392
-0.017328573 -0.0019254088 0.68701392
-0.017328573 -0.0038507879 0.68701386
-0.017328573 -0.0057761967 0.68701392
-0.017328573 -0.0077015758 0.68701392
-0.017328573 -0.0096270144 0.68701386
-0.017328573 -0.011552364 0.68701386
-0.017328573 -0.013477772 0.68701392
-0.017328573 -0.015403211 0.68701386
-0.017328573 -0.01732856 0.68701386
-0.017328573 -0.019253999 0.68701392
-0.017328573 -0.021179348 0.68701392
-0.017328573 -0.023104787 0.68701386
-0.017328573 -0.025030136 0.68701386
-0.017328573 -0.026955515 0.68701386
-0.017328573 -0.028880954 0.68701392
-0.017328573 -0.030806333 0.68701392
-0.017328573 -0.032731742 0.68701386
-0.017328573 -0.034657121 0.68701386
-0.017328573 -0.03658253 0.68701392
-0.017328573 -0.038507909 0.68701386
-0.017328573 -0.040433317 0.68701386
-0.017711952 -0.04329586 0.6921559
-0.017711952 -0.045263857 0.6921559
-0.017711882 -0.047231704 0.692155
-0.017711882 -0.049199671 0.69215494
-0.017711882 -0.051167637 0.69215494
-0.017711882 -0.053135633 0.69215488
-0.017711813 -0.055103391 0.69215399
-0.017711813 -0.057071388 0.69215399
-0.017711813 -0.059039384 0.69215405
-0.017711813 -0.061007351 0.69215405
-0.017711813 -0.062975317 0.69215405
-0.017711813 -0.064943314 0.69215399
-0.017711813 -0.06691125 0.69215405
-0.017711813 -0.068879247 0.69215399
-0.017711882 -0.070847481 0.692155
-0.017711882 -0.072815537 0.692155
-0.017711882 -0.074783504 0.692155
-0.017711882 -0.076751471 0.69215494
-0.017711882 -0.078719497 0.692155
-0.017711882 -0.080687493 0.69215494
-0.017711882 -0.082655445 0.692155
-0.017711882 -0.084623426 0.69215488
-0.017711952 -0.086591765 0.69215584
-0.017718432 -0.088592172 0.69224286
-0.01532633 0.088126421 0.68585438
-0.01532633 0.086210608 0.68585438
-0.01532633 0.084294826 0.68585438
-0.01532633 0.082379013 0.68585443
-0.01532633 0.08046326 0.68585438
-0.01532633 0.078547448 0.68585438
-0.01532633 0.076631665 0.68585438
-0.01532633 0.074715853 0.68585432
-0.01532633 0.07280007 0.68585438
-0.01532633 0.070884287 0.68585443
-0.01532633 0.068968475 0.68585438
-0.01532633 0.067052692 0.68585443
-0.01532633 0.065136909 0.68585443
-0.01532633 0.063221127 0.68585438
-0.01532633 0.061305344 0.68585438
-0.01532633 0.059389532 0.68585438
-0.015326272 0.057473511 0.68585348
-0.015326272 0.055557728 0.68585348
-0.015326272 0.053641945 0.68585348
-0.015326272 0.051726162 0.68585348
-0.015326272 0.04981041 0.68585348
-0.015326272 0.047894597 0.68585348
-0.015326272 0.045978814 0.68585348
-0.015326272 0.044063032 0.68585348
-0.015326272 0.042147279 0.68585348
-0.015326272 0.040231496 0.68585348
-0.015326272 0.038315654 0.68585348
-0.015326272 0.036399901 0.68585348
-0.015326272 0.034484118 0.68585348
-0.015326272 0.032568306 0.68585354
-0.015326272 0.030652523 0.68585348
-0.015326272 0.02873674 0.68585348
-0.015326272 0.026820987 0.68585348
-0.015326272 0.024905205 0.68585348
-0.015326272 0.022989422 0.68585348
-0.015326272 0.021073639 0.68585348
-0.015326272 0.019157827 0.68585348
-0.015326272 0.017242074 0.68585348
-0.015326272 0.015326262 0.68585354
-0.015326272 0.013410449 0.68585348
-0.015326272 0.011494726 0.68585348
-0.015326272 0.0095789135 0.68585348
-0.015326272 0.0076631606 0.68585348
-0.015326272 0.0057473481 0.68585354
-0.015326272 0.0038315654 0.68585348
-0.015326272 0.0019158125 0.68585348
-0.015326272 -0 0.68585348
-0.015326272 -0.0019157827 0.68585348
-0.015326272 -0.0038315654 0.68585348
-0.015326272 -0.0057473779 0.68585354
-0.015326272 -0.007663101 0.68585348
-0.015326272 -0.0095789135 0.68585348
-0.015326272 -0.011494696 0.68585348
-0.015326272 -0.013410449 0.68585348
-0.015326272 -0.015326232 0.68585348
-0.015326272 -0.017242014 0.68585348
-0.015326272 -0.019157857 0.68585348
-0.015326272 -0.02107361 0.68585348
-0.015326272 -0.022989392 0.68585348
-0.015326272 -0.024905205 0.68585354
-0.015326272 -0.026820958 0.68585348
-0.015326272 -0.02873677 0.68585348
-0.015326272 -0.030652523 0.68585354
-0.015326272 -0.032568306 0.68585348
-0.015326272 -0.034484059 0.68585348
-0.015326272 -0.036399901 0.68585348
-0.015326272 -0.038315684 0.68585348
-0.015326272 -0.040231436 0.68585348
-0.015636392 -0.043000072 0.69053286
-0.01563633 -0.044954449 0.69053197
-0.01563633 -0.046908945 0.69053191
-0.01563633 -0.04886353 0.69053191
-0.01563633 -0.050818086 0.69053197
-0.01563633 -0.052772582 0.69053191
-0.01563633 -0.054727137 0.69053191
-0.01563633 -0.056681663 0.69053191
-0.01563633 -0.058636218 0.69053197
-0.01563633 -0.060590774 0.69053197
-0.01563633 -0.062545329 0.69053197
-0.015636392 -0.064500123 0.69053286
-0.015636392 -0.066454649 0.69053286
-0.015636392 -0.068409204 0.69053286
-0.015636392 -0.07036376 0.69053286
-0.015636392 -0.072318345 0.69053286
-0.015636392 -0.074272871 0.69053286
-0.015636392 -0.076227427 0.69053286
-0.015636392 -0.078181952 0.6905328
-0.015636392 -0.080136508 0.69053286
-0.015636392 -0.082091048 0.69053292
-0.015636392 -0.084045634 0.69053286
-0.015636392 -0.086000159 0.69053292
-0.015636392 -0.087954685 0.69053292
-0.015735477 -0.090479001 0.69202793
-0.013404944 0.088089615 0.68575794
-0.013404944 0.086174667 0.68575788
-0.013404944 0.084259659 0.68575788
-0.013404944 0.082344651 0.68575794
-0.013404944 0.080429643 0.68575788
-0.013404944 0.078514636 0.68575794
-0.013404944 0.076599687 0.68575794
-0.013404944 0.074684739 0.68575794
-0.013404944 0.072769701 0.68575788
-0.013404944 0.070854723 0.68575794
-0.013404944 0.068939716 0.68575794
-0.013404944 0.067024738 0.68575794
-0.013404944 0.06510976 0.68575788
-0.013404944 0.063194722 0.68575788
-0.013404944 0.061279744 0.68575794
-0.013404944 0.059364736 0.68575788
-0.013404944 0.057449788 0.68575794
-0.013404944 0.05553478 0.68575788
-0.013404944 0.053619772 0.68575788
-0.013404944 0.051704794 0.68575788
-0.013404944 0.049789786 0.68575788
-0.013404944 0.047874779 0.68575794
-0.013404944 0.04595983 0.68575788
-0.013404944 0.044044822 0.68575788
-0.013404944 0.042129844 0.68575788
-0.013404944 0.040214807 0.68575794
-0.013404944 0.038299829 0.68575794
-0.013404944 0.036384881 0.68575788
-0.013404944 0.034469873 0.68575788
-0.013404944 0.032554895 0.68575788
-0.013404944 0.030639857 0.68575794
-0.013404944 0.028724879 0.68575794
-0.013404944 0.026809901 0.68575794
-0.013404944 0.024894893 0.68575794
-0.013404944 0.022979915 0.68575788
-0.013404944 0.021064907 0.68575788
-0.013404944 0.019149929 0.68575794
-0.013404944 0.017234951 0.68575788
-0.013404944 0.015319943 0.68575788
-0.013404944 0.013404965 0.68575788
-0.013404944 0.011489958 0.68575788
-0.013404944 0.0095749795 0.68575794
-0.013404944 0.0076599717 0.68575794
-0.013404944 0.0057449639 0.68575794
-0.013404944 0.0038300157 0.68575788
-0.013404944 0.0019150078 0.68575788
-0.013404944 -0 0.68575788
-0.013404944 -0.0019150078 0.68575794
-0.013404944 -0.0038299859 0.68575788
-0.013404944 -0.0057449341 0.68575788
-0.013404944 -0.0076599419 0.68575794
-0.013404944 -0.0095749795 0.68575788
-0.013404944 -0.011489958 0.68575788
-0.013404944 -0.013404965 0.68575794
-0.013404944 -0.015319884 0.68575788
-0.013404944 -0.017234921 0.68575794
-0.013404944 -0.019149929 0.68575788
-0.013404944 -0.021064907 0.68575788
-0.013404944 -0.022979915 0.68575794
-0.013404944 -0.024894893 0.68575788
-0.013404944 -0.026809871 0.68575788
-0.013404944 -0.028724879 0.68575794
-0.013404944 -0.030639857 0.68575788
-0.013404944 -0.032554895 0.68575794
-0.013404944 -0.034469843 0.68575788
-0.013404944 -0.036384821 0.68575788
-0.013404944 -0.038299829 0.68575794
-0.013404944 -0.040214837 0.68575788
-0.013608167 -0.042768508 0.68926239
-0.013608167 -0.044712543 0.68926239
-0.013608167 -0.046656579 0.68926239
-0.013608114 -0.048600405 0.68926144
-0.013608114 -0.050544411 0.68926144
-0.013608114 -0.052488446 0.68926144
-0.013608062 -0.054432243 0.68926054
-0.013608062 -0.056376278 0.6892606
-0.013608062 -0.058320254 0.68926048
-0.013608009 -0.060264021 0.68925959
-0.013608009 -0.062207997 0.68925965
-0.013608009 -0.064152032 0.68925965
-0.013607956 -0.066095769 0.68925869
-0.013607956 -0.068039805 0.68925875
-0.013607956 -0.06998378 0.68925869
-0.013607956 -0.071927786 0.68925875
-0.013607956 -0.073871762 0.68925869
-0.013607956 -0.075815737 0.68925875
-0.013607956 -0.077759743 0.68925869
-0.013608009 -0.079704046 0.68925965
-0.013608009 -0.081648037 0.68925965
-0.013608009 -0.083592042 0.68925959
-0.013608009 -0.085536048 0.68925959
-0.013608009 -0.087480083 0.68925965
-0.013658102 -0.08975324 0.69012344
-0.011527142 0.088374764 0.68650615
-0.011527142 0.086453527 0.68650615
-0.011527186 0.084532678 0.68650705
-0.011527186 0.082611531 0.68650699
-0.011527231 0.080690622 0.68650794
-0.011527275 0.078769714 0.68650883
-0.011527275 0.076848507 0.68650877
-0.011527275 0.07492727 0.68650883
-0.011527275 0.073006094 0.68650877
-0.011527275 0.071084887 0.68650877
-0.011527275 0.06916365 0.68650883
-0.011527275 0.067242414 0.68650883
-0.011527275 0.065321237 0.68650877
-0.011527275 0.06340003 0.68650883
-0.011527275 0.061478794 0.68650883
-0.011527275 0.059557617 0.68650877
-0.011527275 0.05763641 0.68650883
-0.011527275 0.055715173 0.68650883
-0.011527275 0.053793997 0.68650877
-0.011527275 0.05187276 0.68650883
-0.011527275 0.049951524 0.68650877
-0.011527275 0.048030317 0.68650877
-0.011527275 0.04610911 0.68650877
-0.011527275 0.044187874 0.68650877
-0.011527231 0.042266518 0.68650788
-0.011527231 0.040345311 0.68650794
-0.011527231 0.038424134 0.68650788
-0.011527231 0.036502898 0.68650788
-0.011527231 0.034581751 0.68650788
-0.011527231 0.032660514 0.68650788
-0.011527231 0.030739307 0.68650794
-0.011527231 0.028818041 0.68650794
-0.011527231 0.026896864 0.68650794
-0.011527231 0.024975687 0.68650788
-0.011527231 0.023054451 0.68650788
-0.011527231 0.021133274 0.68650794
-0.011527231 0.019212037 0.68650794
-0.011527231 0.01729086 0.68650794
-0.011527231 0.015369624 0.68650794
-0.011527231 0.013448447 0.68650794
-0.011527231 0.01152724 0.68650794
-0.011527231 0.0096060038 0.68650794
-0.011527231 0.0076848269 0.68650794
-0.011527231 0.0057636201 0.68650794
-0.011527231 0.0038424432 0.68650788
-0.011527231 0.0019212365 0.68650794
-0.011527231 -0 0.68650794
-0.011527231 -0.0019211769 0.68650794
-0.011527231 -0.0038424134 0.68650794
-0.011527231 -0.0057636201 0.68650788
-0.011527231 -0.0076848269 0.68650788
-0.011527231 -0.0096060336 0.68650794
-0.011527231 -0.01152721 0.68650794
-0.011527231 -0.013448447 0.68650794
-0.011527231 -0.015369624 0.68650788
-0.011527231 -0.017290831 0.68650788
-0.011527231 -0.019212067 0.68650788
-0.011527231 -0.021133274 0.68650794
-0.011527231 -0.023054451 0.68650794
-0.011527231 -0.024975628 0.68650788
-0.011527231 -0.026896864 0.68650788
-0.011527231 -0.028818071 0.68650788
-0.011527231 -0.030739248 0.68650794
-0.011527231 -0.032660455 0.68650794
-0.011527231 -0.034581691 0.68650794
-0.011527231 -0.036502898 0.68650788
-0.011527231 -0.038424134 0.68650788
-0.011527231 -0.040345341 0.68650794
-0.011613382 -0.042582393 0.68824112
-0.011613382 -0.044517964 0.68824112
-0.011613382 -0.046453536 0.68824118
-0.011613336 -0.048388898 0.68824017
-0.011613336 -0.05032447 0.68824023
-0.011613293 -0.052259803 0.68823934
-0.011613293 -0.054195344 0.68823928
-0.011613293 -0.056130886 0.68823934
-0.011613247 -0.058066219 0.68823838
-0.011613247 -0.060001761 0.68823838
-0.011613202 -0.061937094 0.68823755
-0.011613202 -0.063872606 0.68823755
-0.011613202 -0.065808147 0.68823755
-0.011613157 -0.067743421 0.68823659
-0.011613157 -0.069678932 0.68823659
-0.011613113 -0.071614206 0.6882357
-0.011613113 -0.073549658 0.6882357
-0.011613113 -0.0754852 0.68823564
-0.011613067 -0.077420443 0.68823481
-0.011613067 -0.079355925 0.68823475
-0.011613023 -0.081291154 0.68823391
-0.011613023 -0.083226651 0.68823385
-0.011613067 -0.085162491 0.68823481
-0.011613067 -0.087098032 0.68823481
-0.011635979 -0.089209154 0.68869573
-0.0096262442 0.088561445 0.68699604
-0.0096262805 0.086636513 0.68699694
-0.0096262805 0.084711283 0.68699694
-0.0096263187 0.082786381 0.68699777
-0.009626355 0.08086139 0.68699872
-0.009626355 0.07893613 0.68699867
-0.0096263923 0.077011168 0.68699962
-0.0096263923 0.075085878 0.68699956
-0.0096264295 0.073160857 0.68700045
-0.0096264668 0.071235865 0.68700135
-0.0096264668 0.069310546 0.68700135
-0.0096265031 0.067385554 0.68700224
-0.0096265031 0.065460235 0.6870023
-0.0096265404 0.063535154 0.68700314
-0.0096265404 0.061609864 0.68700314
-0.0096265776 0.059684813 0.68700403
-0.0096266149 0.057759702 0.68700492
-0.0096266149 0.055834353 0.68700492
-0.0096266521 0.053909272 0.68700582
-0.0096266521 0.051983923 0.68700588
-0.0096266884 0.050058812 0.68700671
-0.0096267257 0.048133671 0.68700761
-0.0096267257 0.046208292 0.68700761
-0.009626762 0.044283152 0.68700856
-0.009626762 0.042357773 0.6870085
-0.0096268002 0.040432543 0.68700945
-0.0096268002 0.038507193 0.68700945
-0.0096268365 0.036581993 0.68701035
-0.0096268365 0.034656614 0.68701029
-0.0096268365 0.032731265 0.68701029
-0.0096268738 0.030806005 0.68701124
-0.0096268738 0.028880626 0.68701124
-0.0096269101 0.026955366 0.68701214
-0.0096269101 0.025029957 0.68701214
-0.0096269101 0.023104608 0.68701208
-0.0096269483 0.021179318 0.68701297
-0.0096269483 0.01925391 0.68701303
-0.0096269483 0.017328471 0.68701303
-0.0096269846 0.015403181 0.68701386
-0.0096269846 0.013477772 0.68701392
-0.0096269846 0.011552423 0.68701386
-0.0096270218 0.0096270442 0.68701482
-0.0096270218 0.0077016056 0.68701476
-0.0096270591 0.0057762563 0.68701565
-0.0096270591 0.0038508177 0.68701565
-0.0096270591 0.0019254088 0.68701571
-0.0096270964 -0 0.68701661
-0.0096270964 -0.0019254386 0.68701661
-0.0096270964 -0.0038508177 0.68701655
-0.0096271336 -0.0057762563 0.68701744
-0.0096271336 -0.007701695 0.68701744
-0.0096271699 -0.0096271634 0.68701839
-0.0096271699 -0.011552602 0.68701833
-0.0096271699 -0.013478041 0.68701839
-0.0096272072 -0.015403539 0.68701923
-0.0096272072 -0.017328978 0.68701923
-0.0096272072 -0.019254416 0.68701923
-0.0096272444 -0.021179914 0.68702018
-0.0096272444 -0.023105353 0.68702018
-0.0096272817 -0.025030941 0.68702108
-0.0096272817 -0.02695635 0.68702102
-0.0096272817 -0.028881848 0.68702108
-0.009627318 -0.030807406 0.68702191
-0.009627318 -0.032732904 0.68702197
-0.009627318 -0.034658343 0.68702197
-0.0096273553 -0.03658393 0.68702286
-0.0096273553 -0.038509399 0.68702281
-0.0096273553 -0.040434897 0.68702286
-0.0096448362 -0.042437285 0.68744493
-0.0096448744 -0.044366419 0.68744576
-0.0096448744 -0.046295375 0.68744576
-0.0096449107 -0.048224568 0.68744659
-0.0096449107 -0.050153553 0.68744671
-0.0096449107 -0.052082539 0.68744665
-0.0096449479 -0.054011703 0.68744761
-0.0096449479 -0.055940688 0.68744761
-0.0096449852 -0.057869911 0.6874485
-0.0096449852 -0.059798896 0.6874485
-0.0096450225 -0.06172815 0.6874494
-0.0096450225 -0.063657165 0.68744934
-0.0096450597 -0.065586418 0.68745023
-0.0096450597 -0.067515433 0.68745029
-0.009645097 -0.069444686 0.68745112
-0.009645097 -0.071373731 0.68745112
-0.0096451342 -0.073303014 0.68745208
-0.0096451342 -0.075232059 0.68745208
-0.0096451715 -0.077161372 0.68745297
-0.0096451715 -0.079090416 0.68745291
-0.0096451715 -0.081019446 0.68745297
-0.0096452087 -0.082948789 0.68745387
-0.0096452087 -0.084877819 0.68745387
-0.009645245 -0.086807206 0.6874547
-0.0096527627 -0.088805422 0.6876362
-0.0076860902 0.088390052 0.68654621
-0.0076860902 0.086468518 0.68654621
-0.0076860902 0.084546983 0.68654621
-0.0076860902 0.082625479 0.68654621
-0.0076860902 0.080703974 0.68654621
-0.0076860902 0.078782469 0.68654621
-0.0076860902 0.076860934 0.68654621
-0.0076860902 0.07493937 0.68654621
-0.0076860902 0.073017865 0.68654621
-0.0076860902 0.071096331 0.68654621
-0.0076860902 0.069174826 0.68654621
-0.0076860902 0.067253292 0.68654621
-0.0076860902 0.065331787 0.68654621
-0.0076860902 0.063410282 0.68654621
-0.0076860902 0.061488718 0.68654621
-0.0076860902 0.059567213 0.68654621
-0.0076860902 0.057645679 0.68654621
-0.0076860902 0.055724144 0.68654621
-0.0076860902 0.053802639 0.68654615
-0.0076860902 0.051881105 0.68654621
-0.0076860902 0.04995957 0.68654621
-0.0076860902 0.048038095 0.68654621
-0.0076860902 0.046116561 0.68654621
-0.0076860902 0.044195026 0.68654627
-0.0076860902 0.042273492 0.68654621
-0.0076860902 0.040351987 0.68654627
-0.0076860902 0.038430452 0.68654621
-0.0076860902 0.036508918 0.68654621
-0.0076860902 0.034587383 0.68654621
-0.0076860902 0.032665908 0.68654621
-0.0076860902 0.030744404 0.68654621
-0.0076860902 0.028822869 0.68654621
-0.0076860902 0.026901305 0.68654621
-0.0076860902 0.0249798 0.68654621
-0.0076860902 0.023058265 0.68654621
-0.0076860902 0.021136731 0.68654621
-0.0076860902 0.019215226 0.68654621
-0.0076860902 0.017293721 0.68654621
-0.0076860902 0.015372187 0.68654621
-0.0076860902 0.013450682 0.68654621
-0.0076860902 0.011529148 0.68654621
-0.0076860902 0.0096076429 0.68654621
-0.0076860902 0.0076860785 0.68654621
-0.0076860902 0.0057645738 0.68654621
-0.0076860902 0.0038430393 0.68654621
-0.0076860902 0.0019215047 0.68654621
-0.0076860902 2.9802322e-08 0.68654621
-0.0076860902 -0.0019215047 0.68654621
-0.0076860902 -0.0038430393 0.68654621
-0.0076860902 -0.005764544 0.68654621
-0.0076860902 -0.0076860785 0.68654621
-0.0076860902 -0.0096076131 0.68654621
-0.0076860902 -0.011529148 0.68654627
-0.0076860902 -0.013450652 0.68654621
-0.0076860902 -0.015372187 0.68654621
-0.0076860902 -0.017293692 0.68654621
-0.0076860902 -0.019215226 0.68654621
-0.0076860902 -0.021136731 0.68654621
-0.0076860902 -0.023058265 0.68654621
-0.0076860902 -0.0249798 0.68654621
-0.0076860902 -0.026901305 0.68654621
-0.0076860902 -0.028822839 0.68654621
-0.0076860902 -0.030744374 0.68654621
-0.0076860902 -0.032665879 0.68654621
-0.0076860902 -0.034587413 0.68654621
-0.0076860902 -0.036508918 0.68654621
-0.0076860902 -0.038430452 0.68654615
-0.0076860902 -0.040351957 0.68654621
-0.0076964349 -0.042330384 0.68685842
-0.0076964349 -0.044254512 0.68685842
-0.0076964349 -0.046178639 0.68685836
-0.0076964051 -0.048102528 0.68685752
-0.0076964051 -0.050026655 0.68685746
-0.0076963757 -0.051950544 0.68685663
-0.0076963757 -0.053874642 0.68685657
-0.0076963464 -0.055798501 0.68685573
-0.0076963464 -0.057722598 0.68685567
-0.0076963161 -0.059646428 0.68685484
-0.0076963161 -0.061570525 0.68685478
-0.0076963161 -0.063494593 0.68685484
-0.0076963161 -0.065418661 0.68685484
-0.0076963161 -0.067342788 0.68685478
-0.0076963161 -0.069266856 0.68685484
-0.0076963161 -0.071190923 0.68685484
-0.0076963161 -0.073114991 0.68685478
-0.0076962868 -0.075038821 0.68685395
-0.0076962868 -0.076962888 0.68685395
-0.0076962868 -0.078886956 0.68685395
-0.0076962868 -0.080811039 0.68685395
-0.0076962868 -0.082735077 0.68685389
-0.0076962868 -0.084659144 0.68685389
-0.0076962868 -0.086583242 0.68685395
-0.0076962868 -0.08850731 0.68685389
-0.0057539828 0.088227749 0.68612033
-0.0057539828 0.086309731 0.68612033
-0.0057539828 0.084391773 0.68612033
-0.0057539828 0.082473755 0.68612027
-0.0057539828 0.080555767 0.68612033
-0.0057539828 0.078637809 0.68612033
-0.0057539828 0.076719791 0.68612027
-0.0057539828 0.074801773 0.68612033
-0.0057539828 0.072883755 0.68612033
-0.0057539828 0.070965827 0.68612033
-0.0057539828 0.069047809 0.68612033
-0.0057539828 0.067129791 0.68612033
-0.0057539828 0.065211803 0.68612027
-0.0057539828 0.063293785 0.68612033
-0.0057539828 0.061375797 0.68612033
-0.0057539828 0.059457839 0.68612033
-0.0057539828 0.05753985 0.68612033
-0.0057539828 0.055621833 0.68612033
-0.0057539828 0.053703845 0.68612033
-0.0057539828 0.051785856 0.68612027
-0.0057539828 0.049867868 0.68612027
-0.0057539828 0.04794988 0.68612039
-0.0057539828 0.046031892 0.68612033
-0.0057539828 0.044113874 0.68612033
-0.0057539828 0.042195827 0.68612033
-0.0057539828 0.040277898 0.68612033
-0.0057539828 0.03835991 0.68612033
-0.0057539828 0.036441892 0.68612039
-0.0057539828 0.034523875 0.68612033
-0.0057539828 0.032605916 0.68612027
-0.0057539828 0.030687928 0.68612027
-0.0057539828 0.02876991 0.68612033
-0.0057539828 0.026851922 0.68612033
-0.0057539828 0.024933904 0.68612039
-0.0057539828 0.023015976 0.68612027
-0.0057539828 0.021097958 0.68612033
-0.0057539828 0.01917994 0.68612027
-0.0057539828 0.017261982 0.68612027
-0.0057539828 0.015343964 0.68612033
-0.0057539828 0.013425946 0.68612033
-0.0057539828 0.011507988 0.68612027
-0.0057539828 0.0095899701 0.68612033
-0.0057539828 0.007671982 0.68612033
-0.0057539828 0.005753994 0.68612027
-0.0057539828 0.0038359463 0.68612033
-0.0057539828 0.0019179881 0.68612033
-0.0057539828 -0 0.68612033
-0.0057539828 -0.0019179583 0.68612033
-0.0057539828 -0.0038360059 0.68612033
-0.0057539828 -0.005753994 0.68612033
-0.0057539828 -0.0076719522 0.68612027
-0.0057539828 -0.0095899403 0.68612027
-0.0057539828 -0.011507958 0.68612033
-0.0057539828 -0.013425946 0.68612033
-0.0057539828 -0.015343934 0.68612027
-0.0057539828 -0.017261952 0.68612033
-0.0057539828 -0.01917994 0.68612033
-0.0057539828 -0.021097928 0.68612027
-0.0057539828 -0.023015946 0.68612039
-0.0057539828 -0.024933934 0.68612033
-0.0057539828 -0.026851922 0.68612033
-0.0057539828 -0.02876991 0.68612039
-0.0057539828 -0.030687869 0.68612027
-0.0057539828 -0.032605886 0.68612033
-0.0057539828 -0.034523904 0.68612027
-0.0057539828 -0.036441922 0.68612033
-0.0057539828 -0.03835988 0.68612033
-0.0057539828 -0.040277839 0.68612033
-0.0057615805 -0.042251617 0.68642604
-0.0057615805 -0.044172078 0.68642598
-0.0057615582 -0.04609248 0.68642509
-0.0057615582 -0.048012972 0.68642509
-0.0057615358 -0.049933285 0.68642426
-0.005761514 -0.051853627 0.68642342
-0.005761514 -0.053774148 0.68642336
-0.0057614916 -0.055694401 0.68642247
-0.0057614916 -0.057614923 0.68642241
-0.0057614697 -0.059535205 0.68642157
-0.0057614697 -0.061455637 0.68642157
-0.0057614474 -0.06337592 0.68642068
-0.0057614474 -0.065296382 0.68642068
-0.0057614255 -0.067216605 0.68641984
-0.0057614255 -0.069137096 0.68641979
-0.0057614031 -0.07105732 0.68641889
-0.0057614031 -0.072977751 0.68641883
-0.0057613812 -0.074897945 0.686418
-0.0057613589 -0.076818109 0.6864171
-0.0057613589 -0.078738555 0.6864171
-0.0057613589 -0.080659032 0.68641716
-0.0057613589 -0.082579494 0.6864171
-0.0057613589 -0.08449994 0.6864171
-0.0057613812 -0.08642073 0.68641806
-0.0057613812 -0.088341177 0.68641806
-0.0038315237 0.08812505 0.68585086
-0.0038315237 0.086209297 0.68585086
-0.0038315237 0.084293514 0.68585086
-0.0038315237 0.082377762 0.68585086
-0.0038315237 0.080462009 0.68585086
-0.0038315237 0.078546286 0.68585086
-0.0038315237 0.076630503 0.68585086
-0.0038315237 0.07471472 0.68585086
-0.0038315237 0.072798997 0.68585086
-0.0038315237 0.070883185 0.68585086
-0.0038315237 0.068967432 0.6858508
-0.0038315237 0.067051679 0.6858508
-0.0038315237 0.065135896 0.68585086
-0.0038315237 0.063220143 0.6858508
-0.0038315237 0.06130439 0.68585086
-0.0038315237 0.059388638 0.6858508
-0.0038315237 0.057472885 0.68585086
-0.0038315237 0.055557102 0.68585086
-0.0038315237 0.053641349 0.68585086
-0.0038315237 0.051725566 0.68585086
-0.0038315237 0.049809843 0.6858508
-0.0038315237 0.047894061 0.6858508
-0.0038315237 0.045978248 0.68585086
-0.0038315237 0.044062555 0.68585086
-0.0038315237 0.042146772 0.68585086
-0.0038315237 0.040231019 0.6858508
-0.0038315237 0.038315266 0.68585086
-0.0038315237 0.036399484 0.68585086
-0.0038315237 0.034483731 0.68585086
-0.0038315237 0.032567948 0.68585086
-0.0038315237 0.030652225 0.6858508
-0.0038315237 0.028736442 0.68585086
-0.0038315237 0.02682063 0.68585086
-0.0038315237 0.024904907 0.68585086
-0.0038315237 0.022989154 0.68585086
-0.0038315237 0.021073401 0.6858508
-0.0038315237 0.019157618 0.6858508
-0.0038315237 0.017241836 0.68585086
-0.0038315237 0.015326113 0.68585086
-0.0038315237 0.01341033 0.68585086
-0.0038315237 0.011494607 0.6858508
-0.0038315237 0.0095787942 0.68585086
-0.0038315237 0.0076630414 0.68585086
-0.0038315237 0.0057472885 0.6858508
-0.0038315237 0.0038315058 0.68585086
-0.0038315237 0.0019158125 0.68585086
-0.0038315237 2.9802322e-08 0.68585086
-0.0038315237 -0.0019157529 0.68585086
-0.0038315237 -0.0038315058 0.68585086
-0.0038315237 -0.0057472885 0.68585086
-0.0038315237 -0.0076630712 0.68585086
-0.0038315237 -0.0095787942 0.68585086
-0.0038315237 -0.011494547 0.68585086
-0.0038315237 -0.01341033 0.68585086
-0.0038315237 -0.015326083 0.68585086
-0.0038315237 -0.017241865 0.68585086
-0.0038315237 -0.019157618 0.68585086
-0.0038315237 -0.021073371 0.68585086
-0.0038315237 -0.022989154 0.68585086
-0.0038315237 -0.024904877 0.68585086
-0.0038315237 -0.026820689 0.68585086
-0.0038315237 -0.028736413 0.68585086
-0.0038315237 -0.030652165 0.68585086
-0.0038315237 -0.032567978 0.68585086
-0.0038315237 -0.034483701 0.68585086
-0.0038315237 -0.036399484 0.68585086
-0.0038315237 -0.038315237 0.6858508
-0.0038315237 -0.040230989 0.68585086
-0.0038365179 -0.042201668 0.68615228
-0.0038365179 -0.044119984 0.68615228
-0.0038365035 -0.046038032 0.68615139
-0.0038364888 -0.047956079 0.68615055
-0.0038364739 -0.049874187 0.68614966
-0.0038364592 -0.051792204 0.6861487
-0.0038364592 -0.053710431 0.68614876
-0.0038364446 -0.055628419 0.68614781
-0.0038364297 -0.057546407 0.68614697
-0.003836415 -0.059464425 0.68614608
-0.0038364006 -0.061382383 0.68614519
-0.0038363859 -0.063300341 0.68614423
-0.0038363859 -0.065218568 0.68614429
-0.003836371 -0.067136526 0.6861434
-0.0038363563 -0.069054425 0.68614256
-0.0038363417 -0.070972323 0.68614161
-0.0038363268 -0.072890192 0.68614072
-0.0038363268 -0.074808359 0.68614078
-0.0038363121 -0.076726228 0.68613982
-0.0038362974 -0.078644112 0.68613899
-0.003836283 -0.080561951 0.68613803
-0.0038362681 -0.08247976 0.6861372
-0.0038362681 -0.084397882 0.6861372
-0.0038362534 -0.086315691 0.68613636
-0.0038362534 -0.088233814 0.68613631
-0.0019147649 0.088079214 0.68573046
-0.0019147649 0.086164415 0.68573046
-0.0019147649 0.084249705 0.68573046
-0.0019147649 0.082334876 0.68573052
-0.0019147649 0.080420136 0.68573046
-0.0019147649 0.078505337 0.68573052
-0.0019147649 0.076590627 0.68573046
-0.0019147649 0.074675828 0.68573046
-0.0019147649 0.072761059 0.68573046
-0.0019147649 0.070846319 0.68573052
-0.0019147649 0.06893149 0.68573052
-0.0019147649 0.06701678 0.68573046
-0.0019147649 0.065102011 0.68573046
-0.0019147649 0.063187242 0.68573046
-0.0019147649 0.061272472 0.68573046
-0.0019147649 0.059357703 0.68573052
-0.0019147649 0.057442963 0.68573046
-0.0019147649 0.055528194 0.68573046
-0.0019147649 0.053613424 0.68573052
-0.0019147649 0.051698625 0.68573046
-0.0019147649 0.049783885 0.68573052
-0.0019147649 0.047869146 0.68573046
-0.0019147649 0.045954376 0.68573046
-0.0019147649 0.044039607 0.68573052
-0.0019147649 0.042124838 0.68573052
-0.0019147649 0.040210038 0.68573052
-0.0019147649 0.038295299 0.68573046
-0.0019147649 0.036380559 0.68573046
-0.0019147649 0.03446576 0.68573046
-0.0019147649 0.032550991 0.68573052
-0.0019147649 0.030636251 0.68573052
-0.0019147649 0.028721482 0.68573046
-0.0019147649 0.026806682 0.68573052
-0.0019147649 0.024891943 0.68573046
-0.0019147649 0.022977173 0.68573046
-0.0019147649 0.021062404 0.68573052
-0.0019147649 0.019147664 0.68573046
-0.0019147649 0.017232895 0.68573046
-0.0019147649 0.015318125 0.68573046
-0.0019147649 0.013403386 0.68573052
-0.0019147649 0.011488557 0.68573046
-0.0019147649 0.0095738471 0.68573046
-0.0019147649 0.0076590776 0.68573046
-0.0019147649 0.0057443082 0.68573046
-0.0019147649 0.0038295388 0.68573052
-0.0019147649 0.0019147694 0.68573052
-0.0019147649 2.9802322e-08 0.68573046
-0.0019147649 -0.0019147992 0.68573052
-0.0019147649 -0.003829509 0.68573046
-0.0019147649 -0.0057443082 0.68573046
-0.0019147649 -0.0076590776 0.68573052
-0.0019147649 -0.0095737875 0.68573046
-0.0019147649 -0.011488616 0.68573052
-0.0019147649 -0.013403326 0.68573046
-0.0019147649 -0.015318096 0.68573046
-0.0019147649 -0.017232895 0.68573052
-0.0019147649 -0.019147635 0.68573046
-0.0019147649 -0.021062404 0.68573046
-0.0019147649 -0.022977173 0.68573046
-0.0019147649 -0.024891943 0.68573046
-0.0019147649 -0.026806682 0.68573052
-0.0019147649 -0.028721482 0.68573052
-0.0019147649 -0.030636251 0.68573046
-0.0019147649 -0.032550991 0.68573046
-0.0019147649 -0.03446576 0.68573046
-0.0019147649 -0.036380529 0.68573046
-0.0019147649 -0.038295299 0.68573052
-0.0019147649 -0.040210068 0.68573052
-0.0019172448 -0.042179406 0.68602979
-0.0019172374 -0.04409644 0.68602896
-0.0019172374 -0.046013683 0.68602896
-0.00191723 -0.047930747 0.68602806
-0.0019172226 -0.049847811 0.68602717
-0.0019172153 -0.051764786 0.68602622
-0.0019172081 -0.05368185 0.68602544
-0.0019172006 -0.055598825 0.68602455
-0.0019171933 -0.0575158 0.68602359
-0.001917186 -0.059432745 0.68602276
-0.0019171785 -0.06134972 0.6860218
-0.0019171713 -0.063266635 0.68602097
-0.001917164 -0.06518355 0.68602008
-0.0019171566 -0.067100495 0.68601918
-0.0019171566 -0.069017589 0.68601918
-0.0019171492 -0.070934534 0.68601829
-0.0019171418 -0.07285139 0.68601745
-0.0019171345 -0.074768275 0.68601656
-0.0019171273 -0.076685101 0.68601561
-0.0019171198 -0.078601927 0.68601471
-0.0019171273 -0.080519333 0.68601561
-0.0019171273 -0.082436472 0.68601567
-0.0019171345 -0.084353909 0.68601656
-0.0019171418 -0.086271375 0.68601739
-0.0019171418 -0.088188514 0.68601739
0 0.088088244 0.68575436
0 0.086173356 0.68575436
0 0.084258378 0.68575436
0 0.0823434 0.68575442
0 0.080428451 0.68575436
0 0.078513473 0.68575442
0 0.076598525 0.68575436
0 0.074683547 0.68575442
0 0.072768599 0.68575436
0 0.070853621 0.68575436
0 0.068938643 0.68575442
0 0.067023695 0.68575436
0 0.065108776 0.68575436
0 0.063193768 0.68575436
0 0.06127882 0.68575442
0 0.059363842 0.68575436
0 0.057448924 0.68575442
0 0.055533946 0.68575436
0 0.053618968 0.68575442
0 0.05170399 0.68575436
0 0.049789071 0.68575436
0 0.047874063 0.68575442
0 0.045959115 0.68575436
0 0.044044167 0.6857543
0 0.042129219 0.68575436
0 0.040214211 0.68575436
0 0.038299292 0.68575436
0 0.036384284 0.68575436
0 0.034469336 0.68575442
0 0.032554358 0.68575436
0 0.03063944 0.68575436
0 0.028724432 0.68575436
0 0.026809484 0.68575442
0 0.024894506 0.68575436
0 0.022979558 0.68575442
0 0.021064609 0.68575436
0 0.019149631 0.68575436
0 0.017234653 0.6857543
0 0.015319735 0.68575436
0 0.013404727 0.68575442
0 0.011489779 0.68575442
0 0.0095748305 0.68575436
0 0.0076598823 0.68575436
0 0.0057448745 0.68575436
0 0.0038299561 0.68575436
0 0.0019149482 0.68575436
0 2.9802322e-08 0.68575436
0 -0.0019149482 0.68575436
0 -0.0038298965 0.68575436
0 -0.0057448745 0.68575436
0 -0.0076598525 0.68575442
0 -0.0095748007 0.68575436
0 -0.011489779 0.68575436
0 -0.013404757 0.68575442
0 -0.015319705 0.68575436
0 -0.017234653 0.68575436
0 -0.019149601 0.68575442
0 -0.021064579 0.68575442
0 -0.022979558 0.68575442
0 -0.024894506 0.6857543
0 -0.026809454 0.68575442
0 -0.028724432 0.68575442
0 -0.03063941 0.6857543
0 -0.032554388 0.68575442
0 -0.034469336 0.68575442
0 -0.036384284 0.68575442
0 -0.038299233 0.68575436
0 -0.040214211 0.68575436
0 -0.042183876 0.68605471
0 -0.044101179 0.68605375
0 -0.04601863 0.68605381
0 -0.047935873 0.68605292
0 -0.049853116 0.68605202
0 -0.051770359 0.68605113
0 -0.053687572 0.68605018
0 -0.055604964 0.68605024
0 -0.057522207 0.68604934
0 -0.059439361 0.68604845
0 -0.061356544 0.68604755
0 -0.063273668 0.68604666
0 -0.065190822 0.68604577
0 -0.067108184 0.68604577
0 -0.069025308 0.68604487
0 -0.070942402 0.6860441
0 -0.072860032 0.68604493
0 -0.074777454 0.68604493
0 -0.076695055 0.68604577
0 -0.078612447 0.68604577
0 -0.080529809 0.68604577
0 -0.082447514 0.68604666
0 -0.084364891 0.68604666
0 -0.086282268 0.68604672
0 -0.088199973 0.68604755
0.0019163783 0.088153392 0.68592525
0.0019163783 0.086237043 0.68592525
0.0019163783 0.084320635 0.68592519
0.0019163783 0.082404286 0.68592525
0.0019163783 0.080487907 0.68592519
0.0019163783 0.078571469 0.68592525
0.0019163783 0.076655149 0.68592525
0.0019163783 0.074738741 0.68592525
0.0019163783 0.072822392 0.68592519
0.0019163783 0.070906013 0.6859253
0.0019163783 0.068989635 0.68592525
0.0019163783 0.067073226 0.68592525
0.0019163783 0.065156847 0.68592525
0.0019163783 0.063240469 0.68592525
0.0019163783 0.06132409 0.68592525
0.0019163783 0.059407711 0.68592525
0.0019163783 0.057491362 0.68592525
0.0019163783 0.055574983 0.68592525
0.0019163783 0.053658575 0.68592525
0.0019163783 0.051742196 0.68592525
0.0019163783 0.049825847 0.68592525
0.0019163783 0.047909439 0.68592525
0.0019163783 0.04599306 0.68592525
0.0019163783 0.044076741 0.68592525
0.0019163783 0.042160332 0.68592525
0.0019163783 0.040243953 0.68592525
0.0019163783 0.038327575 0.68592525
0.0019163783 0.036411196 0.68592525
0.0019163783 0.034494817 0.68592525
0.0019163783 0.032578439 0.68592525
0.0019163783 0.03066206 0.68592525
0.0019163783 0.028745681 0.68592525
0.0019163783 0.026829302 0.6859253
0.0019163783 0.024912953 0.68592525
0.0019163783 0.022996515 0.68592525
0.0019163783 0.021080196 0.68592525
0.0019163783 0.019163787 0.68592525
0.0019163783 0.017247409 0.68592525
0.0019163783 0.015331 0.68592525
0.0019163783 0.013414651 0.68592525
0.0019163783 0.011498272 0.68592525
0.0019163783 0.0095818937 0.68592525
0.0019163783 0.0076655149 0.68592525
0.0019163783 0.0057491362 0.68592525
0.0019163783 0.0038327575 0.68592525
0.0019163783 0.0019163489 0.68592525
0.0019163783 2.9802322e-08 0.68592525
0.0019163783 -0.0019163787 0.68592525
0.0019163783 -0.0038327575 0.68592525
0.0019163783 -0.0057491064 0.68592525
0.0019163783 -0.0076655149 0.68592525
0.0019163783 -0.0095818937 0.68592525
0.0019163783 -0.011498272 0.68592525
0.0019163783 -0.013414621 0.68592519
0.0019163783 -0.015331 0.68592525
0.0019163783 -0.017247379 0.68592525
0.0019163783 -0.019163758 0.68592525
0.0019163783 -0.021080196 0.68592525
0.0019163783 -0.022996515 0.68592525
0.0019163783 -0.024912924 0.6859253
0.0019163783 -0.026829302 0.68592519
0.0019163783 -0.028745681 0.68592525
0.0019163783 -0.030662 0.68592519
0.0019163783 -0.032578439 0.68592525
0.0019163783 -0.034494817 0.68592525
0.0019163856 -0.036411345 0.68592614
0.0019163856 -0.038327664 0.68592614
0.0019163856 -0.040244102 0.68592614
0.0019188845 -0.042215466 0.68622768
0.001918877 -0.04413417 0.68622684
0.001918877 -0.046053022 0.68622684
0.0019188697 -0.047971725 0.68622595
0.0019188697 -0.049890608 0.68622595
0.0019188623 -0.051809281 0.68622512
0.0019188623 -0.053728133 0.68622512
0.0019188549 -0.055646777 0.68622422
0.0019188549 -0.057565629 0.68622422
0.0019188476 -0.059484303 0.68622333
0.0019188476 -0.061403126 0.68622333
0.0019188402 -0.06332171 0.68622243
0.0019188402 -0.065240562 0.68622243
0.0019188402 -0.067159414 0.68622243
0.0019188402 -0.069078207 0.68622243
0.0019188402 -0.070997089 0.68622237
0.0019188402 -0.072915941 0.68622243
0.0019188402 -0.074834734 0.68622237
0.0019188402 -0.076753616 0.68622243
0.0019188402 -0.078672454 0.68622243
0.0019188402 -0.080591276 0.68622243
0.0019188402 -0.082510144 0.68622243
0.0019188402 -0.084428936 0.68622243
0.0019188402 -0.086347789 0.68622243
0.0019188402 -0.088266656 0.68622243
0.0038380632 0.088275492 0.6862455
0.0038380632 0.086356431 0.6862455
0.0038380632 0.0844374 0.68624556
0.0038380632 0.082518339 0.6862455
0.0038380632 0.080599338 0.6862455
0.0038380632 0.078680277 0.68624556
0.0038380632 0.076761276 0.6862455
0.0038380632 0.074842244 0.68624556
0.0038380632 0.072923183 0.6862455
0.0038380632 0.071004212 0.6862455
0.0038380632 0.069085151 0.6862455
0.0038380632 0.06716612 0.68624556
0.0038380632 0.065247089 0.6862455
0.0038380632 0.063328058 0.6862455
0.0038380632 0.061409026 0.68624556
0.0038380632 0.059489995 0.6862455
0.0038380632 0.057570934 0.68624556
0.0038380632 0.055651903 0.6862455
0.0038380632 0.053732902 0.6862455
0.0038380632 0.051813841 0.6862455
0.0038380632 0.04989481 0.68624556
0.0038380632 0.047975779 0.6862455
0.0038380632 0.046056747 0.6862455
0.0038380632 0.044137746 0.68624556
0.0038380632 0.042218685 0.6862455
0.0038380632 0.040299684 0.68624556
0.0038380632 0.038380653 0.6862455
0.0038380632 0.036461622 0.6862455
0.0038380632 0.03454259 0.6862455
0.0038380632 0.032623529 0.68624556
0.0038380632 0.030704498 0.68624556
0.0038380632 0.028785497 0.6862455
0.0038380632 0.026866436 0.68624556
0.0038380632 0.024947405 0.6862455
0.0038380632 0.023028374 0.68624556
0.0038380632 0.021109343 0.6862455
0.0038380632 0.019190341 0.6862455
0.0038380632 0.01727128 0.68624556
0.0038380632 0.015352279 0.6862455
0.0038380632 0.013433218 0.68624556
0.0038380632 0.011514217 0.6862455
0.0038380632 0.0095951855 0.68624556
0.0038380632 0.0076761246 0.6862455
0.0038380632 0.0057570934 0.68624556
0.0038380632 0.0038380623 0.68624556
0.0038380632 0.0019190311 0.6862455
0.0038380632 -0 0.68624556
0.0038380632 -0.0019190311 0.6862455
0.0038380632 -0.0038380623 0.68624556
0.0038380632 -0.0057570636 0.6862455
0.0038380632 -0.0076761246 0.68624556
0.0038380632 -0.0095951557 0.6862455
0.0038380632 -0.011514187 0.68624556
0.0038380632 -0.013433218 0.6862455
0.0038380632 -0.015352219 0.68624544
0.0038380632 -0.01727128 0.6862455
0.0038380632 -0.019190282 0.6862455
0.0038380632 -0.021109313 0.6862455
0.0038380632 -0.023028404 0.68624556
0.0038380632 -0.024947405 0.68624556
0.0038380632 -0.026866436 0.68624556
0.0038380632 -0.028785497 0.68624556
0.0038380632 -0.030704498 0.68624556
0.0038380632 -0.032623529 0.6862455
0.0038380632 -0.034542561 0.68624556
0.0038380632 -0.036461562 0.6862455
0.0038380632 -0.038380623 0.68624556
0.0038380632 -0.040299654 0.6862455
0.0038431336 -0.042274445 0.68655151
0.0038431189 -0.044195861 0.68655068
0.0038431189 -0.046117455 0.68655074
0.0038431189 -0.04803896 0.68655068
0.003843104 -0.049960315 0.68654972
0.003843104 -0.051881909 0.68654978
0.003843104 -0.053803474 0.68654978
0.0038430893 -0.055724829 0.68654889
0.0038430893 -0.057646334 0.68654889
0.0038430893 -0.059567869 0.68654883
0.0038430747 -0.061489165 0.68654799
0.0038430747 -0.063410759 0.68654799
0.0038430598 -0.065332025 0.6865471
0.0038430598 -0.06725353 0.68654716
0.0038430598 -0.069175094 0.68654704
