# .PCD v0.7 - Point Cloud Data file format
VERSION 0.7
FIELDS x y z
SIZE 4 4 4
TYPE F F F
COUNT 1 1 1
WIDTH 1343
HEIGHT 1
VIEWPOINT 0 0 0 1 0 0 0
POINTS 1343
DATA ascii
-0.016040223 0.020050257 0.69662619
-0.015911428 0.017900378 0.69468284
-0.015786739 0.015786737 0.69280142
-0.015352841 0.013433754 0.68625438
-0.015205466 0.011404127 0.68403071
-0.015094345 0.0094339848 0.68235397
-0.015002246 0.0075011253 0.68096435
-0.014921325 0.005595535 0.67974329
-0.014845841 0.003711462 0.67860436
-0.014780826 0.001847595 0.67762339
-0.014718 -0 0.67667538
-0.014664459 -0.0018330812 0.67586756
-0.014612853 -0.0036531985 0.67508882
-0.014567438 -0.0054627657 0.67440355
-0.014529156 -0.0072645843 0.67382592
-0.014494379 -0.0090590119 0.67330122
-0.014455227 -0.010841399 0.67271042
-0.014406687 -0.012605876 0.67197812
-0.014354303 -0.014354289 0.67118758
-0.014293307 -0.016079962 0.67026728
-0.01422959 -0.01778698 0.66930586
-0.014164886 -0.019476712 0.66832954
-0.014100816 -0.021151215 0.66736281
-0.014037422 -0.022810817 0.66640627
-0.013974693 -0.024455726 0.66545975
-0.013914602 -0.026089847 0.66455305
-0.013856224 -0.027712435 0.66367221
-0.013798334 -0.029321492 0.6627987
-0.013741068 -0.030917406 0.66193461
-0.01368479 -0.03250137 0.66108549
-0.013630547 -0.034076363 0.660267
-0.013577701 -0.035641462 0.6594696
-0.013525262 -0.03719449 0.65867841
-0.013473229 -0.038735539 0.65789324
-0.013422267 -0.040266782 0.65712428
-0.013372271 -0.041788369 0.65636992
-0.013323489 -0.043301344 0.65563387
-0.016478343 -0.055614412 0.70323694
-0.016416978 -0.057459414 0.70231104
-0.016354864 -0.059286386 0.70137382
-0.016293287 -0.061099857 0.7004447
-0.016231447 -0.062896848 0.69951153
-0.01616779 -0.064671099 0.698551
-0.016104693 -0.06643185 0.69759905
-0.016042087 -0.068178862 0.69665432
-0.01597767 -0.069902301 0.69568229
-0.015913134 -0.07160911 0.69470859
-0.015849121 -0.07330218 0.69374263
-0.015783876 -0.074973375 0.6927582
-0.015714597 -0.076608658 0.69171286
-0.015636027 -0.078180134 0.69052732
-0.015545729 -0.07967186 0.68916482
-0.015425435 -0.080983534 0.6873498
-0.015300729 -0.082241416 0.68546808
-0.015203848 -0.083621174 0.68400633
-0.015333846 0.041620463 0.71902061
-0.015016705 0.038614392 0.7135517
-0.014810837 0.035969168 0.71000165
-0.014640157 0.03346324 0.70705837
-0.014490371 0.031050801 0.7044754
-0.0143542 0.028708398 0.70212722
-0.014229462 0.026426166 0.69997621
-0.014113865 0.024195224 0.69798279
-0.014001586 0.022002518 0.69604659
-0.013612822 0.019446909 0.68934262
-0.013483332 0.017335713 0.68710965
-0.013385221 0.015297413 0.68541777
-0.013302408 0.013302386 0.68398976
-0.013231101 0.011340916 0.68276012
-0.013163275 0.0094023347 0.6815905
-0.013106189 0.007489264 0.68060601
-0.013049836 0.0055927932 0.67963427
-0.013003084 0.0037151575 0.67882812
-0.012956714 0.0018509924 0.6780284
-0.012917864 2.9802322e-08 0.67735851
-0.012884504 -0.0018406212 0.6767832
-0.012852449 -0.003672123 0.67623043
-0.012815814 -0.0054924786 0.67559874
-0.012770815 -0.0072976351 0.67482275
-0.012721738 -0.0090869367 0.67397642
-0.012666253 -0.010856807 0.67301971
-0.012607984 -0.012607962 0.67201483
-0.012549979 -0.014342844 0.67101455
-0.012492503 -0.016061783 0.67002338
-0.012435729 -0.017765313 0.66904444
-0.012379512 -0.019453555 0.66807497
-0.012326533 -0.021131188 0.66716135
-0.01227418 -0.022794902 0.66625857
-0.012222267 -0.02444455 0.66536331
-0.012171299 -0.026081324 0.66448444
-0.01212084 -0.027704746 0.66361433
-0.012073002 -0.029320151 0.6627894
-0.012025622 -0.030923039 0.66197234
-0.011978613 -0.03251335 0.66116172
-0.011932255 -0.034092158 0.6603623
-0.011886899 -0.035660684 0.65958017
-0.011842408 -0.037218988 0.65881288
-0.014644686 -0.048118234 0.70713651
-0.014591608 -0.050028354 0.70622116
-0.014535532 -0.051912576 0.7052542
-0.014479947 -0.053782642 0.70429569
-0.014424785 -0.055638462 0.70334446
-0.014367803 -0.057471216 0.70236182
-0.014310858 -0.059287816 0.7013799
-0.014254364 -0.061090112 0.7004056
-0.01419722 -0.062873393 0.69942021
-0.014138992 -0.064635366 0.69841611
-0.014081239 -0.066382974 0.69742024
-0.014023899 -0.068116099 0.6964314
-0.013961737 -0.069808662 0.69535941
-0.013894057 -0.071455121 0.69419235
-0.013817212 -0.073033839 0.69286716
-0.013717907 -0.074468642 0.69115478
-0.011460869 -0.063853443 0.65223354
-0.011370679 -0.064975321 0.65067828
-0.011237051 -0.065817013 0.64837396
-0.011359175 -0.068155035 0.65047985
-0.013298922 -0.081693351 0.68392962
-0.013232401 -0.083175078 0.68278253
-0.013530208 -0.086979896 0.68791801
-0.013064425 0.045725495 0.71743381
-0.012881457 0.042938203 0.71375287
-0.012730208 0.04031235 0.71070993
-0.012597889 0.037793696 0.70804787
-0.012477826 0.035353839 0.70563239
-0.012367872 0.032981008 0.70342028
-0.012266149 0.030665398 0.70137382
-0.012167123 0.028389931 0.69938153
-0.011825829 0.025622606 0.69251519
-0.011714345 0.023428679 0.69027233
-0.011629442 0.021320641 0.68856424
-0.011556518 0.019260854 0.68709707
-0.011494968 0.017242461 0.68585879
-0.011436291 0.015248418 0.68467832
-0.01138615 0.013283849 0.68366957
-0.011337818 0.011337817 0.68269724
-0.011296649 0.009413898 0.68186897
-0.011256832 0.0075045526 0.68106794
-0.011223418 0.0056117177 0.6803956
-0.011194875 0.0037316084 0.67982143
-0.011165895 0.0018609762 0.67923838
-0.011131862 2.9802322e-08 0.6785537
-0.011091435 -0.0018485487 0.67774034
-0.011045974 -0.0036819875 0.67682576
-0.010996451 -0.0054982007 0.67582941
-0.010944976 -0.0072966516 0.67479384
-0.01089394 -0.009078294 0.67376703
-0.010843535 -0.010843515 0.67275298
-0.010793634 -0.012592584 0.67174906
-0.01074492 -0.014326572 0.67076898
-0.01069851 -0.016047776 0.66983533
-0.010652501 -0.017754138 0.66890967
-0.010607111 -0.019446373 0.66799653
-0.010562403 -0.02112481 0.66709709
-0.010518734 -0.022790581 0.66621852
-0.010476777 -0.024445802 0.6653744
-0.010435154 -0.02608791 0.66453701
-0.01039386 -0.027716964 0.66370618
-0.010353711 -0.029335499 0.66289854
-0.010313909 -0.030941695 0.66209775
-0.010275184 -0.032538086 0.66131866
-0.012706933 -0.042356461 0.71024168
-0.012658071 -0.044303238 0.70925868
-0.012608893 -0.046232611 0.7082693
-0.012560098 -0.048146993 0.70728761
-0.012510688 -0.050042748 0.70629358
-0.01246032 -0.051918 0.70528018
-0.012410358 -0.053778201 0.70427501
-0.012360691 -0.055623084 0.7032758
-0.012309199 -0.057442933 0.70223993
-0.012258136 -0.059247613 0.70121253
-0.012207494 -0.061037421 0.7001937
-0.012154118 -0.062796265 0.69911987
-0.01209716 -0.064518154 0.69797397
-0.012033254 -0.066182852 0.69668829
-0.011953526 -0.067736655 0.69508433
-0.0099925175 -0.058289677 0.65563184
-0.0099000214 -0.059400126 0.65377098
-0.0097894864 -0.060368493 0.65154719
-0.0096975304 -0.061417684 0.64969718
-0.0096393656 -0.062655881 0.64852703
-0.0096136844 -0.06409122 0.64801031
-0.0095888432 -0.065523744 0.64751053
-0.0095953094 -0.067167133 0.64764065
-0.011352352 -0.081358492 0.6829896
-0.011316577 -0.082988247 0.68226987
-0.011320502 -0.084903762 0.68234879
-0.011123681 0.053393692 0.72314739
-0.010940534 0.050326467 0.7187258
-0.010764246 0.047362715 0.71446979
-0.010650508 0.044732124 0.71172392
-0.010547547 0.042190194 0.70923817
-0.010453278 0.039722443 0.70696241
-0.010366262 0.037318558 0.70486158
-0.010281273 0.034956306 0.70280981
-0.0099898316 0.031967491 0.69577384
-0.0098965699 0.029689699 0.69352227
-0.0098251337 0.027510405 0.69179761
-0.0097627155 0.025383055 0.69029069
-0.0097110262 0.023306459 0.68904287
-0.0096617844 0.02125594 0.68785405
-0.009618842 0.019237697 0.68681729
-0.009578553 0.017241418 0.6858446
-0.0095432932 0.01526925 0.68499339
-0.0095100999 0.013314128 0.68419206
-0.0094821285 0.011378556 0.68351674
-0.009458255 0.0094582736 0.68294042
-0.0094328988 0.0075463355 0.68232822
-0.0094017042 0.0056410134 0.68157518
-0.0093668196 0.0037467182 0.68073297
-0.0093261413 0.0018652081 0.67975092
-0.0092829196 5.9604645e-08 0.67870742
-0.009238869 -0.0018477738 0.67764395
-0.0091953017 -0.0036780834 0.67659211
-0.0091522438 -0.0054913461 0.67555261
-0.00910962 -0.0072877109 0.67452365
-0.0090686744 -0.0090686679 0.67353511
-0.0090290066 -0.010834783 0.67257738
-0.0089897169 -0.01258558 0.67162895
-0.0089511843 -0.014321893 0.67069864
-0.0089129806 -0.016043335 0.66977632
-0.008876266 -0.017752528 0.66888988
-0.0088404147 -0.019448906 0.66802442
-0.0088048531 -0.021131665 0.66716588
-0.0087700365 -0.022802085 0.66632533
-0.0087357387 -0.024460077 0.6654973
-0.0087019801 -0.02610594 0.66468233
-0.010760079 -0.034432232 0.71436924
-0.010719645 -0.03644681 0.71339303
-0.010677326 -0.03843835 0.71237141
-0.010635341 -0.040414304 0.71135783
-0.010593683 -0.0423747 0.71035206
-0.010550349 -0.044311464 0.70930588
-0.010507368 -0.046232432 0.70826828
-0.010464734 -0.048137784 0.70723897
-0.010421101 -0.050021261 0.70618558
-0.010377184 -0.051885873 0.70512527
-0.010333634 -0.053734899 0.70407391
-0.010289138 -0.055561364 0.70299971
-0.010242045 -0.057355464 0.70186281
-0.01018795 -0.059090108 0.70055681
-0.010124989 -0.060749918 0.69903678
-0.010038414 -0.062238157 0.69694662
-0.0083833514 -0.053653449 0.65698993
-0.0082937228 -0.054738581 0.6548261
-0.0082145045 -0.055858612 0.65291357
-0.0081529608 -0.057070732 0.65142787
-0.0081308363 -0.058542013 0.65089369
-0.0081091719 -0.06000787 0.6503706
-0.0080890618 -0.061476871 0.64988518
-0.0080690766 -0.062938794 0.64940274
-0.008049191 -0.064393535 0.64892256
-0.0080293762 -0.06584087 0.64844424
-0.0080096852 -0.067281336 0.64796883
-0.0094959131 -0.081664875 0.68384957
-0.0094813025 -0.083435461 0.68349683
-0.0094546089 -0.085091472 0.68285239
-0.0090381503 0.061007529 0.72734827
-0.0088855913 0.057756335 0.72274441
-0.008769339 0.054808378 0.71923614
-0.0086714281 0.052028567 0.71628141
-0.0085610067 0.049225807 0.71294916
-0.0084833885 0.046658635 0.71060681
-0.0084118648 0.044162273 0.70844841
-0.0083418144 0.041709095 0.70633441
-0.0081028771 0.038488656 0.69912386
-0.008027928 0.03612572 0.6968621
-0.0079702875 0.033873707 0.6951226
-0.0079197939 0.031679183 0.69359887
-0.0078772763 0.029539794 0.69231582
-0.0078376066 0.027431637 0.6911186
-0.0078022867 0.025357425 0.69005275
-0.0077700573 0.023310184 0.68908018
-0.0077410568 0.021287888 0.688205
-0.0077145309 0.019286305 0.68740451
-0.0076920274 0.017307073 0.68672538
-0.0076727127 0.015345395 0.68614256
-0.0076509789 0.01338923 0.68548656
-0.0076241936 0.011436284 0.68467832
-0.0075944252 0.0094930232 0.68377995
-0.0075604012 0.007560432 0.68275321
-0.0075241905 0.0056431592 0.68166047
-0.0074880454 0.0037440062 0.68056965
-0.0074523292 0.0018630922 0.67949182
-0.0074170064 -2.9802322e-08 0.67842591
-0.0073819901 -0.001845479 0.67736918
-0.0073489752 -0.0036745071 0.67637289
-0.0073164152 -0.0054873228 0.6753903
-0.007284381 -0.007284373 0.67442358
-0.007252784 -0.0090659857 0.67347008
-0.0072214589 -0.010832191 0.67252469
-0.0071917991 -0.01258564 0.67162967
-0.0071624084 -0.014324814 0.67074269
-0.0071333828 -0.01605013 0.6698668
-0.0071050213 -0.017762542 0.66901088
-0.0070768832 -0.019461453 0.66816181
-0.0070494646 -0.021148384 0.66733432
-0.0087168617 -0.02832979 0.71765244
-0.0086822622 -0.030387908 0.71660835
-0.008647562 -0.032428354 0.71556115
-0.0086131385 -0.034452528 0.71452236
-0.0085780323 -0.036456615 0.71346295
-0.0085425172 -0.03844133 0.71239114
-0.0085072964 -0.040409654 0.71132827
-0.0084718615 -0.042359293 0.71025896
-0.0084355837 -0.044286788 0.7091642
-0.0083996141 -0.046197891 0.70807874
-0.0083639156 -0.048092484 0.70700139
-0.0083251242 -0.049950749 0.70583081
-0.0082824733 -0.051765442 0.70454371
-0.0082333088 -0.053516507 0.70305997
-0.0081679216 -0.055133432 0.70108676
-0.0068191974 -0.04773438 0.66038543
-0.0067696767 -0.049080133 0.65889096
-0.0066817831 -0.05011335 0.65623856
-0.0066214129 -0.051315963 0.65441674
-0.0066031283 -0.052825034 0.65386486
-0.0065852473 -0.054328293 0.65332532
-0.0065683899 -0.055831283 0.65281665
-0.0065518981 -0.057329088 0.65231895
-0.0065355096 -0.058819577 0.65182436
-0.0065192031 -0.060302615 0.65133226
-0.0065029776 -0.061778292 0.65084267
-0.0064868121 -0.063246414 0.65035474
-0.0064712283 -0.064712286 0.64988452
-0.0064574694 -0.066189066 0.64946932
-0.0064437687 -0.067659542 0.64905584
-0.0076034842 -0.081737429 0.6840533
-0.0075636301 -0.083199918 0.6828506
-0.0075229178 -0.084632814 0.68162203
-0.0068875672 0.06887567 0.73173219
-0.0067671528 0.065415829 0.72688711
-0.0066764946 0.062313914 0.7232393
-0.0066007776 0.059407055 0.72019273
-0.0065338043 0.05662632 0.71749794
-0.0064728344 0.053940296 0.71504468
-0.0064159795 0.051327825 0.71275699
-0.0063462937 0.048654944 0.70995307
-0.0061627361 0.045193434 0.70256728
-0.0061063292 0.042744339 0.70029759
-0.0060626757 0.04041785 0.69854116
-0.0060244021 0.038154542 0.69700116
-0.0059916028 0.035949618 0.69568139
-0.0059616431 0.033782631 0.69447589
-0.0059343972 0.031650096 0.69337964
-0.0059102369 0.029551178 0.69240755
-0.005887866 0.027476698 0.69150734
-0.0058679795 0.025427938 0.69070721
-0.0058514867 0.023405939 0.69004363
-0.0058363578 0.021400005 0.68943477
-0.0058187335 0.019395798 0.68872571
-0.0057973615 0.017392129 0.68786573
-0.0057735913 0.015396237 0.68690932
-0.0057466258 0.01340878 0.68582428
-0.0057185153 0.011437058 0.68469322
-0.0056907008 0.0094845295 0.68357402
-0.0056632413 0.0075509846 0.68246913
-0.0056360243 0.0056360364 0.68137395
-0.005609402 0.0037395954 0.6803028
-0.005584111 0.0018613935 0.67928517
-0.0055591292 2.9802322e-08 0.67828
-0.0055345735 -0.0018448532 0.67729199
-0.0055102347 -0.0036734641 0.67631263
-0.0054865293 -0.0054865181 0.67535883
-0.0054637236 -0.0072849691 0.67444116
-0.0054410864 -0.0090684593 0.67353034
-0.0054190666 -0.010838121 0.67264432
-0.0053972243 -0.012593508 0.67176545
-0.0053756917 -0.014335185 0.67089903
-0.0066464297 -0.019939274 0.72202963
-0.0066205161 -0.022068381 0.72098696
-0.0065936162 -0.024176568 0.71990454
-0.0065669338 -0.026267737 0.71883094
-0.0065402663 -0.028341144 0.71775794
-0.0065127416 -0.030392796 0.71665043
-0.0064854478 -0.032427222 0.71555215
-0.0064583807 -0.03444469 0.71446311
-0.0064303544 -0.036438674 0.71333539
-0.0064024883 -0.038414925 0.71221417
-0.006374836 -0.040373951 0.71110153
-0.0063456772 -0.042304516 0.70992827
-0.0063141799 -0.044199228 0.7086609
-0.006278289 -0.046040773 0.70721674
-0.0062320484 -0.047779053 0.70535624
-0.0052041365 -0.041633099 0.66399622
-0.0051607839 -0.04300651 0.66225183
-0.0050967722 -0.044172019 0.65967619
-0.0050469395 -0.045422435 0.65767109
-0.0050284606 -0.04693228 0.65692759
-0.0050146184 -0.04847461 0.65637058
-0.0050013526 -0.050013542 0.65583682
-0.0049886205 -0.051549047 0.65532446
-0.0049759531 -0.053076833 0.65481484
-0.0049633337 -0.054596663 0.65430701
-0.0049507944 -0.056109011 0.65380251
-0.0049383179 -0.057613701 0.65330052
-0.0049261311 -0.059113607 0.65281016
-0.0049154847 -0.060624316 0.65238172
-0.0049048997 -0.062128738 0.65195584
-0.0048943604 -0.063626692 0.65153182
-0.0048838663 -0.065118194 0.65110952
-0.0048734173 -0.066603333 0.65068913
-0.0048630126 -0.068082154 0.65027046
-0.0048544104 -0.069579855 0.64992428
-0.0055000992 -0.080668092 0.67590481
-0.005469895 -0.082048431 0.67468953
-0.0046676998 0.077017039 0.73631853
-0.0045822286 0.07331568 0.73115987
-0.0045194221 0.070051014 0.72736919
-0.0044672894 0.0670093 0.72422272
-0.0044212043 0.064107478 0.72144127
-0.0043793349 0.061310709 0.71891415
-0.0043403967 0.058595359 0.716564
-0.0043036244 0.055947125 0.71434462
-0.0041671903 0.05208987 0.70611012
-0.0041294456 0.049553335 0.70383203
-0.0041000745 0.04715085 0.70205927
-0.0040742671 0.044816941 0.70050168
-0.0040517664 0.04254356 0.69914365
-0.0040316558 0.040316552 0.69792986
-0.0040129665 0.03812319 0.69680184
-0.0039968747 0.03597191 0.69583058
-0.0039815446 0.03384316 0.6949054
-0.0039685182 0.031748146 0.69411922
-0.0039575635 0.029681742 0.69345796
-0.0039470117 0.027629107 0.69282115
-0.0039343489 0.025573254 0.69205689
-0.003919187 0.023515135 0.69114184
-0.0039020409 0.021461248 0.69010687
-0.0038832049 0.019416004 0.68897009
-0.0038639526 0.017387778 0.6878081
-0.0038449499 0.015379816 0.68666118
-0.0038261327 0.013391495 0.68552548
-0.0038075135 0.011422545 0.68440169
-0.0037895914 0.0094739497 0.68331999
-0.0037722776 0.0075445771 0.682275
-0.0037553047 0.0056329668 0.68125063
-0.0037384978 0.0037384927 0.68023622
-0.0037218407 0.0018609464 0.67923087
-0.0037058941 -0 0.67826837
-0.0036902737 -0.0018451214 0.67732561
-0.0036749735 -0.003674984 0.67640221
-0.0036599203 -0.005489856 0.6754936
-0.0036449898 -0.0072899759 0.67459249
-0.0036303781 -0.0090759397 0.67371058
-0.0044885492 -0.013465643 0.72550583
-0.0044701435 -0.015645474 0.72439492
-0.0044517489 -0.017807007 0.72328472
-0.0044335052 -0.019950777 0.7221837
-0.004414768 -0.022073835 0.72105271
-0.0043959371 -0.024177641 0.71991616
-0.0043772855 -0.026263714 0.71879053
-0.0043583168 -0.028329045 0.71764559
-0.0043391166 -0.030373812 0.71648681
-0.004320085 -0.032400638 0.71533811
-0.0043005915 -0.034404725 0.71416152
-0.0042799725 -0.036379755 0.71291709
-0.0042561083 -0.038304985 0.7114768
-0.0042279311 -0.040165365 0.70977616
-0.0041880659 -0.041880697 0.7073701
-0.0034980453 -0.036729455 0.66572362
-0.0034567926 -0.038024724 0.66323382
-0.003422414 -0.039357752 0.66115892
-0.0034046457 -0.040855765 0.66008651
-0.0033951048 -0.042438805 0.65951061
-0.0033858346 -0.044015825 0.65895104
-0.0033770709 -0.04559043 0.65842217
-0.0033683637 -0.047157079 0.65789664
-0.0033597013 -0.048715681 0.65737385
-0.0033510833 -0.050266236 0.65685374
-0.0033424983 -0.051808715 0.65633559
-0.0033341236 -0.053345978 0.65583009
-0.0033267087 -0.054890662 0.65538257
-0.0033194369 -0.056430429 0.65494365
-0.0033121966 -0.057963461 0.65450668
-0.0033049879 -0.059489787 0.65407157
-0.0032978102 -0.061009482 0.65363836
-0.0032906856 -0.062523052 0.65320837
-0.0032847556 -0.064052716 0.65285051
-0.0032790406 -0.065580815 0.65250558
-0.0032733453 -0.067103565 0.65216184
-0.0032676589 -0.068620846 0.65181857
-0.0032620027 -0.070133045 0.65147722
-0.0033443861 -0.07357648 0.6564495
-0.0036523195 -0.082177177 0.67503488
-0.0023731233 0.08543241 0.74105924
-0.0023276398 0.08146739 0.73556888
-0.0022950238 0.078030795 0.73163176
-0.0022680592 0.07484594 0.72837687
-0.0022442543 0.071816117 0.72550339
-0.0022227005 0.068903744 0.72290158
-0.002202671 0.066080153 0.72048384
-0.0021838283 0.063331038 0.71820933
-0.002166149 0.060652226 0.71607518
-0.0021495475 0.058037758 0.71407121
-0.0021335895 0.055473357 0.71214497
-0.0020669831 0.051674575 0.7041049
-0.0020554014 0.049329638 0.70270681
-0.0020452775 0.047041386 0.70148474
-0.0020356583 0.044784456 0.70032364
-0.0020276236 0.042580128 0.69935375
-0.0020198396 0.04039681 0.69841415
-0.0020133781 0.038254201 0.69763416
-0.0020079003 0.0361422 0.69697291
-0.002002324 0.034039497 0.69629979
-0.0019953449 0.031925499 0.6954574
-0.0019873721 0.029810607 0.69449496
-0.0019782498 0.027695507 0.69339377
-0.0019683817 0.025588959 0.69220257
-0.0019585043 0.023502082 0.69101036
-0.0019487408 0.021436214 0.68983173
-0.0019390816 0.019390821 0.68866581
-0.0019295104 0.017365634 0.68751043
-0.0019204677 0.015363783 0.68641889
-0.0019116265 0.013381392 0.68535161
-0.0019029242 0.011417568 0.6843012
-0.0018942935 0.0094714761 0.68325937
-0.0018857763 0.0075431466 0.68223125
-0.0018776875 0.005633086 0.68125486
-0.0018697099 0.0037394166 0.68029189
-0.0018619174 0.0018619299 0.67935121
-0.0018541897 -0 0.6784184
-0.0018465327 -0.0018465221 0.67749411
-0.0022827836 -0.0045655668 0.73015434
-0.0022735519 -0.0068206787 0.72903991
-0.0022640361 -0.0090561211 0.72789127
-0.0022545997 -0.011273026 0.72675216
-0.0022451002 -0.01347062 0.72560549
-0.0022353611 -0.015647531 0.72442991
-0.0022257159 -0.017805725 0.72326559
-0.0022160753 -0.019944668 0.72210193
-0.0022061479 -0.022061467 0.72090352
-0.0021963092 -0.024159402 0.71971583
-0.0021865482 -0.026238561 0.71853769
-0.0021759176 -0.028286934 0.7172544
-0.0021641066 -0.030297488 0.71582872
-0.0021503142 -0.032254696 0.71416378
-0.002131372 -0.034101933 0.71187729
-0.0017790024 -0.030243069 0.66934252
-0.0017589092 -0.031660378 0.66691709
-0.0017411046 -0.033080965 0.6647678
-0.0017293163 -0.03458634 0.66334486
-0.0017243875 -0.036212146 0.66274989
-0.0017195282 -0.037829638 0.66216338
-0.0017150077 -0.039445192 0.6616177
-0.0017105166 -0.041052371 0.66107559
-0.0017060434 -0.042651117 0.66053557
-0.0017015992 -0.044241577 0.65999913
-0.001697178 -0.045823812 0.65946543
-0.0016928543 -0.047399879 0.65894347
-0.0016889743 -0.048980296 0.65847516
-0.0016852313 -0.050556928 0.65802336
-0.0016814991 -0.052126437 0.65757281
-0.0016777833 -0.053689092 0.65712434
-0.0016740841 -0.055244774 0.65667772
-0.001670429 -0.056794584 0.65623659
-0.0016673619 -0.058357686 0.65586632
-0.0016644167 -0.059919029 0.65551084
-0.0016614764 -0.061474606 0.6551559
-0.0016585521 -0.063024983 0.65480286
-0.0016556325 -0.064569667 0.65445042
-0.0016527231 -0.066108957 0.65409923
-0.0016493562 -0.0676236 0.65369278
-0.0016452401 -0.069100067 0.65319598
-0.0016405954 -0.070545569 0.65263528
-0.0016472333 -0.07247825 0.65343654
-0.0017523671 -0.078856528 0.66612738
-0.0018397433 -0.084628195 0.6766746
0 0.086264372 0.73603106
0 0.082927853 0.73266107
0 0.079763532 0.7296924
0 0.076729357 0.72701114
0 0.073793292 0.72452635
0 0.070937961 0.72219074
0 0.068156809 0.71999311
0 0.065445453 0.71793002
0 0.0627895 0.71595526
0 0.060184777 0.71406007
0 0.057631969 0.71225703
0 0.055120051 0.71050489
0 0.05164665 0.7039699
0 0.049384207 0.70298129
0 0.047147185 0.70204008
0 0.044954062 0.70125389
0 0.042794436 0.70058584
0 0.04063499 0.69985169
0 0.038461745 0.69895267
0 0.036284447 0.69792694
0 0.034105003 0.69676495
0 0.031934589 0.69552559
0 0.029786587 0.69430166
0 0.0276604 0.69309109
0 0.025555491 0.69189173
0 0.023472846 0.69071645
0 0.021415442 0.68960476
0 0.019378275 0.68851435
0 0.017359912 0.68743408
0 0.015360087 0.68636382
0 0.013379902 0.68532521
0 0.011418581 0.68432212
0 0.0094750822 0.68334687
0 0.007548064 0.68238068
0 0.0056371987 0.6814217
0 0.0037425756 0.68048096
0 0.0023133159 0.7338438
0 2.9802322e-08 0.73265851
0 -0.0022937655 0.73147941
0 -0.0045681298 0.73031032
0 -0.0068221092 0.72909981
0 -0.0090562403 0.72789502
0 -0.011270851 0.72670066
0 -0.013463974 0.72547179
0 -0.015636653 0.72424316
0 -0.017789841 0.72302568
0 -0.019917428 0.72173631
0 -0.022014022 0.7203306
0 -0.024067163 0.71870381
0 -0.026040465 0.71654475
0 -0.023539037 0.6731683
0 -0.025067151 0.6707319
0 -0.026581049 0.66850591
0 -0.028115094 0.66670978
0 -0.029785454 0.66609329
0 -0.031447202 0.66548771
0 -0.033104032 0.66491425
0 -0.03475365 0.66435474
0 -0.036394507 0.66379821
0 -0.038026571 0.66324389
0 -0.039650142 0.66269326
0 -0.041266978 0.66215479
0 -0.042885035 0.6616652
0 -0.044499904 0.66119844
0 -0.04610765 0.66073447
0 -0.047708035 0.66027188
0 -0.049301296 0.65981138
0 -0.050888926 0.65935922
0 -0.052486658 0.6589753
0 -0.054082423 0.65860808
0 -0.055672646 0.65824276
0 -0.057256967 0.65787816
0 -0.058835864 0.65751553
0 -0.060409486 0.65715557
0 -0.061955616 0.65672511
0 -0.0634657 0.65620291
0 -0.064945921 0.65561509
0 -0.066399306 0.65497553
0 -0.067826807 0.65429115
0 -0.069230303 0.65357023
0 -0.070623666 0.65285438
0 -0.072012663 0.65215921
0 -0.077005386 0.66116172
0 -0.083240792 0.67303383
0.0023147506 0.087960511 0.73401302
0.0022918491 0.084798425 0.73124862
0.0022707044 0.081745386 0.72869617
0.0022508164 0.078778595 0.72629547
0.0022320605 0.075890034 0.72403145
0.002214506 0.073078662 0.72191244
0.0021976691 0.070325434 0.71988004
0.0021815621 0.067628443 0.7179358
0.0021662053 0.064986169 0.71608198
0.0021513125 0.062388062 0.7142843
0.0021371346 0.059839785 0.71257287
0.0021232681 0.057328254 0.71089911
0.0021100519 0.054861367 0.70930374
0.0020971049 0.05242762 0.7077409
0.0020686409 0.049647391 0.70430493
0.0020620509 0.047427207 0.70350945
0.002054102 0.045190245 0.70254993
0.0020450684 0.042946428 0.70145953
0.0020347808 0.040695637 0.70021772
0.0020242359 0.038460493 0.69894481
0.0020138158 0.036248684 0.69768697
0.0020034944 0.034059435 0.69644111
0.0019932862 0.031892598 0.69520885
0.0019834409 0.029751629 0.69402045
0.001974043 0.027636588 0.69288599
0.0019647568 0.025541842 0.69176507
0.0019555574 0.023466676 0.69065458
0.0019464438 0.021410912 0.68955445
0.001937745 0.01937747 0.6885044
0.0019293095 0.017363787 0.68748617
0.0019210135 0.015368104 0.68648475
0.0019127885 0.013389498 0.68549192
0.0019046337 0.01142782 0.68450755
0.0023543083 0.01177156 0.73878807
0.0023444244 0.0093776882 0.73759502
0.0023343074 0.0070029497 0.73637378
0.0023242773 0.0046485364 0.73516303
0.0023141082 0.0023141205 0.73393553
0.0023037626 2.9802322e-08 0.73268664
0.0022935192 -0.0022935271 0.7314502
0.0022831587 -0.0045663416 0.73019958
0.0022726227 -0.0068178475 0.72892773
0.0022621835 -0.0090487301 0.72766763
0.0022514649 -0.011257321 0.72637379
0.0022399945 -0.013439953 0.72498918
0.0022268849 -0.015588194 0.72340673
0.0022100261 -0.017680198 0.72137165
0.0018444906 -0.0166004 0.67724764
0.0018281882 -0.018281847 0.67527974
0.0018041604 -0.019845784 0.67237937
0.001785981 -0.021431774 0.67018491
0.0017806864 -0.023148924 0.66954577
0.0017755051 -0.024857044 0.6689204
0.0017705167 -0.026557773 0.66831821
0.0017657246 -0.028251588 0.66773975
0.0017609643 -0.029936403 0.6671651
0.0017562298 -0.031612128 0.66659361
0.0017515206 -0.033278883 0.66602516
0.0017469099 -0.034938186 0.66546863
0.0017426691 -0.03659606 0.66495669
0.0017386785 -0.038250923 0.66447496
0.0017347122 -0.039898366 0.66399622
0.001730758 -0.041538209 0.66351891
0.0017268216 -0.043170512 0.66304368
0.0017229922 -0.044797778 0.66258144
0.001719676 -0.046431243 0.66218114
0.0017165432 -0.048063219 0.66180307
0.0017134162 -0.049689054 0.66142559
0.0017103063 -0.051309168 0.66105014
0.0017072076 -0.052923411 0.66067606
0.0017041491 -0.054532766 0.66030687
0.0017003791 -0.056112528 0.65985185
0.0016958264 -0.057658106 0.65930229
0.0016907264 -0.059175432 0.65868664
0.0016851802 -0.060666472 0.65801716
0.0016792475 -0.062132135 0.65730101
0.0016730989 -0.063577756 0.65655881
0.0016669841 -0.065012395 0.65582073
0.001661162 -0.066446483 0.65511787
0.0016555941 -0.067879349 0.65444577
0.0016504282 -0.069317982 0.65382218
0.0016454509 -0.070754394 0.65322143
0.0016412089 -0.072213188 0.65270936
0.0016851064 -0.075829774 0.65800822
0.0046126433 0.089946568 0.73299563
0.0045717619 0.086863518 0.73052812
0.0045330771 0.083861947 0.72819328
0.004497041 0.080946743 0.72601837
0.0044623292 0.078090757 0.72392333
0.0044292863 0.075297832 0.72192901
0.0043976759 0.072561681 0.72002119
0.004367142 0.069874287 0.71817827
0.004338007 0.067239106 0.71641982
0.0043095923 0.06464389 0.71470481
0.0042824447 0.062095463 0.71306634
0.0042558368 0.059581697 0.71146041
0.0042303619 0.057109863 0.70992285
0.0042054374 0.054670691 0.70841855
0.0041813115 0.052266389 0.70696241
0.004150047 0.049800575 0.70507544
0.0041284407 0.047477067 0.70377135
0.004106754 0.045174301 0.70246243
0.0040853112 0.042895764 0.7011683
0.0040640747 0.040640742 0.69988656
0.0040430743 0.038409203 0.69861901
0.0040232595 0.036209345 0.6974231
0.0040039746 0.034033775 0.69625914
0.0039848895 0.031879097 0.69510734
0.0039659706 0.029744774 0.69396544
0.0039473544 0.027631491 0.69284183
0.0039297296 0.025543243 0.69177806
0.0039125215 0.02347514 0.69073951
0.0038954639 0.021425068 0.6897099
0.0038785541 0.019392788 0.68868935
0.0038618799 0.017378449 0.68768299
0.0047735958 0.019094378 0.74270993
0.0047526252 0.016634166 0.74144423
0.0047318381 0.014195532 0.74018961
0.0047111879 0.011777997 0.73894328
0.0046897498 0.0093794763 0.73764938
0.0046685273 0.0070027709 0.73636848
0.0046474319 0.004647404 0.73509526
0.0046256064 0.0023128092 0.733778
0.0046039848 -0 0.73247302
0.0045824805 -0.0022912323 0.73117512
0.0045591397 -0.0045591593 0.72976637
0.0045328718 -0.0067993104 0.72818089
0.0045018154 -0.0090036392 0.7263065
0.0044578966 -0.011144727 0.72365576
0.0037213839 -0.011164159 0.67920333
0.0036748522 -0.012861937 0.67639488
0.0036360235 -0.01454404 0.67405128
0.0036204746 -0.016292155 0.67311293
0.0036097656 -0.018048823 0.67246658
0.0035992751 -0.019795984 0.6718334
0.0035893861 -0.02153632 0.67123657
0.0035795516 -0.02326709 0.67064297
0.0035697578 -0.024988294 0.67005181
0.0035600425 -0.026700318 0.66946548
0.0035505062 -0.028404057 0.66888994
0.0035416351 -0.030103892 0.66835451
0.0035333941 -0.031800538 0.66785711
0.0035251917 -0.033489287 0.66736203
0.0035170272 -0.035170257 0.66686928
0.0035089126 -0.036843568 0.66637957
0.0035010804 -0.038511872 0.66590679
0.0034941735 -0.040182978 0.66548997
0.003487695 -0.041852295 0.66509891
0.0034812524 -0.043515623 0.66471004
0.0034748334 -0.04517284 0.66432267
0.0034685226 -0.046825051 0.66394174
0.0034621507 -0.04847011 0.66355717
0.0034541797 -0.050085604 0.6630761
0.0034446204 -0.0516693 0.66249913
0.0034339114 -0.053225607 0.66185278
0.0034223087 -0.054756939 0.66115254
0.0034099009 -0.056263387 0.66040367
0.003397214 -0.057752609 0.65963793
0.0033846206 -0.059230834 0.65887785
0.0033728252 -0.060710847 0.65816593
0.0033613716 -0.062185392 0.65747464
0.0033509599 -0.063668221 0.65684623
0.0033411367 -0.065152138 0.65625334
0.0033323807 -0.066647589 0.65572488
0.0033236817 -0.06813547 0.65519983
0.0033165214 -0.069646955 0.65476775
0.00331052 -0.071176201 0.65440547
0.0033060689 -0.072733507 0.6541369
0.003319503 -0.074688807 0.6549477
0.0068507576 0.08905986 0.73025113
0.006797275 0.08609882 0.72809923
0.0067462288 0.083203495 0.72604519
0.0066975853 0.080371052 0.72408795
0.0066504348 0.077588409 0.72219074
0.0066055413 0.074862808 0.72038442
0.0065617952 0.072179765 0.71862417
0.0065199556 0.069546163 0.7169407
0.0064790929 0.066950679 0.71529651
0.0064398721 0.064398736 0.71371841
0.0064014783 0.061880946 0.71217352
0.0063644839 0.05940184 0.71068501
0.0063283411 0.056955099 0.70923066
0.0062931082 0.054540277 0.70781302
0.0062591783 0.052159816 0.70644784
0.0062170005 0.049735993 0.70475066
0.0061842413 0.047412515 0.70343256
0.0061520524 0.045115054 0.70213735
0.006121994 0.042853981 0.70092797
0.0060922275 0.040614843 0.69973022
0.0060627493 0.038397431 0.69854414
0.0060335551 0.036201328 0.69736946
0.0060053132 0.034030139 0.69623309
0.0059785014 0.031885326 0.69515425
0.0059519508 0.029759765 0.69408596
0.0059256121 0.02765286 0.69302613
0.005899529 0.025564611 0.69197667
0.0072913091 0.029165268 0.7479775
0.0072595729 0.026618451 0.74670058
0.0072272415 0.024090827 0.74539965
0.007195197 0.021585613 0.74411035
0.0071624438 0.019099832 0.74279237
0.0071294461 0.016635388 0.74146467
0.0070967511 0.014193535 0.74014914
0.0070632906 0.011772156 0.73880285
0.0070296833 0.0093729496 0.73745054
0.0069963615 0.0069963932 0.73610973
0.0069610616 0.0046406984 0.73468941
0.0069221235 0.0023073554 0.73312265
0.0068764607 -0 0.73128533
0.0068139061 -0.0022712946 0.72876835
0.0056839138 -0.0037892759 0.68330097
0.0056158449 -0.0056158602 0.68056208
0.0055554053 -0.0074071884 0.67813015
0.0055223773 -0.0092039704 0.6768012
0.0055057476 -0.011011511 0.67613208
0.0054892381 -0.012808204 0.67546779
0.0054738647 -0.014596939 0.67484927
0.0054586171 -0.01637584 0.6742357
0.0054434538 -0.018144846 0.67362559
0.0054283752 -0.019904017 0.67301887
0.0054135942 -0.021654367 0.67242408
0.0053997869 -0.023399055 0.67186856
0.0053869006 -0.025138855 0.67135006
0.0053741909 -0.026870936 0.67083865
0.0053615407 -0.028594881 0.67032969
0.0053490265 -0.030311108 0.66982615
0.0053369314 -0.032021582 0.66933942
0.0053261374 -0.033732206 0.66890514
0.0053161215 -0.035440803 0.66850215
0.0053061428 -0.037143022 0.66810066
0.0052961828 -0.038838655 0.66769987
0.0052865767 -0.040530413 0.66731334
0.0052766162 -0.042212903 0.66691256
0.0052639041 -0.04386586 0.66640109
0.005248866 -0.045490175 0.66579598
0.0052320343 -0.047088295 0.66511875
0.0052138255 -0.048662394 0.66438603
0.0051943576 -0.050212145 0.66360277
0.0051747323 -0.051747322 0.66281307
0.0051552537 -0.053270966 0.66202927
0.0051373458 -0.054798365 0.66130877
0.0051200157 -0.05632019 0.66061145
0.0051039122 -0.057844311 0.65996349
0.0050893766 -0.059376061 0.65937859
0.0050758496 -0.060910195 0.65883434
0.0050623775 -0.062436 0.65829223
0.0050526303 -0.063999981 0.65790009
0.0050433446 -0.065563485 0.65752643
0.0050390949 -0.06718795 0.65735543
0.0050409907 -0.068893507 0.65743172
0.0091356775 0.091356784 0.73029137
0.0090691531 0.088424265 0.72828382
0.0090043191 0.08554107 0.7263273
0.0089430828 0.082723528 0.72447932
0.0088829491 0.079946548 0.72266459
0.0088257976 0.077225715 0.72093993
0.0087697618 0.074542969 0.71924895
0.0087160645 0.07190752 0.71762848
0.0086636208 0.069308966 0.7160458
0.0086130276 0.066750973 0.71451902
0.0085635344 0.064226538 0.71302539
0.0085155852 0.061737984 0.71157843
0.0084689939 0.059282988 0.71017241
0.0084231226 0.056856096 0.70878816
0.008379288 0.054465383 0.70746529
0.0083358735 0.052099228 0.70615518
0.0082917726 0.049750656 0.70482427
0.0082413433 0.047387719 0.70330244
0.0082008876 0.045104891 0.70208162
0.0081608277 0.042844355 0.70087266
0.0081231678 0.040615827 0.69973624
0.0080864094 0.038410425 0.69862694
0.0080499826 0.036224902 0.69752759
0.0080138817 0.034058958 0.69643819
0.0079781348 0.031912565 0.69535941
0.0098601123 0.036975443 0.7521531
0.0098153837 0.034353852 0.75080335
0.0097710583 0.031755954 0.7494657
0.0097266594 0.02917999 0.74812585
0.0096810218 0.026622832 0.74674863
0.0096357651 0.024089426 0.74538291
0.0095903315 0.021578252 0.74401176
0.0095438687 0.019087732 0.74260962
0.009497853 0.016621232 0.74122101
0.0094504943 0.014175743 0.73979181
0.0093992334 0.011749059 0.73824483
0.0093398001 0.0093398094 0.73645133
0.0092608873 0.0069456995 0.73406994
0.0077224784 0.0038612485 0.68764436
0.0076311417 0.0019077659 0.68488801
0.0075474577 -0 0.68236262
0.0074895588 -0.0018723607 0.68061531
0.0074666189 -0.0037333071 0.67992312
0.0074438471 -0.0055828691 0.67923588
0.0074222875 -0.0074222982 0.67858529
0.0074012629 -0.0092515647 0.6779508
0.0073803295 -0.01107049 0.67731911
0.007359569 -0.012879252 0.67669255
0.0073391935 -0.014678419 0.67607766
0.0073201349 -0.016470313 0.67550254
0.0073021338 -0.018255353 0.6749593
0.0072846198 -0.020032704 0.67443079
0.0072671887 -0.021801561 0.67390472
0.0072500254 -0.02356258 0.67338681
0.0072334385 -0.025317073 0.67288625
0.0072184382 -0.027069151 0.67243356
0.0072046402 -0.028818578 0.67201722
0.0071908692 -0.030561179 0.67160159
0.0071771764 -0.032297283 0.67118835
0.0071641509 -0.034029722 0.67079532
0.0071502537 -0.035751253 0.67037594
0.0071321377 -0.037443727 0.66982925
0.0071109529 -0.039110243 0.66918993
0.0070876097 -0.040753782 0.66848546
0.0070623001 -0.042373806 0.66772169
0.007035167 -0.04396978 0.66690284
0.0070081432 -0.045552909 0.66608739
0.0069817649 -0.047126919 0.66529131
0.0069571799 -0.048700273 0.66454941
0.0069338726 -0.050270557 0.66384602
0.0069117472 -0.0518381 0.66317832
0.0068926574 -0.05341807 0.66260219
0.00687405 -0.054992408 0.66204071
0.0068567405 -0.056568116 0.66151834
0.0068439152 -0.058173269 0.66113132
0.0068315808 -0.059776366 0.66075909
0.0068289465 -0.061460525 0.66067958
0.0068439152 -0.063306198 0.66113132
0.011353726 0.090829819 0.72870111
0.011276453 0.087956369 0.72683555
0.011203183 0.085144192 0.72506666
0.011131006 0.082369447 0.72332424
0.011062345 0.079648912 0.72166657
0.010994866 0.07696408 0.72003746
0.010929924 0.074323475 0.71846962
0.010866592 0.071719527 0.71694064
0.01080511 0.069152713 0.71545637
0.010745244 0.066620559 0.71401107
0.010686814 0.064120919 0.71260041
0.010630369 0.061656147 0.71123779
0.010574653 0.059218049 0.70989263
0.010521065 0.056813747 0.70859891
0.010468413 0.05443576 0.70732778
0.010416675 0.052083373 0.70607871
0.010367078 0.049761981 0.70488131
0.010303375 0.047395527 0.70334345
0.010256069 0.045126677 0.70220131
0.010209194 0.042878628 0.70106971
0.010162746 0.040650994 0.69994831
0.012558199 0.047721177 0.75777966
0.012501532 0.0450055 0.75641167
0.012444013 0.042309672 0.75502294
0.01238702 0.03963846 0.75364703
0.01232836 0.036985099 0.75223088
0.012269651 0.034355044 0.75081348
0.012211557 0.031750083 0.74941099
0.012151473 0.02916351 0.74796045
0.012091802 0.02660197 0.74651986
0.01203231 0.02406463 0.74508357
0.011967958 0.021542311 0.74353004
0.011894614 0.019031405 0.7417593
0.011803977 0.016525596 0.73957121
0.0098455111 0.011814624 0.69228953
0.0097528202 0.0097528398 0.69005185
0.0096164383 0.0076931715 0.68675929
0.0095255254 0.0057153404 0.68456441
0.0094957696 0.0037983358 0.68384606
0.0094662709 0.0018932819 0.6831339
0.0094379159 -0 0.68244934
0.0094107222 -0.0018821657 0.68179286
0.009383684 -0.0037534833 0.68114007
0.0093568014 -0.0056140721 0.68049109
0.0093304543 -0.0074643195 0.67985499
0.0093058133 -0.009305805 0.67926008
0.0092822313 -0.011138678 0.67869079
0.0092595918 -0.012963414 0.67814422
0.0092370613 -0.014779299 0.67760032
0.0092149805 -0.016586959 0.67706722
0.0091936458 -0.018387288 0.67655218
0.0091741597 -0.020183116 0.67608172
0.0091562299 -0.021974951 0.67564887
0.0091384705 -0.023760021 0.67522013
0.00912078 -0.025538146 0.674793
0.0091041839 -0.027312547 0.67439234
0.0090856357 -0.029074043 0.67394453
0.0090616783 -0.0308097 0.67336619
0.0090338318 -0.032521814 0.67269391
0.0090031745 -0.034212053 0.6719538
0.00897012 -0.035880506 0.67115581
0.0089350082 -0.037527025 0.67030811
0.0089001702 -0.039160758 0.66946709
0.0088667022 -0.040786833 0.66865909
0.0088349832 -0.04240787 0.66789329
0.0088056279 -0.044028103 0.66718459
0.0087777907 -0.045644492 0.66651255
0.0087536499 -0.047269702 0.66592968
0.0087296115 -0.048885822 0.66534936
0.0087096449 -0.05051592 0.66486728
0.0086930906 -0.052158535 0.66446769
0.0086818682 -0.053827554 0.66419673
0.0086784959 -0.055542409 0.66411537
0.013566415 0.090442806 0.7275331
0.013481854 0.08763209 0.72583187
0.01339834 0.084856182 0.72415173
0.013318749 0.08213231 0.72255045
0.013240507 0.079443067 0.72097635
0.013164795 0.076794654 0.7194531
0.013091315 0.07418412 0.71797484
0.013019439 0.071606934 0.71652883
0.012949689 0.069065034 0.71512562
0.012881347 0.066553652 0.7137506
0.012815472 0.064077377 0.71242529
0.012750538 0.061627626 0.71111894
0.012687491 0.059208304 0.70985055
0.012626181 0.0568178 0.70861709
0.012565513 0.054450572 0.70739651
0.012507353 0.05211401 0.70622641
0.012450038 0.049800128 0.70507336
0.012374907 0.047437161 0.7035619
0.015291361 0.056068331 0.76223636
0.015219655 0.05326882 0.76079369
0.015148617 0.050495416 0.7593646
0.015076952 0.047743678 0.75792277
0.015003864 0.04501164 0.75645232
0.014931403 0.042305648 0.75499463
0.014857803 0.039620817 0.75351387
0.014783469 0.036958694 0.75201833
0.014709802 0.034322888 0.75053626
0.014631586 0.031701773 0.7489627
0.014544399 0.029088795 0.7472086
0.014440856 0.026474893 0.74512553
0.014294673 0.023824453 0.74218452
0.011925512 0.017888278 0.69452065
0.011766825 0.015689105 0.69132817
0.011634219 0.013573259 0.68866038
0.011596829 0.011596829 0.68790811
0.011560211 0.0096335411 0.6871714
0.011524356 0.0076829195 0.68645006
0.011490524 0.0057452619 0.68576938
0.011456934 0.0038190186 0.68509364
0.011423584 0.0019039214 0.68442267
0.011390816 -2.9802322e-08 0.68376344
0.011360212 -0.0018933713 0.68314779
0.011330543 -0.0037768185 0.68255085
0.011302432 -0.0056512058 0.68198526
0.011274461 -0.0075162947 0.68142259
0.011247133 -0.009372592 0.68087274
0.011220817 -0.011220813 0.68034327
0.011196628 -0.013062745 0.67985666
0.011174167 -0.014898896 0.6794048
0.011152084 -0.016728103 0.67896056
0.011130501 -0.018550843 0.67852634
0.011109906 -0.020368159 0.67811197
0.01108607 -0.022172153 0.67763245
0.011055696 -0.023954004 0.67702132
0.01102051 -0.025714487 0.6763134
0.010981929 -0.027454823 0.67553735
0.010940349 -0.029174268 0.6747008
0.010896826 -0.030874342 0.67382514
0.01085365 -0.032560915 0.67295647
0.010812916 -0.034240931 0.67213702
0.010773685 -0.035912275 0.67134774
0.010738079 -0.037583232 0.67063135
0.010705072 -0.039251924 0.66996735
0.010675116 -0.040921271 0.66936469
0.010645324 -0.04258132 0.66876531
0.010623514 -0.044264615 0.66832656
0.01060299 -0.04594627 0.66791356
0.010594908 -0.0476771 0.66775101
0.010606961 -0.049499154 0.66799355
0.015782766 0.090187222 0.726762
0.0156886 0.087407887 0.72513819
0.015598537 0.084677786 0.72358507
0.015510191 0.081982434 0.72206163
0.015424265 0.079324812 0.7205798
0.015340966 0.07670483 0.71914339
0.015259093 0.074115604 0.7177316
0.015180063 0.071563154 0.71636873
0.015102695 0.069040895 0.7150346
0.0150274 0.066549957 0.71373618
0.014953682 0.064087212 0.71246493
0.014881632 0.061652511 0.71122247
0.014812214 0.059248865 0.71002543
0.014743443 0.05686754 0.70883954
0.014676104 0.054511249 0.70767826
0.018104019 0.064657211 0.76679051
0.018017871 0.061775595 0.76530498
0.01793254 0.058921188 0.76383352
0.017844103 0.056081474 0.76230848
0.017756263 0.05326882 0.76079369
0.017668573 0.050481647 0.75928152
0.017578479 0.047713012 0.75772792
0.017489297 0.044972479 0.75619006
0.017397301 0.042250603 0.75460362
0.017296696 0.039535314 0.75286871
0.017178269 0.036810607 0.7508266
0.017016361 0.034032732 0.7480346
0.014184456 0.026342571 0.69920015
0.014003602 0.024006188 0.6960814
0.013842659 0.021752775 0.69330597
0.013773687 0.019676685 0.69211668
0.013729361 0.017652035 0.69135231
0.013685371 0.015640438 0.69059372
0.013644481 0.013644516 0.6898886
0.013603886 0.011660516 0.68918854
0.013563585 0.009688288 0.68849355
0.013523938 0.0077279806 0.68780988
0.013486966 0.0057801306 0.68717229
0.013450658 0.0038430393 0.68654621
0.013416702 0.0019167066 0.68596065
0.013383022 -0 0.68537986
0.01335007 -0.00190714 0.68481165
0.013318444 -0.0038052499 0.68426621
0.013289235 -0.0056953728 0.68376255
0.013261862 -0.0075781941 0.68329054
0.013235201 -0.0094537139 0.68283081
0.013209545 -0.011322469 0.68238837
0.013184434 -0.013184398 0.68195534
0.013154872 -0.015034139 0.6814456
0.013117428 -0.016865253 0.68079984
0.013074241 -0.018677503 0.68005514
0.013027024 -0.020471036 0.67924088
0.012976106 -0.022244751 0.67836285
0.012923678 -0.024001122 0.67745882
0.012871625 -0.025743216 0.67656112
0.012823368 -0.027478665 0.67572904
0.01277715 -0.029204905 0.67493194
0.012734226 -0.030925959 0.67419183
0.01269619 -0.032647312 0.67353588
0.01266012 -0.034363151 0.67291391
0.012626255 -0.036074996 0.6723299
0.012601407 -0.037804216 0.6719014
0.012579004 -0.039534003 0.67151511
0.012573947 -0.041314423 0.67142785
0.018005399 0.090027004 0.72627842
0.017905205 0.087287903 0.72476661
0.017807234 0.084584385 0.7232883
0.017711265 0.081914604 0.72184026
0.017618963 0.079285324 0.72044754
0.017527772 0.076683998 0.71907163
0.017439723 0.074118823 0.71774304
0.017353684 0.071583927 0.71644479
0.017269531 0.069078147 0.71517503
0.017187739 0.066602498 0.71394086
0.017107451 0.064152926 0.71272945
0.017028851 0.06172955 0.71154344
0.016952621 0.059334189 0.71039325
0.01687821 0.05696398 0.70927042
0.016805295 0.054617226 0.70817024
0.020692337 0.064663529 0.76682121
0.020589098 0.06176728 0.76526344
0.0204829 0.058888346 0.76366103
0.020376857 0.056036383 0.762061
0.020271087 0.05321157 0.76046503
0.020156965 0.050392449 0.75874305
0.020025168 0.047559768 0.7567544
0.019849896 0.044662297 0.75410974
0.016540511 0.035148621 0.70417494
0.016331978 0.032663971 0.70102847
0.016140474 0.030263394 0.69813883
0.016030459 0.028053313 0.69647884
0.015977988 0.02596423 0.69568717
0.01592586 0.023888797 0.69490063
0.015876528 0.021830201 0.69415623
0.015828501 0.019785613 0.69343162
0.0157807 0.017753303 0.69271028
0.015733747 0.015733719 0.69200182
0.015690021 0.013728797 0.69134206
0.015646478 0.011734843 0.69068503
0.015606216 0.0097538829 0.69007754
0.015566525 0.0077832639 0.68947864
0.015527517 0.0058228076 0.6888901
0.015490262 0.0038725734 0.68832791
0.015455632 0.0019319654 0.68780535
0.015422938 -0 0.68731213
0.015391449 -0.0019239187 0.68683696
0.015361561 -0.0038403869 0.68638599
0.015331496 -0.0057492852 0.68593234
0.015295583 -0.0076478124 0.68539047
0.015250421 -0.009531498 0.68470901
0.01519848 -0.011398852 0.68392527
0.015141851 -0.013249129 0.68307084
0.015080811 -0.01508081 0.68214983
0.015018796 -0.016896158 0.68121403
0.014957734 -0.018697172 0.68029273
0.014901385 -0.020489424 0.67944247
0.014847989 -0.022271961 0.67863679
0.014797326 -0.024045676 0.6778723
0.014754402 -0.025820166 0.67722464
0.01471178 -0.027584583 0.67658162
0.014675912 -0.02935183 0.67604029
0.014646591 -0.031123996 0.67559791
0.014628446 -0.032914013 0.67532414
0.014628714 -0.03474319 0.67532808
0.020242052 0.089964718 0.72609031
0.020135071 0.087251991 0.72465551
0.020029573 0.084569305 0.72324049
0.019928612 0.08192873 0.72188646
0.019829016 0.07931608 0.7205506
0.019732136 0.076736063 0.71925122
0.019638 0.074187994 0.71798855
0.019545095 0.071665406 0.71674252
0.019455165 0.069173932 0.71553636
0.019367475 0.066710174 0.71436024
0.01928148 0.064271599 0.71320689
0.019198213 0.061860919 0.71209002
0.019116227 0.05947271 0.71099043
0.019036708 0.057110131 0.70992392
0.018958807 0.054769903 0.70887911
0.018982382 0.052728832 0.70919526
0.023125863 0.061668962 0.76476884
0.022978708 0.05872336 0.76279521
0.022801969 0.055738151 0.76042473
0.019005938 0.044347197 0.70951122
0.018814329 0.041809618 0.70694125
0.01853333 0.039125919 0.70317245
0.018371752 0.036743522 0.70100534
0.018310497 0.034586489 0.70018375
0.018249648 0.032443792 0.69936764
0.018191114 0.030318528 0.69858259
0.018134998 0.028209955 0.69782996
0.018079301 0.026114553 0.69708288
0.01802445 0.024032593 0.69634724
0.017973445 0.02196756 0.69566309
0.017922655 0.019914061 0.69498187
0.01787506 0.017875046 0.69434357
0.01782899 0.015847981 0.69372565
0.017783506 0.013831645 0.69311559
0.017740279 0.011826873 0.69253582
0.017699908 0.0098333061 0.69199431
0.01766145 0.0078495443 0.69147855
0.017624814 0.0058749318 0.69098717
0.017590391 0.0039089918 0.69052547
0.017555077 0.0019505918 0.69005179
0.017512137 -0 0.68947595
0.017458364 -0.0019398332 0.68875474
0.017396923 -0.0038659871 0.68793058
0.017330039 -0.0057766736 0.68703359
0.017257979 -0.0076702237 0.68606704
0.017185794 -0.0095476508 0.68509889
0.017115967 -0.011410624 0.68416238
0.017050318 -0.013261348 0.6832819
0.01698966 -0.01510188 0.6824683
0.016933121 -0.016933143 0.68171
0.016883222 -0.018759131 0.68104076
0.016833553 -0.020574331 0.68037456
0.016796697 -0.022395581 0.6798802
0.01676256 -0.024212569 0.67942238
0.016751211 -0.026057422 0.67927015
0.016784489 -0.027974129 0.67971653
0.022497438 0.089989722 0.72616601
0.022383111 0.087294132 0.72478592
0.022273805 0.084640443 0.72346652
0.02216625 0.082015097 0.72216827
0.022060409 0.079417497 0.72089064
0.02195885 0.076855987 0.71966469
0.02185851 0.074318916 0.71845347
0.021761162 0.071811855 0.71727836
0.021666555 0.069332987 0.7161364
0.021573417 0.066877574 0.71501207
0.021482829 0.064448476 0.71391863
0.021395013 0.062045544 0.71285856
0.021308364 0.059663415 0.71181262
0.021224756 0.057306826 0.71080339
0.021142872 0.054971457 0.70981491
0.021062771 0.052656919 0.708848
0.021039123 0.050493896 0.70856261
0.021014558 0.048333526 0.70826608
0.020836387 0.045840055 0.70611537
0.020731665 0.043536514 0.70485121
0.020661466 0.041322917 0.70400393
0.020592758 0.039126277 0.70317447
0.020528127 0.036950618 0.70239437
0.020463901 0.034788609 0.70161909
0.020400573 0.032640934 0.7008546
0.020341769 0.030512691 0.70014477
0.020283224 0.028396547 0.6994381
0.020227548 0.026295811 0.69876605
0.020174777 0.024209768 0.69812906
0.020122284 0.022134542 0.69749534
0.020072801 0.020072788 0.69689804
0.020026283 0.01802364 0.69633657
0.0199815 0.015985191 0.69579595
0.019940011 0.013958007 0.69529521
0.019900359 0.011940211 0.69481647
0.019859286 0.009929657 0.69432074
0.019808106 0.0079232752 0.69370294
0.019744948 0.0059234798 0.69294053
0.01967337 0.0039346814 0.6920765
0.019595092 0.0019595325 0.69113159
0.019511422 -0 0.69012159
