# .PCD v0.7 - Point Cloud Data file format
VERSION 0.7
FIELDS x y z
SIZE 4 4 4
TYPE F F F
COUNT 1 1 1
WIDTH 1345
HEIGHT 1
VIEWPOINT 0 0 0 1 0 0 0
POINTS 1345
DATA ascii
-0.011646495 0.042703837 0.68890733
-0.011637512 0.040731281 0.68872654
-0.011626199 0.038753986 0.68849903
-0.011606019 0.036752403 0.68809301
-0.011422845 0.034268558 0.68440783
-0.011400073 0.032300204 0.68394965
-0.011385546 0.030361474 0.68365741
-0.011377607 0.028444052 0.68349767
-0.011372263 0.026535302 0.68339014
-0.011372263 0.024639904 0.68339014
-0.011372305 0.022744656 0.68339103
-0.011375278 0.020854682 0.68345082
-0.011380841 0.018968046 0.68356276
-0.011386452 0.017079681 0.68367565
-0.011393756 0.015191734 0.68382257
-0.011404057 0.01330474 0.68402982
-0.011414375 0.011414379 0.68423748
-0.011425018 0.0095208883 0.68445152
-0.011439995 0.0076266825 0.68475282
-0.011455011 0.0057275295 0.6850549
-0.011470066 0.0038233697 0.68535781
-0.011489644 0.0019149482 0.68575168
-0.01151004 -0 0.68616205
-0.011530551 -0.001921773 0.6865747
-0.011551804 -0.0038505495 0.68700224
-0.011571128 -0.0057855844 0.68739104
-0.011587742 -0.0077251494 0.68772531
-0.011601579 -0.0096679926 0.68800366
-0.011614145 -0.011614144 0.6882565
-0.011623723 -0.01356101 0.6884492
-0.011631469 -0.015508652 0.68860507
-0.011637872 -0.01745683 0.68873388
-0.011644147 -0.019406945 0.68886006
-0.011650427 -0.021359116 0.68898642
-0.011656716 -0.023313433 0.6891129
-0.011663011 -0.025269836 0.68923956
-0.011669947 -0.027229846 0.68937916
-0.011677755 -0.029194355 0.68953615
-0.011685618 -0.031161636 0.6896944
-0.011693493 -0.03313154 0.68985283
-0.011701331 -0.035104007 0.69001055
-0.011709409 -0.037079781 0.69017303
-0.011718825 -0.039062738 0.69036251
-0.011728257 -0.041048884 0.69055223
-0.011753005 -0.043094337 0.69105011
-0.011762445 -0.045089334 0.69124001
-0.011771854 -0.047087401 0.69142926
-0.011782479 -0.049093664 0.69164312
-0.01179345 -0.051104933 0.69186383
-0.011804393 -0.053119749 0.69208395
-0.011815404 -0.055138499 0.69230545
-0.011826667 -0.057162195 0.69253206
-0.011838419 -0.059192091 0.69276851
-0.011850991 -0.061230093 0.69302148
-0.011863635 -0.063272715 0.69327587
-0.011876307 -0.065319687 0.69353074
-0.01188943 -0.067373425 0.69379473
-0.011902581 -0.069431692 0.69405931
-0.011916897 -0.071501344 0.69434732
-0.011931294 -0.073576331 0.694637
-0.011945822 -0.075656861 0.6949293
-0.011960432 -0.077742815 0.69522321
-0.011975652 -0.07983771 0.69552946
-0.011991677 -0.081943125 0.69585186
-0.012007745 -0.084054232 0.6961751
-0.012023903 -0.086171284 0.69650018
-0.01204054 -0.088297263 0.69683486
-0.012074487 -0.090558678 0.69751787
-0.010019919 0.086171329 0.69650018
-0.0099428631 0.083520085 0.69463986
-0.0098935962 0.081127465 0.69345045
-0.0098554399 0.078843504 0.69252926
-0.0098254811 0.076638758 0.69180602
-0.0098001938 0.074481487 0.69119555
-0.0097776335 0.072354466 0.69065088
-0.0097587937 0.070263296 0.69019604
-0.009741541 0.068190783 0.68977952
-0.0097261276 0.066137671 0.68940747
-0.0097129112 0.064105242 0.68908834
-0.0096996939 0.062078059 0.68876922
-0.0096893255 0.060073853 0.68851888
-0.0096793165 0.058075905 0.68827724
-0.0096694771 0.056082994 0.68803972
-0.0096620452 0.054107428 0.68786037
-0.0096546626 0.052135199 0.68768209
-0.0096472539 0.050165683 0.68750322
-0.0096359206 0.048179626 0.68722963
-0.0095074978 0.045635968 0.68412924
-0.0094652325 0.043540061 0.68310881
-0.0094464691 0.041564465 0.68265587
-0.0094387708 0.039642841 0.68247002
-0.009432259 0.037729025 0.68231279
-0.00943009 0.035834342 0.68226045
-0.00943009 0.033948332 0.68226039
-0.0094301254 0.032062411 0.68226135
-0.0094341077 0.030189157 0.68235743
-0.0094387 0.028316051 0.6824683
-0.0094432961 0.026441246 0.68257928
-0.0094505725 0.024571478 0.68275493
-0.0094590764 0.0227018 0.68296021
-0.0094675971 0.020828724 0.68316591
-0.0094774952 0.018955022 0.68340492
-0.0094898622 0.017081767 0.68370348
-0.0095022619 0.015203655 0.68400282
-0.0095152725 0.0133214 0.68431693
-0.009532094 0.011438519 0.68472308
-0.0095489398 0.0095489323 0.6851297
-0.0095660267 0.007652849 0.68554223
-0.0095832488 0.0057499409 0.68595803
-0.0095986919 0.0038394928 0.68633085
-0.0096115991 0.0019223094 0.68664241
-0.0096230228 -2.9802322e-08 0.68691826
-0.009632878 -0.0019266009 0.6871562
-0.0096401535 -0.0038560629 0.68733186
-0.0096463244 -0.0057877898 0.68748081
-0.0096515343 -0.0077212155 0.68760657
-0.0096567124 -0.0096566975 0.68773156
-0.0096618962 -0.011594266 0.68785673
-0.0096670864 -0.01353392 0.68798202
-0.0096722804 -0.015475661 0.68810737
-0.0096782297 -0.017420799 0.68825108
-0.0096847117 -0.019369423 0.68840748
-0.0096912021 -0.021320641 0.68856424
-0.0096976636 -0.023274392 0.68872023
-0.0097041707 -0.025230855 0.68887734
-0.0097110644 -0.027190953 0.68904376
-0.0097187981 -0.029156387 0.68923044
-0.0097265812 -0.031125069 0.68941838
-0.0097343782 -0.03309688 0.68960655
-0.0097421482 -0.035071731 0.68979418
-0.0097499695 -0.03704989 0.68998301
-0.0097589828 -0.039035916 0.69020063
-0.009768052 -0.041025817 0.69041955
-0.0097898776 -0.043075472 0.69094652
-0.0097989272 -0.045075059 0.69116491
-0.0098080318 -0.04707855 0.69138473
-0.0098180398 -0.049090177 0.69162631
-0.009828453 -0.051107973 0.69187778
-0.0098388894 -0.053130001 0.69212973
-0.009849309 -0.055156142 0.69238126
-0.0098599847 -0.057187915 0.69263899
-0.0098710721 -0.059226453 0.69290668
-0.009882926 -0.061274141 0.69319284
-0.0098947696 -0.063326508 0.69347876
-0.0099067204 -0.065384358 0.69376731
-0.0099187782 -0.067447662 0.69405842
-0.0099314172 -0.069519907 0.69436353
-0.009944642 -0.071601391 0.69468278
-0.0099579021 -0.073688507 0.69500297
-0.0099712778 -0.075781703 0.69532585
-0.0099849673 -0.077882737 0.69565642
-0.0099995341 -0.079996288 0.69600803
-0.010014184 -0.082116336 0.69636178
-0.010028876 -0.084242553 0.69671643
-0.010044137 -0.086379558 0.69708484
-0.010060172 -0.088529468 0.69747192
-0.010088122 -0.090793118 0.6981467
-0.0078614345 0.090406537 0.69183767
-0.0078350296 0.088144094 0.69104081
-0.0078117577 0.085929364 0.69033855
-0.0077938708 0.083784103 0.68979877
-0.0077765482 0.081653774 0.68927604
-0.0077628549 0.07956928 0.6888628
-0.0077492092 0.077492088 0.68845099
-0.0077383034 0.075448453 0.68812186
-0.0077278456 0.073414564 0.68780631
-0.0077181607 0.071393013 0.68751395
-0.0077101919 0.069391727 0.6872735
-0.0077022701 0.067394823 0.68703449
-0.0076952809 0.065409899 0.68682355
-0.0076893973 0.063437551 0.68664598
-0.0076835225 0.061468214 0.68646872
-0.0076768035 0.05949524 0.68626595
-0.00766704 0.057502806 0.68597138
-0.0075515579 0.054748803 0.6824863
-0.0075295973 0.052707195 0.68182361
-0.0075172954 0.050741732 0.68145239
-0.0075121033 0.048828661 0.68129575
-0.0075070038 0.04691878 0.68114179
-0.0075070038 0.045042038 0.68114179
-0.0075070038 0.043165267 0.68114179
-0.0075077359 0.041292518 0.68116391
-0.0075113703 0.039434671 0.68127358
-0.007515037 0.037575215 0.68138421
-0.0075186789 0.035713732 0.68149412
-0.0075254072 0.033864349 0.68169713
-0.0075321193 0.032011569 0.68189967
-0.0075388998 0.030155629 0.68210435
-0.0075476565 0.028303713 0.68236864
-0.0075574322 0.026450992 0.68266362
-0.0075672618 0.024593621 0.68296027
-0.0075785508 0.022735655 0.68330097
-0.0075918897 0.020877689 0.68370342
-0.0076052463 0.019013107 0.68410653
-0.0076189116 0.017142594 0.68451893
-0.0076322765 0.015264541 0.68492228
-0.00764417 0.013377339 0.68528116
-0.0076537579 0.011480629 0.68557048
-0.0076627545 0.0095784366 0.68584204
-0.0076698312 0.0076698363 0.6860556
-0.0076754787 0.0057566166 0.68622601
-0.0076801027 0.003840059 0.68636549
-0.007684201 0.0019210875 0.68648916
-0.0076883044 -0 0.68661302
-0.0076924115 -0.0019231141 0.68673694
-0.0076965233 -0.0038482249 0.68686104
-0.0077006398 -0.0057754815 0.68698525
-0.0077055912 -0.0077055693 0.68713468
-0.0077106967 -0.0096383989 0.68728882
-0.0077158394 -0.011573762 0.68744397
-0.0077209892 -0.013511717 0.68759936
-0.0077261156 -0.015452236 0.68775409
-0.0077317567 -0.01739645 0.68792433
-0.0077379146 -0.019344777 0.68811017
-0.007744052 -0.021296173 0.68829536
-0.0077502299 -0.023250699 0.68848181
-0.0077564172 -0.025208354 0.68866849
-0.007762704 -0.027169466 0.68885827
-0.0077698771 -0.029137045 0.68907464
-0.0077770627 -0.031108201 0.68929154
-0.0077842609 -0.033083111 0.6895088
-0.0077914735 -0.035061598 0.68972647
-0.0077986992 -0.03704384 0.68994451
-0.00780673 -0.039033622 0.69018686
-0.0078149913 -0.041028708 0.69043612
-0.0078334967 -0.043084234 0.69099456
-0.0078417826 -0.045090228 0.69124466
-0.0078500565 -0.047100335 0.69149435
-0.0078590885 -0.049119323 0.69176692
-0.0078684501 -0.051144928 0.69204938
-0.0078778341 -0.05317536 0.69233257
-0.0078872722 -0.055210888 0.69261742
-0.0078967633 -0.057251543 0.69290388
-0.0079068718 -0.059301525 0.69320887
-0.0079173502 -0.061359465 0.69352508
-0.0079279188 -0.063423365 0.69384402
-0.0079385163 -0.065492749 0.6941638
-0.0079492675 -0.067568779 0.69448829
-0.0079608401 -0.069657326 0.69483757
-0.0079724463 -0.071752042 0.69518781
-0.0079842461 -0.073854268 0.69554389
-0.0079961438 -0.075963348 0.69590294
-0.0080088787 -0.078086585 0.69628727
-0.0080216229 -0.080216229 0.69667184
-0.0080344379 -0.082352996 0.69705856
-0.0080478778 -0.084502727 0.69746411
-0.0080618495 -0.086664885 0.69788575
-0.0080758706 -0.088834599 0.69830889
-0.0081017287 -0.091144428 0.69908917
-0.0057893796 0.088770479 0.68754458
-0.0057799271 0.08669889 0.68716425
-0.0057721483 0.084658206 0.6868512
-0.0057643685 0.082622647 0.68653822
-0.0057579339 0.08061108 0.6862793
-0.005752021 0.078610957 0.68604136
-0.0057461415 0.076615244 0.68580484
-0.0057415483 0.074640125 0.68561995
-0.0057371808 0.072670966 0.68544424
-0.0057328208 0.070704788 0.68526882
-0.0057266532 0.068719864 0.68502063
-0.0057150321 0.066675365 0.68455309
-0.0056266654 0.063768864 0.68099743
-0.0056156348 0.061772019 0.68055362
-0.0056090457 0.059829831 0.68028855
-0.0056051919 0.057920337 0.6801334
-0.0056027235 0.056027263 0.6800341
-0.0056027235 0.054159671 0.68003416
-0.0056027235 0.052292079 0.6800341
-0.0056041456 0.050437301 0.68009138
-0.0056068674 0.048592836 0.68020082
-0.0056095696 0.046746433 0.68030959
-0.0056130099 0.044904083 0.68044806
-0.0056179888 0.04307127 0.68064833
-0.0056229974 0.041235358 0.68084985
-0.0056280149 0.039396107 0.68105173
-0.0056351987 0.037567973 0.68134081
-0.0056424853 0.035735756 0.68163401
-0.0056497911 0.033898711 0.68192798
-0.0056588859 0.03206706 0.68229389
-0.0056688022 0.030233592 0.68269289
-0.005678731 0.028393656 0.68309242
-0.0056889327 0.026548356 0.68350291
-0.0056986944 0.024694324 0.68389571
-0.00570708 0.022828311 0.68423307
-0.0057139006 0.020950943 0.68450755
-0.005720499 0.019068331 0.68477303
-0.0057252338 0.017175704 0.68496352
-0.0057293638 0.01527828 0.68512976
-0.0057326239 0.013376117 0.68526089
-0.0057356684 0.011471391 0.68538344
-0.0057387166 0.0095645189 0.68550611
-0.0057417676 0.0076556802 0.68562883
-0.0057448219 0.0057448447 0.68575168
-0.0057479017 0.003831923 0.68587559
-0.0057516904 0.001917243 0.68602806
-0.0057555051 -0 0.68618155
-0.0057593258 -0.0019197762 0.68633527
-0.0057631284 -0.0038420558 0.68648833
-0.0057669594 -0.005766958 0.68664241
-0.0057712612 -0.0076949894 0.6868155
-0.0057758354 -0.0096263885 0.68699956
-0.0057804175 -0.011560827 0.68718398
-0.0057849837 -0.013498336 0.68736774
-0.0057895808 -0.015438884 0.68755263
-0.005794385 -0.017383158 0.68774605
-0.0057997131 -0.019332349 0.68796039
-0.0058050514 -0.021285176 0.6881752
-0.0058103772 -0.02324152 0.68838942
-0.0058157346 -0.025201499 0.68860507
-0.0058211028 -0.027165174 0.68882102
-0.005827181 -0.029135913 0.68906558
-0.005833318 -0.031111032 0.68931246
-0.0058394675 -0.033090323 0.68955994
-0.0058456077 -0.035073638 0.689807
-0.0058517838 -0.037061274 0.69005549
-0.0058584753 -0.03905651 0.69032478
-0.0058654342 -0.041058034 0.69060481
-0.0058796788 -0.043117642 0.69117796
-0.0058871736 -0.045134991 0.69147944
-0.0058941771 -0.047153383 0.69176131
-0.0059017325 -0.049181074 0.6920653
-0.0059095626 -0.051216215 0.69238037
-0.0059174132 -0.05325672 0.69269621
-0.0059253084 -0.055302858 0.69301391
-0.0059332242 -0.05735448 0.69333243
-0.0059418199 -0.059418201 0.69367826
-0.0059505352 -0.061488837 0.69402897
-0.0059593236 -0.063566118 0.69438255
-0.0059681372 -0.065649509 0.69473726
-0.0059774774 -0.067744762 0.69511306
-0.0059869424 -0.069847643 0.69549394
-0.0059966766 -0.071960121 0.6958856
-0.0060064909 -0.07408008 0.69628048
-0.0060168435 -0.07621336 0.696697
-0.0060272324 -0.078354031 0.69711506
-0.0060378262 -0.080504358 0.6975413
-0.0060489704 -0.082669258 0.69798964
-0.0060604 -0.084845603 0.69844961
-0.0060718725 -0.087030157 0.69891119
-0.0060837087 -0.089227706 0.69938743
-0.0061109033 -0.091663584 0.70048165
-0.0038144798 0.08773306 0.68482214
-0.0038108341 0.085743785 0.68460202
-0.0038079629 0.083775192 0.68442881
-0.0038050814 0.081809282 0.68425488
-0.0038021032 0.079844207 0.68407512
-0.0037973423 0.077845484 0.68378776
-0.0037452839 0.074905694 0.68064576
-0.0037302203 0.072739303 0.67973661
-0.0037229345 0.070735782 0.67929685
-0.0037202633 0.068824917 0.67913568
-0.003717734 0.066919237 0.67898303
-0.0037169745 0.065047085 0.6789372
-0.0037169745 0.063188583 0.6789372
-0.0037169745 0.06133005 0.6789372
-0.0037185077 0.059496135 0.6790297
-0.0037203049 0.057664722 0.67913818
-0.0037220898 0.055831343 0.67924589
-0.003724819 0.054009885 0.67941064
-0.0037281218 0.052193731 0.67960995
-0.0037314303 0.050374359 0.67980963
-0.0037351211 0.048556596 0.68003237
-0.0037399228 0.046749026 0.68032229
-0.003744737 0.044936866 0.6806128
-0.0037495641 0.043119967 0.68090415
-0.0037560517 0.041316599 0.68129569
-0.0037626047 0.039507359 0.68169123
-0.0037691805 0.037691802 0.68208814
-0.003775822 0.035870314 0.68248898
-0.0037822148 0.034039944 0.6828748
-0.0037873108 0.032192141 0.68318236
-0.003791817 0.030334592 0.68345428
-0.0037959593 0.028469712 0.68370438
-0.0037988701 0.026592106 0.68388003
-0.0038015544 0.024710119 0.68404204
-0.0038036206 0.022821724 0.68416679
-0.0038056313 0.020930976 0.68428808
-0.0038076439 0.0190382 0.68440956
-0.003809659 0.017143488 0.68453121
-0.0038116761 0.015246749 0.68465292
-0.0038138113 0.013348341 0.68478179
-0.0038163129 0.01144895 0.68493277
-0.0038188177 0.0095470548 0.68508399
-0.0038213406 0.0076426864 0.68523622
-0.0038238666 0.0057357848 0.68538868
-0.0038263816 0.0038263798 0.68554044
-0.0038293246 0.0019146502 0.68571812
-0.0038323307 -2.9802322e-08 0.68589956
-0.0038353566 -0.0019176602 0.68608218
-0.0038383871 -0.0038383901 0.68626511
-0.0038414076 -0.0057621002 0.68644738
-0.0038446544 -0.0076892972 0.68664336
-0.0038481732 -0.0096204281 0.68685567
-0.0038516982 -0.011555076 0.68706846
-0.0038552296 -0.013493299 0.68728167
-0.0038587679 -0.01543507 0.68749517
-0.0038623272 -0.017380446 0.68770999
-0.0038663712 -0.019331843 0.68795401
-0.0038704237 -0.021287322 0.68819869
-0.0038744847 -0.023246914 0.68844378
-0.0038785541 -0.025210619 0.68868941
-0.0038826321 -0.027178437 0.68893552
-0.0038870964 -0.029153198 0.68920493
-0.0038916767 -0.031133413 0.68948138
-0.003896283 -0.033118397 0.68975937
-0.0039009 -0.035108089 0.69003803
-0.0039055282 -0.037102491 0.69031739
-0.0039104577 -0.039104551 0.69061488
-0.0039156447 -0.041114271 0.69092798
-0.0039208303 -0.043129116 0.69124097
-0.0039313198 -0.045210153 0.69187403
-0.003936531 -0.04723838 0.69218862
-0.0039422377 -0.049277961 0.69253302
-0.0039480235 -0.051324308 0.69288218
-0.0039538261 -0.053376675 0.69323248
-0.0039596618 -0.0554353 0.69358468
-0.0039657191 -0.057502925 0.69395024
-0.0039720624 -0.059580952 0.69433308
-0.0039785211 -0.061667085 0.69472289
-0.0039850012 -0.063759983 0.69511396
-0.0039917091 -0.065863192 0.69551885
-0.0039985832 -0.067975879 0.69593376
-0.0040057218 -0.070100129 0.69636464
-0.0040129502 -0.072233081 0.69680089
-0.004020479 -0.074378848 0.69725537
-0.004028053 -0.07653299 0.69771248
-0.0040359483 -0.078700989 0.69818896
-0.004044136 -0.080882698 0.69868314
-0.0040524225 -0.083074629 0.69918323
-0.0040607764 -0.085276306 0.69968742
-0.0040698266 -0.087501273 0.7002337
-0.0040789335 -0.089736536 0.70078337
-0.0041066869 -0.092400461 0.70245838
-0.0018885451 0.086873084 0.68256545
-0.0018594335 0.08367452 0.6790514
-0.0018547809 0.081610352 0.67848974
-0.0018519456 0.079633683 0.67814755
-0.0018506852 0.077728808 0.67799538
-0.0018494881 0.075829029 0.67785096
-0.0018494881 0.073979527 0.6778509
-0.0018494881 0.072130024 0.6778509
-0.0018496523 0.070286781 0.67787069
-0.0018505416 0.068470031 0.67797804
-0.0018514248 0.066651314 0.67808467
-0.001852309 0.06483081 0.67819142
-0.0018539012 0.063032657 0.67838359
-0.0018555375 0.061232746 0.67858112
-0.0018571767 0.059429646 0.67877895
-0.0018592263 0.057635993 0.67902637
-0.0018615988 0.055847943 0.67931277
-0.0018639845 0.054055542 0.67960083
-0.0018665991 0.05226475 0.67991638
-0.0018698287 0.050485373 0.6803062
-0.0018730764 0.048700005 0.68069828
-0.0018763639 0.046909094 0.68109512
-0.001879585 0.045110017 0.68148386
-0.0018826614 0.043301225 0.68185526
-0.0018850374 0.041470796 0.68214208
-0.0018872628 0.039632499 0.68241072
-0.0018891726 0.037783474 0.68264121
-0.0018905358 0.035920173 0.68280578
-0.0018918226 0.034052849 0.68296111
-0.0018928244 0.032177985 0.6830821
-0.0018938204 0.030301094 0.68320227
-0.0018948171 0.028422266 0.68332261
-0.0018958151 0.026541412 0.68344307
-0.001896814 0.024658591 0.68356359
-0.0018979221 0.022775084 0.6836974
-0.0018991684 0.020890862 0.68384778
-0.001900409 0.019004107 0.68399751
-0.0019016586 0.017114937 0.68414843
-0.0019029025 0.015223175 0.68429863
-0.0019041625 0.013329178 0.68445063
-0.0019056492 0.011433899 0.6846301
-0.0019071454 0.0095357597 0.68481076
-0.0019086369 0.0076345205 0.68499076
-0.0019101377 0.0057304502 0.68517196
-0.0019116411 0.0038232803 0.68535346
-0.0019132786 0.0019132793 0.68555105
-0.0019150213 -0 0.68576145
-0.0019167673 -0.0019167364 0.68597215
-0.0019185165 -0.003837049 0.68618339
-0.0019202688 -0.0057607889 0.68639487
-0.0019220687 -0.0076882839 0.68661213
-0.0019240717 -0.0096203387 0.68685389
-0.0019260788 -0.011556447 0.68709618
-0.0019280902 -0.013496608 0.68733901
-0.0019300984 -0.015440762 0.68758136
-0.0019321181 -0.017389029 0.6878252
-0.0019343514 -0.019343525 0.68809479
-0.0019366274 -0.021302879 0.68836951
-0.0019389088 -0.023266882 0.68864489
-0.0019411956 -0.025235534 0.68892097
-0.0019434878 -0.027208805 0.6891976
-0.0019459517 -0.029189289 0.68949509
-0.0019485131 -0.031176239 0.68980432
-0.0019510813 -0.033168405 0.69011426
-0.0019536638 -0.035165936 0.69042599
-0.0019562456 -0.037168682 0.69073766
-0.0019590259 -0.039180517 0.69107324
-0.0019618988 -0.041199893 0.69142008
-0.0019647721 -0.04322499 0.69176692
-0.0019703661 -0.045318425 0.69244218
-0.0019733345 -0.047360003 0.69280046
-0.0019765228 -0.049413055 0.69318533
-0.0019797212 -0.051472723 0.69357145
-0.001982938 -0.053539336 0.69395971
-0.0019861967 -0.055613488 0.69435304
-0.0019896403 -0.057699561 0.69476873
-0.0019931989 -0.059795976 0.6951983
-0.0019967782 -0.061900139 0.69563043
-0.0020004427 -0.064014167 0.6960727
-0.0020041845 -0.066138089 0.69652438
-0.0020081501 -0.068277091 0.69700313
-0.0020121476 -0.070425183 0.69748563
-0.0020162584 -0.072585315 0.69798189
-0.0020204268 -0.074755758 0.69848502
-0.0020248829 -0.076945513 0.69902289
-0.0020293917 -0.079146266 0.6995672
-0.0020339207 -0.081356853 0.70011389
-0.0020387939 -0.083590508 0.70070207
-0.0020437737 -0.085838467 0.70130324
-0.0020487781 -0.088097483 0.70190734
-0.0020541865 -0.090384185 0.70256019
0 0.086542696 0.67686665
0 0.084666491 0.6767751
0 0.082825929 0.67677504
0 0.080985308 0.6767751
0 0.079164267 0.67682987
0 0.077360243 0.67693621
0 0.075554222 0.67704183
0 0.073754072 0.67717052
0 0.071973383 0.6773659
0 0.070189476 0.67756164
0 0.068402231 0.67775685
0 0.066634536 0.67802846
0 0.064866126 0.67831314
0 0.063093156 0.67859858
0 0.061330527 0.67893887
0 0.059574455 0.67932534
0 0.057812572 0.67971396
0 0.056045204 0.68010652
0 0.05426842 0.68048686
0 0.052479953 0.68084395
0 0.05066523 0.68111038
0 0.048845917 0.68137574
0 0.047009557 0.68158031
0 0.045161307 0.68174154
0 0.043307751 0.68188947
0 0.041446477 0.68200839
0 0.039583236 0.68212748
0 0.037718087 0.68224674
0 0.035850972 0.68236601
0 0.033981889 0.68248546
0 0.032113552 0.68262398
0 0.030244142 0.68277216
0 0.028372288 0.68292052
0 0.026498139 0.68306994
0 0.024621546 0.68321955
0 0.022742987 0.68337458
0 0.02086401 0.68355322
0 0.018982023 0.68373132
0 0.017097205 0.68391049
0 0.015209347 0.68408906
0 0.013318598 0.68426883
0 0.011425912 0.68446994
0 0.0095302165 0.68467832
0 0.0076310933 0.68488711
0 0.0057284832 0.68509543
0 0.0038224757 0.68530494
0 0.0019130409 0.68552375
0 -0 0.68576324
0 -0.0019170344 0.68600321
0 -0.0038380027 0.68624377
0 -0.0057630241 0.68648475
0 -0.0076920092 0.68672621
0 -0.0096262395 0.68699604
0 -0.01156503 0.68726814
0 -0.013508379 0.68754101
0 -0.015456229 0.68781435
0 -0.017408669 0.68808848
0 -0.019367546 0.68838489
0 -0.021332264 0.68869203
0 -0.023302138 0.68899924
0 -0.025277138 0.68930709
0 -0.027257413 0.68961662
0 -0.029245883 0.68995088
0 -0.031241059 0.69029355
0 -0.033242017 0.69063711
0 -0.035248786 0.69098169
0 -0.037261605 0.69132811
0 -0.039286047 0.69171011
0 -0.041316986 0.69209331
0 -0.043354511 0.6924777
0 -0.045463085 0.69320136
0 -0.047522515 0.69361776
0 -0.049590945 0.69404417
0 -0.051666766 0.69447207
0 -0.0537498 0.69490063
0 -0.055846035 0.69535559
0 -0.057954431 0.69582963
0 -0.060071409 0.69630659
0 -0.06219846 0.69679213
0 -0.064337999 0.69729429
0 -0.066494167 0.69782698
0 -0.06866011 0.69836295
0 -0.070836484 0.69890422
0 -0.073033541 0.69948477
0 -0.075244665 0.70007992
0 -0.077467203 0.70068002
0 -0.079712063 0.70131832
0 -0.081974983 0.70197922
0 -0.084251732 0.70264876
0 -0.086560875 0.70337933
0 -0.088884681 0.70411724
0 -0.091238603 0.70490408
0.001833353 0.086167604 0.6759032
0.0018342198 0.08437413 0.67600787
0.0018355118 0.082598031 0.67616379
0.0018371157 0.080833107 0.67635739
0.0018387157 0.079064786 0.67655051
0.0018404335 0.077298224 0.67675793
0.0018427651 0.075553387 0.67703938
0.0018451029 0.07380411 0.67732155
0.0018474463 0.072050422 0.67760444
0.0018504732 0.070317984 0.67796981
0.0018536471 0.068584979 0.67835295
0.0018568389 0.066846192 0.67873818
0.0018600142 0.065100491 0.67912149
0.0018631446 0.063346922 0.67949939
0.0018658333 0.061572492 0.67982399
0.0018680207 0.059776634 0.68008798
0.0018701991 0.057976216 0.6803509
0.0018716682 0.056150079 0.68052822
0.0018729855 0.05431658 0.68068725
0.001874143 0.052475989 0.68082702
0.0018751192 0.050628215 0.68094486
0.0018760965 0.048778534 0.68106282
0.0018770748 0.046926886 0.68118095
0.0018780541 0.045073301 0.68129909
0.0018790343 0.043217778 0.68141747
0.0018802136 0.041364729 0.6815598
0.0018814368 0.039510131 0.68170744
0.0018826543 0.037653118 0.68185437
0.0018838736 0.035793573 0.68200159
0.0018851013 0.033931792 0.68214977
0.0018864161 0.032069087 0.6823085
0.0018878825 0.030206144 0.68248546
0.0018893437 0.028340131 0.68266189
0.0018908146 0.026471406 0.68283939
0.0018922876 0.024599731 0.68301725
0.0018937559 0.022725075 0.68319452
0.0018954416 0.020849854 0.68339801
0.0018971522 0.018971533 0.68360448
0.0018988656 0.017089754 0.68381131
0.0019005822 0.015204668 0.68401849
0.001902302 0.013316125 0.68422604
0.0019041263 0.01142478 0.68444628
0.0019060919 0.0095304549 0.68468356
0.0019080619 0.0076322556 0.68492138
0.0019100284 0.0057300627 0.68515873
0.0019120064 0.0038240254 0.68539751
0.0019140032 0.0019140244 0.68563855
0.0019162314 -0 0.68590748
0.001918465 -0.0019184351 0.68617713
0.0019207038 -0.0038414001 0.68644738
0.0019229478 -0.0057688355 0.68671823
0.001925197 -0.0077008009 0.68698978
0.0019276519 -0.0096382797 0.68728608
0.0019301653 -0.011580974 0.68758953
0.0019326853 -0.013528824 0.68789363
0.0019352193 -0.01548174 0.68819958
0.0019377525 -0.017439753 0.68850535
0.0019405106 -0.019405067 0.68883824
0.0019433217 -0.02137652 0.68917763
0.001946141 -0.023353696 0.68951792
0.0019489761 -0.025336683 0.68986011
0.0019518196 -0.027325481 0.69020343
0.0019549537 -0.029324293 0.69058168
0.0019580983 -0.031329542 0.69096124
0.0019612527 -0.033341289 0.69134206
0.0019644173 -0.035359472 0.69172406
0.0019677314 -0.037386924 0.69212413
0.0019712278 -0.039424509 0.69254613
0.001974744 -0.041469634 0.69297063
0.0019782654 -0.043521821 0.69339561
0.0019849124 -0.045652986 0.69419807
0.0019888019 -0.047731221 0.69466752
0.0019927148 -0.04981786 0.69513988
0.0019966429 -0.051912695 0.69561404
0.0020007945 -0.054021418 0.69611526
0.0020051643 -0.056144595 0.69664264
0.0020095455 -0.058276802 0.69717151
0.0020139778 -0.060419321 0.69770652
0.0020187232 -0.062580407 0.69827938
0.0020236135 -0.064755648 0.69886971
0.0020285444 -0.066941947 0.69946492
0.002033714 -0.069146276 0.70008892
0.0020391261 -0.07136938 0.70074224
0.0020446756 -0.073608279 0.70141208
0.0020505581 -0.075870663 0.70212221
0.0020566096 -0.078151166 0.70285273
0.0020630371 -0.080458462 0.7036286
0.0020698132 -0.082792521 0.70444649
0.0020767979 -0.085148722 0.7052896
0.0020844806 -0.087548167 0.70621693
0.0020923954 -0.089972973 0.70717239
0.0036646782 0.08611995 0.67578077
0.0036692873 0.084393591 0.67605895
0.0036739211 0.082663208 0.67633867
0.0036787428 0.080932349 0.67662966
0.0036850285 0.079228163 0.67700905
0.0036913219 0.077517778 0.67738891
0.0036976777 0.075802386 0.67777252
0.0037038638 0.074077308 0.67814589
0.0037100706 0.072346389 0.6785205
0.0037149186 0.070583463 0.6788131
0.0037192542 0.068806201 0.67907476
0.0037234193 0.067021579 0.67932618
0.0037260535 0.065205902 0.67948514
0.0037286635 0.063387305 0.67964268
0.0037308321 0.061558753 0.67977357
0.0037327665 0.059724241 0.67989033
0.0037347029 0.057887912 0.68000716
0.0037366413 0.056049645 0.68012416
0.0037385817 0.054209411 0.68024135
0.0037405519 0.052367747 0.6803602
0.0037429726 0.050530136 0.68050629
0.0037453817 0.048689991 0.68065166
0.0037477945 0.046847433 0.68079734
0.0037502241 0.045002699 0.68094397
0.0037526572 0.043155581 0.68109083
0.0037553469 0.04130885 0.68125319
0.0037582384 0.039461523 0.68142766
0.0037611478 0.037611485 0.68160325
0.003764048 0.035758436 0.68177831
0.003766967 0.033902735 0.6819545
0.0037699046 0.032044202 0.68213177
0.0037732876 0.030186325 0.68233597
0.003776677 0.028325081 0.68254054
0.0037800721 0.026460528 0.68274546
0.0037834735 0.024592549 0.68295079
0.003786881 0.022721291 0.68315643
0.003790553 0.020848095 0.68337798
0.0037944482 0.018972278 0.68361312
0.0037983512 0.017092615 0.68384868
0.003802262 0.015209049 0.68408477
0.0038061813 0.013321638 0.68432128
0.003810181 0.011430562 0.68456268
0.0038145962 0.0095364749 0.68482918
0.0038190219 0.0076380372 0.68509626
0.0038234575 0.0057352185 0.68536401
0.0038279037 0.0038278997 0.68563235
0.0038323603 0.0019161999 0.68590128
0.0038372534 -0 0.68619668
0.0038422334 -0.0019211471 0.68649721
0.0038472412 -0.0038472116 0.68679947
0.0038522468 -0.0057783425 0.6871016
0.0038572655 -0.0077145398 0.68740451
0.0038627596 -0.0096569061 0.68773603
0.0038683289 -0.011604965 0.6880722
0.0038739296 -0.013558745 0.68841022
0.0038795315 -0.015518129 0.68874836
0.0038851795 -0.017483324 0.6890893
0.0038913889 -0.019456923 0.68946403
0.0038976183 -0.0214369 0.68984008
0.0039038674 -0.023423195 0.69021714
0.0039101369 -0.025415868 0.69059557
0.0039167171 -0.027417034 0.69099277
0.0039236434 -0.02942735 0.69141078
0.0039305938 -0.031444728 0.69183028
0.0039375843 -0.033469468 0.69225216
0.0039446466 -0.035501808 0.69267845
0.0039523738 -0.037547529 0.6931448
0.0039601163 -0.039601177 0.6936121
0.0039679045 -0.041662991 0.69408214
0.0039757076 -0.043732762 0.69455302
0.003990897 -0.045895308 0.69546986
0.0039995741 -0.047994912 0.69599354
0.0040083053 -0.050103813 0.69652051
0.0040176869 -0.052229911 0.69708681
0.0040273885 -0.054369718 0.69767225
0.0040371367 -0.056519896 0.69826066
0.0040472439 -0.058685064 0.69887072
0.0040580756 -0.060871124 0.69952446
0.0040690652 -0.063070506 0.70018774
0.0040804972 -0.065287918 0.70087767
0.0040925122 -0.06752646 0.70160288
0.0041051875 -0.069788158 0.7023679
0.0041185687 -0.07207498 0.70317554
0.0041322592 -0.074380666 0.70400178
0.00414745 -0.076727808 0.70491862
0.0041628913 -0.079094946 0.70585066
0.0041803857 -0.081517518 0.7069065
0.0041988031 -0.08397606 0.70801812
0.0042193034 -0.086495727 0.70925534
0.0042430069 -0.089103162 0.71068603
0.0055132499 0.086374283 0.67643398
0.0055225599 0.084679276 0.6768086
0.005531759 0.082976401 0.67717868
0.0055409684 0.081267536 0.6775493
0.0055475007 0.079514176 0.6778121
0.0055539459 0.077755243 0.67807144
0.0055595203 0.075980127 0.67829579
0.0055633937 0.074178606 0.6784516
0.0055672731 0.072374552 0.6786077
0.0055703307 0.070557535 0.67873073
0.0055732056 0.068736225 0.67884642
0.005576083 0.066912979 0.67896223
0.005578964 0.065087944 0.67907804
0.0055818474 0.063260913 0.67919409
0.0055849212 0.06143415 0.67931783
0.0055884975 0.059610665 0.67946166
0.0055920994 0.057785064 0.67960662
0.0055956845 0.05595687 0.67975092
0.0055992748 0.054126322 0.6798954
0.0056028906 0.052293658 0.68004078
0.0056070136 0.05046311 0.68020672
0.0056113312 0.048631549 0.68038046
0.0056156348 0.046796978 0.68055362
0.005619966 0.044959754 0.68072784
0.0056243041 0.043119669 0.68090242
0.0056287539 0.041277528 0.68108153
0.0056337817 0.039436489 0.68128383
0.0056388183 0.037592113 0.68148649
0.0056438642 0.035744458 0.6816895
0.0056489194 0.033893526 0.68189287
0.0056539834 0.032039225 0.6820966
0.0056595472 0.030184269 0.68232054
0.0056653358 0.02832669 0.68255341
0.0056711147 0.026465207 0.68278593
0.005676927 0.024600029 0.68301988
0.0056827515 0.022730976 0.68325424
0.0056887819 0.020858884 0.68349683
0.005695343 0.018984437 0.68376082
0.00570192 0.017105728 0.68402547
0.0057085119 0.015222698 0.68429071
0.0057151192 0.013335288 0.6845566
0.0057217199 0.011443466 0.68482214
0.0057290792 0.0095484853 0.68511832
0.0057364795 0.0076486766 0.68541598
0.0057438994 0.0057439208 0.68571454
0.0057513379 0.0038342178 0.68601388
0.0057588178 0.0019196272 0.68631482
0.0057670036 -0 0.6866442
0.0057753017 -0.0019251108 0.6869781
0.0057836021 -0.0038557351 0.68731207
0.0057919263 -0.0057919025 0.68764704
0.0058003636 -0.0077338219 0.68798649
0.0058095679 -0.0096825957 0.68835688
0.0058188234 -0.011637628 0.68872935
0.0058281315 -0.013598979 0.68910384
0.0058374465 -0.015566528 0.68947864
0.0058472017 -0.017541587 0.68987113
0.0058575147 -0.019525051 0.69028616
0.0058678421 -0.021515429 0.69070166
0.0058782054 -0.023512781 0.69111866
0.0058886977 -0.025517672 0.69154078
0.0059001781 -0.027534187 0.69200277
0.0059116799 -0.02955839 0.69246554
0.0059232507 -0.03159067 0.69293106
0.0059348429 -0.033630759 0.69339758
0.005947635 -0.035685807 0.69391227
0.0059605306 -0.037750036 0.69443113
0.0059734816 -0.039823174 0.69495225
0.0059866798 -0.041906744 0.69548333
0.0060010883 -0.044007957 0.69606304
0.0060260952 -0.046200067 0.69706923
0.0060409121 -0.048327267 0.69766545
0.0060571469 -0.050476253 0.69831872
0.0060734688 -0.052636743 0.69897544
0.0060901018 -0.054810911 0.69964474
0.0061080186 -0.057008177 0.70036566
0.0061267912 -0.059225649 0.70112097
0.0061466107 -0.061466128 0.70191842
0.0061667366 -0.063722968 0.70272827
0.0061892648 -0.06601885 0.70363474
0.0062120096 -0.068332076 0.70454985
0.0062377723 -0.070694774 0.70558649
0.0062646121 -0.073087156 0.70666647
0.0062951138 -0.075541347 0.70789373
0.0063294615 -0.078063369 0.70927578
0.006369615 -0.080681771 0.71089143
0.0064210845 -0.083474129 0.71296239
0.0065149465 -0.086865932 0.71673918
0.0073788054 0.084856272 0.67727309
0.007383924 0.083069116 0.67742753
0.007389049 0.081279546 0.6775822
0.0073928698 0.079473346 0.67769748
0.0073966677 0.077665001 0.6778121
0.0074004689 0.075854808 0.67792684
0.0074042743 0.074042737 0.6780417
0.0074080839 0.072228819 0.67815667
0.0074123088 0.070416927 0.67828411
0.0074170614 0.068607837 0.67842752
0.007421792 0.066796124 0.67857033
0.0074265287 0.064982146 0.67871332
0.007431299 0.063166022 0.67885721
0.0074360487 0.061347425 0.67900056
0.0074416613 0.059533298 0.67916989
0.0074473647 0.057717085 0.67934209
0.0074530779 0.05589807 0.67951441
0.0074587725 0.054076105 0.67968625
0.0074645029 0.052251518 0.67985916
0.0074705486 0.050426185 0.68004167
0.0074771908 0.048601747 0.68024212
0.0074838456 0.04677403 0.68044293
0.0074905115 0.044943064 0.68064409
0.0074971896 0.043108821 0.68084562
0.0075038797 0.041271329 0.68104756
0.007511314 0.039434403 0.68127191
0.0075189611 0.037594825 0.68150264
0.007526624 0.035751492 0.68173391
0.0075343028 0.033904374 0.68196559
0.0075419964 0.03205353 0.68219781
0.0075500198 0.030200124 0.68243992
0.0075587169 0.028345168 0.68270242
0.0075673764 0.026485831 0.68296373
0.0075761131 0.024622351 0.6832273
0.0075848121 0.022754431 0.68348992
0.0075935894 0.020882368 0.6837548
0.0076033399 0.019008338 0.68404901
0.0076131155 0.017129511 0.68434399
0.0076229451 0.015245914 0.68464065
0.007632771 0.013357341 0.68493718
0.007642623 0.01146394 0.68523443
0.0076535242 0.0095668733 0.68556345
0.007664456 0.0076644719 0.68589336
0.0076754196 0.005756557 0.68622422
0.0076864441 0.0038432181 0.68655688
0.0076975897 0.0019243956 0.68689322
0.0077097761 2.9802322e-08 0.68726099
0.0077220015 -0.001930505 0.68762994
0.0077342661 -0.0038671494 0.68800008
0.0077465698 -0.0058099031 0.6883713
0.007759484 -0.0077594519 0.68876106
0.0077730757 -0.009716332 0.6891712
0.0077867145 -0.011680067 0.68958277
0.0078004319 -0.013650775 0.68999678
0.0078142593 -0.015628517 0.69041395
0.0078294203 -0.017616153 0.6908716
0.0078446111 -0.019611537 0.69132996
0.0078598913 -0.02161473 0.69179118
0.0078752004 -0.023625612 0.69225317
0.007892062 -0.02564919 0.69276196
0.0079090586 -0.027681708 0.69327486
0.0079261605 -0.029723078 0.69379097
0.0079434933 -0.031773984 0.69431406
0.0079625184 -0.033840686 0.69488817
0.0079816347 -0.035917342 0.69546509
0.0080008423 -0.038004011 0.69604474
0.0080213333 -0.040106654 0.69666302
0.008042898 -0.042225182 0.69731385
0.0080645783 -0.044355154 0.69796813
0.0081034349 -0.046594739 0.69914067
0.0081281159 -0.048768699 0.69988555
0.0081542777 -0.050964206 0.70067501
0.0081806416 -0.053174168 0.70147061
0.0082102399 -0.055419117 0.70236385
0.0082402229 -0.057681531 0.70326865
0.0082738111 -0.059985131 0.70428228
0.0083085354 -0.062314004 0.70533019
0.008348844 -0.064703524 0.70654655
0.0083930977 -0.067144781 0.70788211
0.0084444452 -0.069666654 0.70943165
0.0085096108 -0.072331727 0.71139818
0.0086127305 -0.075361371 0.71451008
0.0092080608 0.084714174 0.67690021
0.0092127742 0.082914978 0.67701399
0.0092174923 0.081113935 0.67712784
0.0092229974 0.079317749 0.67726076
0.0092288489 0.077522367 0.67740202
0.0092347432 0.07572487 0.67754436
0.0092406096 0.073924869 0.67768598
0.0092464834 0.072122574 0.67782778
0.0092525026 0.070318997 0.67797309
0.0092595574 0.068520725 0.67814338
0.0092665879 0.066719443 0.67831314
0.0092736632 0.064915657 0.67848396
0.0092807505 0.06310913 0.67865509
0.0092878137 0.061299562 0.67882562
0.0092954747 0.059491068 0.67901051
0.009303702 0.057682961 0.67920917
0.0093119442 0.055871665 0.67940813
0.0093201995 0.054057181 0.67960751
0.0093284715 0.052239448 0.67980719
0.0093367575 0.050418496 0.68000722
0.0093461396 0.048599929 0.68023372
0.0093556112 0.046778053 0.68046236
0.0093651023 0.044952482 0.68069148
0.0093745766 0.043123066 0.68092018
0.0093841059 0.041290104 0.68115026
0.0093941838 0.039455593 0.68139356
0.00940492 0.03761968 0.68165278
0.0094156805 0.035779566 0.68191254
0.0094264653 0.033935279 0.68217289
0.0094372761 0.03208676 0.6824339
0.0094482172 0.030234277 0.68269813
0.0094603281 0.02838099 0.68299043
0.0094724353 0.026522815 0.68328273
0.0094845742 0.024659902 0.68357581
0.0094967429 0.02279219 0.68386954
0.0095089795 0.02091974 0.684165
0.0095225153 0.019045055 0.68449175
0.0095360549 0.017164886 0.68481863
0.0095496681 0.015279472 0.68514729
0.0095632849 0.013388604 0.68547606
0.0095771225 0.01149258 0.68581009
0.0095922146 0.0095922351 0.68617445
0.0096073542 0.0076858997 0.68653995
0.0096225422 0.0057734847 0.68690664
0.0096377768 0.003855139 0.68727446
0.0096537685 0.0019307733 0.68766052
0.0096706357 2.9802322e-08 0.68806767
0.0096875243 -0.0019375086 0.68847549
0.0097044716 -0.0038817823 0.68888456
0.0097215921 -0.0058329403 0.68929791
0.0097403657 -0.0077922642 0.68975115
0.0097591737 -0.0097591877 0.69020522
0.0097780926 -0.011733681 0.69066197
0.0097970469 -0.013715863 0.69111955
0.0098178471 -0.015708536 0.69162172
0.0098389285 -0.01771006 0.69213068
0.009860062 -0.019720137 0.69264084
0.0098814424 -0.021739155 0.69315702
0.0099049937 -0.023771971 0.69372571
0.0099286586 -0.025814503 0.69429696
0.0099523962 -0.027866721 0.69487
0.0099776005 -0.029932797 0.6954785
0.010004292 -0.032013744 0.69612294
0.010031129 -0.034105808 0.69677079
0.010057866 -0.036208302 0.69741631
0.010081535 -0.038309842 0.69798774
0.010100299 -0.040401191 0.69844073
0.010115982 -0.042487115 0.69881934
0.010128678 -0.044566184 0.69912583
0.010247792 -0.047139823 0.70200151
0.010288841 -0.049386442 0.70299256
0.010331756 -0.051658779 0.70402861
0.010380886 -0.053980619 0.70521468
0.010434227 -0.056344837 0.70650244
0.010495818 -0.058776587 0.70798934
0.010573 -0.061323375 0.7098527
0.010689736 -0.064138412 0.71267104
0.011031119 0.084571898 0.6765269
0.011038136 0.082786024 0.67666805
0.01104512 0.080997556 0.6768086
0.011052521 0.079209745 0.67695749
0.011060868 0.077426076 0.67712539
0.01106927 0.075640023 0.67729443
0.011077643 0.07385096 0.67746288
0.01108607 0.072059482 0.67763239
0.01109451 0.070265263 0.67780221
0.011103783 0.068473339 0.67798877
0.011113565 0.066681385 0.67818558
0.011123366 0.064886302 0.67838275
0.011133184 0.06308803 0.67858028
0.011143018 0.061286569 0.67877817
0.011152954 0.059482425 0.67897809
0.011164193 0.05768168 0.67920417
0.011175456 0.055877298 0.67943072
0.01118674 0.054069251 0.67965776
0.011198048 0.052257538 0.67988527
0.01120938 0.050442189 0.68011326
0.011221488 0.048626453 0.6803568
0.011234254 0.046809405 0.68061364
0.011247048 0.044988185 0.68087113
0.011259872 0.043162823 0.6811291
0.011272726 0.041333348 0.68138766
0.011285862 0.039500535 0.68165195
0.011300221 0.037667394 0.68194079
0.011314615 0.035829604 0.68223041
0.011329046 0.033987164 0.68252075
0.011343558 0.032140046 0.68281269
0.011358193 0.030288547 0.68310714
0.011374244 0.028435618 0.68343008
0.011390384 0.026577592 0.6837548
0.011406526 0.024714142 0.68407953
0.011422714 0.022845447 0.68440521
0.011439255 0.020971984 0.68473792
0.011457197 0.019095331 0.68509889
0.011475151 0.017212719 0.68546015
0.011493207 0.015324265 0.68582344
0.011511364 0.01342991 0.6861887
0.011530374 0.01153037 0.68657118
0.011550383 0.0096253753 0.68697369
0.011570503 0.0077136755 0.68737847
0.01159065 0.0057953 0.68778378
0.011610956 0.0038703084 0.68819237
0.011633273 0.0019388795 0.68864131
0.01165563 -0 0.68909109
0.011678118 -0.0019463301 0.68954355
0.011700648 -0.0039002001 0.68999678
0.011725325 -0.0058626533 0.69049323
0.011750336 -0.0078335404 0.69099641
0.011775502 -0.0098128915 0.69150269
0.011800773 -0.011800796 0.69201118
0.011828718 -0.013800144 0.69257337
0.011856841 -0.015809149 0.69313914
0.011885099 -0.01782763 0.69370759
0.011914816 -0.019858032 0.69430548
0.011946536 -0.021901935 0.69494361
0.011978422 -0.023956835 0.69558513
0.01201029 -0.026022315 0.6962263
0.012038947 -0.028090835 0.69680279
0.01206168 -0.030154198 0.6972602
0.012080706 -0.032215178 0.69764298
0.012096039 -0.034272134 0.69795144
0.012108822 -0.036326468 0.69820857
0.012119037 -0.038376957 0.69841409
0.012130594 -0.040435314 0.69864666
0.012142124 -0.042497426 0.69887853
0.0121552 -0.044569075 0.69914168
0.012526453 -0.048018098 0.70661068
0.012615675 -0.050462723 0.70840573
0.012743881 -0.053099543 0.71098506
0.012855561 0.084479421 0.67628419
0.01286529 0.082705408 0.67645192
0.012874985 0.080928504 0.67661905
0.012884742 0.079149157 0.67678726
0.012895748 0.077374518 0.67697716
0.012907057 0.075598508 0.67717212
0.012918387 0.073819339 0.67736751
0.012929738 0.072037131 0.67756325
0.012941108 0.070251733 0.67775929
0.012952785 0.068464726 0.67796069
0.012965779 0.066681147 0.67818481
0.0129788 0.064893991 0.67840928
0.012991797 0.06310302 0.67863345
0.013004871 0.061308682 0.67885888
0.013017969 0.059510708 0.67908478
0.013032163 0.057713866 0.67932951
0.013046919 0.055915356 0.67958397
0.013061711 0.054112822 0.67983902
0.013076535 0.052306145 0.68009472
0.013091394 0.050495386 0.6803509
0.013106678 0.048681974 0.68061453
0.013123277 0.046868861 0.68090069
0.013139967 0.045051306 0.68118858
0.013156651 0.043228984 0.68147624
0.013173375 0.041402042 0.68176466
0.013190392 0.039571196 0.6820581
0.013208946 0.037739843 0.68237805
0.013227604 0.035903513 0.6826998
0.013246264 0.034061849 0.68302155
0.013264976 0.03221494 0.68334424
0.013284145 0.030363739 0.68367475
0.013304884 0.028510481 0.68403244
0.013325689 0.026651382 0.6843912
0.013346558 0.024786472 0.68475109
0.013367495 0.022915721 0.68511212
0.013389468 0.021040589 0.68549109
0.013412644 0.019160897 0.68589067
0.013435849 0.017274648 0.68629086
0.013459134 0.015381843 0.68669242
0.013482604 0.0134826 0.68709713
0.013508395 0.011578619 0.6875419
0.013534286 0.0096673071 0.68798834
0.013560223 0.0077486932 0.68843561
0.013586261 0.0058226585 0.68888462
0.013614673 0.0038899183 0.68937457
0.013643631 0.0019491017 0.68987393
0.013672657 2.9802322e-08 0.69037449
0.013701862 -0.0019573867 0.69087803
0.013734044 -0.003924042 0.69143307
0.013766541 -0.005899936 0.69199347
0.013799192 -0.0078852177 0.69255644
0.013833255 -0.0098809004 0.69314384
0.013869902 -0.011888474 0.69377583
0.013906744 -0.013906747 0.69441116
0.013943617 -0.01593557 0.69504696
0.013977225 -0.017970711 0.69562656
0.014004163 -0.020005941 0.69609106
0.014026371 -0.02204144 0.69647402
0.014044538 -0.024076343 0.6967873
0.01405959 -0.026110709 0.69704688
0.014071452 -0.028142869 0.69725144
0.014084806 -0.030181736 0.69748175
0.014098129 -0.032224298 0.69771147
0.014112444 -0.034273088 0.69795835
0.014132373 -0.036340356 0.69830197
0.014152418 -0.038413703 0.69864762
0.014176189 -0.040503353 0.69905752
0.014204591 -0.042613745 0.69954729
0.014234841 -0.044738054 0.70006895
0.014684309 0.084434777 0.67616701
0.014697142 0.082671434 0.67636073
0.014709995 0.08090502 0.67655462
0.014722873 0.079135478 0.67674893
0.014736314 0.077365637 0.67695177
0.014751032 0.075599015 0.67717379
0.014765777 0.073828876 0.6773963
0.014780553 0.072055191 0.67761922
0.014795358 0.070277959 0.67784262
0.014810193 0.068497151 0.67806649
0.014826431 0.066718936 0.67831147
0.014843144 0.064938754 0.67856371
0.014859896 0.063154548 0.67881644
0.014876684 0.06136629 0.67906976
0.01489351 0.059574038 0.67932367
0.014910987 0.057780117 0.6795873
0.014929784 0.055986673 0.67987096
0.01494863 0.054188788 0.68015534
0.014967524 0.052386314 0.68044043
0.014986521 0.050579488 0.68072701
0.015005846 0.048769027 0.68101865
0.015026914 0.046959132 0.68133658
0.015047986 0.045143992 0.68165445
0.015069116 0.043323696 0.68197334
0.015090362 0.041498482 0.68229389
0.015112125 0.039669365 0.68262231
0.015135553 0.037838876 0.68297577
0.015159111 0.036002904 0.68333125
0.015182743 0.03416115 0.68368781
0.015206448 0.032313704 0.68404555
0.015231387 0.030462772 0.68442184
0.015257571 0.028607935 0.68481696
0.015283903 0.02674678 0.68521422
0.015310268 0.024879217 0.68561202
0.015336782 0.023005158 0.68601209
0.015365984 0.021128207 0.68645275
0.015395297 0.019244105 0.68689501
0.015424661 0.01735276 0.68733811
0.01545414 0.015454173 0.68778288
0.015486186 0.013550431 0.68826646
0.015518968 0.011639237 0.68876106
0.015551888 0.0097199678 0.6892578
0.015584889 0.0077924132 0.68975574
0.015621138 0.0058579445 0.69030267
0.015657922 0.0039144754 0.69085777
0.015694881 0.0019618571 0.69141543
0.01573319 -0 0.69199342
0.015774669 -0.0019718409 0.69261932
0.015816368 -0.0039540827 0.69324845
0.015858226 -0.005946815 0.69388008
0.015896767 -0.0079483688 0.69446164
0.015927762 -0.0099548697 0.6949293
0.015953409 -0.011965066 0.6953162
0.015974546 -0.013977736 0.6956352
0.015991841 -0.015991837 0.69589621
0.016005589 -0.018006295 0.69610357
0.016020451 -0.020025551 0.69632781
0.016035596 -0.02204898 0.69655645
0.016050836 -0.024076253 0.69678628
0.016073393 -0.026119232 0.69712669
0.01609608 -0.028168142 0.697469
0.016121753 -0.030228257 0.69785631
0.016153825 -0.032307625 0.6983403
0.016186029 -0.034395307 0.69882619
0.016232369 -0.036522806 0.69952542
0.016285002 -0.038676888 0.70031965
0.016368844 -0.040922076 0.70158464
0.016536713 0.082683563 0.67639321
0.016553124 0.080926418 0.67661339
0.016569631 0.079166025 0.67683476
0.01658617 0.077402145 0.67705655
0.016604517 0.075642794 0.67730266
0.016623151 0.073880643 0.67755258
0.016641825 0.072114617 0.67780304
0.016660543 0.070344537 0.67805403
0.016679302 0.068570465 0.67830569
0.016698908 0.066795647 0.6785686
0.016719865 0.065021724 0.6788497
0.016740935 0.063243538 0.67913234
0.016761998 0.061460674 0.67941475
0.016783113 0.05967328 0.67969805
0.016804783 0.057883173 0.67998868
0.016828271 0.056094229 0.68030369
0.016851759 0.054300129 0.6806187
0.016875377 0.052501172 0.6809355
0.016898999 0.050696999 0.6812523
0.016923321 0.048889607 0.68157858
0.016949501 0.047081918 0.68192965
0.016975762 0.045268685 0.68228191
0.017002039 0.04344967 0.68263429
0.017028464 0.041625142 0.6829887
0.017056325 0.039798111 0.68336248
0.017085511 0.037967801 0.68375391
0.017114798 0.036131233 0.68414664
0.017144183 0.034288377 0.68454075
0.017173735 0.032439321 0.68493712
0.017206281 0.030588925 0.68537372
0.017238887 0.028731495 0.68581098
0.017271683 0.026867062 0.68625093
0.017304534 0.024995446 0.68669146
0.017340183 0.023120224 0.68716961
0.017376648 0.021238148 0.68765879
0.017413337 0.019348115 0.68815082
0.017450178 0.017450213 0.68864495
0.01749037 0.015547007 0.68918401
0.017531361 0.013635516 0.68973374
0.017572545 0.011715025 0.69028616
0.017614886 0.0097860396 0.69085407
0.017661104 0.0078493953 0.6914739
0.017707564 0.0059025288 0.69209701
0.017754199 0.0039454103 0.6927225
0.017797844 0.0019775331 0.69330794
0.017832801 -0 0.69377679
0.017862085 -0.0019846261 0.69416952
0.017886207 -0.0039746761 0.69449306
0.017905837 -0.0059686005 0.69475627
0.017921515 -0.0079650879 0.69496661
0.017937791 -0.0099654198 0.69518495
0.01795467 -0.011969805 0.69541132
0.017971506 -0.013977796 0.69563711
0.017995782 -0.015996248 0.69596267
0.018021058 -0.018021077 0.6963017
0.018048216 -0.020053536 0.696666
0.018083947 -0.022102624 0.69714522
0.018119821 -0.024159789 0.69762635
0.018169096 -0.026244223 0.69828725
0.018222841 -0.028346658 0.69900811
0.018306626 -0.030511051 0.70013189
0.018387089 0.082741916 0.67654973
0.018407654 0.080993682 0.67679793
0.018428331 0.079241842 0.67704761
0.018448986 0.07748577 0.67729688
0.018470781 0.075730205 0.67755997
0.018493855 0.073975444 0.6778385
0.018516989 0.072216272 0.67811775
0.018540181 0.07045269 0.67839772
0.018563431 0.068684667 0.67867833
0.018587496 0.066914976 0.67896885
0.018613288 0.065146506 0.67928022
0.018639149 0.063373148 0.67959237
0.018665155 0.061595023 0.67990625
0.018691162 0.059811711 0.68022025
0.018718012 0.058025867 0.68054432
0.018746836 0.056240529 0.68089223
0.018775748 0.054449648 0.68124127
0.018804751 0.052653342 0.68159133
0.018833842 0.050851375 0.68194252
0.018864445 0.049047559 0.68231195
0.018896578 0.047241449 0.6826998
0.018928889 0.045429349 0.68308985
0.01896124 0.043610901 0.68348032
0.018993702 0.041786164 0.68387216
0.019029459 0.039961874 0.68430382
0.019065423 0.03813085 0.68473792
0.019101525 0.036292881 0.68517369
0.019137762 0.034447968 0.68561113
0.019176783 0.032600522 0.68608212
0.019216996 0.030747175 0.6865676
0.019257303 0.02888599 0.68705416
0.019297857 0.027016997 0.68754363
