# .PCD v0.7 - Point Cloud Data file format
VERSION 0.7
FIELDS x y z
SIZE 4 4 4
TYPE F F F
COUNT 1 1 1
WIDTH 1335
HEIGHT 1
VIEWPOINT 0 0 0 1 0 0 0
POINTS 1335
DATA ascii
-0.023508677 -0.033303946 0.69107699
-0.023495706 -0.035243571 0.69094652
-0.023482749 -0.03718099 0.69081616
-0.023469716 -0.039116204 0.69068497
-0.023456788 -0.041049391 0.69055498
-0.023443872 -0.042980433 0.69042504
-0.023430973 -0.044909358 0.69029534
-0.023417998 -0.046836019 0.6901648
-0.023405125 -0.048760653 0.69003534
-0.023393821 -0.050686628 0.68992156
-0.023382887 -0.0526115 0.68981165
-0.023371963 -0.054534584 0.68970174
-0.023361051 -0.05645588 0.689592
-0.023350151 -0.058375359 0.68948233
-0.023339259 -0.060293049 0.68937272
-0.023328377 -0.06220901 0.68926328
-0.023317507 -0.064123154 0.68915391
-0.023306644 -0.066035509 0.68904465
-0.023295794 -0.067946076 0.68893552
-0.023284951 -0.069854856 0.6888265
-0.023274122 -0.071761906 0.68871754
-0.023263302 -0.073667109 0.68860865
-0.023252489 -0.075570613 0.68849987
-0.023241688 -0.077472299 0.68839127
-0.023230897 -0.079372227 0.68828267
-0.023220118 -0.081270427 0.68817425
-0.023211949 -0.083176151 0.68809211
-0.023204323 -0.085082561 0.68801546
-0.022185458 0.090758741 0.69805443
-0.022177324 0.088709265 0.6979652
-0.022169195 0.086661369 0.69787598
-0.02216116 0.08461538 0.69778782
-0.022153044 0.082570434 0.69769877
-0.022144932 0.080527008 0.69760972
-0.022136828 0.078485161 0.69752079
-0.022128727 0.076444745 0.69743192
-0.022120634 0.07440576 0.69734311
-0.022112725 0.07236892 0.69725633
-0.022105087 0.070334405 0.69717246
-0.022097455 0.068301231 0.69708872
-0.022089828 0.066269487 0.69700503
-0.022082206 0.064239174 0.69692135
-0.022074591 0.062210202 0.69683778
-0.022066979 0.060182661 0.69675428
-0.022059374 0.05815649 0.69667083
-0.022051772 0.05613181 0.69658738
-0.02204453 0.054109305 0.69650793
-0.022037556 0.052088767 0.6964314
-0.022030676 0.05006969 0.69635594
-0.022023886 0.048052132 0.69628143
-0.022017105 0.046035767 0.69620699
-0.022009004 0.044018 0.69611812
-0.021949934 0.04190439 0.69546986
-0.021941969 0.039894491 0.69538248
-0.021934014 0.037886053 0.69529516
-0.021925712 0.03587842 0.69520408
-0.021916283 0.033870608 0.69510061
-0.021906862 0.031864554 0.69499719
-0.021897363 0.029860049 0.69489294
-0.021887956 0.027857393 0.69478977
-0.021878125 0.025855988 0.69468188
-0.021867609 0.023855567 0.69456643
-0.021857101 0.021857113 0.69445115
-0.021846689 0.019860685 0.69433689
-0.021835854 0.017865688 0.69421804
-0.021824168 0.015872121 0.69408977
-0.021812577 0.01388073 0.69396251
-0.021800913 0.011891425 0.69383454
-0.021789262 0.0099042058 0.69370675
-0.021777708 0.0079191625 0.69357991
-0.021766083 0.0059362054 0.69345236
-0.021754382 0.0039553344 0.69332397
-0.021742696 0.001976639 0.6931957
-0.021730933 -0 0.69306666
-0.021719271 -0.0019744933 0.69293869
-0.021707023 -0.0039467216 0.69280428
-0.021694444 -0.0059166849 0.69266623
-0.021681797 -0.0078842938 0.69252741
-0.021669162 -0.0098495781 0.69238877
-0.021656545 -0.011812657 0.69225031
-0.021644024 -0.013773501 0.69211292
-0.02163084 -0.015731514 0.69196826
-0.021617502 -0.017687052 0.69182187
-0.021604266 -0.019640237 0.69167662
-0.021590959 -0.021590948 0.69153059
-0.021577669 -0.023539275 0.69138479
-0.021564396 -0.025485188 0.69123912
-0.02155114 -0.027428716 0.69109362
-0.0215379 -0.029369861 0.69094831
-0.021524675 -0.031308621 0.69080317
-0.0215113 -0.033244729 0.69065642
-0.021497857 -0.035178334 0.6905089
-0.021484515 -0.037109613 0.69036245
-0.021471104 -0.03903836 0.69021529
-0.021457793 -0.040964842 0.69006926
-0.021444585 -0.042889148 0.6899243
-0.021431392 -0.04481107 0.68977952
-0.021418216 -0.046730638 0.68963498
-0.021405136 -0.048648059 0.68949145
-0.021391992 -0.050562888 0.68934715
-0.021378864 -0.052475393 0.68920314
-0.021365834 -0.054385722 0.68906009
-0.021352736 -0.056293607 0.68891639
-0.021339657 -0.058199078 0.68877292
-0.021326592 -0.060102224 0.68862951
-0.021313626 -0.062003255 0.68848723
-0.021300593 -0.063901782 0.68834424
-0.021287577 -0.065797985 0.68820137
-0.021274576 -0.067691803 0.68805861
-0.021261673 -0.069583654 0.68791711
-0.021248704 -0.071472913 0.68777484
-0.021235751 -0.073359877 0.68763268
-0.021222813 -0.075244546 0.6874907
-0.021209974 -0.077127218 0.6873498
-0.021197068 -0.079007238 0.68720818
-0.021184176 -0.080885023 0.68706667
-0.021171628 -0.082761809 0.68692899
-0.02116015 -0.084640577 0.68680298
-0.020008186 0.092037618 0.69611812
-0.019985011 0.089932561 0.69583833
-0.019976234 0.087895423 0.69573236
-0.019967465 0.085860103 0.6956265
-0.019958783 0.083826929 0.69552171
-0.01995003 0.081795126 0.69541603
-0.019941283 0.079765111 0.69531053
-0.019932544 0.077736914 0.69520503
-0.019923894 0.075710803 0.69510055
-0.019915329 0.073686719 0.69499719
-0.019906852 0.071664691 0.69489485
-0.019898459 0.06964463 0.69479358
-0.019889995 0.067625999 0.69469142
-0.019881619 0.065609336 0.69459033
-0.019873168 0.063594192 0.69448829
-0.019864805 0.061580926 0.69438732
-0.019856371 0.05956915 0.69428551
-0.019847943 0.057559073 0.69418383
-0.019839758 0.05555132 0.694085
-0.019831816 0.053545892 0.6939891
-0.019823881 0.051542103 0.69389331
-0.019816108 0.049540251 0.6937995
-0.019808497 0.047540426 0.69370764
-0.019800894 0.045542061 0.69361585
-0.019753367 0.043457389 0.69304216
-0.019745728 0.041466027 0.69294995
-0.019738095 0.039476216 0.6928578
-0.019730465 0.037487894 0.69276571
-0.019722844 0.035501182 0.69267368
-0.019715229 0.0335159 0.69258177
-0.019707618 0.031532198 0.69248998
-0.019700015 0.029550046 0.69239813
-0.019692415 0.027569383 0.6923064
-0.019684823 0.025590301 0.69221473
-0.019677237 0.023612708 0.69212317
-0.019669658 0.021636635 0.69203168
-0.019662082 0.019662112 0.69194025
-0.019654514 0.017689109 0.69184887
-0.01964695 0.015717536 0.69175756
-0.019639393 0.013747603 0.69166636
-0.01963184 0.01177913 0.69157517
-0.019624297 0.0098121464 0.69148409
-0.019616757 0.0078467131 0.69139308
-0.019609837 0.0058829486 0.69130957
-0.019603152 0.0039206445 0.69122887
-0.019596472 0.0019596517 0.69114828
-0.019589797 -0 0.6910677
-0.019583128 -0.0019583106 0.69098723
-0.019576462 -0.0039152801 0.69090676
-0.019569799 -0.0058709383 0.6908263
-0.019563144 -0.0078252554 0.69074595
-0.019556491 -0.0097782314 0.69066566
-0.019549843 -0.011729896 0.69058537
-0.019543201 -0.013680249 0.69050521
-0.019536562 -0.015629232 0.69042504
-0.019529928 -0.017576903 0.69034493
-0.019523297 -0.019523293 0.690265
-0.019516673 -0.021468312 0.69018495
-0.019510053 -0.023412049 0.69010508
-0.019503435 -0.025354445 0.69002521
-0.019496825 -0.02729556 0.6899454
-0.019489989 -0.029234976 0.68986291
-0.019482931 -0.031172723 0.68977773
-0.019474892 -0.033107311 0.6896807
-0.019466862 -0.035040349 0.68958378
-0.019458838 -0.036971748 0.68948686
-0.019450819 -0.038901627 0.68939006
-0.019442806 -0.040829867 0.68929332
-0.019434802 -0.042756557 0.68919671
-0.019426804 -0.044681638 0.68910015
-0.019418662 -0.046604782 0.68900192
-0.019410223 -0.048525572 0.68889999
-0.019401193 -0.050443083 0.68879104
-0.019391192 -0.052356213 0.68867034
-0.019381128 -0.054267198 0.68854886
-0.019370923 -0.056175679 0.68842566
-0.01936073 -0.058082193 0.68830258
-0.019350547 -0.059986681 0.68817967
-0.019340299 -0.061888993 0.68805599
-0.019330138 -0.063789457 0.68793333
-0.019319987 -0.065687984 0.68781078
-0.019309847 -0.067584455 0.68768835
-0.019299718 -0.069478989 0.68756616
-0.0192896 -0.071371496 0.68744397
-0.019279417 -0.073261797 0.68732107
-0.019269319 -0.075150341 0.68719918
-0.019259231 -0.077036917 0.6870774
-0.019248562 -0.078919083 0.68694866
-0.019236945 -0.080795184 0.68680835
-0.01922534 -0.082668975 0.68666834
-0.019213749 -0.084540457 0.68652838
-0.017867614 0.091323376 0.69424367
-0.017858827 0.089294136 0.69412583
-0.017849978 0.087266535 0.69400716
-0.017841211 0.085241348 0.6938895
-0.017832449 0.083218098 0.69377202
-0.017823838 0.08119753 0.69365656
-0.017815236 0.07917881 0.69354117
-0.017806571 0.077161789 0.69342494
-0.017797984 0.075147063 0.69330978
-0.017789407 0.073134214 0.69319475
-0.017781189 0.071124792 0.69308454
-0.017772907 0.069116861 0.69297343
-0.017764704 0.067111135 0.6928634
-0.017756509 0.065107197 0.69275355
-0.017748252 0.063104898 0.69264275
-0.017740071 0.061104685 0.69253308
-0.017731898 0.05910635 0.6924234
-0.017723802 0.057110041 0.69231486
-0.017715784 0.055115759 0.69220728
-0.017707773 0.053123325 0.69209981
-0.017699769 0.051132649 0.69199252
-0.017691772 0.049143821 0.69188523
-0.017683852 0.04715693 0.69177902
-0.017675869 0.045171708 0.69167191
-0.017636964 0.043112606 0.69115013
-0.017629024 0.041134357 0.69104362
-0.017621022 0.039157808 0.69093633
-0.017613027 0.037183046 0.6908291
-0.017605109 0.035210222 0.69072288
-0.017597128 0.033239007 0.69061583
-0.017589156 0.03126961 0.69050896
-0.017581258 0.02930209 0.69040298
-0.017573299 0.02733624 0.69029623
-0.017565347 0.025372177 0.6901896
-0.017557472 0.023409963 0.69008398
-0.017549535 0.021449447 0.68997753
-0.017541673 0.019490749 0.68987209
-0.017533751 0.017533779 0.68976581
-0.01752645 0.015579045 0.68966788
-0.017519154 0.013626009 0.68957001
-0.017511796 0.011674494 0.68947136
-0.017504513 0.0097247362 0.68937367
-0.017497165 0.0077765286 0.68927515
-0.017489895 0.0058299601 0.68917757
-0.017482562 0.0038850307 0.68907928
-0.017475303 0.0019416809 0.68898189
-0.017468048 -0 0.68888462
-0.017460736 -0.0019400418 0.68878645
-0.017453494 -0.0038785338 0.68868935
-0.017446259 -0.0058154166 0.68859231
-0.017438961 -0.0077506602 0.68849444
-0.017431738 -0.0096842945 0.68839765
-0.017424453 -0.01161629 0.68829989
-0.017417243 -0.013546735 0.68820316
-0.017410038 -0.015475601 0.68810654
-0.017402772 -0.017402768 0.68800908
-0.017395578 -0.019328386 0.68791258
-0.017388392 -0.021252453 0.6878162
-0.017381143 -0.023174852 0.68771899
-0.017374571 -0.025096625 0.68763089
-0.017368004 -0.027016908 0.68754274
-0.017361442 -0.028935701 0.6874547
-0.017354885 -0.030853122 0.68736678
-0.017348332 -0.032769054 0.68727887
-0.017341785 -0.034683555 0.68719113
-0.017335244 -0.036596596 0.68710339
-0.017328706 -0.038508236 0.68701571
-0.017322173 -0.040418386 0.68692815
-0.017315647 -0.042327136 0.68684053
-0.017309124 -0.044234425 0.68675303
-0.017302606 -0.046140283 0.68666565
-0.017296094 -0.048044682 0.68657821
-0.017289586 -0.049947679 0.68649095
-0.017283082 -0.051849276 0.68640375
-0.017276585 -0.053749382 0.68631667
-0.017270092 -0.055648088 0.68622953
-0.017263602 -0.057545334 0.6861425
-0.01725712 -0.059441179 0.68605554
-0.017250642 -0.061335593 0.68596864
-0.017244894 -0.06323126 0.68589157
-0.017239152 -0.065125644 0.6858145
-0.017233411 -0.067018807 0.68573755
-0.017227676 -0.068910688 0.6856606
-0.017221943 -0.070801318 0.68558371
-0.017216215 -0.072690666 0.68550694
-0.017210491 -0.074578792 0.68543017
-0.017204771 -0.076465636 0.68535346
-0.017199052 -0.078351259 0.68527675
-0.01719334 -0.080235586 0.6852001
-0.017187631 -0.082118675 0.6851235
-0.017181925 -0.084000513 0.68504703
-0.017176224 -0.085881129 0.68497062
-0.015845796 0.093094021 0.69369251
-0.015793154 0.090810627 0.69289821
-0.015784996 0.088790625 0.69277513
-0.015776845 0.08677265 0.69265211
-0.015768765 0.084757119 0.69253021
-0.015760632 0.082743317 0.69240749
-0.015752569 0.080731899 0.6922859
-0.015744451 0.078722239 0.69216341
-0.015736405 0.076714963 0.69204199
-0.015728306 0.074709415 0.69191974
-0.015720215 0.072706014 0.69179767
-0.015712192 0.070704877 0.69167662
-0.015704241 0.068706095 0.69155663
-0.015696296 0.06670928 0.69143677
-0.01568836 0.064714462 0.69131702
-0.015680432 0.062721759 0.6911974
-0.015672512 0.060730994 0.69107783
-0.015664602 0.058742255 0.6909585
-0.015656697 0.056755513 0.69083929
-0.015648803 0.054770797 0.69072008
-0.015640914 0.052788109 0.69060105
-0.015633034 0.050807387 0.69048214
-0.015625162 0.048828661 0.69036341
-0.015617358 0.046852052 0.69024569
-0.015609684 0.044877887 0.69012988
-0.015577125 0.042837143 0.68963861
-0.015569249 0.040869296 0.68951976
-0.015561623 0.038904071 0.68940467
-0.015554186 0.0369412 0.68929249
-0.015546755 0.034980237 0.68918031
-0.015539331 0.033021092 0.68906832
-0.015531915 0.031063855 0.68895644
-0.015524506 0.029108435 0.68884462
-0.015517103 0.027154952 0.68873292
-0.015509708 0.025203258 0.68862134
-0.01550232 0.023253441 0.68850988
-0.015494999 0.021305621 0.68839937
-0.015487625 0.019359559 0.68828809
-0.015480258 0.017415285 0.68817699
-0.015472897 0.015472919 0.68806595
-0.015465544 0.013532341 0.68795496
-0.015458199 0.01159367 0.68784416
-0.015450859 0.0096568167 0.68773341
-0.015443527 0.0077217519 0.68762279
-0.015436202 0.0057885945 0.68751228
-0.015428884 0.0038572252 0.68740177
-0.015421572 0.0019277036 0.6872915
-0.015414327 -0 0.68718213
-0.015407029 -0.0019258857 0.68707204
-0.015399739 -0.0038499236 0.68696201
-0.015392455 -0.0057721436 0.6868521
-0.015385592 -0.0076927841 0.68674856
-0.015378736 -0.009611696 0.68664515
-0.015371945 -0.011528939 0.68654263
-0.0153651 -0.013444483 0.68643939
-0.01535832 -0.015358299 0.68633705
-0.015351487 -0.017270416 0.68623394
-0.015344661 -0.019180834 0.686131
-0.015337899 -0.021089613 0.68602896
-0.015331085 -0.022996664 0.68592614
-0.015324336 -0.024902076 0.68582428
-0.015317533 -0.026805669 0.68572164
-0.015310736 -0.028707623 0.68561906
-0.015304004 -0.030607998 0.68551755
-0.015297221 -0.032506585 0.68541515
-0.015290441 -0.034403503 0.68531287
-0.015283728 -0.036298871 0.68521154
-0.015276962 -0.038192362 0.68510944
-0.015270259 -0.040084451 0.68500835
-0.015263505 -0.041974634 0.68490642
-0.015256757 -0.043863147 0.68480456
-0.015250073 -0.045750201 0.68470371
-0.015243337 -0.047635436 0.68460208
-0.01523678 -0.049519539 0.68450314
-0.015230518 -0.051402986 0.68440866
-0.01522432 -0.053285152 0.6843152
-0.015218127 -0.055165708 0.68422174
-0.015211881 -0.057044536 0.68412751
-0.015205697 -0.058922052 0.68403417
-0.015199462 -0.06079784 0.68394011
-0.015193289 -0.062672317 0.68384695
-0.015187063 -0.064545035 0.68375301
-0.0151809 -0.066416442 0.68366003
-0.015174743 -0.068286359 0.68356711
-0.015168533 -0.070154458 0.68347341
-0.015162385 -0.072021306 0.6833806
-0.015156184 -0.073886395 0.68328708
-0.015150047 -0.075750232 0.68319452
-0.015143913 -0.077612534 0.68310189
-0.015137728 -0.079473078 0.68300861
-0.015131605 -0.081332386 0.68291622
-0.01512543 -0.083189875 0.68282306
-0.015119318 -0.085046142 0.68273079
-0.013769409 0.092451751 0.69204295
-0.013757564 0.090406835 0.69183868
-0.013749896 0.088392198 0.69170642
-0.013742235 0.086379766 0.69157434
-0.013734637 0.084369898 0.6914432
-0.013727047 0.082362294 0.69131237
-0.013719465 0.080356866 0.69118166
-0.013712 0.078354329 0.69105291
-0.013704703 0.076354772 0.69092709
-0.013697361 0.074357122 0.69080043
-0.013690079 0.072361857 0.69067484
-0.013682752 0.070368439 0.69054854
-0.013675486 0.068377435 0.69042325
-0.013668176 0.066388279 0.69029713
-0.013660925 0.064401478 0.69017214
-0.013653629 0.062416583 0.69004631
-0.013646395 0.060434014 0.6899215
-0.01363922 0.058453798 0.68979788
-0.013632054 0.056475669 0.68967426
-0.013624895 0.054499596 0.68955088
-0.013617744 0.05252561 0.6894275
-0.013610547 0.050553471 0.6893034
-0.013603411 0.048583627 0.68918031
-0.013596281 0.046615839 0.68905741
-0.013585155 0.044636935 0.68886554
-0.013561693 0.042622447 0.68846095
-0.013554556 0.040663689 0.68833786
-0.013547426 0.038706958 0.6882149
-0.013540302 0.036752254 0.68809211
-0.01353324 0.034799784 0.68797034
-0.013526132 0.032849193 0.68784773
-0.013519033 0.030900657 0.68772525
-0.01351194 0.028954148 0.687603
-0.013504906 0.027009815 0.6874817
-0.013497828 0.025067389 0.68735963
-0.013490757 0.023127019 0.68723774
-0.01348385 0.021188915 0.68711859
-0.013477105 0.019253016 0.6870023
-0.013470419 0.017319113 0.68688697
-0.013463686 0.015387058 0.68677086
-0.013457013 0.013457 0.68665576
-0.013450296 0.01152882 0.68653995
-0.013443585 0.0096025765 0.68642426
-0.013436931 0.0076782703 0.68630952
-0.013430233 0.0057558119 0.68619406
-0.013423593 0.0038353205 0.6860795
-0.013416909 0.0019167066 0.68596423
-0.01341023 -0 0.68584907
-0.01340361 -0.0019147992 0.68573493
-0.013396945 -0.0038277209 0.68561995
-0.013390287 -0.0057387054 0.68550515
-0.013383687 -0.0076478124 0.68539131
-0.013377042 -0.009555012 0.68527675
-0.013370403 -0.011460334 0.68516231
-0.013363822 -0.013363838 0.68504882
-0.013357196 -0.015265375 0.6849345
-0.013350578 -0.017165035 0.68482041
-0.013344017 -0.019062877 0.68470728
-0.013337411 -0.020958751 0.68459332
-0.013330812 -0.022852808 0.68447953
-0.013324269 -0.024745077 0.68436676
-0.013317937 -0.026635885 0.68425757
-0.013311711 -0.028525084 0.68415022
-0.013305491 -0.030412555 0.68404293
-0.013299277 -0.032298237 0.6839357
-0.013293069 -0.034182161 0.68382871
-0.013286916 -0.036064476 0.68372262
-0.01328072 -0.037944913 0.68361568
-0.013274528 -0.039823562 0.68350899
-0.013268342 -0.041700512 0.6834023
-0.013262163 -0.043575674 0.68329579
-0.01325599 -0.045449108 0.68318927
-0.013249822 -0.047320783 0.68308288
-0.013243659 -0.0491907 0.6829766
-0.013237502 -0.051058918 0.68287045
-0.013231351 -0.052925378 0.68276441
-0.013225206 -0.054790139 0.68265843
-0.013219067 -0.056653142 0.68255258
-0.013212933 -0.058514416 0.68244678
-0.013206805 -0.060373962 0.68234116
-0.013200683 -0.062231779 0.6822356
-0.013194566 -0.064087898 0.68213004
-0.013188506 -0.065942496 0.68202549
-0.0131824 -0.067795187 0.68192029
-0.0131763 -0.06964618 0.68181509
-0.013170453 -0.071496755 0.6817143
-0.01316476 -0.073346496 0.68161607
-0.013159023 -0.075194418 0.68151712
-0.01315329 -0.077040717 0.68141836
-0.013147612 -0.078885689 0.68132037
-0.01314189 -0.080728754 0.68122172
-0.013136221 -0.082570553 0.68112403
-0.013130509 -0.084410429 0.68102545
-0.011758022 0.092104495 0.69115102
-0.011751256 0.090092987 0.69101489
-0.011744498 0.088083774 0.69087899
-0.011737748 0.086076826 0.69074321
-0.011731006 0.084072202 0.69060755
-0.011724272 0.082069933 0.69047201
-0.011717544 0.08006987 0.6903367
-0.011710825 0.07807216 0.69020152
-0.011704114 0.076076776 0.69006652
-0.011697456 0.074083924 0.68993258
-0.01169076 0.07209301 0.68979788
-0.011684117 0.070104718 0.68966424
-0.011677436 0.068118393 0.68952984
-0.011670808 0.066134602 0.68939644
-0.011664143 0.064152777 0.68926239
-0.011657575 0.062173754 0.68913025
-0.011651152 0.060197651 0.68900096
-0.011644734 0.058223665 0.68887192
-0.011638368 0.056252122 0.68874383
-0.011631966 0.054282516 0.68861496
-0.011625568 0.052315086 0.68848634
-0.011619225 0.050349981 0.68835866
-0.011612887 0.048387021 0.68823117
-0.011606557 0.046426237 0.6881038
-0.01158345 0.044403225 0.68763894
-0.011577107 0.042449415 0.68751132
-0.011570815 0.040497869 0.68738472
-0.011564486 0.038548291 0.68725741
-0.011558208 0.036601007 0.68713111
-0.011551892 0.03465569 0.68700409
-0.011545629 0.032712638 0.68687803
-0.011539328 0.030771554 0.68675125
-0.011533077 0.028832704 0.68662554
-0.011526789 0.026895851 0.686499
-0.011520552 0.024961233 0.68637347
-0.011514277 0.023028553 0.68624735
-0.011508054 0.021098107 0.68612212
-0.011501794 0.019169658 0.68599617
-0.011495584 0.017243356 0.68587118
-0.011489336 0.015319109 0.68574554
-0.011483139 0.013397008 0.68562084
-0.011476906 0.011476934 0.68549544
-0.011470679 0.0095588863 0.68537015
-0.011464504 0.0076430142 0.68524593
-0.011458552 0.0057292879 0.68512619
-0.011452608 0.0038175285 0.68500662
-0.011446668 0.0019077659 0.68488711
-0.011440736 -0 0.68476772
-0.011434853 -0.0019057989 0.68464947
-0.011428934 -0.0038096309 0.68453026
-0.011423019 -0.0057114959 0.68441129
-0.011417111 -0.0076113939 0.68429244
-0.011411252 -0.0095093846 0.6841746
-0.011405356 -0.011405349 0.68405598
-0.011399467 -0.013299376 0.68393749
-0.011393626 -0.015191495 0.68381995
-0.011387748 -0.017081618 0.68370169
-0.011381877 -0.018969774 0.68358362
-0.01137601 -0.020856023 0.6834656
-0.011370151 -0.022740275 0.6833477
-0.011364342 -0.024622738 0.68323076
-0.011358493 -0.026503146 0.68311316
-0.011352653 -0.028381646 0.68299568
-0.011346859 -0.030258268 0.68287909
-0.011341031 -0.032132924 0.68276179
-0.011335206 -0.034005612 0.68264467
-0.011329388 -0.035876423 0.68252766
-0.011323578 -0.037745237 0.68241066
-0.011317815 -0.039612323 0.68229473
-0.0113121 -0.04147768 0.68217975
-0.011306562 -0.043341815 0.68206835
-0.011301029 -0.045204133 0.68195707
-0.011295543 -0.047064722 0.68184668
-0.011290021 -0.048923403 0.68173558
-0.011284504 -0.050780267 0.68162465
-0.011279035 -0.052635491 0.68151462
-0.011273528 -0.054488719 0.68140382
-0.011268071 -0.056340367 0.68129396
-0.011262576 -0.058189958 0.68118346
-0.011257127 -0.060037971 0.68107384
-0.011251643 -0.061884016 0.68096346
-0.011246163 -0.063728243 0.68085331
-0.011240731 -0.065570951 0.68074393
-0.011235262 -0.067411572 0.68063396
-0.011229799 -0.069250405 0.68052399
-0.011224383 -0.071087748 0.68041509
-0.011218931 -0.072923034 0.68030536
-0.011213524 -0.074756831 0.68019664
-0.011208083 -0.076588556 0.68008721
-0.011202645 -0.078418508 0.67997772
-0.011197256 -0.080247 0.67986929
-0.011191829 -0.08207342 0.6797601
-0.011186449 -0.083898365 0.67965192
-0.0098253265 0.094323158 0.69180232
-0.0097723631 0.091860205 0.69052362
-0.0097665265 0.089852065 0.69038272
-0.0097607346 0.087846637 0.69024289
-0.0097549502 0.085843563 0.69010323
-0.0097491713 0.083842903 0.68996376
-0.0097434008 0.081844568 0.68982446
-0.009737636 0.079848617 0.68968523
-0.0097318403 0.077854723 0.68954533
-0.0097260904 0.07586351 0.68940651
-0.009720346 0.073874623 0.68926781
-0.009714609 0.071888119 0.68912935
-0.0097088786 0.06990391 0.68899095
-0.0097031547 0.067922115 0.68885279
-0.0096974755 0.065942824 0.68871564
-0.0096917646 0.063965678 0.68857783
-0.0096860612 0.061990798 0.68844014
-0.0096803652 0.060018301 0.68830264
-0.0096746748 0.05804804 0.68816525
-0.009668991 0.056080163 0.68802804
-0.0096633518 0.054114789 0.68789184
-0.0096576819 0.052151471 0.68775499
-0.0096520176 0.050190508 0.68761826
-0.0096465098 0.048232555 0.68748522
-0.0096410457 0.046276987 0.68735337
-0.0096220607 0.044261485 0.68689501
-0.0096166236 0.042313129 0.68676376
-0.0096111931 0.040367007 0.68663263
-0.0096057681 0.038423061 0.68650174
-0.0096003497 0.03648138 0.68637085
-0.0095949369 0.034541786 0.6862402
-0.0095895305 0.032604426 0.68610966
-0.0095841298 0.030669212 0.68597931
-0.0095787365 0.028736204 0.68584907
-0.0095733479 0.026805371 0.68571901
-0.0095679658 0.024876714 0.68558908
-0.0095625902 0.022950202 0.68545926
-0.0095572202 0.021025896 0.68532962
-0.0095518557 0.019103736 0.6852001
-0.0095464978 0.017183721 0.68507075
-0.0095411465 0.015265852 0.68494153
-0.0095357997 0.013350129 0.68481249
-0.0095304605 0.011436552 0.68468356
-0.0095251258 0.0095251799 0.68455482
-0.0095197977 0.0076158643 0.68442619
-0.0095144762 0.0057086647 0.68429768
-0.0095091602 0.0038037002 0.68416935
-0.0095038498 0.0019007623 0.68404114
-0.009498545 -2.9802322e-08 0.68391311
-0.0094932476 -0.0018986464 0.6837852
-0.0094879549 -0.0037952065 0.68365747
-0.0094828121 -0.0056896806 0.68353331
-0.0094777104 -0.0075821579 0.68341011
-0.0094726505 -0.0094726086 0.68328792
-0.0094675608 -0.011361063 0.68316507
-0.0094625112 -0.01324755 0.68304318
-0.0094574317 -0.015131891 0.68292058
-0.0094523942 -0.017014325 0.68279892
-0.009447325 -0.018894643 0.68267649
-0.0094422977 -0.020773023 0.68255514
-0.0094372397 -0.022649348 0.68243301
-0.0094321873 -0.024523675 0.68231106
-0.0094271759 -0.026396096 0.68219006
-0.0094221346 -0.0282664 0.68206841
-0.0094171334 -0.030134857 0.68194765
-0.0094121033 -0.032001168 0.68182617
-0.0094071133 -0.033865571 0.68170571
-0.0094020925 -0.035727948 0.68158448
-0.0093971128 -0.037588447 0.68146425
-0.0093921032 -0.039446831 0.68134338
-0.0093871346 -0.041303366 0.68122339
-0.0093821352 -0.043157786 0.68110275
-0.0093771778 -0.045010418 0.68098295
-0.0093721896 -0.046860933 0.68086261
-0.0093672415 -0.048709631 0.68074316
-0.0093622636 -0.050556213 0.68062299
-0.0093573257 -0.052401006 0.68050373
-0.0093524288 -0.054244071 0.68038553
-0.0093476763 -0.056086063 0.68027079
-0.0093429293 -0.057926148 0.68015623
-0.0093381861 -0.059764385 0.68004167
-0.0093334829 -0.061600983 0.67992818
-0.009328749 -0.063435495 0.67981392
-0.0093240216 -0.065268159 0.67969972
-0.009319297 -0.067098945 0.6795857
-0.0093146134 -0.068928152 0.67947263
-0.0093099 -0.070755213 0.67935878
-0.0093051903 -0.072580457 0.67924511
-0.0093005197 -0.07440415 0.67913234
-0.0092958203 -0.076225758 0.67901891
-0.0092911245 -0.078045458 0.67890549
-0.0092864353 -0.079863325 0.67879224
-0.0092817834 -0.081679717 0.67867994
-0.0092771025 -0.083493918 0.67856693
-0.0078364098 0.094036907 0.69108248
-0.0078029861 0.091685116 0.69007385
-0.007798092 0.089678019 0.68992615
-0.0077933241 0.087674886 0.68978226
-0.0077885627 0.085674226 0.68963861
-0.0077838069 0.083675921 0.68949509
-0.0077790576 0.081680119 0.68935174
-0.0077742832 0.079686403 0.68920767
-0.0077695451 0.077695489 0.68906468
-0.0077648126 0.075706959 0.68892181
-0.0077600856 0.073720783 0.68877923
-0.0077553648 0.071737111 0.68863678
-0.0077506495 0.069755882 0.68849444
-0.0077459402 0.067776978 0.68835235
-0.0077412366 0.065800518 0.68821037
-0.0077365385 0.063826472 0.68806863
-0.0077318461 0.06185481 0.68792701
-0.0077271597 0.059885502 0.68778563
-0.0077224784 0.057918608 0.6876443
-0.0077178031 0.055954099 0.68750322
-0.0077131335 0.053991944 0.68736231
-0.0077084699 0.052032202 0.68722159
-0.0077037811 0.050074607 0.68708003
-0.0076991292 0.048119575 0.68693972
-0.0076944823 0.046166897 0.68679941
-0.0076794839 0.044157028 0.68634683
-0.007674831 0.042211592 0.68620646
-0.0076702135 0.04026863 0.6860671
-0.0076656006 0.038328022 0.68592787
-0.0076610236 0.036389887 0.68578976
-0.0076565691 0.034454554 0.6856553
-0.0076520899 0.032521427 0.68552017
-0.0076476452 0.030590564 0.68538606
-0.0076432065 0.028662026 0.68525207
-0.0076387725 0.026735693 0.68511826
-0.0076343436 0.024811655 0.68498462
-0.0076298905 0.022889674 0.68485022
-0.0076254723 0.020970047 0.68471688
-0.0076210587 0.019052655 0.68458366
-0.0076166498 0.017137438 0.68445069
-0.007612247 0.015224516 0.68431777
-0.0076078195 0.013313681 0.68418419
-0.0076034265 0.01140514 0.68405163
-0.0075990385 0.0094988346 0.68391919
-0.0075946557 0.007594645 0.68378693
-0.0075902776 0.0056927204 0.68365479
-0.0075858762 0.0037929118 0.68352199
-0.0075815083 0.0018954277 0.68339014
-0.0075771455 -2.9802322e-08 0.68325853
-0.0075727878 -0.0018931925 0.68312699
-0.0075684064 -0.0037842095 0.68299478
-0.0075640585 -0.0056730509 0.68286359
-0.0075597158 -0.0075597167 0.68273252
-0.0075553781 -0.009444207 0.68260163
-0.0075510452 -0.011326551 0.68247086
-0.0075466889 -0.013206691 0.68233943
-0.0075424514 -0.015084893 0.68221152
-0.0075382758 -0.016961128 0.68208557
-0.0075341039 -0.018835247 0.68195957
-0.0075299372 -0.020707339 0.68183386
-0.0075257751 -0.022577316 0.68170828
-0.0075216177 -0.024445236 0.68158281
-0.0075174645 -0.0263111 0.68145752
-0.0075133163 -0.028174937 0.68133229
-0.0075091724 -0.030036688 0.68120724
-0.0075050332 -0.031896383 0.68108237
-0.0075008986 -0.033754021 0.68095756
-0.0074967686 -0.035609663 0.68083298
-0.0074926424 -0.037463218 0.68070841
-0.0074885213 -0.039314717 0.68058407
-0.0074844048 -0.041164219 0.68045986
-0.007480293 -0.043011665 0.68033576
-0.0074761859 -0.044857115 0.68021178
-0.007472083 -0.046700507 0.68008798
-0.0074679842 -0.048541903 0.6799643
-0.0074638901 -0.050381213 0.67984068
-0.0074598007 -0.052218586 0.6797173
-0.0074557159 -0.054053903 0.67959404
-0.0074516349 -0.055887252 0.6794709
-0.0074475594 -0.057718575 0.67934787
-0.0074434876 -0.059547901 0.67922503
-0.0074394201 -0.061375201 0.6791023
-0.0074353581 -0.063200563 0.67897964
-0.0074314098 -0.065024823 0.67886055
-0.0074274936 -0.066847444 0.67874235
-0.007423609 -0.068668365 0.67862511
-0.0074197012 -0.070487171 0.67850727
-0.0074157971 -0.072303981 0.67838937
-0.0074119247 -0.074119255 0.67827249
-0.0074080294 -0.075932294 0.678155
-0.0074041653 -0.077743754 0.67803842
-0.007400278 -0.079553008 0.67792106
-0.0073964219 -0.081360653 0.67780471
-0.0073925424 -0.083166078 0.67768759
-0.0073886942 -0.084969968 0.67757154
-0.0058665345 0.09386453 0.69064903
-0.0058456534 0.091581911 0.68980885
-0.005841854 0.089575112 0.68965602
-0.0058380594 0.087570906 0.68950331
-0.0058342703 0.085569322 0.68935084
-0.0058304854 0.083570302 0.68919855
-0.0058267065 0.081573904 0.68904644
-0.0058229766 0.079580694 0.68889642
-0.0058193197 0.077590942 0.68874931
-0.0058156671 0.075603694 0.68860227
-0.0058119972 0.073618621 0.68845463
-0.0058083539 0.071636349 0.68830806
-0.0058047147 0.069656581 0.68816161
-0.0058010807 0.067679286 0.6880154
-0.0057974514 0.065704465 0.68786931
-0.0057938267 0.063732117 0.68772346
-0.0057902057 0.061762154 0.68757784
-0.0057865898 0.059794784 0.68743229
-0.0057829781 0.057829797 0.68728697
-0.0057793716 0.055867255 0.6871419
-0.0057757683 0.053907186 0.68699694
-0.0057721483 0.051949352 0.6868512
-0.0057685548 0.049994171 0.6867066
-0.0057649659 0.048041403 0.68656224
-0.0057613812 0.04609102 0.686418
-0.0057501257 0.044084311 0.68596512
-0.0057465592 0.042141438 0.68582165
-0.005742976 0.04020083 0.68567741
-0.0057394188 0.038262814 0.68553424
-0.0057358439 0.036327064 0.68539047
-0.0057322951 0.034393787 0.68524766
-0.0057287514 0.032462925 0.68510509
-0.00572519 0.030534327 0.6849618
-0.005721698 0.028608471 0.68482125
-0.0057182545 0.026685178 0.68468273
-0.0057148361 0.02476427 0.68454516
-0.0057114009 0.022845626 0.68440694
-0.0057079913 0.020929277 0.68426979
-0.0057045855 0.019015282 0.6841327
-0.0057011624 0.017103523 0.68399501
-0.0056977645 0.015194029 0.68385828
-0.0056943707 0.013286889 0.68372172
-0.0056909597 0.011381894 0.68358445
-0.0056875749 0.0094793141 0.68344826
-0.0056841718 0.0075789094 0.68331128
-0.0056807944 0.0056807995 0.68317544
-0.0056774211 0.0037849844 0.68303967
-0.0056740302 0.0018913746 0.68290329
-0.0056706648 -2.9802322e-08 0.68276793
-0.0056673032 -0.0018891096 0.68263257
-0.0056639253 -0.0037759542 0.68249667
-0.0056605716 -0.0056605637 0.68236172
-0.0056572221 -0.007542938 0.68222696
-0.0056538554 -0.0094230771 0.68209147
-0.0056505143 -0.011301041 0.68195701
-0.0056471769 -0.013176709 0.68182278
-0.0056438218 -0.015050203 0.68168777
-0.0056404928 -0.01692149 0.68155384
-0.0056371666 -0.018790573 0.68141997
-0.005633824 -0.020657331 0.6812855
-0.0056305486 -0.022522211 0.68115371
-0.0056273397 -0.024385124 0.68102455
-0.0056241141 -0.026245862 0.68089479
-0.0056209126 -0.028104544 0.68076599
-0.0056177154 -0.029961139 0.6806373
-0.0056145214 -0.031815648 0.68050879
-0.0056113107 -0.033667862 0.68037963
-0.0056081237 -0.03551811 0.68025136
-0.0056049409 -0.037366271 0.68012333
-0.0056017614 -0.039212346 0.67999542
-0.0055985651 -0.041056156 0.67986673
-0.0055953925 -0.042897999 0.67973912
-0.0055922242 -0.044737756 0.67961162
-0.0055890591 -0.046575487 0.67948431
-0.0055858772 -0.048410922 0.67935628
-0.0055827196 -0.05024448 0.6792292
-0.0055795652 -0.052075952 0.6791023
-0.005576394 -0.053905129 0.67897469
-0.0055732471 -0.055732459 0.67884809
-0.0055701034 -0.057557732 0.67872155
-0.0055669635 -0.059380919 0.67859519
-0.0055638063 -0.06120187 0.67846823
-0.0055606733 -0.063020974 0.67834222
-0.0055575445 -0.064838022 0.67821622
-0.0055544185 -0.066653013 0.67809051
-0.0055512758 -0.068465739 0.67796397
-0.0055481568 -0.070276678 0.67783856
-0.0055450415 -0.072085559 0.67771316
-0.005542032 -0.073893756 0.6775921
-0.0055390261 -0.075700045 0.6774711
-0.0055360231 -0.077504352 0.67735028
-0.0055330233 -0.079306632 0.67722958
-0.0055300267 -0.081107065 0.677109
-0.0055270335 -0.082905531 0.6769886
-0.0055240435 -0.08470197 0.67686826
-0.0039075869 0.093782067 0.69044167
-0.0038952515 0.091538459 0.68969715
-0.0038926455 0.089530855 0.68953985
-0.0038900427 0.087525964 0.68938279
-0.0038874438 0.085523784 0.68922591
-0.003884848 0.083524257 0.68906921
-0.0038822556 0.081527382 0.68891275
-0.003879667 0.07953319 0.68875653
-0.0038770817 0.077541649 0.68860048
-0.0038744996 0.075552732 0.68844467
-0.003871921 0.073566526 0.68828905
-0.0038693612 0.071583211 0.68813449
-0.0038668641 0.069603592 0.68798375
-0.0038643708 0.067626506 0.68783331
-0.0038618799 0.065651983 0.68768299
-0.0038593928 0.063679963 0.6875329
-0.0038569088 0.061710566 0.68738294
-0.0038544277 0.059743613 0.68723321
-0.0038519499 0.057779253 0.68708366
-0.0038494756 0.055817395 0.68693435
-0.0038470044 0.053858072 0.68678516
-0.0038445361 0.051901221 0.68663621
-0.0038420712 0.049946934 0.68648744
-0.0038396092 0.04799512 0.68633884
-0.0038371505 0.04604584 0.68619043
-0.0038296175 0.04404062 0.68573582
-0.0038271719 0.04209891 0.68558812
-0.0038247141 0.040159494 0.68543988
-0.0038222747 0.03822276 0.6852926
-0.0038198235 0.036288351 0.68514466
-0.0038173902 0.034356534 0.6849978
-0.0038149597 0.032427192 0.68485111
-0.0038125182 0.030500144 0.68470377
-0.0038100937 0.028575689 0.68455744
-0.0038076583 0.026653647 0.68441045
-0.0038052404 0.02473405 0.68426448
-0.0038028113 0.022816896 0.68411785
-0.0038004718 0.020902604 0.68397671
-0.0037981204 0.018990606 0.68383479
-0.0037957865 0.017081052 0.68369395
-0.0037934412 0.015173763 0.68355232
-0.0037911132 0.013268918 0.68341184
-0.0037887876 0.011366397 0.68327153
-0.0037864512 0.0094661415 0.6831305
-0.0037841313 0.0075682402 0.68299043
-0.0037818006 0.0056726933 0.68284982
-0.0037794868 0.0037795007 0.68271011
-0.0037771612 0.001888603 0.68256974
-0.0037748532 -0 0.68243045
-0.0037725479 -0.0018862784 0.68229139
-0.0037702313 -0.0037702322 0.68215156
-0.0037679316 -0.0056518912 0.68201274
-0.0037656205 -0.0075312257 0.6818732
-0.0037633262 -0.0094082952 0.68173474
-0.0037610349 -0.0112831 0.68159646
-0.0037587322 -0.01315555 0.68145746
-0.0037564465 -0.015025765 0.68131953
-0.0037541497 -0.016893655 0.68118089
-0.0037518693 -0.01875934 0.68104327
-0.003749592 -0.02062276 0.68090582
-0.0037473033 -0.022483796 0.68076771
-0.0037450315 -0.024342716 0.68063056
-0.0037427486 -0.026199251 0.68049276
-0.003740482 -0.028053612 0.68035603
-0.0037382743 -0.029906183 0.68022275
-0.0037360834 -0.031756729 0.68009049
-0.0037338806 -0.03360492 0.67995757
-0.0037316945 -0.035451084 0.6798256
-0.0037294971 -0.037294984 0.67969298
-0.0037273164 -0.039136797 0.67956138
-0.0037251378 -0.040976495 0.67942989
-0.0037229485 -0.042813927 0.67929775
-0.0037207752 -0.044649303 0.67916662
-0.0037186043 -0.046482563 0.67903554
-0.0037164222 -0.048313528 0.67890388
-0.0037142569 -0.050142467 0.67877316
-0.0037120937 -0.05196929 0.67864257
-0.0037099193 -0.053793818 0.67851138
-0.0037077612 -0.055616409 0.67838109
-0.0037056056 -0.057436883 0.67825103
-0.0037034526 -0.059255242 0.67812109
-0.0037012883 -0.061071247 0.67799044
-0.0036991402 -0.062885374 0.6778608
-0.0036969949 -0.064697385 0.67773128
-0.0036948384 -0.066507071 0.67760116
-0.0036926975 -0.06831488 0.67747194
-0.0036905594 -0.070120633 0.67734289
-0.0036884104 -0.071924001 0.67721319
-0.003686277 -0.073725536 0.67708445
-0.0036841466 -0.075525016 0.67695582
-0.003682005 -0.077322081 0.67682654
-0.003679906 -0.079118013 0.67669988
-0.0036778506 -0.080912694 0.67657584
-0.0036757835 -0.08270514 0.67645109
-0.0036737323 -0.084495842 0.67632723
-0.001953885 0.093786448 0.69045269
-0.0019479744 0.091554791 0.68973929
-0.0019466332 0.089545131 0.68957734
-0.0019452936 0.087538213 0.68941563
-0.0019439559 0.085534096 0.68925416
-0.0019426199 0.083532691 0.68909287
-0.0019412859 0.081534028 0.68893182
-0.0019399539 0.079538107 0.68877107
-0.0019386233 0.077544957 0.68861043
-0.0019372947 0.07555449 0.6884501
-0.0019359681 0.073566824 0.68828994
-0.001934643 0.071581811 0.68813002
-0.0019333201 0.069599539 0.68797028
-0.0019319988 0.067619979 0.68781078
-0.0019306793 0.065643072 0.68765152
-0.0019293764 0.063669443 0.68749428
-0.0019280977 0.061699152 0.6873399
-0.0019268206 0.059731424 0.68718576
-0.0019255452 0.057766378 0.68703187
-0.0019242715 0.055803895 0.68687809
-0.0019229994 0.053844005 0.68672448
-0.0019217291 0.051886708 0.68657118
-0.0019204604 0.049931973 0.686418
-0.0019191935 0.047979861 0.68626505
-0.0019179282 0.046030313 0.68611234
-0.0019141349 0.044025123 0.6856544
-0.0019128689 0.042083144 0.68550158
-0.001911612 0.040143847 0.68534988
-0.0019103494 0.038207024 0.68519747
-0.0019090956 0.036272824 0.68504614
-0.0019078362 0.034341067 0.68489414
-0.001906586 0.032411963 0.68474317
-0.0019053299 0.030485302 0.68459153
-0.0019040828 0.028561234 0.68444109
-0.0019028301 0.02663967 0.68428981
-0.0019015862 0.024720639 0.68413967
-0.0019003368 0.022804081 0.68398887
-0.0018990963 0.020890087 0.68383908
-0.0018978501 0.018978506 0.6836887
-0.0018966127 0.017069519 0.68353933
-0.0018953985 0.015163183 0.68339276
-0.0018942002 0.013259411 0.6832481
-0.0018929964 0.011357993 0.68310279
-0.0018918011 0.0094589889 0.68295848
-0.0018906002 0.0075623989 0.68281358
-0.001889408 0.0056682527 0.68266964
-0.0018882172 0.0037764311 0.68252593
-0.001887021 0.0018870533 0.68238151
-0.0018858332 2.9802322e-08 0.6822381
-0.0018846398 -0.0018846393 0.68209404
-0.0018834551 -0.0037668943 0.68195105
-0.0018822647 -0.0056467652 0.6818074
-0.001881083 -0.0075243413 0.68166476
-0.0018799027 -0.0093994737 0.68152225
-0.001878717 -0.011272311 0.68137914
-0.0018775397 -0.013142765 0.68123698
-0.0018763568 -0.015010834 0.68109423
-0.0018751824 -0.016876638 0.68095249
-0.0018740025 -0.018740028 0.68081003
-0.0018728313 -0.020601124 0.68066865
-0.0018716613 -0.022459924 0.68052739
-0.0018704858 -0.024316311 0.68038553
-0.0018693187 -0.026170462 0.68024468
-0.0018681462 -0.0280222 0.68010312
-0.0018669822 -0.029871702 0.67996264
-0.0018658194 -0.03171894 0.67982227
-0.0018646513 -0.033563733 0.6796813
-0.0018635263 -0.035406977 0.67954546
-0.0018623958 -0.037247926 0.67940903
-0.0018612734 -0.039086729 0.67927349
-0.0018601456 -0.040923208 0.67913729
-0.0018590259 -0.042757571 0.67900217
-0.0018579076 -0.044589788 0.67886716
-0.0018567838 -0.046419561 0.67873156
-0.0018556683 -0.048247367 0.67859691
-0.0018545471 -0.050072759 0.67846155
-0.0018534344 -0.051896125 0.6783272
-0.0018523159 -0.053717196 0.67819226
-0.0018512056 -0.055536151 0.67805821
-0.0018500969 -0.05735299 0.67792439
-0.0018489824 -0.059167445 0.67778981
-0.0018478761 -0.060979903 0.67765629
-0.0018467645 -0.062790006 0.67752212
-0.001845661 -0.064598113 0.67738891
-0.0018445587 -0.066404134 0.67725587
-0.0018434509 -0.068207681 0.67712218
-0.0018423513 -0.070009381 0.67698944
-0.0018412462 -0.071808577 0.67685604
-0.0018401494 -0.07360597 0.6767236
-0.0018390537 -0.075401202 0.67659134
-0.0018379524 -0.07719399 0.67645842
-0.0018368595 -0.078984961 0.67632651
-0.0018357609 -0.080773458 0.67619389
-0.0018346704 -0.082560197 0.67606229
-0.0018335948 -0.084345356 0.67593241
0 0.093877763 0.69068229
0 0.091631144 0.68993533
0 0.08961764 0.6897676
0 0.087607354 0.68960112
0 0.085599899 0.68943483
0 0.083595276 0.68926871
0 0.081593543 0.68910295
0 0.079594284 0.68893635
0 0.077598155 0.68877107
0 0.075604856 0.6886059
0 0.073614329 0.6884411
0 0.071626633 0.68827641
0 0.069641501 0.68811107
0 0.067659408 0.68794686
0 0.065680116 0.68778288
0 0.063703597 0.68761915
0 0.061729789 0.68745565
0 0.059758842 0.68729234
0 0.057790577 0.68712938
0 0.055826217 0.68697095
0 0.05386427 0.68681198
0 0.051905215 0.68665397
0 0.049948901 0.68649632
0 0.04799512 0.68633884
0 0.046044052 0.68618155
0 0.044037402 0.68571901
0 0.042094082 0.68556166
0 0.040153354 0.68540454
0 0.038215429 0.68524855
0 0.036280036 0.68509185
0 0.034347206 0.68493545
0 0.032417148 0.68478006
0 0.030489564 0.68462396
0 0.028564632 0.68446815
0 0.026642382 0.68431342
0 0.024722576 0.68415797
0 0.022805423 0.68400282
0 0.020890921 0.68384868
0 0.018978924 0.68369395
0 0.017069578 0.68354023
0 0.015162736 0.68338585
0 0.013258457 0.68323165
0 0.011356771 0.68307865
0 0.0094577968 0.68292916
0 0.0075612962 0.68277997
0 0.005667299 0.68263179
0 0.0037757158 0.68248296
0 0.001886636 0.68233514
0 -2.9802322e-08 0.68218666
0 -0.0018841922 0.68203926
0 -0.0037659109 0.68189114
0 -0.0056452155 0.68174416
0 -0.0075221062 0.68159646
0 -0.0093965232 0.68144983
0 -0.011268497 0.68130249
0 -0.013138086 0.68115628
0 -0.015005231 0.68100929
0 -0.016869962 0.68086338
0 -0.018732339 0.68071693
0 -0.020592242 0.68057138
0 -0.022449762 0.68042517
0 -0.024304867 0.68027925
0 -0.026157647 0.68013424
0 -0.028007984 0.67998868
0 -0.029855996 0.67984414
0 -0.031701565 0.67969888
0 -0.033544838 0.67955464
0 -0.035385638 0.6794098
0 -0.037224203 0.67926598
0 -0.039060593 0.67912316
0 -0.040895224 0.67898381
0 -0.042727411 0.67884386
0 -0.044557512 0.67870492
0 -0.046385348 0.67856622
0 -0.04821074 0.67842674
0 -0.050034016 0.67828828
0 -0.051854879 0.67814922
0 -0.053673655 0.67801112
0 -0.055489987 0.67787236
0 -0.057304263 0.67773461
0 -0.059116274 0.67759705
0 -0.060925901 0.67745876
0 -0.062733501 0.67732155
0 -0.064538628 0.67718363
0 -0.066341728 0.67704672
0 -0.068142414 0.67690921
0 -0.069941103 0.67677265
0 -0.071737587 0.67663616
0 -0.073531583 0.67649913
0 -0.075323686 0.67636311
0 -0.077113286 0.67622638
0 -0.078900963 0.67609072
0 -0.080686167 0.67595434
0 -0.082469434 0.67581886
0 -0.084250569 0.67568362
0.0019598238 0.094071537 0.69116956
0.001952566 0.091770589 0.69029349
0.0019511041 0.089750797 0.690117
0.0019496748 0.087735385 0.68994451
0.0019482552 0.085723221 0.68977308
0.0019468301 0.08371371 0.68960112
0.0019454147 0.081707418 0.6894303
0.0019439936 0.079703748 0.68925875
0.0019425822 0.077703297 0.68908834
0.0019411655 0.075705469 0.68891728
0.0019397506 0.073710561 0.68874657
0.0019383455 0.071718782 0.68857694
0.0019369349 0.069729626 0.68840665
0.0019355337 0.067743659 0.68823749
0.0019341271 0.065760314 0.68806767
0.0019327302 0.063780099 0.68789911
0.0019313275 0.061802477 0.68772978
0.0019299346 0.059827954 0.68756163
0.0019285362 0.057856083 0.68739277
0.0019271472 0.055887312 0.68722516
0.0019257601 0.053921282 0.68705773
0.0019243677 0.051957935 0.68688965
0.0019230068 0.049998194 0.68672538
0.0019216627 0.048041582 0.68656313
0.0019203204 0.046087682 0.68640113
0.0019164149 0.044077545 0.68592966
0.0019150727 0.042131603 0.68576759
0.0019137323 0.040188372 0.68560582
0.0019123936 0.038247854 0.6854443
0.001911057 0.036310107 0.68528295
0.0019097223 0.034375012 0.68512183
0.0019083893 0.0324426 0.68496096
0.0019070654 0.030513048 0.68480104
0.0019057363 0.02858609 0.68464065
0.0019044089 0.026661724 0.68448043
0.0019030834 0.02474007 0.68432045
0.0019017596 0.022821099 0.68416059
0.0019004379 0.020904839 0.68400109
0.0018991178 0.018991172 0.68384171
0.0018977998 0.017080188 0.68368262
0.0018964832 0.015171885 0.68352371
0.0018951688 0.013266206 0.68336499
0.0018938561 0.011363149 0.68320656
0.0018925453 0.009462744 0.68304837
0.0018912433 0.0075649917 0.68289119
0.001889936 0.0056698024 0.68273342
0.0018886663 0.0037773252 0.68258011
0.0018874052 0.0018874109 0.68242788
0.0018861388 -0 0.68227506
0.0018848742 -0.0018848777 0.68212235
0.0018836182 -0.003767252 0.68197078
0.0018823567 -0.0056470633 0.68181849
0.0018810971 -0.0075244009 0.68166643
0.0018798462 -0.0093992352 0.68151546
0.00187859 -0.011271566 0.68136382
0.0018773424 -0.013141423 0.6812132
0.0018760895 -0.015008718 0.68106198
0.0018748381 -0.016873568 0.68091094
0.0018735955 -0.018735945 0.68076092
0.0018723476 -0.020595819 0.68061024
0.0018711012 -0.022453219 0.6804598
0.0018698637 -0.024308205 0.68031043
0.0018686206 -0.026160687 0.6801604
0.0018673793 -0.028010696 0.68001056
0.0018661465 -0.029858351 0.67986172
0.0018649085 -0.031703442 0.6797123
0.001863679 -0.033546209 0.67956388
0.0018624442 -0.035386443 0.67941487
0.001861211 -0.037224203 0.67926598
0.0018599865 -0.039059728 0.67911816
0.0018587565 -0.040892631 0.67896968
0.0018575351 -0.042723298 0.67882228
0.001856343 -0.044552237 0.67867833
0.0018551592 -0.046379 0.67853546
0.0018539699 -0.0482032 0.67839187
0.0018527891 -0.050025314 0.67824936
0.001851603 -0.051844895 0.67810619
0.0018504253 -0.05366233 0.67796403
0.001849242 -0.055477262 0.67782116
0.0018480605 -0.057289869 0.67767859
0.0018468872 -0.059100389 0.67753696
0.0018457086 -0.060908377 0.67739463
0.0018445383 -0.062714279 0.67725337
0.0018433626 -0.064517707 0.67711151
0.0018421954 -0.066319048 0.6769706
0.0018410227 -0.068117857 0.67682904
0.0018398584 -0.069914609 0.67668843
0.0018386887 -0.071708828 0.67654729
0.0018375274 -0.073501095 0.6764071
0.0018363605 -0.075290784 0.67626625
0.0018351953 -0.077078208 0.67612559
0.0018340383 -0.078863651 0.67598593
0.001832876 -0.08064656 0.67584568
0.001831722 -0.082427487 0.67570633
0.0018305626 -0.084205851 0.67556632
0.0039321845 0.094372451 0.69192624
0.003914251 0.091984898 0.69084388
0.0039112065 0.089957774 0.69066012
0.0039081667 0.087933749 0.69047666
0.0039051319 0.085912883 0.69029349
0.003902117 0.083895475 0.69011152
0.0038991368 0.081881851 0.68993163
0.0038961465 0.079871029 0.68975115
0.0038931603 0.077863216 0.6895709
0.003890194 0.075858802 0.68939191
0.0038872773 0.073858291 0.6892159
0.0038843502 0.071860462 0.68903923
0.0038814426 0.069865972 0.68886364
0.0038785392 0.067874432 0.68868846
0.00387564 0.065885872 0.68851352
0.0038727452 0.063900322 0.68833882
0.0038698548 0.061917692 0.68816429
0.003866954 0.059937775 0.68798923
0.0038641018 0.057961553 0.6878171
0.0038612543 0.055988193 0.6876452
0.0038584108 0.054017752 0.6874736
0.0038555714 0.052050203 0.68730223
0.0038527511 0.050085753 0.687132
0.0038499199 0.048123986 0.68696117
0.0038470929 0.046165138 0.68679047
0.0038307612 0.044053763 0.68580484
0.0038285628 0.042114168 0.68567216
0.0038263523 0.04017669 0.68553871
0.003824159 0.038241595 0.68540633
0.0038219679 0.036308676 0.68527412
0.00381978 0.034377992 0.68514204
0.0038175939 0.032449543 0.68501008
0.0038153962 0.030523151 0.68487746
0.0038132155 0.028599113 0.68474579
0.0038108486 0.02667594 0.68460298
0.0038084988 0.024755269 0.68446112
0.0038061379 0.022836804 0.68431866
0.003803794 0.020920902 0.68417716
0.0038013232 0.01900664 0.68402809
0.0037988413 0.017094791 0.68387824
0.0037963481 0.015185356 0.68372786
0.0037938724 0.013278574 0.68357837
0.0037913716 0.011374146 0.68342739
0.0037888738 0.0094721913 0.68327671
0.0037863795 0.0075727701 0.68312609
0.0037838309 0.0056757331 0.68297231
0.0037812432 0.0037812293 0.68281615
0.003778659 0.001889348 0.68266016
0.0037760781 -0 0.68250442
0.0037734725 -0.0018867254 0.68234712
0.0037708706 -0.0037708879 0.68219012
0.0037682718 -0.0056523979 0.68203324
0.0037656771 -0.0075313747 0.68187666
0.0037630857 -0.0094076991 0.68172026
0.0037604978 -0.01128149 0.68156403
0.0037579134 -0.013152689 0.68140811
0.0037553329 -0.015021354 0.68125236
0.0037527699 -0.016887456 0.68109763
0.003750196 -0.018750995 0.6809423
0.0037476262 -0.020611972 0.68078721
0.0037450597 -0.022470355 0.68063223
0.0037424965 -0.024326205 0.68047756
0.003739937 -0.026179522 0.68032312
0.0037373807 -0.028030336 0.68016887
0.0037348284 -0.029878646 0.68001473
0.0037322792 -0.031724393 0.67986089
0.0037297334 -0.033567578 0.67970723
0.0037271914 -0.035408288 0.67955381
0.0037246665 -0.037246644 0.67940146
0.0037221315 -0.039082408 0.67924839
0.0037195995 -0.040915608 0.67909563
0.0037170711 -0.042746305 0.67894298
0.0037145466 -0.044574529 0.67879057
0.0037120248 -0.046400279 0.67863846
0.0037095479 -0.048224121 0.67848897
0.0037071158 -0.050046057 0.67834216
0.0037046729 -0.051865429 0.6781947
0.0037022468 -0.053682566 0.67804831
0.0036998105 -0.055497169 0.67790127
0.0036973774 -0.057309359 0.67775434
0.0036949611 -0.059119344 0.67760849
0.0036925338 -0.060926795 0.67746204
0.0036901105 -0.062731892 0.67731577
0.0036877035 -0.064534813 0.67717052
0.0036852863 -0.066335142 0.6770246
0.0036828858 -0.068133414 0.67687976
0.0036804744 -0.069929034 0.67673421
0.0036780667 -0.071722299 0.67658883
0.0036756755 -0.073513523 0.67644453
0.0036732741 -0.075302094 0.67629957
0.0036708754 -0.077088386 0.67615485
