# .PCD v0.7 - Point Cloud Data file format
VERSION 0.7
FIELDS x y z
SIZE 4 4 4
TYPE F F F
COUNT 1 1 1
WIDTH 240
HEIGHT 1
VIEWPOINT 0 0 0 1 0 0 0
POINTS 240
DATA ascii
0.025260217 0.032276958 0.62399668
0.01854432 0.034235686 0.62679005
0.024389051 0.028692991 0.62777549
0.015756259 0.037242085 0.62750232
0.012916331 0.045924723 0.62783563
0.034661774 0.025996327 0.62893313
0.028932497 0.026039243 0.62922096
0.018847864 0.030446559 0.62960857
0.035440449 0.023626924 0.63284963
0.010315427 0.047156245 0.63248104
0.044387806 0.026632696 0.63320065
0.011876046 0.034143656 0.63379359
0.010389136 0.038588226 0.63375211
0.025358932 0.022375524 0.63466227
0.028836664 0.01973033 0.63780284
0.0091319643 0.031961888 0.6383189
0.021559812 0.018479824 0.64049077
0.021559812 0.018479824 0.64049077
0.021559812 0.018479824 0.64049077
0.0061608753 0.040045708 0.64051878
0.009287226 0.026313841 0.64144248
0.0078003816 0.026521325 0.64291579
0.052874111 0.037322909 0.64231765
0.051457811 0.038983196 0.64282537
0.028222254 0.015679061 0.64386058
0.053163435 0.035963506 0.64334482
0.01583283 0.015832841 0.64571708
0.022398505 0.012799144 0.64772213
0.0064122439 0.02083981 0.64810449
0.0032093404 0.027279407 0.64829874
0.022641322 0.011320651 0.64981574
0.030626636 0.066089034 0.64917493
0.051811542 0.048573345 0.65004188
0.029183466 0.069716036 0.65030658
0.014788973 0.0098593235 0.65295208
0.027817247 0.063816041 0.65211785
0.0016512942 0.019815534 0.65392673
0.052625183 0.041113466 0.6531111
0.051073983 0.042836219 0.65347457
0.028071815 0.06274876 0.65392542
0.041256618 0.062710077 0.65380251
0.046286646 0.062817603 0.65414405
0.0215699 0.063050479 0.65488386
0 0.020007014 0.65585291
0.049870458 0.056519866 0.65526116
0.024940616 0.061520189 0.65530455
0.026624292 0.061568677 0.65546274
0.048853934 0.053907782 0.65794939
0.035572205 0.060980916 0.65907151
0 0.011947125 0.6606192
0.032570411 0.061712354 0.66152406
0.022374474 0.0034422278 0.66235471
-0.0051694927 0.025847495 0.66260225
0.024212437 0.0034589171 0.66336221
0.03108236 0.0069071949 0.66304088
0.01397567 -0 0.66547447
0.038471505 0.055958569 0.6656853
0.029648714 0.059297442 0.66512239
0.028144723 0.058048517 0.66693342
0.044308074 0.044308096 0.66853619
0.038993865 0.046083689 0.66855139
-0.0017828437 0.0017828345 0.66980618
-0.0072885193 0.001822114 0.67454851
-0.014545204 0.012727052 0.67406809
0.012879008 -0.011039138 0.67668849
0.0037192125 -0.0092980564 0.67907226
0.0093758414 -0.013126165 0.68095082
-0.015184183 0.0018979907 0.68370956
-0.018970801 0.0056912601 0.68359578
0.0057553067 -0.015347481 0.68617362
-0.0039226282 -0.017651826 0.69134951
-0.0059002014 -0.017700583 0.69200373
-0.0059002014 -0.017700583 0.69200373
-0.017791586 -0.0098842084 0.69322395
-0.023802236 -0.0019835234 0.69402993
-0.014027214 -0.018034995 0.69648856
-0.014027214 -0.018034995 0.69648856
0.0020189022 -0.026245713 0.69830096
-0.024278848 -0.0060697198 0.69882429
0 -0.028678179 0.70186675
-0.022461327 -0.014293551 0.70108169
-0.02883805 -0.0082394481 0.7032451
-0.026918707 -0.010353357 0.70454991
-0.022902953 -0.020820856 0.70592797
-0.025067443 -0.018800586 0.70675695
-0.016743716 -0.027208537 0.70724106
-0.025226157 -0.021021783 0.70835346
-0.0042204065 -0.03376326 0.70932198
-0.0063376389 -0.031688184 0.70960486
-0.023453483 -0.027717739 0.71196938
-0.034283474 -0.014999002 0.71324676
-0.017536297 -0.037264645 0.71920025
-0.033437502 -0.031208307 0.72368211
-0.0111827 -0.044730812 0.72457224
-0.022327477 -0.040189475 0.72411442
-0.03957982 -0.039579839 0.73563957
-0.026406692 -0.055213988 0.74437702
-0.034782335 -0.062111318 0.75449789
-0.047476403 -0.057471454 0.75622475
-0.025222242 -0.068100065 0.75905734
0.025245843 0.035063654 0.62390029
0.016970422 0.038889617 0.6253072
0.030775826 0.02719757 0.62738937
0.013200332 0.035200894 0.63164473
0.014597205 0.052549958 0.6308018
0.014597205 0.052549958 0.6308018
0.020960536 0.023203537 0.6353237
0.04757122 0.028245419 0.63404649
0.04757122 0.028245419 0.63404649
0.0089823231 0.041168526 0.63530827
0.030720782 0.018432468 0.64001429
0.030720782 0.018432468 0.64001429
0.006187452 0.034803644 0.64132082
0.023498075 0.015665382 0.64369583
0.007836543 0.025076926 0.64378881
0.039464317 0.018942863 0.64514852
0.0078948345 0.022893012 0.64519608
0.0078948345 0.022893012 0.64519608
0.051127784 0.036183879 0.64450133
0.020826915 0.065684885 0.64798492
0.030683769 0.012919486 0.64953786
0.0032093404 0.027279407 0.64829874
0.0016160567 0.037169307 0.64967322
0.051811542 0.048573345 0.65004188
0.022849139 0.065283239 0.65160757
0.029233858 0.064964145 0.65064454
0.0098784892 0.011524916 0.65333778
0.052617576 0.039463222 0.65308237
0.052641623 0.05264163 0.65317309
0.024899906 0.0082999766 0.6549769
0.024899906 0.0082999766 0.6549769
0.024940616 0.061520189 0.65530455
0.0215699 0.063050479 0.65488386
0.043288659 0.063268065 0.65557498
0.011775202 0.0067286789 0.65765405
0.013423977 0.0067119896 0.65715009
0.049142819 0.050837427 0.65915179
0.0441419 0.057723999 0.6595363
0.035568956 0.059281588 0.65905279
0.032896798 0.064106926 0.65823972
0.006843003 0.0051322579 0.66110379
0.0034061058 0.0085152686 0.66017461
-0.0017143411 0.012855902 0.66153717
-0.0017049621 0.01534465 0.66040504
0.046908569 0.052881077 0.66051114
0.046908569 0.052881077 0.66051114
0.041055042 0.059014216 0.66108882
0.029158229 0.061746866 0.66163969
0.043063384 0.04995352 0.66252637
0.020986438 -0.0034977496 0.6657052
0.020986438 -0.0034977496 0.6657052
0.024395414 -0 0.66493988
0.0034803806 0.0034803748 0.66465747
0.026132029 0.0034842789 0.6648922
0.026132029 0.0034842789 0.6648922
0.038471505 0.055958569 0.6656853
0.0070294342 2.9802322e-08 0.66672987
0.031601269 0.054424405 0.66652071
0.037079297 0.054736108 0.66773444
0.014240626 -0.0035601556 0.6694724
-0.0053886408 0.0035924017 0.6714201
0.042867064 0.044653207 0.67020261
0.0073362612 -0.0073362589 0.67598915
-0.014545204 0.012727052 0.67406809
0.014691747 -0.011018813 0.67627925
-0.018836962 0.007534802 0.68198013
-0.0094267502 -0.0056560338 0.68217981
-0.015184183 0.0018979907 0.68370956
0.0057881065 -0.017364323 0.68749332
0.0057553067 -0.015347481 0.68617362
0.0057553067 -0.015347481 0.68617362
0.0096915774 -0.019383162 0.6885733
-0.0077427044 -0.013549745 0.68825471
-0.0077427044 -0.013549745 0.68825471
-0.01790306 -0.011935413 0.69471908
-0.025969932 -0.0019976795 0.69574004
-0.016136831 -0.018153936 0.69808388
-0.010230025 -0.024552047 0.70157254
-0.0040725428 -0.024435252 0.70039767
-0.020344418 -0.016275525 0.70017672
-0.0063376389 -0.031688184 0.70960486
-0.01893736 -0.027353972 0.7085914
-0.023453483 -0.027717739 0.71196938
-0.0085840654 -0.034336239 0.71364498
-0.017536297 -0.037264645 0.71920025
-0.026486386 -0.035315186 0.72103041
-0.018032895 -0.042828113 0.72669327
-0.033931676 -0.036193788 0.72765899
-0.025273429 -0.045951694 0.73194087
-0.039071135 -0.034474522 0.73202753
-0.025619294 -0.048909545 0.73573625
-0.030116139 -0.046332508 0.73423946
-0.028409567 -0.052084178 0.74037611
-0.042709734 -0.042709738 0.74101573
-0.02409916 -0.057837993 0.7455005
-0.043728951 -0.051017135 0.74785078
-0.045964845 -0.045964867 0.74662149
-0.027585803 -0.067710608 0.75731617
0.022658441 0.027028222 0.6304397
0.022658441 0.027028222 0.6304397
0.013759425 0.038024466 0.62946975
0.042372052 0.025272787 0.63405049
0.0095636491 0.033733726 0.63692474
0.0076550972 0.048992604 0.63940835
0.0031943694 0.02994471 0.64739513
0.0031943694 0.02994471 0.64739513
0.010359642 0.01381458 0.65081686
0.013452205 0.013449838 0.64945459
0.029816505 0.012892917 0.64913678
0.047404427 0.058846861 0.65191585
0.019576037 0.063622117 0.65151763
0.022694265 0.062544517 0.65504092
0.043827392 0.054783762 0.65807617
0.026011597 0.060412705 0.65716612
0.01806769 -0.0029160082 0.66566098
-0.0029072794 0.0092960205 0.66500676
0.031672552 0.0536654 0.66699874
0.04076495 0.053867772 0.66550428
0.032962848 0.058118641 0.66401726
-0.0093002087 -0.0018600523 0.67912483
-0.0028336297 -0.010387823 0.68248391
0.0067259879 -0.017304018 0.68668449
-0.02116487 0.0038481653 0.68685478
0.0096915774 -0.019383162 0.6885733
-0.012802623 -0.020891588 0.69860792
-0.020879645 -0.01279532 0.69846594
-0.02883805 -0.0082394481 0.7032451
-0.013759332 -0.030697204 0.71009469
-0.0063376389 -0.031688184 0.70960486
-0.022063619 -0.03750813 0.72092938
-0.034756325 -0.025877148 0.72235096
-0.010069374 -0.044755518 0.72472143
-0.021748524 -0.04200691 0.7262044
-0.029252313 -0.049140066 0.73706132
-0.029639821 -0.052162915 0.74080813
-0.046263479 -0.035584524 0.74096
-0.033811454 -0.055547386 0.74612677
-0.034276016 -0.058758885 0.75013232
-0.046473809 -0.050147533 0.74985492
-0.049706329 -0.052191615 0.75460213
