# .PCD v0.7 - Point Cloud Data file format
VERSION 0.7
FIELDS x y z
SIZE 4 4 4
TYPE F F F
COUNT 1 1 1
WIDTH 1355
HEIGHT 1
VIEWPOINT 0 0 0 1 0 0 0
POINTS 1355
DATA ascii
-0.0057182759 -0.0057182908 0.68468362
-0.0057271118 -0.0076361299 0.6850391
-0.0057359752 -0.0095599592 0.68539572
-0.0057448661 -0.011489719 0.68575346
-0.0057537844 -0.013425499 0.68611228
-0.0057627303 -0.015367329 0.6864723
-0.0057717045 -0.01731512 0.68683338
-0.0057806843 -0.01926893 0.68719471
-0.005789692 -0.02122885 0.6875571
-0.0057986155 -0.023194432 0.68791622
-0.0058072521 -0.025164723 0.68826371
-0.0058156447 -0.027139693 0.68860137
-0.0058237673 -0.029118836 0.68892825
-0.0058315732 -0.031101704 0.6892423
-0.0058387406 -0.03308621 0.68953073
-0.0058458354 -0.035075009 0.68981618
-0.005852947 -0.037068635 0.69010234
-0.0058592069 -0.039061397 0.69035417
-0.0058653429 -0.041057378 0.69060105
-0.0058713076 -0.043056279 0.69084108
-0.005914825 -0.045346946 0.69259208
-0.0059252144 -0.047401696 0.69301015
-0.0059357584 -0.049464673 0.69343442
-0.0059463163 -0.051534742 0.69385922
-0.0059569352 -0.053612441 0.69428647
-0.0059675681 -0.055697292 0.69471431
-0.0059782634 -0.057789862 0.69514465
-0.0059890687 -0.059890658 0.69557941
-0.0059999125 -0.061999083 0.69601578
-0.0060112053 -0.064119548 0.69647014
-0.0060225646 -0.066248238 0.69692719
-0.006033943 -0.068384707 0.69738501
-0.006045389 -0.070529521 0.69784558
-0.0060569271 -0.072683126 0.6983099
-0.0060685095 -0.074844956 0.69877595
-0.0060801115 -0.077014714 0.69924265
-0.0060922774 -0.079199612 0.69973224
-0.0061044912 -0.081393212 0.70022368
-0.0061168047 -0.083596349 0.70071912
-0.0061291428 -0.085808009 0.70121562
-0.0061415308 -0.08802864 0.70171404
-0.0061539942 -0.090258583 0.70221555
-0.0035729953 0.083965421 0.67024726
-0.0035768647 0.08226791 0.67048079
-0.0035807809 0.080567598 0.67071724
-0.0035848604 0.078866899 0.67096335
-0.0035889361 0.077162147 0.67120934
-0.0035930206 0.07545346 0.67145592
-0.0035971277 0.073741108 0.67170382
-0.0036012311 0.072024614 0.67195141
-0.0036053441 0.070304245 0.67219967
-0.0036094794 0.068580091 0.67244929
-0.0036136112 0.066851825 0.67269868
-0.0036177523 0.065119565 0.6729486
-0.0036219291 0.063383758 0.67320073
-0.0036262737 0.06164667 0.67346293
-0.0036306281 0.05990538 0.67372572
-0.0036350065 0.058160067 0.67399001
-0.0036393823 0.056410432 0.67425406
-0.0036437686 0.054656506 0.67451882
-0.0036481656 0.052898407 0.67478418
-0.0036525731 0.051136017 0.6750502
-0.0036570043 0.049369574 0.67531765
-0.0036614335 0.04759866 0.67558497
-0.0036658866 0.045823574 0.67585373
-0.0036705388 0.044046491 0.67613453
-0.0036751893 0.04226467 0.67641521
-0.003679852 0.040478379 0.67669666
-0.00368454 0.038687676 0.67697954
-0.003689226 0.036892265 0.67726243
-0.003693938 0.035092413 0.6775468
-0.003698648 0.033287823 0.67783105
-0.0037033842 0.031478763 0.67811692
-0.0037081186 0.029664963 0.67840266
-0.00371292 0.027846903 0.67869246
-0.0037178863 0.026025236 0.67899215
-0.0037228512 0.024198532 0.67929184
-0.003727844 0.02236709 0.67959321
-0.0037328498 0.020530671 0.67989534
-0.0037378555 0.018689305 0.68019742
-0.0037428883 0.016842991 0.68050122
-0.003747921 0.014991701 0.68080497
-0.0037529808 0.013135433 0.68111038
-0.0037580405 0.011274129 0.68141574
-0.0037632694 0.0094081759 0.68173134
-0.0037685842 0.0075371861 0.68205208
-0.0037738995 0.0056608617 0.68237293
-0.0037792297 0.0037792623 0.68269461
-0.0037845753 0.0018922687 0.68301725
-0.0037899357 -0 0.68334079
-0.0037953116 -0.0018976629 0.68366522
-0.0038007023 -0.0038006902 0.6839906
-0.0038061235 -0.0057091713 0.68431783
-0.0038116612 -0.0076233149 0.68465203
-0.0038173173 -0.0095432699 0.68499339
-0.0038229902 -0.011468947 0.68533587
-0.0038286799 -0.013400376 0.6856792
-0.0038343866 -0.015337557 0.68602365
-0.0038401105 -0.017280519 0.68636912
-0.0038458658 -0.019229323 0.6867165
-0.0038516237 -0.021183908 0.68706399
-0.0038573993 -0.023144394 0.68741256
-0.0038633409 -0.025111735 0.6877712
-0.003869391 -0.027085721 0.68813634
-0.00387546 -0.029065967 0.68850261
-0.0038815478 -0.031052381 0.68887007
-0.003887655 -0.033045083 0.68923867
-0.0038937663 -0.035043925 0.6896075
-0.0038999119 -0.037049145 0.68997836
-0.003906077 -0.039060801 0.69035053
-0.0039122463 -0.041078597 0.69072294
-0.0039183586 -0.043101907 0.69109178
-0.0039306399 -0.045202345 0.69183302
-0.0039371043 -0.047245264 0.69222319
-0.0039435895 -0.049294889 0.69261461
-0.003950221 -0.051352888 0.69301486
-0.0039569531 -0.053418845 0.69342119
-0.0039637084 -0.055491894 0.69382882
-0.0039704861 -0.057572037 0.69423795
-0.0039772876 -0.059659332 0.6946485
-0.0039841123 -0.06175372 0.69506037
-0.0039910241 -0.063856363 0.69547755
-0.0039979601 -0.065966338 0.69589615
-0.0040050163 -0.068085253 0.69632202
-0.0040122261 -0.070213944 0.6967572
-0.0040194783 -0.072350621 0.69719487
-0.0040267729 -0.074495286 0.69763517
-0.0040341262 -0.076648384 0.69807899
-0.0040415064 -0.078809351 0.69852436
-0.0040489142 -0.080978304 0.69897151
-0.0040563489 -0.083155125 0.69942021
-0.0040640747 -0.085345566 0.69988656
-0.0040718801 -0.08754541 0.70035768
-0.0040797321 -0.089754105 0.70083153
-0.0040994864 -0.092238441 0.7020238
-0.0017898845 0.084124565 0.67065614
-0.0017917304 0.082419604 0.67087895
-0.0017935866 0.080711424 0.671103
-0.0017954918 0.079001665 0.67133296
-0.001797446 0.077290177 0.67156881
-0.0017994047 0.075574964 0.67180526
-0.0018013676 0.073856056 0.67204225
-0.0018033347 0.072133422 0.67227966
-0.0018053061 0.070406944 0.67251766
-0.0018072819 0.06867674 0.67275614
-0.0018092621 0.066942692 0.67299515
-0.001811253 0.065205127 0.67323554
-0.001813242 0.063463479 0.67347556
-0.001815268 0.061719149 0.67372012
-0.0018173581 0.059972823 0.67397249
-0.001819453 0.058222473 0.67422533
-0.0018215593 0.056468338 0.6744796
-0.0018236639 0.054709941 0.67473364
-0.0018257734 0.052947432 0.67498827
-0.0018278944 0.051181078 0.67524433
-0.0018300136 0.049410373 0.67550015
-0.0018321378 0.047635585 0.67575651
-0.0018342737 0.045856833 0.67601436
-0.0018364347 0.044074416 0.67627519
-0.0018386751 0.042289525 0.67654562
-0.0018409143 0.040500134 0.67681599
-0.0018431656 0.038706511 0.67708772
-0.0018454159 0.036908329 0.67735928
-0.0018476715 0.035105735 0.67763162
-0.0018499326 0.03329879 0.67790455
-0.0018521993 0.031487375 0.67817819
-0.0018544784 0.029671669 0.67845327
-0.0018567563 0.027851343 0.67872822
-0.0018590881 0.026027262 0.67900968
-0.0018614742 0.024199158 0.67929775
-0.0018638665 0.022366375 0.67958653
-0.0018662718 0.020529002 0.67987686
-0.0018686765 0.018686771 0.68016714
-0.0018710943 0.016839862 0.68045902
-0.0018735114 0.014988124 0.68075073
-0.0018759418 0.013131589 0.6810441
-0.0018783713 0.011270225 0.68133742
-0.0018808073 0.009404093 0.68163145
-0.0018833346 0.0075333714 0.6819365
-0.00188589 0.0056577325 0.68224496
-0.0018884452 0.0037768781 0.68255341
-0.0018910146 0.0018910468 0.68286359
-0.0018935838 -2.9802322e-08 0.68317372
-0.0018961672 -0.001896143 0.68348551
-0.0018987502 -0.0037975013 0.68379736
-0.0019013478 -0.0057040453 0.68411094
-0.0019039452 -0.0076157451 0.6844244
-0.0019065932 -0.0095329583 0.68474412
-0.0019093215 -0.011455953 0.68507338
-0.0019120502 -0.013384342 0.68540281
-0.0019147869 -0.015318245 0.68573308
-0.0019175312 -0.01725778 0.68606436
-0.0019202835 -0.019202799 0.68639666
-0.0019230439 -0.02115345 0.68672985
-0.0019258119 -0.023109764 0.68706399
-0.0019285955 -0.02507177 0.68740004
-0.0019314095 -0.027039737 0.68773973
-0.001934314 -0.029014707 0.68809032
-0.0019372274 -0.030995637 0.68844193
-0.0019401569 -0.032982677 0.68879557
-0.0019430877 -0.034975559 0.68914932
-0.0019460275 -0.03697449 0.68950421
-0.0019489761 -0.038979501 0.68986017
-0.0019519337 -0.040990621 0.69021714
-0.0019549003 -0.043007791 0.69057524
-0.0019606457 -0.045094848 0.69126874
-0.0019637542 -0.047130078 0.69164407
-0.0019668727 -0.049171835 0.69202054
-0.0019700015 -0.051220059 0.69239813
-0.0019731401 -0.053274781 0.69277698
-0.0019762807 -0.05533585 0.69315612
-0.0019794393 -0.057403743 0.69353735
-0.0019826158 -0.059478492 0.69392085
-0.0019859052 -0.061563075 0.69431788
-0.0019892051 -0.063654572 0.69471627
-0.0019925162 -0.065753043 0.69511592
-0.0019958385 -0.067858517 0.69551694
-0.0019991796 -0.069971293 0.69592029
-0.0020025242 -0.072090894 0.69632405
-0.0020059764 -0.074221134 0.69674069
-0.0020094486 -0.076359063 0.69715983
-0.002012949 -0.07850498 0.69758236
-0.0020164696 -0.080658823 0.69800735
-0.002020011 -0.082820415 0.69843477
-0.0020235644 -0.084989727 0.69886374
-0.0020271309 -0.087166607 0.69929421
-0.0020307095 -0.089351222 0.69972628
-0.0020362134 -0.09162958 0.70039058
0 0.084337592 0.67120314
0 0.082624018 0.67141539
0 0.080907434 0.67162889
0 0.079187453 0.67184281
0 0.077465743 0.6720618
0 0.075743049 0.6722883
0 0.07401675 0.67251527
0 0.072286576 0.67274201
0 0.070553035 0.67296994
0 0.068815917 0.67319834
0 0.067074835 0.67342639
0 0.065330476 0.67365575
0 0.063582391 0.67388558
0 0.061830401 0.67411518
0 0.060076475 0.67435157
0 0.058320284 0.67459416
0 0.056560189 0.67483717
0 0.054796189 0.67508078
0 0.053028315 0.67532492
0 0.051256508 0.67556959
0 0.049480766 0.67581487
0 0.047701269 0.67606139
0 0.0459176 0.67630774
0 0.044129997 0.67655462
0 0.042339355 0.67680693
0 0.040545732 0.67706645
0 0.038748205 0.67732728
0 0.036946207 0.67758793
0 0.035140038 0.67784923
0 0.033329725 0.67811191
0 0.031515032 0.67837453
0 0.029696077 0.67863762
0 0.02787295 0.67890215
0 0.026045412 0.67916656
0 0.024214298 0.67943823
0 0.022379339 0.67971647
0 0.020539701 0.67999458
0 0.018695563 0.68027329
0 0.016846895 0.68055362
0 0.014993608 0.68083382
0 0.013135672 0.68111461
0 0.011273175 0.68139613
0 0.0094060302 0.68167925
0 0.0075341761 0.68196219
0 0.0056579113 0.68225616
0 0.0037768781 0.68255258
0 0.0018908978 0.6828506
0 2.9802322e-08 0.68314862
0 -0.0018959045 0.68344826
0 -0.0037966669 0.68374777
0 -0.0057024658 0.68404812
0 -0.0076133013 0.68435013
0 -0.0095291734 0.68465209
0 -0.011450231 0.68495911
0 -0.013377011 0.68527591
0 -0.015308946 0.68559253
0 -0.017246336 0.68591106
0 -0.019189 0.68622953
0 -0.021137059 0.68654978
0 -0.023090422 0.68687004
0 -0.025049359 0.68719202
0 -0.02701354 0.68751401
0 -0.028983325 0.68783778
0 -0.030960262 0.6881752
0 -0.03294304 0.68851441
0 -0.034931511 0.68885368
0 -0.036925673 0.68919396
0 -0.038925678 0.68953526
0 -0.040931523 0.68987751
0 -0.042943209 0.69022083
0 -0.045021087 0.69088179
0 -0.047048092 0.69123167
0 -0.049083054 0.69159192
0 -0.051124424 0.69195426
0 -0.053171843 0.69231671
0 -0.055225492 0.69268036
0 -0.057285666 0.69304591
0 -0.059351951 0.69341171
0 -0.061424851 0.69377959
0 -0.063504845 0.69415152
0 -0.065593958 0.69453406
0 -0.067689717 0.6949178
0 -0.069792271 0.69530284
0 -0.071901798 0.69569004
0 -0.074018121 0.69607848
0 -0.076141626 0.69646919
0 -0.078271985 0.69686115
0 -0.080411851 0.69726217
0 -0.082561135 0.69767129
0 -0.084717333 0.69808102
0 -0.086880788 0.69849193
0 -0.089051574 0.69890428
0 -0.091229737 0.69931805
0.001800201 0.084609479 0.6719014
0.0018018736 0.082886189 0.67210329
0.0018035492 0.081159711 0.67230558
0.0018052279 0.079430073 0.67250824
0.0018069099 0.077697098 0.67271125
0.0018086081 0.07596159 0.67291623
0.0018104011 0.074226439 0.67313266
0.0018121912 0.072487652 0.67334878
0.0018139912 0.070745647 0.67356604
0.0018157951 0.069000214 0.67378378
0.0018176023 0.067251295 0.67400193
0.0018194066 0.06549865 0.67421973
0.0018212212 0.063742757 0.67443877
0.0018230394 0.061983377 0.67465818
0.001824861 0.06022045 0.67487812
0.0018267132 0.058454812 0.6751017
0.0018286359 0.056687742 0.6753338
0.0018305694 0.054917127 0.67556721
0.0018325069 0.053142697 0.6758011
0.0018344418 0.051364392 0.67603463
0.0018363876 0.049582452 0.67626947
0.0018383374 0.047796786 0.67650491
0.0018402913 0.046007246 0.67674077
0.0018422428 0.044213861 0.67697632
0.0018442052 0.042416751 0.67721319
0.0018462058 0.040616542 0.67745471
0.0018482789 0.038813859 0.67770493
0.0018503499 0.037007034 0.67795491
0.0018524256 0.035196066 0.67820549
0.0018545059 0.033381134 0.67845654
0.001856591 0.03156203 0.67870831
0.0018586805 0.029738903 0.6789605
0.0018607819 0.027911723 0.67921418
0.0018628811 0.02608037 0.67946756
0.001864985 0.024244785 0.67972147
0.0018671493 0.022405773 0.67998278
0.0018693606 0.020562977 0.68024975
0.0018715771 0.018715769 0.68051726
0.001873806 0.01686424 0.68078631
0.0018760331 0.015008301 0.68105519
0.0018782655 0.013147861 0.68132466
0.0018805034 0.01128304 0.68159479
0.0018827536 0.0094137788 0.68186635
0.0018850019 0.0075400174 0.68213779
0.0018872558 0.005661726 0.68240988
0.0018896005 0.0037792027 0.68269289
0.0018919656 0.0018919706 0.68297839
0.0018943438 2.9802322e-08 0.68326545
0.0018967206 -0.001896739 0.68355232
0.0018991035 -0.0037982166 0.68383998
0.0019014995 -0.0057044923 0.68412918
0.0019038944 -0.0076155961 0.68441832
0.0019062953 -0.0095314384 0.68470812
0.0019087096 -0.011452287 0.68499959
0.0019111446 -0.013378024 0.68529344
0.0019136664 -0.015309304 0.6855979
0.001916202 -0.017245799 0.68590403
0.0019187372 -0.019187361 0.68620998
0.0019212863 -0.021134168 0.68651772
0.0019238349 -0.023086041 0.68682539
0.0019263902 -0.02504307 0.68713379
0.0019289599 -0.027005434 0.68744397
0.0019315289 -0.028972924 0.68775403
0.0019341122 -0.030945778 0.68806595
0.0019367848 -0.032925338 0.68838853
0.0019394801 -0.034910649 0.68871391
0.0019421901 -0.036901593 0.68904102
0.0019449004 -0.038897961 0.68936819
0.0019476258 -0.040900141 0.68969715
0.0019503513 -0.042907745 0.6900261
0.0019556796 -0.044980615 0.69066936
0.0019584277 -0.047002256 0.69100106
0.0019611835 -0.049029589 0.69133371
0.0019640471 -0.051065266 0.69167936
0.001966927 -0.053107023 0.69202703
0.0019698155 -0.05515483 0.69237566
0.0019727121 -0.057208657 0.6927253
0.0019756253 -0.059268743 0.69307697
0.0019785392 -0.061334699 0.69342875
0.0019814696 -0.063407034 0.69378245
0.0019844007 -0.065485239 0.69413626
0.0019874037 -0.067571729 0.69449878
0.0019904634 -0.069666237 0.69486815
0.0019935325 -0.071767181 0.69523853
0.001996611 -0.073874593 0.69561017
0.001999699 -0.075988561 0.69598299
0.0020027966 -0.078109086 0.69635695
0.00200592 -0.080236763 0.69673389
0.0020090451 -0.082370847 0.69711113
0.0020122528 -0.084514588 0.69749832
0.0020155113 -0.086666957 0.69789165
0.0020187884 -0.088826656 0.69828725
0.002022068 -0.090993047 0.69868308
0.0036147989 0.084947795 0.67277032
0.0036179614 0.083213121 0.67296124
0.0036211167 0.081475139 0.67315167
0.0036242905 0.079734415 0.67334318
0.0036274565 0.077990323 0.67353427
0.0036306414 0.07624349 0.67372656
0.0036338186 0.074493319 0.67391825
0.0036371073 0.072742164 0.67411679
0.0036405209 0.070990175 0.67432278
0.0036439279 0.06923461 0.67452842
0.0036473544 0.067476064 0.67473525
0.0036507873 0.06571418 0.67494243
0.0036542269 0.063948989 0.67515004
0.003657673 0.06218043 0.675358
0.0036611252 0.060408592 0.67556638
0.0036645844 0.058633387 0.67577511
0.0036680363 0.056854546 0.67598355
0.0036716834 0.055075288 0.67620361
0.0036753786 0.05329299 0.67642665
0.0036790809 0.051507115 0.67665011
0.0036827908 0.049717695 0.67687404
0.0036864942 0.047924429 0.67709756
0.0036902193 0.046127737 0.67732239
0.0036939515 0.044327438 0.67754757
0.0036976915 0.042523474 0.67777336
0.0037014254 0.040715724 0.67799866
0.0037052077 0.038904667 0.67822701
0.0037091768 0.037091762 0.67846656
0.0037131403 0.035274863 0.67870575
0.0037171263 0.03345412 0.67894638
0.003721121 0.031629533 0.67918742
0.0037251241 0.029800981 0.67942905
0.003729122 0.027968436 0.67967033
0.0037331425 0.026132017 0.67991298
0.0037371716 0.024291605 0.68015617
0.0037411952 0.022447139 0.68039906
0.0037453119 0.020599216 0.68064749
0.0037495778 0.018747896 0.68090498
0.0037538398 0.016892284 0.68116218
0.0037581113 0.01503247 0.68141997
0.0037623923 0.013168395 0.68167841
0.0037666832 0.011300057 0.68193734
0.0037709842 0.0094274879 0.68219692
0.0037753088 0.007550627 0.68245798
0.0037796292 0.0056694448 0.68271875
0.0037839597 0.0037839711 0.68298006
0.0037884293 0.0018942356 0.68324983
0.0037929954 -0 0.68352544
0.0037975581 -0.0018987656 0.68380082
0.0038021321 -0.0038021505 0.68407685
0.003806717 -0.0057100654 0.68435359
0.0038113128 -0.0076226294 0.68463099
0.0038159348 -0.0095398128 0.68490994
0.0038205527 -0.011461675 0.68518871
0.0038251823 -0.013388157 0.68546808
0.0038298375 -0.015319347 0.68574905
0.0038347098 -0.0172562 0.68604314
0.0038395801 -0.019197911 0.68633705
0.003844477 -0.021144629 0.68663263
0.003849372 -0.023096263 0.68692803
0.0038542794 -0.025052786 0.68722427
0.003859214 -0.027014494 0.68752217
0.0038641468 -0.02898109 0.68781978
0.0038690916 -0.030952722 0.68811822
0.0038740644 -0.03292954 0.68841839
0.0038791557 -0.034912378 0.68872559
0.0038843651 -0.036901444 0.68904012
0.003889574 -0.038895726 0.68935454
0.003894812 -0.040895522 0.68967068
0.0039000488 -0.042900532 0.68998671
0.0039104884 -0.044970632 0.69061679
0.0039157523 -0.046989024 0.69093448
0.003921045 -0.049013078 0.69125396
0.0039263526 -0.051042587 0.69157428
0.0039317673 -0.05307883 0.69190103
0.0039373054 -0.055122286 0.69223535
0.0039428747 -0.057171702 0.69257152
0.0039484599 -0.0592269 0.69290853
0.0039540608 -0.06128794 0.6932466
0.0039596776 -0.06335482 0.69358557
0.0039652945 -0.065427363 0.69392467
0.0039709434 -0.067506045 0.6942656
0.0039766082 -0.069590628 0.69460744
0.0039824792 -0.071684629 0.69496179
0.0039883838 -0.073785096 0.69531822
0.0039943219 -0.075892121 0.69567657
0.0040002614 -0.078005105 0.69603503
0.0040062349 -0.080124676 0.69639558
0.0040122098 -0.082250327 0.69675624
0.0040182192 -0.084382594 0.69711888
0.0040242462 -0.086521298 0.69748271
0.004030454 -0.088669971 0.69785738
0.004036746 -0.090826809 0.69823718
0.0054485914 0.085361272 0.6738323
0.005453025 0.083613068 0.67401063
0.0054574655 0.081861973 0.67418945
0.005461914 0.080108076 0.67436838
0.0054663699 0.078351289 0.67454767
0.0054708323 0.076591671 0.6747272
0.0054752822 0.074828833 0.67490625
0.0054797595 0.073063433 0.67508638
0.0054842443 0.071295202 0.67526686
0.0054888166 0.069525033 0.6754508
0.0054936777 0.067755371 0.67564642
0.0054985275 0.065982372 0.67584157
0.0055034058 0.064206392 0.67603791
0.0055082734 0.062427074 0.67623371
0.0055131689 0.060644865 0.6764307
0.0055180532 0.058859229 0.67662728
0.0055229669 0.057070643 0.67682493
0.0055278679 0.055278718 0.67702216
0.0055327988 0.053483754 0.67722058
0.005538045 0.051688433 0.67743164
0.0055433214 0.049889892 0.67764395
0.005548608 0.048087925 0.67785668
0.0055539045 0.04628253 0.67806977
0.0055592111 0.044473708 0.67828333
0.0055645281 0.042661399 0.67849725
0.0055698347 0.040845424 0.67871076
0.0055751717 0.039026231 0.67892551
0.0055805193 0.037203491 0.67914069
0.0055860435 0.035378277 0.67936295
0.005591745 0.033550471 0.67959237
0.0055974587 0.03171891 0.67982227
0.0056031835 0.029883653 0.68005264
0.0056088991 0.028044492 0.68028259
0.0056146476 0.026201695 0.68051386
0.0056204079 0.024355143 0.68074566
0.0056261797 0.022504717 0.68097794
0.0056319423 0.020650446 0.6812098
0.0056377389 0.01879248 0.68144298
0.0056438432 0.016931534 0.68168867
0.0056499825 0.015066653 0.68193567
0.0056561138 0.013197631 0.68218231
0.0056622797 0.011324584 0.68243045
0.0056684595 0.0094474256 0.68267918
0.0056746528 0.0075662434 0.68292826
0.0056808372 0.0056808293 0.68317717
0.005687057 0.0037913322 0.68342745
0.0056932913 0.0018977821 0.68367827
0.0056996252 2.9802322e-08 0.68393308
0.0057062116 -0.0019020438 0.68419814
0.0057127918 -0.0038085282 0.6844629
0.005719387 -0.0057193637 0.68472826
0.005725998 -0.0076346695 0.68499428
0.0057326239 -0.0095543563 0.68526089
0.0057392651 -0.011478513 0.68552804
0.0057459436 -0.013407201 0.68579686
0.0057526156 -0.015340269 0.68606532
0.0057593039 -0.017277926 0.68633443
0.0057662507 -0.019220829 0.68661392
0.0057732807 -0.021168709 0.6868968
0.0057803281 -0.023121327 0.68718034
0.0057874154 -0.025078803 0.68746555
0.0057944972 -0.027040988 0.68775046
0.0058015962 -0.029007971 0.68803614
0.0058087134 -0.030979812 0.68832248
0.0058158473 -0.032956451 0.68860948
0.0058229994 -0.034938008 0.68889731
0.0058302819 -0.036925107 0.68919039
0.0058378102 -0.038918734 0.68949324
0.0058453344 -0.040917337 0.68979609
0.0058528786 -0.042921126 0.6900996
0.0058682547 -0.044989944 0.69071829
0.005875858 -0.047006845 0.69102418
0.0058834814 -0.049028993 0.69133091
0.0058911243 -0.051056415 0.69163841
0.0058987867 -0.053089112 0.69194674
0.0059064464 -0.055126816 0.6922549
0.005914452 -0.057173014 0.69257712
0.0059225028 -0.059225023 0.69290102
0.0059305523 -0.061282367 0.69322491
0.0059386468 -0.063345551 0.69355059
0.0059467633 -0.065414369 0.69387722
0.0059549026 -0.067488879 0.69420469
0.0059630405 -0.069568813 0.69453216
0.0059712236 -0.071654677 0.69486141
0.0059795016 -0.073747158 0.69519448
0.0059880414 -0.07584852 0.6955381
0.0059966049 -0.077955842 0.69588262
0.0060052173 -0.080069602 0.69622922
0.0060138307 -0.082189023 0.69657582
0.0060224682 -0.084314555 0.69692338
0.0060311551 -0.086446553 0.69727284
0.006039843 -0.088584349 0.69762242
0.006048556 -0.090728343 0.69797307
0.0073092007 0.085883111 0.67517257
0.0073140892 0.084112048 0.67532003
0.0073189838 0.082338572 0.67546779
0.007323992 0.080563933 0.67561895
0.0073294635 0.078791738 0.67578405
0.0073349704 0.077017188 0.67595023
0.0073404582 0.075239658 0.67611587
0.0073459544 0.073459566 0.67628169
0.007351486 0.071676999 0.67644858
0.0073569985 0.069891512 0.676615
0.0073625469 0.068103552 0.67678243
0.0073680761 0.066312671 0.67694926
0.0073739393 0.064521998 0.67712623
0.0073800031 0.062730014 0.67730922
0.0073861037 0.060935378 0.67749333
0.0073922146 0.059137732 0.67767769
0.0073983353 0.057337075 0.67786247
0.0074044662 0.055533499 0.67804748
0.0074105803 0.053726703 0.67823195
0.0074167312 0.051917106 0.67841762
0.0074228928 0.050104529 0.67860359
0.0074293963 0.048291087 0.67879981
0.0074360487 0.046475321 0.6790005
0.0074427403 0.044656456 0.67920244
0.0074494169 0.042834163 0.67940396
0.0074561322 0.041008741 0.67960662
0.0074628326 0.039179891 0.67980886
0.0074695731 0.037347883 0.68001223
0.0074762972 0.035512418 0.68021512
0.0074830619 0.033673763 0.68041933
0.0074900631 0.031832755 0.68063056
0.0074973013 0.029989243 0.68084902
0.0075045549 0.028142095 0.68106788
0.0075118216 0.0262914 0.68128717
0.0075191027 0.0244371 0.68150687
0.0075263693 0.022579074 0.68172622
0.0075336783 0.020717591 0.68194681
0.0075410022 0.018852532 0.68216783
0.0075483401 0.016983777 0.68238926
0.0075557772 0.015111566 0.68261361
0.0075636012 0.013236284 0.68284976
0.0075714411 0.011357218 0.6830864
0.0075792684 0.0094740987 0.68332261
0.0075871414 0.0075871348 0.68356013
0.0075950297 0.0056962967 0.68379819
0.0076029357 0.003801465 0.68403679
0.0076108282 0.0019026995 0.68427503
0.0076187667 -0 0.68451452
0.0076267216 -0.0019066632 0.68475461
0.0076350137 -0.0038174987 0.68500483
0.0076434398 -0.0057325363 0.6852591
0.0076518855 -0.0076518953 0.68551397
0.00766032 -0.0095754266 0.6857686
0.0076688025 -0.01150319 0.68602449
0.0076773041 -0.013435304 0.68628109
0.0076858238 -0.01537165 0.68653816
0.0076943338 -0.017312229 0.686795
0.0077028922 -0.019257218 0.68705326
0.0077115879 -0.021206886 0.6873157
0.0077206013 -0.023161799 0.68758768
0.0077296658 -0.025121391 0.68786126
0.0077387225 -0.027085543 0.68813455
0.0077477992 -0.029054224 0.68840843
0.0077568977 -0.031027615 0.68868303
0.0077660182 -0.033005595 0.68895823
0.0077751591 -0.034988195 0.68923408
0.0077843522 -0.036975652 0.68951148
0.0077935369 -0.038967669 0.6897887
0.0078031383 -0.040966481 0.6900785
0.0078127943 -0.042970359 0.69036984
0.0078329751 -0.045039624 0.69097883
0.0078427047 -0.047056228 0.6912725
0.0078524593 -0.049077868 0.69156682
0.0078622065 -0.051104337 0.69186097
0.0078720096 -0.053136051 0.69215685
0.007881836 -0.055172861 0.69245338
0.0078916885 -0.057214737 0.69275069
0.0079017207 -0.059262902 0.69305342
0.0079120602 -0.061318487 0.69336545
0.0079223951 -0.063379139 0.69367737
0.0079327887 -0.065445513 0.69399095
0.0079432102 -0.067517251 0.69430554
0.0079536587 -0.069594502 0.69462079
0.0079641342 -0.071677208 0.69493699
0.0079746386 -0.073765397 0.69525391
0.0079851374 -0.075858802 0.69557077
0.0079958886 -0.077959925 0.6958952
0.0080069248 -0.080069244 0.69622827
0.0080179581 -0.082184047 0.69656122
0.0080290232 -0.08430475 0.69689512
0.0080401516 -0.086431593 0.69723094
0.0080512781 -0.088564053 0.69756675
0.008062467 -0.090702772 0.69790435
0.0092047406 0.086524546 0.67682004
0.0092101283 0.084733218 0.6769501
0.0092155235 0.082939714 0.67708033
0.0092209242 0.081144154 0.67721069
0.009226365 0.079346776 0.67734206
0.0092317779 0.077546984 0.67747271
0.0092371972 0.075745016 0.6776036
0.0092429304 0.073943466 0.677742
0.0092491843 0.072143674 0.67789298
0.0092554465 0.070341408 0.67804414
0.0092617162 0.068536729 0.67819554
0.0092679951 0.066729575 0.67834711
0.0092742825 0.064919978 0.67849892
0.0092805782 0.063107938 0.67865092
0.0092868833 0.061293423 0.67880315
0.0092934379 0.059478045 0.67896134
0.0093005197 0.057663202 0.67913234
0.0093075791 0.055845439 0.67930275
0.0093146823 0.054025143 0.67947423
0.0093217632 0.052201867 0.67964524
0.0093288543 0.050375819 0.67981637
0.009335991 0.048547179 0.67998862
0.0093431035 0.046715498 0.6801604
0.0093502617 0.044881284 0.68033326
0.0093579907 0.043046743 0.68051982
0.0093658036 0.041209549 0.68070841
0.0093736639 0.039369404 0.68089819
0.0093815373 0.03752616 0.68108827
0.0093894247 0.035679817 0.68127871
0.0093973251 0.033830374 0.68146938
0.0094052032 0.031977683 0.68165964
0.0094131297 0.030122072 0.68185097
0.0094211409 0.02826342 0.68204439
0.0094296988 0.026403159 0.68225098
0.009438308 0.02453959 0.68245876
0.0094468966 0.022672594 0.68266618
0.0094555374 0.02080217 0.6828748
0.0094641577 0.018928319 0.68308288
0.0094728302 0.017051101 0.68329227
0.0094814822 0.015170395 0.68350112
0.0094901863 0.013286293 0.68371129
0.0094989063 0.011398703 0.68392181
0.0095082205 0.0095082223 0.68414664
0.0095175533 0.0076140463 0.68437195
0.0095269037 0.005716145 0.68459773
0.0095362728 0.0038145185 0.68482393
0.0095456606 0.0019091368 0.68505061
0.009555066 -0 0.68527764
0.009564491 -0.0019128621 0.68550515
0.0095739346 -0.0038295686 0.68573314
0.0095833959 -0.0057500303 0.6859616
0.0095933918 -0.0076746941 0.68620288
0.0096034454 -0.0096034706 0.68644559
0.0096135568 -0.01153627 0.68668973
0.0096236896 -0.013473153 0.68693435
0.0096338438 -0.015414149 0.68717951
0.0096439812 -0.017359167 0.68742418
0.0096541783 -0.019308329 0.68767047
0.0096643968 -0.021261662 0.68791717
0.0096746366 -0.023219138 0.68816429
0.009685237 -0.025181621 0.68842024
0.0096960468 -0.027148932 0.68868124
0.0097069191 -0.029120773 0.68894368
0.0097178156 -0.031097054 0.68920678
0.0097287372 -0.033077717 0.68947041
0.0097396448 -0.035062701 0.68973374
0.0097506158 -0.037052333 0.68999857
0.009761611 -0.039046466 0.69026405
0.0097725932 -0.041044891 0.69052923
0.009792407 -0.043086588 0.69100755
0.0098088002 -0.045120478 0.69140333
0.0098204287 -0.047138035 0.69168407
0.0098320842 -0.049160421 0.69196546
0.0098438058 -0.051187813 0.69224846
0.0098555172 -0.053219795 0.69253123
0.0098672956 -0.055256873 0.69281548
0.009879062 -0.057298571 0.69309962
0.0098909354 -0.059345603 0.6933862
0.0099027986 -0.061397314 0.69367266
0.0099150036 -0.063455999 0.69396728
0.0099274758 -0.06552133 0.69426841
0.0099399798 -0.067591816 0.69457024
0.0099524753 -0.06966731 0.6948719
0.0099650417 -0.071748316 0.69517529
0.0099776406 -0.073834568 0.69547951
0.0099903103 -0.075926334 0.69578528
0.010002973 -0.078023165 0.69609106
0.010015667 -0.080125332 0.69639754
0.010028716 -0.082235485 0.69671261
0.010042 -0.084352791 0.69703329
0.010055359 -0.086476102 0.69735581
0.010068755 -0.088605046 0.69767916
0.010088935 -0.090800405 0.69816631
0.01109332 0.086897701 0.67777824
0.011106823 0.085152298 0.67804992
0.011118134 0.083386004 0.67827749
0.011129511 0.081616431 0.67850637
0.011140868 0.079842895 0.6787349
0.011152291 0.078066021 0.67896467
0.011163695 0.076285243 0.67919415
0.011173667 0.074491113 0.67939478
0.011181991 0.072682947 0.67956221
0.011190327 0.070872068 0.67972994
0.011198675 0.069058537 0.67989784
0.011206827 0.067240953 0.68006188
0.011213524 0.065412223 0.68019664
0.011220189 0.063581109 0.68033063
0.01122686 0.06174773 0.68046492
0.011233539 0.059912235 0.68059927
0.011240226 0.058074474 0.6807338
0.011246921 0.056234598 0.68086851
0.011253625 0.054392517 0.68100339
0.011260759 0.052550197 0.68114692
0.011268495 0.050708234 0.68130249
0.01127624 0.048863709 0.68145835
0.011283995 0.04701665 0.68161434
0.011291763 0.045167059 0.68177062
0.011299539 0.043314904 0.68192714
0.01130737 0.041460365 0.68208468
0.01131517 0.039603084 0.68224156
0.011323405 0.037744671 0.68240726
0.011332125 0.035885036 0.68258274
0.011340902 0.034022719 0.68275928
0.011349647 0.032157332 0.68293518
0.01135845 0.030289203 0.68311232
0.011367224 0.028418064 0.68328881
0.011376055 0.026544154 0.68346643
0.011384855 0.024667203 0.68364346
0.011393799 0.022787631 0.68382341
0.011403494 0.020906419 0.68401849
0.011413204 0.019022048 0.68421388
0.011422889 0.017134339 0.68440866
0.011432632 0.0152435 0.68460476
0.011442393 0.013349473 0.6848011
0.011452171 0.011452198 0.6849978
0.011461965 0.0095516443 0.68519485
0.011471732 0.0076478124 0.68539131
0.011481954 0.0057410002 0.685597
0.011492591 0.0038308799 0.68581098
0.011503204 0.0019172132 0.68602449
0.01151388 -0 0.6862393
0.011524533 -0.0019207299 0.68645358
0.011535248 -0.0038450658 0.68666923
0.011545939 -0.0057729483 0.68688428
0.011556695 -0.0077044666 0.68710065
0.011567427 -0.0096395314 0.6873166
0.011578669 -0.011578649 0.68754274
0.011590202 -0.01352191 0.68777478
0.011601759 -0.015468985 0.68800724
0.011613336 -0.017420024 0.68824023
0.01162494 -0.019374907 0.68847358
0.011636565 -0.021333665 0.68870747
0.011648213 -0.023296446 0.6889419
0.011659839 -0.025262982 0.68917572
0.011671535 -0.027233541 0.68941104
0.011683708 -0.029209286 0.68965596
0.011696135 -0.03118968 0.689906
0.011708634 -0.033174455 0.69015741
0.011721158 -0.035163462 0.69040942
0.011733712 -0.037156731 0.69066197
0.011746244 -0.039154112 0.69091409
0.01175885 -0.041155964 0.69116771
0.011788216 -0.043223441 0.69175851
0.011800866 -0.045236647 0.69201303
0.01181359 -0.047254354 0.69226903
0.011826854 -0.049278587 0.69253588
0.011840288 -0.051307887 0.69280612
0.011853798 -0.053342104 0.69307792
0.011867293 -0.055380672 0.69334942
0.011880819 -0.057423949 0.69362152
0.011894376 -0.059471875 0.69389427
0.011908058 -0.061524957 0.69416952
0.011921723 -0.06358251 0.69444454
0.011935469 -0.065645099 0.69472098
0.01194953 -0.067714006 0.69500393
0.011963912 -0.069789469 0.69529319
0.011978376 -0.071870238 0.69558424
0.011992826 -0.073955745 0.69587493
0.012007408 -0.076046914 0.69616836
0.012022026 -0.078143179 0.69646239
0.012036631 -0.080244213 0.69675624
0.012051319 -0.082350671 0.6970517
0.012065995 -0.084461927 0.69734699
0.012081095 -0.086581156 0.69765079
0.012096527 -0.088707849 0.69796121
0.01213589 -0.091019198 0.69875318
0.01294369 0.086907655 0.67780387
0.012959735 0.085163981 0.67808056
0.012975867 0.083416283 0.67835873
0.012992039 0.081664205 0.67863762
0.013008252 0.079907835 0.67891717
0.013024456 0.078146756 0.6791966
0.01304075 0.076381534 0.67947757
0.013057035 0.074611664 0.67975843
0.01307346 0.072837859 0.68004167
0.01308973 0.071058542 0.68032229
0.013105991 0.069274515 0.68060267
0.013122294 0.067486078 0.68088377
0.013138686 0.065693408 0.68116647
0.013154773 0.0638946 0.68144387
0.013169115 0.062082976 0.68169123
0.013182746 0.060263962 0.68192625
0.013196455 0.05844146 0.68216264
0.013210143 0.056614906 0.68239868
0.013223808 0.054784358 0.68263435
0.013236453 0.052945793 0.68285233
0.013246614 0.051094085 0.68302763
0.013256641 0.04923895 0.68320054
0.013266684 0.047380984 0.68337369
0.013276188 0.045518339 0.6835376
0.013284246 0.043648243 0.68367654
0.013292261 0.041775703 0.68381476
0.013300287 0.039900839 0.68395317
0.013308322 0.03802377 0.68409175
0.013316368 0.036144435 0.68423045
0.013324423 0.034262806 0.68436939
0.013332486 0.032378882 0.68450844
0.01334112 0.030494004 0.68465728
0.013350425 0.028608024 0.68481779
0.013359744 0.026719511 0.68497849
0.013369076 0.024828315 0.68513942
0.013378422 0.022934467 0.68530053
0.013387779 0.021037936 0.68546188
0.013397201 0.019138873 0.68562442
0.013406587 0.017237037 0.68578625
0.013416652 0.015333295 0.68595982
0.013427195 0.013427198 0.68614161
0.013437704 0.011518031 0.68632287
0.013448281 0.0096059442 0.6865052
0.013458824 0.0076907575 0.68668699
0.013469434 0.0057726204 0.68686998
0.01348001 0.0038514435 0.68705237
0.013490654 0.0019272566 0.68723589
0.013501679 2.9802322e-08 0.68742603
0.013513346 -0.001930505 0.68762726
0.013525035 -0.0038642883 0.68782878
0.013536693 -0.0058014095 0.68802983
0.013548422 -0.0077419579 0.688232
0.013560171 -0.0096858442 0.68843472
0.01357194 -0.011633098 0.68863767
0.013583732 -0.01358372 0.68884099
0.013595491 -0.015537709 0.68904376
0.01360822 -0.017496288 0.68926334
0.013620974 -0.019458532 0.68948323
0.013633804 -0.021424562 0.68970454
0.013646606 -0.023394167 0.68992525
0.013659487 -0.025367618 0.6901474
0.013672337 -0.027344674 0.69036895
0.013685266 -0.029325545 0.69059181
0.013698164 -0.031310081 0.69081432
0.013711302 -0.03329888 0.69104087
0.013725111 -0.035293102 0.69127899
0.013739001 -0.037291586 0.69151849
0.013752919 -0.039294094 0.69175851
0.013766866 -0.041300595 0.69199902
0.01380104 -0.043374687 0.69258839
0.013815085 -0.045392394 0.69283056
0.013829104 -0.047414064 0.69307226
0.013843206 -0.049440026 0.69331545
0.013857391 -0.051470309 0.69356
0.01387188 -0.053505808 0.69380987
0.013886895 -0.055547535 0.69406885
0.013901942 -0.057593763 0.69432831
0.013917023 -0.059644371 0.69458842
0.013932136 -0.06169948 0.69484901
0.013947281 -0.063758999 0.69511014
0.013962571 -0.065823555 0.69537383
0.01397795 -0.067892909 0.69563907
0.013993308 -0.069966525 0.6959039
0.014008868 -0.072045624 0.69617224
0.014025022 -0.074132234 0.69645077
0.014041216 -0.076223761 0.69673002
0.014057502 -0.078320354 0.69701082
0.014073882 -0.080422193 0.6972934
0.014090246 -0.082528561 0.69757545
0.014106703 -0.084640205 0.69785929
0.014123143 -0.086756438 0.69814283
0.014139677 -0.088877946 0.69842792
0.014210007 -0.091350049 0.69964069
0.014836597 0.087164998 0.67846489
0.014849091 0.085382283 0.67865342
0.014861661 0.083596855 0.67884308
0.014874252 0.081808388 0.67903304
0.014887307 0.080019325 0.67923009
0.014903215 0.078241885 0.67947012
0.014919156 0.076460689 0.67971063
0.014935133 0.074675679 0.67995167
0.014951143 0.072886825 0.68019325
0.014967187 0.071094126 0.68043536
0.014983267 0.069297612 0.68067795
0.01499938 0.067497224 0.68092108
0.015016937 0.0656991 0.68118602
0.015035889 0.063902527 0.68147194
0.015054833 0.062101215 0.68175781
0.015073882 0.060295522 0.68204528
0.01509298 0.058485299 0.68233341
0.015112068 0.056670278 0.68262142
0.015131261 0.054850817 0.68291104
0.015150447 0.053026587 0.6832006
0.015169912 0.051198453 0.68349421
0.015189369 0.049365461 0.68378782
0.015208528 0.047526658 0.68407691
0.015227795 0.045683384 0.6843676
0.015247052 0.043835312 0.68465817
0.015265834 0.041981071 0.68494159
0.015283611 0.040119499 0.68520981
0.015299734 0.038249344 0.68545312
0.015315833 0.036375105 0.68569601
0.015332024 0.034497052 0.68594027
0.015348013 0.032614529 0.68618155
0.015362976 0.030725926 0.68640733
0.015375722 0.028829485 0.68659967
0.015387603 0.026928306 0.6867789
0.015399442 0.025024086 0.6869576
0.015410292 0.023115456 0.68712127
0.01541985 0.021202296 0.68726552
0.01542936 0.019286692 0.68740898
0.015438821 0.017368674 0.68755174
0.015448295 0.015448302 0.68769467
0.01545778 0.013525546 0.68783784
0.015467278 0.011600465 0.68798113
0.015476787 0.0096729696 0.68812466
0.015487025 0.0077435374 0.68827909
0.015497998 0.0058117807 0.68844461
0.015508986 0.0038772523 0.68861043
0.015519992 0.001940012 0.68877655
0.015531012 -0 0.68894279
0.015542046 -0.0019427538 0.68910933
0.015553096 -0.0038882792 0.68927598
0.015564165 -0.0058365464 0.68944299
0.015576278 -0.0077881217 0.6896258
0.015588652 -0.0097429156 0.68981254
0.015601107 -0.011700839 0.69000041
0.015613521 -0.013661832 0.69018775
0.015626015 -0.015626013 0.69037628
0.015638471 -0.017593294 0.69056422
0.015651004 -0.019563764 0.69075334
0.015663497 -0.021537304 0.69094181
0.015676871 -0.023515314 0.69114363
0.015690636 -0.025497258 0.69135135
0.015704425 -0.027482718 0.69155943
0.015718238 -0.029471695 0.69176781
0.015732015 -0.03146401 0.69197571
0.015745876 -0.033460021 0.69218493
0.015759764 -0.035459459 0.69239438
0.015773674 -0.037462503 0.6926043
0.015787922 -0.039469808 0.6928193
0.015803006 -0.041482866 0.69304687
0.015842095 -0.04356578 0.69363672
0.01585722 -0.045589477 0.69386482
0.015872311 -0.047616899 0.69409251
0.015887493 -0.049648404 0.69432163
0.015902704 -0.051683784 0.69455117
0.01591788 -0.053722829 0.69478017
0.015933279 -0.055766493 0.69501251
0.015948832 -0.057814509 0.69524717
0.015964797 -0.059868008 0.6954881
0.015981179 -0.06192708 0.69573528
0.015997658 -0.063990623 0.69598395
0.016014105 -0.066058159 0.69623208
0.016030652 -0.068130285 0.69648182
0.01604736 -0.070207208 0.69673389
0.016064104 -0.072288454 0.69698656
0.016080884 -0.07437408 0.6972397
0.016097698 -0.076464057 0.69749343
0.016114937 -0.078560293 0.69775355
0.016132668 -0.080663323 0.69802111
0.016150568 -0.082771659 0.69829118
0.016168507 -0.084884614 0.69856179
0.016186487 -0.087002382 0.69883317
0.016204573 -0.089125156 0.69910604
0.01691455 0.086452156 0.68146092
0.016879678 0.084398389 0.6809932
0.016876958 0.082509607 0.68095672
0.016874176 0.080621094 0.68091941
0.016874239 0.078746468 0.68092024
0.016883032 0.076911628 0.68103814
0.016891899 0.07507512 0.68115711
0.016900774 0.073236704 0.68127614
0.016909659 0.071396351 0.68139529
0.016919317 0.06955716 0.68152487
0.016933821 0.067735285 0.68171936
0.016948352 0.06591028 0.68191427
0.016962908 0.064082116 0.68210953
0.016977489 0.062250763 0.6823051
0.016992031 0.060416102 0.68250012
0.017006727 0.05857873 0.68269724
0.017023506 0.056745023 0.68292224
0.017041996 0.054913104 0.68317026
0.017060526 0.053077191 0.68341881
0.017079096 0.051237285 0.68366784
0.017097708 0.049393386 0.6839174
0.017116359 0.047545463 0.68416756
0.01713505 0.045693457 0.68441832
0.017153978 0.043837935 0.68467218
0.017175961 0.041985691 0.68496704
0.017198004 0.040128648 0.68526268
0.017220033 0.038266778 0.68555808
0.017242188 0.036400169 0.68585527
0.017264331 0.034528673 0.68615228
0.017286599 0.032652467 0.68645096
0.017308857 0.030771315 0.68674946
0.017331308 0.028885514 0.68705064
0.017354149 0.026995361 0.68735695
0.017376782 0.025099814 0.68766052
0.017399073 0.023198754 0.68795949
0.01742149 0.021292955 0.68826008
0.017443081 0.019381195 0.68854976
0.017463917 0.017463923 0.68882918
0.017483376 0.015540808 0.68909013
0.017502131 0.013612777 0.68934172
0.017520789 0.011680514 0.689592
0.01753935 0.0097440779 0.68984091
0.017556787 0.0078029931 0.6900748
0.01757234 0.0058574677 0.69028342
0.017586406 0.0039080977 0.69047213
0.017600155 0.001955539 0.69065642
0.017612338 -0 0.69081986
0.017623505 -0.0019581616 0.69096959
0.017634477 -0.003918767 0.69111681
0.017645463 -0.0058818161 0.69126415
0.017656464 -0.0078473389 0.69141167
0.017667478 -0.0098152757 0.69155943
0.017678507 -0.011785656 0.69170731
0.017689548 -0.01375854 0.69185543
0.017701508 -0.015734643 0.69201583
0.017714251 -0.017714232 0.69218671
0.017727012 -0.019696653 0.69235784
0.017739791 -0.021681964 0.69252932
0.017752588 -0.023670107 0.69270092
0.017765405 -0.025661141 0.69287288
0.01777824 -0.027655035 0.69304502
0.017791094 -0.029651821 0.69321734
0.017805375 -0.03165397 0.69340891
0.017819818 -0.033659667 0.69360262
0.017834214 -0.035668403 0.69379568
0.017848706 -0.037680596 0.69399005
0.017863149 -0.039695859 0.69418377
0.017900996 -0.041768968 0.69469136
0.017921941 -0.043809175 0.69497228
0.017936433 -0.045837551 0.69516671
0.017951233 -0.047869921 0.69536519
0.017966919 -0.049908102 0.69557559
0.017982919 -0.051950663 0.69579011
0.017998947 -0.053996801 0.69600517
0.018015005 -0.056046695 0.69622046
0.018031089 -0.058100194 0.69643629
0.018047275 -0.060157597 0.69665337
0.018063709 -0.062219471 0.69687372
0.018080244 -0.064285338 0.69709551
0.01809681 -0.06635496 0.69731772
0.018114354 -0.068432033 0.69755304
0.018131858 -0.070512772 0.69778782
0.018149469 -0.072597861 0.69802403
0.018167336 -0.074687928 0.69826359
0.01818531 -0.076782405 0.69850469
0.018203247 -0.078880727 0.69874525
0.018221293 -0.08098352 0.69898736
0.018239373 -0.083090454 0.69922984
0.018257787 -0.085202992 0.69947678
0.01827698 -0.087323338 0.69973421
0.018296286 -0.089448497 0.69999319
0.019086078 0.062984079 0.68498725
0.019058669 0.060987741 0.68465644
0.019055549 0.059072196 0.68461877
0.019052429 0.057157278 0.68458104
0.019055692 0.055261523 0.6846205
0.019065859 0.053384423 0.68474323
0.019076034 0.051505297 0.68486601
0.019086223 0.049624175 0.68498898
0.019096347 0.047740877 0.68511128
0.019109549 0.045862943 0.68527061
0.019126203 0.043990254 0.68547153
0.019142887 0.042114347 0.685673
0.019159598 0.040235192 0.68587476
0.019176342 0.038352698 0.68607682
0.019193113 0.036466897 0.6862793
0.019209914 0.034577847 0.68648207
0.019231029 0.03269273 0.68673694
0.019252341 0.03080374 0.68699425
0.019273624 0.028910428 0.68725115
0.019294955 0.027012944 0.68750864
0.019316332 0.025111228 0.68776667
0.019337758 0.02320531 0.6880253
0.019359231 0.02129516 0.68828452
0.019383004 0.019382983 0.68857145
0.019408267 0.017467469 0.68887639
0.019433519 0.015546799 0.68918127
0.019458912 0.013621241 0.68948781
0.019484296 0.011690587 0.68979418
0.019509748 0.0097548664 0.69010139
0.019535342 0.0078141391 0.69041032
0.019560926 0.0058682859 0.69071919
0.019587114 0.0039174259 0.69103533
0.019613372 0.0019613504 0.69135231
0.019639393 -0 0.69166636
0.019665018 -0.0019665062 0.69197571
0.019689549 -0.0039379001 0.69227183
0.019713441 -0.0059140325 0.6925602
0.019737003 -0.007894814 0.69284463
0.019758437 -0.0098792017 0.69310331
0.01977976 -0.011867821 0.69336075
0.019800972 -0.013860673 0.69361681
0.019821132 -0.015856892 0.69386011
0.019839758 -0.017855793 0.694085
0.019856056 -0.019856036 0.6942817
0.019871986 -0.021859199 0.69447398
0.01988557 -0.02386266 0.69463789
0.019898379 -0.025867909 0.69479263
0.019910971 -0.027875334 0.69494462
0.019923577 -0.029885381 0.69509679
0.019936198 -0.031897902 0.69524914
0.019948836 -0.033913016 0.69540161
0.019961489 -0.035930693 0.69555444
0.019974161 -0.037950873 0.69570732
0.019987965 -0.039975941 0.69587398
0.020037912 -0.042079628 0.69647694
0.020052528 -0.044115543 0.69665337
0.020067165 -0.046154469 0.69683003
0.020081824 -0.048196375 0.69700694
0.020096503 -0.050241262 0.69718421
0.020111203 -0.052289099 0.69736165
0.02012617 -0.054340631 0.69754225
0.0201414 -0.056395918 0.69772613
0.020157142 -0.058455706 0.69791615
0.020173639 -0.060520917 0.69811535
0.020190246 -0.062589765 0.69831574
0.020206798 -0.064661741 0.69851559
0.020223541 -0.066737682 0.69871759
0.02024064 -0.068818182 0.69892406
0.020257765 -0.070902169 0.69913077
0.020275004 -0.07299 0.69933885
0.020292273 -0.075081408 0.69954729
0.02031064 -0.077180415 0.69976902
0.020329125 -0.079283595 0.69999218
0.020347891 -0.081391573 0.70021868
0.020366775 -0.083503783 0.70044667
0.020385612 -0.085619539 0.70067394
0.020404566 -0.087739646 0.70090288
0.020503817 -0.090216786 0.70210087
0.021326015 0.03877458 0.68862319
0.021309337 0.03680706 0.68844014
0.021305788 0.034864008 0.68840122
0.021302326 0.032921791 0.68836319
0.021309748 0.030995995 0.68844461
0.021321306 0.02907449 0.68857151
0.021332875 0.027150959 0.68869841
0.021344373 0.025225192 0.68882465
0.02135597 0.023297429 0.68895185
0.021373302 0.021373332 0.68914211
0.021392241 0.019447476 0.68934995
0.021411216 0.017518282 0.68955815
0.021430222 0.015585631 0.68976671
0.021449264 0.013649523 0.68997568
0.021468339 0.011709958 0.69018501
0.021489548 0.0097679794 0.69041771
0.021513654 0.0078231394 0.69068229
0.021537816 0.0058739483 0.69094741
0.021562116 0.0039203763 0.69121408
0.021586386 0.0019623935 0.6914804
0.021610713 5.9604645e-08 0.69174731
0.021635091 -0.0019668341 0.69201493
0.021660209 -0.0039382279 0.69229048
0.021688888 -0.0059151947 0.69260526
0.021717558 -0.0078972578 0.69291985
0.02174639 -0.0098847151 0.69323617
0.02177521 -0.011877388 0.69355249
0.021804109 -0.013875365 0.69386959
0.02183317 -0.015878677 0.69418859
0.021862222 -0.017887264 0.6945073
0.021891702 -0.019901544 0.69483078
0.021921521 -0.021921515 0.69515806
0.02195151 -0.02394709 0.69548714
0.021981141 -0.025977731 0.69581234
0.022008652 -0.028010994 0.69611418
0.022035792 -0.030048817 0.69641209
0.022062998 -0.032091618 0.69671065
0.022088232 -0.034136355 0.69698751
0.02211228 -0.036183715 0.69725144
0.022136472 -0.038235694 0.69751686
0.022159465 -0.040289909 0.69776922
0.022244725 -0.042467207 0.69870478
0.02225489 -0.044509768 0.69881636
0.022267135 -0.046558529 0.69895071
0.022279482 -0.048609763 0.69908625
0.022291755 -0.050663084 0.69922096
0.022304494 -0.052719712 0.69936073
0.022318332 -0.054781348 0.69951248
0.022332639 -0.056846708 0.69966954
0.022346966 -0.058914721 0.69982678
0.02236131 -0.060985386 0.69998419
0.022376038 -0.063059747 0.70014578
0.022391239 -0.065138161 0.70031267
0.022406371 -0.067219108 0.70047867
0.022421889 -0.069303989 0.70064896
0.022438526 -0.071395278 0.70083153
0.022455186 -0.073489696 0.7010144
0.022472424 -0.075589031 0.70120353
0.022489777 -0.077691942 0.70139396
0.022507068 -0.079797775 0.70158362
0.022524476 -0.081907183 0.70177472
0.022541912 -0.08401984 0.70196605
0.022560021 -0.086138278 0.70216477
0.022579364 -0.088264793 0.70237708
0.023725677 0.015817106 0.69325984
0.023639366 0.013789654 0.69239157
0.023635272 0.011817664 0.69235039
0.023631364 0.0098463893 0.69231111
0.023627365 0.0078758001 0.69227087
0.023640018 0.0059100091 0.69239813
0.023652961 0.003942132 0.69252837
0.023666013 0.0019721985 0.69265968
0.023678988 -0 0.69279015
0.023693003 -0.0019744039 0.69293112
0.023714339 -0.003952384 0.69314575
0.023735713 -0.0059339404 0.69336075
0.023757126 -0.0079190433 0.69357616
0.023778575 -0.0099077225 0.69379193
0.023800066 -0.011900008 0.69400811
0.023821594 -0.013895899 0.69422472
0.023847993 -0.015898645 0.69449019
0.023875207 -0.017906398 0.69476396
0.023902485 -0.01991874 0.69503832
0.023929922 -0.021935731 0.69531435
0.023957325 -0.023957312 0.69559002
0.023984792 -0.025983512 0.69586635
0.02401232 -0.028014392 0.69614321
0.024043279 -0.030054122 0.69645464
0.024075577 -0.032100737 0.69677955
0.024108058 -0.034153074 0.69710624
0.024140529 -0.036210805 0.69743288
0.024173085 -0.03827405 0.6977604
0.024205733 -0.040342867 0.69808877
0.024569441 -0.042996556 0.70174742
0.024571855 -0.045048386 0.70177168
0.024578694 -0.047109157 0.70184046
0.024585839 -0.049171686 0.70191234
0.02459299 -0.051235408 0.70198435
0.024600243 -0.05330053 0.70205724
0.024607603 -0.055367082 0.70213127
0.024615878 -0.057437032 0.70221448
0.024626981 -0.059515208 0.70232624
0.0246381 -0.061595231 0.70243806
0.024649225 -0.063677162 0.70254999
0.024660461 -0.065761209 0.702663
0.024671711 -0.067847222 0.70277613
0.024683475 -0.069936484 0.70289451
0.024697384 -0.072034031 0.7030344
0.024711715 -0.074135125 0.70317858
0.024726065 -0.076238692 0.70332289
0.024740431 -0.078344673 0.70346743
0.024754813 -0.080453128 0.70361209
0.024770029 -0.082566798 0.70376515
0.024786698 -0.084687889 0.70393288
0.024803694 -0.086812913 0.70410383
0.024956793 -0.089428484 0.70564389
0.026123354 -0.010047436 0.69716471
0.026044905 -0.012020737 0.69643629
0.026040424 -0.014021724 0.69639462
0.026036046 -0.016022146 0.69635391
0.026035732 -0.018024713 0.69635105
0.026050331 -0.020038724 0.69648659
