# .PCD v0.7 - Point Cloud Data file format
VERSION 0.7
FIELDS x y z
SIZE 4 4 4
TYPE F F F
COUNT 1 1 1
WIDTH 1322
HEIGHT 1
VIEWPOINT 0 0 0 1 0 0 0
POINTS 1322
DATA ascii
-0.026301131 -0.048218712 0.63097721
-0.031446878 -0.011098891 0.67789054
-0.030406285 -0.012520254 0.67050165
-0.030520951 -0.014362812 0.67131585
-0.026250547 -0.01389733 0.6409933
-0.025234202 -0.014843673 0.63377666
-0.024462488 -0.015828639 0.62829691
-0.023810593 -0.016807497 0.62366807
-0.023237333 -0.017769724 0.61959761
-0.023114517 -0.019035459 0.61872548
-0.023089606 -0.020373195 0.61854863
-0.023964547 -0.022554874 0.62476128
-0.023713609 -0.023713589 0.62297946
-0.02350601 -0.024888694 0.62150538
-0.025992732 -0.029050678 0.63916266
-0.025901079 -0.030471832 0.63851184
-0.02722526 -0.033631176 0.64791435
-0.027059663 -0.035018384 0.64673853
-0.026881363 -0.036368877 0.64547247
-0.026701791 -0.03769666 0.6441974
-0.026511213 -0.038987041 0.6428442
-0.026321543 -0.04025647 0.64149737
-0.026086558 -0.041431546 0.63982886
-0.025761608 -0.042430848 0.63752151
-0.025286637 -0.04313603 0.6341489
-0.024903009 -0.043946475 0.6314249
-0.024616178 -0.044888303 0.62938827
-0.024718327 -0.046528637 0.6301136
-0.02482133 -0.048182592 0.63084495
-0.024925193 -0.049850389 0.6315825
-0.030321095 -0.0075802505 0.68335295
-0.029510111 -0.0092219412 0.67723453
-0.028783228 -0.010793686 0.67175066
-0.025233122 -0.011039495 0.64496714
-0.024342427 -0.012171179 0.63824731
-0.023619438 -0.013285935 0.63279283
-0.022991978 -0.014369994 0.62805897
-0.0224327 -0.015422463 0.62383956
-0.021927098 -0.016445339 0.62002516
-0.021709532 -0.017638981 0.61838365
-0.021632332 -0.01892826 0.61780125
-0.021716127 -0.02035889 0.61843348
-0.025475454 -0.025475442 0.64679539
-0.025371064 -0.026956737 0.64600778
-0.026673879 -0.030008107 0.65583682
-0.026505031 -0.03147471 0.65456295
-0.026324965 -0.032906175 0.65320444
-0.026142124 -0.034311503 0.65182501
-0.025948256 -0.035678864 0.65036243
-0.025755256 -0.037023157 0.64890629
-0.025508329 -0.038262486 0.64704335
-0.025163485 -0.039317936 0.64444172
-0.024676394 -0.040099174 0.64076698
-0.02430865 -0.04102084 0.6379925
-0.024006361 -0.042011142 0.63571191
-0.023743922 -0.043035835 0.63373196
-0.023521174 -0.044102192 0.63205147
-0.02333184 -0.045205444 0.63062304
-0.023246948 -0.046493888 0.62998259
-0.023697322 -0.048875704 0.63338041
-0.023516199 -0.049971923 0.63201392
-0.029306903 -0.0039075613 0.69044167
-0.028581036 -0.0057161748 0.68460035
-0.025369983 -0.0067653358 0.65875977
-0.024233727 -0.0080778897 0.64961588
-0.023418523 -0.0093674064 0.64305568
-0.022739852 -0.010611922 0.6375941
-0.022143353 -0.011809796 0.6327939
-0.021604242 -0.01296255 0.6284554
-0.021110633 -0.014073759 0.62448317
-0.020656796 -0.015148282 0.62083095
-0.020333553 -0.016266793 0.61822975
-0.020220375 -0.017524332 0.61731899
-0.020266239 -0.018915176 0.617688
-0.020344686 -0.020344675 0.61831933
-0.025903396 -0.02763027 0.66305238
-0.025721589 -0.029151142 0.66158926
-0.025535451 -0.030642539 0.66009134
-0.02533838 -0.032095283 0.65850544
-0.025142219 -0.033522934 0.65692687
-0.02488224 -0.0348351 0.65483475
-0.024510402 -0.035948575 0.65184236
-0.024020212 -0.036830992 0.64789766
-0.023668511 -0.037869602 0.64506733
-0.023372505 -0.038954198 0.64268529
-0.023118157 -0.040071458 0.64063847
-0.022902291 -0.041224122 0.63890129
-0.022716036 -0.042403221 0.63740242
-0.02255737 -0.043610901 0.63612568
-0.023061331 -0.04612267 0.64018118
-0.022867264 -0.047259003 0.63861942
-0.022662811 -0.048347324 0.63697416
-0.022461981 -0.049416363 0.63535798
-0.022261972 -0.050460443 0.63374841
-0.022063093 -0.051480547 0.63214803
-0.028309867 2.9802322e-08 0.69869101
-0.025192481 -0.0017994344 0.6718123
-0.024171498 -0.0034530759 0.66300923
-0.023220886 -0.004975915 0.65481281
-0.022466462 -0.0064189732 0.64830804
-0.021821747 -0.0077935159 0.64274919
-0.021253288 -0.0091085434 0.63784784
-0.020735832 -0.0103679 0.63338625
-0.020258721 -0.011576414 0.62927246
-0.019817976 -0.012740135 0.62547225
-0.019404434 -0.013860315 0.6219067
-0.019017396 -0.014942229 0.61856955
-0.018871129 -0.01617524 0.61730844
-0.018829484 -0.017484546 0.61694938
-0.025065111 -0.025065094 0.67071408
-0.024875699 -0.026652515 0.66908097
-0.024675645 -0.028200716 0.66735607
-0.024476307 -0.02972123 0.66563731
-0.024201144 -0.031115741 0.66326481
-0.023794714 -0.032292843 0.65976048
-0.023323867 -0.033319801 0.6557008
-0.022979336 -0.034469008 0.65273017
-0.022691634 -0.03565827 0.65024954
-0.022442207 -0.036869317 0.64809889
-0.022239925 -0.038125604 0.64635479
-0.022055067 -0.039384037 0.64476097
-0.021972813 -0.040806651 0.64405173
-0.022369681 -0.043141514 0.64747357
-0.022163859 -0.044327706 0.6456989
-0.021958143 -0.045484722 0.64392525
-0.021755397 -0.04661873 0.6421771
-0.021551985 -0.04772225 0.64042324
-0.021352343 -0.048805356 0.63870192
-0.021155151 -0.049865723 0.63700169
-0.020958243 -0.050898582 0.63530391
-0.020764906 -0.051912248 0.63363689
-0.020652751 -0.053107068 0.63266987
-0.028114658 0.0064880252 0.71565479
-0.027240444 0.0041908324 0.70753735
-0.023841362 0.0018339753 0.67597538
-0.022768253 -0 0.6660111
-0.022180682 -0.0017062128 0.66055524
-0.021479513 -0.0033045113 0.65404457
-0.020867204 -0.0048154891 0.64835906
-0.020319575 -0.0062521994 0.64327407
-0.019823188 -0.0076242983 0.6386649
-0.019364299 -0.0089373887 0.63440388
-0.018936368 -0.010196477 0.63043034
-0.018538559 -0.011408329 0.62673652
-0.018158946 -0.012571573 0.62321162
-0.017807232 -0.013697863 0.61994582
-0.017537696 -0.01483959 0.61744308
-0.017436901 -0.016095608 0.61650711
-0.023952771 -0.023952782 0.67700988
-0.023748832 -0.025575697 0.67511624
-0.023460178 -0.02706942 0.67243588
-0.023019241 -0.028331369 0.66834164
-0.022568865 -0.029513091 0.66415966
-0.022236869 -0.030789495 0.6610769
-0.021953627 -0.032086045 0.65844697
-0.021718478 -0.033413053 0.65626347
-0.021521157 -0.034764946 0.65443128
-0.021343065 -0.036119044 0.65277761
-0.021815574 -0.038596779 0.65716505
-0.02161484 -0.039904326 0.65530115
-0.021404238 -0.041162014 0.65334564
-0.021197699 -0.042395383 0.65142781
-0.020990973 -0.043596625 0.64950824
-0.020787114 -0.044772238 0.64761537
-0.020587044 -0.045924932 0.64575768
-0.020386318 -0.04704535 0.64389378
-0.020189403 -0.048143953 0.64206535
-0.01999601 -0.049220949 0.64026964
-0.019785563 -0.05022487 0.6383155
-0.019542674 -0.051111594 0.63606018
-0.019166421 -0.051601887 0.63256651
-0.019162977 -0.053066671 0.6325345
-0.026863938 0.011193305 0.72482824
-0.026095349 0.0086984932 0.71709687
-0.022587433 0.0056468546 0.6818099
-0.021659844 0.0036099851 0.67247909
-0.02092471 0.0017437637 0.66508424
-0.020434896 2.9802322e-08 0.66015708
-0.019862399 -0.0016551912 0.6543982
-0.01933915 -0.0032231808 0.64913476
-0.018860638 -0.0047151446 0.64432132
-0.018419577 -0.0061398745 0.63988459
-0.018009525 -0.0075039566 0.63575977
-0.017621208 -0.0088106096 0.63185358
-0.017261581 -0.010069251 0.628236
-0.016917817 -0.01127854 0.62477803
-0.016591467 -0.012443602 0.62149525
-0.016284002 -0.013569981 0.61840236
-0.016120275 -0.014776915 0.61675537
-0.01605566 -0.016055644 0.61610538
-0.02217607 -0.02402404 0.67767191
-0.021752518 -0.025377959 0.67341137
-0.021429172 -0.026786447 0.67015874
-0.021157932 -0.02821058 0.66743028
-0.020933099 -0.029655218 0.66516864
-0.020738894 -0.031108379 0.6632151
-0.020616272 -0.032642394 0.66198158
-0.021004204 -0.035007 0.6658839
-0.020792253 -0.0363864 0.66375184
-0.020581221 -0.037732244 0.66162902
-0.020372218 -0.039046764 0.65952665
-0.020164302 -0.040328592 0.65743512
-0.019960584 -0.041584581 0.65538591
-0.019757302 -0.04280749 0.65334105
-0.0195571 -0.044003487 0.65132719
-0.019360851 -0.045175314 0.64935303
-0.019150406 -0.046280175 0.64723617
-0.018905891 -0.047264725 0.64477646
-0.018527512 -0.047862738 0.64097029
-0.018221583 -0.048590869 0.6378929
-0.017971897 -0.049422711 0.63538122
-0.017760376 -0.050321072 0.63325351
-0.017601527 -0.051337779 0.63165563
-0.017675467 -0.053026408 0.63239938
-0.017750137 -0.054729596 0.63315046
-0.025606779 0.016295254 0.73559898
-0.022534896 0.012291759 0.70188916
-0.021317506 0.0096897781 0.68852979
-0.020491539 0.0074515045 0.67946589
-0.019805061 0.0054013729 0.6719327
-0.019215403 0.0034936965 0.66546196
-0.018796664 0.001708746 0.66086686
-0.018303836 2.9802322e-08 0.65545869
-0.017843995 -0.0016222 0.65041256
-0.017423447 -0.0031678975 0.64579761
-0.017026002 -0.0046434402 0.6414361
-0.016658731 -0.0060577095 0.63740575
-0.016309435 -0.0074133575 0.6335727
-0.01597861 -0.0087155998 0.62994242
-0.015667764 -0.009970367 0.62653124
-0.015368779 -0.011177301 0.62325025
-0.015085416 -0.012342632 0.62014067
-0.01481614 -0.013469219 0.61718583
-0.014723396 -0.01472339 0.61616802
-0.01470758 -0.016044647 0.61599445
-0.020289697 -0.02397874 0.67725092
-0.02008043 -0.025556892 0.67495453
-0.019893466 -0.027127445 0.67290282
-0.020318834 -0.029554665 0.67757058
-0.020112718 -0.031083286 0.67530882
-0.019897422 -0.032559425 0.67294627
-0.019686477 -0.034003913 0.67063141
-0.019474788 -0.035408676 0.66830838
-0.019267604 -0.036783606 0.66603476
-0.019062206 -0.038124412 0.66378081
-0.018859008 -0.039432466 0.661551
-0.018660098 -0.040712923 0.65936816
-0.018449679 -0.041931123 0.65705913
-0.018204849 -0.043029636 0.65437245
-0.017825214 -0.043752789 0.65020645
-0.017519504 -0.044595093 0.64685166
-0.017273184 -0.045538396 0.64414865
-0.017062739 -0.046534717 0.64183927
-0.016874053 -0.047554135 0.63976866
-0.016700836 -0.048584253 0.63786781
-0.016532879 -0.049598649 0.63602477
-0.01636968 -0.050597206 0.63423383
-0.016216785 -0.051598847 0.63255602
-0.016190263 -0.052986309 0.63226497
-0.016258607 -0.054688022 0.63301492
-0.025258275 0.025258273 0.75949222
-0.024255587 0.021830022 0.74738872
-0.021017384 0.016813904 0.70830017
-0.020034945 0.014024466 0.69644111
-0.019277707 0.011566639 0.68730044
-0.018637901 0.0093189478 0.67957729
-0.018070275 0.0072281063 0.67272544
-0.017567908 0.0052703619 0.66666132
-0.017192565 0.0034385026 0.66213053
-0.016769961 0.0016769767 0.65702927
-0.016362764 -0 0.65211391
-0.015989117 -0.0015988946 0.64760363
-0.01563474 -0.0031269193 0.64332592
-0.015300363 -0.0045901239 0.63928962
-0.014987168 -0.0059948564 0.63550907
-0.014686882 -0.0073434412 0.63188428
-0.014402662 -0.0086416006 0.62845349
-0.014132906 -0.0098930597 0.62519717
-0.013873107 -0.011098474 0.62206113
-0.013625951 -0.012263358 0.61907768
-0.013422644 -0.013422638 0.61662352
-0.013344034 -0.014678448 0.61567467
-0.018989954 -0.022787958 0.68382692
-0.019350622 -0.025155783 0.68818063
-0.019134467 -0.026788235 0.68557137
-0.018920228 -0.028380334 0.68298531
-0.018707097 -0.029931366 0.68041253
-0.018496932 -0.031444788 0.67787564
-0.018290102 -0.032922179 0.67537898
-0.018084383 -0.034360319 0.67289567
-0.017883301 -0.035766602 0.67046845
-0.017673649 -0.03711465 0.66793776
-0.017429302 -0.038344443 0.66498822
-0.01704968 -0.039214253 0.66040576
-0.016745323 -0.040188789 0.65673184
-0.016503355 -0.041258365 0.65381104
-0.016294716 -0.042366236 0.65129256
-0.016108384 -0.043492645 0.64904332
-0.01593646 -0.044622064 0.64696801
-0.015768018 -0.045727223 0.64493477
-0.015607284 -0.046821803 0.64299446
-0.015462017 -0.047932237 0.64124095
-0.015345551 -0.049105734 0.63983512
-0.0154246 -0.05090116 0.64078933
-0.015313663 -0.052066475 0.63945019
-0.015182533 -0.053138867 0.63786733
-0.015042995 -0.054154783 0.63618296
-0.014895171 -0.055112138 0.63439858
-0.014831767 -0.056360722 0.6336332
-0.023597008 0.031462669 0.77108806
-0.022784894 0.027848244 0.76019573
-0.019542549 0.021713942 0.71670842
-0.018670024 0.018670022 0.70500582
-0.017977534 0.015980035 0.69571799
-0.017387317 0.013523519 0.68780184
-0.016861161 0.01124081 0.68074483
-0.016378293 0.0090990663 0.67426842
-0.015944637 0.0070865154 0.66845208
-0.015535496 0.0051785111 0.66296458
-0.015240329 0.0033867657 0.65900576
-0.014882767 0.0016536415 0.65421003
-0.014545731 -0 0.64968961
-0.014231849 -0.0015812814 0.64547968
-0.013931399 -0.0030958652 0.64145005
-0.013647756 -0.0045492649 0.63764572
-0.01337889 -0.0059461594 0.63403958
-0.013121406 -0.0072896779 0.63058609
-0.012876553 -0.0085843801 0.62730211
-0.012643051 -0.0098334551 0.62417024
-0.0124179 -0.011038125 0.62115049
-0.012202181 -0.012202203 0.61825716
-0.012049897 -0.013388783 0.61621475
-0.011979439 -0.014641523 0.61526972
-0.01784729 -0.02379638 0.69397104
-0.017634822 -0.025472522 0.6911214
-0.017427286 -0.027109146 0.68833786
-0.017219968 -0.028699905 0.68555719
-0.017017459 -0.030253261 0.68284112
-0.016809488 -0.031751245 0.68005174
-0.016566705 -0.033133417 0.67679548
-0.016189052 -0.034176886 0.67173034
-0.015887203 -0.035304874 0.66768181
-0.015650826 -0.036518574 0.66451144
-0.015444969 -0.037754387 0.66175044
-0.015262851 -0.039005041 0.65930778
-0.015092054 -0.040245473 0.65701705
-0.014924346 -0.041456521 0.65476769
-0.014766666 -0.042659223 0.6526528
-0.014633127 -0.043899417 0.6508618
-0.014680688 -0.045673221 0.65149969
-0.014599869 -0.047043979 0.65041572
-0.014473363 -0.048244506 0.64871895
-0.014332588 -0.049367785 0.64683092
-0.014186834 -0.0504421 0.644876
-0.014039418 -0.051477849 0.6428988
-0.013889889 -0.052472934 0.64089328
-0.013743515 -0.053446993 0.63893002
-0.013600151 -0.054400608 0.63700724
-0.013459787 -0.055334657 0.63512456
-0.01333843 -0.056317791 0.63349688
-0.021940753 0.038396329 0.78565836
-0.019100672 0.031038582 0.74280477
-0.018008476 0.027012706 0.72632486
-0.017241934 0.023707658 0.71475857
-0.016607763 0.020759732 0.7051897
-0.016053926 0.018060654 0.69683295
-0.015559747 0.015559763 0.68937641
-0.015115036 0.013225645 0.68266618
-0.014699948 0.011024922 0.67640305
-0.01432333 0.0089520514 0.67072028
-0.01396694 0.006983459 0.66534281
-0.013691015 0.0051341653 0.66117936
-0.013388507 0.0033471584 0.6566149
-0.013089784 0.0016362667 0.65210748
-0.012808525 -0 0.64786363
-0.012543341 -0.0015678704 0.64386231
-0.012289256 -0.0030722916 0.64002848
-0.012048269 -0.0045180619 0.63639224
-0.011818506 -0.0059092343 0.63292539
-0.011597609 -0.007248491 0.6295923
-0.011388384 -0.008541286 0.6264354
-0.011187384 -0.0097889602 0.62340254
-0.010993388 -0.010993391 0.62047529
-0.010805977 -0.012156695 0.61764753
-0.010689395 -0.013361752 0.61588842
-0.010633879 -0.014621586 0.61505079
-0.010674401 -0.016011596 0.61566222
-0.015841343 -0.025742173 0.69362533
-0.015601472 -0.027302563 0.69000596
-0.015228838 -0.028554052 0.68438333
-0.014932402 -0.029864818 0.67991054
-0.014701515 -0.031240731 0.67642665
-0.014501258 -0.032627821 0.67340499
-0.014323995 -0.03401944 0.67073035
-0.014154567 -0.035386413 0.66817385
-0.013991056 -0.036726534 0.66570669
-0.013842615 -0.038067192 0.66346687
-0.013724577 -0.039458156 0.66168582
-0.013785077 -0.041355222 0.66259867
-0.013669041 -0.042715758 0.66084778
-0.013533724 -0.043984562 0.65880603
-0.013390836 -0.045194089 0.65665007
-0.013243833 -0.04635343 0.65443194
-0.013094665 -0.047468156 0.65218115
-0.012948402 -0.048556507 0.64997423
-0.01280537 -0.049620807 0.647816
-0.012665463 -0.050661862 0.64570498
-0.012527169 -0.051674575 0.64361835
-0.012391479 -0.052663773 0.64157087
-0.012258734 -0.053631961 0.63956791
-0.012128766 -0.054579452 0.63760686
-0.012001274 -0.055505857 0.63568312
-0.011875165 -0.056407034 0.6337803
-0.017281333 0.037031472 0.75260383
-0.016382417 0.032764852 0.73710257
-0.015702596 0.02916199 0.72537947
-0.015126045 0.025930375 0.71543723
-0.014623042 0.022979081 0.70676321
-0.014167244 0.020238906 0.69890332
-0.013751353 0.017680287 0.69173151
-0.013371781 0.015282035 0.68518603
-0.013017388 0.013017386 0.67907476
-0.012688555 0.010875911 0.67340422
-0.012381218 0.0088437498 0.66810435
-0.012088419 0.0069076717 0.66305524
-0.011870986 0.0050875843 0.65930569
-0.011611328 0.0033175349 0.65482807
-0.011362748 0.0016232431 0.65054154
-0.011127912 -0 0.64649189
-0.010904487 -0.0015577674 0.64263904
-0.010691488 -0.0030547082 0.63896608
-0.010489007 -0.0044953227 0.63547438
-0.010294295 -0.005882442 0.63211668
-0.010106708 -0.0072190762 0.62888187
-0.0099280309 -0.0085097551 0.62580073
-0.0097569209 -0.0097568929 0.62284994
-0.0095916344 -0.01096189 0.61999977
-0.0094318548 -0.012126684 0.61724442
-0.009339205 -0.013341755 0.61564672
-0.0092983209 -0.014611632 0.61494172
-0.0093336795 -0.016000599 0.61555147
-0.0093693342 -0.017400175 0.61616623
-0.013446526 -0.026893049 0.68647498
-0.013274126 -0.028444558 0.68350202
-0.013107562 -0.029960126 0.68062973
-0.012949863 -0.031449646 0.67791033
-0.012813798 -0.032949775 0.67556399
-0.012850562 -0.034880102 0.67619789
-0.012757511 -0.036450028 0.67459333
-0.012628668 -0.037885994 0.67237151
-0.012489785 -0.039253592 0.66997653
-0.01234378 -0.04055813 0.66745877
-0.012196899 -0.041817904 0.66492593
-0.012051981 -0.043042779 0.66242683
-0.011910425 -0.044238687 0.65998578
-0.011772194 -0.045407057 0.65760219
-0.011635668 -0.046542674 0.65524781
-0.011502006 -0.047651142 0.65294296
-0.011371343 -0.048734337 0.65068972
-0.011243617 -0.049793154 0.64848715
-0.011117986 -0.050825059 0.6463207
-0.010994373 -0.05183062 0.64418906
-0.010873477 -0.052814007 0.64210433
-0.010755213 -0.053776056 0.6400649
-0.010639492 -0.054717392 0.63806939
-0.010523705 -0.05562529 0.6360727
-0.010400797 -0.056461439 0.63395321
-0.015410594 0.043663353 0.76463509
-0.014661526 0.039097399 0.74956506
-0.014056075 0.035140187 0.73738432
-0.013536502 0.031585187 0.72693133
-0.013074153 0.028327376 0.71762955
-0.01266186 0.025323719 0.70933485
-0.012283715 0.022520155 0.70172721
-0.011935515 0.019892514 0.694722
-0.011612708 0.01741904 0.68822753
-0.01131291 0.015083879 0.68219608
-0.011028646 0.012866735 0.67647719
-0.010766692 0.010766685 0.67120707
-0.010516929 0.008764118 0.66618222
-0.010278314 0.0068522096 0.6613816
-0.010099686 0.0050498247 0.65778792
-0.0098853521 0.0032951236 0.65347588
-0.0096833613 0.001613915 0.64941216
-0.0094897589 -2.9802322e-08 0.64551711
-0.0093039488 -0.0015506744 0.64177895
-0.0091265235 -0.0030421913 0.6382094
-0.008958037 -0.0044790208 0.63481969
-0.0087956581 -0.0058637857 0.63155288
-0.008639086 -0.0071992278 0.62840283
-0.0084884465 -0.0084884763 0.62537229
-0.0083451979 -0.0097360313 0.62249029
-0.0082066804 -0.01094225 0.61970359
-0.0080726864 -0.012109011 0.61700785
-0.0079972493 -0.013328761 0.6154902
-0.0079645133 -0.014601588 0.61483157
-0.0079947999 -0.015989602 0.61544091
-0.0080253184 -0.017388165 0.61605483
-0.011670536 -0.027231246 0.68939102
-0.011710552 -0.029276401 0.6901961
-0.011593873 -0.030916989 0.68784863
-0.011459514 -0.032468647 0.68514556
-0.011318156 -0.033954442 0.68230164
-0.011175331 -0.035388529 0.67942822
-0.01103347 -0.036778271 0.67657423
-0.010895206 -0.038133234 0.67379254
-0.010760362 -0.039454639 0.6710797
-0.010627313 -0.040738016 0.66840291
-0.010497292 -0.041989148 0.6657871
-0.010370414 -0.043210059 0.66323453
-0.010246602 -0.044401944 0.66074365
-0.010124448 -0.045560002 0.65828604
-0.010004939 -0.046689689 0.65588176
-0.0098882178 -0.047793031 0.65353352
-0.0097741885 -0.048870951 0.6512394
-0.0096616093 -0.049918324 0.64897448
-0.0095449733 -0.050906539 0.64662796
-0.0094148228 -0.051781505 0.64400947
-0.0092069926 -0.052172974 0.63982832
-0.0090673417 -0.052892819 0.63701874
-0.0089403493 -0.053642109 0.63446385
-0.0088346908 -0.054480568 0.63233817
-0.0088719735 -0.056189135 0.63308823
-0.013426613 0.051021159 0.77874506
-0.012789509 0.046042234 0.76336396
-0.012261053 0.041687608 0.75060594
-0.011802975 0.037769526 0.73954695
-0.011397643 0.03419295 0.72976136
-0.011027531 0.030877084 0.72082609
-0.010691472 0.027797818 0.71271288
-0.010380542 0.024913311 0.70520639
-0.010093575 0.022205889 0.69827843
-0.0098233977 0.019646794 0.69175571
-0.0095744468 0.017233998 0.68574554
-0.0093378024 0.0149405 0.68003237
-0.009111844 0.012756586 0.6745773
-0.008881812 0.010658205 0.66902381
-0.0086237807 0.0086237788 0.66279447
-0.0085190628 0.0068152547 0.66026628
-0.0083730547 0.0050238669 0.65674132
-0.0081997775 0.0032799244 0.65255809
-0.0080367792 0.0016073883 0.64862293
-0.0078801597 -2.9802322e-08 0.64484179
-0.007729528 -0.0015459359 0.64120531
-0.0075848685 -0.003033936 0.6377129
-0.0074477633 -0.0044686496 0.63440281
-0.0073155477 -0.0058524311 0.63121086
-0.0071879243 -0.0071879029 0.62812972
-0.0070647369 -0.0084776878 0.62515575
-0.0069467425 -0.0097254217 0.62230712
-0.0068334644 -0.010933548 0.61957234
-0.0067238216 -0.012102842 0.61692536
-0.0066609317 -0.013321877 0.61540705
-0.0066325716 -0.014591634 0.61472237
-0.0066577769 -0.015978694 0.61533087
-0.0066831741 -0.017376244 0.61594403
-0.010002453 -0.028006852 0.69607854
-0.009866206 -0.029598624 0.6927892
-0.0097336583 -0.031147718 0.6895892
-0.0096045882 -0.032655597 0.68647313
-0.0094774235 -0.034118712 0.68340313
-0.0093534421 -0.035543084 0.68041003
-0.0092326645 -0.03693065 0.67749417
-0.0091147646 -0.038282007 0.67464787
-0.0089986417 -0.039594024 0.67184436
-0.0088854404 -0.040872991 0.66911137
-0.0087750508 -0.042120248 0.66644633
-0.0086674001 -0.043337017 0.66384751
-0.008557206 -0.04449746 0.66118711
-0.0084379781 -0.045565099 0.65830874
-0.0082471622 -0.046184123 0.65370202
-0.008108804 -0.047031045 0.65036178
-0.0079869786 -0.047921866 0.64742064
-0.0078750001 -0.048824996 0.64471722
-0.0077750492 -0.049760282 0.64230418
-0.0076822708 -0.050703004 0.64006436
-0.0075949305 -0.051645502 0.63795578
-0.0075110197 -0.052577138 0.63592994
-0.0074289208 -0.053488255 0.63394797
-0.0073566781 -0.054439411 0.63220382
-0.0073877005 -0.056146517 0.63295281
-0.007418985 -0.057868093 0.63370806
-0.010752081 0.053760439 0.77907068
-0.010304726 0.048947453 0.76557058
-0.0099130031 0.044608533 0.75374925
-0.0095608747 0.040633708 0.74312276
-0.0092459135 0.036983669 0.73361802
-0.0089552468 0.033582181 0.72484636
-0.0086888578 0.030411005 0.71680743
-0.0084399227 0.02742976 0.70929515
-0.0082106441 0.024631947 0.70237601
-0.0079934616 0.021982044 0.695822
-0.0077845943 0.019461483 0.68951881
-0.0075648301 0.017020881 0.68288684
-0.0072715455 0.014543146 0.67403615
-0.0069958218 0.012242675 0.66571558
-0.00679512 0.010192692 0.65965879
-0.0067883441 0.0084854364 0.65945435
-0.0068057254 0.0068057477 0.65997887
-0.0066753426 0.0050065219 0.65604419
-0.0065405285 0.0032702684 0.65197581
-0.0064132712 0.0016033351 0.64813554
-0.0062909303 2.9802322e-08 0.64444357
-0.0061731893 -0.0015432537 0.64089042
-0.006059756 -0.0030298829 0.63746727
-0.0059517254 -0.0044637918 0.63420713
-0.0058479067 -0.0058479309 0.63107413
-0.0057476475 -0.0071845651 0.62804854
-0.0056507681 -0.0084761381 0.62512499
-0.0055571781 -0.009725064 0.62230062
-0.0054675778 -0.010935128 0.61959672
-0.0053811399 -0.012107581 0.61698818
-0.0053283339 -0.013320804 0.61539459
-0.0053024446 -0.01458174 0.61461335
-0.0053225812 -0.015967727 0.61522102
-0.0053428714 -0.017364323 0.61583328
-0.0080394084 -0.028137952 0.69720852
-0.0079280129 -0.029730022 0.69384694
-0.0078189904 -0.031275988 0.69055688
-0.007712272 -0.03277716 0.68733633
-0.0076084556 -0.03423807 0.68420345
-0.0075073699 -0.035659969 0.68115282
-0.0074070701 -0.037035346 0.67812598
-0.0072998968 -0.038324475 0.67489183
-0.0071331542 -0.039232343 0.66985989
-0.0069993688 -0.040246367 0.66582257
-0.0068855667 -0.04131338 0.66238832
-0.0067819264 -0.042387038 0.65926069
-0.0066898679 -0.043484122 0.65648252
-0.0066047623 -0.044582158 0.65391427
-0.0065245586 -0.04567194 0.65149391
-0.0064471932 -0.046742201 0.64915919
-0.0063716616 -0.047787458 0.64687979
-0.0062976209 -0.048806548 0.64464545
-0.0062251077 -0.049800843 0.64245719
-0.0061542452 -0.050772503 0.64031869
-0.0060847746 -0.051720574 0.63822222
-0.0060166367 -0.052645534 0.63616598
-0.0059500271 -0.053550258 0.63415587
-0.0058851177 -0.054437324 0.63219702
-0.0059056603 -0.056103811 0.63281703
-0.0059306682 -0.057824016 0.63357162
-0.0078272391 0.052181631 0.76954168
-0.0075456006 0.047788829 0.75820941
-0.0072875218 0.043725103 0.74782515
-0.0070529031 0.039966464 0.73838484
-0.0068354402 0.036455691 0.72963476
-0.0066353534 0.03317678 0.72158396
-0.0064466479 0.030084342 0.71399099
-0.0062610316 0.02713114 0.70652246
-0.0060561206 0.02422449 0.69827735
-0.0057676239 0.021147937 0.68666917
-0.0055764145 0.018588096 0.67897546
-0.0054234131 0.01627025 0.6728192
-0.0052827816 0.014087468 0.66716063
-0.0051584961 0.012036532 0.66215974
-0.0050699008 0.010139823 0.65859497
-0.0050879791 0.0084799826 0.65932238
-0.0050977073 0.0067969561 0.6597138
-0.0049973731 0.0049973726 0.65567672
-0.004898401 0.0032656193 0.65169442
-0.0048047188 0.001601547 0.6479249
-0.004714686 -0 0.64430225
-0.0046279938 -0.0015426874 0.64081407
-0.0045444178 -0.0030295849 0.63745117
-0.0044640861 -0.0044640303 0.63421887
-0.0043873657 -0.0058498085 0.63113189
-0.0043132501 -0.0071887374 0.62814969
-0.0042415853 -0.0084831417 0.62526608
-0.0041722739 -0.0097352862 0.62247723
-0.0041052145 -0.010947227 0.61977899
-0.0040409178 -0.01212275 0.61719191
-0.0039976449 -0.013325453 0.61545074
-0.0039752643 -0.014575958 0.61455023
-0.0039891987 -0.015956789 0.61511087
-0.0061381659 -0.026598692 0.70157868
-0.0060499692 -0.0282332 0.69802988
-0.005957928 -0.029789656 0.69432646
-0.0058223214 -0.031052381 0.68887007
-0.0056999712 -0.032299846 0.68394709
-0.0055987737 -0.033592641 0.6798752
-0.0055077882 -0.034882665 0.67621422
-0.0054273545 -0.036182374 0.67297781
-0.0053533572 -0.03747347 0.67000043
-0.0052835066 -0.038745701 0.66718984
-0.0052159266 -0.039988756 0.66447061
-0.0051500713 -0.041200548 0.66182083
-0.0050854622 -0.042378843 0.65922111
-0.0050224708 -0.04352805 0.65668654
-0.0049609388 -0.044648439 0.65421069
-0.0049006082 -0.045738995 0.65178317
-0.004841743 -0.046803534 0.6494146
-0.0047844579 -0.047844589 0.64710963
-0.0047292127 -0.048868537 0.64488673
-0.0046752146 -0.049868941 0.64271402
-0.0046224496 -0.050846919 0.64059091
-0.0045708483 -0.051802933 0.63851464
-0.0045207818 -0.052742437 0.63650012
-0.0044732387 -0.053678885 0.63458717
-0.0044266721 -0.054595619 0.63271344
-0.0044258893 -0.056061238 0.63268197
-0.0044446029 -0.057779849 0.63343495
-0.0053098616 0.055753559 0.77507639
-0.0051235827 0.051235825 0.76383352
-0.0049524787 0.047048599 0.75350642
-0.0047953269 0.043157965 0.74402153
-0.004647173 0.039500982 0.73507965
-0.00449696 0.035975695 0.72601348
-0.0042976364 0.032232255 0.71398318
-0.0041122218 0.028785586 0.70279247
-0.0039799293 0.025869519 0.69480789
-0.0038641912 0.023185134 0.68782252
-0.0037646852 0.02070576 0.68181682
-0.0036701621 0.01835084 0.67611182
-0.0035862604 0.016138136 0.67104793
-0.0035065394 0.014026165 0.66623628
-0.0034315682 0.012010515 0.66171134
-0.0033777778 0.010133326 0.65846479
-0.003389803 0.008474499 0.65919065
-0.003396234 0.0067924857 0.65957874
-0.0033305064 0.0049957633 0.65561175
-0.0032656861 0.0032656789 0.65169954
-0.0032039767 0.001601994 0.64797503
-0.0031447832 2.9802322e-08 0.64440238
-0.003087804 -0.0015438795 0.64096338
-0.0030328534 -0.0030328333 0.63764679
-0.0029798236 -0.0044697225 0.63444614
-0.0029289855 -0.0058579445 0.63137782
-0.0028801016 -0.0072002411 0.62842739
-0.0028328223 -0.0084984601 0.62557387
-0.0027870703 -0.0097547174 0.62281251
-0.0027427655 -0.01097104 0.62013841
-0.0026998541 -0.012149334 0.61754853
-0.0026671351 -0.013335645 0.61557376
-0.0026524521 -0.014588475 0.61468756
-0.0040754951 -0.024452984 0.70057583
-0.0040034782 -0.026022613 0.69622922
-0.0039401734 -0.027581185 0.69240844
-0.0038822254 -0.02911669 0.68891096
-0.0038274496 -0.030619591 0.68560493
-0.0037743265 -0.032081753 0.68239868
-0.0037224914 -0.03350243 0.67927015
-0.0036719262 -0.034883291 0.67621827
-0.003622703 -0.036227018 0.67324746
-0.0035745394 -0.037532657 0.67034042
-0.0035276026 -0.038803607 0.66750759
-0.0034820153 -0.040043175 0.66475618
-0.0034381703 -0.041258037 0.66210985
-0.0033954042 -0.04244256 0.65952861
-0.0033537003 -0.043598086 0.65701163
-0.0033129971 -0.044725448 0.65455496
-0.0032741481 -0.045838088 0.6522103
-0.0032367655 -0.046933115 0.64995402
-0.0032002265 -0.048003405 0.64774871
-0.0031645133 -0.049049944 0.64559317
-0.0031295789 -0.050073236 0.64348471
-0.0030963838 -0.051090315 0.64148122
-0.0030643267 -0.052093565 0.63954639
-0.0030329174 -0.053076044 0.63765073
-0.0030021458 -0.054038614 0.63579345
-0.0029719917 -0.054981843 0.63397348
-0.00294835 -0.056018621 0.63254654
-0.0029608069 -0.057735726 0.6332984
-0.0026176379 0.054970413 0.77057475
-0.002528789 0.050575763 0.75984973
-0.0024324213 0.046216041 0.74821711
-0.0023002781 0.041405052 0.73226607
-0.0022129486 0.037620097 0.72172451
-0.0021412317 0.034259737 0.71306741
-0.0020792487 0.031188726 0.70558548
-0.002021733 0.028304249 0.69864273
-0.0019708239 0.025620729 0.69249737
-0.0019227779 0.023073316 0.68669772
-0.0018784065 0.020662487 0.68134165
-0.0018374734 0.018374741 0.67640054
-0.001798286 0.016184568 0.67167026
-0.0017623103 0.014098465 0.66732758
-0.0017285396 0.012099802 0.6632511
-0.001696039 0.010176241 0.65932798
-0.0016938171 0.008469075 0.65905976
-0.001698065 0.0067922473 0.65957254
-0.0016670896 0.0050012469 0.65583348
-0.0016351001 0.0032702088 0.65197194
-0.0016044797 0.0016044676 0.64827579
-0.0015751885 2.9802322e-08 0.64473993
-0.0015469666 -0.0015469491 0.64133334
-0.0015197613 -0.0030395389 0.63804936
-0.0014934962 -0.0044804513 0.63487887
-0.0014681238 -0.005872488 0.63181615
-0.0014438154 -0.0072190762 0.62888187
-0.0014203474 -0.0085220933 0.62604904
-0.0013976262 -0.0097833872 0.62330639
-0.0013756242 -0.011005014 0.62065041
-0.0013543043 -0.012188733 0.61807692
-0.0013352438 -0.013352454 0.61577606
-0.0013279296 -0.014607251 0.6148932
-0.002032384 -0.024388611 0.6999284
-0.0020022758 -0.026029587 0.69629395
-0.0019729377 -0.02762109 0.69275254
-0.0019443789 -0.029165685 0.68930525
-0.0019167013 -0.030667216 0.68596423
-0.0018901645 -0.032132804 0.68276095
-0.0018643526 -0.033558369 0.67964524
-0.0018392294 -0.034945339 0.6766125
-0.0018147809 -0.036295623 0.67366135
-0.0017918203 -0.037628233 0.67088979
-0.0017694585 -0.038928092 0.66819048
-0.0017476419 -0.040195763 0.66555697
-0.0017263569 -0.041432559 0.66298759
-0.0017060376 -0.042650908 0.66053486
-0.0016865946 -0.043851435 0.65818787
-0.0016675842 -0.045024782 0.65589321
-0.0016489975 -0.046171933 0.65364957
-0.0016308153 -0.047293663 0.65145475
-0.0016129882 -0.048389643 0.64930284
-0.0015955516 -0.04946211 0.64719808
-0.001578483 -0.05051142 0.64513767
-0.0015614834 -0.05152896 0.6430856
-0.0015444262 -0.052510485 0.64102662
-0.0015277378 -0.053470805 0.63901222
-0.0015114108 -0.054410771 0.63704133
-0.0014954247 -0.055330679 0.63511157
-0.0014792916 -0.056213066 0.63316423
0 0.057794869 0.7717095
0 0.052376628 0.75566542
0 0.048032463 0.74449933
0 0.044121325 0.73490906
0 0.040511966 0.72627717
0 0.037189364 0.71866572
0 0.03405714 0.71153903
0 0.031126231 0.70508271
0 0.028353423 0.69906646
0 0.025716752 0.69338906
0 0.023229063 0.68826461
0 0.020846009 0.68335551
0 0.018572807 0.67879146
0 0.016403764 0.67461014
0 0.014314175 0.67058194
0 0.012316138 0.66698277
0 0.01039052 0.66363889
0 0.0085252821 0.66041625
0 0.006793052 0.65959615
0 0.0050137639 0.65633619
0 0.0032791495 0.65250874
0 0.0016090572 0.64882696
0 -0 0.64531457
0 -0.0015518665 0.64192748
0 -0.003049612 0.6386593
0 -0.0044959784 0.63550258
0 -0.0058935881 0.63245332
0 -0.0072458684 0.629529
0 -0.008554399 0.62669927
0 -0.0098216534 0.62396634
0 -0.011049271 0.62131876
0 -0.012239099 0.61875272
0 -0.013392895 0.61626446
0 -0.014633298 0.61517918
0 -0.015924096 0.6147818
0 -0.026089698 0.69685233
0 -0.027704358 0.69347024
0 -0.029274523 0.69018131
0 -0.030802071 0.68698168
0 -0.032295287 0.68391484
0 -0.033761472 0.68100756
0 -0.035191119 0.67817402
0 -0.036585301 0.67540967
0 -0.037944973 0.67271048
0 -0.039270848 0.67007107
0 -0.040565282 0.66749632
0 -0.041827708 0.66497505
0 -0.043040097 0.66241401
0 -0.044223219 0.6599139
0 -0.045378208 0.65747327
0 -0.046505928 0.65508932
0 -0.047588646 0.65268272
0 -0.048645735 0.65033323
0 -0.049678206 0.64803946
0 -0.050686568 0.64579815
0 -0.051665336 0.64358461
0 -0.052609846 0.64137948
0 -0.053532615 0.63922524
0 -0.054434285 0.63712019
0 -0.055315688 0.63506258
0 -0.056173712 0.63303924
0.0026293576 0.06047526 0.77198946
0.0025380503 0.055837095 0.76096767
0.0024579805 0.051617593 0.75130242
0.0023836938 0.047673881 0.7423352
0.0023177634 0.044037491 0.73437673
0.0022557583 0.040603667 0.72689205
0.0021994275 0.037390262 0.72009236
0.0021470755 0.034353197 0.71377289
0.0020979492 0.031469256 0.70784277
0.0020538575 0.028754026 0.70252043
0.0020115813 0.026150554 0.69741726
0.0019744714 0.023693621 0.69293773
0.001939653 0.021336198 0.68873471
0.0019064842 0.019064844 0.68473095
0.0018729083 0.016856194 0.68067789
0.0018385467 0.0147084 0.67653012
0.0018040044 0.012628049 0.67236054
0.0017699907 0.010619938 0.66825473
0.0017362894 0.0086814761 0.66418654
0.0017032906 0.0068131387 0.66020334
0.0016775022 0.0050325096 0.65709037
0.001646171 0.003292352 0.65330833
0.0016159888 0.0016159713 0.649665
0.0015868935 -0 0.64615291
0.0015588272 -0.0015588105 0.64276505
0.0015317741 -0.0030635595 0.63949943
0.0015056712 -0.004516989 0.63634849
0.0014804471 -0.0059217811 0.6333037
0.001456063 -0.0072802901 0.63036025
0.0014326455 -0.0085958838 0.62753356
0.0014099772 -0.0098698437 0.62479722
0.0013880534 -0.011104435 0.62215078
0.0013667975 -0.012301147 0.61958498
0.0013461862 -0.013461858 0.61709696
0.0013332798 -0.01466608 0.61553901
0.0013262612 -0.015915096 0.61469173
0.0020256126 -0.026332945 0.69911098
0.0019981738 -0.027974427 0.69579881
0.0019714842 -0.029572219 0.69257706
0.0019446963 -0.031115174 0.68934357
0.0019183178 -0.0326114 0.68615937
0.0018926384 -0.034067482 0.68305957
0.0018675396 -0.035483241 0.68002987
0.0018423718 -0.036847413 0.67699182
0.0018178796 -0.038175464 0.67403543
0.0017940239 -0.039468527 0.67115575
0.0017707862 -0.040728062 0.6683507
0.0017474712 -0.041939288 0.6655364
0.0017247443 -0.043118596 0.66279298
0.0017026009 -0.044267654 0.66012007
0.0016810189 -0.045387477 0.65751481
0.0016597735 -0.046473622 0.65495026
0.001638849 -0.047526628 0.65242451
0.0016184455 -0.048553377 0.64996159
0.0015985388 -0.049554706 0.64755863
0.0015791157 -0.050531685 0.64521402
0.001560159 -0.05148524 0.64292574
0.0015416569 -0.05241634 0.64069235
0.0015235837 -0.05332543 0.6385107
0.0015059293 -0.054213434 0.63637966
0.0014886839 -0.055081308 0.63429803
0.0014718247 -0.055929348 0.63226289
0.0052494463 0.060368627 0.77143008
0.0050925035 0.056017518 0.76195776
0.0049526989 0.052003354 0.75351983
0.0048205284 0.048205316 0.74554253
0.0047045215 0.044692963 0.73854089
0.0045939456 0.041345537 0.73186707
0.0044987188 0.038239092 0.72611964
0.0044086222 0.035268992 0.72068179
0.0043221749 0.032416314 0.71546423
0.0042330101 0.029631048 0.71008271
0.0041420595 0.026923418 0.7045933
0.0040532928 0.024319768 0.69923574
0.0039647762 0.02180627 0.69389331
0.003878915 0.019394577 0.68871111
0.0037953404 0.017079055 0.683667
0.0037150842 0.014860362 0.67882305
0.0036381518 0.012733549 0.67417979
0.003564341 0.010693014 0.66972494
0.0034934662 0.00873366 0.66544724
0.0034253544 0.0068507195 0.66133636
0.0033729277 0.0050594211 0.65817207
0.0033102573 0.0033102632 0.65438962
0.0032498839 0.0016249716 0.65074575
0.0031916732 -0 0.64723247
0.0031355112 -0.0015677512 0.64384282
0.003081301 -0.0030812919 0.64057088
0.0030290161 -0.0045435131 0.63741523
0.0029784846 -0.0059569478 0.63436538
0.0029296114 -0.0073240399 0.63141561
0.0028823246 -0.008646965 0.62856162
0.0028368859 -0.0099291205 0.62581915
0.0027928574 -0.01117146 0.62316179
0.0027502277 -0.01237601 0.62058878
0.0027088798 -0.013544381 0.61809325
0.0026736553 -0.014705092 0.61596727
0.0026599325 -0.015959591 0.61513907
0.0026604556 -0.017292976 0.6151706
0.0026706015 -0.018694222 0.61578298
0.0026808106 -0.020106047 0.61639917
0.0038961465 -0.031169176 0.68975115
0.0038397419 -0.032637805 0.68634683
0.0037842176 -0.034057975 0.68299568
0.0037299283 -0.035434306 0.67971903
0.003677188 -0.036771894 0.67653584
0.0036258923 -0.038071841 0.67343986
0.0035760084 -0.039336115 0.67042911
0.0035274781 -0.040565997 0.66750002
0.0034802596 -0.041763097 0.6646502
0.0034342764 -0.042928487 0.66187489
0.0033894929 -0.044063389 0.65917194
0.0033458734 -0.045169264 0.65653926
0.003303166 -0.046244293 0.6539616
0.0032613862 -0.047290087 0.65144002
0.0032206294 -0.048309475 0.64898014
0.0031808792 -0.049303651 0.64658093
0.0031420977 -0.050273567 0.64424026
0.0031042504 -0.051220149 0.64195597
0.0030673044 -0.05214417 0.6397261
0.0030312273 -0.05304648 0.63754863
0.0029959886 -0.053927824 0.63542187
0.0029615606 -0.054788858 0.63334388
0.0029394301 -0.055849165 0.63200819
0.0078395437 0.057490021 0.77003676
0.0076571861 0.053600311 0.76269931
0.0074799503 0.049866349 0.75556785
0.0072920886 0.046183228 0.74800891
0.007111073 0.042666465 0.7407254
0.006928897 0.039263755 0.73339522
0.0067549413 0.036026359 0.72639579
0.0065863254 0.032931626 0.71961123
0.00642573 0.029986739 0.71314937
0.0062727798 0.027182043 0.70699513
0.0061269416 0.024507761 0.70112699
0.0059877308 0.021955013 0.69552559
0.0058548879 0.019516319 0.69018042
0.0057289698 0.01718691 0.68511391
0.0056083333 0.014955521 0.68025982
0.0054926723 0.01281628 0.67560601
0.0053817052 0.010763377 0.67114103
0.005275114 0.0087918639 0.66685212
0.0051726634 0.0068969131 0.66272986
0.0050937459 0.0050937533 0.65955442
0.0049998532 0.0033332407 0.6557765
0.0049089259 0.0016363263 0.65211785
0.0048212311 -0 0.64858925
0.0047366149 -0.0015788674 0.64518458
0.0046549174 -0.0031032562 0.64189732
0.004576074 -0.0045760572 0.63872492
0.0044998839 -0.0059998333 0.63565928
0.0044261767 -0.0073769689 0.63269353
0.0043548574 -0.0087096989 0.62982386
0.0042858245 -0.010000259 0.62704617
0.004219397 -0.011251688 0.62437332
0.0041550198 -0.01246506 0.62178302
0.0040926114 -0.013642013 0.61927187
0.0040320498 -0.014784157 0.61683506
0.004002783 -0.016011119 0.61565745
0.0039879587 -0.017281145 0.61506099
0.0040031462 -0.018681347 0.61567211
0.0040184497 -0.020092249 0.61628783
0.0058129197 -0.031002253 0.6884917
0.0057268497 -0.032452136 0.68502855
0.0056432914 -0.03385976 0.68166643
0.0055621159 -0.035226732 0.67840022
0.0054832222 -0.036554813 0.67522573
0.0054065357 -0.037845761 0.67214012
0.0053319647 -0.039101064 0.66913956
0.0052594226 -0.040322214 0.66622066
0.0051888279 -0.041510642 0.66338027
0.0051201028 -0.042667538 0.66061497
0.0050531747 -0.043794155 0.65792197
0.0049879737 -0.044891775 0.65529847
0.0049238526 -0.045955956 0.65271842
0.0048613278 -0.046992838 0.65020263
0.0048003704 -0.048003703 0.6477499
0.0047409232 -0.048989505 0.64535797
0.0046829302 -0.049951255 0.6430245
0.0046264958 -0.050891474 0.64075375
0.0045714471 -0.051809743 0.63853878
0.0045177066 -0.052706569 0.63637638
0.0044652149 -0.053582564 0.63426423
0.0044139293 -0.054438442 0.63220072
0.010416222 0.054685175 0.7689352
0.010116332 0.050581723 0.75988519
0.0098331785 0.0467076 0.75134033
0.0095654894 0.043044746 0.74326205
0.0093131159 0.039580733 0.73564601
0.0090751154 0.03630048 0.72846377
0.0088490164 0.033183843 0.72164059
0.0086338716 0.030218571 0.71514803
0.0084289396 0.027394056 0.70896375
0.0082335118 0.024700552 0.70306611
0.0080475872 0.022130907 0.69745535
0.0078709256 0.019677341 0.69212413
0.0077018547 0.017329186 0.68702197
0.0075398944 0.015079796 0.68213439
0.0073846052 0.012923092 0.67744803
0.0072355829 0.01085338 0.67295098
0.0070924568 0.0088655651 0.66863173
0.0069548832 0.0069548786 0.66448009
0.0068227546 0.0051170588 0.66049278
0.0067237369 0.0033618808 0.65750462
0.006601451 0.0016503334 0.65381432
0.0064835339 -0 0.65025592
0.0063697551 -0.0015924275 0.64682227
0.0062599014 -0.0031299591 0.64350712
0.0061538098 -0.0046153367 0.64030552
0.0060513099 -0.006051302 0.6372124
0.0059521855 -0.0074402392 0.63422102
0.0058562397 -0.0087843537 0.6313256
0.0057633379 -0.010085821 0.62852198
0.0056734663 -0.011346936 0.62580991
0.0055868062 -0.012570292 0.62319475
0.0055027693 -0.013756901 0.62065864
0.005421238 -0.014908403 0.61819822
0.0053565991 -0.01606977 0.61624759
0.0053309458 -0.01732555 0.61547339
0.0053338581 -0.018668503 0.61556137
0.005354234 -0.020078361 0.61617625
0.0076920567 -0.030768216 0.68672627
0.0075778626 -0.03220588 0.68328011
0.0074670091 -0.033601522 0.67993486
0.007359352 -0.034956932 0.67668599
0.0072547556 -0.036273777 0.67352957
0.0071530901 -0.037553728 0.67046154
0.0070542102 -0.038798153 0.66747755
0.0069580507 -0.040008783 0.6645757
0.0068644779 -0.041186869 0.66175187
0.006773388 -0.042333692 0.65900302
0.0066849524 -0.043452203 0.65633422
0.0065988391 -0.044542164 0.65373552
0.0065149376 -0.045604587 0.65120357
0.0064331433 -0.046640307 0.64873517
0.006352732 -0.047645479 0.64630854
0.0062741679 -0.048624784 0.64393771
0.0061975042 -0.049580038 0.64162421
0.0061227102 -0.050512344 0.6393671
0.0060497001 -0.051422447 0.63716382
0.0059784106 -0.052311078 0.63501239
0.0059087644 -0.053178906 0.63291073
0.0058455155 -0.054071009 0.63100195
0.013143955 0.0552046 0.77192116
0.012766015 0.051064044 0.76279676
0.012412033 0.047165722 0.75425088
0.01207756 0.043479204 0.746176
0.011760641 0.039986193 0.73852485
0.011459928 0.036671788 0.73126501
0.01117421 0.033522636 0.7243672
0.010902392 0.030526698 0.71780497
0.01064421 0.027674973 0.71157193
0.010399312 0.024958372 0.70565957
0.01016543 0.022363961 0.7000131
0.0099418759 0.019883782 0.69461602
0.0097279055 0.017510235 0.68945032
0.0095229512 0.015236735 0.6845023
0.0093264543 0.013057023 0.67975843
0.0091379033 0.010965466 0.67520642
0.0089568244 0.0089568198 0.67083478
0.0087829679 0.0070264041 0.66663754
0.0086167706 0.0051700771 0.66262513
0.0084923431 0.0033969283 0.65962124
0.0083374484 0.0016674995 0.65588176
0.0081881303 -2.9802322e-08 0.65227687
0.0080440668 -0.001608789 0.64879882
0.0079049841 -0.0031619668 0.64544106
0.0077706533 -0.0046623945 0.64219809
0.0076408358 -0.0061126649 0.63906401
0.0075153066 -0.0075152814 0.63603342
0.0073938137 -0.0088725984 0.63310039
0.0072762072 -0.010186672 0.63026106
0.0071622636 -0.011459649 0.62751025
0.0070523499 -0.01269421 0.62485671
0.0069458936 -0.013891757 0.62228662
0.0068426412 -0.015053809 0.61979389
0.006742395 -0.016181737 0.61737376
0.0066922558 -0.017399848 0.61616325
0.006662759 -0.018655688 0.6154511
0.0096723558 -0.029017061 0.68810922
0.0095277382 -0.030488759 0.68461788
0.0093956655 -0.031945258 0.68142939
0.0092702964 -0.033373088 0.67840266
0.009148228 -0.034763277 0.67545569
0.0089877471 -0.035950989 0.67158133
0.0088619599 -0.03722021 0.66854453
0.0087396139 -0.038454324 0.66559088
0.0086206309 -0.039654911 0.66271836
0.0085048433 -0.040823251 0.65992302
0.0083919 -0.041959494 0.65719634
0.0082819164 -0.043065965 0.65454108
0.0081747789 -0.044143796 0.65195453
0.0080701439 -0.045192808 0.64942843
0.0079680774 -0.046214819 0.64696431
0.00786856 -0.047211379 0.64456177
0.0077714985 -0.048183262 0.64221847
0.0076768026 -0.049131572 0.63993233
0.0075843856 -0.050056949 0.63770121
0.0074941674 -0.050960332 0.6355232
0.0074060489 -0.051842317 0.63339579
0.0073199994 -0.052704006 0.63131833
0.0073013925 -0.054030329 0.63086915
0.015986076 0.055951267 0.77621287
0.015528404 0.051761389 0.76700532
0.015096209 0.047804683 0.7583102
0.014687421 0.044062257 0.75008601
0.014300256 0.04051739 0.74229687
0.013934594 0.037158936 0.73494029
0.01358809 0.033970237 0.72796911
0.013258399 0.030936241 0.72133631
0.012944275 0.028045952 0.7150166
0.012644741 0.025289506 0.70899045
0.012358758 0.022657752 0.70323688
0.012085424 0.020142376 0.69773787
0.01182392 0.017735869 0.69247681
0.011573491 0.015431345 0.68743861
0.011333409 0.013222337 0.68260849
0.01110366 0.01110366 0.67798638
0.010883869 0.0090699196 0.67356443
0.010672648 0.0071150959 0.66931504
0.010469433 0.0052347481 0.66522664
0.010273848 0.0034246147 0.66129178
0.010129504 0.0016882718 0.65838778
0.0099470261 -0 0.65471661
0.0097710388 -0.0016285181 0.65117604
0.0096011711 -0.0032003522 0.64775854
0.0094371084 -0.0047185421 0.64445782
0.0092785582 -0.0061856806 0.64126813
0.0091252755 -0.0076043904 0.63818431
0.0089769475 -0.0089769363 0.6352002
0.0088333646 -0.010305583 0.63231146
0.0086944541 -0.011592627 0.62951684
0.008560406 -0.012840599 0.62681997
0.0084304288 -0.014050692 0.62420499
0.0083043156 -0.015224606 0.62166786
0.0081819436 -0.016363889 0.61920589
0.0080688465 -0.017482489 0.61693054
0.0080336519 -0.018745154 0.6162225
0.0080203013 -0.020050734 0.61595392
0.011573938 -0.030863822 0.68744755
0.010662869 -0.035542905 0.66911829
0.010514313 -0.036800086 0.66612959
0.010369805 -0.038022637 0.66322231
0.010229249 -0.039212108 0.66039455
0.010092285 -0.040369153 0.65763903
0.0099586081 -0.04149422 0.65494967
0.0098284259 -0.042589843 0.65233064
0.0097015733 -0.043657064 0.64977849
0.0095779831 -0.044697255 0.64729208
0.0094574727 -0.0457111 0.6448676
0.0093399575 -0.046699792 0.64250332
0.0092253257 -0.047664195 0.64019716
0.0091134738 -0.048605204 0.6379469
0.0090043293 -0.049523845 0.63575107
0.0088977423 -0.050420523 0.63360667
0.0087936483 -0.051296279 0.63151246
0.0087187951 -0.052312791 0.63000655
0.018442329 0.052692384 0.77262449
0.017926941 0.048658848 0.76373696
0.017439574 0.044844627 0.75533265
0.016978087 0.041232497 0.74737459
0.016540317 0.037806451 0.73982549
0.01612463 0.034552753 0.73265725
0.015729252 0.031458527 0.7258392
0.015352801 0.028512359 0.71934748
0.014994011 0.025704026 0.7131604
0.014652038 0.023024648 0.70726323
0.014326546 0.020466506 0.70165038
0.014015145 0.018019468 0.69628048
0.013716993 0.015676558 0.69113904
0.013431315 0.013431311 0.68621266
0.013157243 0.011277646 0.68148649
0.01289418 0.0092101395 0.6769501
0.012641386 0.0072236657 0.67259079
0.012398355 0.0053135753 0.66839993
0.012164451 0.0034755766 0.66436636
0.011960981 0.0017087162 0.66085768
0.011775875 -0 0.65766567
0.011565585 -0.001652211 0.65403926
0.011362711 -0.0032464862 0.65054089
0.011166796 -0.0047857463 0.64716244
0.010977557 -0.0062728822 0.64389914
0.010794591 -0.007710427 0.64074403
0.010618204 -0.0091013312 0.63770229
0.010447645 -0.010447681 0.6347611
0.010282478 -0.011751384 0.63191289
0.010122452 -0.013014585 0.62915337
0.0099673308 -0.014239043 0.62647843
0.0098168924 -0.015426546 0.62388414
0.0096709272 -0.016578704 0.6213671
0.0095292395 -0.017697126 0.61892378
0.0094237346 -0.018847466 0.61710441
0.0093850242 -0.020110786 0.61643684
0.009386383 -0.021454602 0.61646032
0.0096628694 -0.023466974 0.62122816
0.009521028 -0.024482608 0.61878216
0.0094953962 -0.025773257 0.61834013
0.012269063 -0.035054475 0.66617036
0.012098984 -0.036296934 0.66323745
0.011933556 -0.037505478 0.66038471
0.011772552 -0.038681239 0.65760833
0.011129857 -0.03815949 0.64652544
0.010971402 -0.039183557 0.64379299
0.010821539 -0.040194273 0.64120871
0.010679492 -0.041192323 0.6387592
0.010542839 -0.042171359 0.63640267
0.010409608 -0.04312554 0.63410521
0.010279732 -0.044055998 0.63186556
0.010153763 -0.044966638 0.62969327
0.010032109 -0.04586105 0.62759548
0.010039499 -0.047329068 0.62772292
0.010251389 -0.049792469 0.6313768
0.010132379 -0.050661907 0.62932456
0.020970395 0.049804658 0.77101678
0.020392429 0.045883 0.76229596
0.019845368 0.042171419 0.75404143
0.019326894 0.038653791 0.7462182
0.018834909 0.035315484 0.73879474
0.018367266 0.032142729 0.73173857
0.017922362 0.029123843 0.72502553
0.017498426 0.02624768 0.71862876
0.017094154 0.023504466 0.71252882
0.016708072 0.02088508 0.70670325
0.016339045 0.018381417 0.70113504
0.015986029 0.015986025 0.69580853
0.015647884 0.013691902 0.69070625
0.015323807 0.011492848 0.68581629
0.015012825 0.0093830228 0.68112391
0.014714268 0.0073571503 0.67661905
0.014427302 0.0054102242 0.67228907
0.014151315 0.0035378337 0.66812479
0.013885737 0.0017357171 0.66411746
0.013692934 -0 0.66120839
0.013451043 -0.0016813874 0.65755856
0.013212533 -0.0033031404 0.65395963
0.012982418 -0.0048683882 0.65048748
0.012760182 -0.006380111 0.64713418
0.012545425 -0.0078409016 0.64389378
