# .PCD v0.7 - Point Cloud Data file format
VERSION 0.7
FIELDS x y z
SIZE 4 4 4
TYPE F F F
COUNT 1 1 1
WIDTH 1324
HEIGHT 1
VIEWPOINT 0 0 0 1 0 0 0
POINTS 1324
DATA ascii
-0.030656317 -0.053648561 0.63962519
-0.028813329 -0.045494735 0.63765454
-0.028280538 -0.046141922 0.6342696
-0.028163912 -0.047433957 0.63352871
-0.028175848 -0.048937008 0.63360453
-0.02831389 -0.050666958 0.63448155
-0.028566061 -0.052621678 0.6360836
-0.02882285 -0.054611728 0.63771504
-0.029084299 -0.056637809 0.63937604
-0.029350623 -0.058701262 0.6410681
-0.028599003 -0.039720833 0.6463871
-0.027962973 -0.040390939 0.64212179
-0.027493993 -0.04124099 0.63897669
-0.0270936 -0.04214558 0.63629162
-0.026730064 -0.043065101 0.63385373
-0.026387978 -0.043979973 0.63155961
-0.026351459 -0.045383066 0.63131475
-0.026336126 -0.046819761 0.63121188
-0.026566539 -0.048705325 0.63275707
-0.027575057 -0.052086204 0.63952029
-0.027417576 -0.053311959 0.63846427
-0.027282283 -0.054564565 0.63755697
-0.027529543 -0.056588501 0.63921517
-0.027781324 -0.05864948 0.64090365
-0.028037751 -0.060748473 0.64262331
-0.031431191 -0.024035633 0.67777908
-0.031666737 -0.026078463 0.67945164
-0.027644483 -0.034149051 0.65089113
-0.027124811 -0.035102695 0.64720112
-0.026698859 -0.036121994 0.6441766
-0.02631503 -0.037150651 0.64145118
-0.025964171 -0.038182586 0.63895983
-0.025637759 -0.039210707 0.63664216
-0.0253282 -0.040227145 0.63444406
-0.025032727 -0.041230381 0.63234603
-0.024754222 -0.042227805 0.63036847
-0.024673516 -0.043541491 0.62979543
-0.024638923 -0.044929802 0.62954974
-0.024852296 -0.04678081 0.63106489
-0.025069544 -0.048664421 0.63260746
-0.026284048 -0.052568078 0.64123118
-0.026158679 -0.053856105 0.64034098
-0.0260345 -0.055131897 0.63945925
-0.025977492 -0.056539223 0.63905442
-0.02706233 -0.060492247 0.64675748
-0.026943093 -0.061810613 0.64591074
-0.026821857 -0.063110262 0.64504993
-0.030446904 -0.017126352 0.68430203
-0.030039847 -0.018774897 0.68123108
-0.029701266 -0.020419627 0.67867672
-0.029370882 -0.022028178 0.67618412
-0.029561214 -0.024018466 0.67762011
-0.02978248 -0.026059657 0.67928934
-0.030007193 -0.028131753 0.68098474
-0.027313177 -0.027313173 0.66065997
-0.02672838 -0.028398901 0.65624797
-0.026268303 -0.029551834 0.65277696
-0.025868604 -0.030718982 0.6497615
-0.025503373 -0.031879216 0.64700598
-0.025165146 -0.033029258 0.6444543
-0.024847722 -0.034165621 0.6420595
-0.024543473 -0.035281241 0.63976413
-0.024259077 -0.036388576 0.63761848
-0.023981409 -0.037470967 0.63552368
-0.023717962 -0.038541704 0.63353616
-0.023464369 -0.039596081 0.63162291
-0.023216207 -0.040628344 0.62975067
-0.023077939 -0.041828781 0.62870753
-0.023029279 -0.043179885 0.62834042
-0.023581589 -0.04568933 0.63250726
-0.023427906 -0.046855807 0.63134784
-0.023574993 -0.048623428 0.63245749
-0.026342204 -0.055977166 0.6533345
-0.026219092 -0.057354271 0.65240568
-0.026095428 -0.058714718 0.65147275
-0.025966519 -0.060047567 0.65050018
-0.025838882 -0.061367333 0.64953721
-0.025710672 -0.062669769 0.64857
-0.025556047 -0.063890129 0.64740342
-0.025380718 -0.0650381 0.64608067
-0.030111013 -0.0080296099 0.69691265
-0.02961053 -0.0098701417 0.69288504
-0.029222237 -0.011688888 0.68976033
-0.028880622 -0.013477623 0.68701124
-0.028549943 -0.015226632 0.68435013
-0.028209882 -0.016925931 0.6816135
-0.02779616 -0.018530756 0.67828417
-0.027075978 -0.019855708 0.67248857
-0.026314169 -0.021051317 0.66635799
-0.025810573 -0.022369176 0.66230541
-0.025380965 -0.023688883 0.65884817
-0.025000764 -0.025000751 0.65578854
-0.024650717 -0.026294082 0.65297157
-0.024324756 -0.027568042 0.65034842
-0.024011528 -0.028813839 0.64782774
-0.023721399 -0.030047119 0.64549303
-0.023438781 -0.031251699 0.64321864
-0.023169255 -0.032436967 0.64104968
-0.022911243 -0.033603162 0.63897336
-0.022659594 -0.03474471 0.63694823
-0.022418771 -0.035870016 0.63501024
-0.022186162 -0.036976933 0.63313836
-0.021958329 -0.038061112 0.63130492
-0.021737078 -0.039126694 0.62952441
-0.021539265 -0.040206611 0.62793255
-0.021485498 -0.041538626 0.62749982
-0.021519812 -0.043039605 0.62777597
-0.025439207 -0.052574337 0.65931684
-0.025308559 -0.053991556 0.65826547
-0.025179246 -0.055394351 0.65722489
-0.02503721 -0.056751013 0.65608191
-0.024866248 -0.058021218 0.654706
-0.024676166 -0.059222788 0.65317637
-0.024453385 -0.060318351 0.65138358
-0.024213323 -0.061340436 0.64945167
-0.023995791 -0.062389046 0.64770114
-0.02380242 -0.063473135 0.64614505
-0.023739854 -0.064888924 0.64564151
-0.02396453 -0.067100689 0.64744961
-0.029151639 -0 0.70594889
-0.028709223 -0.0020506382 0.70213437
-0.028340677 -0.0040486753 0.69895667
-0.027996572 -0.0059992373 0.69598973
-0.027664214 -0.0079040527 0.69312412
-0.027289812 -0.0097463727 0.68989593
-0.026222484 -0.011238217 0.68069315
-0.025581084 -0.012790531 0.67516291
-0.025104543 -0.014345467 0.67105412
-0.024845701 -0.015972227 0.66882229
-0.024455629 -0.017468274 0.66545904
-0.024087965 -0.018926263 0.66228896
-0.02375453 -0.020361036 0.65941399
-0.023431221 -0.021757543 0.65662634
-0.023135526 -0.023135513 0.65407681
-0.022848023 -0.024480015 0.65159792
-0.022572376 -0.025797009 0.6492213
-0.022310119 -0.027090877 0.64696008
-0.022056179 -0.028357953 0.6447705
-0.02181101 -0.02960062 0.64265656
-0.021575218 -0.030821741 0.64062357
-0.021344991 -0.032017469 0.6386385
-0.021122236 -0.033192098 0.63671786
-0.020908011 -0.034348875 0.63487083
-0.020698028 -0.035482347 0.63306028
-0.020492282 -0.036593348 0.63128632
-0.020293996 -0.037688822 0.62957668
-0.020101354 -0.038766891 0.62791568
-0.019986477 -0.039972931 0.62692511
-0.019933982 -0.041291833 0.62647253
-0.020068699 -0.043004334 0.62763405
-0.023903515 -0.052929193 0.66069859
-0.023659378 -0.054078549 0.6585936
-0.023429105 -0.05522573 0.6566081
-0.023227738 -0.056410223 0.65487194
-0.023044044 -0.057610124 0.65328813
-0.022872193 -0.058814198 0.65180635
-0.022710394 -0.060020298 0.65041125
-0.022558054 -0.06122902 0.6490978
-0.022416497 -0.062445924 0.64787722
-0.022288468 -0.063681334 0.6467734
-0.022168418 -0.064921796 0.6457383
-0.022564597 -0.0676938 0.64915419
-0.022559946 -0.069291279 0.64911413
-0.028166154 0.0086665154 0.716133
-0.027742105 0.0064019859 0.71219552
-0.027387364 0.0042134523 0.70890152
-0.027043832 0.0020803213 0.70571172
-0.026694888 -2.9802322e-08 0.70247167
-0.026239274 -0.0020183921 0.698241
-0.025078993 -0.0038582981 0.68746728
-0.024548119 -0.0056649148 0.68253791
-0.024104645 -0.0074167848 0.67842007
-0.023707805 -0.0091183782 0.67473525
-0.023351869 -0.010777771 0.67143023
-0.023013053 -0.012391657 0.66828418
-0.022798099 -0.014029562 0.6662882
-0.022494873 -0.015573353 0.66347259
-0.022202335 -0.017078698 0.66075635
-0.02192078 -0.01854834 0.65814197
-0.021656148 -0.019990265 0.65568471
-0.021398604 -0.021398604 0.65329331
-0.021149453 -0.022776335 0.65097982
-0.020910807 -0.024127811 0.6487639
-0.020680182 -0.025452524 0.64662242
-0.020454718 -0.026748478 0.64452893
-0.020238398 -0.028022408 0.64252031
-0.020026607 -0.029269636 0.64055371
-0.019821376 -0.030494422 0.63864803
-0.019621907 -0.031696886 0.63679588
-0.019428035 -0.03287819 0.6349957
-0.019237902 -0.034036279 0.63323027
-0.019051511 -0.035172015 0.63149953
-0.018871814 -0.036291957 0.62983102
-0.018696498 -0.037393004 0.62820309
-0.01852441 -0.038473785 0.62660515
-0.018465146 -0.03977111 0.62605488
-0.018463312 -0.041187376 0.62603784
-0.022233602 -0.051308274 0.66104662
-0.022067957 -0.05262357 0.65950847
-0.021912657 -0.053938836 0.65806651
-0.021768847 -0.055259377 0.65673119
-0.021639289 -0.056595057 0.65552819
-0.021517385 -0.057931423 0.65439624
-0.021400506 -0.059262931 0.65331095
-0.021312715 -0.06065926 0.6524958
-0.02165449 -0.063297734 0.65566933
-0.021523152 -0.064569429 0.65444976
-0.021393396 -0.065825835 0.65324491
-0.021265266 -0.06706737 0.6520552
-0.021138318 -0.068293005 0.6508764
-0.021010773 -0.069497183 0.64969212
-0.027657375 0.020743042 0.7328096
-0.027111389 0.018074274 0.72731745
-0.026709186 0.015580356 0.72327161
-0.026353166 0.01317659 0.71969026
-0.026007975 0.010836661 0.71621799
-0.025623616 0.0085412264 0.71235162
-0.024529694 0.0061324239 0.70134759
-0.02392935 0.0039882064 0.69530857
-0.023452025 0.0019543469 0.69050705
-0.023045436 -0 0.6864171
-0.022671869 -0.0018892884 0.68265927
-0.022326145 -0.0037210286 0.67918158
-0.022001203 -0.0055003166 0.67591292
-0.02169718 -0.0072323978 0.67285472
-0.021401446 -0.0089172721 0.66987979
-0.021127483 -0.010563701 0.66712397
-0.020940036 -0.012215018 0.66523838
-0.020679325 -0.013786227 0.6626159
-0.020426622 -0.015319973 0.66007388
-0.020187758 -0.016823143 0.65767103
-0.01995508 -0.018292129 0.65533054
-0.019727767 -0.019727796 0.65304393
-0.01950944 -0.021135241 0.65084773
-0.019298188 -0.022514552 0.64872277
-0.019092616 -0.023865789 0.64665484
-0.018891972 -0.02518931 0.64463651
-0.018697364 -0.026487947 0.64267886
-0.018506669 -0.027759969 0.6407606
-0.018322561 -0.029010743 0.63890868
-0.018142683 -0.030237824 0.63709927
-0.017967219 -0.031442612 0.63533419
-0.017795064 -0.032624274 0.63360238
-0.017626224 -0.033783615 0.63190401
-0.017462492 -0.034924984 0.63025701
-0.017303068 -0.036048025 0.62865335
-0.01714653 -0.03715083 0.62707871
-0.017018275 -0.038291126 0.62578857
-0.01697032 -0.039597422 0.62530619
-0.020804429 -0.050277382 0.66387433
-0.020687519 -0.051718771 0.66269821
-0.021047276 -0.054372132 0.66631711
-0.020917712 -0.05578059 0.66501391
-0.020784983 -0.057158679 0.66367865
-0.020654 -0.058519632 0.66236109
-0.020524587 -0.059863359 0.66105938
-0.020395469 -0.061186403 0.65976048
-0.020266939 -0.062489733 0.65846759
-0.020140018 -0.063776746 0.65719086
-0.020014679 -0.065047696 0.65593004
-0.019890362 -0.066301212 0.65467954
-0.019766018 -0.06753391 0.65342867
-0.019643219 -0.068751261 0.65219349
-0.019522 -0.069953859 0.65097404
-0.019487279 -0.071453363 0.65062481
-0.026444245 0.031252295 0.74478912
-0.025962379 0.028322607 0.73950124
-0.02558345 0.025583476 0.73534298
-0.02522883 0.022935301 0.73145151
-0.024873221 0.020350814 0.7275492
-0.024158446 0.01756978 0.71970546
-0.023250774 0.014795959 0.70974481
-0.022738127 0.012402624 0.70411927
-0.022308743 0.010140359 0.69940728
-0.021917505 0.0079700351 0.69511402
-0.021565326 0.0058814585 0.69124925
-0.021231163 0.0038602352 0.68758225
-0.020922538 0.0019020438 0.68419558
-0.020622756 -0 0.68090582
-0.020344745 -0.0018495321 0.67785501
-0.02007567 -0.003650099 0.67490226
-0.019813618 -0.0054036975 0.67202657
-0.019568192 -0.0071156919 0.66933334
-0.019329382 -0.0087860823 0.66671276
-0.019161085 -0.010451525 0.66486591
-0.018932573 -0.012048006 0.66235828
-0.018714409 -0.013610452 0.6599642
-0.01850364 -0.015139341 0.65765131
-0.018297628 -0.016634226 0.65539056
-0.018096391 -0.018096387 0.65318227
-0.017901685 -0.019529134 0.65104562
-0.017713748 -0.020934403 0.64898324
-0.017530162 -0.022311091 0.6469686
-0.01735045 -0.023659706 0.64499652
-0.017175458 -0.024982452 0.64307624
-0.017003911 -0.026278764 0.64119369
-0.016837969 -0.027553022 0.63937271
-0.016675942 -0.028803915 0.6375947
-0.01651735 -0.030031562 0.63585436
-0.016361795 -0.031236142 0.63414735
-0.016209144 -0.032418281 0.63247216
-0.016059596 -0.033579171 0.63083106
-0.015915081 -0.034723848 0.62924522
-0.015773099 -0.035847962 0.62768716
-0.015633674 -0.036952317 0.62615716
-0.01554264 -0.038150102 0.62515819
-0.015497826 -0.039449006 0.62466633
-0.01971313 -0.051970989 0.67092389
-0.019582255 -0.053406149 0.66948766
-0.019453038 -0.054822206 0.66806966
-0.019325513 -0.056219697 0.66667032
-0.019199653 -0.057598948 0.66528916
-0.019073568 -0.058954656 0.6639055
-0.018948868 -0.060291827 0.66253704
-0.018825853 -0.061611861 0.66118711
-0.01870436 -0.062914655 0.65985388
-0.01858248 -0.064194024 0.65851647
-0.018454628 -0.06543003 0.65711343
-0.018319797 -0.066617444 0.65563381
-0.018175872 -0.067746416 0.6540544
-0.018000985 -0.068730995 0.65213525
-0.017815348 -0.069641814 0.65009815
-0.017846888 -0.071387544 0.65044427
-0.025151748 0.042757958 0.75820643
-0.024717255 0.039547622 0.75296164
-0.024351915 0.036527842 0.74855149
-0.023996757 0.033595502 0.74426436
-0.023605729 0.030687451 0.73954427
-0.022525391 0.027030498 0.72650349
-0.021945655 0.024140239 0.71950543
-0.021484582 0.021484613 0.71393979
-0.021076078 0.018968463 0.70900869
-0.020718187 0.016574562 0.70468855
-0.020375319 0.014262736 0.70054978
-0.020062981 0.012037814 0.69677949
-0.019759998 0.0098799765 0.69312215
-0.019478761 0.0077915192 0.68972743
-0.019207701 0.0057623386 0.68645537
-0.018944513 0.0037888885 0.68327844
-0.018698426 0.0018698573 0.68030787
-0.018458651 2.9802322e-08 0.67741358
-0.018225014 -0.0018225014 0.67459333
-0.018002268 -0.0036004484 0.67190456
-0.01778743 -0.005336225 0.66931117
-0.017577723 -0.0070310831 0.66677982
-0.017372841 -0.0086864233 0.66430664
-0.017225889 -0.010335505 0.66253281
-0.017034588 -0.011924177 0.66022354
-0.016847886 -0.013478309 0.65796989
-0.016665233 -0.014998734 0.65576506
-0.016486552 -0.016486526 0.6536082
-0.01631278 -0.017944068 0.6515106
-0.016145028 -0.019374043 0.64948559
-0.015981253 -0.020775646 0.64750874
-0.015820766 -0.022149056 0.64557147
-0.015663765 -0.023495674 0.64367628
-0.015509945 -0.024815917 0.64181954
-0.015359778 -0.026111603 0.64000684
-0.015214433 -0.02738598 0.63825238
-0.015071813 -0.028636426 0.63653082
-0.014931798 -0.029863596 0.63484067
-0.014794405 -0.031068236 0.63318217
-0.014659559 -0.032251 0.63155442
-0.014527654 -0.033413619 0.62996221
-0.014399637 -0.03455916 0.6284169
-0.014273855 -0.035684645 0.62689865
-0.014150212 -0.03679055 0.62540615
-0.014085403 -0.038030565 0.62462378
-0.014050202 -0.039340556 0.62419885
-0.018053258 -0.052354455 0.67252004
-0.017930467 -0.053791404 0.67103785
-0.017808069 -0.055205017 0.66956031
-0.017679768 -0.056575269 0.66801167
-0.017544439 -0.057896674 0.66637808
-0.01739924 -0.059157431 0.66462535
-0.017218359 -0.06026426 0.66244197
-0.017037198 -0.061333895 0.66025513
-0.016879486 -0.062454104 0.65835136
-0.016731156 -0.063578367 0.65656084
-0.0165968 -0.06472747 0.65493894
-0.01647103 -0.065884113 0.65342081
-0.016351428 -0.067040846 0.65197712
-0.016236976 -0.068195298 0.65059555
-0.016129622 -0.06935738 0.64929968
-0.016209465 -0.071321651 0.65026349
-0.02376801 0.055458665 0.77338153
-0.023360997 0.051913321 0.76792264
-0.022999013 0.048553497 0.76306754
-0.022641469 0.04528293 0.75827205
-0.021796428 0.041171044 0.74693811
-0.02104893 0.037420362 0.73691243
-0.0205564 0.03426066 0.73030651
-0.020141196 0.031330764 0.72473758
-0.019769039 0.028555304 0.71974617
-0.019419424 0.025892586 0.71505702
-0.019103656 0.023348927 0.71082187
-0.01879878 0.020887554 0.70673275
-0.018515576 0.018515587 0.70293427
-0.018243587 0.016216516 0.69928634
-0.017981123 0.013985306 0.69576609
-0.017734971 0.011823297 0.69246459
-0.017495466 0.0097196996 0.68925232
-0.017262347 0.0076721311 0.6861257
-0.017042706 0.0056809187 0.68317974
-0.016828898 0.0037397742 0.6803121
-0.01662039 0.0018467009 0.67751551
-0.016417643 -2.9802322e-08 0.67479622
-0.016224692 -0.0018027425 0.67220831
-0.016036224 -0.0035636127 0.66968054
-0.015852083 -0.0052840114 0.66721076
-0.015672123 -0.0069653988 0.66479713
-0.015540858 -0.0086337924 0.66303653
-0.015371896 -0.010247916 0.66077036
-0.015207032 -0.011827677 0.65855908
-0.015045664 -0.013373941 0.6563949
-0.014887688 -0.014887661 0.65427601
-0.014733233 -0.016370267 0.65220439
-0.014583085 -0.017823756 0.65019059
-0.014437586 -0.019250095 0.64823908
-0.014294962 -0.020648271 0.64632618
-0.014155217 -0.022019207 0.64445186
-0.014018178 -0.02336362 0.64261389
-0.013883766 -0.024682224 0.64081109
-0.01375279 -0.025977492 0.63905442
-0.013625376 -0.027250767 0.63734555
-0.013500298 -0.028500646 0.63566792
-0.013377459 -0.029727668 0.63402033
-0.013256874 -0.030932695 0.63240308
-0.013138519 -0.032116383 0.63081563
-0.01302256 -0.033279866 0.62926036
-0.012909851 -0.034426242 0.62774867
-0.012799077 -0.035553008 0.62626296
-0.012690187 -0.036660522 0.62480247
-0.012643655 -0.037930965 0.62417841
-0.012635069 -0.039309084 0.62406325
-0.0161744 -0.052117497 0.67153376
-0.016016545 -0.053388476 0.66941661
-0.015871134 -0.054667234 0.66746628
-0.015738398 -0.055958748 0.66568601
-0.015614738 -0.057254046 0.66402745
-0.015497484 -0.058546036 0.66245484
-0.015385762 -0.059833497 0.66095632
-0.015279163 -0.061116666 0.65952665
-0.015176486 -0.062392205 0.65814948
-0.015074928 -0.063649714 0.65678734
-0.01497447 -0.064889386 0.65543997
-0.014877015 -0.066120043 0.65413284
-0.014781935 -0.067339882 0.6528576
-0.014694821 -0.068575785 0.65168923
-0.014616218 -0.06983304 0.650635
-0.014681454 -0.071775958 0.65150994
-0.014716238 -0.073581174 0.65197653
-0.021111073 0.05805546 0.77313942
-0.020065922 0.052673042 0.75736934
-0.019518485 0.048796237 0.74910915
-0.019083278 0.045322806 0.74254239
-0.018698273 0.042071134 0.73673308
-0.018346809 0.038987011 0.73142993
-0.018026318 0.036052644 0.72659409
-0.017721144 0.033227146 0.72198939
-0.017437596 0.03051579 0.71771091
-0.017166512 0.02789557 0.71362054
-0.016906438 0.02535969 0.70969635
-0.016661825 0.022910029 0.70600539
-0.016424187 0.020530254 0.70241976
-0.016195066 0.018219441 0.69896257
-0.015978053 0.015978068 0.69568813
-0.01576684 0.013796002 0.69250119
-0.015561079 0.011670828 0.6893965
-0.015364037 0.0096024871 0.68642336
-0.015174053 0.0075870156 0.68355668
-0.014988707 0.0056207776 0.68076009
-0.014807837 0.0037019551 0.67803097
-0.01463251 0.0018290877 0.67538548
-0.014464211 2.9802322e-08 0.67284602
-0.014299741 -0.0017874837 0.67036432
-0.014138969 -0.0035347641 0.66793847
-0.01398182 -0.0052431822 0.66556728
-0.01382846 -0.006914258 0.66325331
-0.013716207 -0.0085726082 0.66155946
-0.013571578 -0.010178685 0.65937722
-0.013429968 -0.011751205 0.65724045
-0.013291283 -0.01329127 0.65514785
-0.013155432 -0.014799803 0.65309805
-0.013022372 -0.016277939 0.65109032
-0.012893182 -0.01772812 0.64914101
-0.012767263 -0.019150883 0.647241
-0.01264382 -0.020546198 0.64537841
-0.012522976 -0.021915168 0.64355505
-0.012404419 -0.023258269 0.64176613
-0.012288086 -0.024576157 0.64001083
-0.01217436 -0.025870502 0.63829482
-0.012063593 -0.027143091 0.63662344
-0.011954822 -0.028392702 0.63498229
-0.011847995 -0.029619992 0.6333704
-0.01174306 -0.030825526 0.631787
-0.011639968 -0.0320099 0.6302315
-0.011538871 -0.033174247 0.62870604
-0.011440462 -0.034321368 0.62722111
-0.011343781 -0.035449296 0.62576234
-0.011248721 -0.03655836 0.62432802
-0.011214747 -0.037849784 0.62381536
-0.011222167 -0.039277583 0.62392735
-0.014335538 -0.051966339 0.67090446
-0.014233739 -0.053376526 0.66936845
-0.014133127 -0.05476585 0.66785038
-0.014034666 -0.056138664 0.66636467
-0.013939558 -0.05750069 0.66492963
-0.013850997 -0.058866739 0.66359335
-0.013770991 -0.060248107 0.66238618
-0.013827124 -0.062222093 0.66323316
-0.013762706 -0.063652515 0.66226113
-0.013683011 -0.064994305 0.6610586
-0.013600722 -0.066303521 0.65981698
-0.013514623 -0.0675731 0.65851784
-0.013428167 -0.068819359 0.65721333
-0.013339251 -0.070031062 0.65587169
-0.013251505 -0.07122682 0.65454769
-0.013162873 -0.072395772 0.65321028
-0.013075033 -0.07354705 0.65188491
-0.018335551 0.065484136 0.77078319
-0.01787607 0.0612894 0.7628597
-0.017480919 0.057437271 0.75604558
-0.017130297 0.053838074 0.74999928
-0.016807646 0.050422966 0.74443543
-0.016504778 0.047156513 0.73921257
-0.016223293 0.04403466 0.73435861
-0.01595539 0.041028172 0.72973871
-0.015699994 0.038128555 0.72533464
-0.015459053 0.035335004 0.72117972
-0.01522553 0.032626152 0.71715277
-0.015002875 0.030005753 0.71331322
-0.014790197 0.027467489 0.70964575
-0.014583466 0.025000215 0.70608079
-0.014383083 0.022601992 0.70262533
-0.014192963 0.020275682 0.69934678
-0.014007802 0.01801002 0.69615382
-0.013827411 0.015802741 0.69304311
-0.01365182 0.013651818 0.69001514
-0.013484525 0.011558175 0.68713021
-0.01332128 0.0095151663 0.6843152
-0.013161941 0.0075211227 0.68156743
-0.013006368 0.0055741668 0.67888474
-0.012855043 0.003672868 0.67627519
-0.012709643 0.0018156767 0.67376786
-0.012567541 2.9802322e-08 0.6713174
-0.012428536 -0.0017754734 0.66892034
-0.012292617 -0.0035121739 0.6665765
-0.012159595 -0.0052112639 0.66428262
-0.012042947 -0.0068816841 0.66227114
-0.011934409 -0.0085245967 0.6603995
-0.011811457 -0.010124087 0.65827918
-0.011691011 -0.011690974 0.6562022
-0.011572999 -0.013226241 0.65416712
-0.011457345 -0.014730871 0.65217274
-0.011343979 -0.016205668 0.65021783
-0.011233628 -0.017652869 0.64831495
-0.011125897 -0.01907295 0.64645714
-0.011020213 -0.020466119 0.64463466
-0.01091662 -0.021833241 0.64284825
-0.010814991 -0.023174971 0.64109576
-0.010715693 -0.024493009 0.63938344
-0.010618719 -0.025788277 0.63771117
-0.010523484 -0.027060419 0.63606894
-0.010430035 -0.028310061 0.63445747
-0.010338232 -0.029537827 0.63287437
-0.01024803 -0.030744076 0.63131887
-0.010159418 -0.031929582 0.62979078
-0.010072296 -0.033094674 0.62828851
-0.0099870265 -0.034241199 0.626818
-0.0099037765 -0.035370648 0.62538242
-0.0098257046 -0.036495507 0.62403613
-0.009796354 -0.037785918 0.62352997
-0.0098115569 -0.039246202 0.62379217
-0.012802136 -0.053037405 0.67536283
-0.012722755 -0.054526091 0.67399395
-0.012640473 -0.055979222 0.67257506
-0.012555512 -0.057396621 0.67111003
-0.012468977 -0.058782279 0.66961771
-0.012381393 -0.060138196 0.66810739
-0.012294471 -0.061472327 0.66660845
-0.012206933 -0.062778503 0.66509891
-0.01212063 -0.064066172 0.6636107
-0.012035498 -0.065335557 0.66214263
-0.011951596 -0.066587463 0.66069579
-0.011868853 -0.067822009 0.65926898
-0.01178721 -0.069039375 0.65786111
-0.011706291 -0.070237726 0.65646565
-0.011626204 -0.071418107 0.65508461
-0.011547169 -0.072582215 0.65372175
-0.011469238 -0.073730826 0.65237784
-0.015417875 0.066810817 0.76478159
-0.015120921 0.063003838 0.75880736
-0.014844947 0.059379786 0.75325519
-0.01458354 0.055903554 0.74799609
-0.014335901 0.052564979 0.74301398
-0.014101829 0.049356371 0.73830485
-0.01387528 0.04625091 0.73374707
-0.013661859 0.043262601 0.72945333
-0.013456292 0.040368885 0.7253176
-0.013256878 0.037561178 0.72130573
-0.013066528 0.034844071 0.71747625
-0.012883613 0.032209039 0.71379614
-0.012705749 0.029646724 0.71021783
-0.012532728 0.027154237 0.70673698
-0.012367566 0.024735153 0.70341408
-0.012207494 0.022380412 0.70019376
-0.012051561 0.020085931 0.69705665
-0.011899515 0.017849296 0.69399762
-0.011752039 0.015669376 0.69103068
-0.011610373 0.013545454 0.68818057
-0.011472126 0.011472136 0.68539929
-0.01133709 0.0094476044 0.68268251
-0.011205195 0.0074701309 0.68002909
-0.011076377 0.0055381656 0.67743742
-0.010952363 0.0036507845 0.67494243
-0.010831407 0.0018052161 0.67250901
-0.010713133 2.9802322e-08 0.67012954
-0.010597413 -0.0017662346 0.66780144
-0.010484131 -0.0034947097 0.6655224
-0.01037328 -0.0051866472 0.66329223
-0.010289905 -0.0068599582 0.66161484
-0.01018445 -0.008487016 0.65949321
-0.010081338 -0.010081321 0.65741879
-0.0099802595 -0.011643648 0.6553852
-0.0098812198 -0.013174951 0.65339273
-0.0097849239 -0.014677376 0.6514554
-0.009690675 -0.01615116 0.64955926
-0.0095981937 -0.017596692 0.6476987
-0.0095074903 -0.019014955 0.64587384
-0.0094184857 -0.020406723 0.6440832
-0.0093312189 -0.021772802 0.64232755
-0.009245526 -0.023113817 0.64060354
-0.0091615599 -0.024430841 0.63891429
-0.0090798475 -0.025726259 0.63727033
-0.0089995787 -0.026998758 0.63565552
-0.0089207441 -0.028249025 0.63406944
-0.0088432785 -0.029477596 0.6325109
-0.0087671215 -0.030684918 0.63097876
-0.0086922897 -0.031871736 0.62947327
-0.0086187236 -0.033038437 0.62799329
-0.0085463934 -0.034185559 0.62653804
-0.0084755784 -0.035314858 0.62511337
-0.008411414 -0.036449462 0.62382251
-0.0083863428 -0.037738532 0.62331808
-0.0084031969 -0.039214909 0.62365723
-0.0084735202 -0.04095532 0.625072
-0.010963161 -0.054815799 0.67515969
-0.010881975 -0.056223541 0.67352635
-0.010801944 -0.057610393 0.67191625
-0.010722813 -0.058975488 0.67032427
-0.010644457 -0.060318559 0.66874784
-0.010567199 -0.061641991 0.66719359
-0.010491092 -0.062946588 0.66566241
-0.010416074 -0.064232469 0.66415316
-0.010342084 -0.065499872 0.66266459
-0.010269173 -0.066749632 0.66119772
-0.010196937 -0.067979574 0.6597445
-0.010125438 -0.069190502 0.658306
-0.010054934 -0.070384532 0.65688753
-0.009985405 -0.071562052 0.65548873
-0.0099168308 -0.072723433 0.65410918
-0.0098491916 -0.073868901 0.65274829
-0.012781276 0.06901893 0.76316524
-0.012558261 0.065302968 0.75778121
-0.012343567 0.061717838 0.75259799
-0.012142451 0.058283806 0.74774259
-0.011947783 0.054959804 0.74304295
-0.011759866 0.051743418 0.73850626
-0.011582272 0.048645556 0.73421872
-0.011409962 0.045639843 0.73005879
-0.011242704 0.042722285 0.72602075
-0.011082438 0.039896816 0.72215164
-0.010928348 0.037156403 0.71843153
-0.010778483 0.034491152 0.71481347
-0.010632719 0.031898141 0.71129447
-0.010491724 0.029376835 0.70789057
-0.010356349 0.026926517 0.70462233
-0.010224423 0.024538606 0.70143735
-0.010095856 0.022210866 0.69833344
-0.0099704433 0.019940913 0.69530571
-0.0098487278 0.017727673 0.69236726
-0.0097314622 0.015570343 0.68953621
-0.0096169934 0.013463795 0.6867727
-0.0095051862 0.011406243 0.68407339
-0.0093959132 0.0093959272 0.68143535
-0.0092891585 0.0074313283 0.67885804
-0.0091847014 0.0055108368 0.67633623
-0.0090819746 0.0036328137 0.6738562
-0.0089791669 0.0017958581 0.6713742
-0.0088756671 -0 0.66887552
-0.0087711746 -0.0017542541 0.66635281
-0.0086642792 -0.0034656823 0.66377211
-0.0085508879 -0.0051304996 0.66103458
-0.0085461857 -0.0068369508 0.6609211
-0.008459921 -0.0084599257 0.65883851
-0.0083754081 -0.010050505 0.65679812
-0.0082925679 -0.011609584 0.65479821
-0.0082114041 -0.013138264 0.65283877
-0.0081326589 -0.014638782 0.65093768
-0.0080554364 -0.016110867 0.64907336
-0.0079796668 -0.017555267 0.6472441
-0.0079053342 -0.018972784 0.64544958
-0.0078323483 -0.020364136 0.64368749
-0.0077607227 -0.021730006 0.6419583
-0.007690371 -0.02307111 0.64025986
-0.0076213069 -0.024388164 0.63859254
-0.0075539513 -0.025683433 0.63696647
-0.0074879769 -0.026956707 0.63537365
-0.0074231452 -0.028207958 0.63380849
-0.0073594479 -0.02943778 0.63227069
-0.0072968137 -0.030646622 0.63075858
-0.0072352579 -0.031835109 0.62927246
-0.0071747107 -0.033003628 0.62781072
-0.0071151685 -0.034152836 0.62637329
-0.0070566265 -0.035283148 0.62495995
-0.0070035271 -0.036418349 0.62367797
-0.0069827866 -0.037707031 0.62317729
-0.0069970824 -0.039183676 0.62352246
-0.0070555918 -0.040922433 0.62493491
-0.0091598509 -0.054959118 0.67573631
-0.0090907859 -0.056362838 0.67406893
-0.0090226242 -0.057744801 0.67242336
-0.0089554777 -0.059106141 0.6708023
-0.0088893231 -0.060447395 0.66920519
-0.0088241389 -0.061768919 0.66763145
-0.0087599028 -0.06307134 0.66608071
-0.0086965961 -0.064354807 0.66455233
-0.0086334525 -0.065614238 0.66302788
-0.0085694874 -0.066842005 0.66148365
-0.0085040918 -0.068032742 0.65990484
-0.008436243 -0.069177195 0.65826684
-0.0083512254 -0.070150286 0.6562143
-0.0082606142 -0.071041271 0.65402675
-0.0081867101 -0.072043061 0.6522426
-0.0081453426 -0.073308066 0.65124393
-0.010227843 0.071594894 0.76325041
-0.010058323 0.067893654 0.75813466
-0.0098960921 0.064324617 0.75323892
-0.0097390125 0.060868829 0.74849868
-0.0095879892 0.05752793 0.74394107
-0.0094439834 0.054302901 0.73959535
-0.0093042403 0.051173329 0.73537815
-0.0091685718 0.048135012 0.73128408
-0.0090378644 0.045189321 0.72733963
-0.008912418 0.042333961 0.72355402
-0.0087904064 0.039556861 0.71987194
-0.0086716916 0.036854684 0.7162894
-0.008556176 0.034224719 0.71280336
-0.0084450869 0.03166908 0.70945096
-0.0083374018 0.029180884 0.70620126
-0.0082324613 0.026755512 0.7030344
-0.0081301304 0.024390399 0.69994634
-0.0080303121 0.022083402 0.69693398
-0.007932852 0.019832134 0.69399291
-0.0078370543 0.017633408 0.69110191
-0.0077415658 0.015483141 0.68822038
-0.0076452796 0.013379246 0.68531466
-0.007547799 0.011321723 0.68237293
-0.007447476 0.0093093514 0.67934537
-0.0073386282 0.0073386133 0.67606062
-0.0072256308 0.0054192543 0.67265058
-0.0071191485 0.0035595894 0.66943723
-0.0070302491 0.0017575622 0.66675448
-0.0069435188 2.9802322e-08 0.66413713
-0.006859208 -0.0017147958 0.66159284
-0.0067828912 -0.0033914447 0.65928978
-0.0068244524 -0.0051183701 0.66054404
-0.0068202671 -0.0068202317 0.66041768
-0.00675241 -0.0084404945 0.6583699
-0.0066859126 -0.010028869 0.65636319
-0.0066206898 -0.011586189 0.65439492
-0.0065567489 -0.013113469 0.65246534
-0.0064946008 -0.014612794 0.65058982
-0.0064337016 -0.016084254 0.64875209
-0.006373914 -0.017528266 0.6469478
-0.0063152472 -0.018945754 0.64517736
-0.0062576509 -0.020337343 0.64343917
-0.0062010949 -0.021703839 0.64173257
-0.0061455527 -0.023045808 0.64005637
-0.0060909963 -0.024363995 0.63841003
-0.0060374187 -0.025659025 0.63679314
-0.0059851869 -0.026933342 0.63521695
-0.0059339036 -0.028186023 0.63366926
-0.0058834739 -0.029417396 0.63214743
-0.0058339122 -0.030628055 0.63065183
-0.0057851779 -0.031818479 0.62918115
-0.0057372511 -0.032989174 0.62773478
-0.0056900959 -0.034140557 0.62631178
-0.0056437254 -0.035273284 0.62491238
-0.0056006107 -0.036403954 0.62361133
-0.0055840476 -0.037692308 0.62311149
-0.0055931918 -0.039152354 0.62338746
-0.00563994 -0.040889546 0.62479818
-0.0073347013 -0.055010229 0.67594206
-0.0072715185 -0.056354284 0.67403543
-0.0071875639 -0.057500482 0.67150187
-0.0071085286 -0.058645338 0.66911674
-0.0070420979 -0.059857816 0.66711199
-0.0069786976 -0.061063588 0.66519874
-0.0069183647 -0.062265307 0.66337806
-0.0068594669 -0.063450068 0.66160065
-0.0068031345 -0.064629763 0.65990067
-0.0067501781 -0.065814242 0.65830255
-0.0066990256 -0.066990271 0.6567589
-0.0066494383 -0.068156734 0.65526247
-0.0066017779 -0.069318682 0.65382421
-0.0065550306 -0.070466593 0.65241349
-0.0065095345 -0.071604878 0.65104043
-0.0065102126 -0.073239863 0.65106094
-0.0075769848 0.070718527 0.75947225
-0.0074571716 0.067114532 0.75465137
-0.0073421658 0.063632101 0.75002384
-0.0072319075 0.060265899 0.74558741
-0.0071249115 0.056999326 0.74128222
-0.0070210355 0.053827941 0.73710263
-0.0069204001 0.05074963 0.73305333
-0.0068241288 0.047768921 0.72917962
-0.0067304685 0.04486981 0.72541106
-0.0066393749 0.042049348 0.72174573
-0.006550713 0.039304286 0.71817827
-0.0064643882 0.036631554 0.71470481
-0.0063795499 0.034024298 0.71129119
-0.0062953252 0.031476647 0.70790219
-0.0062104422 0.028982073 0.70448685
-0.0061239172 0.026537001 0.70100534
-0.0060344529 0.024137825 0.69740558
-0.0059343264 0.021759242 0.69337678
-0.0058381734 0.019460589 0.6895079
-0.005752285 0.017256886 0.68605196
-0.0056749522 0.015133202 0.68294036
-0.0055997139 0.013065994 0.67991298
-0.0055306992 0.0110614 0.67713606
-0.0054645985 0.0091076791 0.67447639
-0.0054000593 0.0072000921 0.67187953
-0.005337026 0.0053370297 0.66934329
-0.0052779708 0.0035186112 0.66696703
-0.0052207704 0.0017402768 0.66466552
-0.005164797 -0 0.6624133
-0.0051100282 -0.0017033517 0.6602096
-0.0050801099 -0.0033867359 0.65900576
-0.0051149558 -0.0051149726 0.6604079
-0.0051075248 -0.0068100393 0.6601088
-0.0050573461 -0.0084289014 0.65808988
-0.0050081271 -0.010016263 0.65610939
-0.0049598571 -0.011573017 0.65416712
-0.0049125082 -0.013100058 0.65226203
-0.0048663393 -0.014599025 0.65040433
-0.0048211538 -0.016070515 0.64858615
-0.004776815 -0.017515004 0.64680213
-0.004733284 -0.018933117 0.64505059
-0.004690554 -0.02032575 0.64333123
-0.0046485891 -0.021693408 0.64164269
-0.0046073678 -0.023036838 0.63998407
-0.0045668716 -0.024356633 0.6383546
-0.0045270803 -0.025653422 0.63675356
-0.0044879909 -0.026927948 0.63518077
-0.0044498472 -0.028182328 0.63364595
-0.0044123721 -0.029415816 0.63213807
-0.0043755104 -0.030628562 0.63065481
-0.0043392722 -0.031821311 0.62919676
-0.0043036169 -0.03299439 0.62776208
-0.004268555 -0.034148425 0.6263513
-0.0042340597 -0.035283834 0.62496334
-0.0042004697 -0.036404073 0.62361175
-0.0041881758 -0.03769359 0.62311709
-0.0041915555 -0.039121181 0.62325311
-0.0042265486 -0.040856659 0.62466109
-0.0054157623 -0.054157615 0.67251134
-0.0053734789 -0.055525959 0.67080998
-0.0053322297 -0.056877077 0.66915023
-0.0052920938 -0.058213025 0.66753531
-0.0052525578 -0.059529006 0.66594458
-0.0052136262 -0.060825646 0.66437805
-0.0051752492 -0.062102973 0.66283393
-0.0051373811 -0.063361019 0.66131014
-0.005099976 -0.064599678 0.65980512
-0.0050631114 -0.065820441 0.65832174
-0.0050267763 -0.067023665 0.65685976
-0.0049909591 -0.068209752 0.65541863
-0.004955567 -0.069377959 0.65399456
-0.0049206247 -0.070528924 0.65258855
-0.0048861555 -0.071663618 0.65120161
-0.0048781368 -0.073172092 0.65087903
-0.0050851284 0.073734373 0.76151258
-0.0050066425 0.070093006 0.7567755
-0.0049311495 0.06657055 0.75221914
-0.0048578996 0.063152701 0.74779809
-0.0047867941 0.059834927 0.74350649
-0.0047177398 0.056612939 0.7393387
-0.0046500019 0.053475022 0.73525035
-0.0045830053 0.050413072 0.73120677
-0.0045155268 0.047413021 0.72713411
-0.0044462499 0.044462532 0.7229529
-0.0043735551 0.041548789 0.71856529
-0.0042936164 0.038642555 0.71374059
-0.0042185741 0.035857886 0.70921135
-0.0041562864 0.033250302 0.70545202
-0.0040958119 0.030718595 0.70180202
-0.0040393206 0.028275281 0.69839245
-0.0039864932 0.025912225 0.69520408
-0.0039350297 0.023610145 0.69209802
-0.0038848631 0.021366745 0.68907022
-0.0038381515 0.019190758 0.68625087
-0.0037928231 0.01706773 0.68351501
-0.0037485526 0.014994204 0.68084311
-0.0037053039 0.0129686 0.67823279
-0.0036633234 0.010990024 0.67569906
-0.0036236604 0.0090591311 0.67330521
-0.0035848473 0.0071696937 0.67096257
-0.0035468568 0.0053203106 0.6686697
-0.0035096509 0.0035096407 0.6664241
-0.0034732295 0.0017366111 0.66422588
-0.0034381468 2.9802322e-08 0.66210842
-0.0034044371 -0.0017022192 0.66007388
-0.0033845177 -0.0033845305 0.65887165
-0.0034077179 -0.0051115751 0.66027188
-0.003402944 -0.0068058968 0.65998375
-0.0033698385 -0.0084245801 0.65798563
-0.0033373819 -0.01001215 0.65602672
-0.0033055337 -0.011569321 0.65410453
-0.0032742876 -0.013097167 0.6522187
-0.0032437004 -0.014596671 0.65037256
-0.0032138445 -0.016069233 0.64857066
-0.0031845432 -0.017515004 0.64680213
-0.0031557716 -0.018934608 0.64506555
-0.0031275051 -0.02032879 0.64335954
-0.00309976 -0.021698326 0.64168501
-0.0030725028 -0.023043752 0.64003992
-0.0030457205 -0.024365783 0.63842344
-0.0030194104 -0.025664985 0.63683546
-0.0029935422 -0.026941836 0.63527417
-0.0029681132 -0.02819708 0.63373941
-0.0029432599 -0.029432595 0.6322394
-0.0029188534 -0.030647933 0.63076627
-0.0028948484 -0.031843305 0.62931746
-0.0028712428 -0.033019274 0.62789273
-0.0028480114 -0.034176141 0.62649059
-0.0028251528 -0.035314381 0.62511098
-0.0028026584 -0.036434561 0.62375331
-0.0027933174 -0.037709773 0.62318957
-0.0027921484 -0.039090097 0.623119
-0.0036415807 -0.05280292 0.6743868
-0.0036133633 -0.054200441 0.67268372
-0.0035855155 -0.05557549 0.67100292
-0.0035580809 -0.05692932 0.66934711
-0.0035310753 -0.058262765 0.66771716
-0.0035044765 -0.059576094 0.66611183
-0.003478433 -0.060872555 0.66453993
-0.0034528922 -0.062152088 0.66299844
-0.0034277127 -0.063412696 0.6614787
-0.003402909 -0.064655274 0.65998167
-0.0033784502 -0.065879807 0.6585055
-0.0033543408 -0.067086831 0.65705031
-0.0033305839 -0.068276957 0.65561646
-0.0033071504 -0.06945017 0.6542021
-0.0032844213 -0.070615053 0.6528303
-0.003262205 -0.071768522 0.6514895
-0.003249082 -0.073104322 0.65069735
-0.0025236362 0.073185474 0.75922775
-0.0024827514 0.069517016 0.75429255
-0.0024405008 0.065893531 0.74919242
-0.0023944508 0.06225571 0.74363369
-0.0023469646 0.058674127 0.73790163
-0.0023054185 0.055330068 0.73288655
-0.0022682645 0.052170098 0.72840166
-0.0022329469 0.049124837 0.7241385
-0.0022007045 0.046214789 0.72024643
-0.0021693702 0.043387413 0.7164641
-0.002138925 0.040639579 0.712789
-0.0021107285 0.037993103 0.7093854
-0.0020833523 0.03541702 0.70608079
-0.0020566687 0.032906711 0.70285982
-0.0020306602 0.030459911 0.69972026
-0.0020059764 0.028083682 0.69674075
-0.0019822153 0.025768816 0.69387251
-0.0019590105 0.023508132 0.69107139
-0.0019363352 0.02129969 0.68833429
-0.0019141862 0.019141883 0.6856606
-0.0018929177 0.017036229 0.68309331
-0.0018725087 0.014980078 0.68062973
-0.0018525284 0.012967706 0.67821789
-0.0018329701 0.010997832 0.67585695
-0.001813827 0.0090691745 0.6735462
-0.0017950729 0.0071803033 0.67128241
-0.0017771322 0.0053313673 0.66911674
-0.0017598061 0.0035195947 0.66702533
-0.0017428148 0.0017428398 0.66497427
-0.0017261484 -0 0.6629625
-0.0017097919 -0.0017098188 0.66098809
-0.0016937482 -0.0033875108 0.65905142
-0.00170274 -0.0051082075 0.66013682
-0.0017018885 -0.0068075359 0.66003406
-0.0016854696 -0.0084273517 0.65805209
-0.0016693701 -0.010016203 0.65610874
-0.0016535696 -0.011574984 0.65420145
-0.0016380657 -0.013104528 0.65232998
-0.0016228548 -0.014605731 0.65049386
-0.0016080067 -0.016080052 0.64870149
-0.001593448 -0.017527908 0.64694411
-0.0015791507 -0.018949777 0.64521825
-0.0015651076 -0.020346403 0.6435231
-0.0015513168 -0.021718413 0.6418584
-0.0015377621 -0.023066401 0.64022225
-0.0015244518 -0.024391264 0.63861549
-0.0015113697 -0.025693297 0.63703638
-0.0014985149 -0.026973248 0.6354847
-0.0014858723 -0.028231531 0.63395858
-0.0014734458 -0.029468894 0.63245857
-0.0014612551 -0.030686349 0.63098699
-0.0014493107 -0.031884819 0.62954521
-0.001437556 -0.033063769 0.62812626
-0.0014259943 -0.034223855 0.62673068
-0.0014146132 -0.035365343 0.62535685
-0.0014034163 -0.036488801 0.6240052
-0.0013978097 -0.037740856 0.62332851
-0.0013949649 -0.039059013 0.62298512
-0.0018228069 -0.052861392 0.67463022
-0.0018090004 -0.054269999 0.67296356
-0.0017955368 -0.055661649 0.67133838
-0.0017822657 -0.057032496 0.66973644
-0.0017691895 -0.058383226 0.66815799
-0.0017563038 -0.059714347 0.66660255
-0.0017436044 -0.061026126 0.66506952
-0.0017310872 -0.06231916 0.6635586
-0.0017187544 -0.063593924 0.66206992
-0.001706928 -0.064863265 0.66064239
-0.0016952804 -0.066115931 0.65923643
-0.0016837908 -0.067351639 0.65784943
-0.0016724558 -0.068570659 0.65648115
-0.0016612669 -0.069773197 0.65513057
-0.0016502321 -0.07095997 0.65379858
-0.0016393429 -0.072131112 0.65248418
-0.0016285861 -0.073286369 0.65118563
0 0.074900687 0.75597489
0 0.071234226 0.75110579
0 0.067686617 0.74640137
0 0.064251095 0.74184948
0 0.060967892 0.73765469
0 0.057779223 0.73358065
0 0.054681033 0.72962224
0 0.051674604 0.72580141
0 0.04877311 0.7222085
0 0.045947403 0.71870959
0 0.043194532 0.71529984
0 0.040511936 0.7119782
0 0.037905991 0.70880097
0 0.035371035 0.70575452
0 0.03289628 0.70278126
0 0.030479312 0.69987655
0 0.028118283 0.69703907
0 0.025814146 0.69429314
0 0.023569107 0.69168496
0 0.021372467 0.68913299
0 0.019222587 0.68663532
0 0.017118067 0.68419027
0 0.015057415 0.68179625
0 0.013043463 0.67952448
0 0.011071116 0.67733139
0 0.0091368854 0.67518151
0 0.00723961 0.6730718
0 0.0053782761 0.67100215
0 0.0035526156 0.66901851
0 0.0017609298 0.6671629
0 2.9802322e-08 0.66533834
0 -0.0017310083 0.66354561
0 -0.0034327507 0.6617831
0 -0.0051065087 0.66006827
0 -0.0068150163 0.66025931
0 -0.0084371865 0.65828884
0 -0.010028481 0.65635574
0 -0.011589974 0.65445971
0 -0.01312232 0.65259832
0 -0.014626384 0.65077186
0 -0.016103238 0.64898133
0 -0.017554134 0.64723182
0 -0.018979132 0.64551294
0 -0.020378917 0.64382493
0 -0.021754086 0.64216602
0 -0.023105502 0.64053655
0 -0.024433494 0.63893449
0 -0.025738925 0.63736039
0 -0.027022123 0.63581246
0 -0.028283894 0.63429099
0 -0.029524624 0.63279492
0 -0.030745149 0.63132501
0 -0.031946629 0.62988436
0 -0.033128679 0.62846696
0 -0.034292132 0.62707424
0 -0.035437256 0.62570417
0 -0.036564201 0.6243552
0 -0.037786901 0.62353426
0 -0.039078504 0.62306911
0 -0.053141713 0.67579699
0 -0.054571658 0.67417741
0 -0.055980027 0.67257822
0 -0.05736804 0.67100215
0 -0.058735907 0.66944796
0 -0.060084432 0.6679166
0 -0.061413944 0.66640699
0 -0.062719941 0.66490251
0 -0.063999087 0.66339177
0 -0.065259963 0.66190255
0 -0.066503018 0.66043454
0 -0.067728624 0.65898705
0 -0.068937048 0.65755987
0 -0.070128724 0.65615237
0 -0.071299791 0.65475249
0 -0.072447225 0.65335155
0 -0.073579013 0.65197068
0.0025147705 0.077957898 0.75815755
0.002477539 0.074326187 0.7536633
0.002441382 0.070800066 0.74929881
0.0024062768 0.067375749 0.74506128
0.002372842 0.064066738 0.74102527
0.0023408597 0.060862362 0.73716474
0.0023097179 0.057742953 0.73340553
0.0022794039 0.054705679 0.72974628
0.0022498651 0.051746935 0.72618067
0.002222039 0.048884898 0.72282171
0.0021950181 0.046095401 0.71956003
0.0021686463 0.043372929 0.71637666
0.0021429006 0.040715128 0.71326894
0.0021177591 0.038119644 0.71023411
0.0020942611 0.03560245 0.70739764
0.0020713385 0.033141404 0.70463061
0.0020489122 0.030733675 0.70192355
0.0020269747 0.028377682 0.69927543
0.0020057994 0.026075393 0.69671935
0.0019862205 0.023834705 0.69435591
0.0019670199 0.021637201 0.69203824
0.0019481793 0.019481748 0.68976402
0.0019297559 0.01736781 0.68754011
0.0019118602 0.01529488 0.68537992
0.0018940283 0.013258189 0.68322736
0.0018758011 0.011254817 0.68102717
0.0018578662 0.0092893541 0.67886221
0.0018397636 0.0073590279 0.67667705
0.0018218644 0.0054655969 0.67451638
0.0018043101 0.0036086142 0.67239743
0.0017869442 0.0017869473 0.6703012
0.0017696714 -0 0.66821617
0.0017526557 -0.0017526746 0.66616219
0.0017358074 -0.0034716129 0.66412842
0.0017192801 -0.0051578581 0.66213334
0.0017069455 -0.0068277419 0.66064447
0.0016906693 -0.0084533393 0.65867972
0.0016747229 -0.01004833 0.65675485
0.001659124 -0.011613876 0.65487194
0.0016438131 -0.013150513 0.65302372
0.0016287823 -0.014659017 0.65120929
0.0016140237 -0.016140252 0.64942777
0.0015995302 -0.017594844 0.64767826
0.0015852946 -0.019023538 0.64595985
0.0015713102 -0.020427018 0.64427185
0.0015575753 -0.021806061 0.64261389
0.0015440927 -0.023161411 0.64098644
0.0015308462 -0.024493545 0.63938737
0.0015178204 -0.02580294 0.63781506
0.0015050189 -0.027090311 0.63626975
0.0014924271 -0.028356105 0.63474983
0.0014800486 -0.029600978 0.6332556
0.0014678696 -0.030825287 0.63178551
0.0014558935 -0.032029659 0.63033986
0.0014441363 -0.033215135 0.62892061
0.0014325962 -0.034382284 0.62752759
0.0014212471 -0.035531163 0.62615764
0.0014100764 -0.036661953 0.62480921
0.0014017727 -0.037847847 0.62380683
0.0013980285 -0.039144784 0.62335491
0.0018410836 -0.053391397 0.67683637
0.0018267933 -0.054803818 0.67511141
0.0018127164 -0.056194216 0.6734122
0.0017988613 -0.057563543 0.6717397
0.0017852164 -0.058912158 0.67009264
0.0017717392 -0.060239166 0.66846579
0.0017582293 -0.061538011 0.66683495
0.0017449239 -0.062817276 0.66522884
0.0017318183 -0.064077258 0.66364682
0.001718908 -0.06531854 0.66208851
0.0017061888 -0.066541359 0.66055322
0.0016936564 -0.067746267 0.65904039
0.0016813069 -0.068933591 0.65754962
0.0016691028 -0.070102274 0.65607649
0.0016569482 -0.071248755 0.65460926
0.0016449696 -0.07237865 0.65316331
0.0016331627 -0.073492318 0.65173811
0.0050444738 0.078189373 0.75905883
0.0049749576 0.07462436 0.75486314
0.0049073547 0.071156651 0.75078303
0.0048421742 0.067790419 0.746849
0.0047809854 0.064543307 0.74315596
0.0047213458 0.061377496 0.73955637
0.0046631759 0.058289677 0.73604548
0.0046067401 0.055280864 0.73263931
0.0045551765 0.052384526 0.72952712
0.0045047537 0.049552321 0.72648388
0.0044554155 0.046781868 0.72350603
0.0044075344 0.04407534 0.72061616
0.0043600448 0.0414204 0.71774989
0.004313177 0.038818628 0.71492118
0.0042656511 0.036258042 0.7120527
0.004217756 0.03374204 0.709162
0.0041709249 0.031281948 0.70633548
0.004124986 0.028874904 0.70356286
0.0040794825 0.026516646 0.70081645
0.0040342887 0.024205714 0.69808877
0.0039897198 0.02194348 0.69539881
0.0039460468 0.019730181 0.69276291
0.0039032584 0.017564684 0.69018042
0.0038609861 0.015443921 0.6876291
0.0038195611 0.013368487 0.68512881
0.0037789729 0.011336923 0.68267912
0.0037392383 0.0093480647 0.68028092
0.0037003304 0.0074006617 0.67793262
0.0036622239 0.0054933429 0.67563266
0.0036248812 0.0036248863 0.67337883
0.0035883053 0.0017941296 0.67117131
0.0035524599 -2.9802322e-08 0.6690079
0.0035173236 -0.0017586648 0.66688722
0.0034828635 -0.0034828484 0.66480732
0.0034490842 -0.0051735938 0.66276854
0.0034197941 -0.0068395734 0.66100073
0.0033910549 -0.0084776282 0.65926617
0.0033592274 -0.010077655 0.65734524
0.0033280365 -0.011648148 0.65546268
0.00329743 -0.013189703 0.65361547
0.0032673709 -0.014703155 0.65180117
0.0032378649 -0.016189337 0.65002036
0.0032088773 -0.017648816 0.64827073
0.003180414 -0.019082487 0.64655292
0.0031524412 -0.020490855 0.64486456
0.0031249661 -0.021874756 0.64320624
0.0030979749 -0.023234814 0.6415773
0.0030714653 -0.024571747 0.63997722
0.0030454055 -0.025885969 0.63840443
0.0030197748 -0.02717796 0.63685751
0.0029945811 -0.028448492 0.63533688
0.0029698042 -0.029698044 0.63384151
0.0029454257 -0.030926943 0.63237005
0.002921452 -0.032135934 0.63092315
0.0028978661 -0.033325434 0.62949961
0.0028746491 -0.034495771 0.62809837
0.0028518911 -0.035648614 0.62672478
0.0028295144 -0.036783695 0.6253742
0.0028092039 -0.03792426 0.62414837
0.0028019755 -0.039227664 0.62371212
0.0028064309 -0.040693238 0.623981
0.002834901 -0.042523518 0.62569934
0.003617543 -0.056071907 0.67293596
0.0035890131 -0.057424188 0.67121404
0.0035609293 -0.058755338 0.66951907
0.0035332819 -0.060065776 0.66785038
0.0035060605 -0.061356068 0.66620737
0.0034792551 -0.06262657 0.66458952
0.0034528568 -0.063877821 0.66299629
0.0034268557 -0.065110266 0.66142696
0.0034012436 -0.066324249 0.65988111
0.0033760115 -0.067520231 0.65835822
0.0033511508 -0.06869857 0.65685773
0.0033266535 -0.069859728 0.65537924
0.0033023704 -0.071000963 0.65391362
0.0032784499 -0.072125882 0.65246987
0.0032548625 -0.073234394 0.65104622
0.0076065883 0.076065868 0.76066339
0.0075093997 0.072590858 0.75675285
0.0074106734 0.069166243 0.75278044
0.0073144743 0.06583029 0.74890959
0.0072207404 0.062579751 0.74513805
0.0071269749 0.059391469 0.74136525
0.0070342286 0.056273848 0.73763341
0.0069438661 0.053236306 0.73399758
0.0068557947 0.050275862 0.73045385
0.006769503 0.047386497 0.72698176
0.0066847303 0.044564873 0.7235707
0.0066019967 0.041812658 0.72024179
0.0065212864 0.039127737 0.71699423
0.0064425254 0.036507636 0.71382511
0.0063656438 0.03395012 0.71073163
0.0062905764 0.031452894 0.70771116
0.0062172324 0.029013753 0.70476007
0.0061456044 0.026630968 0.70187795
0.0060756081 0.024302423 0.69906151
0.006007188 0.02202639 0.69630849
0.0059402683 0.019800901 0.69361585
0.0058750068 0.017625064 0.69098997
0.0058113667 0.015496999 0.68842924
0.0057491129 0.013414592 0.68592429
0.0056881784 0.011376351 0.68347251
0.0056285211 0.009380877 0.68107218
0.0055701034 0.0074267983 0.67872155
0.0055128653 0.0055128634 0.67641854
0.0054568113 0.0036379099 0.67416304
0.0054018856 0.0018006265 0.67195302
0.0053480547 -0 0.66978705
0.0052952864 -0.0017650723 0.66766375
0.0052435487 -0.0034956634 0.66558206
0.0051927948 -0.0051928163 0.66353989
0.005143031 -0.0068573654 0.66153753
0.0051059783 -0.0085099638 0.66004658
0.0050582155 -0.010116398 0.6581248
0.0050113373 -0.01169312 0.65623856
0.0049653202 -0.013240814 0.654387
0.0049201408 -0.014760435 0.65256912
0.0048757601 -0.016252518 0.65078336
0.0048321886 -0.017717987 0.64903015
0.0047893887 -0.019157559 0.64730799
0.0047473405 -0.020571768 0.64561617
0.0047060242 -0.021961451 0.64395374
0.0046654353 -0.023327202 0.64232051
0.0046255547 -0.024669617 0.6407159
0.0045863641 -0.025989383 0.639139
0.0045478186 -0.027286917 0.63758802
0.0045099291 -0.028562903 0.63606346
0.0044726525 -0.0298177 0.63456357
0.0044359998 -0.031052023 0.63308877
0.0043999301 -0.03226614 0.63163745
0.0043644425 -0.033460736 0.63020951
0.0043295347 -0.034636319 0.62880498
0.0042951694 -0.035793066 0.62742215
0.0042613689 -0.036931843 0.62606215
0.0042282273 -0.038054049 0.62472868
0.0042136996 -0.03932786 0.62414414
0.0042062844 -0.040660769 0.62384582
