# .PCD v0.7 - Point Cloud Data file format
VERSION 0.7
FIELDS x y z
SIZE 4 4 4
TYPE F F F
COUNT 1 1 1
WIDTH 436
HEIGHT 1
VIEWPOINT 0 0 0 1 0 0 0
POINTS 436
DATA ascii
-0.04410436 0.0023212731 0.61532336
-0.039851844 0.0011721253 0.61670816
-0.039851844 0.0011721253 0.61670816
-0.039851844 0.0058605969 0.6167081
-0.036606807 0.0011808574 0.61776459
-0.037693858 0.010601401 0.61741066
-0.034416482 -0.0023735762 0.61847806
-0.034416482 -0.0023735762 0.61847806
-0.034416482 0.0094941854 0.61847806
-0.033313032 0.014277041 0.61883724
-0.035514332 0.015389562 0.61812019
-0.035514332 0.015389562 0.61812019
-0.031089451 -0.0011957288 0.61956114
-0.02996923 0.0035963356 0.6199258
-0.031089451 0.0083702505 0.61956108
-0.031089451 0.010761738 0.61956108
-0.031089451 0.011957496 0.61956108
-0.031089451 0.013153225 0.61956114
-0.032204036 0.015505642 0.61919826
-0.031089451 0.015544713 0.61956114
-0.031089451 0.019131988 0.61956108
-0.031089451 0.02630645 0.61956108
-0.02996923 0.029969245 0.61992586
-0.027711798 -0.0012048483 0.62066114
-0.027711798 0.01325345 0.62066114
-0.027711727 0.021687448 0.62066078
-0.025431238 -0.006055057 0.62140357
-0.02657442 0.0072475672 0.6210314
-0.024282204 0.013355225 0.62177765
-0.02657442 0.014495134 0.6210314
-0.024282204 0.020639867 0.62177759
-0.025431238 0.031486303 0.62140357
-0.026574353 0.032613993 0.62103105
-0.026574353 0.032613993 0.62103105
-0.024282204 0.037637413 0.62177765
-0.021966407 -0.0048814118 0.62253153
-0.021966407 -0.0048814118 0.62253153
-0.023127275 0.012172252 0.62215364
-0.021966407 0.017084986 0.62253153
-0.020799547 0.023246586 0.62291145
-0.023127275 0.036516756 0.62215364
-0.023127275 0.036516756 0.62215364
-0.023127275 0.040168434 0.62215364
-0.018447734 -0.0073790848 0.62367749
-0.019626709 -0.0012266636 0.6232937
-0.019626709 0.0061333477 0.62329364
-0.019626709 0.019626737 0.62329364
-0.019626658 0.049066633 0.62329328
-0.018447686 0.049193799 0.62367713
-0.016071353 -0 0.6244511
-0.01726263 0.017262638 0.62406325
-0.016071353 0.022252649 0.6244511
-0.01726263 0.033292234 0.62406325
-0.016071353 0.037087709 0.62445116
-0.016071353 0.043269008 0.6244511
-0.014873851 0.058255911 0.62484097
-0.013670076 -0.018641025 0.62523288
-0.013670076 -0.013670087 0.62523288
-0.01246001 -0.0049839914 0.62562722
-0.013670076 0.023611963 0.62523288
-0.013670076 0.031068355 0.62523282
-0.012459978 0.033641934 0.6256268
-0.012459978 0.033641934 0.6256268
-0.012459978 0.047347903 0.6256268
-0.012459978 0.047347903 0.6256268
-0.012459978 0.061053902 0.6256268
-0.0087912688 -0.0075353682 0.62682158
-0.0087912688 -0.0075353682 0.62682158
-0.01002064 -0 0.62642133
-0.0087912688 0.0050235689 0.62682164
-0.011243536 0.0074957013 0.62602323
-0.011243536 0.016240656 0.62602323
-0.011243536 0.019988507 0.62602317
-0.0087912688 0.020094335 0.62682158
-0.01002064 0.023799062 0.62642133
-0.01002064 0.023799062 0.62642133
-0.0087912688 0.050235838 0.62682158
-0.011243507 0.054968268 0.62602282
-0.011243507 0.059965372 0.62602282
-0.0075553926 -0.0012592077 0.62722433
-0.0075553926 0.0037777126 0.62722427
-0.0075553721 0.011333078 0.62722397
-0.0075553721 0.045332223 0.62722391
-0.0075553721 0.051628381 0.62722391
-0.0075553721 0.051628381 0.62722391
-0.0075553721 0.056665301 0.62722391
-0.0063128984 0.056816071 0.62762845
-0.0063128984 0.058078676 0.62762839
-0.0063128984 0.058078676 0.62762839
-0.0038080059 -0.021578699 0.6284439
-0.0050637941 -0.013925433 0.62803507
-0.003808016 -0.011424035 0.62844431
-0.0025454876 -0.0038182437 0.62885535
-0.003808016 0.0038080215 0.62844431
-0.0050638076 0.015191436 0.62803543
-0.003808016 0.027925432 0.62844431
-0.0050637941 0.040510356 0.62803507
-0.0050637941 0.040510356 0.62803507
-0.0050637941 0.040510356 0.62803507
-0.0025454806 0.045818627 0.62885493
-0.0025454806 0.045818627 0.62885493
0 -0 0.62968445
0 -0 0.62968445
0 -0 0.62968445
0 0.024312586 0.62968397
0.0038701398 -0.019350678 0.63094401
0.0012830694 -0.012830645 0.63010174
0.0012830694 -0.0076984167 0.63010168
0.0012830729 -0.0038492084 0.63010216
0.0012830729 0.0089815259 0.63010216
0.0025731041 0.019298285 0.63052213
0.0025730971 0.034736812 0.63052166
0.0025730971 0.037309915 0.63052171
0.0038701398 0.038701385 0.63094395
0.0038701398 0.039991468 0.63094395
0.0012830694 0.051322758 0.63010174
0.0012830694 0.057738125 0.63010168
0.0064855185 -0.024645001 0.63179588
0.0064855185 -0.018159479 0.63179588
0.0051742694 -0.010348529 0.63136894
0.0051742694 -0.010348529 0.63136894
0.0051742694 -0.0012935698 0.63136899
0.0051742694 -0.0012935698 0.63136899
0.0064855185 0.0064855218 0.63179582
0.0051742694 0.025871336 0.63136894
0.0051742694 0.028458506 0.63136899
0.0064855008 0.053181082 0.63179541
0.0091296444 0.023476243 0.63265663
0.0091296444 0.031301647 0.63265669
0.0091296444 0.037822813 0.63265669
0.010462641 -0.03008011 0.63309067
0.013150801 -0.028931737 0.63396573
0.013150801 -0.028931737 0.63396573
0.01046267 0.017001837 0.63309109
0.011803005 0.035409033 0.63352698
0.010462641 0.047081858 0.63309062
0.015868975 -0.022481084 0.63485116
0.015868975 -0.0013224185 0.6348511
0.015868975 0.013224155 0.6348511
0.014506129 0.014506131 0.6344074
0.017239438 -0.033152759 0.6352973
0.017239438 -0.018565536 0.6352973
0.018617637 -0.009308815 0.63574642
0.017239487 0.003978312 0.63529778
0.018617585 0.027926415 0.63574588
0.017239438 0.033152759 0.6352973
0.018617585 0.037235171 0.63574594
0.021397186 -0.034770429 0.63665086
0.021397248 -0 0.63665134
0.021397248 0.0040119886 0.63665134
0.020003535 0.0080014169 0.63619757
0.020003535 0.0080014169 0.63619757
0.020003535 0.024004281 0.63619757
0.022798771 -0.038892031 0.63710719
0.022798834 -0.024139941 0.63710761
0.022798834 -0.013411075 0.63710761
0.022798834 0.005364418 0.63710761
0.024208372 0.014794022 0.63756651
0.022798834 0.018775523 0.63710761
0.024208372 0.032277822 0.63756651
0.022798834 0.033527702 0.63710761
0.027051551 -0.03381443 0.63849217
0.027051551 -0.028404117 0.63849211
0.027051551 -0.028404117 0.63849211
0.027051551 -0.024346411 0.63849211
0.027051551 -0.021641225 0.63849211
0.027051551 -0.012173206 0.63849211
0.028485417 0.0013564527 0.63895941
0.027051629 0.0040577352 0.63849258
0.027051629 0.021641284 0.63849264
0.025625922 0.036415786 0.63802803
0.028485337 0.037980467 0.63895887
0.031377729 -0.023192227 0.63990098
0.031377729 -0.0054570138 0.63990098
0.029927427 0.010882676 0.63942885
0.029927427 0.013603389 0.63942885
0.031377729 0.015006781 0.63990092
0.031377729 0.034106255 0.63990098
0.031377729 0.035470486 0.63990098
0.029927427 0.040810138 0.63942879
0.032836393 -0.027363658 0.64037585
0.032836393 -0.019154549 0.64037585
0.032836393 -0.013681799 0.64037591
0.032836393 -0.0095772743 0.64037585
0.032836393 -0.0041045249 0.64037585
0.032836393 -0.0041045249 0.64037585
0.032836393 0.020522743 0.64037585
0.032836393 0.030100048 0.64037585
0.035779111 -0.045411974 0.64133394
0.037263308 -0.034503073 0.64181709
0.035779215 -0.0096328557 0.64133435
0.035779215 -0.001376152 0.64133435
0.037263419 0.022082061 0.64181757
0.038756169 -0.044292748 0.64230311
0.038756169 -0.038756162 0.64230311
0.038756281 -0.022146434 0.64230359
0.040257879 -0.013882041 0.64279246
0.038756281 0.0096890628 0.64230359
0.038756281 0.016609848 0.64230365
0.038756281 0.017993987 0.64230359
0.040257879 0.027764082 0.64279246
0.041768167 -0.047337264 0.64328372
0.041768167 -0.045944989 0.64328372
0.043287463 -0.041891098 0.64377832
0.04176829 -0.027845502 0.6432842
0.04176829 -0.027845502 0.6432842
0.04328759 0.019549221 0.6437788
0.046353187 -0.050567091 0.64477688
0.044815864 -0.032211393 0.64427638
0.044815864 -0.021007419 0.64427638
0.046353322 -0.0070232451 0.64477736
0.044815995 0.0042015016 0.64427686
0.044815995 0.012604475 0.64427686
0.049455293 -0.042390227 0.64578676
0.047899634 -0.03381151 0.64528036
0.047899775 -0.0070440769 0.64528084
0.047899775 0.004226476 0.64528084
0.049455442 0.015543163 0.6457873
0.049455442 0.015543163 0.6457873
0.049455442 0.021195173 0.6457873
0.05102025 -0.038265198 0.64629626
0.051020399 -0.022675723 0.64629674
0.051020399 0.0099206567 0.64629674
0.054178376 -0.05560413 0.64732444
0.055771716 -0.055771723 0.64784312
0.054178536 -0.044198275 0.64732492
0.054178536 -0.038495272 0.64732492
0.054178536 -0.03279227 0.64732498
0.054178536 -0.017109007 0.64732492
0.0541787 -0.012831807 0.64732552
0.0541787 0.0028514862 0.64732546
0.055772051 0.0028600991 0.6478442
0.055772051 0.011440426 0.6478442
0.055772051 0.014300525 0.6478442
0.0541787 0.015683293 0.64732546
0.057374865 -0.051637381 0.64836556
0.058987565 -0.047477782 0.64889055
0.058987565 -0.034529328 0.64889061
0.057374865 -0.025818706 0.64836556
0.057375036 -0.020081222 0.64836603
0.05898774 -0.017264694 0.64889109
0.05898774 -0.0086323321 0.64889109
0.05898774 0.0057549179 0.64889109
0.057375036 0.021515638 0.64836609
0.062242489 -0.050662518 0.64995027
0.060610261 -0.021646529 0.64941931
0.062242676 -0.020265043 0.64995074
0.060610261 0.010101706 0.64941937
0.062242676 0.014475048 0.64995074
0.063884892 -0.056625247 0.65048498
0.063885085 -0.031942517 0.65048546
0.063885085 -0.024682879 0.65048546
0.063885085 -0.024682879 0.65048546
0.063885085 -0.015971273 0.65048546
0.065537579 -0.048060894 0.65102345
0.065537579 -0.043691725 0.65102351
0.067200243 -0.037982732 0.65156478
0.067200452 -0.017530531 0.65156531
0.067200452 -0.00146088 0.65156531
0.067200452 -0.00146088 0.65156531
0.067200452 0.0043826401 0.65156531
0.067200452 0.01168704 0.65156531
0.070556492 -0.036748171 0.65265745
0.068873182 -0.029307753 0.65210944
0.070556708 -0.0088195801 0.65265799
0.070556708 0.0073496699 0.65265793
0.072250478 -0.020642996 0.65320945
0.072250478 -0.0088469982 0.65320945
0.072250709 -0.0014744997 0.65320998
0.072250709 -0.0014744997 0.65320998
0.072250709 0.0014744997 0.65320998
0.072250709 0.0014744997 0.65320998
-0.037150331 -0.0029484853 0.61758757
-0.041455735 0.00058389455 0.61618596
-0.037150331 0.0070763826 0.61758763
-0.032758534 0.00059562922 0.61901778
-0.02996923 0.0053944588 0.6199258
-0.02996923 0.023376003 0.61992586
-0.031089451 0.025110692 0.61956114
-0.02485672 0.0090941936 0.62159061
-0.027143074 0.021111891 0.62084609
-0.024856687 0.035164237 0.62159044
-0.023127275 0.0030430555 0.62215364
-0.023127275 0.0030430555 0.62215364
-0.019037221 0.012896724 0.62348557
-0.021188501 0.022818815 0.62278479
-0.019037172 0.052815005 0.62348521
-0.016666992 -0.014815837 0.62425721
-0.013065043 -0.0093327463 0.62542999
-0.013065061 -0.0031109303 0.62543023
-0.016666992 0.027162313 0.62425721
-0.016666992 0.038891524 0.62425715
-0.016666992 0.038891524 0.62425715
-0.010632088 -0.015011162 0.62622231
-0.0069341436 0.010717712 0.62742639
-0.0087912688 0.025117904 0.62682152
-0.010428272 0.030869495 0.62628865
-0.0069341352 0.049175262 0.62742621
-0.0050637941 -0.02088815 0.62803507
-0.0050637941 -0.017090291 0.62803507
-0.0031767518 -0.010803841 0.62864983
-0.0012761671 -0.001276195 0.62926859
-0.0050638076 0.010760605 0.62803543
0 0.014715508 0.62968403
-0.0012761671 0.028713763 0.62926853
-0.0031767448 0.045121856 0.62864953
-0.0012761671 0.051046669 0.62926853
0 0.056942612 0.62968397
0.0032216185 -0.025121808 0.63073289
0.0012830694 -0.019246042 0.63010174
0.0032216236 -0.014815442 0.63073301
0.0064855185 -0.014916703 0.63179588
0.0064855185 -0.014916703 0.63179588
0.0064855185 -0.0032427609 0.63179588
0.0032216273 0.00064415485 0.63073325
0.0051742694 0.025224552 0.63136899
0.0064855185 0.038913131 0.63179588
0.0064855185 0.038913131 0.63179588
0.0091296444 -0.026736826 0.63265669
0.013150837 -0.013150841 0.63396621
0.0091296444 -0.011085987 0.63265663
0.011132854 -0.005238533 0.63330925
0.0091296444 0.022824124 0.63265669
0.0091296444 0.024780482 0.63265663
0.013150837 0.028931856 0.63396621
0.013150837 0.04076764 0.63396621
0.0091296444 0.046952456 0.63265669
0.015187552 -0.0092440546 0.63462931
0.015187551 0.0072631687 0.63462925
0.015187551 0.01518663 0.63462925
0.018617585 0.025266707 0.635746
0.017239438 0.033152759 0.6352973
0.018617585 0.045214146 0.63574594
0.024208304 -0.040347159 0.63756609
0.020700378 -0.016693078 0.6364243
0.022798834 -0.0046938956 0.63710761
0.024208372 0.016811371 0.63756651
0.020700391 0.018696293 0.63642442
0.029206339 -0.027167767 0.63919365
0.031377729 -0.019099474 0.63990104
0.029206421 -0.012904748 0.63919413
0.027051629 -0.0087917596 0.63849258
0.027051629 -0.0087917596 0.63849258
0.025625994 0.0047205687 0.6380285
0.031377729 0.006821245 0.63990098
0.031377729 0.0088676363 0.63990098
0.029206421 0.023092687 0.63919413
0.025625922 0.024951547 0.63802803
0.027051551 0.031109244 0.63849217
0.032836299 -0.04309766 0.64037538
0.032836393 -0.030784115 0.64037585
0.035287239 -0.022912771 0.64117378
0.032836393 0.03078413 0.64037585
0.038756169 -0.044984832 0.64230311
0.041012965 -0.043097302 0.6430378
0.04328759 -0.039098471 0.64377886
0.04126478 -0.032917909 0.64312017
0.038756169 -0.024914682 0.64230311
0.041013084 -0.016682878 0.64303833
0.043287653 -0.0048873276 0.64377904
0.043287717 0.011171043 0.64377928
0.041013084 0.029195055 0.64303833
0.040257879 0.034705073 0.64279246
0.047126412 -0.047125362 0.64502859
0.047126412 -0.035168201 0.64502859
0.047126479 -0.016880751 0.64502883
0.046868809 -0.00093782943 0.64494514
0.049455442 0.0049455315 0.64578724
0.044815864 0.02520892 0.64427638
0.054709546 -0.048999391 0.64749753
0.054975212 -0.044978842 0.64758432
0.054709654 -0.039009206 0.64749783
0.052594736 -0.032694012 0.64680928
0.058987565 -0.054671407 0.64889055
0.057374865 -0.04876864 0.64836556
0.062242489 -0.044872493 0.64995027
0.05898774 -0.025177702 0.64889109
0.057375036 -0.018646896 0.64836609
0.057375036 -0.012909383 0.64836609
0.05898774 -0.002877444 0.64889109
0.065537371 -0.061168224 0.65102291
0.065537579 -0.037137955 0.65102351
0.067200243 -0.032869697 0.65156478
0.067200452 -0.023374051 0.65156531
0.063885085 -0.013067394 0.65048546
0.063885286 -0.0087116063 0.65048599
0.063885286 0.0087116361 0.65048599
0.063885286 0.0087116361 0.65048599
0.072250254 -0.042760342 0.65320885
0.068873398 -0.024911672 0.65210998
0.070556708 0.01102449 0.65265799
-0.033861957 0.018121114 0.6186583
-0.028843394 0.0057085976 0.62029266
-0.028843375 0.0099148974 0.62029254
-0.013969438 -0.013971675 0.62513542
-0.0069341543 0.0018913671 0.62742656
-0.0069341352 0.017967883 0.62742615
-0.0096607246 0.021989051 0.62653857
-0.016666992 0.029940303 0.62425721
-0.013969439 0.038033694 0.62513542
-0.0097116642 0.046062876 0.62652171
-0.0097116642 0.046062876 0.62652171
0.0015015628 -0.022143116 0.63017291
0.005829894 0.0019429959 0.63158244
0.005829894 0.0019429959 0.63158244
0.005829894 0.0061528645 0.63158238
-0.0022264593 0.0098704379 0.62895918
0.0015015628 0.042039823 0.63017291
0.0078039579 -0.017884061 0.63222504
0.017928511 -0.018259581 0.63552165
0.0078039579 -0.013982095 0.63222516
0.010131242 0.025812019 0.63298285
0.014169195 0.029980639 0.63429773
0.014169195 0.041841127 0.63429773
0.030291988 -0.033862397 0.63954711
0.02562869 0.0016859397 0.63802934
0.025628615 0.0381019 0.63802886
0.03800974 -0.03800872 0.6420601
0.03800974 -0.03800872 0.6420601
0.033938866 0.022109536 0.64073491
0.033938866 0.022109536 0.64073491
0.033938866 0.022109536 0.64073491
0.042150341 0.021944582 0.64340854
0.053784855 -0.050041713 0.64719641
0.050237771 -0.042099781 0.64604151
0.04597114 -0.025966816 0.64465249
0.050237916 -0.0060142726 0.64604199
0.05023792 0.025826015 0.64604199
0.058181126 -0.060694542 0.64862776
0.062245887 -0.04209768 0.64995158
0.066369064 -0.013857029 0.65129459
0.062246136 -0.0020502782 0.64995223
0.066369116 -0.0021879524 0.65129471
0.062246006 0.020746958 0.64995188
0.069714949 -0.034123067 0.65238369
0.069715053 -0.017978851 0.65238398
