# .PCD v0.7 - Point Cloud Data file format
VERSION 0.7
FIELDS x y z
SIZE 4 4 4
TYPE F F F
COUNT 1 1 1
WIDTH 1311
HEIGHT 1
VIEWPOINT 0 0 0 1 0 0 0
POINTS 1311
DATA ascii
-0.026003294 0.0045888126 0.65986127
-0.026003294 0.0030592084 0.65986133
-0.026003294 0.0015296042 0.65986127
-0.026003294 -0 0.65986133
-0.026003294 -0.0015295744 0.65986127
-0.026003294 -0.0030592084 0.65986127
-0.026003294 -0.0045888126 0.65986133
-0.026003294 -0.0061184168 0.65986127
-0.026003294 -0.0076479912 0.65986133
-0.026003294 -0.0091776252 0.65986127
-0.026003294 -0.010707229 0.65986133
-0.026003294 -0.012236863 0.65986127
-0.026003294 -0.013766468 0.65986127
-0.026003294 -0.015296072 0.65986133
-0.026003294 -0.016825646 0.65986127
-0.026003294 -0.01835528 0.65986133
-0.026003294 -0.019884884 0.65986133
-0.026003294 -0.021414459 0.65986127
-0.026003294 -0.022944123 0.65986133
-0.026003294 -0.024473667 0.65986127
-0.026003294 -0.026003301 0.65986127
-0.026003294 -0.027532876 0.65986133
-0.026003294 -0.02906251 0.65986133
-0.026003294 -0.030592084 0.65986127
-0.026003294 -0.032121718 0.65986127
-0.026003294 -0.033651352 0.65986133
-0.026003294 -0.035180956 0.65986133
-0.026003294 -0.036710531 0.65986127
-0.026003294 -0.038240135 0.65986127
-0.026003294 -0.039769739 0.65986127
-0.026003294 -0.041299343 0.65986133
-0.026003294 -0.042828947 0.65986127
-0.026003294 -0.044358552 0.65986127
-0.026003294 -0.045888186 0.65986133
-0.026003294 -0.04741776 0.65986127
-0.026003294 -0.048947394 0.65986133
-0.026003294 -0.050476968 0.65986127
-0.026003294 -0.052006602 0.65986133
-0.026003294 -0.053536177 0.65986127
-0.026003294 -0.055065811 0.65986127
-0.026003294 -0.056595415 0.65986133
-0.026003294 -0.058125019 0.65986127
-0.026003294 -0.059654623 0.65986133
-0.026003294 -0.061184198 0.65986127
-0.026003294 -0.062713832 0.65986127
-0.026003294 -0.064243451 0.65986133
-0.026003294 -0.06577304 0.65986127
-0.024587335 0.067615181 0.66071868
-0.024587335 0.066078484 0.66071868
-0.024587335 0.064541757 0.66071868
-0.024587335 0.06300503 0.66071868
-0.024587335 0.061468333 0.66071868
-0.024587335 0.059931636 0.66071868
-0.024587335 0.058394969 0.66071868
-0.024587335 0.056858212 0.66071868
-0.024587335 0.055321485 0.66071868
-0.024587335 0.053784817 0.66071868
-0.024587335 0.052248091 0.66071868
-0.024587335 0.050711393 0.66071868
-0.024587335 0.049174666 0.66071868
-0.024587335 0.047637969 0.66071868
-0.024587255 0.046101123 0.66071808
-0.024587255 0.044564426 0.66071808
-0.024587255 0.043027669 0.66071808
-0.024587255 0.041490972 0.66071808
-0.024587255 0.039954305 0.66071808
-0.024587255 0.038417608 0.66071808
-0.024587255 0.03688091 0.66071808
-0.024587255 0.035344183 0.66071808
-0.024587255 0.033807486 0.66071808
-0.024587255 0.032270759 0.66071808
-0.024587255 0.030734062 0.66071808
-0.024587255 0.029197395 0.66071808
-0.024587255 0.027660668 0.66071808
-0.024587255 0.026123941 0.66071808
-0.024587255 0.024587244 0.66071808
-0.024587255 0.023050576 0.66071808
-0.024587255 0.021513849 0.66071808
-0.024587255 0.019977152 0.66071808
-0.024587255 0.018440455 0.66071808
-0.024587255 0.016903758 0.66071808
-0.024587255 0.015367031 0.66071808
-0.024587255 0.013830364 0.66071808
-0.024587255 0.012293607 0.66071808
-0.024587255 0.01075691 0.66071808
-0.024587255 0.0092202127 0.66071808
-0.024587255 0.0076835155 0.66071808
-0.024587255 0.0061468184 0.66071808
-0.024587255 0.0046100914 0.66071808
-0.024587255 0.0030734241 0.66071808
-0.024587255 0.0015366971 0.66071802
-0.024587255 -0 0.66071808
-0.024587255 -0.001536727 0.66071808
-0.024587255 -0.0030733943 0.66071808
-0.024587255 -0.0046101213 0.66071808
-0.024587255 -0.0061468184 0.66071808
-0.024587255 -0.0076835155 0.66071808
-0.024587255 -0.0092202127 0.66071808
-0.024587255 -0.01075694 0.66071808
-0.024587255 -0.012293607 0.66071808
-0.024587255 -0.013830304 0.66071808
-0.024587255 -0.015367001 0.66071808
-0.024587255 -0.016903758 0.66071808
-0.024587255 -0.018440425 0.66071808
-0.024587255 -0.019977123 0.66071808
-0.024587255 -0.021513879 0.66071808
-0.024587255 -0.023050547 0.66071808
-0.024587255 -0.024587274 0.66071808
-0.024587255 -0.026123941 0.66071808
-0.024587255 -0.027660668 0.66071808
-0.024587255 -0.029197335 0.66071808
-0.024587255 -0.030734032 0.66071808
-0.024587255 -0.032270789 0.66071808
-0.024587255 -0.033807486 0.66071808
-0.024587255 -0.035344154 0.66071808
-0.024587255 -0.036880851 0.66071808
-0.024587255 -0.038417578 0.66071808
-0.024587255 -0.039954305 0.66071808
-0.024587255 -0.041490972 0.66071808
-0.024587255 -0.043027699 0.66071808
-0.024587255 -0.044564366 0.66071808
-0.024587255 -0.046101093 0.66071808
-0.024587255 -0.04763782 0.66071808
-0.024587255 -0.049174517 0.66071808
-0.024587255 -0.050711215 0.66071808
-0.024587255 -0.052247912 0.66071808
-0.024587255 -0.053784639 0.66071808
-0.024587255 -0.055321336 0.66071808
-0.024587255 -0.056858033 0.66071808
-0.024587255 -0.0583947 0.66071808
-0.024587255 -0.059931427 0.66071808
-0.024587255 -0.061468124 0.66071808
-0.024587255 -0.063004866 0.66071814
-0.024587255 -0.064541548 0.66071808
-0.024587255 -0.066078246 0.66071808
-0.02315809 0.0679304 0.66158348
-0.02315809 0.066386521 0.66158348
-0.02315809 0.064842671 0.66158354
-0.02315809 0.063298762 0.66158348
-0.02315809 0.061754942 0.66158348
-0.02315809 0.060211033 0.66158348
-0.02315809 0.058667183 0.66158348
-0.02315809 0.057123274 0.66158348
-0.02315809 0.055579424 0.66158348
-0.02315809 0.054035544 0.66158354
-0.02315809 0.052491695 0.66158348
-0.02315809 0.050947815 0.66158348
-0.02315809 0.049403906 0.66158348
-0.02315809 0.047860086 0.66158348
-0.023158014 0.046316057 0.66158289
-0.023158014 0.044772148 0.66158289
-0.023158014 0.043228328 0.66158289
-0.023158014 0.041684419 0.66158295
-0.023158014 0.040140569 0.66158289
-0.023158014 0.03859672 0.66158289
-0.023158014 0.03705278 0.66158289
-0.023158014 0.03550899 0.66158289
-0.023158014 0.033965111 0.66158289
-0.023158014 0.032421201 0.66158289
-0.023158014 0.030877352 0.66158289
-0.023158014 0.029333532 0.66158283
-0.023158014 0.027789623 0.66158289
-0.023158014 0.026245773 0.66158283
-0.023158014 0.024701864 0.66158289
-0.023158014 0.023158014 0.66158289
-0.023158014 0.021614164 0.66158295
-0.023158014 0.020070285 0.66158289
-0.023158014 0.018526405 0.66158289
-0.023158014 0.016982526 0.66158289
-0.023158014 0.015438676 0.66158289
-0.023158014 0.013894826 0.66158283
-0.023158014 0.012350947 0.66158289
-0.023158014 0.010807097 0.66158289
-0.023158014 0.0092632174 0.66158283
-0.023158014 0.0077193677 0.66158289
-0.023158014 0.0061754882 0.66158289
-0.023158014 0.0046315789 0.66158289
-0.023158014 0.003087759 0.66158289
-0.023158014 0.0015438795 0.66158289
-0.023158014 -0 0.66158289
-0.023158014 -0.0015438497 0.66158283
-0.023158014 -0.003087759 0.66158289
-0.023158014 -0.0046316087 0.66158289
-0.023158014 -0.0061754286 0.66158289
-0.023158014 -0.0077193379 0.66158289
-0.023158014 -0.0092632174 0.66158289
-0.023158014 -0.010807067 0.66158283
-0.023158014 -0.012350947 0.66158289
-0.023158014 -0.013894796 0.66158289
-0.023158014 -0.015438646 0.66158283
-0.023158014 -0.016982526 0.66158289
-0.023158014 -0.018526465 0.66158295
-0.023158014 -0.020070255 0.66158289
-0.023158014 -0.021614134 0.66158289
-0.023158014 -0.023158044 0.66158289
-0.023158014 -0.024701864 0.66158289
-0.023158014 -0.026245743 0.66158289
-0.023158014 -0.027789623 0.66158289
-0.023158014 -0.029333472 0.66158289
-0.023158014 -0.030877352 0.66158283
-0.023158014 -0.032421231 0.66158295
-0.023158014 -0.033965051 0.66158289
-0.023158014 -0.03550896 0.66158295
-0.023158014 -0.03705284 0.66158289
-0.023158014 -0.03859669 0.66158283
-0.023158014 -0.040140569 0.66158289
-0.023158014 -0.041684419 0.66158289
-0.023158014 -0.043228269 0.66158283
-0.023158014 -0.044772178 0.66158289
-0.023158014 -0.046316057 0.66158283
-0.023158014 -0.047859907 0.66158295
-0.023158014 -0.049403757 0.66158289
-0.023158014 -0.050947636 0.66158283
-0.023158014 -0.052491486 0.66158295
-0.023158014 -0.054035366 0.66158289
-0.023158014 -0.055579215 0.66158283
-0.023158014 -0.057123095 0.66158283
-0.023158014 -0.058667004 0.66158295
-0.023158014 -0.060210854 0.66158295
-0.023158014 -0.061754704 0.66158289
-0.023158014 -0.063298583 0.66158289
-0.023158014 -0.064842448 0.66158289
-0.023158014 -0.066386312 0.66158289
-0.021715457 0.0682486 0.66245639
-0.021715457 0.066697478 0.66245639
-0.021715457 0.065146387 0.66245639
-0.021715457 0.063595265 0.66245639
-0.021715457 0.062044173 0.66245639
-0.021715457 0.060493082 0.66245639
-0.021715457 0.05894199 0.66245639
-0.021715457 0.057390869 0.66245639
-0.021715457 0.055839717 0.66245639
-0.021715457 0.054288626 0.66245639
-0.021715457 0.052737534 0.66245639
-0.021715457 0.051186442 0.66245639
-0.021715457 0.049635351 0.66245639
-0.021715457 0.048084199 0.66245639
-0.021715386 0.046532989 0.66245574
-0.021715386 0.044981867 0.66245574
-0.021715386 0.043430775 0.6624558
-0.021715386 0.041879654 0.6624558
-0.021715386 0.040328562 0.6624558
-0.021715386 0.038777471 0.66245574
-0.021715386 0.037226379 0.66245574
-0.021715386 0.035675287 0.6624558
-0.021715386 0.034124166 0.6624558
-0.021715386 0.032573074 0.6624558
-0.021715386 0.031021982 0.6624558
-0.021715386 0.029470891 0.66245574
-0.021715386 0.027919799 0.6624558
-0.021715386 0.026368707 0.66245574
-0.021715386 0.024817586 0.6624558
-0.021715386 0.023266494 0.6624558
-0.021715386 0.021715373 0.6624558
-0.021715386 0.020164281 0.6624558
-0.021715386 0.018613189 0.66245574
-0.021715386 0.017062098 0.6624558
-0.021715386 0.015510976 0.6624558
-0.021715386 0.013959885 0.6624558
-0.021715386 0.012408793 0.6624558
-0.021715386 0.010857701 0.6624558
-0.021715386 0.0093065798 0.6624558
-0.021715386 0.007755518 0.66245574
-0.021715386 0.0062043965 0.6624558
-0.021715386 0.0046533048 0.6624558
-0.021715386 0.0031021833 0.6624558
-0.021715386 0.0015511215 0.6624558
-0.021715386 2.9802322e-08 0.66245574
-0.021715386 -0.0015510917 0.6624558
-0.021715386 -0.0031021535 0.66245574
-0.021715386 -0.0046533048 0.6624558
-0.021715386 -0.0062043965 0.6624558
-0.021715386 -0.007755518 0.66245574
-0.021715386 -0.0093065798 0.6624558
-0.021715386 -0.010857671 0.66245574
-0.021715386 -0.012408793 0.6624558
-0.021715386 -0.013959885 0.6624558
-0.021715386 -0.015511006 0.66245574
-0.021715386 -0.017062098 0.6624558
-0.021715386 -0.018613189 0.66245574
-0.021715386 -0.020164281 0.6624558
-0.021715386 -0.021715373 0.6624558
-0.021715386 -0.023266494 0.6624558
-0.021715386 -0.024817586 0.6624558
-0.021715386 -0.026368678 0.6624558
-0.021715386 -0.027919829 0.6624558
-0.021715386 -0.029470861 0.6624558
-0.021715386 -0.031021982 0.6624558
-0.021715386 -0.032573074 0.6624558
-0.021715386 -0.034124196 0.6624558
-0.021715386 -0.035675287 0.66245574
-0.021715386 -0.037226379 0.6624558
-0.021715386 -0.038777471 0.6624558
-0.021715386 -0.040328532 0.66245574
-0.021715386 -0.041879684 0.6624558
-0.021715386 -0.043430775 0.6624558
-0.021715386 -0.044981867 0.6624558
-0.021715386 -0.046532959 0.66245574
-0.021715386 -0.048084021 0.66245574
-0.021715386 -0.049635172 0.6624558
-0.021715386 -0.051186234 0.66245574
-0.021715386 -0.052737385 0.6624558
-0.021715386 -0.054288477 0.6624558
-0.021715386 -0.055839568 0.6624558
-0.021715386 -0.05739066 0.66245574
-0.021715386 -0.058941752 0.66245574
-0.021715386 -0.060492873 0.6624558
-0.021715386 -0.062043965 0.6624558
-0.021715386 -0.063595057 0.66245574
-0.021715386 -0.065146133 0.6624558
-0.020259244 0.06856975 0.66333753
-0.020259244 0.067011327 0.66333753
-0.020259244 0.065452963 0.66333747
-0.020259244 0.06389454 0.66333753
-0.020259244 0.062336147 0.66333753
-0.020259244 0.060777754 0.66333753
-0.020259244 0.059219301 0.66333753
-0.020259244 0.057660908 0.66333747
-0.020259244 0.056102544 0.66333753
-0.020259244 0.054544151 0.66333753
-0.020259244 0.052985728 0.66333753
-0.020259244 0.051427305 0.66333753
-0.020259244 0.049868912 0.66333747
-0.020259244 0.048310488 0.66333753
-0.020259177 0.046751976 0.66333693
-0.020259177 0.045193553 0.66333687
-0.020259177 0.04363513 0.66333687
-0.020259177 0.042076766 0.66333687
-0.020259177 0.040518343 0.66333687
-0.020259177 0.03895998 0.66333687
-0.020259177 0.037401557 0.66333687
-0.020259177 0.035843134 0.66333687
-0.020259177 0.03428477 0.66333687
-0.020259177 0.032726347 0.66333693
-0.020259177 0.031167984 0.66333687
-0.020259177 0.029609561 0.66333687
-0.020259177 0.028051168 0.66333687
-0.020259177 0.026492774 0.66333687
-0.020259177 0.024934411 0.66333687
-0.020259177 0.023375958 0.66333687
-0.020259177 0.021817565 0.66333687
-0.020259177 0.020259172 0.66333687
-0.020259177 0.018700808 0.66333687
-0.020259177 0.017142385 0.66333687
-0.020259177 0.015583962 0.66333687
-0.020259177 0.014025629 0.66333687
-0.020259177 0.012467176 0.66333687
-0.020259177 0.010908782 0.66333687
-0.020259177 0.0093503892 0.66333687
-0.020259177 0.0077919662 0.66333687
-0.020259177 0.0062336028 0.66333687
-0.020259177 0.0046752095 0.66333687
-0.020259177 0.0031168163 0.66333687
-0.020259177 0.0015583932 0.66333687
-0.020259177 -0 0.66333687
-0.020259177 -0.001558423 0.66333687
-0.020259177 -0.0031167567 0.66333687
-0.020259177 -0.0046752095 0.66333687
-0.020259177 -0.0062336028 0.66333693
-0.020259177 -0.0077919662 0.66333687
-0.020259177 -0.0093503892 0.66333687
-0.020259177 -0.010908782 0.66333687
-0.020259177 -0.012467235 0.66333687
-0.020259177 -0.014025569 0.66333687
-0.020259177 -0.015583992 0.66333687
-0.020259177 -0.017142385 0.66333687
-0.020259177 -0.018700778 0.66333687
-0.020259177 -0.020259142 0.66333687
-0.020259177 -0.021817595 0.66333687
-0.020259177 -0.023375958 0.66333687
-0.020259177 -0.024934381 0.66333687
-0.020259177 -0.026492774 0.66333693
-0.020259177 -0.028051168 0.66333687
-0.020259177 -0.029609561 0.66333687
-0.020259177 -0.031167954 0.66333687
-0.020259177 -0.032726347 0.66333687
-0.020259177 -0.03428477 0.66333687
-0.020259177 -0.035843164 0.66333687
-0.020259177 -0.037401557 0.66333687
-0.020259177 -0.03895998 0.66333687
-0.020259177 -0.040518373 0.66333693
-0.020259177 -0.042076766 0.66333687
-0.020259177 -0.04363513 0.66333687
-0.020259177 -0.045193553 0.66333687
-0.020259177 -0.046751976 0.66333693
-0.020259177 -0.048310339 0.66333687
-0.020259177 -0.049868762 0.66333687
-0.020259177 -0.051427156 0.66333687
-0.020259177 -0.052985519 0.66333687
-0.020259177 -0.054543942 0.66333687
-0.020259177 -0.056102335 0.66333687
-0.020259177 -0.057660729 0.66333687
-0.020259177 -0.059219122 0.66333693
-0.020259177 -0.060777545 0.66333693
-0.020259177 -0.062335968 0.66333687
-0.020259177 -0.063894331 0.66333687
-0.020259177 -0.065452695 0.66333687
-0.018789262 0.067328185 0.66422695
-0.018789262 0.065762401 0.66422695
-0.018789262 0.064196616 0.66422695
-0.018789262 0.062630892 0.66422695
-0.018789262 0.061065108 0.66422695
-0.018789262 0.059499294 0.66422695
-0.018789262 0.057933569 0.66422695
-0.018789262 0.056367785 0.66422695
-0.018789262 0.054802001 0.66422695
-0.018789262 0.053236216 0.66422695
-0.018789262 0.051670492 0.66422689
-0.018789262 0.050104707 0.66422695
-0.018789262 0.048538893 0.66422695
-0.0187892 0.04697299 0.66422635
-0.0187892 0.045407265 0.66422635
-0.0187892 0.043841451 0.66422635
-0.0187892 0.042275727 0.66422629
-0.0187892 0.040709943 0.66422635
-0.0187892 0.039144188 0.66422629
-0.0187892 0.037578404 0.66422635
-0.0187892 0.03601265 0.66422629
-0.0187892 0.034446865 0.66422629
-0.0187892 0.032881051 0.66422635
-0.0187892 0.031315356 0.66422629
-0.0187892 0.029749602 0.66422629
-0.0187892 0.028183788 0.66422635
-0.0187892 0.026618004 0.66422635
-0.0187892 0.025052279 0.66422629
-0.0187892 0.023486495 0.66422635
-0.0187892 0.021920741 0.66422629
-0.0187892 0.020354986 0.66422635
-0.0187892 0.018789232 0.66422629
-0.0187892 0.017223418 0.66422629
-0.0187892 0.015657634 0.66422635
-0.0187892 0.014091909 0.66422629
-0.0187892 0.012526125 0.66422629
-0.0187892 0.01096037 0.66422635
-0.0187892 0.0093946159 0.66422635
-0.0187892 0.0078288317 0.66422629
-0.0187892 0.0062630475 0.66422635
-0.0187892 0.004697293 0.66422629
-0.0187892 0.0031315386 0.66422635
-0.0187892 0.0015657842 0.66422629
-0.0187892 -0 0.66422635
-0.0187892 -0.0015657246 0.66422629
-0.0187892 -0.0031315386 0.66422635
-0.0187892 -0.004697293 0.66422629
-0.0187892 -0.0062630773 0.66422629
-0.0187892 -0.0078288317 0.66422635
-0.0187892 -0.0093945861 0.66422629
-0.0187892 -0.01096034 0.66422629
-0.0187892 -0.012526155 0.66422629
-0.0187892 -0.014091909 0.66422629
-0.0187892 -0.015657634 0.66422629
-0.0187892 -0.017223448 0.66422635
-0.0187892 -0.018789202 0.66422635
-0.0187892 -0.020354956 0.66422635
-0.0187892 -0.021920741 0.66422629
-0.0187892 -0.023486525 0.66422629
-0.0187892 -0.025052279 0.66422635
-0.0187892 -0.026618034 0.66422629
-0.0187892 -0.028183788 0.66422629
-0.0187892 -0.029749542 0.66422635
-0.0187892 -0.031315327 0.66422635
-0.0187892 -0.032881111 0.66422629
-0.0187892 -0.034446895 0.66422635
-0.0187892 -0.03601259 0.66422629
-0.0187892 -0.037578404 0.66422635
-0.0187892 -0.039144158 0.66422629
-0.0187892 -0.040709943 0.66422629
-0.0187892 -0.042275697 0.66422629
-0.0187892 -0.043841481 0.66422629
-0.0187892 -0.045407236 0.66422629
-0.0187892 -0.04697299 0.66422629
-0.0187892 -0.048538774 0.66422635
-0.0187892 -0.050104529 0.66422635
-0.0187892 -0.051670313 0.66422635
-0.0187892 -0.053236067 0.66422629
-0.0187892 -0.054801852 0.66422635
-0.0187892 -0.056367576 0.66422629
-0.0187892 -0.05793336 0.66422635
-0.0187892 -0.059499145 0.66422635
-0.0187892 -0.061064899 0.66422629
-0.0187892 -0.062630683 0.66422629
-0.0187892 -0.064196438 0.66422629
-0.0187892 -0.065762222 0.66422635
-0.017305315 0.067648053 0.66512489
-0.017305315 0.066074818 0.66512483
-0.017305315 0.064501613 0.66512483
-0.017305315 0.062928408 0.66512483
-0.017305315 0.061355203 0.66512477
-0.017305255 0.05978179 0.66512424
-0.017305255 0.058208585 0.66512424
-0.017305255 0.05663538 0.66512424
-0.017305255 0.055062175 0.66512424
-0.017305255 0.05348897 0.66512418
-0.017305255 0.051915765 0.66512418
-0.017305255 0.05034259 0.66512418
-0.017305255 0.048769385 0.66512418
-0.017305255 0.04719615 0.66512424
-0.017305255 0.045622975 0.66512424
-0.017305255 0.04404974 0.66512418
-0.017305255 0.042476535 0.66512424
-0.017305255 0.04090336 0.66512418
-0.017305255 0.039330095 0.66512424
-0.017305255 0.03775692 0.66512424
-0.017305255 0.036183715 0.66512424
-0.017305255 0.03461051 0.66512424
-0.017305255 0.033037305 0.66512418
-0.017305255 0.0314641 0.66512418
-0.017305255 0.029890925 0.66512418
-0.017305255 0.02831772 0.66512418
-0.017305255 0.026744455 0.66512424
-0.017305255 0.02517128 0.66512424
-0.017305255 0.023598075 0.66512424
-0.017305255 0.0220249 0.66512424
-0.017305255 0.020451695 0.66512424
-0.017305255 0.01887843 0.66512424
-0.017305255 0.017305255 0.66512424
-0.017305255 0.01573205 0.66512424
-0.017305255 0.014158845 0.66512424
-0.017305255 0.01258564 0.66512424
-0.017305255 0.011012405 0.66512418
-0.017305255 0.00943923 0.66512418
-0.017305255 0.007866025 0.66512418
-0.017305255 0.00629282 0.66512424
-0.017305255 0.004719615 0.66512424
-0.017305255 0.00314641 0.66512424
-0.017305255 0.0015732348 0.66512424
-0.017305255 -0 0.66512424
-0.017305255 -0.001573205 0.6651243
-0.017305255 -0.00314641 0.66512424
-0.017305255 -0.0047196448 0.66512424
-0.017305255 -0.00629282 0.66512424
-0.017305255 -0.0078660548 0.66512424
-0.017305255 -0.00943923 0.66512424
-0.017305255 -0.011012435 0.66512418
-0.017305255 -0.01258564 0.66512418
-0.017305255 -0.014158815 0.66512418
-0.017305255 -0.01573205 0.66512424
-0.017305255 -0.017305225 0.66512424
-0.017305255 -0.01887843 0.66512424
-0.017305255 -0.020451665 0.66512418
-0.017305255 -0.02202487 0.66512424
-0.017305255 -0.023598075 0.66512418
-0.017305255 -0.02517128 0.66512424
-0.017305255 -0.026744515 0.66512424
-0.017305255 -0.02831772 0.66512418
-0.017305255 -0.029890895 0.66512424
-0.017305255 -0.0314641 0.66512418
-0.017305255 -0.033037275 0.66512418
-0.017305255 -0.03461048 0.66512424
-0.017305255 -0.036183715 0.66512424
-0.017305255 -0.03775692 0.66512424
-0.017305255 -0.039330155 0.66512424
-0.017305255 -0.04090333 0.66512418
-0.017305255 -0.042476535 0.66512418
-0.017305255 -0.04404977 0.6651243
-0.017305255 -0.045622945 0.66512424
-0.017305255 -0.04719618 0.66512424
-0.017305255 -0.048769355 0.66512424
-0.017305255 -0.05034256 0.66512418
-0.017305255 -0.051915765 0.66512424
-0.017305255 -0.05348897 0.66512424
-0.017305255 -0.055062175 0.66512418
-0.017305255 -0.05663538 0.66512424
-0.017305255 -0.058208585 0.66512418
-0.017305255 -0.05978182 0.66512424
-0.017305255 -0.061354995 0.66512424
-0.017305255 -0.0629282 0.66512418
-0.017305255 -0.064501375 0.66512424
-0.017305255 -0.06607458 0.66512418
-0.015807198 0.067970961 0.6660313
-0.015807198 0.066390216 0.6660313
-0.015807198 0.064809531 0.6660313
-0.015807198 0.063228786 0.66603136
-0.015807198 0.061648071 0.6660313
-0.015807198 0.060067356 0.66603136
-0.015807198 0.058486611 0.6660313
-0.015807198 0.056905895 0.66603136
-0.015807198 0.05532518 0.66603136
-0.015807198 0.053744495 0.6660313
-0.015807198 0.05216372 0.66603136
-0.015807198 0.050583065 0.6660313
-0.015807198 0.04900232 0.66603136
-0.015807144 0.047421455 0.6660307
-0.015807144 0.04584071 0.6660307
-0.015807144 0.044260025 0.66603065
-0.015807144 0.04267931 0.66603076
-0.015807144 0.041098565 0.66603065
-0.015807144 0.039517879 0.66603065
-0.015807144 0.037937135 0.6660307
-0.015807144 0.036356479 0.66603065
-0.015807144 0.034775674 0.6660307
-0.015807144 0.033194989 0.66603065
-0.015807144 0.031614304 0.6660307
-0.015807144 0.030033618 0.66603065
-0.015807144 0.028452873 0.6660307
-0.015807144 0.026872158 0.66603065
-0.015807144 0.025291413 0.6660307
-0.015807144 0.023710728 0.66603065
-0.015807144 0.022130013 0.66603065
-0.015807144 0.020549297 0.6660307
-0.015807144 0.018968582 0.66603065
-0.015807144 0.017387867 0.6660307
-0.015807144 0.015807152 0.6660307
-0.015807144 0.014226437 0.66603065
-0.015807144 0.012645721 0.6660307
-0.015807144 0.011065006 0.66603065
-0.015807144 0.0094842911 0.6660307
-0.015807144 0.0079035759 0.66603065
-0.015807144 0.0063228607 0.66603065
-0.015807144 0.0047421753 0.6660307
-0.015807144 0.0031614304 0.6660307
-0.015807144 0.0015806854 0.6660307
-0.015807144 -0 0.6660307
-0.015807144 -0.0015806854 0.6660307
-0.015807144 -0.0031614006 0.66603065
-0.015807144 -0.0047421455 0.6660307
-0.015807144 -0.0063228309 0.66603065
-0.015807144 -0.0079035759 0.6660307
-0.015807144 -0.0094842911 0.66603065
-0.015807144 -0.011064976 0.66603065
-0.015807144 -0.012645721 0.6660307
-0.015807144 -0.014226407 0.66603065
-0.015807144 -0.015807152 0.6660307
-0.015807144 -0.017387867 0.66603065
-0.015807144 -0.018968552 0.66603065
-0.015807144 -0.020549327 0.6660307
-0.015807144 -0.022129983 0.6660307
-0.015807144 -0.023710757 0.6660307
-0.015807144 -0.025291413 0.66603065
-0.015807144 -0.026872158 0.66603065
-0.015807144 -0.028452873 0.6660307
-0.015807144 -0.030033588 0.6660307
-0.015807144 -0.031614304 0.6660307
-0.015807144 -0.033194989 0.6660307
-0.015807144 -0.034775704 0.66603065
-0.015807144 -0.036356419 0.66603065
-0.015807144 -0.037937135 0.6660307
-0.015807144 -0.03951785 0.66603065
-0.015807144 -0.041098565 0.66603065
-0.015807144 -0.04267931 0.66603065
-0.015807144 -0.044259995 0.66603065
-0.015807144 -0.04584074 0.66603065
-0.015807144 -0.047421426 0.66603065
-0.015807144 -0.049002171 0.6660307
-0.015807144 -0.050582856 0.6660307
-0.015807144 -0.052163571 0.66603065
-0.015807144 -0.053744286 0.6660307
-0.015807144 -0.055325031 0.66603065
-0.015807144 -0.056905717 0.66603065
-0.015807144 -0.058486432 0.6660307
-0.015807144 -0.060067117 0.66603065
-0.015807144 -0.061647892 0.6660307
-0.015807144 -0.063228577 0.66603065
-0.015807144 -0.064809322 0.6660307
-0.015807144 -0.066390008 0.6660307
-0.014294712 0.068296939 0.66694647
-0.014294712 0.066708684 0.66694653
-0.014294712 0.065120339 0.66694647
-0.014294712 0.063532025 0.66694653
-0.014294712 0.06194374 0.66694647
-0.014294663 0.060355246 0.66694587
-0.014294663 0.058766961 0.66694582
-0.014294663 0.057178646 0.66694587
-0.014294663 0.055590332 0.66694587
-0.014294663 0.054002047 0.66694587
-0.014294663 0.052413791 0.66694582
-0.014294663 0.050825477 0.66694582
-0.014294663 0.049237162 0.66694587
-0.014294663 0.047648847 0.66694582
-0.014294663 0.046060592 0.66694582
-0.014294663 0.044472277 0.66694587
-0.014294663 0.042883962 0.66694587
-0.014294663 0.041295737 0.66694582
-0.014294663 0.039707422 0.66694582
-0.014294663 0.038119137 0.66694582
-0.014294663 0.036530793 0.66694587
-0.014294663 0.034942538 0.66694582
-0.014294663 0.033354223 0.66694582
-0.014294663 0.031765908 0.66694587
-0.014294663 0.030177623 0.66694582
-0.014294663 0.028589338 0.66694582
-0.014294663 0.027001053 0.66694582
-0.014294663 0.025412738 0.66694582
-0.014294663 0.023824424 0.66694582
-0.014294663 0.022236139 0.66694582
-0.014294663 0.020647854 0.66694582
-0.014294663 0.019059539 0.66694587
-0.014294663 0.017471254 0.66694587
-0.014294663 0.015882969 0.66694587
-0.014294663 0.014294654 0.66694582
-0.014294663 0.012706369 0.66694582
-0.014294663 0.011118084 0.66694587
-0.014294663 0.0095297992 0.66694582
-0.014294663 0.0079414845 0.66694582
-0.014294663 0.0063531995 0.66694587
-0.014294663 0.0047648847 0.66694587
-0.014294663 0.0031765997 0.66694582
-0.014294663 0.0015882552 0.66694587
-0.014294663 2.9802322e-08 0.66694582
-0.014294663 -0.001588285 0.66694587
-0.014294663 -0.0031765997 0.66694582
-0.014294663 -0.0047648847 0.66694582
-0.014294663 -0.0063531995 0.66694587
-0.014294663 -0.0079414845 0.66694582
-0.014294663 -0.0095297992 0.66694582
-0.014294663 -0.011118084 0.66694587
-0.014294663 -0.012706339 0.66694582
-0.014294663 -0.014294684 0.66694582
-0.014294663 -0.015882969 0.66694582
-0.014294663 -0.017471254 0.66694582
-0.014294663 -0.019059539 0.66694587
-0.014294663 -0.020647854 0.66694582
-0.014294663 -0.022236139 0.66694582
-0.014294663 -0.023824424 0.66694582
-0.014294663 -0.025412709 0.66694587
-0.014294663 -0.027001053 0.66694582
-0.014294663 -0.028589308 0.66694587
-0.014294663 -0.030177593 0.66694582
-0.014294663 -0.031765908 0.66694587
-0.014294663 -0.033354223 0.66694587
-0.014294663 -0.034942508 0.66694582
-0.014294663 -0.036530823 0.66694587
-0.014294663 -0.038119137 0.66694587
-0.014294663 -0.039707422 0.66694582
-0.014294663 -0.041295707 0.66694582
-0.014294663 -0.042883962 0.66694582
-0.014294663 -0.044472307 0.66694582
-0.014294663 -0.046060592 0.66694582
-0.014294663 -0.047648877 0.66694582
-0.014294663 -0.049237132 0.66694582
-0.014294663 -0.050825477 0.66694582
-0.014294663 -0.052413762 0.66694582
-0.014294663 -0.054002047 0.66694582
-0.014294663 -0.055590332 0.66694582
-0.014294663 -0.057178646 0.66694582
-0.014294663 -0.058766931 0.66694582
-0.014294663 -0.060355216 0.66694582
-0.014294663 -0.061943561 0.66694582
-0.014294663 -0.063531846 0.66694582
-0.014294663 -0.065120131 0.66694582
-0.012767646 0.067030162 0.66787046
-0.012767646 0.065434188 0.66787046
-0.012767646 0.063838243 0.66787046
-0.012767646 0.06224224 0.66787052
-0.012767604 0.060646117 0.66786981
-0.012767604 0.059050143 0.66786981
-0.012767604 0.057454199 0.66786987
-0.012767604 0.055858284 0.66786981
-0.012767604 0.05426231 0.66786981
-0.012767604 0.052666366 0.66786981
-0.012767604 0.051070422 0.66786987
-0.012767604 0.049474448 0.66786987
-0.012767604 0.047878534 0.66786981
-0.012767604 0.04628256 0.66786981
-0.012767604 0.044686615 0.66786981
-0.012767604 0.043090701 0.66786981
-0.012767604 0.041494727 0.66786981
-0.012767604 0.039898783 0.66786981
-0.012767604 0.038302779 0.66786981
-0.012767604 0.036706865 0.66786987
-0.012767604 0.03511095 0.66786981
-0.012767604 0.033514947 0.66786981
-0.012767604 0.031919003 0.66786981
-0.012767604 0.030323058 0.66786987
-0.012767604 0.028727114 0.66786981
-0.012767604 0.02713117 0.66786981
-0.012767604 0.025535226 0.66786987
-0.012767604 0.023939252 0.66786981
-0.012767604 0.022343338 0.66786981
-0.012767604 0.020747364 0.66786981
-0.012767604 0.01915139 0.66786981
-0.012767604 0.017555445 0.66786981
-0.012767604 0.015959471 0.66786981
-0.012767604 0.014363557 0.66786981
-0.012767604 0.012767613 0.66786981
-0.012767604 0.011171639 0.66786981
-0.012767604 0.0095756948 0.66786987
-0.012767604 0.0079797208 0.66786987
-0.012767604 0.0063838065 0.66786981
-0.012767604 0.0047878623 0.66786981
-0.012767604 0.0031918883 0.66786987
-0.012767604 0.001595974 0.66786981
-0.012767604 -0 0.66786981
-0.012767604 -0.0015959442 0.66786981
-0.012767604 -0.0031919479 0.66786981
-0.012767604 -0.0047878623 0.66786981
-0.012767604 -0.0063837767 0.66786981
-0.012767604 -0.0079797804 0.66786981
-0.012767604 -0.0095756948 0.66786981
-0.012767604 -0.011171639 0.66786981
-0.012767604 -0.012767583 0.66786981
-0.012767604 -0.014363557 0.66786981
-0.012767604 -0.015959501 0.66786981
-0.012767604 -0.017555445 0.66786987
-0.012767604 -0.01915139 0.66786981
-0.012767604 -0.020747334 0.66786981
-0.012767604 -0.022343308 0.66786981
-0.012767604 -0.023939252 0.66786987
-0.012767604 -0.025535196 0.66786981
-0.012767604 -0.02713114 0.66786981
-0.012767604 -0.028727084 0.66786981
-0.012767604 -0.030323088 0.66786981
-0.012767604 -0.031919003 0.66786987
-0.012767604 -0.033515006 0.66786981
-0.012767604 -0.035110891 0.66786981
-0.012767604 -0.036706835 0.66786981
-0.012767604 -0.038302839 0.66786981
-0.012767604 -0.039898723 0.66786981
-0.012767604 -0.041494697 0.66786987
-0.012767604 -0.043090671 0.66786981
-0.012767604 -0.044686615 0.66786987
-0.012767604 -0.046282589 0.66786981
-0.012767604 -0.047878504 0.66786981
-0.012767604 -0.049474448 0.66786987
-0.012767604 -0.051070422 0.66786981
-0.012767604 -0.052666396 0.66786987
-0.012767604 -0.05426231 0.66786981
-0.012767604 -0.055858254 0.66786981
-0.012767604 -0.057454228 0.66786981
-0.012767604 -0.059050173 0.66786987
-0.012767604 -0.060646117 0.66786981
-0.012767604 -0.062242031 0.66786981
-0.012767604 -0.063838035 0.66786987
-0.012767604 -0.065433979 0.66786981
-0.011225793 0.067354739 0.66880345
-0.011225793 0.065751106 0.66880339
-0.011225793 0.064147383 0.66880345
-0.011225793 0.06254372 0.66880339
-0.011225753 0.060939789 0.66880274
-0.011225753 0.059336096 0.66880274
-0.011225753 0.057732463 0.66880274
-0.011225753 0.05612877 0.66880274
-0.011225753 0.054525077 0.6688028
-0.011225753 0.052921414 0.6688028
-0.011225753 0.051317722 0.66880274
-0.011225753 0.049714059 0.66880274
-0.011225753 0.048110366 0.66880274
-0.011225753 0.046506703 0.66880274
-0.011225753 0.04490301 0.66880274
-0.011225753 0.043299347 0.66880274
-0.011225753 0.041695654 0.66880274
-0.011225753 0.040091962 0.66880274
-0.011225753 0.038488269 0.66880274
-0.011225753 0.036884606 0.66880274
-0.011225753 0.035280943 0.66880274
-0.011225753 0.03367725 0.66880274
-0.011225753 0.032073587 0.66880274
-0.011225753 0.030469894 0.66880274
-0.011225753 0.028866202 0.66880274
-0.011225753 0.027262539 0.66880274
-0.011225753 0.025658876 0.66880274
-0.011225753 0.024055153 0.66880274
-0.011225753 0.02245152 0.66880274
-0.011225753 0.020847797 0.66880274
-0.011225753 0.019244164 0.66880274
-0.011225753 0.017640471 0.66880274
-0.011225753 0.016036779 0.66880274
-0.011225753 0.014433116 0.66880274
-0.011225753 0.012829423 0.66880274
-0.011225753 0.01122579 0.66880274
-0.011225753 0.009622097 0.66880274
-0.011225753 0.0080184042 0.66880274
-0.011225753 0.0064147115 0.6688028
-0.011225753 0.0048110485 0.6688028
-0.011225753 0.0032073557 0.66880274
-0.011225753 0.001603663 0.66880274
-0.011225753 -0 0.66880274
-0.011225753 -0.001603663 0.66880274
-0.011225753 -0.0032073855 0.6688028
-0.011225753 -0.0048110187 0.66880274
-0.011225753 -0.0064147413 0.6688028
-0.011225753 -0.0080184042 0.66880274
-0.011225753 -0.0096220374 0.66880274
-0.011225753 -0.01122573 0.66880274
-0.011225753 -0.012829423 0.66880274
-0.011225753 -0.014433116 0.66880274
-0.011225753 -0.016036779 0.66880274
-0.011225753 -0.017640471 0.66880274
-0.011225753 -0.019244164 0.6688028
-0.011225753 -0.020847827 0.66880274
-0.011225753 -0.02245152 0.66880274
-0.011225753 -0.024055213 0.66880274
-0.011225753 -0.025658846 0.66880274
-0.011225753 -0.027262568 0.66880274
-0.011225753 -0.028866231 0.66880274
-0.011225753 -0.030469924 0.6688028
-0.011225753 -0.032073557 0.66880274
-0.011225753 -0.03367725 0.66880274
-0.011225753 -0.035280943 0.66880274
-0.011225753 -0.036884606 0.66880274
-0.011225753 -0.038488299 0.66880274
-0.011225753 -0.040091962 0.6688028
-0.011225753 -0.041695625 0.66880274
-0.011225753 -0.043299347 0.66880274
-0.011225753 -0.04490301 0.66880274
-0.011225753 -0.046506703 0.6688028
-0.011225753 -0.048110366 0.66880274
-0.011225753 -0.049714088 0.6688028
-0.011225753 -0.051317751 0.6688028
-0.011225753 -0.052921385 0.66880274
-0.011225753 -0.054525107 0.6688028
-0.011225753 -0.05612874 0.66880274
-0.011225753 -0.057732403 0.66880274
-0.011225753 -0.059336096 0.66880274
-0.011225753 -0.060939789 0.66880274
-0.011225753 -0.062543452 0.66880274
-0.011225753 -0.064147145 0.66880274
-0.011225753 -0.065750837 0.66880274
-0.0096689304 0.067682505 0.66974545
-0.0096689304 0.066071033 0.66974539
-0.0096689304 0.064459562 0.66974545
-0.0096689304 0.062848061 0.66974545
-0.0096688969 0.061236352 0.66974473
-0.0096688969 0.05962491 0.66974479
-0.0096688969 0.05801338 0.66974479
-0.0096688969 0.056401908 0.66974479
-0.0096688969 0.054790407 0.66974485
-0.0096688969 0.053178936 0.66974473
-0.0096688969 0.051567465 0.66974479
-0.0096688969 0.049955964 0.66974479
-0.0096688969 0.048344493 0.66974473
-0.0096688969 0.046733022 0.66974473
-0.0096688969 0.045121521 0.66974473
-0.0096688969 0.04351002 0.66974479
-0.0096688969 0.041898549 0.66974479
-0.0096688969 0.040287077 0.66974473
-0.0096688969 0.038675606 0.66974479
-0.0096688969 0.037064105 0.66974473
-0.0096688969 0.035452604 0.66974473
-0.0096688969 0.033841163 0.66974473
-0.0096688969 0.032229662 0.66974473
-0.0096688969 0.030618161 0.66974479
-0.0096688969 0.02900672 0.66974479
-0.0096688969 0.027395159 0.66974479
-0.0096688969 0.025783747 0.66974473
-0.0096688969 0.024172217 0.66974473
-0.0096688969 0.022560775 0.66974479
-0.0096688969 0.020949274 0.66974473
-0.0096688969 0.019337803 0.66974473
-0.0096688969 0.017726302 0.66974473
-0.0096688969 0.016114831 0.66974479
-0.0096688969 0.01450333 0.66974479
-0.0096688969 0.012891859 0.66974473
-0.0096688969 0.011280417 0.66974473
-0.0096688969 0.0096688867 0.66974473
-0.0096688969 0.0080574155 0.66974479
-0.0096688969 0.0064459741 0.66974473
-0.0096688969 0.0048344433 0.66974473
-0.0096688969 0.0032229722 0.66974479
-0.0096688969 0.001611501 0.66974479
-0.0096688969 -2.9802322e-08 0.66974479
-0.0096688969 -0.0016114712 0.66974473
-0.0096688969 -0.0032229722 0.66974473
-0.0096688969 -0.0048344433 0.66974479
-0.0096688969 -0.0064459145 0.66974473
-0.0096688969 -0.0080573857 0.66974473
-0.0096688969 -0.0096689165 0.66974473
-0.0096688969 -0.011280358 0.66974479
-0.0096688969 -0.012891889 0.66974479
-0.0096688969 -0.01450336 0.66974479
-0.0096688969 -0.016114801 0.66974473
-0.0096688969 -0.017726302 0.66974479
-0.0096688969 -0.019337773 0.66974479
-0.0096688969 -0.020949274 0.66974473
-0.0096688969 -0.022560745 0.66974473
-0.0096688969 -0.024172246 0.66974473
-0.0096688969 -0.025783718 0.66974479
-0.0096688969 -0.027395219 0.66974479
-0.0096688969 -0.02900672 0.66974479
-0.0096688969 -0.030618191 0.66974473
-0.0096688969 -0.032229662 0.66974479
-0.0096688969 -0.033841163 0.66974473
-0.0096688969 -0.035452604 0.66974473
-0.0096688969 -0.037064105 0.66974479
-0.0096688969 -0.038675576 0.66974479
-0.0096688969 -0.040287107 0.66974479
-0.0096688969 -0.041898549 0.66974479
-0.0096688969 -0.043510079 0.66974479
-0.0096688969 -0.045121521 0.66974479
-0.0096688969 -0.046732992 0.66974479
-0.0096688969 -0.048344463 0.66974473
-0.0096688969 -0.049955934 0.66974473
-0.0096688969 -0.051567465 0.66974473
-0.0096688969 -0.053178936 0.66974473
-0.0096688969 -0.054790437 0.66974479
-0.0096688969 -0.056401879 0.66974473
-0.0096688969 -0.058013409 0.66974479
-0.0096688969 -0.059624851 0.66974473
-0.0096688969 -0.061236352 0.66974473
-0.0096688969 -0.062847823 0.66974473
-0.0096688969 -0.064459294 0.66974479
-0.0096688969 -0.066070795 0.66974479
-0.008096843 0.068013459 0.67069668
-0.008096843 0.06639412 0.67069668
-0.008096843 0.064774722 0.67069668
-0.008096843 0.063155383 0.67069668
-0.008096816 0.061535805 0.67069596
-0.008096816 0.059916437 0.67069602
-0.008096816 0.058297068 0.67069602
-0.008096816 0.056677699 0.67069596
-0.008096816 0.05505833 0.67069602
-0.008096816 0.053438962 0.67069602
-0.008096816 0.051819623 0.67069596
-0.008096816 0.050200254 0.67069602
-0.008096816 0.048580885 0.67069602
-0.008096816 0.046961516 0.67069596
-0.008096816 0.045342177 0.67069602
-0.008096816 0.043722808 0.67069596
-0.008096816 0.04210344 0.67069602
-0.008096816 0.040484101 0.67069602
-0.008096816 0.038864732 0.67069596
-0.008096816 0.037245333 0.67069602
-0.008096816 0.035625994 0.67069602
-0.008096816 0.034006655 0.67069602
-0.008096816 0.032387257 0.67069602
-0.008096816 0.030767918 0.67069602
-0.008096816 0.029148519 0.67069602
-0.008096816 0.02752915 0.67069596
-0.008096816 0.025909781 0.67069602
-0.008096816 0.024290442 0.67069602
-0.008096816 0.022671074 0.67069596
-0.008096816 0.021051735 0.67069596
-0.008096816 0.019432336 0.67069602
-0.008096816 0.017812997 0.67069602
-0.008096816 0.016193628 0.67069602
-0.008096816 0.01457426 0.67069602
-0.008096816 0.012954891 0.67069602
-0.008096816 0.011335552 0.67069602
-0.008096816 0.0097162127 0.67069596
-0.008096816 0.0080968142 0.67069602
-0.008096816 0.0064774752 0.67069602
-0.008096816 0.0048581064 0.67069602
-0.008096816 0.0032387376 0.67069596
-0.008096816 0.0016193688 0.67069602
-0.008096816 -0 0.67069602
-0.008096816 -0.001619339 0.67069596
-0.008096816 -0.0032387674 0.67069602
-0.008096816 -0.0048581064 0.67069602
-0.008096816 -0.0064774752 0.67069596
-0.008096816 -0.0080968142 0.67069596
-0.008096816 -0.0097161829 0.67069602
-0.008096816 -0.011335552 0.67069602
-0.008096816 -0.012954891 0.67069602
-0.008096816 -0.01457426 0.67069596
-0.008096816 -0.016193658 0.67069602
-0.008096816 -0.017812997 0.67069596
-0.008096816 -0.019432336 0.67069596
-0.008096816 -0.021051735 0.67069602
-0.008096816 -0.022671074 0.67069602
-0.008096816 -0.024290442 0.67069602
-0.008096816 -0.025909811 0.67069596
-0.008096816 -0.02752915 0.67069602
-0.008096816 -0.029148519 0.67069602
-0.008096816 -0.030767888 0.67069596
-0.008096816 -0.032387227 0.67069596
-0.008096816 -0.034006625 0.67069602
-0.008096816 -0.035625994 0.67069602
-0.008096816 -0.037245333 0.67069596
-0.008096816 -0.038864732 0.67069602
-0.008096816 -0.040484101 0.67069602
-0.008096816 -0.04210344 0.67069602
-0.008096816 -0.043722838 0.67069602
-0.008096816 -0.045342207 0.67069596
-0.008096816 -0.046961516 0.67069602
-0.008096816 -0.048580885 0.67069596
-0.008096816 -0.050200254 0.67069602
-0.008096816 -0.051819623 0.67069602
-0.008096816 -0.053438991 0.67069596
-0.008096816 -0.05505836 0.67069596
-0.008096816 -0.056677699 0.67069602
-0.008096816 -0.058297068 0.67069602
-0.008096816 -0.059916407 0.67069602
-0.008096816 -0.061535805 0.67069602
-0.008096816 -0.063155174 0.67069602
-0.008096816 -0.064774543 0.67069596
-0.0065092831 0.068347484 0.67165655
-0.0065092831 0.066720128 0.67165655
-0.0065092831 0.065092862 0.67165655
-0.0065092831 0.063465506 0.67165661
-0.0065092831 0.06183821 0.67165655
-0.0065092831 0.060210884 0.67165661
-0.0065092831 0.058583558 0.67165655
-0.0065092831 0.056956261 0.67165655
-0.0065092831 0.055328906 0.67165655
-0.0065092831 0.05370158 0.67165661
-0.0065092831 0.052074254 0.67165655
-0.0065092831 0.050446957 0.67165655
-0.0065092831 0.048819631 0.67165661
-0.0065092831 0.047192305 0.67165649
-0.0065092831 0.045565009 0.67165661
-0.0065092831 0.043937683 0.67165655
-0.0065092831 0.042310327 0.67165655
-0.0065092831 0.040683061 0.67165655
-0.0065092831 0.039055675 0.67165655
-0.0065092831 0.037428379 0.67165655
-0.0065092831 0.035801053 0.67165661
-0.0065092831 0.034173727 0.67165655
-0.0065092831 0.032546431 0.67165655
-0.0065092831 0.030919105 0.67165655
-0.0065092831 0.029291749 0.67165661
-0.0065092831 0.027664453 0.67165655
-0.0065092831 0.026037157 0.67165655
-0.0065092831 0.024409831 0.67165655
-0.0065092831 0.022782505 0.67165655
-0.0065092831 0.021155179 0.67165661
-0.0065092831 0.019527853 0.67165655
-0.0065092831 0.017900497 0.67165661
-0.0065092831 0.01627323 0.67165661
-0.0065092831 0.014645875 0.67165661
-0.0065092831 0.013018548 0.67165655
-0.0065092831 0.011391222 0.67165655
-0.0065092831 0.0097639263 0.67165655
-0.0065092831 0.0081366301 0.67165655
-0.0065092831 0.006509304 0.67165655
-0.0065092831 0.0048819482 0.67165661
-0.0065092831 0.0032546222 0.67165661
-0.0065092831 0.001627326 0.67165649
-0.0065092831 -0 0.67165661
-0.0065092831 -0.001627326 0.67165655
-0.0065092831 -0.003254652 0.67165655
-0.0065092831 -0.0048819482 0.67165655
-0.0065092831 -0.0065093338 0.67165655
-0.0065092831 -0.0081366003 0.67165655
-0.0065092831 -0.0097639263 0.67165661
-0.0065092831 -0.011391222 0.67165655
-0.0065092831 -0.013018578 0.67165661
-0.0065092831 -0.014645904 0.67165655
-0.0065092831 -0.016273171 0.67165655
-0.0065092831 -0.017900527 0.67165655
-0.0065092831 -0.019527882 0.67165661
-0.0065092831 -0.021155149 0.67165655
-0.0065092831 -0.022782505 0.67165655
-0.0065092831 -0.024409831 0.67165661
-0.0065092831 -0.026037127 0.67165655
-0.0065092831 -0.027664423 0.67165649
-0.0065092831 -0.029291749 0.67165661
-0.0065092831 -0.030919075 0.67165661
-0.0065092831 -0.032546401 0.67165655
-0.0065092831 -0.034173757 0.67165655
-0.0065092831 -0.035801053 0.67165661
-0.0065092831 -0.037428379 0.67165661
-0.0065092831 -0.039055705 0.67165655
-0.0065092831 -0.040683001 0.67165655
-0.0065092831 -0.042310357 0.67165661
-0.0065092831 -0.043937683 0.67165649
-0.0065092831 -0.045564979 0.67165655
-0.0065092831 -0.047192276 0.67165655
-0.0065092831 -0.048819631 0.67165655
-0.0065092831 -0.050446928 0.67165649
-0.0065092831 -0.052074224 0.67165655
-0.0065092831 -0.05370158 0.67165655
-0.0065092831 -0.055328906 0.67165655
-0.0065092831 -0.056956232 0.67165655
-0.0065092831 -0.058583587 0.67165661
-0.0065092831 -0.060210854 0.67165655
-0.0065092831 -0.06183821 0.67165661
-0.0065092831 -0.063465536 0.67165655
-0.0065092831 -0.065092802 0.67165649
-0.0049060709 0.067049623 0.67262661
-0.0049060709 0.06541428 0.67262661
-0.0049060709 0.063778937 0.67262655
-0.0049060709 0.062143534 0.67262661
-0.0049060709 0.060508221 0.67262661
-0.0049060709 0.058872849 0.67262661
-0.0049060709 0.057237476 0.67262661
-0.0049060709 0.055602163 0.67262661
-0.0049060709 0.05396679 0.67262661
-0.0049060709 0.052331448 0.67262661
-0.0049060709 0.050696105 0.67262661
-0.0049060709 0.049060702 0.67262661
-0.0049060709 0.047425359 0.67262661
-0.0049060709 0.045790017 0.67262661
-0.0049060709 0.044154614 0.67262661
-0.0049060709 0.042519271 0.67262661
-0.0049060709 0.040883899 0.67262667
-0.0049060709 0.039248556 0.67262661
-0.0049060709 0.037613213 0.67262661
-0.0049060709 0.03597787 0.67262661
-0.0049060709 0.034342498 0.67262661
-0.0049060709 0.032707155 0.67262661
-0.0049060709 0.031071782 0.67262667
-0.0049060709 0.029436409 0.67262661
-0.0049060709 0.027801067 0.67262661
-0.0049060709 0.026165754 0.67262661
-0.0049060709 0.024530321 0.67262661
-0.0049060709 0.022895008 0.67262661
-0.0049060709 0.021259636 0.67262661
-0.0049060709 0.019624263 0.67262661
-0.0049060709 0.01798895 0.67262661
-0.0049060709 0.016353607 0.67262661
-0.0049060709 0.014718205 0.67262661
-0.0049060709 0.013082862 0.67262661
-0.0049060709 0.011447519 0.67262661
-0.0049060709 0.0098121464 0.67262661
-0.0049060709 0.0081768036 0.67262661
-0.0049060709 0.006541431 0.67262661
-0.0049060709 0.0049060881 0.67262661
-0.0049060709 0.0032706857 0.67262667
-0.0049060709 0.0016353428 0.67262661
-0.0049060709 -0 0.67262661
-0.0049060709 -0.0016353428 0.67262661
-0.0049060709 -0.0032707155 0.67262661
-0.0049060709 -0.0049060583 0.67262661
-0.0049060709 -0.006541431 0.67262661
-0.0049060709 -0.0081768036 0.67262661
-0.0049060709 -0.0098121464 0.67262661
-0.0049060709 -0.011447459 0.67262661
-0.0049060709 -0.013082862 0.67262661
-0.0049060709 -0.014718205 0.67262661
-0.0049060709 -0.016353577 0.67262661
-0.0049060709 -0.01798895 0.67262661
-0.0049060709 -0.019624293 0.67262661
-0.0049060709 -0.021259636 0.67262667
-0.0049060709 -0.022895008 0.67262661
-0.0049060709 -0.024530351 0.67262661
-0.0049060709 -0.026165694 0.67262661
-0.0049060709 -0.027801096 0.67262661
-0.0049060709 -0.029436409 0.67262661
-0.0049060709 -0.031071782 0.67262667
-0.0049060709 -0.032707125 0.67262661
-0.0049060709 -0.034342468 0.67262661
-0.0049060709 -0.03597787 0.67262661
-0.0049060709 -0.037613213 0.67262661
-0.0049060709 -0.039248556 0.67262661
-0.0049060709 -0.040883929 0.67262661
-0.0049060709 -0.042519271 0.67262661
-0.0049060709 -0.044154614 0.67262661
-0.0049060709 -0.045789987 0.67262661
-0.0049060709 -0.047425359 0.67262661
-0.0049060709 -0.049060702 0.67262661
-0.0049060709 -0.050696075 0.67262667
-0.0049060709 -0.052331418 0.67262661
-0.0049060709 -0.053966731 0.67262661
-0.0049060709 -0.055602163 0.67262661
-0.0049060709 -0.057237506 0.67262661
-0.0049060709 -0.058872819 0.67262655
-0.0049060709 -0.060508221 0.67262661
-0.0049060709 -0.062143564 0.67262661
-0.0049060709 -0.063778907 0.67262661
-0.0049060709 -0.06541428 0.67262661
-0.0032869459 0.067382425 0.67360628
-0.0032869459 0.065738946 0.67360628
-0.0032869459 0.064095467 0.67360628
-0.0032869459 0.062451988 0.67360628
-0.0032869459 0.06080851 0.67360628
-0.0032869459 0.059165031 0.67360628
-0.0032869459 0.057521552 0.67360628
-0.0032869459 0.055878073 0.67360628
-0.0032869459 0.054234594 0.67360628
-0.0032869459 0.052591145 0.67360628
-0.0032869459 0.050947666 0.67360634
-0.0032869459 0.049304187 0.67360634
-0.0032869459 0.047660738 0.67360634
-0.0032869459 0.046017259 0.67360634
-0.0032869459 0.04437378 0.67360634
-0.0032869459 0.042730302 0.67360634
-0.0032869459 0.041086823 0.67360634
-0.0032869459 0.039443374 0.67360628
-0.0032869459 0.037799895 0.67360628
-0.0032869459 0.036156416 0.67360628
-0.0032869459 0.034512937 0.67360628
-0.0032869459 0.032869458 0.67360634
-0.0032869459 0.031225979 0.67360634
-0.0032869459 0.02958253 0.67360634
-0.0032869459 0.027939051 0.67360634
-0.0032869459 0.026295573 0.67360634
-0.0032869459 0.024652094 0.67360634
-0.0032869459 0.023008645 0.67360628
-0.0032869459 0.021365136 0.67360634
-0.0032869459 0.019721687 0.67360628
-0.0032869459 0.018078208 0.67360628
-0.0032869459 0.016434729 0.67360628
-0.0032869459 0.01479128 0.67360628
-0.0032869459 0.013147801 0.67360628
-0.0032869459 0.011504322 0.67360628
-0.0032869459 0.0098608434 0.67360628
-0.0032869459 0.0082173645 0.67360628
-0.0032869459 0.0065738857 0.67360628
-0.0032869459 0.0049304068 0.67360628
-0.0032869459 0.0032869279 0.67360628
-0.0032869459 0.0016434491 0.67360628
-0.0032869459 -2.9802322e-08 0.67360628
-0.0032869459 -0.0016434789 0.67360634
-0.0032869459 -0.0032869577 0.67360634
-0.0032869459 -0.0049304366 0.67360634
-0.0032869459 -0.0065738857 0.67360628
-0.0032869459 -0.0082173645 0.67360628
-0.0032869459 -0.0098608434 0.67360628
-0.0032869459 -0.011504292 0.67360628
-0.0032869459 -0.013147771 0.67360628
-0.0032869459 -0.01479125 0.67360628
-0.0032869459 -0.016434729 0.67360628
-0.0032869459 -0.018078208 0.67360628
-0.0032869459 -0.019721687 0.67360628
-0.0032869459 -0.021365166 0.67360634
-0.0032869459 -0.023008645 0.67360634
-0.0032869459 -0.024652094 0.67360628
-0.0032869459 -0.026295573 0.67360628
-0.0032869459 -0.027939051 0.67360634
-0.0032869459 -0.0295825 0.67360634
-0.0032869459 -0.031225979 0.67360628
-0.0032869459 -0.032869458 0.67360628
-0.0032869459 -0.034512937 0.67360628
-0.0032869459 -0.036156416 0.67360628
-0.0032869459 -0.037799895 0.67360628
-0.0032869459 -0.039443374 0.67360628
-0.0032869459 -0.041086823 0.67360634
-0.0032869459 -0.042730302 0.67360634
-0.0032869459 -0.04437378 0.67360634
-0.0032869459 -0.04601723 0.67360634
-0.0032869459 -0.047660738 0.67360634
