# .PCD v0.7 - Point Cloud Data file format
VERSION 0.7
FIELDS x y z
SIZE 4 4 4
TYPE F F F
COUNT 1 1 1
WIDTH 1353
HEIGHT 1
VIEWPOINT 0 0 0 1 0 0 0
POINTS 1353
DATA ascii
-0.0050031682 0.061705738 0.67653352
-0.0049728076 0.059673667 0.67531192
-0.0049427957 0.057665974 0.67410433
-0.004913161 0.05568248 0.67291188
-0.0048838626 0.053722531 0.67173302
-0.0048549282 0.051785916 0.67056882
-0.0048263348 0.04987213 0.66941828
-0.0047980598 0.047980607 0.6682806
-0.0047701304 0.046111256 0.66715682
-0.0047425083 0.044263393 0.66604543
-0.0047152201 0.042436987 0.66494733
-0.0046882285 0.040631294 0.66386127
-0.0046615591 0.038846344 0.66278821
-0.004635192 0.03708154 0.66172731
-0.0046091061 0.035336465 0.66067767
-0.0045833276 0.033611089 0.65964043
-0.0045578205 0.031904757 0.6586141
-0.0045326105 0.030217409 0.65759969
-0.0045076632 0.028548568 0.65659589
-0.0044830036 0.026898026 0.65560371
-0.0044586123 0.025265485 0.65462232
-0.004434471 0.023650527 0.65365088
-0.0044106035 0.022053033 0.65269053
-0.0043869782 0.020472586 0.65173995
-0.0043636179 0.018909007 0.65079999
-0.0043404917 0.017361969 0.64986944
-0.0043176222 0.015831292 0.64894927
-0.0042949929 0.014316648 0.64803874
-0.0042725862 0.012817711 0.64713717
-0.0042504254 0.011334479 0.64624548
-0.0042284806 0.0098664463 0.6453625
-0.0042067734 0.0084135532 0.64448905
-0.0041852756 0.0069754422 0.64362407
-0.0041640089 0.0055520236 0.64276838
-0.0041429452 0.00414294 0.6419208
-0.0041750702 0.0027833581 0.64321345
-0.0042321412 0.0014106929 0.64550978
-0.0042908071 2.9802322e-08 0.6478703
-0.0043511223 -0.0014503896 0.65029722
-0.0044131437 -0.0029420853 0.65279275
-0.0044769729 -0.0044769943 0.65536106
-0.0045426609 -0.006056875 0.65800411
-0.0046103201 -0.0076838732 0.66072655
-0.0046800254 -0.0093600452 0.6635313
-0.0047518555 -0.011087686 0.66642153
-0.0048259408 -0.012869179 0.66940242
-0.0049023726 -0.014707148 0.67247784
-0.0049812468 -0.016604155 0.67565149
-0.0050627189 -0.0185633 0.67892969
-0.005146882 -0.020587534 0.68231606
-0.0052339095 -0.022680253 0.68581784
-0.0053239106 -0.024844915 0.68943918
-0.0054170825 -0.027085394 0.69318807
-0.0055135726 -0.029405743 0.6970706
-0.0056135408 -0.031810075 0.70109302
-0.0057172244 -0.034303337 0.70526493
-0.0058247861 -0.036890328 0.70959288
-0.0059364974 -0.03957665 0.71408772
-0.0060525774 -0.042368025 0.71875846
-0.00617326 -0.045270592 0.72361439
-0.006298882 -0.048291415 0.72866899
-0.0064297225 -0.051437765 0.73393363
-0.006566084 -0.054717362 0.73942035
-0.0067083864 -0.058139354 0.74514621
-0.0068569593 -0.061712623 0.75112432
-0.0033977022 0.067954063 0.68029106
-0.0033766895 0.06584543 0.67902279
-0.0033559466 0.063762993 0.67777091
-0.0033354457 0.061705738 0.67653352
-0.003315205 0.059673667 0.67531192
-0.0032951972 0.057665974 0.67410433
-0.0032754408 0.05568248 0.67291188
-0.0032559086 0.053722531 0.67173302
-0.0032366188 0.051785916 0.67056882
-0.0032175565 0.04987213 0.66941828
-0.0031987068 0.047980607 0.6682806
-0.0031800871 0.046111256 0.66715682
-0.0031616723 0.044263393 0.66604543
-0.0031434798 0.042436987 0.66494733
-0.0031254855 0.040631294 0.66386127
-0.0031077063 0.038846344 0.66278821
-0.0030901278 0.03708154 0.66172731
-0.0030727375 0.035336465 0.66067767
-0.0030555516 0.033611089 0.65964043
-0.0030385468 0.031904757 0.6586141
-0.0030217404 0.030217409 0.65759969
-0.003005109 0.028548568 0.65659589
-0.0029886691 0.026898026 0.65560371
-0.0029724082 0.025265485 0.65462232
-0.0029563142 0.023650527 0.65365088
-0.0029404024 0.022053033 0.65269053
-0.0029246521 0.020472586 0.65173995
-0.0029090783 0.018909007 0.65079999
-0.0028936609 0.017361969 0.64986944
-0.0028784149 0.015831292 0.64894927
-0.0028633284 0.014316648 0.64803874
-0.0028483907 0.012817711 0.64713717
-0.0028336169 0.011334479 0.64624548
-0.002818987 0.0098664463 0.6453625
-0.0028045157 0.0084135532 0.64448905
-0.0027901838 0.0069754422 0.64362407
-0.002776006 0.0055520236 0.64276838
-0.0027619633 0.00414294 0.6419208
-0.0027833802 0.0027833581 0.64321345
-0.0028214275 0.0014106929 0.64550978
-0.0028605382 2.9802322e-08 0.6478703
-0.0029007483 -0.0014503896 0.65029722
-0.0029420957 -0.0029420853 0.65279275
-0.0029846486 -0.0044769943 0.65536106
-0.0030284408 -0.006056875 0.65800411
-0.0030735468 -0.0076838732 0.66072655
-0.003120017 -0.0093600452 0.6635313
-0.0031679037 -0.011087686 0.66642153
-0.0032172936 -0.012869179 0.66940242
-0.0032682484 -0.014707148 0.67247784
-0.0033208311 -0.016604155 0.67565149
-0.0033751461 -0.0185633 0.67892969
-0.0034312545 -0.020587534 0.68231606
-0.0034892729 -0.022680253 0.68581784
-0.0035492736 -0.024844915 0.68943918
-0.0036113879 -0.027085394 0.69318807
-0.0036757153 -0.029405743 0.6970706
-0.0037423607 -0.031810075 0.70109302
-0.003811483 -0.034303337 0.70526493
-0.0038831907 -0.036890328 0.70959288
-0.0039576646 -0.03957665 0.71408772
-0.0040350514 -0.042368025 0.71875846
-0.004115507 -0.045270592 0.72361439
-0.0041992548 -0.048291415 0.72866899
-0.004286482 -0.051437765 0.73393363
-0.0043773893 -0.054717362 0.73942035
-0.0044722571 -0.058139354 0.74514621
-0.0045713065 -0.061712623 0.75112432
-0.0016988511 0.067954063 0.68029106
-0.0016883448 0.06584543 0.67902279
-0.0016779733 0.063762993 0.67777091
-0.0016677228 0.061705738 0.67653352
-0.0016576025 0.059673667 0.67531192
-0.0016475986 0.057665974 0.67410433
-0.0016377204 0.05568248 0.67291188
-0.0016279543 0.053722531 0.67173302
-0.0016183094 0.051785916 0.67056882
-0.0016087783 0.04987213 0.66941828
-0.0015993534 0.047980607 0.6682806
-0.0015900435 0.046111256 0.66715682
-0.0015808361 0.044263393 0.66604543
-0.0015717399 0.042436987 0.66494733
-0.0015627427 0.040631294 0.66386127
-0.0015538532 0.038846344 0.66278821
-0.0015450639 0.03708154 0.66172731
-0.0015363687 0.035336465 0.66067767
-0.0015277758 0.033611089 0.65964043
-0.0015192734 0.031904757 0.6586141
-0.0015108702 0.030217409 0.65759969
-0.0015025545 0.028548568 0.65659589
-0.0014943345 0.026898026 0.65560371
-0.0014862041 0.025265485 0.65462232
-0.0014781571 0.023650527 0.65365088
-0.0014702012 0.022053033 0.65269053
-0.001462326 0.020472586 0.65173995
-0.0014545391 0.018909007 0.65079999
-0.0014468305 0.017361969 0.64986944
-0.0014392075 0.015831292 0.64894927
-0.0014316642 0.014316648 0.64803874
-0.0014241954 0.012817711 0.64713717
-0.0014168085 0.011334479 0.64624548
-0.0014094935 0.0098664463 0.6453625
-0.0014022578 0.0084135532 0.64448905
-0.0013950919 0.0069754422 0.64362407
-0.001388003 0.0055520236 0.64276838
-0.0013809816 0.00414294 0.6419208
-0.0013916901 0.0027833581 0.64321345
-0.0014107138 0.0014106929 0.64550978
-0.0014302691 2.9802322e-08 0.6478703
-0.0014503741 -0.0014503896 0.65029722
-0.0014710479 -0.0029420853 0.65279275
-0.0014923243 -0.0044769943 0.65536106
-0.0015142204 -0.006056875 0.65800411
-0.0015367734 -0.0076838732 0.66072655
-0.0015600085 -0.0093600452 0.6635313
-0.0015839519 -0.011087686 0.66642153
-0.0016086468 -0.012869179 0.66940242
-0.0016341242 -0.014707148 0.67247784
-0.0016604156 -0.016604155 0.67565149
-0.001687573 -0.0185633 0.67892969
-0.0017156273 -0.020587534 0.68231606
-0.0017446365 -0.022680253 0.68581784
-0.0017746368 -0.024844915 0.68943918
-0.001805694 -0.027085394 0.69318807
-0.0018378576 -0.029405743 0.6970706
-0.0018711804 -0.031810075 0.70109302
-0.0019057415 -0.034303337 0.70526493
-0.0019415953 -0.036890328 0.70959288
-0.0019788323 -0.03957665 0.71408772
-0.0020175257 -0.042368025 0.71875846
-0.0020577535 -0.045270592 0.72361439
-0.0020996274 -0.048291415 0.72866899
-0.002143241 -0.051437765 0.73393363
-0.0021886947 -0.054717362 0.73942035
-0.0022361286 -0.058139354 0.74514621
-0.0022856533 -0.061712623 0.75112432
0 0.067954063 0.68029106
0 0.06584543 0.67902279
0 0.063762993 0.67777091
0 0.061705738 0.67653352
0 0.059673667 0.67531192
0 0.057665974 0.67410433
0 0.05568248 0.67291188
0 0.053722531 0.67173302
0 0.051785916 0.67056882
0 0.04987213 0.66941828
0 0.047980607 0.6682806
0 0.046111256 0.66715682
0 0.044263393 0.66604543
0 0.042436987 0.66494733
0 0.040631294 0.66386127
0 0.038846344 0.66278821
0 0.03708154 0.66172731
0 0.035336465 0.66067767
0 0.033611089 0.65964043
0 0.031904757 0.6586141
0 0.030217409 0.65759969
0 0.028548568 0.65659589
0 0.026898026 0.65560371
0 0.025265485 0.65462232
0 0.023650527 0.65365088
0 0.022053033 0.65269053
0 0.020472586 0.65173995
0 0.018909007 0.65079999
0 0.017361969 0.64986944
0 0.015831292 0.64894927
0 0.014316648 0.64803874
0 0.012817711 0.64713717
0 0.011334479 0.64624548
0 0.0098664463 0.6453625
0 0.0084135532 0.64448905
0 0.0069754422 0.64362407
0 0.0055520236 0.64276838
0 0.00414294 0.6419208
0 0.0027833581 0.64321345
0 0.0014106929 0.64550978
0 2.9802322e-08 0.6478703
0 -0.0014503896 0.65029722
0 -0.0029420853 0.65279275
0 -0.0044769943 0.65536106
0 -0.006056875 0.65800411
0 -0.0076838732 0.66072655
0 -0.0093600452 0.6635313
0 -0.011087686 0.66642153
0 -0.012869179 0.66940242
0 -0.014707148 0.67247784
0 -0.016604155 0.67565149
0 -0.0185633 0.67892969
0 -0.020587534 0.68231606
0 -0.022680253 0.68581784
0 -0.024844915 0.68943918
0 -0.027085394 0.69318807
0 -0.029405743 0.6970706
0 -0.031810075 0.70109302
0 -0.034303337 0.70526493
0 -0.036890328 0.70959288
0 -0.03957665 0.71408772
0 -0.042368025 0.71875846
0 -0.045270592 0.72361439
0 -0.048291415 0.72866899
0 -0.051437765 0.73393363
0 -0.054717362 0.73942035
0 -0.058139354 0.74514621
0 -0.061712623 0.75112432
0.0016988511 0.067954063 0.68029106
0.0016883448 0.06584543 0.67902279
0.0016779733 0.063762993 0.67777091
0.0016677228 0.061705738 0.67653352
0.0016576025 0.059673667 0.67531192
0.0016475986 0.057665974 0.67410433
0.0016377204 0.05568248 0.67291188
0.0016279543 0.053722531 0.67173302
0.0016183094 0.051785916 0.67056882
0.0016087783 0.04987213 0.66941828
0.0015993534 0.047980607 0.6682806
0.0015900435 0.046111256 0.66715682
0.0015808361 0.044263393 0.66604543
0.0015717399 0.042436987 0.66494733
0.0015627427 0.040631294 0.66386127
0.0015538532 0.038846344 0.66278821
0.0015450639 0.03708154 0.66172731
0.0015363687 0.035336465 0.66067767
0.0015277758 0.033611089 0.65964043
0.0015192734 0.031904757 0.6586141
0.0015108702 0.030217409 0.65759969
0.0015025545 0.028548568 0.65659589
0.0014943345 0.026898026 0.65560371
0.0014862041 0.025265485 0.65462232
0.0014781571 0.023650527 0.65365088
0.0014702012 0.022053033 0.65269053
0.001462326 0.020472586 0.65173995
0.0014545391 0.018909007 0.65079999
0.0014468305 0.017361969 0.64986944
0.0014392075 0.015831292 0.64894927
0.0014316642 0.014316648 0.64803874
0.0014241954 0.012817711 0.64713717
0.0014168085 0.011334479 0.64624548
0.0014094935 0.0098664463 0.6453625
0.0014022578 0.0084135532 0.64448905
0.0013950919 0.0069754422 0.64362407
0.001388003 0.0055520236 0.64276838
0.0013809816 0.00414294 0.6419208
0.0013916901 0.0027833581 0.64321345
0.0014107138 0.0014106929 0.64550978
0.0014302691 2.9802322e-08 0.6478703
0.0014503741 -0.0014503896 0.65029722
0.0014710479 -0.0029420853 0.65279275
0.0014923243 -0.0044769943 0.65536106
0.0015142204 -0.006056875 0.65800411
0.0015367734 -0.0076838732 0.66072655
0.0015600085 -0.0093600452 0.6635313
0.0015839519 -0.011087686 0.66642153
0.0016086468 -0.012869179 0.66940242
0.0016341242 -0.014707148 0.67247784
0.0016604156 -0.016604155 0.67565149
0.001687573 -0.0185633 0.67892969
0.0017156273 -0.020587534 0.68231606
0.0017446365 -0.022680253 0.68581784
0.0017746368 -0.024844915 0.68943918
0.001805694 -0.027085394 0.69318807
0.0018378576 -0.029405743 0.6970706
0.0018711804 -0.031810075 0.70109302
0.0019057415 -0.034303337 0.70526493
0.0019415953 -0.036890328 0.70959288
0.0019788323 -0.03957665 0.71408772
0.0020175257 -0.042368025 0.71875846
0.0020577535 -0.045270592 0.72361439
0.0020996274 -0.048291415 0.72866899
0.002143241 -0.051437765 0.73393363
0.0021886947 -0.054717362 0.73942035
0.0022361286 -0.058139354 0.74514621
0.0022856533 -0.061712623 0.75112432
0.0033977022 0.067954063 0.68029106
0.0033766895 0.06584543 0.67902279
0.0033559466 0.063762993 0.67777091
0.0033354457 0.061705738 0.67653352
0.003315205 0.059673667 0.67531192
0.0032951972 0.057665974 0.67410433
0.0032754408 0.05568248 0.67291188
0.0032559086 0.053722531 0.67173302
0.0032366188 0.051785916 0.67056882
0.0032175565 0.04987213 0.66941828
0.0031987068 0.047980607 0.6682806
0.0031800871 0.046111256 0.66715682
0.0031616723 0.044263393 0.66604543
0.0031434798 0.042436987 0.66494733
0.0031254855 0.040631294 0.66386127
0.0031077063 0.038846344 0.66278821
0.0030901278 0.03708154 0.66172731
0.0030727375 0.035336465 0.66067767
0.0030555516 0.033611089 0.65964043
0.0030385468 0.031904757 0.6586141
0.0030217404 0.030217409 0.65759969
0.003005109 0.028548568 0.65659589
0.0029886691 0.026898026 0.65560371
0.0029724082 0.025265485 0.65462232
0.0029563142 0.023650527 0.65365088
0.0029404024 0.022053033 0.65269053
0.0029246521 0.020472586 0.65173995
0.0029090783 0.018909007 0.65079999
0.0028936609 0.017361969 0.64986944
0.0028784149 0.015831292 0.64894927
0.0028633284 0.014316648 0.64803874
0.0028483907 0.012817711 0.64713717
0.0028336169 0.011334479 0.64624548
0.002818987 0.0098664463 0.6453625
0.0028045157 0.0084135532 0.64448905
0.0027901838 0.0069754422 0.64362407
0.002776006 0.0055520236 0.64276838
0.0027619633 0.00414294 0.6419208
0.0027833802 0.0027833581 0.64321345
0.0028214275 0.0014106929 0.64550978
0.0028605382 2.9802322e-08 0.6478703
0.0029007483 -0.0014503896 0.65029722
0.0029420957 -0.0029420853 0.65279275
0.0029846486 -0.0044769943 0.65536106
0.0030284408 -0.006056875 0.65800411
0.0030735468 -0.0076838732 0.66072655
0.003120017 -0.0093600452 0.6635313
0.0031679037 -0.011087686 0.66642153
0.0032172936 -0.012869179 0.66940242
0.0032682484 -0.014707148 0.67247784
0.0033208311 -0.016604155 0.67565149
0.0033751461 -0.0185633 0.67892969
0.0034312545 -0.020587534 0.68231606
0.0034892729 -0.022680253 0.68581784
0.0035492736 -0.024844915 0.68943918
0.0036113879 -0.027085394 0.69318807
0.0036757153 -0.029405743 0.6970706
0.0037423607 -0.031810075 0.70109302
0.003811483 -0.034303337 0.70526493
0.0038831907 -0.036890328 0.70959288
0.0039576646 -0.03957665 0.71408772
0.0040350514 -0.042368025 0.71875846
0.004115507 -0.045270592 0.72361439
0.0041992548 -0.048291415 0.72866899
0.004286482 -0.051437765 0.73393363
0.0043773893 -0.054717362 0.73942035
0.0044722571 -0.058139354 0.74514621
0.0045713065 -0.061712623 0.75112432
0.0050965534 0.067954063 0.68029106
0.0050650341 0.06584543 0.67902279
0.0050339201 0.063762993 0.67777091
0.0050031682 0.061705738 0.67653352
0.0049728076 0.059673667 0.67531192
0.0049427957 0.057665974 0.67410433
0.004913161 0.05568248 0.67291188
0.0048838626 0.053722531 0.67173302
0.0048549282 0.051785916 0.67056882
0.0048263348 0.04987213 0.66941828
0.0047980598 0.047980607 0.6682806
0.0047701304 0.046111256 0.66715682
0.0047425083 0.044263393 0.66604543
0.0047152201 0.042436987 0.66494733
0.0046882285 0.040631294 0.66386127
0.0046615591 0.038846344 0.66278821
0.004635192 0.03708154 0.66172731
0.0046091061 0.035336465 0.66067767
0.0045833276 0.033611089 0.65964043
0.0045578205 0.031904757 0.6586141
0.0045326105 0.030217409 0.65759969
0.0045076632 0.028548568 0.65659589
0.0044830036 0.026898026 0.65560371
0.0044586123 0.025265485 0.65462232
0.004434471 0.023650527 0.65365088
0.0044106035 0.022053033 0.65269053
0.0043869782 0.020472586 0.65173995
0.0043636179 0.018909007 0.65079999
0.0043404917 0.017361969 0.64986944
0.0043176222 0.015831292 0.64894927
0.0042949929 0.014316648 0.64803874
0.0042725862 0.012817711 0.64713717
0.0042504254 0.011334479 0.64624548
0.0042284806 0.0098664463 0.6453625
0.0042067734 0.0084135532 0.64448905
0.0041852756 0.0069754422 0.64362407
0.0041640089 0.0055520236 0.64276838
0.0041429452 0.00414294 0.6419208
0.0041750702 0.0027833581 0.64321345
0.0042321412 0.0014106929 0.64550978
0.0042908071 2.9802322e-08 0.6478703
0.0043511223 -0.0014503896 0.65029722
0.0044131437 -0.0029420853 0.65279275
0.0044769729 -0.0044769943 0.65536106
0.0045426609 -0.006056875 0.65800411
0.0046103201 -0.0076838732 0.66072655
0.0046800254 -0.0093600452 0.6635313
0.0047518555 -0.011087686 0.66642153
0.0048259408 -0.012869179 0.66940242
0.0049023726 -0.014707148 0.67247784
0.0049812468 -0.016604155 0.67565149
0.0050627189 -0.0185633 0.67892969
0.005146882 -0.020587534 0.68231606
0.0052339095 -0.022680253 0.68581784
0.0053239106 -0.024844915 0.68943918
0.0054170825 -0.027085394 0.69318807
0.0055135726 -0.029405743 0.6970706
0.0056135408 -0.031810075 0.70109302
0.0057172244 -0.034303337 0.70526493
0.0058247861 -0.036890328 0.70959288
0.0059364974 -0.03957665 0.71408772
0.0060525774 -0.042368025 0.71875846
0.00617326 -0.045270592 0.72361439
0.006298882 -0.048291415 0.72866899
0.0064297225 -0.051437765 0.73393363
0.006566084 -0.054717362 0.73942035
0.0067083864 -0.058139354 0.74514621
0.0068569593 -0.061712623 0.75112432
0.0067954045 0.067954063 0.68029106
0.006753379 0.06584543 0.67902279
0.0067118932 0.063762993 0.67777091
0.0066708913 0.061705738 0.67653352
0.00663041 0.059673667 0.67531192
0.0065903943 0.057665974 0.67410433
0.0065508815 0.05568248 0.67291188
0.0065118172 0.053722531 0.67173302
0.0064732376 0.051785916 0.67056882
0.006435113 0.04987213 0.66941828
0.0063974136 0.047980607 0.6682806
0.0063601742 0.046111256 0.66715682
0.0063233445 0.044263393 0.66604543
0.0062869596 0.042436987 0.66494733
0.006250971 0.040631294 0.66386127
0.0062154126 0.038846344 0.66278821
0.0061802557 0.03708154 0.66172731
0.006145475 0.035336465 0.66067767
0.0061111031 0.033611089 0.65964043
0.0060770935 0.031904757 0.6586141
0.0060434807 0.030217409 0.65759969
0.0060102181 0.028548568 0.65659589
0.0059773382 0.026898026 0.65560371
0.0059448164 0.025265485 0.65462232
0.0059126285 0.023650527 0.65365088
0.0058808047 0.022053033 0.65269053
0.0058493041 0.020472586 0.65173995
0.0058181565 0.018909007 0.65079999
0.0057873218 0.017361969 0.64986944
0.0057568299 0.015831292 0.64894927
0.0057266569 0.014316648 0.64803874
0.0056967814 0.012817711 0.64713717
0.0056672338 0.011334479 0.64624548
0.005637974 0.0098664463 0.6453625
0.0056090313 0.0084135532 0.64448905
0.0055803675 0.0069754422 0.64362407
0.005552012 0.0055520236 0.64276838
0.0055239266 0.00414294 0.6419208
0.0055667604 0.0027833581 0.64321345
0.0056428551 0.0014106929 0.64550978
0.0057210764 2.9802322e-08 0.6478703
0.0058014966 -0.0014503896 0.65029722
0.0058841915 -0.0029420853 0.65279275
0.0059692971 -0.0044769943 0.65536106
0.0060568815 -0.006056875 0.65800411
0.0061470936 -0.0076838732 0.66072655
0.006240034 -0.0093600452 0.6635313
0.0063358075 -0.011087686 0.66642153
0.0064345873 -0.012869179 0.66940242
0.0065364968 -0.014707148 0.67247784
0.0066416622 -0.016604155 0.67565149
0.0067502921 -0.0185633 0.67892969
0.0068625091 -0.020587534 0.68231606
0.0069785458 -0.022680253 0.68581784
0.0070985472 -0.024844915 0.68943918
0.0072227758 -0.027085394 0.69318807
0.0073514306 -0.029405743 0.6970706
0.0074847215 -0.031810075 0.70109302
0.0076229661 -0.034303337 0.70526493
0.0077663814 -0.036890328 0.70959288
0.0079153292 -0.03957665 0.71408772
0.0080701029 -0.042368025 0.71875846
0.008231014 -0.045270592 0.72361439
0.0083985096 -0.048291415 0.72866899
0.008572964 -0.051437765 0.73393363
0.0087547787 -0.054717362 0.73942035
0.0089445142 -0.058139354 0.74514621
0.009142613 -0.061712623 0.75112432
0.0084942561 0.067954063 0.68029106
0.0084417239 0.06584543 0.67902279
0.0083898669 0.063762993 0.67777091
0.0083386144 0.061705738 0.67653352
0.0082880128 0.059673667 0.67531192
0.0082379924 0.057665974 0.67410433
0.0081886016 0.05568248 0.67291188
0.0081397714 0.053722531 0.67173302
0.0080915475 0.051785916 0.67056882
0.0080438918 0.04987213 0.66941828
0.0079967668 0.047980607 0.6682806
0.0079502175 0.046111256 0.66715682
0.0079041803 0.044263393 0.66604543
0.0078587001 0.042436987 0.66494733
0.0078137135 0.040631294 0.66386127
0.0077692652 0.038846344 0.66278821
0.0077253198 0.03708154 0.66172731
0.0076818438 0.035336465 0.66067767
0.0076388791 0.033611089 0.65964043
0.0075963675 0.031904757 0.6586141
0.0075543504 0.030217409 0.65759969
0.0075127725 0.028548568 0.65659589
0.0074716727 0.026898026 0.65560371
0.0074310205 0.025265485 0.65462232
0.007390785 0.023650527 0.65365088
0.0073510059 0.022053033 0.65269053
0.0073116305 0.020472586 0.65173995
0.0072726966 0.018909007 0.65079999
0.0072341524 0.017361969 0.64986944
0.0071960376 0.015831292 0.64894927
0.0071583213 0.014316648 0.64803874
0.0071209776 0.012817711 0.64713717
0.0070840423 0.011334479 0.64624548
0.0070474674 0.0098664463 0.6453625
0.0070112888 0.0084135532 0.64448905
0.0069754594 0.0069754422 0.64362407
0.0069400147 0.0055520236 0.64276838
0.0069049085 0.00414294 0.6419208
0.0069584502 0.0027833581 0.64321345
0.0070535685 0.0014106929 0.64550978
0.0071513448 2.9802322e-08 0.6478703
0.0072518704 -0.0014503896 0.65029722
0.0073552392 -0.0029420853 0.65279275
0.0074616219 -0.0044769943 0.65536106
0.0075711012 -0.006056875 0.65800411
0.0076838671 -0.0076838732 0.66072655
0.0078000431 -0.0093600452 0.6635313
0.0079197586 -0.011087686 0.66642153
0.0080432342 -0.012869179 0.66940242
0.0081706205 -0.014707148 0.67247784
0.0083020786 -0.016604155 0.67565149
0.0084378654 -0.0185633 0.67892969
0.0085781356 -0.020587534 0.68231606
0.0087231826 -0.022680253 0.68581784
0.0088731842 -0.024844915 0.68943918
0.0090284701 -0.027085394 0.69318807
0.0091892881 -0.029405743 0.6970706
0.0093559017 -0.031810075 0.70109302
0.0095287068 -0.034303337 0.70526493
0.0097079761 -0.036890328 0.70959288
0.0098941615 -0.03957665 0.71408772
0.010087629 -0.042368025 0.71875846
0.010288768 -0.045270592 0.72361439
0.010498137 -0.048291415 0.72866899
0.010716205 -0.051437765 0.73393363
0.010943473 -0.054717362 0.73942035
0.011180643 -0.058139354 0.74514621
0.011428266 -0.061712623 0.75112432
0.010193107 0.067954063 0.68029106
0.010130068 0.06584543 0.67902279
0.01006784 0.063762993 0.67777091
0.010006336 0.061705738 0.67653352
0.0099456152 0.059673667 0.67531192
0.0098855915 0.057665974 0.67410433
0.0098263221 0.05568248 0.67291188
0.0097677251 0.053722531 0.67173302
0.0097098565 0.051785916 0.67056882
0.0096526695 0.04987213 0.66941828
0.0095961196 0.047980607 0.6682806
0.0095402608 0.046111256 0.66715682
0.0094850166 0.044263393 0.66604543
0.0094304401 0.042436987 0.66494733
0.009376457 0.040631294 0.66386127
0.0093231183 0.038846344 0.66278821
0.009270384 0.03708154 0.66172731
0.0092182122 0.035336465 0.66067767
0.0091666551 0.033611089 0.65964043
0.009115641 0.031904757 0.6586141
0.0090652211 0.030217409 0.65759969
0.0090153264 0.028548568 0.65659589
0.0089660073 0.026898026 0.65560371
0.0089172246 0.025265485 0.65462232
0.008868942 0.023650527 0.65365088
0.0088212071 0.022053033 0.65269053
0.0087739564 0.020472586 0.65173995
0.0087272357 0.018909007 0.65079999
0.0086809834 0.017361969 0.64986944
0.0086352443 0.015831292 0.64894927
0.0085899858 0.014316648 0.64803874
0.0085451724 0.012817711 0.64713717
0.0085008508 0.011334479 0.64624548
0.0084569613 0.0098664463 0.6453625
0.0084135467 0.0084135532 0.64448905
0.0083705513 0.0069754422 0.64362407
0.0083280178 0.0055520236 0.64276838
0.0082858903 0.00414294 0.6419208
0.0083501404 0.0027833581 0.64321345
0.0084642824 0.0014106929 0.64550978
0.0085816141 2.9802322e-08 0.6478703
0.0087022446 -0.0014503896 0.65029722
0.0088262875 -0.0029420853 0.65279275
0.0089539457 -0.0044769943 0.65536106
0.0090853218 -0.006056875 0.65800411
0.0092206402 -0.0076838732 0.66072655
0.0093600508 -0.0093600452 0.6635313
0.009503711 -0.011087686 0.66642153
0.0096518816 -0.012869179 0.66940242
0.0098047452 -0.014707148 0.67247784
0.0099624936 -0.016604155 0.67565149
0.010125438 -0.0185633 0.67892969
0.010293764 -0.020587534 0.68231606
0.010467819 -0.022680253 0.68581784
0.010647821 -0.024844915 0.68943918
0.010834165 -0.027085394 0.69318807
0.011027145 -0.029405743 0.6970706
0.011227082 -0.031810075 0.70109302
0.011434449 -0.034303337 0.70526493
0.011649572 -0.036890328 0.70959288
0.011872995 -0.03957665 0.71408772
0.012105155 -0.042368025 0.71875846
0.01234652 -0.045270592 0.72361439
0.012597764 -0.048291415 0.72866899
0.012859445 -0.051437765 0.73393363
0.013132168 -0.054717362 0.73942035
0.013416773 -0.058139354 0.74514621
0.013713919 -0.061712623 0.75112432
0.011891958 0.067954063 0.68029106
0.011818414 0.06584543 0.67902279
0.011745813 0.063762993 0.67777091
0.01167406 0.061705738 0.67653352
0.011603219 0.059673667 0.67531192
0.01153319 0.057665974 0.67410433
0.011464042 0.05568248 0.67291188
0.01139568 0.053722531 0.67173302
0.011328166 0.051785916 0.67056882
0.011261448 0.04987213 0.66941828
0.011195473 0.047980607 0.6682806
0.011130305 0.046111256 0.66715682
0.011065853 0.044263393 0.66604543
0.011002179 0.042436987 0.66494733
0.010939199 0.040631294 0.66386127
0.010876972 0.038846344 0.66278821
0.010815448 0.03708154 0.66172731
0.010754581 0.035336465 0.66067767
0.01069443 0.033611089 0.65964043
0.010634915 0.031904757 0.6586141
0.010576091 0.030217409 0.65759969
0.010517881 0.028548568 0.65659589
0.010460342 0.026898026 0.65560371
0.010403429 0.025265485 0.65462232
0.010347099 0.023650527 0.65365088
0.010291409 0.022053033 0.65269053
0.010236282 0.020472586 0.65173995
0.010181774 0.018909007 0.65079999
0.010127814 0.017361969 0.64986944
0.010074452 0.015831292 0.64894927
0.01002165 0.014316648 0.64803874
0.0099693686 0.012817711 0.64713717
0.0099176588 0.011334479 0.64624548
0.0098664546 0.0098664463 0.6453625
0.0098158047 0.0084135532 0.64448905
0.0097656436 0.0069754422 0.64362407
0.0097160209 0.0055520236 0.64276838
0.0096668713 0.00414294 0.6419208
0.0097418297 0.0027833581 0.64321345
0.0098749958 0.0014106929 0.64550978
0.010011883 2.9802322e-08 0.6478703
0.010152619 -0.0014503896 0.65029722
0.010297336 -0.0029420853 0.65279275
0.01044627 -0.0044769943 0.65536106
0.010599542 -0.006056875 0.65800411
0.010757414 -0.0076838732 0.66072655
0.010920059 -0.0093600452 0.6635313
0.011087662 -0.011087686 0.66642153
0.011260527 -0.012869179 0.66940242
0.01143887 -0.014707148 0.67247784
0.01162291 -0.016604155 0.67565149
0.011813011 -0.0185633 0.67892969
0.012009392 -0.020587534 0.68231606
0.012212455 -0.022680253 0.68581784
0.012422458 -0.024844915 0.68943918
0.012639859 -0.027085394 0.69318807
0.012865003 -0.029405743 0.6970706
0.013098262 -0.031810075 0.70109302
0.01334019 -0.034303337 0.70526493
0.013591167 -0.036890328 0.70959288
0.013851826 -0.03957665 0.71408772
0.01412268 -0.042368025 0.71875846
0.014404275 -0.045270592 0.72361439
0.014697392 -0.048291415 0.72866899
0.015002687 -0.051437765 0.73393363
0.015320863 -0.054717362 0.73942035
0.015652901 -0.058139354 0.74514621
0.015999572 -0.061712623 0.75112432
0.013590809 0.067954063 0.68029106
0.013506758 0.06584543 0.67902279
0.013423786 0.063762993 0.67777091
0.013341783 0.061705738 0.67653352
0.01326082 0.059673667 0.67531192
0.013180789 0.057665974 0.67410433
0.013101763 0.05568248 0.67291188
0.013023634 0.053722531 0.67173302
0.012946475 0.051785916 0.67056882
0.012870226 0.04987213 0.66941828
0.012794827 0.047980607 0.6682806
0.012720348 0.046111256 0.66715682
0.012646689 0.044263393 0.66604543
0.012573919 0.042436987 0.66494733
0.012501942 0.040631294 0.66386127
0.012430825 0.038846344 0.66278821
0.012360511 0.03708154 0.66172731
0.01229095 0.035336465 0.66067767
0.012222206 0.033611089 0.65964043
0.012154187 0.031904757 0.6586141
0.012086961 0.030217409 0.65759969
0.012020436 0.028548568 0.65659589
0.011954676 0.026898026 0.65560371
0.011889633 0.025265485 0.65462232
0.011825257 0.023650527 0.65365088
0.011761609 0.022053033 0.65269053
0.011698608 0.020472586 0.65173995
0.011636313 0.018909007 0.65079999
0.011574644 0.017361969 0.64986944
0.01151366 0.015831292 0.64894927
0.011453314 0.014316648 0.64803874
0.011393563 0.012817711 0.64713717
0.011334468 0.011334479 0.64624548
0.011275948 0.0098664463 0.6453625
0.011218063 0.0084135532 0.64448905
0.011160735 0.0069754422 0.64362407
0.011104024 0.0055520236 0.64276838
0.011047853 0.00414294 0.6419208
0.011133521 0.0027833581 0.64321345
0.01128571 0.0014106929 0.64550978
0.011442153 2.9802322e-08 0.6478703
0.011602993 -0.0014503896 0.65029722
0.011768383 -0.0029420853 0.65279275
0.011938594 -0.0044769943 0.65536106
0.012113763 -0.006056875 0.65800411
0.012294187 -0.0076838732 0.66072655
0.012480068 -0.0093600452 0.6635313
0.012671615 -0.011087686 0.66642153
0.012869175 -0.012869179 0.66940242
0.013072994 -0.014707148 0.67247784
0.013283324 -0.016604155 0.67565149
0.013500584 -0.0185633 0.67892969
0.013725018 -0.020587534 0.68231606
0.013957092 -0.022680253 0.68581784
0.014197094 -0.024844915 0.68943918
0.014445552 -0.027085394 0.69318807
0.014702861 -0.029405743 0.6970706
0.014969443 -0.031810075 0.70109302
0.015245932 -0.034303337 0.70526493
0.015532763 -0.036890328 0.70959288
0.015830658 -0.03957665 0.71408772
0.016140206 -0.042368025 0.71875846
0.016462028 -0.045270592 0.72361439
0.016797019 -0.048291415 0.72866899
0.017145928 -0.051437765 0.73393363
0.017509557 -0.054717362 0.73942035
0.017889028 -0.058139354 0.74514621
0.018285226 -0.061712623 0.75112432
0.015289661 0.067954063 0.68029106
0.015195102 0.06584543 0.67902279
0.015101761 0.063762993 0.67777091
0.015009505 0.061705738 0.67653352
0.014918422 0.059673667 0.67531192
0.014828388 0.057665974 0.67410433
0.014739483 0.05568248 0.67291188
0.014651588 0.053722531 0.67173302
0.014564784 0.051785916 0.67056882
0.014479004 0.04987213 0.66941828
0.01439418 0.047980607 0.6682806
0.014310391 0.046111256 0.66715682
0.014227524 0.044263393 0.66604543
0.014145659 0.042436987 0.66494733
0.014064685 0.040631294 0.66386127
0.013984677 0.038846344 0.66278821
0.013905575 0.03708154 0.66172731
0.013827319 0.035336465 0.66067767
0.013749981 0.033611089 0.65964043
0.013673461 0.031904757 0.6586141
0.013597831 0.030217409 0.65759969
0.013522991 0.028548568 0.65659589
0.013449011 0.026898026 0.65560371
0.013375837 0.025265485 0.65462232
0.013303413 0.023650527 0.65365088
0.013231811 0.022053033 0.65269053
0.013160935 0.020472586 0.65173995
0.013090854 0.018909007 0.65079999
0.013021475 0.017361969 0.64986944
0.012952867 0.015831292 0.64894927
0.012884978 0.014316648 0.64803874
0.01281776 0.012817711 0.64713717
0.012751276 0.011334479 0.64624548
0.01268544 0.0098664463 0.6453625
0.01262032 0.0084135532 0.64448905
0.012555827 0.0069754422 0.64362407
0.012492026 0.0055520236 0.64276838
0.012428834 0.00414294 0.6419208
0.01252521 0.0027833581 0.64321345
0.012696424 0.0014106929 0.64550978
0.012872421 2.9802322e-08 0.6478703
0.013053368 -0.0014503896 0.65029722
0.013239431 -0.0029420853 0.65279275
0.013430919 -0.0044769943 0.65536106
0.013627983 -0.006056875 0.65800411
0.013830962 -0.0076838732 0.66072655
0.014040077 -0.0093600452 0.6635313
0.014255566 -0.011087686 0.66642153
0.014477821 -0.012869179 0.66940242
0.014707117 -0.014707148 0.67247784
0.01494374 -0.016604155 0.67565149
0.015188158 -0.0185633 0.67892969
0.015440645 -0.020587534 0.68231606
0.015701728 -0.022680253 0.68581784
0.015971733 -0.024844915 0.68943918
0.016251247 -0.027085394 0.69318807
0.016540719 -0.029405743 0.6970706
0.016840624 -0.031810075 0.70109302
0.017151672 -0.034303337 0.70526493
0.017474359 -0.036890328 0.70959288
0.017809492 -0.03957665 0.71408772
0.018157732 -0.042368025 0.71875846
0.018519782 -0.045270592 0.72361439
0.018896647 -0.048291415 0.72866899
0.019289169 -0.051437765 0.73393363
0.019698253 -0.054717362 0.73942035
0.020125158 -0.058139354 0.74514621
0.02057088 -0.061712623 0.75112432
0.016988512 0.067954063 0.68029106
0.016883448 0.06584543 0.67902279
0.016779734 0.063762993 0.67777091
0.016677229 0.061705738 0.67653352
0.016576026 0.059673667 0.67531192
0.016475985 0.057665974 0.67410433
0.016377203 0.05568248 0.67291188
0.016279543 0.053722531 0.67173302
0.016183095 0.051785916 0.67056882
0.016087784 0.04987213 0.66941828
0.015993534 0.047980607 0.6682806
0.015900435 0.046111256 0.66715682
0.015808361 0.044263393 0.66604543
0.0157174 0.042436987 0.66494733
0.015627427 0.040631294 0.66386127
0.01553853 0.038846344 0.66278821
0.01545064 0.03708154 0.66172731
0.015363688 0.035336465 0.66067767
0.015277758 0.033611089 0.65964043
0.015192735 0.031904757 0.6586141
0.015108701 0.030217409 0.65759969
0.015025545 0.028548568 0.65659589
0.014943345 0.026898026 0.65560371
0.014862041 0.025265485 0.65462232
0.01478157 0.023650527 0.65365088
0.014702012 0.022053033 0.65269053
0.014623261 0.020472586 0.65173995
0.014545393 0.018909007 0.65079999
0.014468305 0.017361969 0.64986944
0.014392075 0.015831292 0.64894927
0.014316643 0.014316648 0.64803874
0.014241955 0.012817711 0.64713717
0.014168085 0.011334479 0.64624548
0.014094935 0.0098664463 0.6453625
0.014022578 0.0084135532 0.64448905
0.013950919 0.0069754422 0.64362407
0.013880029 0.0055520236 0.64276838
0.013809817 0.00414294 0.6419208
0.0139169 0.0027833581 0.64321345
0.014107137 0.0014106929 0.64550978
0.01430269 2.9802322e-08 0.6478703
0.014503741 -0.0014503896 0.65029722
0.014710478 -0.0029420853 0.65279275
0.014923244 -0.0044769943 0.65536106
0.015142202 -0.006056875 0.65800411
0.015367734 -0.0076838732 0.66072655
0.015600086 -0.0093600452 0.6635313
0.015839517 -0.011087686 0.66642153
0.016086468 -0.012869179 0.66940242
0.016341241 -0.014707148 0.67247784
0.016604157 -0.016604155 0.67565149
0.016875731 -0.0185633 0.67892969
0.017156271 -0.020587534 0.68231606
0.017446365 -0.022680253 0.68581784
0.017746368 -0.024844915 0.68943918
0.01805694 -0.027085394 0.69318807
0.018378576 -0.029405743 0.6970706
0.018711803 -0.031810075 0.70109302
0.019057414 -0.034303337 0.70526493
0.019415952 -0.036890328 0.70959288
0.019788323 -0.03957665 0.71408772
0.020175258 -0.042368025 0.71875846
0.020577535 -0.045270592 0.72361439
0.020996274 -0.048291415 0.72866899
0.021432409 -0.051437765 0.73393363
0.021886947 -0.054717362 0.73942035
0.022361286 -0.058139354 0.74514621
0.022856532 -0.061712623 0.75112432
0.018687364 0.067954063 0.68029106
0.018571792 0.06584543 0.67902279
0.018457707 0.063762993 0.67777091
0.018344952 0.061705738 0.67653352
0.018233629 0.059673667 0.67531192
0.018123586 0.057665974 0.67410433
0.018014923 0.05568248 0.67291188
0.017907497 0.053722531 0.67173302
0.017801404 0.051785916 0.67056882
0.017696561 0.04987213 0.66941828
0.017592886 0.047980607 0.6682806
0.017490478 0.046111256 0.66715682
0.017389197 0.044263393 0.66604543
0.017289139 0.042436987 0.66494733
0.01719017 0.040631294 0.66386127
0.017092384 0.038846344 0.66278821
0.016995704 0.03708154 0.66172731
0.016900055 0.035336465 0.66067767
0.016805533 0.033611089 0.65964043
0.016712008 0.031904757 0.6586141
0.016619571 0.030217409 0.65759969
0.0165281 0.028548568 0.65659589
0.01643768 0.026898026 0.65560371
0.016348245 0.025265485 0.65462232
0.016259728 0.023650527 0.65365088
0.016172213 0.022053033 0.65269053
0.016085586 0.020472586 0.65173995
0.015999932 0.018909007 0.65079999
0.015915135 0.017361969 0.64986944
0.015831282 0.015831292 0.64894927
0.015748307 0.014316648 0.64803874
0.01566615 0.012817711 0.64713717
0.015584893 0.011334479 0.64624548
0.015504428 0.0098664463 0.6453625
0.015424835 0.0084135532 0.64448905
0.015346011 0.0069754422 0.64362407
0.015268033 0.0055520236 0.64276838
0.015190799 0.00414294 0.6419208
0.015308591 0.0027833581 0.64321345
0.01551785 0.0014106929 0.64550978
0.015732959 2.9802322e-08 0.6478703
0.015954114 -0.0014503896 0.65029722
0.016181527 -0.0029420853 0.65279275
0.016415566 -0.0044769943 0.65536106
0.016656423 -0.006056875 0.65800411
0.016904507 -0.0076838732 0.66072655
0.017160095 -0.0093600452 0.6635313
0.01742347 -0.011087686 0.66642153
0.017695114 -0.012869179 0.66940242
0.017975366 -0.014707148 0.67247784
0.018264573 -0.016604155 0.67565149
0.018563302 -0.0185633 0.67892969
0.0188719 -0.020587534 0.68231606
0.019191001 -0.022680253 0.68581784
0.019521005 -0.024844915 0.68943918
0.019862635 -0.027085394 0.69318807
0.020216433 -0.029405743 0.6970706
0.020582983 -0.031810075 0.70109302
0.020963157 -0.034303337 0.70526493
0.021357549 -0.036890328 0.70959288
0.021767158 -0.03957665 0.71408772
0.022192784 -0.042368025 0.71875846
0.022635289 -0.045270592 0.72361439
0.0230959 -0.048291415 0.72866899
0.023575651 -0.051437765 0.73393363
0.02407564 -0.054717362 0.73942035
0.024597416 -0.058139354 0.74514621
0.025142185 -0.061712623 0.75112432
0.020386213 0.067954063 0.68029106
0.020260137 0.06584543 0.67902279
0.02013568 0.063762993 0.67777091
0.020012673 0.061705738 0.67653352
0.01989123 0.059673667 0.67531192
0.019771183 0.057665974 0.67410433
0.019652644 0.05568248 0.67291188
0.01953545 0.053722531 0.67173302
0.019419713 0.051785916 0.67056882
0.019305339 0.04987213 0.66941828
0.019192239 0.047980607 0.6682806
0.019080522 0.046111256 0.66715682
0.018970033 0.044263393 0.66604543
0.01886088 0.042436987 0.66494733
0.018752914 0.040631294 0.66386127
0.018646237 0.038846344 0.66278821
0.018540768 0.03708154 0.66172731
0.018436424 0.035336465 0.66067767
0.01833331 0.033611089 0.65964043
0.018231282 0.031904757 0.6586141
0.018130442 0.030217409 0.65759969
0.018030653 0.028548568 0.65659589
0.017932015 0.026898026 0.65560371
0.017834449 0.025265485 0.65462232
0.017737884 0.023650527 0.65365088
0.017642414 0.022053033 0.65269053
0.017547913 0.020472586 0.65173995
0.017454471 0.018909007 0.65079999
0.017361967 0.017361969 0.64986944
0.017270489 0.015831292 0.64894927
0.017179972 0.014316648 0.64803874
0.017090345 0.012817711 0.64713717
0.017001702 0.011334479 0.64624548
0.016913923 0.0098664463 0.6453625
0.016827093 0.0084135532 0.64448905
0.016741103 0.0069754422 0.64362407
0.016656036 0.0055520236 0.64276838
0.016571781 0.00414294 0.6419208
0.016700281 0.0027833581 0.64321345
0.016928565 0.0014106929 0.64550978
0.017163228 2.9802322e-08 0.6478703
0.017404489 -0.0014503896 0.65029722
0.017652575 -0.0029420853 0.65279275
0.017907891 -0.0044769943 0.65536106
0.018170644 -0.006056875 0.65800411
0.01844128 -0.0076838732 0.66072655
0.018720102 -0.0093600452 0.6635313
0.019007422 -0.011087686 0.66642153
0.019303763 -0.012869179 0.66940242
0.01960949 -0.014707148 0.67247784
0.019924987 -0.016604155 0.67565149
0.020250876 -0.0185633 0.67892969
0.020587528 -0.020587534 0.68231606
0.020935638 -0.022680253 0.68581784
0.021295642 -0.024844915 0.68943918
0.02166833 -0.027085394 0.69318807
0.02205429 -0.029405743 0.6970706
0.022454163 -0.031810075 0.70109302
0.022868898 -0.034303337 0.70526493
0.023299145 -0.036890328 0.70959288
0.023745989 -0.03957665 0.71408772
0.02421031 -0.042368025 0.71875846
0.02469304 -0.045270592 0.72361439
0.025195528 -0.048291415 0.72866899
0.02571889 -0.051437765 0.73393363
0.026264336 -0.054717362 0.73942035
0.026833545 -0.058139354 0.74514621
0.027427837 -0.061712623 0.75112432
0.022085067 0.067954063 0.68029106
0.021948481 0.06584543 0.67902279
0.021813655 0.063762993 0.67777091
0.021680396 0.061705738 0.67653352
0.021548834 0.059673667 0.67531192
0.021418782 0.057665974 0.67410433
0.021290364 0.05568248 0.67291188
0.021163406 0.053722531 0.67173302
0.021038024 0.051785916 0.67056882
0.020914117 0.04987213 0.66941828
0.020791592 0.047980607 0.6682806
0.020670565 0.046111256 0.66715682
0.020550869 0.044263393 0.66604543
0.020432619 0.042436987 0.66494733
0.020315656 0.040631294 0.66386127
0.02020009 0.038846344 0.66278821
0.020085832 0.03708154 0.66172731
0.019972794 0.035336465 0.66067767
0.019861085 0.033611089 0.65964043
0.019750556 0.031904757 0.6586141
0.019641312 0.030217409 0.65759969
0.019533208 0.028548568 0.65659589
0.01942635 0.026898026 0.65560371
0.019320654 0.025265485 0.65462232
0.019216042 0.023650527 0.65365088
0.019112617 0.022053033 0.65269053
0.019010238 0.020472586 0.65173995
0.018909011 0.018909007 0.65079999
0.018808797 0.017361969 0.64986944
0.018709697 0.015831292 0.64894927
0.018611636 0.014316648 0.64803874
0.01851454 0.012817711 0.64713717
0.01841851 0.011334479 0.64624548
0.018323416 0.0098664463 0.6453625
0.01822935 0.0084135532 0.64448905
0.018136196 0.0069754422 0.64362407
0.01804404 0.0055520236 0.64276838
0.017952761 0.00414294 0.6419208
0.018091971 0.0027833581 0.64321345
0.018339278 0.0014106929 0.64550978
0.018593498 2.9802322e-08 0.6478703
0.018854864 -0.0014503896 0.65029722
0.019123623 -0.0029420853 0.65279275
0.019400215 -0.0044769943 0.65536106
0.019684864 -0.006056875 0.65800411
0.019978056 -0.0076838732 0.66072655
0.020280112 -0.0093600452 0.6635313
0.020591373 -0.011087686 0.66642153
0.020912409 -0.012869179 0.66940242
0.021243613 -0.014707148 0.67247784
0.021585403 -0.016604155 0.67565149
0.021938451 -0.0185633 0.67892969
0.022303155 -0.020587534 0.68231606
0.022680273 -0.022680253 0.68581784
0.02307028 -0.024844915 0.68943918
0.023474023 -0.027085394 0.69318807
0.023892147 -0.029405743 0.6970706
0.024325345 -0.031810075 0.70109302
0.024774637 -0.034303337 0.70526493
0.025240738 -0.036890328 0.70959288
0.025724821 -0.03957665 0.71408772
0.026227834 -0.042368025 0.71875846
0.026750796 -0.045270592 0.72361439
0.027295157 -0.048291415 0.72866899
0.027862132 -0.051437765 0.73393363
0.02845303 -0.054717362 0.73942035
0.029069671 -0.058139354 0.74514621
0.029713491 -0.061712623 0.75112432
0.023783917 0.067954063 0.68029106
0.023636827 0.06584543 0.67902279
0.023491627 0.063762993 0.67777091
0.023348119 0.061705738 0.67653352
0.023206437 0.059673667 0.67531192
0.023066381 0.057665974 0.67410433
0.022928083 0.05568248 0.67291188
0.02279136 0.053722531 0.67173302
0.022656333 0.051785916 0.67056882
0.022522897 0.04987213 0.66941828
0.022390947 0.047980607 0.6682806
0.02226061 0.046111256 0.66715682
0.022131706 0.044263393 0.66604543
0.022004358 0.042436987 0.66494733
0.021878397 0.040631294 0.66386127
0.021753944 0.038846344 0.66278821
0.021630896 0.03708154 0.66172731
0.021509161 0.035336465 0.66067767
0.02138886 0.033611089 0.65964043
0.02126983 0.031904757 0.6586141
0.021152182 0.030217409 0.65759969
0.021035763 0.028548568 0.65659589
0.020920685 0.026898026 0.65560371
0.020806858 0.025265485 0.65462232
0.020694198 0.023650527 0.65365088
0.020582817 0.022053033 0.65269053
0.020472564 0.020472586 0.65173995
0.020363549 0.018909007 0.65079999
0.020255627 0.017361969 0.64986944
0.020148905 0.015831292 0.64894927
0.0200433 0.014316648 0.64803874
0.019938737 0.012817711 0.64713717
0.019835318 0.011334479 0.64624548
0.019732909 0.0098664463 0.6453625
0.019631609 0.0084135532 0.64448905
0.019531287 0.0069754422 0.64362407
0.019432042 0.0055520236 0.64276838
0.019333743 0.00414294 0.6419208
0.019483659 0.0027833581 0.64321345
0.019749992 0.0014106929 0.64550978
0.020023767 2.9802322e-08 0.6478703
0.020305239 -0.0014503896 0.65029722
0.020594671 -0.0029420853 0.65279275
0.02089254 -0.0044769943 0.65536106
0.021199085 -0.006056875 0.65800411
0.021514827 -0.0076838732 0.66072655
0.021840118 -0.0093600452 0.6635313
0.022175323 -0.011087686 0.66642153
0.022521054 -0.012869179 0.66940242
0.02287774 -0.014707148 0.67247784
0.023245821 -0.016604155 0.67565149
0.023626022 -0.0185633 0.67892969
0.024018783 -0.020587534 0.68231606
0.024424911 -0.022680253 0.68581784
0.024844917 -0.024844915 0.68943918
0.025279718 -0.027085394 0.69318807
0.025730006 -0.029405743 0.6970706
0.026196525 -0.031810075 0.70109302
0.02668038 -0.034303337 0.70526493
0.027182333 -0.036890328 0.70959288
0.027703652 -0.03957665 0.71408772
0.02824536 -0.042368025 0.71875846
0.028808549 -0.045270592 0.72361439
0.029394783 -0.048291415 0.72866899
0.030005373 -0.051437765 0.73393363
0.030641725 -0.054717362 0.73942035
0.031305801 -0.058139354 0.74514621
0.031999145 -0.061712623 0.75112432
0.025482768 0.067954063 0.68029106
0.02532517 0.06584543 0.67902279
0.025169602 0.063762993 0.67777091
0.025015842 0.061705738 0.67653352
0.024864037 0.059673667 0.67531192
0.024713978 0.057665974 0.67410433
0.024565807 0.05568248 0.67291188
0.024419313 0.053722531 0.67173302
0.024274644 0.051785916 0.67056882
0.024131674 0.04987213 0.66941828
0.0239903 0.047980607 0.6682806
0.023850651 0.046111256 0.66715682
0.023712542 0.044263393 0.66604543
0.023576099 0.042436987 0.66494733
0.023441143 0.040631294 0.66386127
0.023307798 0.038846344 0.66278821
0.02317596 0.03708154 0.66172731
0.023045531 0.035336465 0.66067767
0.022916635 0.033611089 0.65964043
0.022789102 0.031904757 0.6586141
0.022663053 0.030217409 0.65759969
0.022538319 0.028548568 0.65659589
0.022415018 0.026898026 0.65560371
0.022293063 0.025265485 0.65462232
0.022172356 0.023650527 0.65365088
0.022053018 0.022053033 0.65269053
0.021934891 0.020472586 0.65173995
0.021818088 0.018909007 0.65079999
0.021702457 0.017361969 0.64986944
0.021588111 0.015831292 0.64894927
0.021474963 0.014316648 0.64803874
0.021362932 0.012817711 0.64713717
0.021252127 0.011334479 0.64624548
0.021142403 0.0098664463 0.6453625
0.021033866 0.0084135532 0.64448905
0.020926379 0.0069754422 0.64362407
0.020820044 0.0055520236 0.64276838
0.020714724 0.00414294 0.6419208
0.02087535 0.0027833581 0.64321345
0.021160707 0.0014106929 0.64550978
0.021454034 2.9802322e-08 0.6478703
0.021755612 -0.0014503896 0.65029722
0.022065718 -0.0029420853 0.65279275
0.022384865 -0.0044769943 0.65536106
0.022713304 -0.006056875 0.65800411
0.023051603 -0.0076838732 0.66072655
0.023400128 -0.0093600452 0.6635313
0.023759278 -0.011087686 0.66642153
0.024129704 -0.012869179 0.66940242
0.024511863 -0.014707148 0.67247784
0.024906235 -0.016604155 0.67565149
0.025313595 -0.0185633 0.67892969
0.025734408 -0.020587534 0.68231606
0.026169548 -0.022680253 0.68581784
0.026619554 -0.024844915 0.68943918
0.02708541 -0.027085394 0.69318807
0.027567863 -0.029405743 0.6970706
0.028067706 -0.031810075 0.70109302
0.028586123 -0.034303337 0.70526493
0.02912393 -0.036890328 0.70959288
0.029682485 -0.03957665 0.71408772
0.030262886 -0.042368025 0.71875846
0.030866301 -0.045270592 0.72361439
0.031494409 -0.048291415 0.72866899
0.032148615 -0.051437765 0.73393363
0.032830417 -0.054717362 0.73942035
0.033541929 -0.058139354 0.74514621
0.034284797 -0.061712623 0.75112432
0.027181618 0.067954063 0.68029106
0.027013516 0.06584543 0.67902279
0.026847573 0.063762993 0.67777091
0.026683565 0.061705738 0.67653352
0.02652164 0.059673667 0.67531192
0.026361577 0.057665974 0.67410433
0.026203526 0.05568248 0.67291188
0.026047269 0.053722531 0.67173302
0.025892951 0.051785916 0.67056882
0.025740452 0.04987213 0.66941828
0.025589654 0.047980607 0.6682806
0.025440697 0.046111256 0.66715682
0.025293378 0.044263393 0.66604543
0.025147839 0.042436987 0.66494733
0.025003884 0.040631294 0.66386127
0.024861651 0.038846344 0.66278821
0.024721023 0.03708154 0.66172731
0.0245819 0.035336465 0.66067767
0.024444412 0.033611089 0.65964043
0.024308374 0.031904757 0.6586141
0.024173923 0.030217409 0.65759969
0.024040872 0.028548568 0.65659589
0.023909353 0.026898026 0.65560371
0.023779266 0.025265485 0.65462232
0.023650514 0.023650527 0.65365088
0.023523219 0.022053033 0.65269053
0.023397217 0.020472586 0.65173995
0.023272626 0.018909007 0.65079999
0.023149287 0.017361969 0.64986944
0.023027319 0.015831292 0.64894927
0.022906628 0.014316648 0.64803874
0.022787126 0.012817711 0.64713717
0.022668935 0.011334479 0.64624548
0.022551896 0.0098664463 0.6453625
0.022436125 0.0084135532 0.64448905
0.02232147 0.0069754422 0.64362407
0.022208048 0.0055520236 0.64276838
0.022095706 0.00414294 0.6419208
0.022267042 0.0027833581 0.64321345
0.02257142 0.0014106929 0.64550978
0.022884306 2.9802322e-08 0.6478703
0.023205986 -0.0014503896 0.65029722
0.023536766 -0.0029420853 0.65279275
0.023877189 -0.0044769943 0.65536106
0.024227526 -0.006056875 0.65800411
0.024588374 -0.0076838732 0.66072655
0.024960136 -0.0093600452 0.6635313
0.02534323 -0.011087686 0.66642153
0.025738349 -0.012869179 0.66940242
0.026145987 -0.014707148 0.67247784
0.026566649 -0.016604155 0.67565149
0.027001169 -0.0185633 0.67892969
0.027450036 -0.020587534 0.68231606
0.027914183 -0.022680253 0.68581784
0.028394189 -0.024844915 0.68943918
0.028891103 -0.027085394 0.69318807
0.029405722 -0.029405743 0.6970706
0.029938886 -0.031810075 0.70109302
0.030491864 -0.034303337 0.70526493
0.031065525 -0.036890328 0.70959288
0.031661317 -0.03957665 0.71408772
0.032280412 -0.042368025 0.71875846
0.032924056 -0.045270592 0.72361439
0.033594038 -0.048291415 0.72866899
