# .PCD v0.7 - Point Cloud Data file format
VERSION 0.7
FIELDS x y z
SIZE 4 4 4
TYPE F F F
COUNT 1 1 1
WIDTH 1359
HEIGHT 1
VIEWPOINT 0 0 0 1 0 0 0
POINTS 1359
DATA ascii
0.025868146 -0.038802207 0.67038167
0.026105452 -0.040789753 0.67217195
0.026347246 -0.042814255 0.67399621
0.026593562 -0.044876635 0.6758545
0.026844524 -0.046977907 0.67774785
0.027100172 -0.049119055 0.67967653
0.027360834 -0.051301569 0.68164313
0.027626559 -0.053526461 0.68364787
0.027897498 -0.055794984 0.68569195
0.028173698 -0.0581083 0.68777573
0.028455527 -0.060467988 0.68990195
0.028743055 -0.06287542 0.6920712
0.029036339 -0.065331757 0.69428384
0.029335784 -0.067839026 0.69654298
0.02964147 -0.07039848 0.6988492
0.029953474 -0.073011577 0.70120311
0.028177168 0.076244086 0.6752972
0.027230015 0.07207948 0.66857171
0.026344471 0.068185687 0.66228384
0.025514707 0.064537197 0.65639198
0.024735618 0.06111151 0.65085995
0.024002697 0.057888865 0.64565575
0.02331196 0.054851651 0.64075112
0.022659866 0.05198437 0.63612086
0.022043262 0.049273163 0.6317426
0.021459268 0.046705455 0.62759584
0.020905472 0.044270396 0.62366354
0.020379543 0.041957855 0.61992913
0.019879425 0.039758861 0.61637795
0.019863844 0.038559228 0.61626732
0.019863844 0.037390739 0.61626732
0.019863844 0.036222279 0.61626732
0.019863844 0.035053849 0.61626732
0.019863844 0.03388536 0.61626732
0.019863844 0.03271693 0.61626732
0.019863844 0.03154847 0.61626732
0.019863844 0.030379981 0.61626732
0.019863844 0.029211551 0.61626732
0.019863844 0.028043091 0.61626732
0.019863844 0.026874632 0.61626732
0.019863844 0.025706142 0.61626738
0.019863844 0.024537683 0.61626732
0.019863844 0.023369223 0.61626732
0.019863844 0.022200793 0.61626732
0.019863844 0.021032333 0.61626732
0.019899219 0.019899219 0.6165185
0.020031054 0.01885277 0.61745465
0.020164696 0.017792374 0.61840355
0.020300133 0.016717762 0.61936527
0.020437403 0.015628576 0.62033993
0.020576488 0.014524579 0.62132758
0.020717533 0.013405442 0.62232912
0.020860525 0.012270898 0.62334436
0.021005506 0.011120558 0.62437379
0.021152459 0.0099540949 0.62541735
0.021301538 0.0087712407 0.62647587
0.021452734 0.0075715184 0.62754947
0.021606095 0.0063547492 0.62863839
0.021761602 0.0051203668 0.62974262
0.021919424 0.0038681328 0.63086325
0.022079552 0.00259763 0.63200027
0.022242036 0.0013083816 0.63315398
0.022406869 2.9802322e-08 0.63432443
0.022574224 -0.0013278723 0.63551271
0.022744101 -0.0026757717 0.63671893
0.022916554 -0.0040440857 0.63794351
0.023091571 -0.0054332912 0.63918626
0.023269353 -0.0068439245 0.64044857
0.023449892 -0.0082764328 0.64173055
0.023633258 -0.0097313225 0.64303255
0.023819441 -0.01120913 0.64435458
0.024008652 -0.012710452 0.64569807
0.024200894 -0.014235824 0.64706314
0.024396239 -0.015785784 0.64845014
0.024594687 -0.017360955 0.64985931
0.024796469 -0.018962026 0.65129209
0.025001587 -0.02058956 0.65274853
0.025210127 -0.022244215 0.65422928
0.025422098 -0.023926705 0.65573442
0.025637742 -0.025637776 0.65726566
0.025857078 -0.027378082 0.65882307
0.026080197 -0.02914843 0.6604073
0.026307115 -0.030949563 0.6620186
0.026538106 -0.032782346 0.66365886
0.026773186 -0.034647673 0.66532797
0.027012469 -0.03654629 0.66702706
0.027255978 -0.03847906 0.66875613
0.027504008 -0.040447056 0.67051733
0.027756596 -0.042451292 0.67231083
0.028013766 -0.044492424 0.67413694
0.028275849 -0.04657197 0.67599785
0.028542878 -0.048690796 0.67789388
0.028815001 -0.050850004 0.6798262
0.029092258 -0.053050607 0.68179488
0.029375007 -0.055294156 0.6838026
0.029663309 -0.057581723 0.68584967
0.029957216 -0.05991444 0.68793666
0.030257115 -0.062294066 0.6900661
0.030563081 -0.064721823 0.69223869
0.030875299 -0.067199171 0.69445556
0.031193839 -0.069727391 0.69671738
0.031519145 -0.07230863 0.6990273
0.031851307 -0.074944258 0.70138586
0.029320246 0.074929506 0.67184752
0.028351102 0.070877731 0.66534829
0.027443977 0.067085296 0.65926492
0.026593102 0.063527972 0.65355891
0.025793323 0.060184419 0.64819545
0.025040317 0.057036281 0.64314568
0.024330031 0.054066747 0.63838243
0.023658931 0.051261038 0.63388193
0.023023859 0.048605919 0.62962294
0.02242199 0.046089619 0.62558675
0.021850783 0.043701559 0.6217562
0.02130796 0.041432112 0.6181159
0.021255672 0.040149599 0.61776531
0.021255672 0.038968742 0.61776525
0.021255672 0.037787884 0.61776531
0.021255672 0.036606997 0.61776531
0.021255672 0.03542614 0.61776525
0.021255672 0.034245253 0.61776525
0.021255672 0.033064365 0.61776531
0.021255672 0.031883538 0.61776525
0.021255672 0.030702651 0.61776531
0.021255672 0.029521823 0.61776525
0.021255672 0.028340906 0.61776531
0.021255672 0.027160019 0.61776531
0.021255672 0.025979161 0.61776525
0.021255672 0.024798274 0.61776525
0.021255672 0.023617417 0.61776531
0.021255672 0.022436559 0.61776525
0.021255672 0.021255702 0.61776531
0.021255672 0.020074785 0.61776531
0.021255672 0.018893957 0.61776525
0.021255672 0.01771304 0.61776525
0.021361792 0.016614735 0.61847693
0.021505291 0.015531629 0.61943924
0.021650786 0.014433861 0.62041497
0.021798261 0.013321191 0.62140393
0.021947756 0.012193203 0.62240648
0.022099264 0.011049658 0.6234225
0.022252934 0.0098901987 0.62445307
0.022408755 0.0087145269 0.625498
0.022566715 0.0075222254 0.62655729
0.022726981 0.0063130558 0.62763208
0.022889536 0.005086571 0.62872219
0.023054434 0.0038423836 0.62982804
0.023221664 0.0025801659 0.6309495
0.023391401 0.0012995005 0.63208777
0.023563635 -0 0.63324279
0.023738425 -0.0013188124 0.63441497
0.023915762 -0.0026572943 0.6356042
0.024095837 -0.0040159822 0.63681185
0.024278643 -0.0053952634 0.63803774
0.024464246 -0.006795615 0.63928241
0.024652634 -0.0082175434 0.64054579
0.024844021 -0.0096615553 0.64182925
0.025038403 -0.011128187 0.64313281
0.025235847 -0.012617946 0.64445698
0.025436357 -0.014131308 0.64580154
0.025640156 -0.015668988 0.64716828
0.025847247 -0.017231494 0.64855707
0.026057707 -0.018819481 0.64996845
0.026271544 -0.020433426 0.65140247
0.026489004 -0.022074193 0.65286076
0.026710091 -0.023742318 0.65434343
0.026934903 -0.025438517 0.65585107
0.027163442 -0.027163446 0.65738368
0.027395982 -0.028917968 0.65894312
0.027632538 -0.0307028 0.66052949
0.027873214 -0.032518774 0.66214347
0.028118026 -0.034366459 0.66378522
0.028367272 -0.036247045 0.66545665
0.028620973 -0.038161308 0.66715807
0.028879259 -0.040110081 0.66889018
0.029142143 -0.042094201 0.6706531
0.029409964 -0.044114947 0.67244917
0.029682752 -0.046173155 0.6742785
0.029960645 -0.048269928 0.67614216
0.030243684 -0.050406128 0.67804027
0.030532233 -0.052583337 0.67997527
0.030826339 -0.054802358 0.68194759
0.031126056 -0.057064414 0.68395746
0.031431772 -0.059371114 0.68600768
0.031743553 -0.06172356 0.68809855
0.032061458 -0.064122915 0.69023049
0.032385919 -0.066571087 0.69240642
0.032717016 -0.069069266 0.69462681
0.033054955 -0.071619034 0.69689298
0.033399813 -0.07422182 0.6992057
0.030424474 0.073659271 0.66851419
0.029435325 0.069715232 0.6622299
0.028508469 0.066019595 0.65634143
0.027638203 0.062549591 0.65081239
0.026819494 0.059285194 0.64561105
0.026047895 0.056208611 0.64070886
0.02531945 0.053304106 0.63608092
0.024630573 0.050557464 0.63170439
0.023978252 0.047956526 0.62756002
0.023359591 0.045489758 0.62362957
0.022772051 0.043147057 0.61989683
0.022677381 0.041774124 0.61929536
0.022677381 0.040580601 0.61929536
0.022677381 0.039387047 0.61929536
0.022677381 0.038193494 0.61929536
0.022677381 0.036999941 0.61929536
0.022677325 0.035806298 0.619295
0.022677325 0.034612775 0.619295
0.022677325 0.033419192 0.619295
0.022677325 0.032225639 0.619295
0.022677325 0.031032145 0.619295
0.022677325 0.029838592 0.619295
0.022677325 0.028645039 0.619295
0.022677325 0.027451515 0.619295
0.022677325 0.026257992 0.619295
0.022677325 0.025064439 0.619295
0.022677325 0.023870856 0.619295
0.022677325 0.022677302 0.619295
0.022677325 0.021483779 0.619295
0.022677325 0.020290226 0.619295
0.022677325 0.019096702 0.619295
0.022677325 0.017903119 0.619295
0.022677325 0.016709626 0.619295
0.022677325 0.015516073 0.619295
0.022711741 0.014344245 0.61951369
0.02286542 0.013237864 0.62049007
0.023021249 0.012116462 0.62147999
0.02317922 0.010979652 0.62248361
0.023339372 0.0098270774 0.62350112
0.023501689 0.0086584985 0.6245324
0.023666345 0.007473588 0.6255784
0.023833321 0.0062719285 0.62663931
0.024002673 0.0050531626 0.62771523
0.024174385 0.0038170218 0.62880611
0.024348635 0.0025630295 0.62991315
0.024525415 0.0012907982 0.63103628
0.02470478 2.9802322e-08 0.6321758
0.024886722 -0.0013098121 0.63333178
0.025071433 -0.0026390851 0.63450521
0.025258904 -0.0039882064 0.63569629
0.025449129 -0.0053577125 0.63690484
0.025642313 -0.0067479908 0.63813215
0.025838453 -0.0081595182 0.63937831
0.026037619 -0.0095928013 0.6406436
0.026239801 -0.011048317 0.64192808
0.026445227 -0.012526721 0.64323318
0.026653893 -0.014028341 0.64455891
0.026865875 -0.015553921 0.64590567
0.02708118 -0.01710391 0.64727354
0.027300043 -0.018678963 0.64866406
0.027522476 -0.020279706 0.65007716
0.027748559 -0.021906763 0.65151358
0.027978301 -0.023560673 0.65297318
0.028211972 -0.025242299 0.65445769
0.028449573 -0.026952207 0.65596718
0.028691214 -0.028691202 0.65750241
0.028936898 -0.030459881 0.65906334
0.029186925 -0.032259196 0.66065174
0.02944131 -0.034089923 0.66226792
0.029700167 -0.035952836 0.66391248
0.029963516 -0.037848651 0.66558558
0.030231679 -0.039778501 0.66728926
0.030504685 -0.041743279 0.66902381
0.030782668 -0.043743789 0.67078984
0.031065654 -0.045780957 0.67258763
0.031354003 -0.047856092 0.67441958
0.031647753 -0.04997012 0.67628586
0.031947061 -0.052124143 0.67818743
0.032251969 -0.054319084 0.68012458
0.032562871 -0.056556553 0.68209982
0.032879822 -0.058837563 0.68411344
0.033202887 -0.061163217 0.68616593
0.033532485 -0.063535273 0.68825996
0.033868693 -0.065954864 0.69039595
0.03421158 -0.068423152 0.69257432
0.034561615 -0.070942253 0.69479823
0.034918889 -0.073513478 0.69706804
0.032568172 0.076535195 0.67178786
0.031491987 0.072431564 0.66529256
0.030484652 0.068590462 0.65921271
0.029539671 0.064987302 0.65350926
0.028651601 0.061600953 0.64814925
0.02781537 0.058412313 0.64310217
0.027026568 0.055404454 0.63834137
0.026281267 0.052562535 0.63384306
0.025575971 0.049873173 0.62958622
0.024907542 0.04732433 0.62555194
0.024273161 0.044905365 0.62172306
0.024129884 0.043433785 0.62085825
0.024129884 0.042227298 0.62085831
0.024129884 0.041020781 0.62085831
0.024129884 0.039814353 0.62085831
0.024129884 0.038607806 0.62085831
0.024129884 0.037401319 0.62085831
0.024129884 0.036194831 0.62085831
0.024129884 0.034988314 0.62085831
0.024129884 0.033781826 0.62085831
0.024129884 0.032575369 0.62085831
0.024129884 0.031368852 0.62085831
0.024129884 0.030162364 0.62085825
0.024129884 0.028955877 0.62085831
0.024129884 0.02774933 0.62085831
0.024129884 0.026542872 0.62085831
0.024129884 0.025336385 0.62085831
0.024129884 0.024129868 0.62085831
0.024129884 0.02292341 0.62085831
0.024129884 0.021716893 0.62085831
0.024129884 0.020510405 0.62085831
0.024129884 0.019303888 0.62085831
0.024129884 0.018097401 0.62085831
0.024129884 0.016890913 0.62085831
0.024129884 0.015684456 0.62085831
0.024129884 0.014477909 0.62085831
0.024129884 0.013271451 0.62085831
0.024129884 0.012064934 0.62085831
0.024245514 0.010910481 0.62155616
0.024411971 0.0097648203 0.62256086
0.02458073 0.008603245 0.62357944
0.024751836 0.0074255466 0.62461215
0.024925277 0.006231308 0.62565893
0.025101233 0.0050202608 0.62672091
0.025279691 0.0037919581 0.62779796
0.025460703 0.0025460422 0.62889051
0.02564426 0.0012822151 0.62999833
0.025830548 -0 0.63112271
0.026019566 -0.0013009608 0.63226354
0.026211368 -0.0026211441 0.63342118
0.026405949 -0.0039608777 0.63459551
0.026603512 -0.0053207278 0.63578802
0.026804056 -0.0067009926 0.63699836
0.027007643 -0.0081022382 0.63822711
0.027214272 -0.009525001 0.63947427
0.027424164 -0.010969639 0.64074105
0.027637322 -0.012436777 0.64202756
0.027853735 -0.013926864 0.64333373
0.028073646 -0.015440524 0.64466107
0.028297059 -0.016978204 0.64600939
0.028524056 -0.018540621 0.64737946
0.028754635 -0.02012825 0.64877117
0.028989065 -0.021741837 0.65018606
0.029227346 -0.023381859 0.6516242
0.029469578 -0.02504915 0.65308619
0.029715765 -0.026744217 0.65457213
0.029966196 -0.028467894 0.65608352
0.030220881 -0.030220896 0.65762073
0.030479936 -0.032003939 0.65918422
0.030743368 -0.033817708 0.66077423
0.031011494 -0.035663217 0.6623925
0.03128434 -0.037541211 0.66403925
0.03156203 -0.039452523 0.66571528
0.031844586 -0.041397989 0.66742063
0.032132354 -0.043378681 0.66915745
0.032425374 -0.045395523 0.67092603
0.032723784 -0.047449499 0.67272711
0.033027627 -0.049541414 0.6745609
0.03333728 -0.051672786 0.67642987
0.033652794 -0.053844482 0.67833412
0.033974338 -0.056057662 0.68027484
0.034301959 -0.05831334 0.68225223
0.034636088 -0.060613126 0.68426883
0.034976795 -0.062958241 0.68632519
0.035324134 -0.065349638 0.68842155
0.035678577 -0.067789286 0.69056082
0.036040206 -0.070278406 0.69274354
0.036409099 -0.07281819 0.69496989
0.033617023 0.075238109 0.66845649
0.032524399 0.071243942 0.66217601
0.031500559 0.067501187 0.65629083
0.030539215 0.063986897 0.65076488
0.029634807 0.060680807 0.64556623
0.028782427 0.057564855 0.6406666
0.027977632 0.054623008 0.63604057
0.027216693 0.051841319 0.6316666
0.026496049 0.049206972 0.62752426
0.025812585 0.046708494 0.6235956
0.02561431 0.045129985 0.62245589
0.02561431 0.043910265 0.62245589
0.02561431 0.042690545 0.62245584
0.02561431 0.041470766 0.62245589
0.02561431 0.040251076 0.62245589
0.02561431 0.039031297 0.62245589
0.02561431 0.037811577 0.62245589
0.02561431 0.036591887 0.62245584
0.02561431 0.035372108 0.62245589
0.02561431 0.034152448 0.62245589
0.02561431 0.032932669 0.62245595
0.02561431 0.031712949 0.62245589
0.02561431 0.03049323 0.62245589
0.02561431 0.02927348 0.62245589
0.02561431 0.028053761 0.62245589
0.02561431 0.026834071 0.62245584
0.02561431 0.025614321 0.62245589
0.02561431 0.024394572 0.62245584
0.02561431 0.023174882 0.62245584
0.02561431 0.021955103 0.62245589
0.02561431 0.020735383 0.62245584
0.02561431 0.019515663 0.62245589
0.02561431 0.018295944 0.62245589
0.02561431 0.017076224 0.62245584
0.02561431 0.015856475 0.62245589
0.02561431 0.014636755 0.62245584
0.02561431 0.013416976 0.62245589
0.02561431 0.012197286 0.62245589
0.02561431 0.010977566 0.62245589
0.02561431 0.0097578466 0.62245589
0.025646018 0.008548677 0.62263811
0.025823399 0.0073781312 0.62365776
0.026003255 0.0061912537 0.62469161
0.026185628 0.0049877465 0.62573987
0.026370512 0.0037671924 0.62680262
0.026558096 0.0025293231 0.62788093
0.026748367 0.0012737513 0.62897456
0.026941383 -0 0.6300841
0.027137134 -0.0012922287 0.63120925
0.027335823 -0.0026034117 0.63235134
0.027537443 -0.0039339364 0.63351029
0.027742058 -0.0052841902 0.63468647
0.027949659 -0.0066546798 0.63587976
0.028160471 -0.0080458522 0.63709152
0.028374486 -0.0094581544 0.63832176
0.028591782 -0.010892153 0.63957077
0.028812345 -0.012348145 0.64083862
0.029036423 -0.013826877 0.64212662
0.029264014 -0.015328735 0.64343482
0.0294952 -0.016854376 0.64476371
0.029729979 -0.018404275 0.64611328
0.029968619 -0.019979089 0.64748502
0.030211121 -0.021579355 0.64887893
0.030457575 -0.023205787 0.65029562
0.030707993 -0.024858832 0.65173501
0.030962657 -0.026539415 0.6531989
0.03122158 -0.028248101 0.65468717
0.031484868 -0.029985577 0.65620065
0.031752534 -0.031752527 0.65773916
0.032024898 -0.033549905 0.65930474
0.03230197 -0.035378367 0.66089743
0.032583881 -0.037238747 0.66251791
0.032870647 -0.039131731 0.66416627
0.033162612 -0.041058481 0.6658445
0.033459812 -0.043019772 0.66755283
0.033762276 -0.045016378 0.66929144
0.034070373 -0.047049582 0.67106241
0.034384143 -0.049120188 0.67286599
0.03470375 -0.051229358 0.67470312
0.035029225 -0.053377867 0.67657405
0.035360996 -0.055567265 0.67848104
0.035699107 -0.057798564 0.68042463
0.036043745 -0.060072899 0.68240559
0.036394969 -0.062391371 0.68442452
0.036753245 -0.064755708 0.68648392
0.03711864 -0.067167044 0.68858427
0.037491236 -0.0696266 0.69072604
0.037871532 -0.072136253 0.69291192
0.038259622 -0.074697345 0.69514281
0.034631032 0.073984444 0.66523683
0.033523496 0.070094556 0.6591599
0.032484703 0.066445976 0.6534602
0.031508356 0.063016713 0.64810318
0.030588984 0.059787571 0.64305872
0.029721744 0.056741506 0.6383003
0.028902324 0.053863406 0.63380426
0.028126871 0.051139772 0.6295495
0.027391946 0.048558444 0.62551701
0.027131664 0.046863794 0.62408894
0.027131664 0.045630515 0.62408888
0.027131664 0.044397295 0.62408888
0.027131664 0.043164015 0.62408888
0.027131664 0.041930765 0.62408894
0.027131664 0.040697485 0.62408888
0.027131664 0.039464265 0.62408888
0.027131664 0.038230956 0.62408888
0.027131664 0.036997736 0.62408894
0.027131664 0.035764486 0.62408888
0.027131664 0.034531206 0.62408894
0.027131593 0.033297867 0.62408853
0.027131593 0.032064617 0.62408853
0.027131593 0.030831367 0.62408853
0.027131593 0.029598087 0.62408853
0.027131593 0.028364837 0.62408853
0.027131593 0.027131617 0.62408853
0.027131593 0.025898337 0.62408853
0.027131593 0.024665117 0.62408853
0.027131593 0.023431838 0.62408853
0.027131593 0.022198558 0.62408853
0.027131593 0.020965308 0.62408853
0.027131593 0.019732088 0.62408853
0.027131593 0.018498808 0.62408853
0.027131593 0.017265528 0.62408853
0.027131593 0.016032308 0.62408853
0.027131593 0.014799058 0.62408853
0.027131593 0.013565779 0.62408853
0.027131593 0.012332559 0.62408853
0.027131593 0.011099279 0.62408853
0.027131593 0.009866029 0.62408853
0.027131593 0.0086328089 0.62408853
0.027131593 0.0073995292 0.62408853
0.027131593 0.0061662495 0.62408853
0.027256001 0.0049556196 0.62477112
0.027447268 0.0037428141 0.62582058
0.027641235 0.0025128424 0.62688482
0.027837891 0.0012653768 0.62796384
0.02803744 2.9802322e-08 0.62905878
0.02823987 -0.0012836158 0.63016945
0.028445246 -0.0025859177 0.63129628
0.028653551 -0.0039073229 0.63243926
0.028865008 -0.0052481592 0.63359952
0.029079612 -0.0066089928 0.63477695
0.029297428 -0.0079902112 0.63597214
0.02951845 -0.0093922317 0.63718486
0.029742917 -0.01081562 0.63841647
0.029970823 -0.012260795 0.63966691
0.030202249 -0.013728261 0.64093673
0.030437188 -0.015218586 0.64222586
0.030675901 -0.016732305 0.64353561
0.03091839 -0.018269986 0.64486611
0.031164739 -0.019832134 0.64621776
0.031414952 -0.021419287 0.6475907
0.031669315 -0.023032218 0.64898634
0.031927828 -0.024671525 0.65040475
0.032190595 -0.026337773 0.65184653
0.032457627 -0.028031588 0.65331167
0.032729223 -0.029753834 0.65480185
0.033005405 -0.031505167 0.65631723
0.033286288 -0.033286273 0.65785843
0.033571884 -0.035097837 0.65942538
0.033862535 -0.036940932 0.66102016
0.034158263 -0.038816214 0.66264278
0.0344592 -0.040724486 0.664294
0.03476537 -0.042666584 0.6659739
0.035077147 -0.044643641 0.66768456
0.035394568 -0.046656489 0.6694262
0.035717789 -0.048706114 0.67119968
0.036046837 -0.05079326 0.6730051
0.036382135 -0.052919477 0.67484486
0.036723729 -0.055085599 0.67671907
0.037071664 -0.057292581 0.67862821
0.037426393 -0.05954197 0.68057454
0.037787974 -0.061834842 0.68255842
0.03815661 -0.064172477 0.68458116
0.038532369 -0.066555917 0.68664289
0.038915742 -0.068986982 0.68874639
0.039306827 -0.071466953 0.69089216
0.039705697 -0.073996961 0.69308072
0.036807671 0.076815993 0.66839898
0.035611689 0.072771728 0.66212207
0.034490976 0.068981975 0.65624022
0.033438653 0.065423459 0.65071738
0.032448642 0.062075675 0.64552146
0.031515568 0.058920413 0.6406244
0.030634569 0.055941403 0.63600069
0.029801566 0.053124517 0.63162887
0.029012667 0.050456822 0.62748849
0.028683057 0.048636466 0.62575859
0.028683057 0.047389418 0.62575853
0.028682981 0.046142191 0.62575817
0.028682981 0.044895113 0.62575817
0.028682981 0.043648005 0.62575817
0.028682981 0.042400897 0.62575817
0.028682981 0.041153848 0.62575817
0.028682981 0.03990674 0.62575817
0.028682981 0.038659662 0.62575823
0.028682981 0.037412614 0.62575817
0.028682981 0.036165506 0.62575817
0.028682981 0.034918398 0.62575817
0.028682981 0.033671319 0.62575817
0.028682981 0.032424241 0.62575817
0.028682981 0.031177163 0.62575817
0.028682981 0.029930115 0.62575817
0.028682981 0.028683007 0.62575817
0.028682981 0.027435869 0.62575817
0.028682981 0.026188791 0.62575817
0.028682981 0.024941713 0.62575817
0.028682981 0.023694634 0.62575817
0.028682981 0.022447556 0.62575817
0.028682981 0.021200448 0.62575817
0.028682981 0.01995337 0.62575817
0.028682981 0.018706292 0.62575817
0.028682981 0.017459214 0.62575817
0.028682981 0.016212106 0.62575817
0.028682981 0.014965057 0.62575817
0.028682981 0.013717949 0.62575817
0.028682981 0.012470871 0.62575817
0.028682981 0.011223793 0.62575823
0.028682981 0.0099767148 0.62575817
0.028682981 0.0087295771 0.62575817
0.028682981 0.0074824691 0.62575817
0.028682981 0.0062354207 0.62575817
0.028682981 0.0049883425 0.62575817
0.028682981 0.0037412643 0.62575817
0.028710257 0.0024965405 0.62590134
0.02891326 0.0012570918 0.62696677
0.029119154 -0 0.62804735
0.029328005 -0.001275152 0.62914348
0.02953979 -0.002568692 0.63025492
0.029754737 -0.0038810372 0.63138306
0.029972835 -0.0052126944 0.63252771
0.030194156 -0.0065639615 0.63368928
0.030418683 -0.0079353154 0.63486767
0.030646661 -0.0093272328 0.63606417
0.030878084 -0.010740161 0.63727868
0.031113025 -0.012174666 0.63851172
0.031351481 -0.013631076 0.63976324
0.03159371 -0.015110016 0.64103454
0.031839713 -0.016611993 0.64232564
0.032089479 -0.018137515 0.64363647
0.032343298 -0.019687206 0.64496857
0.032601159 -0.021261632 0.64632189
0.032863166 -0.022861362 0.64769703
0.033129316 -0.02448687 0.64909381
0.033399917 -0.02613911 0.65051407
0.033674974 -0.027818441 0.65195757
0.033954598 -0.029525727 0.65342516
0.034238797 -0.031261504 0.6549167
0.034527905 -0.033026665 0.656434
0.034821935 -0.034821928 0.65797716
0.035121016 -0.036648005 0.65954685
0.035425164 -0.038505614 0.66114312
0.035734743 -0.040395826 0.66276789
0.03604978 -0.042319268 0.66442126
0.036370426 -0.044277012 0.66610408
0.036696699 -0.046269774 0.66781652
0.037029002 -0.048298687 0.66956055
0.037367381 -0.050364733 0.67133647
0.037712004 -0.052468866 0.67314506
0.038062908 -0.054612011 0.67498672
0.038420539 -0.056795567 0.67686373
0.038784955 -0.059020549 0.67877626
0.039156206 -0.061287969 0.68072468
0.039534781 -0.063599408 0.6827116
0.039920744 -0.065956026 0.68473721
0.04031432 -0.068359047 0.6868028
0.040715579 -0.070809692 0.6889087
0.041125063 -0.073309898 0.69105786
0.037768111 0.075536221 0.6651805
0.036560711 0.071598083 0.65910774
0.035428118 0.067903906 0.65341127
0.034363586 0.064431727 0.64805704
0.033361163 0.061162114 0.64301527
0.032415565 0.058077872 0.63825923
0.031522095 0.055163652 0.63376546
0.030676557 0.052405775 0.62951273
0.030269563 0.050449252 0.62746572
0.030269563 0.049188077 0.62746572
0.030269563 0.047926784 0.62746572
0.030269563 0.046665609 0.62746572
0.030269563 0.045404315 0.62746572
0.030269563 0.044143111 0.62746572
0.030269563 0.042881906 0.62746567
0.030269563 0.041620642 0.62746572
0.030269563 0.040359378 0.62746572
0.030269563 0.039098173 0.62746572
0.030269563 0.037836969 0.62746567
0.030269563 0.036575705 0.62746572
0.030269563 0.03531453 0.62746572
0.030269563 0.034053236 0.62746572
0.030269563 0.032792032 0.62746572
0.030269563 0.031530768 0.62746572
0.030269563 0.030269593 0.62746572
0.030269563 0.029008329 0.62746567
0.030269563 0.027747095 0.62746572
0.030269563 0.02648586 0.62746572
0.030269563 0.025224656 0.62746572
0.030269563 0.023963392 0.62746572
0.030269563 0.022702187 0.62746572
0.030269563 0.021440923 0.62746572
0.030269563 0.020179719 0.62746572
0.030269563 0.018918455 0.62746572
0.030269563 0.01765725 0.62746572
0.030269563 0.016396016 0.62746572
0.030269563 0.015134811 0.62746572
0.030269563 0.013873518 0.62746572
0.030269563 0.012612343 0.62746572
0.030269563 0.011351079 0.62746572
0.030269563 0.010089874 0.62746572
0.030269563 0.0088285804 0.62746572
0.030269563 0.0075674057 0.62746572
0.030269563 0.0063061416 0.62746572
0.030269563 0.0050449371 0.62746572
0.030269563 0.0037837029 0.62746567
0.030269563 0.0025224686 0.62746572
0.030269563 0.0012612343 0.62746572
0.030269563 -0 0.62746572
0.03040174 -0.0012667179 0.62813044
0.030619908 -0.0025516748 0.62922776
0.030841228 -0.0038551688 0.63034099
0.031065684 -0.0051776171 0.63146991
0.031293519 -0.0065194964 0.6326158
0.031524722 -0.0078811646 0.63377869
0.031759366 -0.009263128 0.63495886
0.031997439 -0.010665774 0.63615626
0.032239202 -0.0120897 0.63737226
0.032484643 -0.013535231 0.63860673
0.03273385 -0.015002996 0.63986009
0.032986816 -0.01649341 0.64113241
0.03324382 -0.0180071 0.64242506
0.033504859 -0.019544512 0.64373803
0.033770029 -0.021106273 0.64507169
0.034039326 -0.022692859 0.64642614
0.034313057 -0.024305075 0.64780295
0.034591231 -0.025943428 0.64920205
0.034873839 -0.027608454 0.65062344
0.035161216 -0.029301018 0.65206885
0.035453368 -0.031021684 0.65353823
0.035750415 -0.03277123 0.65503228
0.036052369 -0.03455019 0.656551
0.036359578 -0.036359608 0.65809613
0.036672074 -0.038200051 0.65966785
0.036989983 -0.040072501 0.66126686
0.037313331 -0.041977465 0.66289312
0.037642509 -0.043916255 0.66454875
0.037977543 -0.045889527 0.66623384
0.038318597 -0.047898293 0.66794926
0.038665701 -0.049943209 0.66969502
0.039019283 -0.052025676 0.67147338
0.039379396 -0.054146647 0.67328465
0.039746214 -0.056307137 0.67512953
0.04011979 -0.058508009 0.67700851
0.040500596 -0.060750872 0.67892379
0.040888701 -0.06303677 0.68087584
0.041284166 -0.065366596 0.68286496
0.041687515 -0.067742199 0.68489355
0.042098816 -0.07016471 0.68696225
0.042518314 -0.072635472 0.68907219
0.042946097 -0.075155675 0.69122374
0.038697202 0.07429862 0.66206813
0.037479728 0.070461899 0.65618968
0.036336526 0.066859215 0.65066981
0.035261001 0.063469797 0.6454767
0.034247212 0.060275108 0.64058173
0.033290185 0.057259113 0.63596082
0.032385193 0.05440712 0.63159108
0.031892549 0.052303791 0.62921244
0.031892549 0.051028073 0.62921244
0.031892549 0.049752384 0.62921244
0.031892549 0.048476666 0.62921244
0.031892549 0.047200978 0.62921244
0.031892549 0.045925289 0.62921238
0.031892549 0.044649571 0.62921238
0.031892549 0.043373883 0.62921238
0.031892549 0.042098165 0.6292125
0.031892549 0.040822446 0.62921244
0.031892549 0.039546758 0.62921244
0.031892549 0.03827107 0.62921244
0.031892549 0.036995381 0.62921244
0.031892549 0.035719663 0.62921244
0.031892549 0.034443974 0.62921244
0.031892464 0.033168167 0.62921202
0.031892464 0.031892478 0.62921202
0.031892464 0.03061679 0.62921202
0.031892464 0.029341072 0.62921202
0.031892464 0.028065383 0.62921202
0.031892464 0.026789665 0.62921202
0.031892464 0.025513977 0.62921202
0.031892464 0.024238288 0.62921202
0.031892464 0.02296257 0.62921202
0.031892464 0.021686882 0.62921202
0.031892464 0.020411134 0.62921202
0.031892464 0.019135475 0.62921202
0.031892464 0.017859787 0.62921202
0.031892464 0.016584069 0.62921202
0.031892464 0.01530838 0.62921202
0.031892464 0.014032662 0.62921202
0.031892464 0.012756974 0.62921202
0.031892464 0.011481285 0.62921202
0.031892464 0.010205597 0.62921202
0.031892464 0.0089299083 0.62921202
0.031892464 0.0076541901 0.62921202
0.031892464 0.0063785017 0.62921202
0.031892464 0.0051028132 0.62921202
0.031892464 0.0038270652 0.62921202
0.031892464 0.0025514066 0.62921202
0.031892464 0.0012756884 0.62921202
0.031892464 -0 0.62921202
0.031892464 -0.0012756884 0.62921202
0.031892464 -0.0025514066 0.62921196
0.031913225 -0.0038295984 0.62931228
0.032144025 -0.0051430464 0.63042665
0.032378182 -0.0064756572 0.63155729
0.032615688 -0.007827729 0.63270402
0.032856796 -0.0091998875 0.63386816
0.033101492 -0.01059249 0.6350497
0.03334986 -0.012005955 0.63624895
0.033601891 -0.013440758 0.63746583
0.033857856 -0.014897496 0.6387018
0.034117751 -0.016376555 0.63995665
0.034381665 -0.017878443 0.64123088
0.034649592 -0.019403785 0.6425246
0.034921832 -0.020953089 0.64383906
0.035198387 -0.02252695 0.64517438
0.035479356 -0.024125993 0.64653105
0.035764735 -0.025750577 0.64790899
0.036054853 -0.027401686 0.64930981
0.036349718 -0.029079765 0.65073353
0.036649447 -0.030785561 0.65218079
0.036954042 -0.032519549 0.65365148
0.037263863 -0.034282744 0.65514743
0.037578918 -0.036075741 0.65666866
0.037899345 -0.037899315 0.65821576
0.038225166 -0.039754182 0.65978897
0.038556758 -0.041641295 0.66139007
0.038894158 -0.043561429 0.66301918
0.039237384 -0.045515358 0.66467643
0.03958685 -0.047504216 0.66636384
0.0399426 -0.049528837 0.66808152
0.040304802 -0.051590145 0.66983038
0.040673494 -0.053689003 0.67161059
0.041049134 -0.055826843 0.67342436
0.041431777 -0.058004498 0.67527193
0.041821625 -0.060223162 0.67715424
0.042218726 -0.062483758 0.67907166
0.042623591 -0.064787894 0.68102652
0.043036297 -0.067136616 0.68301922
0.043456916 -0.069531083 0.68505013
0.043886002 -0.071973056 0.68712193
0.044323646 -0.074463725 0.68923503
0.040903468 0.077087313 0.66512489
0.039596204 0.073100716 0.65905559
0.038369913 0.069361001 0.65336227
0.037217297 0.065845996 0.64801097
0.036131907 0.062536001 0.64297187
0.03510803 0.059413552 0.63821828
0.034140587 0.056463301 0.63372672
0.033553209 0.054201335 0.63099968
0.033553209 0.052910835 0.63099968
0.033553209 0.051620305 0.63099968
0.033553209 0.050329834 0.63099968
0.033553209 0.049039334 0.63099968
0.033553209 0.047748804 0.63099968
0.03355312 0.046458155 0.63099927
0.03355312 0.045167685 0.63099927
0.03355312 0.043877155 0.63099927
0.03355312 0.042586654 0.63099927
0.03355312 0.041296154 0.63099921
0.03355312 0.040005684 0.63099927
0.03355312 0.038715124 0.63099927
0.03355312 0.037424654 0.63099927
0.03355312 0.036134094 0.63099927
0.03355312 0.034843653 0.63099933
0.03355312 0.033553123 0.63099921
0.03355312 0.032262594 0.63099927
0.03355312 0.030972093 0.63099927
0.03355312 0.029681623 0.63099921
0.03355312 0.028391093 0.63099927
0.03355312 0.027100563 0.63099927
0.03355312 0.025810093 0.63099921
0.03355312 0.024519563 0.63099927
0.03355312 0.023229092 0.63099921
0.03355312 0.021938592 0.63099927
0.03355312 0.020648062 0.63099927
0.03355312 0.019357562 0.63099921
0.03355312 0.018067062 0.63099927
0.03355312 0.016776562 0.63099927
0.03355312 0.015486062 0.63099921
0.03355312 0.014195532 0.63099927
0.03355312 0.012905031 0.63099921
0.03355312 0.011614561 0.63099921
0.03355312 0.010324031 0.63099927
0.03355312 0.009033531 0.63099921
0.03355312 0.0077430308 0.63099921
0.03355312 0.0064525306 0.63099927
0.03355312 0.0051620305 0.63099927
0.03355312 0.0038715005 0.63099921
0.03355312 0.0025810003 0.63099927
0.03355312 0.0012905002 0.63099927
0.03355312 -0 0.63099921
0.03355312 -0.00129053 0.63099927
0.03355312 -0.0025810003 0.63099927
0.03355312 -0.0038715303 0.63099927
0.03355312 -0.0051620305 0.63099927
0.03355312 -0.0064525008 0.63099927
0.033692054 -0.0077750683 0.63164431
0.033939429 -0.0091375411 0.63279277
0.034190368 -0.010520101 0.6339578
0.034445141 -0.011923343 0.63514066
0.034703743 -0.013347596 0.63634127
0.034966253 -0.014793426 0.63756001
0.035232667 -0.01626122 0.63879693
0.035503272 -0.017751634 0.64005333
0.035778072 -0.019265145 0.64132905
0.036057152 -0.0208022 0.6426248
0.036340516 -0.022363394 0.64394033
0.036628477 -0.023949385 0.64527726
0.036921039 -0.025560707 0.64663553
0.03721831 -0.027197957 0.64801562
0.037520293 -0.028861761 0.64941776
0.037827335 -0.030552864 0.65084326
0.038139444 -0.032271832 0.65229225
0.038456745 -0.03401944 0.65376544
0.038779244 -0.035796255 0.65526271
0.039107326 -0.037603199 0.65678591
0.039441008 -0.039440989 0.65833509
0.03978043 -0.041310459 0.65991092
0.040125616 -0.043212175 0.66151345
0.040476978 -0.045147359 0.66314477
0.040834546 -0.047116816 0.66480482
0.041198488 -0.049121261 0.66649449
0.041568834 -0.051161647 0.66821396
0.041946046 -0.053239226 0.66996521
0.042330164 -0.055354863 0.67174858
0.042721383 -0.057509571 0.67356491
0.043119747 -0.059704244 0.67541444
0.043525767 -0.061940521 0.67729944
0.043939505 -0.064219266 0.67922032
0.044361025 -0.066541493 0.68117732
0.044790871 -0.068909079 0.683173
0.045229137 -0.071322858 0.68520772
0.045675885 -0.073784143 0.68728191
0.041780934 0.075824678 0.66201437
0.040466808 0.071940988 0.65613919
0.039232828 0.068294168 0.65062237
0.03807177 0.064863026 0.64543152
0.036977559 0.061629266 0.64053953
0.035944488 0.058576167 0.635921
0.035252776 0.056143284 0.63282847
0.035252776 0.054837674 0.63282847
0.035252776 0.053532004 0.63282847
0.035252776 0.052226305 0.63282847
0.035252776 0.050920695 0.63282847
0.035252776 0.049615055 0.63282847
0.035252776 0.048309326 0.63282847
0.035252776 0.047003686 0.63282847
0.035252776 0.045698047 0.63282847
0.035252776 0.044392377 0.63282841
0.035252776 0.043086737 0.63282847
0.035252776 0.041781068 0.63282847
0.035252776 0.040475428 0.63282847
0.035252776 0.039169759 0.63282847
0.035252776 0.037864089 0.63282847
0.035252776 0.036558449 0.63282847
0.035252776 0.03525275 0.63282847
0.035252776 0.03394711 0.63282847
0.035252776 0.0326415 0.63282847
0.035252776 0.031335831 0.63282847
0.035252776 0.030030131 0.63282847
0.035252776 0.028724492 0.63282847
0.035252776 0.027418852 0.63282847
0.035252776 0.026113153 0.63282847
0.035252776 0.024807513 0.63282847
0.035252776 0.023501843 0.63282847
0.035252776 0.022196174 0.63282847
0.035252776 0.020890564 0.63282847
0.035252679 0.019584805 0.632828
0.035252679 0.018279165 0.63282806
0.035252679 0.016973525 0.63282806
0.035252679 0.015667856 0.632828
0.035252679 0.014362216 0.63282806
0.035252679 0.013056546 0.63282806
0.035252776 0.011750937 0.63282847
0.035252776 0.010445267 0.63282847
0.035252776 0.0091396272 0.63282847
0.035252679 0.0078339279 0.63282806
0.035252776 0.0065283179 0.63282847
0.035252776 0.0052226186 0.63282847
0.035252776 0.003916949 0.63282847
0.035252776 0.0026113391 0.63282847
0.035252776 0.0013056695 0.63282847
0.035252776 -0 0.63282847
0.035252776 -0.0013056397 0.63282847
0.035252776 -0.0026113093 0.63282853
0.035252776 -0.0039169788 0.63282847
0.035252776 -0.0052226484 0.63282847
0.035252776 -0.0065282881 0.63282847
0.035252776 -0.0078339279 0.63282847
0.035252776 -0.0091395974 0.63282847
0.035264567 -0.010448754 0.63288116
0.035525549 -0.011841863 0.63404799
0.035790324 -0.013255686 0.63523173
0.036059175 -0.014690757 0.63643372
0.036332101 -0.016147614 0.63765389
0.036609188 -0.017626673 0.63889271
0.036890425 -0.019128352 0.64014995
0.037176125 -0.020653397 0.64142734
0.037466288 -0.022202283 0.64272457
0.03776101 -0.023775488 0.64404219
0.0380603 -0.025373548 0.64538026
0.038364481 -0.026997238 0.6467402
0.038673565 -0.028647065 0.64812207
0.03898767 -0.030323774 0.64952636
0.039306797 -0.032027751 0.65095305
0.039631318 -0.033760011 0.65240389
0.039961241 -0.03552109 0.65387893
0.0402967 -0.037311763 0.6553787
0.040637713 -0.039132625 0.65690327
0.040984679 -0.040984631 0.65845442
0.041337617 -0.042868644 0.66003239
0.041696686 -0.044785321 0.66163766
0.04206191 -0.046735466 0.66327053
0.042433735 -0.048720211 0.66493285
0.042812187 -0.050740391 0.66662484
0.043197449 -0.0527969 0.66834724
0.043589566 -0.054890543 0.67010033
0.043989014 -0.05702281 0.67188621
0.044395849 -0.059194446 0.67370504
0.04481028 -0.061406672 0.67555785
0.045232363 -0.063660353 0.67744493
0.045662638 -0.065957159 0.67936856
0.046101175 -0.068298042 0.68132919
0.04654805 -0.070684105 0.68332696
0.047003843 -0.073117107 0.68536478
0.04262998 0.074602485 0.6590035
0.041310091 0.070817322 0.65331328
0.040069483 0.06725949 0.64796489
0.038901217 0.063909143 0.64292842
0.037799146 0.060748607 0.63817734
0.036992826 0.058131576 0.63470119
0.036992826 0.056810439 0.63470119
0.036992826 0.055489242 0.63470113
0.036992826 0.054168075 0.63470113
0.036992826 0.052846909 0.63470113
0.036992826 0.051525742 0.63470113
0.036992826 0.050204545 0.63470119
0.036992826 0.048883408 0.63470119
0.036992826 0.047562212 0.63470113
0.036992826 0.046241045 0.63470119
0.036992826 0.044919878 0.63470113
0.036992826 0.043598711 0.63470113
0.036992826 0.042277545 0.63470113
0.036992826 0.040956318 0.63470119
0.036992826 0.039635181 0.63470119
0.036992826 0.038313985 0.63470113
0.036992826 0.036992818 0.63470113
0.036992826 0.035671681 0.63470119
0.036992721 0.034350365 0.63470072
0.036992721 0.033029228 0.63470078
0.036992721 0.031708032 0.63470072
0.036992721 0.030386865 0.63470072
0.036992721 0.029065698 0.63470072
0.036992721 0.027744561 0.63470072
0.036992721 0.026423365 0.63470072
0.036992721 0.025102168 0.63470078
0.036992721 0.023781031 0.63470072
0.036992721 0.022459865 0.63470072
0.036992721 0.021138668 0.63470072
0.036992721 0.019817531 0.63470072
0.036992721 0.018496364 0.63470072
0.036992721 0.017175198 0.63470072
0.036992721 0.015854031 0.63470072
0.036992721 0.014532864 0.63470072
0.036992721 0.013211668 0.63470078
0.036992721 0.011890471 0.63470072
0.036992721 0.010569334 0.63470078
0.036992721 0.0092481673 0.63470072
0.036992721 0.0079270005 0.63470072
0.036992721 0.0066058338 0.63470072
0.036992721 0.005284667 0.63470072
0.036992721 0.0039635003 0.63470072
0.036992721 0.0026423633 0.63470072
0.036992721 0.001321137 0.63470072
0.036992721 -0 0.63470072
0.036992721 -0.0013211966 0.63470078
0.036992721 -0.0026423335 0.63470072
0.036992721 -0.0039635003 0.63470072
0.036992721 -0.0052846968 0.63470072
0.036992721 -0.0066058338 0.63470072
0.036992721 -0.0079270005 0.63470072
0.036992721 -0.0092481971 0.63470066
0.036992721 -0.010569364 0.63470072
0.036992721 -0.011890501 0.63470072
0.036992721 -0.013211697 0.63470078
0.037137143 -0.014589578 0.63532335
0.037416272 -0.016035557 0.6365267
0.037699524 -0.017503351 0.63774782
0.03798721 -0.018993616 0.63898802
0.038279314 -0.020506799 0.64024734
0.038575947 -0.022043437 0.64152622
0.0388771 -0.023603946 0.64282447
0.039183106 -0.025189131 0.6441437
0.039493971 -0.02679947 0.64548385
0.039809685 -0.028435498 0.64684492
0.040130612 -0.030097961 0.64822853
0.040456753 -0.031787455 0.64963454
0.040788241 -0.033504635 0.65106356
0.041125074 -0.035250038 0.65251565
0.041467648 -0.037024677 0.65399253
0.041815981 -0.038829148 0.65549427
0.042170212 -0.040664107 0.6570214
0.042530358 -0.042530328 0.65857399
0.042896852 -0.044428885 0.66015399
0.043269712 -0.046360403 0.66176146
0.043649115 -0.048325807 0.66339707
0.044035081 -0.050325781 0.665061
0.044428088 -0.052361667 0.66675532
0.044828165 -0.05443418 0.66848004
0.045235518 -0.056544393 0.67023623
0.045650184 -0.058693111 0.67202389
0.046072684 -0.060881734 0.67384529
0.046503074 -0.063111305 0.67570078
0.046941586 -0.065382928 0.6775912
0.047388274 -0.067697525 0.67951691
0.047843721 -0.070056856 0.68148041
0.048308004 -0.072461993 0.68348205
0.048781205 -0.074914008 0.68552202
0.044862885 0.077349842 0.66196048
0.043452226 0.073419303 0.65608871
0.042127434 0.069728166 0.65057439
0.040881164 0.066255689 0.64538687
0.03970651 0.062982708 0.64049745
0.038774718 0.06016767 0.63661891
0.038774718 0.058830589 0.63661885
0.038774718 0.057493538 0.63661885
0.038774718 0.056156456 0.63661891
0.038774718 0.054819435 0.63661891
0.038774718 0.053482383 0.63661891
0.038774718 0.052145332 0.63661885
0.038774718 0.050808251 0.63661891
0.038774718 0.0494712 0.63661891
0.03877461 0.048133999 0.63661844
0.03877461 0.046796948 0.63661844
0.03877461 0.045459896 0.63661844
0.03877461 0.044122815 0.63661844
0.03877461 0.042785794 0.63661844
0.03877461 0.041448742 0.63661844
0.03877461 0.040111691 0.63661844
0.03877461 0.03877461 0.63661844
0.03877461 0.037437558 0.63661844
0.03877461 0.036100477 0.63661844
0.03877461 0.034763455 0.63661844
0.03877461 0.033426374 0.63661849
0.03877461 0.032089323 0.63661844
0.03877461 0.030752301 0.63661844
0.03877461 0.02941525 0.63661844
0.03877461 0.028078169 0.63661844
0.03877461 0.026741117 0.63661844
0.03877461 0.025404036 0.63661844
0.03877461 0.024067014 0.63661844
0.03877461 0.022729963 0.63661838
0.03877461 0.021392882 0.63661844
0.03877461 0.02005583 0.63661844
0.03877461 0.018718779 0.63661844
0.03877461 0.017381698 0.63661844
0.03877461 0.016044676 0.63661849
0.03877461 0.014707625 0.63661844
0.03877461 0.013370574 0.63661844
0.03877461 0.012033522 0.63661844
0.03877461 0.010696441 0.63661844
0.03877461 0.0093593895 0.63661844
0.03877461 0.0080223382 0.63661844
0.03877461 0.006685257 0.63661844
0.03877461 0.0053482354 0.63661838
0.03877461 0.0040111542 0.63661844
0.03877461 0.0026741326 0.63661849
0.03877461 0.0013370812 0.63661844
0.03877461 -0 0.63661844
0.03877461 -0.0013370514 0.63661844
0.03877461 -0.0026741326 0.63661844
0.03877461 -0.0040111542 0.63661844
0.03877461 -0.0053482056 0.63661844
0.03877461 -0.0066852868 0.63661849
0.03877461 -0.0080223382 0.63661849
0.03877461 -0.0093593895 0.63661844
0.03877461 -0.010696441 0.63661844
0.03877461 -0.012033492 0.63661838
0.03877461 -0.013370544 0.63661844
0.03877461 -0.014707595 0.63661844
0.03877461 -0.016044647 0.63661844
0.038774826 -0.017381847 0.63661939
0.039068647 -0.018860728 0.63784236
0.039366838 -0.020362139 0.63908356
0.03966973 -0.021886766 0.64034438
0.03997732 -0.023434997 0.64162469
0.040289719 -0.025007427 0.64292502
0.040606916 -0.026604563 0.64424527
0.040929269 -0.028227061 0.64558709
0.041256782 -0.029875606 0.64695036
0.04158958 -0.031550705 0.64833558
0.041927662 -0.033252954 0.64974284
0.042271417 -0.034983248 0.65117371
0.042620849 -0.036742091 0.65262818
0.042975977 -0.038530171 0.65410638
0.043337211 -0.04034844 0.65560997
0.043704566 -0.042197555 0.65713906
0.044078201 -0.044078201 0.65869433
0.044458143 -0.045991182 0.66027582
0.044844829 -0.047937602 0.66188538
0.045238305 -0.049918145 0.6635232
0.045638748 -0.051933736 0.66518998
0.046046186 -0.053985208 0.66688597
0.046461124 -0.056073725 0.66861308
0.046883613 -0.05820033 0.67037171
0.04731385 -0.060365945 0.67216247
0.047751892 -0.062571466 0.67398584
0.048198286 -0.064818382 0.67584395
0.048653111 -0.067107767 0.67773712
0.049116597 -0.069440722 0.67966628
0.049588818 -0.071818292 0.68163192
0.050070394 -0.074242324 0.68363643
0.045662027 0.076103419 0.65895134
0.044248655 0.072272807 0.6532644
0.04292015 0.06867221 0.64791894
0.041669093 0.0652816 0.64288503
0.040599987 0.062253296 0.6385833
0.040599987 0.060899973 0.6385833
0.040599871 0.059546471 0.63858283
0.040599871 0.058193177 0.63858283
0.040599871 0.056839824 0.63858283
0.040599871 0.0554865 0.63858283
0.040599871 0.054133177 0.63858289
0.040599871 0.052779853 0.63858283
0.040599871 0.0514265 0.63858283
0.040599871 0.050073177 0.63858283
0.040599871 0.048719823 0.63858283
0.040599871 0.0473665 0.63858283
0.040599871 0.046013176 0.63858283
0.040599871 0.044659853 0.63858283
0.040599871 0.0433065 0.63858283
0.040599871 0.041953236 0.63858283
0.040599871 0.040599912 0.63858283
0.040599871 0.039246559 0.63858283
0.040599871 0.037893206 0.63858283
0.040599871 0.036539882 0.63858289
0.040599871 0.035186589 0.63858283
0.040599871 0.033833206 0.63858283
0.040599871 0.032479882 0.63858283
0.040599871 0.031126559 0.63858283
0.040599871 0.029773235 0.63858283
0.040599871 0.028419912 0.63858283
0.040599871 0.027066618 0.63858283
0.040599871 0.025713265 0.63858283
0.040599871 0.024359912 0.63858283
0.040599871 0.023006618 0.63858283
0.040599871 0.021653295 0.63858283
0.040599871 0.020299911 0.63858283
0.040599871 0.018946588 0.63858283
0.040599871 0.017593294 0.63858283
0.040599756 0.016239911 0.63858235
0.040599756 0.014886558 0.63858241
0.040599756 0.013533264 0.63858235
0.040599756 0.012179941 0.63858235
0.040599756 0.010826617 0.63858235
0.040599756 0.009473294 0.63858235
0.040599756 0.0081199706 0.63858235
0.040599756 0.0067666173 0.63858235
0.040599756 0.005413264 0.63858235
0.040599756 0.0040599406 0.63858241
0.040599756 0.0027066767 0.63858235
0.040599871 0.0013533235 0.63858289
0.040599871 -0 0.63858283
0.040599871 -0.0013533235 0.63858283
0.040599756 -0.0027066171 0.63858235
0.040599756 -0.0040599704 0.63858235
0.040599871 -0.0054133236 0.63858283
0.040599871 -0.0067666173 0.63858283
0.040599871 -0.0081199706 0.63858283
0.040599871 -0.009473294 0.63858283
0.040599871 -0.010826617 0.63858283
0.040599871 -0.012180001 0.63858289
0.040599871 -0.013533294 0.63858283
0.040599871 -0.014886618 0.63858283
0.040599871 -0.016239971 0.63858283
0.040599871 -0.017593265 0.63858283
0.040599871 -0.018946618 0.63858283
0.040599871 -0.020299911 0.63858283
0.040748194 -0.02173236 0.63917965
0.041061781 -0.023268342 0.64044142
0.041380353 -0.024828196 0.64172328
0.041703906 -0.026412487 0.64302516
0.042032562 -0.028021723 0.64434755
0.042366311 -0.02965644 0.64569044
0.042705528 -0.031317383 0.64705533
0.043050226 -0.033005178 0.64844233
0.043400533 -0.034720451 0.6498518
0.043756448 -0.036463737 0.65128392
0.044118389 -0.038235962 0.6527403
0.044486366 -0.040037721 0.65422088
0.044860534 -0.041869849 0.65572643
0.045240909 -0.043732882 0.65725696
0.045627933 -0.045627952 0.65881425
0.046021637 -0.047555655 0.66039836
0.046422195 -0.049517006 0.66201007
0.04682963 -0.051512599 0.66364944
0.047244437 -0.053543717 0.66531849
0.047666658 -0.055611134 0.66701746
0.048096497 -0.057715803 0.66874695
0.048533991 -0.059858561 0.67050725
0.048979685 -0.062040955 0.67230064
0.049433645 -0.064263761 0.67412722
0.04989592 -0.066527903 0.67598724
0.050367102 -0.06883505 0.67788315
0.050847266 -0.071186185 0.67981517
0.051336676 -0.07358256 0.68178439
0.046435971 0.074896693 0.65603828
0.045020599 0.071161598 0.650527
0.043689083 0.067647636 0.64534217
0.042470116 0.064390153 0.64059567
0.042470116 0.06302017 0.64059567
0.042470116 0.061650187 0.64059561
0.042470116 0.060280204 0.64059567
0.042470116 0.058910161 0.64059567
0.042470116 0.057540148 0.64059567
0.042470116 0.056170136 0.64059567
0.042470116 0.054800153 0.64059561
0.042470116 0.05343014 0.64059561
0.042470116 0.052060127 0.64059561
0.042470116 0.050690144 0.64059567
0.042470116 0.049320132 0.64059567
0.042470116 0.047950119 0.64059567
0.042470116 0.046580136 0.64059567
0.042470116 0.045210153 0.64059561
0.042470116 0.04384014 0.64059567
0.042470116 0.042470098 0.64059561
0.042470116 0.041100085 0.64059567
0.042470116 0.039730102 0.64059567
0.042470116 0.038360119 0.64059567
0.042470116 0.036990106 0.64059561
0.042470116 0.035620093 0.64059561
0.042470116 0.034250081 0.64059567
0.042470116 0.032880068 0.64059561
0.042470116 0.031510055 0.64059567
0.042469993 0.030139983 0.6405952
0.042469993 0.02876997 0.6405952
0.042469993 0.027400017 0.6405952
0.042469993 0.026030004 0.6405952
0.042469993 0.024659961 0.6405952
0.042469993 0.023290008 0.6405952
0.042469993 0.021920025 0.64059514
0.042469993 0.020550013 0.6405952
0.042469993 0.01918 0.64059514
0.042469993 0.017809987 0.6405952
0.042469993 0.016439974 0.6405952
0.042469993 0.015069962 0.6405952
0.042469993 0.013700008 0.64059514
0.042469993 0.012329996 0.64059514
0.042469993 0.010959983 0.6405952
0.042469993 0.0095899999 0.6405952
0.042469993 0.008220017 0.64059514
0.042469993 0.0068500042 0.64059514
0.042469993 0.0054799914 0.64059514
0.042469993 0.0041100085 0.64059514
0.042469993 0.0027399957 0.6405952
0.042469993 0.0013700128 0.6405952
0.042469993 -0 0.6405952
0.042469993 -0.001369983 0.64059514
0.042469993 -0.0027399957 0.64059514
0.042469993 -0.0041100085 0.6405952
0.042469993 -0.0054799914 0.6405952
0.042469993 -0.0068499744 0.64059514
0.042469993 -0.0082199574 0.64059514
0.042469993 -0.0095899701 0.64059514
0.042469993 -0.010959983 0.6405952
0.042469993 -0.012329996 0.6405952
0.042469993 -0.013700038 0.6405952
0.042469993 -0.015069991 0.6405952
0.042469993 -0.016439974 0.64059514
0.042469993 -0.017809987 0.6405952
0.042469993 -0.01918 0.64059514
0.042469993 -0.020550013 0.6405952
0.042469993 -0.021919996 0.64059514
0.042469993 -0.023290008 0.64059514
0.042469993 -0.024659961 0.6405952
0.042785052 -0.026223093 0.64182198
0.043119788 -0.027819216 0.64312541
0.043459803 -0.029440522 0.64444941
0.043805227 -0.031087577 0.64579445
0.044156048 -0.032760918 0.64716047
0.04451267 -0.034461439 0.6485492
0.0448751 -0.036189586 0.6499604
0.045243483 -0.037946135 0.65139484
0.045617819 -0.039731652 0.65285254
0.045998547 -0.04154709 0.65433502
