# .PCD v0.7 - Point Cloud Data file format
VERSION 0.7
FIELDS x y z
SIZE 4 4 4
TYPE F F F
COUNT 1 1 1
WIDTH 1320
HEIGHT 1
VIEWPOINT 0 0 0 1 0 0 0
POINTS 1320
DATA ascii
-0.066770881 0.063161671 0.69305825
-0.066457197 0.061068773 0.6920349
-0.066146702 0.058995694 0.69102192
-0.065839089 0.056941926 0.69001836
-0.065534331 0.054907143 0.68902409
-0.065232374 0.052891135 0.68803895
-0.06493295 0.050893396 0.68706214
-0.064636506 0.048914105 0.68609494
-0.064342752 0.046952814 0.68513662
-0.06405165 0.045009315 0.68418694
-0.063763171 0.043083221 0.68324578
-0.063477285 0.041174442 0.68231308
-0.063193724 0.03928256 0.68138796
-0.062912904 0.037407696 0.68047178
-0.062634572 0.035549372 0.67956376
-0.062358696 0.03370738 0.67866373
-0.062085237 0.031881601 0.67777157
-0.061813951 0.030071676 0.6768865
-0.06154523 0.028277546 0.67600989
-0.061278846 0.026498944 0.6751408
-0.061014757 0.024735719 0.67427915
-0.060752928 0.022987604 0.67342508
-0.060493134 0.021254361 0.67257738
-0.060235761 0.019535929 0.67173779
-0.059980564 0.017832041 0.67090523
-0.05972752 0.016142577 0.67007971
-0.059476607 0.014467299 0.66926104
-0.059227787 0.012806028 0.66844928
-0.058980845 0.011158556 0.66764367
-0.058736153 0.0095247924 0.66684538
-0.05849348 0.0079044998 0.66605371
-0.058252804 0.0062975883 0.66526842
-0.058014102 0.0047038794 0.66448969
-0.057777345 0.0031231046 0.66371733
-0.057542324 0.0015552044 0.66295052
-0.057309397 -0 0.66219068
-0.05707835 -0.0015426576 0.66143692
-0.056849156 -0.0030729473 0.66068918
-0.056621797 -0.0045909584 0.6599474
-0.056396063 -0.0060968697 0.65921092
-0.056172304 -0.0075908601 0.65848094
-0.055950318 -0.009073019 0.65775669
-0.055730075 -0.010543495 0.65703821
-0.05551156 -0.012002498 0.65632528
-0.055294748 -0.013450086 0.65561795
-0.05507946 -0.014886349 0.65491557
-0.054866005 -0.016311496 0.65421921
-0.0546542 -0.017725676 0.65352821
-0.054444026 -0.019129008 0.65284252
-0.054235458 -0.020521551 0.65216208
-0.054028317 -0.021903366 0.65148628
-0.053822923 -0.02327475 0.6508162
-0.053619079 -0.024635792 0.65015119
-0.053416774 -0.025986522 0.64949113
-0.053215992 -0.02732712 0.64883614
-0.053016551 -0.028657645 0.64818549
-0.052818764 -0.029978186 0.64754015
-0.052622441 -0.031289041 0.6468997
-0.052427571 -0.032590091 0.64626396
-0.052234139 -0.033881605 0.64563292
-0.052042134 -0.035163611 0.64500654
-0.051851381 -0.036436141 0.64438415
-0.051662177 -0.037699431 0.64376688
-0.05147434 -0.038953543 0.64315408
-0.051287871 -0.040198594 0.64254576
-0.051102743 -0.041434705 0.64194179
-0.051745344 -0.043354183 0.6440382
-0.053377476 -0.046164304 0.64936292
-0.055116095 -0.049157619 0.65503514
-0.056971595 -0.052352309 0.66108865
-0.058956582 -0.055769742 0.66756451
-0.061084673 -0.059433728 0.67450732
-0.063372374 -0.063372403 0.68197078
-0.065837853 -0.067617267 0.69001424
-0.068503194 -0.07220605 0.69870985
-0.067011975 0.076319188 0.69991773
-0.066687554 0.074097276 0.69882989
-0.066366263 0.071896791 0.69775259
-0.066047795 0.069717109 0.69668478
-0.065732628 0.067558527 0.69562793
-0.065420449 0.065420419 0.69458121
-0.06511122 0.063302606 0.69354433
-0.064804904 0.061204642 0.69251728
-0.064501457 0.059126347 0.69149977
-0.064200595 0.057067186 0.69049096
-0.063902766 0.055027395 0.68949229
-0.063607693 0.053006411 0.68850285
-0.063315324 0.051003993 0.68752259
-0.063025631 0.049019963 0.68655121
-0.062738352 0.047053754 0.68558794
-0.062453907 0.045105606 0.68463415
-0.062172025 0.043175012 0.683689
-0.061892681 0.041261822 0.68275237
-0.061615836 0.039365679 0.68182403
-0.061341234 0.037486315 0.68090332
-0.061069291 0.035623759 0.67999142
-0.060799744 0.033777624 0.67908764
-0.060532566 0.031947762 0.67819178
-0.060267732 0.030133903 0.67730379
-0.060005199 0.02833578 0.67642349
-0.059744738 0.026553243 0.6755501
-0.059486732 0.024786144 0.674685
-0.059230942 0.023034245 0.67382729
-0.058977351 0.021297395 0.67297697
-0.058725916 0.019575328 0.67213392
-0.058476619 0.017867863 0.67129803
-0.05822923 0.016174793 0.67046851
-0.057984117 0.014495999 0.66964662
-0.057741068 0.01283133 0.66883171
-0.057500046 0.01118055 0.66802347
-0.057261024 0.0095435083 0.66722208
-0.057023793 0.0079199672 0.66642654
-0.056788709 0.0063098371 0.66563833
-0.056555554 0.0047129989 0.66485655
-0.056324303 0.0031291246 0.66408116
-0.056094941 0.0015581846 0.66331214
-0.055867434 -0 0.66254926
-0.055641584 -0.0015455782 0.66179192
-0.055417735 -0.0030787587 0.66104138
-0.055195682 -0.0045996606 0.66029674
-0.054975402 -0.0061083734 0.65955818
-0.054756872 -0.0076051056 0.6588254
-0.054539893 -0.0090900064 0.65809786
-0.054324806 -0.010563165 0.65737665
-0.054111402 -0.01202476 0.65666115
-0.053899672 -0.013474911 0.6559512
-0.053689595 -0.014913768 0.65524679
-0.053480979 -0.016341418 0.65454727
-0.053274143 -0.017758042 0.65385371
-0.053068906 -0.019163758 0.65316558
-0.052865237 -0.020558715 0.65248263
-0.052663129 -0.021942943 0.65180492
-0.052462559 -0.023316681 0.65113246
-0.052263353 -0.024679899 0.65046448
-0.052065816 -0.026032925 0.64980209
-0.051869761 -0.027375698 0.64914471
-0.051675174 -0.028708428 0.64849228
-0.051482052 -0.030031174 0.64784473
-0.051290207 -0.031343997 0.64720142
-0.051099937 -0.032647163 0.64656347
-0.050911076 -0.033940703 0.64593017
-0.050723612 -0.035224736 0.64530158
-0.050537515 -0.036499321 0.64467764
-0.050352786 -0.037764609 0.64405823
-0.050169252 -0.039020509 0.64344275
-0.049987193 -0.040267467 0.64283234
-0.049806457 -0.041505367 0.64222628
-0.050537515 -0.043518424 0.64467764
-0.052137941 -0.046344817 0.65004396
-0.053842869 -0.049355984 0.65576071
-0.055663254 -0.05257085 0.66186464
-0.057610843 -0.056010514 0.66839498
-0.059699871 -0.059699863 0.67539966
-0.061945867 -0.063666582 0.68293071
-0.064367719 -0.067943692 0.6910513
-0.066986375 -0.072568566 0.69983184
-0.065300487 0.076494843 0.70043492
-0.064983629 0.074267 0.69934213
-0.064669833 0.072060704 0.69825983
-0.064359054 0.069875538 0.69718802
-0.064051248 0.067711323 0.6961264
-0.063746132 0.065567434 0.69507408
-0.063444145 0.063444138 0.69403261
-0.063145004 0.061340839 0.69300091
-0.062848672 0.059257329 0.69197887
-0.062555112 0.057193249 0.69096643
-0.062264279 0.055148363 0.68996334
-0.061975908 0.053122222 0.68896878
-0.06169042 0.051114917 0.68798423
-0.061407551 0.049126059 0.68700862
-0.061127272 0.047155291 0.68604195
-0.060849536 0.045202494 0.6850841
-0.060574085 0.04326722 0.68413413
-0.060301341 0.0413495 0.68319345
-0.060031045 0.039448947 0.68226123
-0.05976316 0.03756544 0.68133736
-0.059497647 0.035698622 0.68042159
-0.059234496 0.033848256 0.67951405
-0.058973443 0.032014161 0.67861366
-0.058714889 0.030196249 0.67772198
-0.058458596 0.028394192 0.67683804
-0.058204532 0.026607782 0.67596185
-0.057952669 0.024836838 0.67509317
-0.057702769 0.023081094 0.67423129
-0.057455212 0.021340549 0.67337751
-0.057209775 0.019614756 0.67253107
-0.056966428 0.017903715 0.67169178
-0.056725141 0.016207188 0.67085958
-0.056485884 0.014524966 0.67003441
-0.056248453 0.012856781 0.66921556
-0.056013197 0.011202663 0.66840416
-0.055779897 0.009562254 0.66759956
-0.055548538 0.0079355538 0.66680157
-0.055319086 0.0063221753 0.66601026
-0.05509134 0.0047220886 0.66522479
-0.054865643 0.0031352043 0.66444635
-0.054641787 0.0015611947 0.66367435
-0.054419752 2.9802322e-08 0.66290855
-0.054199513 -0.0015485585 0.66214901
-0.053980872 -0.0030846 0.66139495
-0.053764168 -0.0046083629 0.66064751
-0.053549189 -0.0061199069 0.65990609
-0.053335931 -0.0076194406 0.65917063
-0.053124357 -0.0091070533 0.65844095
-0.052914463 -0.010582894 0.65771699
-0.052706044 -0.012047082 0.65699822
-0.052499432 -0.013499856 0.65628564
-0.052294437 -0.014941275 0.65557861
-0.052091032 -0.016371459 0.65487707
-0.0518892 -0.017790556 0.654181
-0.051688768 -0.019198716 0.65348977
-0.051490039 -0.020596027 0.65280437
-0.051292837 -0.02198267 0.65212423
-0.051097136 -0.023358673 0.65144926
-0.050902922 -0.024724275 0.65077949
-0.050710175 -0.026079476 0.65011466
-0.050518729 -0.027424455 0.64945441
-0.050328884 -0.02875936 0.64879972
-0.050140452 -0.030084252 0.64814979
-0.049953431 -0.03139931 0.64750481
-0.0497678 -0.032704592 0.64686459
-0.049583394 -0.034000039 0.64622861
-0.04940049 -0.035286069 0.64559776
-0.049218938 -0.036562622 0.64497161
-0.049038716 -0.037829846 0.64435005
-0.048859805 -0.039087832 0.64373302
-0.048682198 -0.040336668 0.64312047
-0.048505735 -0.041576356 0.6425119
-0.049320649 -0.043684006 0.64532232
-0.050888669 -0.04652679 0.65073031
-0.052559495 -0.049556106 0.65649277
-0.054343939 -0.052791268 0.66264707
-0.056253616 -0.056253612 0.66923332
-0.058302604 -0.059968382 0.67630005
-0.060506277 -0.063963771 0.68390024
-0.062883325 -0.068273336 0.69209838
-0.065454505 -0.072935015 0.70096612
-0.063581362 0.07667163 0.70095533
-0.063272141 0.074437797 0.69985747
-0.062965907 0.0722256 0.69877034
-0.062662385 0.070034444 0.69769269
-0.062362012 0.067864567 0.69662631
-0.062064506 0.065715343 0.69557005
-0.061769824 0.063586593 0.69452381
-0.061477929 0.0614779 0.69348752
-0.061188549 0.059388876 0.69246012
-0.060902108 0.057319641 0.6914432
-0.060618341 0.055269659 0.69043571
-0.060337201 0.05323872 0.68943763
-0.060058661 0.051226526 0.68844867
-0.059782457 0.049232632 0.68746805
-0.059508998 0.047257185 0.68649721
-0.059238032 0.045299679 0.68553519
-0.058969524 0.043359965 0.68458188
-0.058703441 0.041437715 0.6836372
-0.058439746 0.039532781 0.68270099
-0.058178198 0.037644714 0.68177241
-0.057919189 0.035773605 0.68085289
-0.057662472 0.033919096 0.67994153
-0.057408031 0.032080948 0.67903805
-0.057155818 0.030258954 0.67814273
-0.056905609 0.028452814 0.67725438
-0.056657787 0.026662469 0.6763745
-0.056412112 0.024887681 0.67550224
-0.056168556 0.023128211 0.67463762
-0.055927098 0.021383911 0.67378032
-0.055687513 0.019654393 0.6729297
-0.055450156 0.017939746 0.67208707
-0.055214822 0.016239643 0.67125154
-0.054981474 0.014553905 0.67042303
-0.054750092 0.012882382 0.66960162
-0.054520652 0.011224836 0.668787
-0.054292936 0.0095811188 0.66797853
-0.054067299 0.0079510808 0.66717744
-0.053843532 0.0063345134 0.66638303
-0.053621609 0.0047313273 0.66559511
-0.053401504 0.003141284 0.66481364
-0.053183027 0.0015642047 0.66403806
-0.052966505 -0 0.66326928
-0.052751735 -0.0015515089 0.66250682
-0.0525387 -0.0030905306 0.66175044
-0.052327383 -0.0046171248 0.66100025
-0.052117757 -0.0061315298 0.66025603
-0.051909637 -0.0076337755 0.65951705
-0.051703341 -0.0091241002 0.65878463
-0.051498674 -0.010602653 0.65805799
-0.051295623 -0.012069553 0.65733713
-0.051094163 -0.01352492 0.65662193
-0.050894119 -0.014968872 0.65591168
-0.050695799 -0.016401559 0.65520757
-0.050499018 -0.01782316 0.65450889
-0.050303757 -0.019233793 0.65381569
-0.050109997 -0.020633519 0.65312785
-0.049917735 -0.022022516 0.6524452
-0.049726777 -0.023400813 0.65176725
-0.049537435 -0.02476868 0.65109503
-0.049349524 -0.026126236 0.65042794
-0.049163032 -0.02747348 0.64976579
-0.048977952 -0.028810561 0.64910865
-0.048794109 -0.030137539 0.64845598
-0.048611786 -0.031454682 0.64780867
-0.048430819 -0.032762021 0.64716619
-0.0482512 -0.034059703 0.64652848
-0.048072904 -0.03534773 0.64589548
-0.047895778 -0.03662616 0.64526659
-0.047720093 -0.037895381 0.64464295
-0.047545698 -0.039155304 0.64402372
-0.047372568 -0.040406018 0.64340913
-0.047200698 -0.041647702 0.6427989
-0.048094485 -0.043850809 0.64597207
-0.049629398 -0.046710044 0.65142155
-0.051265668 -0.049757868 0.65723079
-0.053013343 -0.053013355 0.66343558
-0.054884564 -0.056498826 0.67007899
-0.056892514 -0.060239136 0.67720789
-0.059053183 -0.064263761 0.68487895
-0.061384216 -0.06860587 0.69315481
-0.063907087 -0.073305219 0.70211184
-0.061854023 0.076848924 0.70147735
-0.061552506 0.074609071 0.70037448
-0.06125392 0.072391033 0.69928223
-0.06095821 0.070194304 0.69820058
-0.060665108 0.068018466 0.69712847
-0.060375046 0.065863669 0.69606739
-0.06008774 0.063729376 0.6950165
-0.059803162 0.061615378 0.69397557
-0.059521262 0.059521288 0.69294441
-0.059242014 0.057446778 0.6919229
-0.058965147 0.05539152 0.6909101
-0.058691073 0.053355515 0.68990767
-0.058419541 0.051338375 0.68891436
-0.058150504 0.049339861 0.68793023
-0.057883937 0.047359586 0.68695521
-0.05761959 0.045397252 0.68598831
-0.057357855 0.043452919 0.68503088
-0.057098493 0.041526169 0.68408215
-0.056841459 0.039616764 0.68314195
-0.056586731 0.037724525 0.68221015
-0.056334075 0.035848916 0.68128598
-0.056083865 0.033990234 0.68037069
-0.055835865 0.032147974 0.67946357
-0.055590056 0.030321836 0.67856443
-0.055346396 0.028511763 0.6776731
-0.055104863 0.026717514 0.67678958
-0.054865237 0.024938732 0.6759131
-0.054627877 0.023175478 0.67504483
-0.054392561 0.021427363 0.67418408
-0.054159265 0.019694269 0.67333066
-0.053927962 0.017975986 0.67248464
-0.053698439 0.016272247 0.6716451
-0.053471051 0.014583021 0.67081326
-0.053245574 0.012907982 0.66998851
-0.053021997 0.011247069 0.66917074
-0.052800279 0.0096000433 0.6683597
-0.05258042 0.0079666972 0.66755545
-0.0523622 0.006346941 0.66675723
-0.052145962 0.0047405362 0.66596627
-0.0519315 0.0031473637 0.66518176
-0.051718798 0.0015672445 0.66440374
-0.051507827 2.9802322e-08 0.66363204
-0.051298574 -0.0015544891 0.66286659
-0.051090848 -0.0030964017 0.66210675
-0.050884958 -0.0046259165 0.66135365
-0.050680723 -0.0061431527 0.66060662
-0.050478123 -0.0076482296 0.65986544
-0.05027714 -0.0091412961 0.65913022
-0.050077584 -0.010622501 0.6584003
-0.049879767 -0.012092054 0.65767676
-0.049683504 -0.013550073 0.65695882
-0.049488783 -0.014996618 0.65624654
-0.049295582 -0.016431868 0.65553981
-0.049103726 -0.017855912 0.65483803
-0.048913512 -0.01926896 0.65414226
-0.048724771 -0.020671099 0.65345186
-0.048537478 -0.02206251 0.65276676
-0.048351619 -0.023443192 0.65208691
-0.04816718 -0.024813414 0.65141225
-0.047983993 -0.026173115 0.65074217
-0.047802337 -0.027522564 0.65007776
-0.047622055 -0.028861851 0.64941829
-0.047443129 -0.030191034 0.64876378
-0.047265541 -0.031510353 0.64811414
-0.047089137 -0.032819718 0.64746886
-0.046914183 -0.034119397 0.64682889
-0.046740528 -0.03540951 0.64619374
-0.046568148 -0.036690056 0.64556313
-0.046397042 -0.037961245 0.64493728
-0.046227183 -0.039223075 0.64431596
-0.046058428 -0.040475607 0.64369863
-0.045891039 -0.041719109 0.64308637
-0.046858925 -0.044018984 0.64662677
-0.048360314 -0.046894878 0.6521188
-0.049961265 -0.049961269 0.65797484
-0.051671669 -0.053237498 0.6642313
-0.053503521 -0.056746155 0.67093205
-0.05546983 -0.060512543 0.67812467
-0.057586398 -0.064566553 0.68586683
-0.059870668 -0.068941981 0.69422245
-0.062343884 -0.073679119 0.70326924
-0.060118914 0.07702738 0.70200264
-0.059824947 0.074781179 0.7008937
-0.059534073 0.072557151 0.6997965
-0.059246011 0.070354611 0.69870991
-0.058960721 0.068173349 0.69763374
-0.058678169 0.066012949 0.69656789
-0.05839809 0.063872933 0.69551134
-0.058120891 0.061753482 0.6944657
-0.057846308 0.059653997 0.69342995
-0.057574313 0.057574302 0.69240391
-0.057304863 0.055514097 0.69138741
-0.057037707 0.053472847 0.69037968
-0.056773245 0.051450729 0.68938208
-0.056511223 0.049447328 0.68839371
-0.056251604 0.047462314 0.68741435
-0.055994369 0.045495421 0.68644398
-0.05573947 0.043546468 0.6854825
-0.055486675 0.041615009 0.68452889
-0.055236369 0.039701164 0.68358469
-0.05498831 0.037804455 0.68264896
-0.054742467 0.035924762 0.68172157
-0.054498818 0.03406179 0.68080246
-0.054257128 0.032215178 0.67989075
-0.054017771 0.030384988 0.67898786
-0.053780511 0.02857089 0.67809284
-0.05354533 0.026772648 0.67720574
-0.053312194 0.024990082 0.67632627
-0.05308108 0.023222983 0.67545444
-0.052851774 0.021471024 0.67458946
-0.052624628 0.019734234 0.67373264
-0.052399423 0.018012285 0.67288315
-0.05217614 0.016305059 0.67204088
-0.05195475 0.014612257 0.6712057
-0.051735234 0.012933791 0.67037767
-0.051517382 0.01126942 0.66955584
-0.051301539 0.0096190572 0.6687417
-0.051087495 0.007982403 0.6679343
-0.050875228 0.0063593984 0.66713357
-0.050664719 0.0047498047 0.66633946
-0.050455775 0.0031534433 0.6655513
-0.050248716 0.0015702844 0.66477025
-0.050043352 -0 0.6639955
-0.049839657 -0.0015574694 0.66322708
-0.049637608 -0.0031023622 0.66246504
-0.049437035 -0.004634738 0.66170841
-0.049238238 -0.0061547458 0.66095841
-0.049041029 -0.0076626837 0.6602146
-0.048845395 -0.0091585219 0.65947664
-0.048651319 -0.010642439 0.65874445
-0.048458774 -0.012114674 0.65801817
-0.048267599 -0.013575286 0.65729702
-0.048078075 -0.015024394 0.65658212
-0.047890037 -0.016462177 0.65587276
-0.047703456 -0.017888814 0.65516901
-0.047518332 -0.019304335 0.65447062
-0.047334485 -0.020708829 0.65377712
-0.047152206 -0.022102594 0.65308952
-0.046971329 -0.023485661 0.65240717
-0.046791825 -0.024858147 0.65173012
-0.046613697 -0.026220202 0.6510582
-0.046436913 -0.027571887 0.65039128
-0.046261329 -0.028913319 0.64972895
-0.046087202 -0.030244708 0.64907211
-0.045914385 -0.031566113 0.64842021
-0.045742858 -0.032877684 0.64777315
-0.045572605 -0.034179449 0.64713097
-0.045403484 -0.035471499 0.64649302
-0.045235746 -0.036754042 0.6458602
-0.045069244 -0.038027167 0.6452322
-0.044903964 -0.039290965 0.64460868
-0.044739891 -0.040545553 0.6439898
-0.04457701 -0.041790962 0.64337534
-0.04561371 -0.044188261 0.647286
-0.04708115 -0.047081113 0.65282148
-0.048645999 -0.05016619 0.65872443
-0.050318606 -0.053463548 0.66503388
-0.052110158 -0.056995481 0.67179197
-0.054034173 -0.060788453 0.67904973
-0.056105517 -0.064872026 0.6868633
-0.058342211 -0.069281369 0.69530058
-0.060764406 -0.074056625 0.70443755
-0.058375504 0.077206314 0.70252955
-0.058089625 0.074954361 0.70141637
-0.057806537 0.072724342 0.70031404
-0.05752597 0.070515692 0.69922155
-0.057248332 0.068328679 0.69814044
-0.056973364 0.066162616 0.69706976
-0.056701023 0.064017296 0.69600928
-0.056431279 0.06189239 0.69495893
-0.05616387 0.059787333 0.69391769
-0.055899195 0.057702392 0.69288707
-0.055637006 0.055637002 0.6918661
-0.05537726 0.053590894 0.69085473
-0.055119935 0.051563859 0.68985271
-0.054864779 0.049555272 0.68885916
-0.054612178 0.04756546 0.68787551
-0.054361895 0.045593858 0.68690097
-0.054113895 0.043640256 0.68593526
-0.053868148 0.041704357 0.68497837
-0.053624623 0.039786011 0.68403012
-0.053383097 0.037884831 0.68308961
-0.05314393 0.036000729 0.68215835
-0.052906893 0.034133494 0.68123531
-0.052671965 0.032282829 0.68032056
-0.052439108 0.030448526 0.67941386
-0.052208301 0.028630346 0.67851514
-0.051979337 0.026828051 0.67762351
-0.051752556 0.02504158 0.67674053
-0.051527742 0.023270607 0.67586505
-0.051304877 0.021514952 0.67499727
-0.051083926 0.019774407 0.67413688
-0.0508647 0.018048763 0.67328328
-0.05064752 0.016337901 0.67243761
-0.050432183 0.014641583 0.67159909
-0.050218668 0.012959659 0.67076766
-0.05000696 0.011291891 0.66994327
-0.049796857 0.0096381009 0.6691252
-0.049588684 0.0079981983 0.66831458
-0.049382236 0.0063718855 0.66751075
-0.049177505 0.0047591329 0.66671348
-0.048974462 0.0031596422 0.66592288
-0.048773095 0.0015733242 0.66513884
-0.048573211 -0 0.6643604
-0.048375119 -0.0015604496 0.66358912
-0.048178632 -0.0031082928 0.66282403
-0.04798374 -0.0046435893 0.66206515
-0.047790419 -0.0061665177 0.66131234
-0.047598492 -0.0076771677 0.66056502
-0.047408257 -0.0091758072 0.65982425
-0.047219533 -0.010662466 0.65908939
-0.047032308 -0.012137353 0.6583603
-0.046846561 -0.013600618 0.657637
-0.046662278 -0.015052348 0.65691948
-0.046479285 -0.016492635 0.65620697
-0.046297871 -0.017921776 0.65550053
-0.046117872 -0.01933977 0.65479964
-0.045939263 -0.020746768 0.65410411
-0.045762036 -0.022142947 0.65341401
-0.045586023 -0.023528278 0.65272868
-0.045411505 -0.024903089 0.65204912
-0.045238316 -0.026267409 0.6513747
-0.045066442 -0.027621359 0.65070546
-0.044895869 -0.028965056 0.65004128
-0.044726584 -0.03029865 0.64938211
-0.044558436 -0.031622112 0.64872736
-0.044391681 -0.032935768 0.64807802
-0.044226166 -0.03423959 0.64743352
-0.044061884 -0.035533786 0.64679384
-0.043898821 -0.036818355 0.64615881
-0.043736823 -0.038093358 0.64552808
-0.043576155 -0.039359093 0.64490247
-0.043416653 -0.040615559 0.64428139
-0.043258324 -0.041862905 0.64366484
-0.044359017 -0.044358999 0.64795083
-0.045791641 -0.047268778 0.65352935
-0.047320046 -0.050372928 0.65948075
-0.048953842 -0.053691298 0.66584259
-0.050704662 -0.057247192 0.67266011
-0.052585177 -0.061066657 0.67998266
-0.054610755 -0.06518057 0.68787003
-0.056798417 -0.069623858 0.69638854
-0.059168894 -0.074438304 0.70561898
-0.056623969 0.077386081 0.70305884
-0.056346025 0.075128049 0.70194048
-0.056070801 0.07289204 0.70083308
-0.055798255 0.070677817 0.69973636
-0.055528343 0.068484962 0.69865036
-0.055260811 0.066312999 0.6975739
-0.054996062 0.064162105 0.69650865
-0.054733835 0.062031657 0.69545352
-0.054474097 0.059921503 0.69440842
-0.054216813 0.057831287 0.69337314
-0.053961743 0.055760503 0.69234687
-0.053709261 0.053709298 0.69133097
-0.053459138 0.051677138 0.69032449
-0.053211331 0.049663901 0.68932742
-0.052965809 0.047669232 0.68833959
-0.052722547 0.045692861 0.68736076
-0.052481309 0.043734431 0.68639004
-0.052242465 0.041794002 0.68542898
-0.052005783 0.039871097 0.68447673
-0.051771238 0.037965596 0.68353295
-0.051538799 0.036077172 0.68259764
-0.051308248 0.034205496 0.68167001
-0.05107994 0.032350659 0.68075132
-0.050853651 0.030512184 0.67984086
-0.050629359 0.028689981 0.67893833
-0.050407037 0.026883781 0.67804384
-0.05018666 0.025093317 0.6771571
-0.049968023 0.02331844 0.67627734
-0.049751461 0.02155897 0.67540598
-0.049536768 0.0198147 0.67454213
-0.049323916 0.01808542 0.67368573
-0.049112886 0.016370952 0.6728366
-0.048903488 0.014671057 0.67199403
-0.048696034 0.012985617 0.67115927
-0.048490334 0.011314422 0.6703316
-0.04828636 0.0096572638 0.6695109
-0.048084099 0.0080139935 0.66869706
-0.047883365 0.0063844621 0.66788936
-0.047684457 0.004768461 0.66708899
-0.047487196 0.0031658113 0.66629529
-0.047291558 0.001576364 0.66550815
-0.04709753 -0 0.66472739
-0.046905085 -0.0015635192 0.66395307
-0.046714049 -0.0031142533 0.6631844
-0.046524726 -0.0046524704 0.6624226
-0.046336923 -0.00617823 0.66166687
-0.046150632 -0.007691741 0.66091734
-0.045965832 -0.0091931522 0.66017377
-0.045782354 -0.010682553 0.65943551
-0.045600489 -0.012160152 0.6587038
-0.045420058 -0.013626039 0.65797782
-0.04524105 -0.015080333 0.6572575
-0.045063455 -0.016523242 0.6565429
-0.044887241 -0.017954886 0.65583384
-0.04471226 -0.019375354 0.65512979
-0.044538777 -0.020784765 0.65443176
-0.044366639 -0.022183329 0.65373915
-0.044195823 -0.023571134 0.65305185
-0.044026319 -0.024948239 0.6523698
-0.043857973 -0.026314795 0.65169239
-0.043691043 -0.027670979 0.65102082
-0.043525383 -0.029016942 0.65035415
-0.043360975 -0.030352652 0.6496926
-0.043197799 -0.031678379 0.64903611
-0.043035846 -0.032994151 0.64838445
-0.042874981 -0.034299999 0.64773715
-0.042715438 -0.035596192 0.6470952
-0.042557079 -0.036882758 0.64645803
-0.042399887 -0.038159907 0.64582551
-0.042243853 -0.039427608 0.64519769
-0.04208884 -0.040685892 0.64457399
-0.041935086 -0.041935056 0.64395535
-0.043094587 -0.044531107 0.64862084
-0.044491954 -0.047458082 0.65424335
-0.045983128 -0.050581455 0.66024339
-0.047577556 -0.053921252 0.66665888
-0.049286705 -0.057501167 0.673536
-0.051123042 -0.061347634 0.68092477
-0.053101711 -0.065492094 0.68888634
-0.055239495 -0.069970042 0.69748807
-0.05755686 -0.074823886 0.7068125
-0.054864477 0.077567041 0.70359153
-0.05459433 0.075302511 0.70246702
-0.054327045 0.073060542 0.70135444
-0.054062366 0.070840329 0.70025277
-0.053800251 0.068641663 0.69916171
-0.053540662 0.066464305 0.69808125
-0.053283572 0.064307779 0.69701105
-0.053028733 0.062171638 0.69595033
-0.052776523 0.060056031 0.69490051
-0.052526701 0.05796048 0.69386071
-0.05227923 0.055884719 0.69283056
-0.05203408 0.053828388 0.69181013
-0.051791023 0.051791012 0.69079846
-0.051550426 0.049772799 0.68979692
-0.051312048 0.047773302 0.68880475
-0.051075868 0.045792162 0.68782163
-0.050841849 0.043829203 0.68684757
-0.050609965 0.041884094 0.68588239
-0.050380003 0.03995657 0.68492514
-0.050152302 0.038046569 0.68397737
-0.049926657 0.036153793 0.68303812
-0.049703024 0.034277946 0.68210733
-0.049481392 0.032418847 0.68118477
-0.049261551 0.03057611 0.68026972
-0.049043827 0.028749824 0.67936337
-0.048828017 0.026939601 0.67846513
-0.048614107 0.025145233 0.67757469
-0.048402056 0.023366511 0.67669213
-0.048191674 0.021603167 0.67581642
-0.047983289 0.019855112 0.67494905
-0.047776695 0.018122196 0.67408907
-0.047571871 0.016404092 0.67323649
-0.047368795 0.014700651 0.67239124
-0.047167454 0.013011724 0.67155313
-0.046967648 0.011337012 0.67072141
-0.04676969 0.0096764863 0.66989744
-0.046573393 0.0080298781 0.66908038
-0.046378735 0.0063970685 0.66827011
-0.046185695 0.0047778487 0.66746664
-0.04599411 0.0031720102 0.66666919
-0.045804251 0.0015794635 0.66587889
-0.04561596 -0 0.66509515
-0.045429211 -0.0015665293 0.66431785
-0.045243979 -0.0031202734 0.6635468
-0.045060258 -0.004661411 0.66278207
-0.044877872 -0.0061900616 0.66202295
-0.044697102 -0.0077064037 0.66127044
-0.044517789 -0.0092105567 0.66052407
-0.044339903 -0.010702729 0.6597836
-0.044163428 -0.012183011 0.65904915
-0.043988217 -0.01365152 0.65831983
-0.043814532 -0.015108466 0.65759683
-0.043642215 -0.016553968 0.65687954
-0.043471243 -0.017988086 0.65616786
-0.043301605 -0.019411087 0.65546179
-0.043133289 -0.020822972 0.6547612
-0.042966146 -0.02222383 0.65406543
-0.042800419 -0.023614019 0.65337563
-0.042635966 -0.024993509 0.65269113
-0.042472776 -0.026362419 0.65201187
-0.04231083 -0.027720898 0.65133774
-0.04214998 -0.029068947 0.6506682
-0.041990485 -0.030406922 0.65000433
-0.041832186 -0.031734735 0.6493454
-0.041675076 -0.033052623 0.64869142
-0.041519143 -0.034360677 0.64804238
-0.041364376 -0.035658926 0.64739817
-0.041210629 -0.036947459 0.64675826
-0.041058149 -0.038226575 0.64612353
-0.040906791 -0.039496213 0.64549351
-0.040756542 -0.040756524 0.64486814
-0.040607397 -0.042007655 0.64424735
-0.041820187 -0.044704348 0.64929545
-0.043181811 -0.047648877 0.65496314
-0.044634942 -0.050791502 0.6610117
-0.046189435 -0.054153115 0.6674822
-0.047855943 -0.057757169 0.67441893
-0.049647387 -0.061631203 0.68187571
-0.051577978 -0.065806389 0.6899116
-0.053664993 -0.070319623 0.69859874
-0.055927802 -0.075213224 0.70801753
-0.053096529 0.077748507 0.70412576
-0.052834686 0.075478137 0.70299697
-0.052575417 0.073230028 0.70187926
-0.052318472 0.071003646 0.70077157
-0.052064229 0.068799198 0.69967544
-0.051812451 0.066615999 0.69858998
-0.051563088 0.06445387 0.69751495
-0.05131612 0.062312424 0.69645023
-0.051071506 0.060191393 0.69539571
-0.050829012 0.058090299 0.6943503
-0.05058901 0.056009263 0.69331563
-0.050351262 0.053947777 0.69229066
-0.050115734 0.051905572 0.6912753
-0.049882408 0.049882382 0.69026941
-0.049651049 0.047877789 0.68927205
-0.049422018 0.045891881 0.68828464
-0.049195085 0.043924183 0.68730628
-0.048970226 0.041974485 0.68633693
-0.048747417 0.04004252 0.68537635
-0.048526447 0.038127929 0.68442369
-0.04830765 0.036230743 0.68348044
-0.048090812 0.034350574 0.68254566
-0.047875915 0.032487243 0.68161917
-0.047662929 0.030640483 0.68070102
-0.047451835 0.028810054 0.67979097
-0.047242429 0.026995689 0.67888814
-0.047035031 0.025197357 0.67799407
-0.046829443 0.023414761 0.67710781
-0.046625648 0.021647632 0.67622918
-0.046423618 0.019895822 0.67535824
-0.046223171 0.018159091 0.67449409
-0.046024606 0.016437382 0.67363805
-0.045827739 0.014730334 0.67278934
-0.045632552 0.01303789 0.67194784
-0.04543902 0.011359751 0.67111349
-0.045247123 0.009695828 0.67028624
-0.045056682 0.0080458224 0.66946524
-0.044867992 0.0064097345 0.66865176
-0.044680875 0.0047872066 0.66784513
-0.044495318 0.0031782687 0.66704512
-0.044311292 0.0015825331 0.66625178
-0.044128634 -0 0.66546434
-0.043947622 -0.0015695393 0.66468394
-0.043768089 -0.0031263232 0.66390997
-0.043590017 -0.0046703815 0.66314232
-0.043413386 -0.0062019527 0.66238087
-0.043238185 -0.0077210963 0.6616255
-0.043064252 -0.0092280507 0.66087568
-0.042891845 -0.010722965 0.66013241
-0.042720821 -0.012205958 0.6593951
-0.042551152 -0.01367712 0.65866363
-0.042382821 -0.015136749 0.657938
-0.042215686 -0.016584754 0.6572175
-0.04205 -0.018021464 0.6565032
-0.041885607 -0.01944688 0.65579444
-0.041722495 -0.020861298 0.65509129
-0.041560646 -0.02226463 0.65439349
-0.041400053 -0.023657203 0.65370119
-0.041240562 -0.025038898 0.65301359
-0.041082427 -0.026410133 0.65233189
-0.040925499 -0.027770877 0.65165532
-0.040769767 -0.02912128 0.65098393
-0.040615212 -0.030461401 0.65031767
-0.0404617 -0.031791329 0.64965582
-0.04030947 -0.033111334 0.64899957
-0.04015838 -0.034421474 0.64834821
-0.040008422 -0.035721809 0.64770174
-0.039859574 -0.037012458 0.64706004
-0.039711714 -0.038293451 0.64642251
-0.039565064 -0.039565057 0.64579028
-0.039419495 -0.040827364 0.64516276
-0.039292134 -0.042098731 0.64461374
-0.040535953 -0.044879079 0.64997596
-0.04186096 -0.047841102 0.65568817
-0.043275654 -0.051003456 0.66178709
-0.044789169 -0.054386854 0.66831195
-0.046412542 -0.058015645 0.67531049
-0.048157852 -0.061917275 0.68283468
-0.050039735 -0.066123933 0.69094765
-0.052074473 -0.070672512 0.69971955
-0.054281928 -0.075606942 0.70923615
-0.051320285 0.077930838 0.70466256
-0.051066615 0.075654209 0.70352846
-0.050815441 0.07340008 0.70240551
-0.050566718 0.071167976 0.70129353
-0.050320428 0.068957627 0.70019245
-0.050076324 0.066768438 0.69910109
-0.049834773 0.064600646 0.69802117
-0.049595539 0.062453657 0.69695157
-0.049358591 0.060327172 0.69589227
-0.049123894 0.058220923 0.69484299
-0.048891239 0.056134403 0.69380283
-0.048660953 0.054067731 0.69277334
-0.048432834 0.05202046 0.69175345
-0.048206843 0.049992263 0.69074309
-0.04798295 0.047982961 0.68974209
-0.047761127 0.045992196 0.68875039
-0.047541164 0.044019639 0.68776697
-0.047323402 0.042065263 0.68679345
-0.047107618 0.040128708 0.68582869
-0.046893794 0.038209736 0.68487275
-0.046681911 0.036308169 0.68392545
-0.046471756 0.03442353 0.6829859
-0.046263654 0.032555908 0.68205547
-0.046057411 0.030704916 0.68113345
-0.045852993 0.028870404 0.68021959
-0.045650385 0.027052104 0.67931378
-0.045449559 0.025249749 0.67841589
-0.045250334 0.02346316 0.67752516
-0.045053001 0.021692187 0.67664301
-0.04485739 0.019936591 0.67576844
-0.044663463 0.018196225 0.67490143
-0.044471208 0.01647085 0.67404193
-0.044280447 0.014760166 0.67318904
-0.044091467 0.013064116 0.67234421
-0.043904096 0.01138255 0.67150652
-0.043718312 0.0097151995 0.67067587
-0.043534089 0.0080618858 0.66985226
-0.043351412 0.0064224005 0.66903555
-0.043170121 0.0047966838 0.66822505
-0.042990483 0.0031844974 0.66742194
-0.042812329 0.0015856624 0.66662544
-0.042635649 -2.9802322e-08 0.66583562
-0.042460423 -0.0015726089 0.66505218
-0.042286489 -0.0031323135 0.66427451
-0.042114113 -0.0046793222 0.66350389
-0.041943137 -0.0062137842 0.66273946
-0.041773546 -0.0077358484 0.66198134
-0.04160532 -0.0092456043 0.66122919
-0.041438442 -0.01074332 0.66048312
-0.041272763 -0.012228966 0.65974241
-0.041108537 -0.01370284 0.65900826
-0.040945612 -0.015165031 0.65827978
-0.040783975 -0.016615719 0.65755713
-0.040623609 -0.018054932 0.65684026
-0.040464371 -0.019482851 0.65612829
-0.040306501 -0.020899653 0.65542251
-0.040149864 -0.022305459 0.65472221
-0.039994434 -0.023700416 0.65402734
-0.039840203 -0.025084555 0.65333778
-0.039687037 -0.026457995 0.65265304
-0.039535165 -0.027821034 0.65197408
-0.039384451 -0.029173702 0.65130019
-0.03923488 -0.030515999 0.65063155
-0.039086442 -0.031848192 0.64996791
-0.038939126 -0.033170342 0.64930928
-0.038792796 -0.034482509 0.64865506
-0.038647678 -0.03578487 0.64800626
-0.038503639 -0.037077576 0.64736235
-0.038360674 -0.038360655 0.64672315
-0.038218766 -0.039634258 0.64608872
-0.03807779 -0.040898353 0.64545846
-0.038032956 -0.042258799 0.64525801
-0.039241638 -0.045055181 0.65066177
-0.040529538 -0.048035026 0.65641963
-0.041904978 -0.051217198 0.66256893
-0.043376911 -0.054622769 0.66914958
-0.04495617 -0.058276504 0.67621005
-0.046654597 -0.062206119 0.68380332
-0.048486579 -0.066444576 0.69199371
-0.050468113 -0.071029216 0.70085263
-0.049535897 0.078114301 0.70520276
-0.049290471 0.075831532 0.70406336
-0.049047466 0.073571205 0.7029351
-0.048806649 0.071332812 0.70181704
-0.048568375 0.069116533 0.70071089
-0.048332423 0.06692183 0.69961536
-0.04809875 0.064748317 0.6985305
-0.047867328 0.062595755 0.69745612
-0.047637932 0.060463518 0.69639105
-0.047410913 0.058351904 0.69533706
-0.047186047 0.056260258 0.69429314
-0.046963297 0.054188401 0.69325894
-0.046742644 0.052136034 0.69223452
-0.046523884 0.050102651 0.69121885
-0.046307329 0.048088372 0.6902135
-0.046092782 0.046092778 0.68921739
-0.045880217 0.044115573 0.68823051
-0.045669604 0.042156577 0.6872527
-0.045460913 0.040215403 0.68628383
-0.045253955 0.038291812 0.68532294
-0.045049042 0.036385775 0.68437159
-0.044845968 0.034496903 0.68342876
-0.044644721 0.03262499 0.6824944
-0.044445273 0.030769825 0.6815685
-0.044247441 0.028931022 0.68064994
-0.044051517 0.02710861 0.67974037
-0.043857325 0.025302291 0.67883873
-0.043664832 0.023511857 0.67794508
-0.043474019 0.021737039 0.67705923
-0.043284718 0.01997757 0.67618036
-0.043097213 0.018233418 0.67530984
-0.042911321 0.016504347 0.67444676
-0.042727031 0.014790148 0.67359114
-0.042544313 0.013090551 0.67274284
-0.042363148 0.011405468 0.6719017
-0.042183377 0.0097346306 0.67106712
-0.042005271 0.0080779493 0.67024016
-0.041828662 0.0064351857 0.66942024
-0.041653533 0.0048061907 0.66860718
-0.041479863 0.0031907558 0.6678009
-0.041307494 0.0015887618 0.66700059
-0.041136693 2.9802322e-08 0.66620761
-0.040967297 -0.0015756488 0.66542119
-0.04079929 -0.0031383932 0.66464114
-0.040632658 -0.0046883821 0.66386759
-0.040467378 -0.0062257648 0.66310018
-0.040303305 -0.0077506006 0.6623385
-0.040140688 -0.0092632174 0.66158348
-0.039979383 -0.010763675 0.66083455
-0.039819367 -0.012252092 0.66009164
-0.039660621 -0.013728648 0.65935469
-0.039503016 -0.015193462 0.65862298
-0.039346784 -0.016646713 0.65789759
-0.039191779 -0.01808852 0.65717793
-0.039037991 -0.019519031 0.65646398
-0.038885407 -0.020938307 0.65575558
-0.038734011 -0.022346556 0.65505266
-0.038583666 -0.023743778 0.65435463
-0.03843461 -0.025130332 0.65366262
-0.038286697 -0.026506156 0.65297592
-0.038139917 -0.02787149 0.65229452
-0.037994258 -0.029226363 0.65161824
-0.037849594 -0.030570835 0.65094656
-0.03770614 -0.031905174 0.65028054
-0.037563767 -0.03322947 0.64961958
-0.037422471 -0.034543782 0.64896357
-0.037282232 -0.03584829 0.64831245
-0.037142925 -0.037142932 0.64766574
-0.037004773 -0.038428038 0.64702427
-0.036867637 -0.039703608 0.64638764
-0.036731519 -0.040969789 0.64575565
-0.036764164 -0.042420179 0.64590722
-0.037937008 -0.045232564 0.65135241
-0.039187279 -0.048230469 0.65715706
-0.040522631 -0.05143258 0.66335672
-0.041952349 -0.054860741 0.66999453
-0.043486483 -0.05853951 0.67711705
-0.045137245 -0.062497705 0.68478107
-0.046918105 -0.06676808 0.69304913
-0.048845451 -0.071389496 0.70199728
-0.047742888 0.07829836 0.70574462
-0.047505792 0.076009274 0.7045998
-0.047271036 0.073742807 0.7034663
-0.047038592 0.071498662 0.70234394
-0.046808239 0.069276184 0.70123172
-0.046580311 0.06707561 0.70013124
-0.046354596 0.064896464 0.69904137
-0.046131056 0.06273824 0.69796205
-0.045909658 0.060600787 0.69689298
-0.04569038 0.05848366 0.69583422
-0.045473013 0.056386501 0.6947847
-0.045257874 0.054309458 0.69374591
-0.045044761 0.052251905 0.6927169
-0.044833641 0.050213695 0.6916976
-0.044624504 0.048194468 0.69068772
-0.044417128 0.046193808 0.68968648
-0.044211846 0.044211864 0.68869519
-0.044008449 0.0422481 0.68771315
-0.043806914 0.040302336 0.6867401
-0.04360722 0.038374394 0.68577588
-0.043409176 0.036463708 0.68481958
-0.043213081 0.034570485 0.68387276
-0.043018747 0.032694221 0.68293446
-0.042826153 0.030834824 0.68200451
-0.042635284 0.028992027 0.6810829
-0.042446103 0.027165502 0.68016946
-0.042258441 0.025355011 0.67926335
-0.042072583 0.023560643 0.67836601
-0.041888352 0.021781951 0.67747641
-0.041705728 0.020018756 0.67659461
-0.04152469 0.01827088 0.67572051
-0.041345071 0.016538024 0.67485327
-0.041167144 0.014820188 0.67399412
-0.04099074 0.013117045 0.67314231
-0.040815841 0.011428446 0.67229789
-0.040642433 0.0097542107 0.67146063
-0.040470485 0.0080941021 0.67063034
-0.040299855 0.0064479709 0.66980648
-0.04013079 0.0048156977 0.66899014
-0.039963141 0.0031970739 0.66818064
-0.039796885 0.0015918911 0.66737789
-0.039632004 -0 0.66658181
-0.039468352 -0.0015787184 0.66579163
-0.039306182 -0.0031445026 0.66500854
-0.039145336 -0.0046974123 0.66423196
-0.0389858 -0.0062377453 0.66346163
-0.038827561 -0.0077655315 0.66269761
-0.038670599 -0.00928092 0.66193974
-0.038514778 -0.010784149 0.66118741
-0.038360331 -0.012275308 0.66044164
-0.038207117 -0.013754576 0.65970182
-0.038055122 -0.015222043 0.65896797
-0.037904333 -0.016677886 0.65823984
-0.037754614 -0.018122226 0.65751696
-0.037606191 -0.019555211 0.65680033
-0.037458934 -0.02097699 0.65608931
-0.037312821 -0.022387654 0.65538377
-0.037167847 -0.023787409 0.65468377
-0.037023991 -0.025176316 0.6539892
-0.036881134 -0.026554435 0.65329945
-0.036739483 -0.027922004 0.65261549
-0.036598921 -0.029279113 0.65193677
-0.036459431 -0.030625939 0.6512633
-0.036320999 -0.031962484 0.65059489
-0.036183503 -0.033288836 0.64993095
-0.036047153 -0.034605265 0.64927262
-0.035911832 -0.035911798 0.64861917
-0.035777517 -0.037208617 0.64797068
-0.035644207 -0.038495749 0.64732707
-0.035511777 -0.039773196 0.64668763
-0.035380434 -0.041041315 0.64605343
-0.035485536 -0.042582661 0.64656091
-0.036622178 -0.045411497 0.65204906
-0.037834052 -0.048427612 0.65790057
-0.039128739 -0.051649958 0.66415185
-0.040515177 -0.05510062 0.67084616
-0.042003624 -0.058805048 0.67803299
-0.043605611 -0.062792093 0.68576801
-0.045334462 -0.067095011 0.6941157
-0.047206249 -0.071753502 0.70315349
-0.045941599 0.078483552 0.70628995
-0.045712724 0.076187909 0.7051388
-0.045486301 0.073915243 0.704
-0.045262113 0.071664989 0.7028724
-0.045040123 0.069436848 0.70175588
-0.044820301 0.067230463 0.70065027
-0.044602439 0.065045208 0.6995545
-0.044386856 0.06288138 0.69847023
-0.044173349 0.060738355 0.69739634
-0.04396189 0.058615863 0.69633281
-0.043752439 0.056513548 0.69527936
-0.043544807 0.054430991 0.69423509
-0.043339308 0.052368343 0.69320142
-0.043135736 0.050325036 0.69217753
-0.042934068 0.048300862 0.69116318
-0.042734277 0.046295464 0.69015843
-0.042536337 0.044308692 0.68916279
-0.042340063 0.04234007 0.68817562
-0.042145748 0.040389657 0.68719834
-0.04195321 0.038457125 0.68622994
-0.041762423 0.036542088 0.68527031
-0.041573361 0.034644455 0.68431944
-0.041385856 0.032763779 0.68337637
-0.041200183 0.030900121 0.68244249
-0.041016169 0.029053122 0.681517
-0.04083379 0.027222544 0.68059969
-0.040653028 0.025408149 0.67969048
-0.040473711 0.023609668 0.6787886
-0.040296115 0.021827072 0.67789537
-0.040120073 0.020060033 0.67700994
-0.039945558 0.018308371 0.6761322
-0.039772555 0.016571909 0.67526209
-0.039601047 0.014850378 0.67439944
-0.039430872 0.013143629 0.67354351
-0.039262291 0.011451483 0.6726957
-0.039095145 0.0097737908 0.67185497
-0.038929414 0.0081102848 0.6710214
-0.038765084 0.0064608455 0.67019492
-0.038602136 0.0048252642 0.6693753
-0.038440421 0.003203392 0.66856194
-0.038280185 0.0015949905 0.66775608
-0.038121279 -0 0.66695678
-0.037963688 -0.0015818179 0.66616416
-0.037807394 -0.0031506419 0.66537809
-0.037652258 -0.004706502 0.66459775
-0.037498511 -0.0062497854 0.6638245
-0.037346017 -0.0077804327 0.66305751
-0.037194755 -0.0092986524 0.66229677
-0.037044715 -0.010804743 0.66154212
-0.036895882 -0.012298614 0.66079354
-0.036748119 -0.013780564 0.66005039
-0.036601651 -0.015250683 0.65931368
-0.03645635 -0.016709149 0.65858287
-0.0363122 -0.018156111 0.65785784
-0.036169179 -0.019591659 0.65713847
-0.036027171 -0.021015853 0.65642422
-0.035886388 -0.022428989 0.65571612
-0.035746697 -0.023831129 0.65501356
-0.03560809 -0.025222361 0.65431643
-0.035470556 -0.026602954 0.65362465
-0.035333969 -0.027972698 0.65293765
-0.035198536 -0.029332131 0.65225655
-0.035064142 -0.030681103 0.65158057
-0.034930769 -0.032019883 0.65090978
-0.034798402 -0.033348471 0.650244
-0.034667041 -0.034667045 0.64958334
-0.034536559 -0.035975605 0.64892703
-0.034407165 -0.03727442 0.64827621
-0.034278732 -0.038563579 0.64763027
-0.034151256 -0.039843142 0.64698911
-0.034024727 -0.041113198 0.64635277
-0.034197181 -0.042746484 0.64722013
-0.03529691 -0.045591831 0.65275127
-0.036469601 -0.048626155 0.6586495
-0.037723012 -0.051869154 0.66495371
-0.039065517 -0.055342823 0.67170596
-0.04050725 -0.059073091 0.67895728
-0.042059317 -0.063088983 0.68676364
-0.043735228 -0.067425162 0.69519281
-0.04555006 -0.072120935 0.70432067
-0.043911386 0.076367617 0.70568132
-0.043693379 0.074088752 0.70453715
-0.043477349 0.07183212 0.70340335
-0.043263618 0.069598019 0.70228159
-0.04305198 0.067385763 0.70117086
-0.042842399 0.065194935 0.70007092
-0.042634852 0.063025415 0.69898164
-0.042429138 0.060876578 0.69790202
-0.042225566 0.058748662 0.69683361
-0.042023934 0.056640953 0.69577539
-0.041824222 0.05455333 0.69472724
-0.041626398 0.052485466 0.69368899
-0.04143028 0.050436825 0.69265968
-0.041236155 0.048407674 0.69164085
-0.041043844 0.046397358 0.69063157
-0.040853314 0.044405788 0.68963164
-0.04066455 0.042432576 0.68864095
-0.040477518 0.040477514 0.68765932
-0.040292054 0.038540244 0.68668592
-0.040108427 0.036620706 0.68572223
-0.039926466 0.034718663 0.68476725
-0.039746147 0.032833785 0.6838209
-0.039567452 0.030965835 0.68288302
-0.03939021 0.029114485 0.68195283
-0.039214693 0.027279794 0.6810317
-0.039040733 0.025461316 0.68011868
-0.038868312 0.023658961 0.67921376
-0.038697407 0.021872461 0.67831677
-0.038527995 0.020101577 0.67742771
-0.038359929 0.018346041 0.67654556
-0.038193449 0.016605854 0.67567188
-0.038028415 0.014880717 0.6748057
-0.037864801 0.013170362 0.67394704
-0.037702587 0.011474699 0.67309564
-0.037541628 0.0097934604 0.67225093
-0.037382163 0.0081265271 0.67141402
-0.037224051 0.0064737499 0.6705842
-0.037067268 0.0048348904 0.6697613
-0.036911801 0.0032097101 0.66894543
-0.036757633 0.0015981495 0.6681363
-0.036604624 -2.9802322e-08 0.6673333
-0.036453005 -0.0015849471 0.66653752
-0.036302641 -0.0031567514 0.66574836
-0.036153506 -0.0047156811 0.66496569
-0.036005594 -0.0062618256 0.6641894
-0.035858769 -0.0077953935 0.66341883
-0.035713255 -0.009316504 0.66265512
-0.035568919 -0.010825306 0.66189754
-0.035425741 -0.012322009 0.66114616
-0.035283715 -0.013806671 0.66040075
-0.035142705 -0.015279442 0.6596607
-0.035002936 -0.016740561 0.65892714
-0.034864269 -0.018190026 0.65819931
-0.034726698 -0.019628137 0.65747738
-0.034590207 -0.021054894 0.65676105
-0.034454789 -0.022470504 0.65605032
-0.034320317 -0.023875028 0.65534455
-0.034186997 -0.025268644 0.65464485
-0.034054708 -0.026651502 0.65395057
-0.03392344 -0.02802369 0.6532616
-0.033793181 -0.029385388 0.652578
-0.033663813 -0.030736536 0.65189904
-0.033535533 -0.032077461 0.65122581
-0.033408232 -0.033408195 0.65055764
-0.033281889 -0.034728914 0.6498946
-0.033156503 -0.03603968 0.64923656
-0.033032056 -0.037340552 0.64858335
-0.03290844 -0.038631648 0.64793468
-0.03278584 -0.039913207 0.64729118
-0.032664157 -0.04118523 0.64665252
-0.032898877 -0.042911589 0.64788449
-0.033960965 -0.045773476 0.6534586
-0.035094026 -0.048826486 0.65940517
-0.036305185 -0.052090049 0.66576171
-0.037603062 -0.055587143 0.67257333
-0.038997032 -0.059343308 0.67988932
-0.040498484 -0.063388914 0.68776935
-0.042120017 -0.067758262 0.69627964
-0.043876994 -0.072492421 0.70550084
-0.042101361 0.076547921 0.70622534
-0.041891847 0.074262798 0.70507586
-0.041684411 0.072000355 0.70393765
-0.041479014 0.069760144 0.70281065
-0.041275471 0.067541689 0.70169383
-0.041074075 0.065345168 0.70058882
-0.040874638 0.063169926 0.69949454
-0.040677126 0.061015666 0.69841081
-0.040481515 0.058882207 0.69733751
-0.040287621 0.056768924 0.69627368
-0.040095732 0.054676026 0.69522077
-0.039905656 0.052602947 0.69417787
-0.039717376 0.050549358 0.69314486
-0.039530866 0.048515141 0.69212145
-0.039345954 0.046499759 0.69110686
-0.039162904 0.044503301 0.69010258
-0.038981553 0.042525321 0.68910742
-0.038801875 0.04056561 0.68812156
-0.038623843 0.038623869 0.68714476
-0.038447436 0.036699831 0.68617684
-0.038272496 0.034793168 0.68521702
-0.038099278 0.03290391 0.68426657
-0.037927624 0.031031668 0.68332475
-0.037757508 0.029176235 0.68239129
-0.037588909 0.027337372 0.68146622
-0.037421677 0.025514781 0.68054867
-0.037256058 0.023708373 0.67963994
-0.037091903 0.021917909 0.67873925
-0.036929183 0.020143181 0.67784643
-0.036767885 0.01838395 0.67696142
-0.036607992 0.016640007 0.67608416
-0.036449358 0.014911115 0.67521369
-0.036292214 0.013197184 0.67435145
-0.036136422 0.011497974 0.67349672
-0.035981961 0.0098132491 0.6726492
-0.035828818 0.0081429183 0.67180884
-0.035676848 0.0064866841 0.67097509
-0.035526283 0.0048444867 0.67014897
-0.035376985 0.0032160878 0.66932976
-0.035228934 0.0016013384 0.66851741
-0.03508212 -0 0.66771185
-0.034936521 -0.0015880167 0.66691297
-0.034792013 -0.0031628907 0.66612011
-0.03464881 -0.0047248304 0.66533434
-0.034506775 -0.0062739551 0.66455501
-0.034365907 -0.0078104436 0.66378212
-0.034226183 -0.0093343854 0.66301548
-0.034087475 -0.010846049 0.66225445
-0.033950005 -0.012345433 0.6615001
-0.033813633 -0.013832837 0.66075188
-0.033678357 -0.015308321 0.66000962
-0.033544153 -0.016772062 0.65927327
-0.033410914 -0.01822412 0.65854222
-0.03327883 -0.019664764 0.65781748
-0.033147786 -0.021094054 0.65709847
-0.033017773 -0.022512108 0.65638506
-0.032888778 -0.023919106 0.65567732
-0.032760784 -0.025315166 0.65497506
-0.032633681 -0.026700288 0.65427762
-0.032507658 -0.028074801 0.65358621
-0.032382611 -0.029438734 0.65290004
-0.032258518 -0.030792207 0.65221918
-0.032135371 -0.032135367 0.6515435
-0.032013066 -0.033468246 0.65087247
-0.031891786 -0.034791023 0.65020698
-0.031771421 -0.036103874 0.64954656
-0.031651959 -0.037406862 0.64889109
-0.031533394 -0.038700074 0.64824051
-0.031415712 -0.03998366 0.64759487
-0.031298816 -0.04125753 0.64695346
-0.031590406 -0.043077826 0.64855337
-0.032614432 -0.045956731 0.65417206
-0.033707071 -0.049028456 0.66016722
-0.034875344 -0.05231303 0.66657734
-0.036127634 -0.055833578 0.67344844
-0.037473068 -0.059616268 0.68083072
-0.038922738 -0.063691735 0.68878472
-0.040488925 -0.068094999 0.69737816
-0.04218661 -0.072867781 0.70669311
-0.040282767 0.076729059 0.70677209
-0.040081833 0.074437678 0.70561707
-0.039882891 0.072169036 0.7044735
-0.039685916 0.069922805 0.70334131
-0.039490875 0.067698658 0.70222014
-0.039297745 0.065496236 0.70111001
-0.039106335 0.063315064 0.70000976
-0.038916938 0.0611552 0.69892108
-0.038729366 0.059016198 0.6978429
-0.038543593 0.0568977 0.69677508
-0.038359594 0.054799408 0.69571739
-0.038177196 0.052720875 0.69466895
-0.037996668 0.05066222 0.69363129
-0.037817843 0.048622936 0.69260335
-0.037640691 0.046602756 0.69158506
-0.037465192 0.044601411 0.69057631
-0.03729118 0.042618483 0.68957603
-0.037118919 0.040654063 0.68858588
-0.036948241 0.038707703 0.68760478
-0.036779124 0.036779135 0.68663263
-0.03661155 0.034868121 0.68566942
-0.036445495 0.032974511 0.68471491
-0.036280807 0.031097829 0.68376827
-0.036117733 0.029238164 0.68283093
-0.035956115 0.027395099 0.68190193
-0.035795938 0.025568545 0.68098122
-0.035637185 0.023758113 0.68006867
-0.035479706 0.021963626 0.67916346
-0.035323735 0.020184964 0.67826688
-0.035169132 0.018421918 0.67737824
-0.035015877 0.016674221 0.67649728
-0.034863949 0.014941692 0.67562401
-0.034713339 0.013224155 0.67475826
-0.034563899 0.01152128 0.67389929
-0.034415863 0.0098330975 0.67304838
-0.034269087 0.0081593096 0.67220461
-0.034123559 0.0064997077 0.67136812
-0.033979263 0.0048541725 0.67053872
