# .PCD v0.7 - Point Cloud Data file format
VERSION 0.7
FIELDS x y z
SIZE 4 4 4
TYPE F F F
COUNT 1 1 1
WIDTH 798
HEIGHT 1
VIEWPOINT 0 0 0 1 0 0 0
POINTS 798
DATA ascii
-0.043057822 -0.045590639 0.62809038
-0.042549469 -0.039970756 0.63086325
-0.041296825 -0.04129681 0.63100183
-0.03658057 -0.043112814 0.6329239
-0.042919639 -0.03641668 0.63221729
-0.041777607 -0.03655538 0.63281542
-0.034329459 -0.042251617 0.63460356
-0.027936991 -0.047891974 0.63580692
-0.047801826 -0.022573054 0.6355046
-0.037342042 -0.034674764 0.63620669
-0.037342042 -0.034674764 0.63620669
-0.037342042 -0.034674764 0.63620669
-0.035263814 -0.031194896 0.63894153
-0.040537532 -0.025673747 0.63833201
-0.045909848 -0.01890406 0.63821596
-0.025860708 -0.04219377 0.63951963
-0.033939268 -0.032581687 0.63909483
-0.020493198 -0.047817469 0.64013809
-0.037033476 -0.024688959 0.64078957
-0.041031949 -0.020515978 0.64032137
-0.041031949 -0.020515978 0.64032137
-0.049411096 -0.0082351565 0.64090061
-0.028879253 -0.034380078 0.64122319
-0.034355272 -0.027484208 0.64110351
-0.019381378 -0.044300318 0.64233148
-0.026259139 -0.035933554 0.64205098
-0.027786013 -0.031953901 0.64292496
-0.043015081 -0.012488216 0.64271772
-0.018126188 -0.043223977 0.64353114
-0.03625045 -0.019519478 0.6435222
-0.049137637 -0 0.64469117
-0.025370352 -0.029598743 0.64535898
-0.025370352 -0.029598743 0.64535898
-0.045198563 -0.0028249025 0.64572001
-0.0535293 0.0070433319 0.64526254
-0.052335769 0.0070724189 0.64596438
-0.056609035 -0.04953289 0.64605445
-0.056609035 -0.04953289 0.64605445
-0.056609035 -0.042456776 0.64605451
-0.015610213 -0.039735079 0.64652336
-0.027008191 -0.024165213 0.64680982
-0.056608863 -0.0099065304 0.64605391
-0.049760763 0.0056869686 0.64684027
-0.010004556 -0.044305861 0.64774394
-0.029982472 -0.018560588 0.64756465
-0.029982472 -0.018560588 0.64756465
-0.034164835 -0.014235348 0.64705741
-0.017230554 -0.033025235 0.64854753
-0.038814034 -0.0043126643 0.64875007
-0.045921635 0.0043051541 0.64844751
-0.043275598 0.0028850436 0.64934909
-0.053345233 0.015859395 0.64925778
-0.057870205 0.02314809 0.64986038
-0.057870205 0.02314809 0.64986038
-0.004388866 -0.042425692 0.65181589
-0.060007546 -0.033662766 0.65189356
-0.017568028 -0.024888039 0.65194225
-0.060007546 -0.023417592 0.65189356
-0.032198574 -0.0058542788 0.65189028
-0.060007546 -0 0.65189356
-0.060007546 0.0029272139 0.65189356
-0.040999558 0.0058570802 0.65197456
-0.042420976 0.0073139668 0.65179622
-0.020588901 -0.019118279 0.65274298
0.0029583962 -0.048813522 0.65377659
0.0014737041 -0.047158509 0.65311337
-0.010333879 -0.031001627 0.65342289
-0.013303122 -0.026606232 0.65364695
0.0014834561 -0.044503659 0.65429056
-0.011876224 -0.026721478 0.6544199
-0.013347125 -0.025211245 0.65423715
-0.051899623 0.025208384 0.65421695
-0.05493461 0.029694408 0.65444303
0 -0.0389162 0.65589857
-0.014963266 -0.019452244 0.65584415
-0.0060024117 -0.030012071 0.65636039
-0.045012943 0.021006048 0.65633965
-0.0075457138 -0.025655419 0.65739119
-0.0075457138 -0.025655419 0.65739119
-0.034644675 0.0090377033 0.65704691
-0.046778049 0.025652468 0.65737027
-0.060403135 0.043792278 0.6575042
-0.063646816 -0.056069791 0.65814656
0.0090976823 -0.045488387 0.65825278
0.0090976823 -0.045488387 0.65825278
0.0060729547 -0.040992439 0.65848923
0.0045654089 -0.038045079 0.65891939
-0.015217148 -0.012173682 0.65890878
-0.063646816 -0.010607809 0.65814656
-0.019787198 -0.006088376 0.65895438
-0.040912267 0.01969853 0.65813071
0 -0.030547231 0.65959036
-0.0091375858 -0.0197981 0.65905559
-0.018284246 -0.0076183975 0.6591469
-0.028934009 0.0060913861 0.65904498
-0.027533611 0.0061185956 0.65986609
-0.036729675 0.018364847 0.65995753
-0.042816758 0.02599591 0.6598087
0.012280449 -0.044516623 0.66051924
-0.027627781 0.007674396 0.66049755
-0.044603128 0.030760765 0.66087925
-0.0046305442 -0.020065695 0.66154027
-0.0077277455 -0.015455514 0.66178584
-0.024694784 0.0061737299 0.6615293
-0.036982145 0.021572918 0.66122741
-0.044756662 0.032409996 0.66151839
-0.054043666 0.044779062 0.66161144
-0.060171328 0.052457064 0.66146058
-0.038748093 0.02634874 0.66231394
-0.063559175 0.058908492 0.66235012
0.012450926 -0.038909137 0.66309154
0.0093831904 -0.032841146 0.66399682
0.0031251651 -0.025001347 0.66384196
-0.045223527 0.037426382 0.66346169
-0.052920446 0.046694517 0.66310579
-0.057604317 0.052933693 0.66315281
-0.06755314 -0.062840134 0.66485846
0.017235255 -0.042304754 0.66435605
-0.06755314 -0.036133051 0.6648584
-0.067552909 -0.025135964 0.6648578
-0.067552909 -0.015709996 0.66485786
-0.067552909 -0.014138967 0.6648578
-0.067552909 -0.012567967 0.6648578
-0.067552909 -0.010996968 0.6648578
-0.067552909 -0.0094259679 0.6648578
-0.0093927644 -0.0078273416 0.6641894
-0.067552909 0.0094259679 0.6648578
-0.021956891 0.0094101131 0.66453809
-0.067552909 0.020422965 0.6648578
-0.029846083 0.020421028 0.66483951
-0.029846083 0.020421028 0.66483951
-0.067552909 0.021993965 0.66485786
-0.067552909 0.023564965 0.6648578
-0.067552909 0.025135964 0.6648578
-0.067552909 0.032990932 0.66485786
-0.067552909 0.034561962 0.6648578
-0.01575161 0.0031503141 0.66536033
-0.025215438 0.015759677 0.66545731
-0.025215438 0.015759677 0.66545731
-0.058210526 0.058210552 0.66513056
0.022240926 -0.042893201 0.66698706
0.0047424133 -0.022131264 0.66604149
-0.0015850727 -0.01268056 0.66655678
-0.055378355 0.056960613 0.6662147
-0.058621932 0.061790705 0.66647273
-0.061656114 0.064817965 0.66605622
-0.063391432 0.068145782 0.66652215
-0.066415779 0.07115978 0.66610473
-0.06843289 -0.066841453 0.66732812
0.014320848 -0.031824112 0.66729701
0.0031805683 -0.017493129 0.6671859
-0.015919289 0.0079596341 0.66738439
-0.05730249 0.062077761 0.66736108
0.011233378 -0.024071515 0.66893423
0.0047930963 -0.017574668 0.66808087
-0.011180299 0.0031943917 0.66801894
-0.020848535 0.017641068 0.66880935
-0.020848535 0.017641068 0.66880935
0.028927086 -0.046604753 0.66921097
0.021077218 -0.032426476 0.67093271
0.017794762 -0.029118687 0.67049587
-0.003235223 -0.0016175807 0.67048454
-0.037273709 0.043756068 0.67084479
-0.056575924 0.067891121 0.67034495
0.027686192 -0.039086372 0.67181087
-0.032520771 0.039024949 0.67150176
-0.042299416 0.052060783 0.67160583
-0.056780636 0.069759071 0.67105097
0.026123133 -0.035919309 0.67230541
0.0016348704 -0.003269732 0.6725679
0 -0.0016330481 0.67234558
0 -0.0016330481 0.67234558
-0.013089378 0.016361743 0.67272502
-0.027735895 0.034262031 0.67216384
-0.027837195 0.0360246 0.67288315
-0.03927616 0.050731659 0.67276537
-0.048942655 0.061994016 0.67215163
0.034480557 -0.044332147 0.67342019
0.014847593 -0.016497314 0.67436194
0.011564397 -0.011564404 0.6746425
0.009901057 -0.0099010468 0.67441547
0.0066100061 -0.0049574971 0.67469615
0.0066100061 -0.0049574971 0.67469615
0.0033096557 -0 0.67497694
-0.0082387971 0.013182104 0.6741237
-0.016505161 0.024757773 0.67445648
-0.051073954 0.069196969 0.67409807
0.026509181 -0.029822797 0.67521793
0.026509181 -0.029822797 0.67521793
0.011607167 -0.0099489689 0.67537999
-0.034866277 0.051469237 0.67563742
-0.041471194 0.059718519 0.67546225
-0.046460293 0.066371858 0.67551637
-0.051452097 0.073028773 0.67557049
-0.0083306171 0.018327326 0.67634046
-0.03499575 0.053326875 0.67638159
-0.051643088 0.074965775 0.67631423
-0.026817484 0.045254529 0.67754388
-0.036894061 0.058695108 0.67765373
0.028621588 -0.025254369 0.67845285
0.026906811 -0.023543447 0.67821777
-0.021864897 0.040365964 0.67824668
-0.076293617 -0.059339523 0.67987615
-0.076293617 -0.04238534 0.67987609
-0.076293617 -0.028822005 0.67987609
-0.076293617 -0.02712661 0.67987609
-0.076293617 -0.025431186 0.67987609
-0.076293617 -0.023735791 0.67987609
-0.076293617 -0.020344943 0.67987609
-0.076293617 -0.018649548 0.67987609
-0.076293617 -0.016954124 0.67987609
0.023666082 -0.016904324 0.67927504
-0.076293617 -0.015258729 0.67987609
-0.076293617 -0.013563305 0.67987609
-0.076293617 -0.011867911 0.67987609
-0.076293617 -0.008477062 0.67987609
-0.076293342 0.0033908188 0.67987537
0.0016903256 0.011832267 0.67926192
-0.076293342 0.01525867 0.67987537
-0.076293342 0.016954064 0.67987537
-0.076293342 0.020344913 0.67987537
-0.076293342 0.027126521 0.67987537
-0.076293342 0.028821915 0.67987537
-0.076293342 0.03051734 0.67987537
-0.076293342 0.032212734 0.67987537
-0.076293342 0.033908129 0.67987537
-0.076293342 0.055948496 0.67987537
-0.076293342 0.055948496 0.67987537
-0.076293342 0.057643861 0.67987531
-0.037172139 0.062516809 0.67917943
0.018741194 -0.0068149567 0.68088174
0.010201359 0.0034004152 0.68045706
0.049514286 -0.046099544 0.68132174
0.042809244 -0.03595975 0.68192285
0.037539236 -0.030713946 0.68119371
0.037539236 -0.030713946 0.68119371
-0.040918499 0.071607351 0.68102574
-0.017135805 0.042839497 0.682069
0.018957241 -0.0017233789 0.68325257
0.018957241 -0.0017233789 0.68325257
-0.012084016 0.039704651 0.68360293
-0.015559497 0.044949681 0.68391013
0.032930594 -0.017331898 0.68443596
0.025974117 -0.0086580217 0.68424511
0.05387627 -0.043448597 0.68500996
0.0069967052 0.020990133 0.68636578
-0.017537853 0.054367334 0.68692219
0.035112843 -0.014045179 0.68714637
0.0017565297 0.029860973 0.68725348
0 0.03346467 0.68782878
-0.081204236 0.0035305917 0.68831325
0.0070795384 0.026548266 0.68886554
-0.081204236 0.028244913 0.68831325
-0.081204236 0.040602088 0.68831325
-0.081204236 0.040602088 0.68831325
-0.0035418121 0.040730834 0.6889888
-0.08120393 0.063550919 0.68831247
-0.026561799 0.070831448 0.68897444
0.05331419 -0.031988531 0.68974131
0.037352238 -0.010672063 0.68992698
-0.0088921851 0.049796253 0.68989789
0.044686109 -0.017874449 0.6909852
0.026802035 0.0053603947 0.69090772
-0.02141232 0.067805707 0.69061285
0.0448648 -0.016151339 0.69184804
0.033981238 -0.0035769641 0.69111097
-0.0053697666 0.048327893 0.69128436
0.023357017 0.012576818 0.69210172
0.0036020563 0.039622605 0.69262487
0.048769765 -0.01806286 0.69325972
0.039811373 -0.0054288208 0.69366056
0.02354564 0.016300797 0.69385314
0.019954054 0.021768034 0.69419134
0.054835029 -0.020106196 0.69586068
0.020116759 0.025603175 0.69597685
0.060547341 -0.025686771 0.69669771
-0.086537488 -0.036824465 0.69747686
-0.086537488 -0.02025345 0.69747686
0.055285808 -0.016585737 0.69767445
0.053375091 -0.014724165 0.69739205
-0.086537488 -0.012888551 0.69747686
-0.086537488 -0.011047333 0.6974768
-0.086537488 -0.011047333 0.6974768
-0.086537488 -0.0092061162 0.69747686
-0.086537488 -0.0036824346 0.69747686
-0.086537488 -0.0018412173 0.69747686
-0.086537488 0.0055236816 0.69747686
-0.086537153 0.0073648393 0.69747603
-0.086537153 0.0092060566 0.69747603
-0.086537153 0.0092060566 0.69747603
-0.086537153 0.011047304 0.69747603
-0.086537153 0.012888521 0.69747597
-0.086537153 0.012888521 0.69747597
0.016552435 0.033104867 0.69722778
0.0055207871 0.047846824 0.69736087
-0.086537153 0.058918923 0.69747597
-0.086537153 0.06076014 0.69747597
-0.086537153 0.062601358 0.69747597
0.07762596 -0.044357687 0.69832355
0.075681232 -0.042455316 0.69803941
0.081868045 -0.046515942 0.6998204
0.053816732 -0.011134505 0.69923031
0.014877485 0.040913075 0.69970548
-0.0055698287 0.066837966 0.69933414
0.082209215 -0.044841409 0.70075637
0.04673491 0.0018693805 0.70087767
0.029813278 0.022359937 0.70014536
0.024230646 0.02982232 0.70021373
0.056209527 -0.0093682706 0.70139128
0.082899816 -0.041449904 0.70265096
0.054493167 -0.0056372285 0.70204598
0.054493167 -0.0056372285 0.70204598
0.04732671 0.0075722933 0.70373517
0.0075566838 0.058564305 0.70326471
-0.0037806693 0.073723048 0.70340514
0.068265319 -0.018962592 0.70412022
0.068265319 -0.018962592 0.70412022
0.056922942 -0.0037948489 0.70426178
0.03434157 0.028617978 0.70552123
0.088005885 -0.0401766 0.70616186
0.07456176 -0.022942096 0.7060011
0.082644455 -0.030751407 0.70722312
-0.092349678 -0.0038478971 0.70746309
-0.092349678 -0.0019239485 0.70746303
0.053899392 0.0076999068 0.707587
-0.092349678 0.019239515 0.70746309
-0.092349678 0.032707185 0.70746303
-0.092349678 0.034631133 0.70746303
0.088763058 -0.036662966 0.70814872
0.057902899 0.0038602352 0.70820487
0.057902899 0.0038602352 0.70820487
0.050348047 0.015491664 0.70897341
0.017409125 0.058030397 0.70871788
0.017409125 0.058030397 0.70871788
0.0077192518 0.069473267 0.70817059
0.094930671 -0.042621911 0.70908171
0.04855644 0.019422561 0.70967281
0.077904515 -0.017528534 0.71031922
0.046754081 0.023377061 0.71037644
0.033238325 0.043014318 0.71123457
0.023509035 0.056813508 0.71170425
0.023612114 0.059030294 0.71274102
0.017714763 0.066922486 0.71281719
0.047371566 0.029607266 0.71348214
0.073359333 -0.0019827187 0.71455282
0.015864206 0.073371977 0.71459395
0.049851991 0.031905293 0.71592832
0.035867404 0.049815834 0.71575373
0.035867404 0.049815834 0.71575373
0.082101636 -0.0080099106 0.71694219
0.069820486 0.0059846044 0.7160238
0.027991885 0.061982036 0.71657294
-0.098708734 0.022159129 0.71838892
-0.098708734 0.034245878 0.7183888
0.050299205 0.036215425 0.71808761
-0.098708734 0.05439049 0.71838892
0.024250479 0.072751433 0.71916252
0.05075451 0.040603638 0.72028601
0.032515153 0.065030307 0.72052944
0.044882048 0.051002353 0.72148257
0.044882048 0.051002353 0.72148257
0.02654757 0.075558484 0.72172737
0.063468382 0.028663158 0.72236067
0.047203153 0.051307797 0.72295743
0.038951788 0.061502844 0.72268981
0.032812465 0.069726467 0.72277248
0.059750564 0.037086546 0.72392958
0.03085918 0.07406202 0.72355705
0.074917525 0.022891432 0.72642565
0.070880927 0.029186249 0.72687113
0.085538961 0.010431558 0.72706223
0.046141371 0.065017402 0.7283923
0.037710354 0.075420707 0.72811282
0.061444208 0.050850421 0.7309792
0.082667075 0.023316383 0.73108822
0.059519719 0.055268317 0.73181677
0.044605274 0.074342132 0.7316184
0.076696821 0.034087509 0.73239172
0.074457251 0.036164969 0.73201543
0.047020998 0.074806184 0.73321867
0.079320781 0.034300894 0.73400176
0.068751149 0.049414903 0.73456526
0.079701513 0.036619633 0.73524386
0.060378239 0.0625346 0.73551792
0.079334989 0.05068627 0.74123764
0.061865397 0.075122297 0.74192929
0.077393986 0.05528143 0.74214387
0.077393986 0.05528143 0.74214387
0.078555934 0.062844723 0.74615133
-0.044180594 -0.035084575 0.6320765
-0.044180594 -0.035084575 0.6320765
-0.03502417 -0.040973172 0.6347667
-0.036957465 -0.038936362 0.63454872
-0.046949804 -0.025128752 0.63486934
-0.03862156 -0.027103797 0.63880742
-0.045322839 -0.018941462 0.63853836
-0.03301226 -0.028885692 0.64126039
-0.038251981 -0.024590582 0.64012951
-0.050581038 -0.0082023144 0.64023972
-0.01953217 -0.041155994 0.6436317
-0.01953217 -0.041155994 0.6436317
-0.031280085 -0.027109556 0.64304423
-0.042948782 -0.013160631 0.64245951
-0.048380449 -0.0069114864 0.64207977
-0.022383852 -0.036373764 0.64409471
-0.033347771 -0.019257268 0.64531434
-0.03957808 -0.0098944902 0.64584643
-0.044775527 -0.0069961548 0.64412415
-0.024097942 -0.029058143 0.64633209
-0.022883542 -0.027174234 0.64786458
-0.014341235 -0.037287205 0.64833558
-0.018677888 -0.030889183 0.64865398
-0.030078255 -0.017187595 0.64811522
-0.034438282 -0.010760799 0.64843273
-0.038752064 -0.0050222576 0.64847302
-0.040211838 -0.0028722584 0.64857864
-0.04513767 0.004803787 0.64912021
-0.060007639 -0.054885045 0.65189385
-0.0043463334 -0.04636088 0.65010452
-0.060007546 -0.043176144 0.65189356
-0.0086947195 -0.040575355 0.65014583
-0.010657805 -0.036820423 0.6506688
-0.014621812 -0.029243618 0.65172243
-0.024682952 -0.018875182 0.65048599
-0.027801229 -0.011705786 0.6518482
-0.040932827 0.0051178038 0.65168691
-0.048860263 0.014585599 0.65128553
-0.0051498143 -0.03900221 0.65288687
-0.014693686 -0.027182117 0.65259004
-0.022543158 -0.016662618 0.65269804
-0.026364619 -0.013182282 0.65202665
-0.027304683 -0.0088560879 0.65339231
-0.048872128 0.020733625 0.65399086
-0.0089402907 -0.029054701 0.65508634
-0.020932136 -0.011961251 0.65570247
-0.061027844 0.038700551 0.65489751
-0.061027844 0.038700551 0.65489751
0.00075547351 -0.036935687 0.65720868
-0.0030074231 -0.033081651 0.6567356
-0.015013372 -0.01801604 0.65644896
-0.021002106 -0.010501057 0.65630573
-0.03917316 0.015066594 0.6570915
-0.050974373 0.028485686 0.65619659
-0.049859993 0.030218184 0.6576044
-0.015268921 -0.010688245 0.65953374
-0.022783535 -0.0030378103 0.65856934
-0.022860982 -0.001524061 0.65919256
-0.054590121 0.037909806 0.65826631
-0.053129137 0.036431432 0.6584574
-0.056237891 0.041038483 0.65869486
0.009238258 -0.039261281 0.66108096
0.00076973339 -0.029184431 0.66063613
0.00051492371 -0.027240038 0.66134685
-0.027818248 0.010818213 0.66177487
-0.033972416 0.018530369 0.66162312
-0.043259244 0.030899465 0.66171628
-0.043259244 0.030899465 0.66171628
-0.055149518 0.042894095 0.660142
-0.0093600824 -0.009360075 0.6635319
-0.031273574 0.020327836 0.66397429
-0.06755314 -0.061269104 0.6648584
0.014684003 -0.037231486 0.66512114
-0.067552909 -0.017280996 0.66485786
-0.003138995 -0.014908865 0.66467667
-0.017247435 0.0031358898 0.66448969
-0.047307961 0.044943959 0.66557407
0.025428925 -0.046883166 0.667068
0.014346327 -0.031082302 0.66763878
-0.0095595922 -0 0.66754574
-0.04139838 0.041398376 0.66742259
-0.04139838 0.041398376 0.66742259
-0.049264327 0.050853521 0.66705155
-0.058829628 0.063599586 0.66715032
-0.058829628 0.063599586 0.66715032
0.020776756 -0.038357079 0.6681428
0.0015998785 -0.012799054 0.66834402
-0.011260527 0.0064345598 0.66940242
-0.043250315 0.046454042 0.66858357
-0.064070627 0.073681235 0.66857171
0.024286285 -0.037238955 0.67066252
-0.0016252835 -0.0016252995 0.67141068
-0.0016252835 -0.0016252995 0.67141068
-0.027436471 0.02905035 0.67003775
-0.030706553 0.033938795 0.67030621
-0.043088242 0.052844152 0.6714958
-0.05015282 0.059859842 0.67051125
-0.056986839 0.071640611 0.67176217
-0.071757048 -0.06686455 0.67208159
-0.071757048 -0.065233678 0.67208165
-0.02623116 -0.060659587 0.67312038
-0.071756802 -0.047294259 0.67208093
-0.071756802 -0.042401731 0.67208087
0.011479837 -0.014759779 0.67318422
-0.071756802 -0.0016308427 0.67208093
-0.013089378 0.016361743 0.67272502
-0.02126685 0.02699402 0.67269361
-0.024527978 0.031068772 0.67260748
-0.071756549 0.035062879 0.67208028
-0.029549217 0.039398968 0.673383
-0.037820265 0.050975144 0.67371327
-0.071756549 0.055448264 0.67208022
0.031587854 -0.034912884 0.67590535
0.0083025452 -0.0049815178 0.67566276
0.0049518598 -0.0033012331 0.67446899
-0.04308074 0.061307192 0.67523336
-0.051262327 0.071105808 0.67483163
-0.054646637 0.07617414 0.67511344
-0.030859031 0.048376799 0.67658693
-0.045018982 0.066694796 0.6764909
-0.048603415 0.073743105 0.67753023
0.006759441 0.0050695837 0.67920572
-0.0016863986 0.015177578 0.67878789
-0.015207762 0.033795029 0.67919254
-0.076293342 0.050862253 0.67987531
0.047660269 -0.045105428 0.68068957
0.042646363 -0.037528813 0.68113649
0.035790905 -0.028973609 0.68095225
0.0051117972 0.011077195 0.68090439
0 0.018784046 0.68135226
-0.037454303 0.066396266 0.68072772
-0.041074693 0.073592156 0.68181133
0.051875237 -0.043229371 0.68395138
0.032553192 -0.022273242 0.68203831
0.02928111 -0.015501767 0.68313587
0.029394032 -0.01383248 0.68393767
0.0034496773 0.018973231 0.68342805
-0.0068767648 0.03094542 0.68274635
-0.0085857734 0.032625943 0.68250042
-0.027643936 0.060471088 0.68377894
-0.029336713 0.062124789 0.68353069
-0.041232087 0.07559219 0.682603
-0.043333381 -0.067600101 0.68445367
0.043305267 -0.031179786 0.68431789
0.038119394 -0.024257779 0.68437696
0.003476413 0.022596657 0.68504161
-0.0069838315 0.038411081 0.68597734
-0.03465692 0.07104665 0.6843946
-0.03465692 0.07104665 0.6843946
0.038416322 -0.020954311 0.68600613
0.026278595 -0.0035037994 0.6866954
0.015776105 0.010517418 0.68681538
0.017619198 0.01057151 0.68790412
0.01233698 0.017624229 0.68796515
0.0035035789 0.026276857 0.68668127
-0.010532444 0.045640588 0.68711793
-0.028991081 0.070286885 0.68733096
-0.081204236 -0.024714321 0.68831325
0.038947169 -0.015046015 0.68891883
-0.081204236 -0.012357175 0.68831325
0.0035381396 0.03096047 0.68876719
-0.010657587 0.051511675 0.68963563
0.060962886 -0.037653565 0.69165897
0.028624121 0.003578037 0.69117385
0.037954383 -0.0036146939 0.69338822
0.034254391 -2.9802322e-08 0.69284636
0.005409806 0.037868649 0.69289535
-0.010872885 0.061612993 0.69396716
-0.012669195 0.063345939 0.693694
-0.018957071 0.070420817 0.6931842
0.05816314 -0.027263969 0.69462508
0.01826499 0.027397513 0.69569951
0.0054758573 0.043806851 0.69555306
0.0073103197 0.042034358 0.69582999
-0.0036277592 0.05260253 0.6941762
-0.014519563 0.067153007 0.69430482
0.067952104 -0.034894317 0.69691199
-0.086537488 -0.016570985 0.69747686
0.045780856 -0.0073249638 0.69627112
0.045780856 -0.0073249638 0.69627112
0.034814227 0.0073293447 0.69640309
0.029325997 0.014662981 0.69646919
-0.086537153 0.016570926 0.69747603
-0.086537153 0.029459447 0.69747603
0.018339632 0.029343396 0.6966005
0.014755139 0.036887854 0.69785941
0.00918693 0.042259902 0.69701368
-0.012877072 0.071743667 0.69727874
0.079575345 -0.046264738 0.69860744
0.053816732 -0.011134505 0.69923031
0.035100993 0.011084497 0.69822502
0.013001119 0.042717963 0.69941783
0.0111296 0.044518381 0.69913185
0.0111296 0.044518381 0.69913185
0.0074314601 0.050162345 0.69948572
0.071190864 -0.029036418 0.70136625
0.018644622 0.037289232 0.7002821
0.014939451 0.042950928 0.70064044
0.080910891 -0.039514631 0.7023567
0.083249651 -0.039732784 0.70361072
0.073311612 -0.030076563 0.70213169
0.062070921 -0.01504755 0.70227081
0.058402728 -0.0094197989 0.70263559
0.035839088 0.020748943 0.70291418
0.034051906 0.024593055 0.70357871
0.0037685339 0.062180817 0.70267272
-0.0037647963 0.071531147 0.70244706
0.085796811 -0.039083183 0.70536804
0.070253484 -0.020886183 0.70442009
0.0075886287 0.060709 0.7042287
0.090423882 -0.040402144 0.70745832
0.071157239 -0.01538536 0.70736855
0.067133039 -0.011508524 0.70675516
-0.092349678 -0.0096197724 0.70746315
0.061397973 -0.0038373768 0.70682752
0.050131734 0.013497025 0.70796907
0.023006491 0.046012968 0.70664901
0.023006491 0.046012968 0.70664901
0.0038493921 0.073138446 0.70755297
0.0038493921 0.073138446 0.70755297
0.068005569 -0.005829066 0.70976442
0.038586959 0.02894026 0.70811445
0.028997047 0.042528987 0.70857179
0.089533739 -0.033088535 0.7101711
0.089923747 -0.031277835 0.71119452
0.084085934 -0.023465842 0.71126974
0.084085934 -0.023465842 0.71126974
0.070347458 -0.0058622956 0.71110183
0.070347458 -0.0058622956 0.71110183
0.046754081 0.023377061 0.71037644
0.041281663 0.035384297 0.7125138
0.03151549 0.049242973 0.7129876
0.017792877 0.069194525 0.71386492
0.091115192 -0.025749952 0.71432108
0.077536479 -0.0059643686 0.71520829
0.065360315 0.0079225004 0.71430302
0.061776325 0.015942246 0.71577203
0.047580838 0.031720608 0.7145347
0.088475369 -0.014075607 0.71794701
0.062051866 0.018015057 0.71684492
0.025956664 0.063893348 0.71624053
0.075017408 0.008109957 0.71996224
0.072888277 0.010123402 0.71962142
0.04656392 0.044539392 0.71960247
-0.098708734 0.048347145 0.71838886
0.089681625 -0.0081528425 0.72125638
0.05708465 0.034658581 0.72131896
0.042781744 0.052967936 0.72113645
0.03071836 0.071676195 0.72242379
0.093119964 -0.0041386485 0.72501206
0.084750593 0.0062012374 0.7247411
0.084750593 0.0062012374 0.7247411
0.077469021 0.023031324 0.72796041
0.056245364 0.047912747 0.72668141
0.039493367 0.06859377 0.7261306
0.046358228 0.067430139 0.72958219
0.074105635 0.033876896 0.73080277
0.065563276 0.044413865 0.73051786
0.06587401 0.046749324 0.73172796
0.059238859 0.052891821 0.73060596
0.057040185 0.054927558 0.73023486
0.042219523 0.073884159 0.73003894
0.079320781 0.034300894 0.73400176
0.075532079 0.043161184 0.73572236
0.062627763 0.060468197 0.73590571
0.05366987 0.068697482 0.7343626
0.058985204 0.07209307 0.73893058
0.066160001 0.068365335 0.74142885
0.077393986 0.05528143 0.74214387
0.077393986 0.05528143 0.74214387
0.069150485 0.071381181 0.74448615
0.066817008 0.073498756 0.74407244
-0.042123489 -0.049139 0.62927717
-0.038007177 -0.038007852 0.63435203
-0.035647877 -0.038302641 0.63558459
-0.043873973 -0.02725406 0.63570815
-0.049854886 -0.019609816 0.63570374
-0.02578076 -0.048220098 0.63690722
-0.043552615 -0.019054264 0.63951111
-0.021993959 -0.049486369 0.64115316
-0.022345526 -0.038355224 0.64324278
-0.01364644 -0.045923542 0.64492726
-0.0423159 -0.005800453 0.64607173
-0.007300064 -0.039420307 0.65146071
-0.007300064 -0.039420307 0.65146071
-0.060007546 -0.030003771 0.65189356
-0.02991298 -0.014022805 0.6496067
-0.060007546 -0.0062202811 0.65189356
-0.050641458 0.01753075 0.65155643
0.0047288956 -0.04604239 0.65548551
-0.0094743567 -0.033735678 0.65271306
-0.020521652 -0.020521641 0.65216315
-0.017848415 -0.02139168 0.65332282
-0.019424653 -0.014193669 0.65558791
-0.02972858 -0.0061399261 0.65319073
-0.041806567 0.010038253 0.65335298
-0.041806567 0.010038253 0.65335298
-0.057638742 0.030371232 0.65318006
-0.027487345 -0.056501746 0.65955585
-0.063646816 -0.046219707 0.65814656
0.0020785094 -0.038115684 0.65745199
-0.015268921 -0.010688245 0.65953374
-0.063646816 -0.0056827441 0.65814656
-0.027486803 0.0053459704 0.65955216
-0.027486803 0.0053459704 0.65955216
-0.048478372 0.026306845 0.65667677
0.013005476 -0.038492911 0.66359544
-0.030620143 0.017646492 0.66316879
-0.038257629 0.028888315 0.66371763
-0.038257629 0.028888315 0.66371763
-0.046608366 0.037678935 0.66277337
-0.059303429 0.056182206 0.66360462
-0.035081763 -0.060595751 0.66770989
0.020702958 -0.03981337 0.66745758
-0.067553028 -0.025921509 0.6648581
-0.0015684431 -0.017252862 0.66454935
-0.0075710216 -0.0023905709 0.66763955
-0.037480067 0.03093127 0.66506791
-0.048575789 0.04387489 0.66437048
-0.059038997 0.065421611 0.66783339
0.029856261 -0.0459904 0.67001832
-0.013883563 0.010267094 0.66957802
-0.049385555 0.054458864 0.66857183
0.013280479 -0.011620402 0.67560852
-0.032698762 0.041692421 0.67257607
-0.032698762 0.041692421 0.67257607
-0.076293617 -0.0618826 0.67987609
0.030293036 -0.029799918 0.67741299
-0.076293617 -0.017801836 0.67987609
-0.076293617 -0.0025431216 0.67987609
-0.076293483 0.0021192655 0.67987573
-0.013898957 0.026132604 0.67656803
-0.013898957 0.026132604 0.67656803
-0.020055849 0.035097748 0.6769678
0.033944182 -0.025614362 0.68136775
0.014763909 0.001892221 0.68242621
0.012475811 0.0060229823 0.68292749
0.002558388 0.01448714 0.68093419
-0.0025564809 0.021534074 0.68108922
-0.0025564809 0.021534074 0.68108922
-0.022454374 0.053545028 0.68372023
-0.030123347 0.061970219 0.68300855
-0.030123347 0.061970219 0.68300855
0.046345588 -0.033599161 0.68500632
-0.00578578 0.034143738 0.68478698
-0.0092492644 0.038153589 0.68455601
-0.010553124 0.046611369 0.68753403
-0.018739652 0.05680884 0.68730521
-0.037403934 0.076552123 0.68523645
0.022269029 0.0097991303 0.69024801
-0.081204236 0.025596991 0.68831325
0.012533966 0.025067955 0.69136208
-0.081204236 0.034423515 0.68831325
-0.019037958 0.064852946 0.69068146
0.073140249 -0.043884158 0.69594181
0.062210314 -0.036513694 0.69288164
0.053406902 -0.025802147 0.6925236
0.042436738 -0.0099296197 0.69319093
0.042436738 -0.0099296197 0.69319093
0.018083962 0.022600695 0.6934787
-0.013230171 0.062549345 0.69301891
0.033486858 0.016743451 0.6997894
0.017746491 0.030595642 0.69681066
-0.086537153 0.045570105 0.69747603
0.0098723713 0.045037013 0.69863433
0.0098723713 0.045037013 0.69863433
-0.086537153 0.0579983 0.69747603
0.077936336 -0.034563892 0.70282292
0.070654295 -0.025432616 0.70264602
0.066713043 -0.021608472 0.70205724
0.066713043 -0.021608472 0.70205724
0.04615844 0.0065956786 0.70262992
0.0015764333 0.065718517 0.70296705
0.092470534 -0.04238236 0.70776701
0.062136039 -0.006689243 0.70599574
0.046549916 0.014028937 0.70613515
0.046549916 0.014028937 0.70613515
-0.092349678 0.025973335 0.70746309
0.037279975 0.025809407 0.70597899
-0.092349678 0.04521288 0.70746309
0.09452223 -0.044367582 0.70807552
0.09452223 -0.044367582 0.70807552
0.082797244 -0.025873026 0.70946372
0.077214941 -0.01466161 0.71118581
0.057566248 0.0071153841 0.70944667
0.033857845 0.041669976 0.71099961
0.035395619 0.043261319 0.71258986
0.026738554 0.058424622 0.71427965
0.080708615 -0.0020176768 0.71878135
0.073488764 0.0087652206 0.71936882
0.061725672 0.021469951 0.71818084
0.064720534 0.020225167 0.71936095
0.04594177 0.037951887 0.71633726
0.095547862 -0.017277628 0.72061831
0.090268664 -0.0095010698 0.72100037
0.072064362 0.020589828 0.72376263
0.093119964 -0.0041386485 0.72501206
0.090921231 -0.0020664036 0.72465712
0.056507666 0.050229073 0.72785407
0.056507666 0.050229073 0.72785407
0.037534963 0.072984666 0.72693658
0.080620542 0.026522428 0.7313205
0.04942029 0.066362754 0.73087901
0.068916671 0.050613269 0.73518962
0.061031744 0.061030678 0.73523188
0.037204877 -0.070032716 0.73939961
0.057569839 0.070602715 0.73745537
0.068808153 0.068808168 0.74315315
0.068808153 0.068808168 0.74315315
