# .PCD v0.7 - Point Cloud Data file format
VERSION 0.7
FIELDS x y z
SIZE 4 4 4
TYPE F F F
COUNT 1 1 1
WIDTH 1317
HEIGHT 1
VIEWPOINT 0 0 0 1 0 0 0
POINTS 1317
DATA ascii
-0.067670628 0.02368471 0.67943579
-0.067100592 0.021807671 0.67771548
-0.066540077 0.019962013 0.67602402
-0.065988839 0.018146932 0.67436051
-0.065446891 0.016361743 0.67272502
-0.064913556 0.014605582 0.67111552
-0.064388834 0.012877792 0.66953206
-0.063872531 0.011177689 0.667974
-0.063364446 0.0095046759 0.66644067
-0.062864378 0.0078580379 0.6649316
-0.062372133 0.0062372088 0.66344613
-0.061887544 0.0046415627 0.66198379
-0.061410427 0.0030705333 0.66054392
-0.060940608 0.0015235245 0.6591261
-0.060477924 2.9802322e-08 0.65772986
-0.060022213 -0.0015005767 0.65635467
-0.059573319 -0.0029786825 0.65499997
-0.05913109 -0.004434824 0.65366542
-0.058695562 -0.0058695376 0.65235108
-0.058266222 -0.0072832406 0.6510554
-0.057843115 -0.0086764395 0.6497786
-0.057426106 -0.010049552 0.64852017
-0.057015076 -0.011402994 0.64727974
-0.05660988 -0.012737215 0.64605701
-0.056210406 -0.0140526 0.64485151
-0.055816527 -0.015349537 0.64366287
-0.055428132 -0.016628414 0.64249074
-0.055045109 -0.017889649 0.64133483
-0.054667339 -0.019133568 0.64019483
-0.054294877 -0.020360559 0.63907087
-0.053927299 -0.021570891 0.63796157
-0.054166824 -0.023020923 0.63868445
-0.054702934 -0.024616331 0.6403023
-0.055249762 -0.026243627 0.64195246
-0.055807792 -0.027903914 0.64363647
-0.05637705 -0.029597938 0.64535439
-0.056958038 -0.03132695 0.64710766
-0.057551119 -0.033091873 0.64889741
-0.058156684 -0.034894019 0.65072489
-0.058775317 -0.036734581 0.65259176
-0.059407063 -0.038614601 0.65449822
-0.060052536 -0.04053545 0.6564461
-0.060712188 -0.042498559 0.65843683
-0.061386492 -0.044505209 0.66047168
-0.062076151 -0.046557128 0.66255295
-0.062781267 -0.04865548 0.66468084
-0.063502595 -0.050802082 0.6668576
-0.064240687 -0.052998573 0.66908497
-0.064996362 -0.055246919 0.6713655
-0.065769799 -0.057548583 0.6736995
-0.066561863 -0.059905678 0.67608976
-0.067373239 -0.062320232 0.67853832
-0.068204641 -0.064794391 0.68104726
-0.069057062 -0.067330629 0.68361974
-0.069930807 -0.069930822 0.68625641
-0.070826955 -0.072597623 0.68896079
-0.081276618 0.075024605 0.72678453
-0.080434866 0.072185129 0.72417915
-0.07961037 0.069403917 0.7216273
-0.078802608 0.06667912 0.71912712
-0.078011058 0.06400907 0.71667713
-0.077235267 0.061392128 0.71427596
-0.076474749 0.058826745 0.71192205
-0.075729378 0.056311607 0.70961499
-0.074998081 0.05384475 0.70735157
-0.074280784 0.051425159 0.70513141
-0.073577069 0.049051374 0.70295334
-0.072886564 0.046722174 0.70081609
-0.072208904 0.044436276 0.69871867
-0.071543723 0.042192459 0.6966598
-0.070890687 0.03998962 0.69463855
-0.070249468 0.037826657 0.69265389
-0.069619745 0.035702407 0.69070482
-0.069001205 0.033615977 0.68879032
-0.068393566 0.031566292 0.68690956
-0.067796528 0.029552311 0.68506175
-0.067210078 0.027573377 0.68324661
-0.066633441 0.025628299 0.68146175
-0.066066615 0.023716241 0.67970735
-0.065509349 0.02183646 0.67798257
-0.064961411 0.01998812 0.67628658
-0.064422563 0.018170446 0.67461878
-0.063892573 0.016382724 0.6729784
-0.063371234 0.014624149 0.67136478
-0.062858336 0.012894034 0.66977727
-0.062353678 0.011191726 0.66821527
-0.061857052 0.0095164776 0.66667819
-0.061368279 0.0078677535 0.66516531
-0.060887169 0.0062448382 0.66367614
-0.060413741 0.0046471953 0.66221088
-0.059947424 0.0030742288 0.66076756
-0.059488244 0.0015253425 0.65934634
-0.059036054 -2.9802322e-08 0.65794677
-0.058590684 -0.0015023351 0.65656829
-0.058151983 -0.0029821396 0.65521038
-0.057719801 -0.00443995 0.65387273
-0.057294 -0.0058762729 0.65255481
-0.056874432 -0.007291615 0.6512562
-0.056460962 -0.0086863041 0.64997649
-0.056053463 -0.010060847 0.6487152
-0.055651803 -0.01141575 0.64747202
-0.05525586 -0.012751371 0.64624655
-0.054865677 -0.014068097 0.64503884
-0.054480799 -0.015366375 0.64384753
-0.054101288 -0.016646564 0.6426729
-0.053727023 -0.01790899 0.64151454
-0.053357907 -0.019154102 0.64037204
-0.052993823 -0.020382226 0.63924515
-0.052634675 -0.02159372 0.63813359
-0.052886613 -0.023053139 0.63891333
-0.053410791 -0.02465114 0.64053571
-0.053945463 -0.026281118 0.64219064
-0.054490946 -0.027944058 0.643879
-0.055047743 -0.029641092 0.64560235
-0.055615868 -0.031373054 0.64736074
-0.05619584 -0.033141136 0.64915586
-0.056788035 -0.034946471 0.65098882
-0.057393022 -0.036790371 0.65286136
-0.058010854 -0.038673908 0.65477359
-0.058642138 -0.040598392 0.65672755
-0.059287313 -0.042565227 0.65872443
-0.059946835 -0.04457587 0.66076577
-0.060621399 -0.046631813 0.6628536
-0.061311115 -0.048734486 0.6649884
-0.062016707 -0.050885499 0.66717231
-0.062738724 -0.053086609 0.66940707
-0.063477755 -0.055339545 0.67169446
-0.064234622 -0.057646453 0.6740371
-0.065009534 -0.060008794 0.67643547
-0.065803364 -0.062428862 0.67889261
-0.066616818 -0.064908713 0.68141031
-0.067450888 -0.067450881 0.68399191
-0.068305857 -0.070057303 0.68663812
-0.069182783 -0.072730601 0.68935239
-0.07932204 0.075147212 0.72719568
-0.078499541 0.072302192 0.72458297
-0.077693589 0.069515318 0.72202277
-0.076904021 0.066785067 0.71951461
-0.076130338 0.064109772 0.71705693
-0.075372063 0.061487734 0.71464825
-0.074628748 0.058917433 0.71228701
-0.073899947 0.056397319 0.7099719
-0.07318525 0.053925961 0.70770156
-0.07248424 0.051501989 0.70547473
-0.071796529 0.049123943 0.70329022
-0.071121752 0.04679063 0.70114666
-0.070459537 0.044500768 0.6990431
-0.069809541 0.042253166 0.69697833
-0.069171689 0.040046781 0.69495213
-0.068545133 0.037880212 0.69296181
-0.067929819 0.035752535 0.69100726
-0.067325465 0.033662736 0.68908745
-0.066731758 0.031609744 0.68720144
-0.066148438 0.029592752 0.68534851
-0.065575227 0.0276106 0.68352759
-0.065011859 0.025662601 0.68173802
-0.064458095 0.023747742 0.67997897
-0.063913681 0.021865219 0.67824954
-0.063378394 0.020014226 0.67654914
-0.062851988 0.01819399 0.67487705
-0.062334258 0.016403764 0.67323238
-0.061825201 0.014642805 0.6716153
-0.061324179 0.012910336 0.6700238
-0.060831219 0.011205763 0.66845787
-0.060346119 0.0095283389 0.66691685
-0.05986869 0.0078774691 0.66540027
-0.059398763 0.0062524676 0.66390753
-0.058936149 0.0046528876 0.66243792
-0.058480691 0.0030778944 0.66099119
-0.058032215 0.0015271604 0.65956652
-0.057590567 -0 0.65816355
-0.057155587 -0.0015040934 0.65678185
-0.05672713 -0.0029856265 0.65542078
-0.056305051 -0.0044451654 0.65408003
-0.055889383 -0.0058831275 0.65275961
-0.055479627 -0.0072999597 0.65145797
-0.055075847 -0.0086961389 0.65017533
-0.054677892 -0.010072261 0.64891118
-0.054285649 -0.011428535 0.6476652
-0.053898998 -0.012765557 0.64643693
-0.053517815 -0.014083654 0.64522606
-0.053141981 -0.015383214 0.64403224
-0.052771393 -0.016664654 0.64285499
-0.052405939 -0.017928332 0.64169407
-0.052045505 -0.019174665 0.64054918
-0.051690001 -0.020403922 0.63941985
-0.051339466 -0.021616638 0.63830638
-0.051602807 -0.023085445 0.63914287
-0.052114986 -0.024686068 0.64076984
-0.052637435 -0.026318729 0.64242947
-0.053170461 -0.02798444 0.64412272
-0.053714558 -0.029684335 0.64585102
-0.054269738 -0.031419307 0.6476146
-0.054836515 -0.033190519 0.64941508
-0.055415254 -0.034999102 0.65125346
-0.056006346 -0.03684625 0.65313113
-0.056610357 -0.038733393 0.6550498
-0.057227351 -0.040661544 0.65700978
-0.057857949 -0.042632163 0.65901291
-0.0585026 -0.04464668 0.66106069
-0.059161969 -0.046706825 0.66315526
-0.059836175 -0.048813701 0.66529697
-0.060525924 -0.050969183 0.66748804
-0.061231758 -0.053174943 0.66973019
-0.061954249 -0.055432737 0.67202526
-0.062694214 -0.057744652 0.67437577
-0.063451841 -0.060112298 0.67678255
-0.064228006 -0.062537789 0.67924798
-0.065023392 -0.065023392 0.68177468
-0.065838732 -0.067571342 0.68436468
-0.066675015 -0.070184231 0.6870212
-0.067532577 -0.072864085 0.68974531
-0.07736139 0.075270504 0.72760934
-0.076557592 0.072419375 0.72498691
-0.075770319 0.069626808 0.72241849
-0.074999072 0.066891074 0.71990234
-0.074243367 0.064210474 0.71743685
-0.073502734 0.0615834 0.7150206
-0.072776742 0.059008181 0.71265209
-0.072064944 0.056483358 0.71032989
-0.071367227 0.05400762 0.70805365
-0.070682608 0.051579207 0.70582008
-0.070010997 0.049196929 0.70362902
-0.069352031 0.046859473 0.7014792
-0.06870535 0.044565588 0.69936943
-0.06807062 0.042314172 0.69729865
-0.067447513 0.040103912 0.69526577
-0.066835709 0.037933797 0.69326973
-0.066234902 0.035802662 0.69130969
-0.065644801 0.033709496 0.68938446
-0.065065123 0.031653345 0.68749332
-0.064495593 0.029633135 0.68563521
-0.06393595 0.027647972 0.68380946
-0.063386157 0.025697112 0.68201584
-0.062845521 0.023779422 0.68025196
-0.062314026 0.021894157 0.678518
-0.061791442 0.020040482 0.67681313
-0.061277561 0.018217653 0.67513657
-0.060772147 0.016424924 0.67348766
-0.060275007 0.014661491 0.67186582
-0.059785932 0.012926668 0.67027026
-0.059304729 0.0112198 0.66870034
-0.058831211 0.0095402002 0.6671555
-0.0583652 0.0078871846 0.66563517
-0.057906508 0.0062601268 0.66413873
-0.05745497 0.0046585202 0.66266561
-0.057010606 0.0030816495 0.6612159
-0.056572881 0.0015290082 0.65978777
-0.056141827 2.9802322e-08 0.65838152
-0.055717286 -0.0015058815 0.65699649
-0.055299122 -0.0029891431 0.65563226
-0.05488719 -0.0044502914 0.65428829
-0.054481346 -0.0058898628 0.65296423
-0.054081459 -0.0073083043 0.65165973
-0.053687405 -0.008706063 0.65037411
-0.053299047 -0.010083616 0.6491071
-0.05291627 -0.01144138 0.64785832
-0.05253895 -0.012779742 0.64662731
-0.052167129 -0.014099211 0.64541423
-0.051800381 -0.015400112 0.64421773
-0.051438753 -0.016682863 0.64303797
-0.051082138 -0.017947763 0.64187455
-0.050730433 -0.019195288 0.64072716
-0.050383545 -0.020425767 0.63959539
-0.050041359 -0.021639466 0.63847905
-0.050315402 -0.0231179 0.63937306
-0.050815511 -0.024721056 0.64100468
-0.051325656 -0.026356429 0.64266902
-0.051846158 -0.028024942 0.6443671
-0.052377317 -0.029727697 0.64609998
-0.052919634 -0.031465739 0.64786929
-0.053473137 -0.03324008 0.64967507
-0.054038338 -0.035051882 0.651519
-0.054615621 -0.036902428 0.65340233
-0.055205535 -0.038793057 0.6553269
-0.055808164 -0.040724874 0.6572929
-0.056424089 -0.042699307 0.65930241
-0.057053763 -0.044717818 0.66135669
-0.05769765 -0.046781868 0.66345733
-0.058356434 -0.048893243 0.6656065
-0.059030227 -0.051053196 0.66780484
-0.059719771 -0.053263575 0.67005438
-0.060425609 -0.055526227 0.67235708
-0.061148334 -0.057843029 0.67471504
-0.061888773 -0.060216099 0.6771307
-0.062647142 -0.062647164 0.67960477
-0.063424326 -0.065138519 0.68214035
-0.064221039 -0.067692429 0.68473953
-0.065038256 -0.070311606 0.68740565
-0.065876298 -0.072998047 0.69013977
-0.075393967 0.075393945 0.72802317
-0.074609667 0.072537184 0.7253933
-0.073841184 0.069738895 0.72281653
-0.073088378 0.066997677 0.72029233
-0.072350763 0.064311773 0.71781909
-0.071627893 0.061679572 0.71539521
-0.070919313 0.059099376 0.71301931
-0.070224628 0.056569844 0.71068996
-0.069543414 0.054089338 0.70840579
-0.06887529 0.051656514 0.70616549
-0.068219878 0.049269915 0.70396787
-0.067576826 0.046928376 0.70181167
-0.066945784 0.044630527 0.69969577
-0.066326417 0.042375207 0.69761896
-0.065718658 0.040161401 0.69558114
-0.065121688 0.037987649 0.69357944
-0.064535469 0.035853028 0.69161379
-0.06395971 0.033756495 0.6896832
-0.063394129 0.031697065 0.68778682
-0.062838465 0.029673696 0.68592364
-0.062292453 0.027685523 0.68409282
-0.061755858 0.025731593 0.68229353
-0.061228421 0.023811042 0.680525
-0.060709916 0.021923035 0.6787864
-0.060200125 0.020066738 0.67707705
-0.05969882 0.018241316 0.67539614
-0.059205793 0.016446054 0.67374301
-0.058721051 0.014680237 0.67211765
-0.058243979 0.012943119 0.67051798
-0.0577746 0.011233956 0.66894412
-0.057312727 0.0095521212 0.66739541
-0.056858175 0.0078969598 0.66587126
-0.056410775 0.0062678754 0.66437107
-0.055970363 0.0046642125 0.66289437
-0.055536777 0.0030854046 0.66144055
-0.055109859 0.0015308261 0.66000903
-0.054689452 2.9802322e-08 0.65859932
-0.054275408 -0.0015076697 0.65721107
-0.053867586 -0.0029926598 0.65584356
-0.053465851 -0.004455477 0.65449655
-0.053070229 -0.0058966577 0.65316999
-0.052680254 -0.0073167086 0.65186238
-0.052295968 -0.0087159872 0.65057385
-0.051917247 -0.01009503 0.64930397
-0.051543977 -0.011454225 0.64805233
-0.05117603 -0.012794018 0.64681864
-0.050813302 -0.014114797 0.64560235
-0.050455678 -0.015417039 0.64440322
-0.050103053 -0.016701013 0.64322084
-0.049755327 -0.017967224 0.64205486
-0.049412388 -0.019215941 0.64090502
-0.049074151 -0.020447582 0.63977087
-0.048740644 -0.021662503 0.63865256
-0.049024366 -0.023150355 0.63960391
-0.049512338 -0.024756193 0.64124012
-0.050010115 -0.026394218 0.64290923
-0.050518006 -0.028065562 0.64461219
-0.051036317 -0.029771179 0.64635015
-0.051565535 -0.03151229 0.64812464
-0.052105684 -0.033289731 0.64993578
-0.052657261 -0.035104841 0.65178525
-0.053220645 -0.036958784 0.6536743
-0.053796217 -0.038852811 0.6556043
-0.054384548 -0.040788412 0.65757704
-0.054985706 -0.04276666 0.65959275
-0.055600308 -0.044789165 0.66165352
-0.056228802 -0.046857327 0.6637609
-0.056871857 -0.048972964 0.66591716
-0.057529602 -0.051137388 0.66812253
-0.058202732 -0.053352505 0.6703797
-0.058891803 -0.055620044 0.67269021
-0.059597384 -0.057941884 0.67505604
-0.060320299 -0.060320318 0.67748004
-0.061060742 -0.062756866 0.67996275
-0.061819587 -0.065254033 0.68250722
-0.062597536 -0.067814022 0.68511575
-0.063395306 -0.070439249 0.68779069
-0.064213924 -0.073132485 0.6905356
-0.073420413 0.075518161 0.72843951
-0.072655074 0.072655082 0.72579992
-0.071905516 0.0698511 0.72321486
-0.071171276 0.06710434 0.7206825
-0.070451878 0.06441313 0.7182014
-0.069746882 0.061775804 0.71576995
-0.069055848 0.05919075 0.71338665
-0.068378374 0.05665639 0.71105015
-0.067714341 0.054171473 0.70875996
-0.067062818 0.051734179 0.70651293
-0.066423707 0.049343288 0.70430875
-0.065796658 0.046997607 0.70214611
-0.065181337 0.044695795 0.70002395
-0.064577423 0.0424366 0.69794118
-0.063984595 0.04021889 0.69589657
-0.063402556 0.038041532 0.69388914
-0.062831007 0.035903424 0.6919179
-0.062269673 0.033803552 0.68998194
-0.061718274 0.031740814 0.68808031
-0.061176561 0.029714346 0.686212
-0.060644269 0.027723074 0.68437612
-0.060121384 0.025766283 0.68257278
-0.059607219 0.023842901 0.68079948
-0.059101783 0.021952063 0.67905635
-0.05860484 0.020093083 0.67734241
-0.058116179 0.018265098 0.67565709
-0.057635605 0.016467333 0.67399967
-0.057162918 0.014699072 0.67236936
-0.056697913 0.01295951 0.6707657
-0.056240417 0.011248082 0.66918784
-0.055790249 0.0095640123 0.66763526
-0.055347223 0.0079067349 0.6661073
-0.054911178 0.0062755942 0.66460341
-0.054481953 0.0046698749 0.66312313
-0.054059561 0.0030891299 0.66166633
-0.053643502 0.0015326738 0.66023135
-0.053233787 2.9802322e-08 0.6588183
-0.05283029 -0.001509428 0.65742671
-0.052432861 -0.0029961467 0.65605605
-0.05204137 -0.0044606924 0.65470582
-0.051655676 -0.0059035122 0.65337563
-0.051275659 -0.007325083 0.65206498
-0.050901197 -0.0087259412 0.65077353
-0.050532162 -0.010106415 0.64950073
-0.05016844 -0.01146704 0.64824629
-0.04980991 -0.012808263 0.64700979
-0.049456481 -0.014130443 0.64579087
-0.049108166 -0.015433997 0.64458954
-0.048764586 -0.016719282 0.6434046
-0.048425779 -0.017986715 0.64223605
-0.048091643 -0.019236684 0.64108372
-0.047762088 -0.020469457 0.63994718
-0.047437023 -0.021685511 0.63882601
-0.047729563 -0.023182929 0.63983488
-0.048205461 -0.02479139 0.64147627
-0.048690796 -0.026432127 0.64315009
-0.049186006 -0.028106302 0.644858
-0.049691394 -0.02981481 0.64660102
-0.050207425 -0.031558961 0.64838076
-0.050734133 -0.03333953 0.65019733
-0.051272009 -0.035157949 0.6520524
-0.051821407 -0.037015319 0.65394723
-0.052382711 -0.038912863 0.65588307
-0.052956477 -0.040852129 0.65786195
-0.053542774 -0.042834222 0.65988404
-0.054142207 -0.044860661 0.66195136
-0.054755211 -0.046933025 0.66406554
-0.055382252 -0.049052835 0.66622806
-0.056024011 -0.051221937 0.66844141
-0.056680623 -0.053441763 0.67070603
-0.057352811 -0.05571416 0.67302436
-0.058041133 -0.058041126 0.67539823
-0.058746383 -0.060424864 0.67783058
-0.059468769 -0.062866956 0.68032205
-0.060209148 -0.065369934 0.68287551
-0.06096819 -0.067935973 0.68549335
-0.061746616 -0.070567548 0.68817806
-0.062545411 -0.07326749 0.69093299
-0.071440026 0.075642377 0.72885609
-0.070694424 0.072773665 0.72620898
-0.069963925 0.069963932 0.72361547
-0.069248363 0.067211628 0.72107506
-0.068547294 0.064515084 0.71858597
-0.067860276 0.061872602 0.71614683
-0.067186899 0.059282541 0.71375614
-0.066526748 0.056743383 0.71141243
-0.065879442 0.054253638 0.70911431
-0.065244615 0.051811904 0.70686042
-0.06462191 0.049416721 0.70464969
-0.06401097 0.047066897 0.70248061
-0.063411482 0.044761032 0.70035225
-0.062823109 0.042497963 0.69826335
-0.062245805 0.040276676 0.69621372
-0.061678771 0.038095742 0.69420058
-0.061121974 0.035954118 0.69222379
-0.060575143 0.033850849 0.69028234
-0.060038012 0.031784862 0.68837535
-0.05951032 0.029755145 0.68650186
-0.058991823 0.027760863 0.68466103
-0.058482289 0.025801003 0.68285203
-0.057981476 0.02387473 0.68107402
-0.057489168 0.02198118 0.67932612
-0.057005148 0.020119458 0.67760777
-0.056529213 0.018288881 0.67591804
-0.05606116 0.016488582 0.67425632
-0.055600982 0.014717907 0.6726225
-0.055148114 0.01297605 0.67101473
-0.054702558 0.011262268 0.66943282
-0.054264151 0.0095760226 0.66787636
-0.053832706 0.0079165995 0.66634458
-0.053408075 0.006283313 0.664837
-0.052990086 0.004675597 0.66335297
-0.052578591 0.0030928254 0.66189212
-0.052173436 0.0015345514 0.66045368
-0.051774483 -0 0.65903723
-0.051381577 -0.0015112162 0.6576423
-0.05099459 -0.0029996932 0.65626842
-0.050613396 -0.004465878 0.65491498
-0.050238013 -0.0059103668 0.65358227
-0.049867999 -0.0073335171 0.65226865
-0.049503401 -0.0087358952 0.65097415
-0.049144089 -0.010117918 0.6496985
-0.048789959 -0.011479974 0.64844126
-0.048440896 -0.012822598 0.64720196
-0.048096791 -0.014146119 0.64598024
-0.04775754 -0.015450954 0.64477581
-0.047423046 -0.01673758 0.64358824
-0.047093198 -0.018006235 0.64241725
-0.046767913 -0.019257367 0.64126229
-0.046447225 -0.020491421 0.64012384
-0.046130765 -0.021708578 0.63900024
-0.046431251 -0.023215622 0.6400671
-0.04689486 -0.024826676 0.64171302
-0.047367681 -0.026470184 0.64339173
-0.047850132 -0.028147131 0.64510453
-0.048342515 -0.029858619 0.64685267
-0.048845138 -0.031605661 0.64863712
-0.049358469 -0.033389539 0.65045965
-0.049882554 -0.035211205 0.65232027
-0.050417885 -0.037071973 0.65422094
-0.050964832 -0.038973093 0.65616274
-0.051523939 -0.040916085 0.65814775
-0.052095283 -0.042901993 0.66017616
-0.052679442 -0.044932514 0.66225016
-0.053276844 -0.047008961 0.66437107
-0.053887956 -0.049133152 0.66654068
-0.054513436 -0.051306725 0.66876137
-0.055153415 -0.053531289 0.6710335
-0.0558086 -0.055808604 0.67335963
-0.056479532 -0.058140695 0.67574161
-0.0571668 -0.06052953 0.67818165
-0.057871204 -0.062977493 0.68068254
-0.058592971 -0.065486252 0.68324506
-0.059332974 -0.068058401 0.68587232
-0.060091902 -0.070696354 0.68856668
-0.060870498 -0.073402673 0.69133097
-0.069453411 0.075767338 0.72927517
-0.068727061 0.072892308 0.72661823
-0.068015739 0.070076823 0.72401631
-0.067319006 0.067319006 0.72146773
-0.066636384 0.064617127 0.71897078
-0.065967478 0.061969429 0.716524
-0.065311864 0.059374422 0.71412575
-0.064669155 0.056830436 0.71177483
-0.06403923 0.054336339 0.70947063
-0.063421205 0.051890075 0.70720994
-0.062814996 0.049490601 0.70499247
-0.062220257 0.047136545 0.70281702
-0.061636686 0.044826686 0.70068234
-0.061063956 0.042559743 0.6985873
-0.060501769 0.040334553 0.69653094
-0.059949841 0.038149893 0.69451207
-0.059407894 0.036004782 0.69252968
-0.058875654 0.033898115 0.69058281
-0.058352865 0.031828851 0.68867052
-0.057839282 0.029796004 0.68679184
-0.057334658 0.027798623 0.68494594
-0.056838971 0.025835901 0.68313277
-0.05635158 0.023906708 0.68134999
-0.055872478 0.022010356 0.6795975
-0.055401448 0.020145953 0.67787451
-0.054938298 0.018312752 0.67618036
-0.054482829 0.01650995 0.67451429
-0.054034844 0.014736801 0.67287558
-0.053594176 0.012992531 0.67126364
-0.053160626 0.011276484 0.66967779
-0.052734043 0.009588033 0.6681174
-0.052314244 0.0079264045 0.66658181
-0.05190108 0.0062910318 0.66507053
-0.05149439 0.004681319 0.66358286
-0.051094193 0.0030966103 0.66211903
-0.050700005 0.0015363693 0.66067708
-0.050311849 -0 0.65925723
-0.049929596 -0.0015130043 0.65785897
-0.0495531 -0.0030032098 0.65648186
-0.049182247 -0.0044711232 0.65512526
-0.048816897 -0.0059171915 0.65378892
-0.048456941 -0.0073419809 0.65247214
-0.048102252 -0.0087458789 0.65117478
-0.047752716 -0.010129362 0.6498962
-0.047408227 -0.011492878 0.6486361
-0.047068808 -0.012836963 0.64739454
-0.046734083 -0.014161855 0.64617014
-0.046404082 -0.015468001 0.64496303
-0.046078708 -0.016755909 0.64377284
-0.045757864 -0.018025815 0.64259923
-0.04544146 -0.019278169 0.64144182
-0.0451294 -0.020513356 0.64030033
-0.044821594 -0.021731704 0.63917446
-0.045129266 -0.023248434 0.64029992
-0.045580387 -0.024862021 0.64195001
-0.046040751 -0.026508301 0.64363402
-0.046510372 -0.02818808 0.64535183
-0.046989672 -0.029902488 0.6471051
-0.047478955 -0.031652629 0.64889479
-0.047978677 -0.033439696 0.65072274
-0.048488885 -0.035264641 0.65258896
-0.049010053 -0.037128806 0.65449542
-0.049542554 -0.039033502 0.65644324
-0.050086748 -0.040980071 0.65843385
-0.050643202 -0.042969972 0.66046929
-0.051211987 -0.045004487 0.66254985
-0.051793687 -0.047085166 0.66467768
-0.052388761 -0.049213707 0.66685438
-0.05299785 -0.05139187 0.66908234
-0.053621076 -0.053621054 0.67136204
-0.05425914 -0.055903345 0.67369604
-0.054912571 -0.058240592 0.67608619
-0.055581927 -0.060634822 0.67853475
-0.056268014 -0.063088357 0.68104428
-0.056971036 -0.065602988 0.68361586
-0.057691853 -0.068181276 0.68625253
-0.058431141 -0.070825666 0.6889568
-0.067459933 0.075892448 0.72969449
-0.066753566 0.073011696 0.72702998
-0.066061556 0.07019043 0.72441959
-0.065383747 0.06742698 0.72186273
-0.064719707 0.064719707 0.71935779
-0.06406901 0.062066883 0.71690327
-0.06343127 0.059466809 0.71449757
-0.062806107 0.056918055 0.71213931
-0.062193144 0.054419011 0.70982707
-0.061592031 0.051968277 0.70755953
-0.061002422 0.049564481 0.70533544
-0.060424 0.047206283 0.70315349
-0.059856441 0.044892311 0.70101261
-0.059299447 0.042621464 0.69891143
-0.05875295 0.040392667 0.69684994
-0.058216207 0.038204372 0.69482529
-0.057689182 0.036055744 0.69283724
-0.05717162 0.03394565 0.69088483
-0.05666326 0.031873077 0.68896723
-0.056163859 0.029837042 0.68708336
-0.055673186 0.027836591 0.68523246
-0.05519101 0.0258708 0.68341357
-0.054717116 0.023938715 0.68162596
-0.054251291 0.022039592 0.67986876
-0.05379333 0.020172507 0.67814118
-0.053343032 0.018336654 0.67644262
-0.052900214 0.016531318 0.67477226
-0.052464869 0.014755756 0.67312998
-0.052036457 0.013009101 0.67151392
-0.051614977 0.011290759 0.66992402
-0.051200271 0.0096000433 0.6683597
-0.05079218 0.0079362392 0.66682029
-0.050390542 0.00629884 0.66530514
-0.049995206 0.0046870708 0.66381395
-0.049606018 0.0031003952 0.66234583
-0.049222853 0.0015381873 0.66090047
-0.048845552 -2.9802322e-08 0.65947723
-0.048473999 -0.0015148222 0.65807563
-0.048108052 -0.0030067265 0.65669519
-0.04774759 -0.0044763386 0.65533549
-0.047392637 -0.0059241056 0.65399653
-0.04704278 -0.0073504448 0.65267676
-0.046698045 -0.0087558925 0.65137637
-0.046358328 -0.010140866 0.65009487
-0.046023522 -0.011505902 0.6488319
-0.045693513 -0.012851328 0.64758706
-0.045368202 -0.014177561 0.64635992
-0.045047496 -0.015485078 0.64515013
-0.044731285 -0.016774207 0.64395726
-0.044419486 -0.018045425 0.64278114
-0.044112004 -0.019299001 0.64162123
-0.043808877 -0.020535409 0.64047778
-0.043509759 -0.021754891 0.63934946
-0.0438236 -0.023281276 0.64053333
-0.044262294 -0.024897546 0.64218819
-0.044709992 -0.026546568 0.64387697
-0.045166701 -0.028229207 0.64559984
-0.045632843 -0.029946536 0.64735818
-0.046108704 -0.031699747 0.64915323
-0.04659459 -0.033489853 0.65098608
-0.047090974 -0.035318226 0.65285861
-0.047597904 -0.037185848 0.65477079
-0.048115861 -0.03909409 0.65672463
-0.048645213 -0.041044384 0.65872145
-0.049186505 -0.043038189 0.66076332
-0.049739819 -0.045076698 0.6628505
-0.05030572 -0.047161609 0.6649853
-0.050884645 -0.049294472 0.66716909
-0.051477049 -0.051477045 0.66940373
-0.052083593 -0.053711206 0.67169172
-0.052704412 -0.055998415 0.67403358
-0.053340212 -0.058340877 0.67643201
-0.053991538 -0.060740441 0.67888892
-0.054659165 -0.063199639 0.68140733
-0.055343311 -0.065720201 0.68398809
-0.056044795 -0.068304569 0.68663424
-0.056764293 -0.070955366 0.68934834
-0.065460145 0.076018244 0.73011637
-0.064773314 0.073131174 0.72744191
-0.06410075 0.070304066 0.724823
-0.063441999 0.067535043 0.72225791
-0.062796652 0.064822316 0.71974504
-0.062164307 0.062164277 0.71728271
-0.061544564 0.059559226 0.7148695
-0.060937062 0.057005674 0.71250391
-0.060341679 0.05450213 0.71018565
-0.059757579 0.052046925 0.70791119
-0.059184678 0.049638748 0.70568031
-0.058622651 0.047276348 0.70349193
-0.058071204 0.044958353 0.70134461
-0.057530034 0.042683601 0.69923735
-0.056998856 0.040450782 0.69716901
-0.056477398 0.03825888 0.69513851
-0.055965394 0.036106735 0.6931448
-0.055462595 0.033993244 0.6911869
-0.054968745 0.031917334 0.68926394
-0.054483611 0.02987811 0.68737495
-0.054006968 0.027874559 0.68551892
-0.053538784 0.025905848 0.68369591
-0.053078461 0.023970902 0.68190336
-0.05262598 0.022068977 0.68014151
-0.052181151 0.02019915 0.67840934
-0.051743779 0.018360734 0.67670631
-0.051313683 0.016552836 0.67503154
-0.050890669 0.01477474 0.67338437
-0.05047458 0.013025701 0.67176419
-0.050065238 0.011305064 0.67017025
-0.049662478 0.0096121132 0.66860199
-0.049266152 0.0079461336 0.66705871
-0.048876099 0.0063065886 0.66553986
-0.048492171 0.0046927929 0.66404492
-0.048114393 0.0031041801 0.66257387
-0.047742289 0.0015400946 0.66112494
-0.047375903 2.9802322e-08 0.65969825
-0.047015101 -0.0015166402 0.65829337
-0.046659749 -0.003010273 0.65690964
-0.046309728 -0.0044815838 0.65554667
-0.045964919 -0.0059309304 0.65420401
-0.04562521 -0.0073589087 0.65288126
-0.045290485 -0.0087659061 0.65157789
-0.044960633 -0.0101524 0.65029341
-0.044635553 -0.011518866 0.64902765
-0.044315137 -0.012865692 0.64777994
-0.043999419 -0.014193326 0.6465506
-0.043688044 -0.015502185 0.64533812
-0.043381043 -0.016792625 0.64414269
-0.043078326 -0.018065155 0.64296401
-0.042779803 -0.019319922 0.64180154
-0.04248539 -0.020557433 0.6406551
-0.042195 -0.021778077 0.6395244
-0.042514242 -0.023314267 0.64076751
-0.042940438 -0.024933159 0.64242703
-0.043375388 -0.026584893 0.64412069
-0.043819111 -0.028270394 0.64584851
-0.044272013 -0.029990703 0.64761204
-0.044734366 -0.031746954 0.64941239
-0.045206483 -0.033540279 0.65125078
-0.045688815 -0.035371989 0.65312892
-0.046181407 -0.037243068 0.655047
-0.046684731 -0.039154947 0.65700692
-0.047199149 -0.041108936 0.65900999
-0.047725029 -0.043106467 0.66105771
-0.048262917 -0.045149177 0.66315222
-0.048812911 -0.04723832 0.66529381
-0.049375579 -0.049375564 0.66748482
-0.049951371 -0.051562726 0.66972691
-0.050540928 -0.053801626 0.67202246
-0.051144384 -0.056093842 0.67437232
-0.051762428 -0.05844146 0.67677897
-0.052395597 -0.060846508 0.6792444
-0.053044438 -0.0633111 0.68177092
-0.053709753 -0.065837801 0.68436164
-0.054391772 -0.068428338 0.68701732
-0.055091329 -0.071085602 0.68974131
-0.063453436 0.076144099 0.73053849
-0.062786572 0.073251009 0.72785521
-0.062133845 0.070418358 0.72522885
-0.061494283 0.067643732 0.72265542
-0.060867753 0.064925581 0.7201345
-0.060253862 0.062262356 0.71766436
-0.059652235 0.059652239 0.71524364
-0.059062496 0.05709374 0.71287072
-0.058484308 0.054585367 0.71054423
-0.05791733 0.052125573 0.70826292
-0.057361238 0.049713045 0.70602536
-0.056815721 0.047346443 0.70383036
-0.056280486 0.045024395 0.70167679
-0.055755239 0.04274568 0.69956332
-0.055239707 0.040509135 0.69748902
-0.054733835 0.038313687 0.69545352
-0.054236934 0.036157966 0.69345415
-0.053748973 0.034041047 0.69149071
-0.05326971 0.031961828 0.68956232
-0.052798927 0.029919386 0.68766803
-0.052336391 0.027912706 0.68580699
-0.051881883 0.025940955 0.68397814
-0.051435206 0.024003118 0.68218088
-0.050996151 0.022098333 0.68041426
-0.050564531 0.020225823 0.67867756
-0.050140154 0.018384725 0.67697001
-0.049722847 0.016574293 0.67529082
-0.04931242 0.014793754 0.67363942
-0.048908889 0.01304239 0.67201573
-0.04851174 0.011319429 0.67041773
-0.048120987 0.0096241832 0.66884547
-0.047736481 0.0079560578 0.66729832
-0.04735807 0.0063143969 0.66577572
-0.046985608 0.0046985745 0.66427708
-0.046618965 0.0031079054 0.6628018
-0.046257999 0.0015419126 0.66134942
-0.045902576 2.9802322e-08 0.65991926
-0.045552574 -0.0015184283 0.65851098
-0.045207873 -0.0030138791 0.65712404
-0.044868346 -0.004486829 0.65575784
-0.044533886 -0.0059378445 0.65441209
-0.044204503 -0.0073674321 0.65308678
-0.043879829 -0.0087759495 0.65178037
-0.043559887 -0.010163933 0.65049303
-0.043244578 -0.011531889 0.64922434
-0.042933799 -0.012880147 0.64797384
-0.042627458 -0.014209181 0.64674121
-0.042325456 -0.015519321 0.64552605
-0.042027701 -0.016811103 0.644328
-0.041734107 -0.018084764 0.64314663
-0.041444588 -0.019340813 0.64198172
-0.041159056 -0.020579547 0.64083278
-0.040877555 -0.021801382 0.63970011
-0.041201163 -0.023347348 0.6410023
-0.041614786 -0.024968863 0.64266652
-0.042036798 -0.026623309 0.6443646
-0.042467587 -0.02831167 0.6460979
-0.04290716 -0.030035019 0.64786667
-0.043355931 -0.031794339 0.64967239
-0.043814193 -0.033590883 0.65151626
-0.044282377 -0.035425901 0.65340012
-0.04476054 -0.037300467 0.65532404
-0.045249138 -0.039215922 0.6572901
-0.045748521 -0.041173637 0.65929937
-0.046259053 -0.043175131 0.66135365
-0.046781261 -0.045221895 0.66345483
-0.047315232 -0.04731524 0.6656034
-0.047861539 -0.049456954 0.6678015
-0.048420608 -0.051648647 0.67005104
-0.048992891 -0.053892165 0.67235374
-0.049579035 -0.056189567 0.67471224
-0.050179202 -0.058542401 0.67712706
-0.050794069 -0.060952872 0.67960113
-0.051424198 -0.063423157 0.68213654
-0.052070346 -0.065955728 0.68473649
-0.052732743 -0.068552554 0.68740171
-0.05341221 -0.071216285 0.69013572
-0.060793579 0.073371559 0.72827101
-0.060160272 0.070532739 0.72563493
-0.059540033 0.067752481 0.72305322
-0.058932446 0.065028906 0.72052419
-0.058337141 0.062360406 0.71804625
-0.057753742 0.059745252 0.7156179
-0.057181891 0.057181895 0.71323758
-0.056621492 0.054669023 0.71090496
-0.056071736 0.052204728 0.70861661
-0.055532556 0.049787849 0.70637232
-0.055003647 0.047416955 0.70417076
-0.054484721 0.045090795 0.70201075
-0.053975485 0.042808175 0.69989109
-0.053475693 0.040567756 0.69781077
-0.052985061 0.038368493 0.69576859
-0.052503355 0.036209196 0.69376349
-0.052030329 0.03408882 0.69179451
-0.051565748 0.032006353 0.68986076
-0.051109392 0.029960692 0.68796122
-0.050661042 0.027950913 0.686095
-0.050220676 0.025976211 0.68426192
-0.049787715 0.024035454 0.68245983
-0.04936216 0.022127897 0.68068844
-0.04894381 0.020252645 0.67894709
-0.048532501 0.018408865 0.67723507
-0.048128042 0.0165959 0.67555153
-0.047730267 0.014812827 0.67389584
-0.047339015 0.01305902 0.67226726
-0.046954125 0.011333764 0.67066514
-0.046575449 0.0096363127 0.66908896
-0.046202827 0.0079660118 0.66753793
-0.045836121 0.0063222349 0.66601157
-0.045475189 0.0047043562 0.66450918
-0.0451199 0.0031117201 0.66303039
-0.044770263 0.0015437901 0.66157496
-0.04442586 -0 0.66014147
-0.044086713 -0.0015202165 0.65872973
-0.043752708 -0.0030174255 0.65733945
-0.04342372 -0.0044921041 0.6559701
-0.043099649 -0.0059447885 0.65462118
-0.042780373 -0.0073759258 0.65329218
-0.042465799 -0.0087860227 0.65198278
-0.042155817 -0.010175556 0.65069258
-0.041850325 -0.011544883 0.64942092
-0.041549232 -0.012894601 0.64816761
-0.041252438 -0.014224976 0.64693224
-0.040959977 -0.015536517 0.64571488
-0.040671512 -0.01682958 0.6445142
-0.040387079 -0.018104553 0.64333022
-0.040106602 -0.019361824 0.6421628
-0.039829992 -0.02060169 0.64101136
-0.03955717 -0.021824628 0.63987577
-0.039884359 -0.023380488 0.64123768
-0.040285334 -0.025004685 0.64290673
-0.040694457 -0.026661873 0.64460969
-0.041112099 -0.028353184 0.64634812
-0.041538276 -0.030079395 0.64812201
-0.041973375 -0.031841904 0.64993316
-0.04241769 -0.033641607 0.65178251
-0.042871512 -0.035479873 0.65367156
-0.043335292 -0.037358016 0.65560204
-0.043809071 -0.039277077 0.65757406
-0.044293325 -0.041238606 0.65958977
-0.044788405 -0.043244004 0.66165054
-0.045294825 -0.045294851 0.66375852
-0.045812678 -0.047392428 0.66591394
-0.046342507 -0.049538523 0.66811937
-0.04688473 -0.051734865 0.67037636
-0.047439802 -0.053983241 0.67268676
-0.048008338 -0.05628562 0.67505324
-0.048590492 -0.058643699 0.67747647
-0.049186938 -0.061059594 0.67995906
-0.049798209 -0.063535661 0.68250346
-0.050424866 -0.066073984 0.68511194
-0.051067684 -0.068677247 0.68778759
-0.051726907 -0.071347475 0.69053161
-0.058793746 0.073492199 0.72868705
-0.058180537 0.070647806 0.72604346
-0.057579741 0.067861855 0.72345334
-0.056991223 0.065132797 0.72091615
-0.056414612 0.062459022 0.7184304
-0.055849552 0.059838802 0.7159943
-0.055295702 0.057270557 0.71360666
-0.054752726 0.054752707 0.7112658
-0.054220311 0.052283883 0.70897049
-0.053698152 0.049862593 0.7067194
-0.053185955 0.047487438 0.70451128
-0.052683435 0.045157224 0.70234495
-0.052190322 0.042870611 0.70021904
-0.051706355 0.040626436 0.69813263
-0.051231477 0.038423598 0.69608539
-0.050765049 0.036260784 0.69407451
-0.050307043 0.034136921 0.69210005
-0.049857218 0.032051057 0.69016081
-0.049415372 0.030002177 0.68825591
-0.048981287 0.027989298 0.68638456
-0.048554763 0.026011497 0.68454581
-0.048135601 0.024067819 0.68273872
-0.047723617 0.022157431 0.68096262
-0.047318622 0.020279408 0.67921668
-0.046920445 0.018433034 0.67750013
-0.046528913 0.016617447 0.67581218
-0.046143863 0.01483196 0.6741522
-0.045765288 0.013075769 0.67252016
-0.045392718 0.011348218 0.67091393
-0.045026172 0.0096485019 0.6693337
-0.044665493 0.0079759657 0.66777885
-0.044310547 0.0063301027 0.66624856
-0.043961201 0.004710108 0.66474253
-0.043617319 0.0031155348 0.66325998
-0.043278772 0.0015456676 0.6618005
-0.042945445 -0 0.6603635
-0.042617206 -0.0015220642 0.65894842
-0.042293951 -0.003020972 0.65755481
-0.041975565 -0.0044973791 0.65618229
-0.041661933 -0.0059517026 0.65483016
-0.041353084 -0.007384479 0.65349871
-0.041048653 -0.0087961555 0.65218627
-0.040748671 -0.010187149 0.65089297
-0.040453043 -0.011557996 0.64961851
-0.040161673 -0.012909114 0.6483624
-0.039874472 -0.014240861 0.64712417
-0.039591346 -0.015553743 0.64590359
-0.039312214 -0.016848087 0.64470029
-0.039036989 -0.018124282 0.64351374
-0.038765591 -0.019382745 0.6423437
-0.038497943 -0.020623893 0.64118987
-0.038234074 -0.021847993 0.64005226
-0.038563803 -0.023413748 0.64147383
-0.038952064 -0.025040627 0.64314765
-0.039348219 -0.026700556 0.6448555
-0.039752517 -0.028394669 0.64659852
-0.040165331 -0.030124009 0.64837813
-0.04058668 -0.031889528 0.65019464
-0.041016966 -0.033692509 0.65204966
-0.041456476 -0.035534143 0.65394443
-0.041905638 -0.037415743 0.65588081
-0.0423645 -0.03933847 0.65785897
-0.042833526 -0.041303784 0.659881
-0.043313056 -0.043313056 0.66194826
-0.043803442 -0.045367837 0.66406244
-0.044305209 -0.047469884 0.66622555
-0.04481845 -0.04962039 0.6684382
-0.045343723 -0.051821411 0.6707027
-0.045881454 -0.054074585 0.6730209
-0.046432089 -0.056381822 0.67539477
-0.046996273 -0.058745325 0.677827
-0.047574162 -0.061166763 0.6803183
-0.048166439 -0.063648552 0.6828717
-0.04877365 -0.066192806 0.68548942
-0.049396373 -0.068802088 0.68817407
-0.05003538 -0.071479142 0.69092894
-0.056787584 0.073613554 0.72910553
-0.056194086 0.070762902 0.72645217
-0.055612862 0.067971289 0.72385365
-0.055043537 0.065236777 0.72130835
-0.054485757 0.062557727 0.71881461
-0.053939164 0.059932441 0.71637094
-0.05340343 0.057359248 0.71397579
-0.052878231 0.05483672 0.71162772
-0.052363481 0.052363485 0.70932639
-0.051858444 0.049937755 0.7070685
-0.051363051 0.047558367 0.70485377
-0.050877035 0.045224011 0.70268095
-0.05040013 0.042933464 0.70054877
-0.049932089 0.040685415 0.69845623
-0.049472656 0.038478732 0.69640225
-0.049021602 0.036312282 0.69438565
-0.048578698 0.034184992 0.69240552
-0.048143726 0.03209582 0.69046092
-0.047716472 0.030043691 0.68855077
-0.047296736 0.028027713 0.68667418
-0.046884321 0.026046842 0.68483043
-0.046479203 0.024100333 0.68301916
-0.046080861 0.022187084 0.68123835
-0.045689292 0.020306349 0.67948771
-0.045304317 0.018457323 0.67776656
-0.044925775 0.016639143 0.67607421
-0.044553511 0.014851153 0.67440987
-0.044187363 0.013092548 0.67277294
-0.043827184 0.011362612 0.67116261
-0.04347283 0.0096606016 0.66957843
-0.043124162 0.0079859495 0.66801959
-0.04278104 0.0063379705 0.66648555
-0.042443331 0.0047159195 0.66497576
-0.042110916 0.0031192899 0.66348964
-0.041783806 0.001547575 0.66202718
-0.041461602 -2.9802322e-08 0.66058671
-0.04114433 -0.0015238822 0.65916824
-0.040831875 -0.0030246079 0.65777135
-0.040524133 -0.0045026839 0.65639549
-0.040220991 -0.0059586763 0.6550402
-0.039922353 -0.0073930323 0.65370506
-0.039628118 -0.0088062584 0.65238959
-0.039338186 -0.010198802 0.65109342
-0.039052468 -0.011571079 0.64981604
-0.038770869 -0.012923628 0.64855707
-0.038493302 -0.014256746 0.6473161
-0.038219795 -0.015571028 0.64609337
-0.037950035 -0.016866684 0.64488727
-0.037684057 -0.018144161 0.64369816
-0.037421782 -0.019403905 0.64252555
-0.037163131 -0.020646185 0.64136922
-0.036908034 -0.021871448 0.64022875
-0.037239492 -0.023447096 0.64171058
-0.037614956 -0.025076658 0.64338923
-0.037998069 -0.026739359 0.64510202
-0.038389068 -0.028436333 0.64685011
-0.038788311 -0.030168682 0.64863503
-0.039195828 -0.031937391 0.65045696
-0.039612003 -0.033743531 0.65231752
-0.040037103 -0.035588533 0.65421808
-0.040471427 -0.037473559 0.65615988
-0.040915415 -0.039400011 0.65814477
-0.041369114 -0.04136911 0.66017318
-0.041832987 -0.043382347 0.66224706
-0.042307381 -0.04544124 0.66436797
-0.042792801 -0.047547549 0.66653812
-0.043289345 -0.049702585 0.66875809
-0.043797545 -0.051908225 0.67103016
-0.044317823 -0.054166228 0.67335618
-0.044850606 -0.05647856 0.6757381
-0.045396518 -0.058847368 0.67817885
-0.045955718 -0.06127432 0.68067884
-0.046528868 -0.063761771 0.68324125
-0.047116488 -0.066312104 0.68586838
-0.047719147 -0.068927675 0.68856275
-0.048337609 -0.071611255 0.69132769
-0.054774541 0.073734999 0.72952437
-0.054201387 0.070878774 0.72686332
-0.053639866 0.068081379 0.72425634
-0.053089861 0.065341383 0.72170281
-0.052551024 0.062656969 0.71920121
-0.052023008 0.060026556 0.71674973
-0.051505502 0.057448447 0.71434712
-0.050998189 0.05492115 0.71199179
-0.050500777 0.052443117 0.70968246
-0.050012968 0.050013006 0.70741773
-0.049534496 0.047629327 0.70519626
-0.049065091 0.045290887 0.70301694
-0.0486045 0.042996287 0.70087856
-0.048152477 0.040744394 0.69877994
-0.047708962 0.038534194 0.69672084
-0.047273371 0.036364108 0.69469857
-0.046845656 0.034233332 0.69271278
-0.046425615 0.032140791 0.69076264
-0.046013039 0.030085474 0.68884712
-0.045607727 0.028066278 0.68696547
-0.045209497 0.026082397 0.68511653
-0.044818159 0.024132848 0.68329966
-0.044433538 0.022216767 0.68151397
-0.044055466 0.02033329 0.67975873
-0.043683767 0.018481612 0.67803299
-0.043318294 0.016660899 0.67633623
-0.042958885 0.014870405 0.67466754
-0.042605534 0.013109386 0.67302704
-0.042257808 0.011377066 0.67141271
-0.041915707 0.0096728802 0.66982436
-0.041579105 0.0079959929 0.66826165
-0.041247863 0.0063457787 0.66672379
-0.040921859 0.0047217309 0.66521025
-0.04060097 0.0031231344 0.66372043
-0.040285069 0.0015494227 0.66225386
-0.039974049 -2.9802322e-08 0.66080981
-0.039667796 -0.0015257001 0.65938795
-0.039366197 -0.0030281544 0.65798777
-0.03906915 -0.0045079589 0.65660864
-0.038776673 -0.0059656501 0.65525073
-0.038488425 -0.0074016452 0.65391248
-0.038204432 -0.008816421 0.65259397
-0.037924599 -0.010210454 0.65129477
-0.037648831 -0.011584222 0.65001446
-0.037377048 -0.012938231 0.64875269
-0.037109159 -0.014272749 0.64750892
-0.036845084 -0.015588313 0.64628291
-0.036584742 -0.016885281 0.64507425
-0.036328051 -0.018164039 0.64388251
-0.036074936 -0.019425005 0.64270735
-0.035825431 -0.020668507 0.64154899
-0.035579253 -0.021894902 0.64040601
-0.0359114 -0.023480535 0.6419481
-0.036273997 -0.025112778 0.64363146
-0.036643989 -0.026778311 0.64534932
-0.037021607 -0.028478146 0.64710248
-0.037407205 -0.030213475 0.64889264
-0.0378008 -0.031985313 0.65072
-0.038202766 -0.033794761 0.65258628
-0.038613375 -0.035643101 0.65449256
-0.039032906 -0.037531644 0.65644038
-0.039461784 -0.039461792 0.65843153
-0.039900057 -0.041434705 0.66046631
-0.040348172 -0.043451905 0.66254675
-0.040806472 -0.045514911 0.66467452
-0.0412753 -0.047625363 0.66685122
-0.04175517 -0.049785018 0.66907907
-0.042246185 -0.051995277 0.6713587
-0.042748883 -0.054258198 0.67369258
-0.043263689 -0.056575596 0.67608267
-0.043791201 -0.058949679 0.67853177
-0.044331573 -0.061382174 0.68104059
-0.044885453 -0.063875437 0.68361211
-0.045453344 -0.066431791 0.6862486
-0.046035793 -0.06905368 0.6889528
-0.046633363 -0.071743637 0.69172716
-0.052755084 0.073857129 0.72994566
-0.052201923 0.070994616 0.72727478
-0.05166024 0.068191528 0.72465926
-0.051129688 0.065446049 0.72209752
-0.05060992 0.0627563 0.71958786
-0.050100617 0.060120761 0.71712875
-0.049601454 0.057537675 0.71471858
-0.04911235 0.055005848 0.71235698
-0.048632599 0.052523226 0.71004057
-0.048162129 0.050088614 0.70776892
-0.04770067 0.047700673 0.70554078
-0.047247972 0.045358062 0.70335495
-0.046803787 0.043059498 0.70121026
-0.046367873 0.04080373 0.69910544
-0.045940008 0.038589627 0.69703954
-0.045519967 0.036415964 0.69501144
-0.045107536 0.03428176 0.69301999
-0.044702508 0.032185823 0.69106436
-0.044304695 0.030127168 0.6891436
-0.043913893 0.028104901 0.68725657
-0.043530095 0.02611807 0.68540347
-0.043152787 0.024165571 0.68358165
-0.042781956 0.022246629 0.68179119
-0.042417452 0.02036038 0.68003112
-0.042059101 0.018505991 0.67830086
-0.041706759 0.016682714 0.67659962
-0.04136027 0.014889717 0.67492664
-0.041019492 0.013126254 0.67328119
-0.040684279 0.01139161 0.67166263
-0.040354505 0.0096850693 0.67007035
-0.040030032 0.0080060065 0.6685037
-0.039710734 0.0063537061 0.66696197
-0.039396491 0.0047275722 0.66544467
-0.039087184 0.0031270087 0.66395116
-0.03878282 0.0015513003 0.66248161
-0.038483035 -0 0.66103411
-0.03818785 -0.001527518 0.65960884
-0.037897162 -0.0030317903 0.65820527
-0.037610862 -0.0045133233 0.65682286
-0.037328854 -0.0059726238 0.65546125
-0.037051044 -0.0074102283 0.65411985
-0.036777344 -0.0088265538 0.6527983
-0.036507651 -0.010222137 0.65149605
-0.036241889 -0.011597425 0.65021288
-0.035979968 -0.012952775 0.64894825
-0.035721913 -0.014288783 0.64770222
-0.035467427 -0.015605658 0.64647341
-0.03521654 -0.016903907 0.64526206
-0.034969177 -0.018183976 0.6440677
-0.034725264 -0.019446135 0.64288998
-0.034484737 -0.020690858 0.64172858
-0.03424751 -0.021918416 0.64058322
-0.034579512 -0.023514092 0.64218622
-0.034929164 -0.025148988 0.64387447
-0.035285961 -0.026817322 0.64559728
-0.035650119 -0.028520077 0.64735556
-0.036021873 -0.030258358 0.64915055
-0.036401577 -0.032033384 0.65098393
-0.036789253 -0.03384608 0.65285575
-0.037185278 -0.035697877 0.65476793
-0.037589919 -0.037589908 0.65672171
-0.038003586 -0.039523751 0.65871912
-0.038426336 -0.041500449 0.66076028
-0.038858593 -0.043521613 0.66284746
-0.039300688 -0.045588791 0.66498208
-0.03975296 -0.047703564 0.66716582
-0.040215898 -0.049867719 0.66940105
-0.040689606 -0.052082688 0.67168838
-0.041174605 -0.054350436 0.67403013
-0.041671306 -0.056672931 0.67642844
-0.042180136 -0.059052169 0.67888528
-0.042701703 -0.061490476 0.68140358
-0.043236166 -0.06398949 0.68398428
-0.043784186 -0.066551954 0.68663037
-0.044346269 -0.069180191 0.68934435
-0.044922978 -0.071876734 0.69212884
-0.050728694 0.073979318 0.73036724
-0.050196134 0.071111202 0.72768867
-0.049674422 0.068302333 0.72506458
-0.049163438 0.065551281 0.7224946
-0.048662864 0.062856197 0.71997684
-0.048172381 0.060215473 0.71750993
-0.047691688 0.057627499 0.71509218
-0.047220487 0.055090576 0.7127223
-0.046758514 0.052603334 0.71039873
-0.046305485 0.050164282 0.70812017
-0.045861159 0.04777205 0.70588535
-0.04542527 0.045425266 0.70369309
-0.044997595 0.043122679 0.70154196
-0.044577897 0.040863097 0.69943106
-0.044166125 0.038645387 0.69735998
-0.043761726 0.036468118 0.69532603
-0.043364663 0.034330368 0.69332892
-0.042974737 0.032231033 0.69136775
-0.042591769 0.030169159 0.68944162
-0.04221556 0.028143674 0.68754947
-0.04184594 0.026153743 0.68569034
-0.041482735 0.024198264 0.68386364
-0.041125786 0.022276461 0.68206829
-0.040774919 0.020387441 0.68030363
-0.040429994 0.018530399 0.67856872
-0.040090855 0.01670453 0.67686301
-0.03975736 0.014909029 0.67518562
-0.039429501 0.013143152 0.67353666
-0.039106872 0.011406183 0.67191398
-0.038789481 0.0096973479 0.67031759
-0.038477201 0.0080161095 0.66874689
-0.038169906 0.0063616335 0.6672014
-0.037867483 0.0047334433 0.66568029
-0.03756981 0.0031307936 0.66418314
-0.037276786 0.0015531778 0.6627093
-0.036988296 -2.9802322e-08 0.66125834
-0.036704235 -0.001529336 0.65982962
-0.036424503 -0.0030353665 0.65842271
-0.036149006 -0.0045186281 0.65703702
-0.03587776 -0.0059796274 0.65567273
-0.035610437 -0.0074188411 0.65432823
-0.035347071 -0.0088367462 0.65300357
-0.035087574 -0.010233849 0.65169841
-0.034831855 -0.011610627 0.65041226
-0.03457984 -0.012967438 0.64914471
-0.034331445 -0.014304787 0.64789546
-0.034086589 -0.015623033 0.64666384
-0.033845209 -0.016922593 0.64544976
-0.033607215 -0.018203914 0.64425284
-0.033372551 -0.019467324 0.64307255
-0.033141233 -0.02071327 0.64190912
-0.032913774 -0.021942526 0.64076507
-0.03324382 -0.023547709 0.64242506
-0.033580448 -0.025185347 0.64411819
-0.033923969 -0.026856482 0.64584595
-0.034274589 -0.028562158 0.64760947
-0.03463253 -0.030303448 0.64940977
-0.034998138 -0.032081634 0.65124857
-0.035371438 -0.033897638 0.65312612
-0.035752781 -0.035752803 0.6550442
-0.036142439 -0.03764835 0.657004
-0.036540687 -0.039585769 0.65900701
-0.036947928 -0.041566432 0.66105533
-0.037364222 -0.043591559 0.66314912
-0.037790008 -0.04566291 0.66529059
-0.03822561 -0.047782004 0.66748154
-0.038671505 -0.049950689 0.66972423
-0.039127786 -0.052170396 0.67201912
-0.039594963 -0.054443061 0.67436886
-0.040073432 -0.056770682 0.6767754
-0.040563606 -0.059155256 0.67924082
-0.041066069 -0.061599106 0.68176794
-0.041580983 -0.064104021 0.68435776
-0.042108975 -0.066672534 0.68701333
-0.042650547 -0.069307178 0.68973732
-0.04320623 -0.072010368 0.69253218
-0.048695806 0.074102312 0.73079127
-0.048183534 0.071227819 0.7281028
-0.047681924 0.068413228 0.72547019
-0.047190651 0.065656543 0.72289181
-0.0467094 0.062956125 0.72036612
-0.046237864 0.060310274 0.71789134
-0.045775753 0.057717264 0.71546602
-0.045322787 0.055175543 0.71308875
-0.044878885 0.05268389 0.71075898
-0.044443414 0.050240397 0.70847344
-0.044016305 0.047843814 0.70623195
-0.043597337 0.045492858 0.70403302
-0.043186262 0.043186277 0.70187557
-0.042782873 0.040922761 0.69975853
-0.042386945 0.038701117 0.69768059
-0.041998278 0.036520213 0.6956408
-0.041616675 0.034379005 0.69363797
-0.041241948 0.032276332 0.69167125
-0.040873904 0.030211151 0.68973964
-0.040512372 0.028182536 0.68784225
-0.04015718 0.026189446 0.68597817
-0.039808307 0.024231136 0.68414718
-0.039465301 0.022306472 0.68234694
-0.039128155 0.02041468 0.68057752
-0.038796723 0.018554956 0.67883801
-0.038470857 0.016726464 0.67712772
-0.038150419 0.01492843 0.67544603
-0.037835274 0.01316011 0.67379206
-0.037525296 0.011420786 0.67216516
