# .PCD v0.7 - Point Cloud Data file format
VERSION 0.7
FIELDS x y z
SIZE 4 4 4
TYPE F F F
COUNT 1 1 1
WIDTH 1345
HEIGHT 1
VIEWPOINT 0 0 0 1 0 0 0
POINTS 1345
DATA ascii
-0.0073089837 0.040930301 0.65167606
-0.0073328922 0.039597631 0.65225327
-0.0073569342 0.038256049 0.6528337
-0.007381157 0.036905766 0.65341848
-0.0074055409 0.035546631 0.65400714
-0.0074300626 0.034178287 0.65459913
-0.0074547706 0.032801032 0.65519565
-0.0074796434 0.031414509 0.65579617
-0.0075046592 0.030018657 0.65640002
-0.0075298673 0.028613478 0.65700865
-0.007555244 0.027198911 0.65762126
-0.0075807692 0.025774628 0.65823758
-0.0076064914 0.024340779 0.65885854
-0.0076323887 0.022897184 0.65948373
-0.0076584392 0.021443635 0.66011262
-0.0076846918 0.019980222 0.66074646
-0.007711126 0.018506736 0.66138458
-0.0077377162 0.017022997 0.66202658
-0.0077645169 0.015529037 0.66267359
-0.0077915033 0.014024675 0.66332513
-0.0078186523 0.012509853 0.66398054
-0.0078460174 0.010984391 0.6646412
-0.0078735743 0.0094482899 0.66530651
-0.0079012988 0.0079013109 0.66597581
-0.0079292469 0.0063433945 0.66665053
-0.0079573933 0.0047744215 0.66733003
-0.007985712 0.0031943023 0.66801369
-0.0080142617 0.0016028285 0.66870296
-0.0080430154 2.9802322e-08 0.66939712
-0.0080719488 -0.001614362 0.67009562
-0.0081011187 -0.0032404363 0.67079985
-0.0081305001 -0.0048783123 0.67150921
-0.0081600677 -0.0065280497 0.67222303
-0.0081898794 -0.0081898868 0.67294276
-0.0082199089 -0.0098638833 0.67366773
-0.0082501313 -0.011550188 0.67439735
-0.008280606 -0.01324895 0.67513311
-0.0083113061 -0.014960349 0.67587429
-0.0083422065 -0.016684413 0.67662024
-0.0083733657 -0.018421441 0.67737252
-0.0084047588 -0.020171434 0.67813039
-0.0084363585 -0.021934509 0.67889321
-0.0084682265 -0.023711056 0.67966264
-0.0085003367 -0.025501043 0.68043792
-0.0085326917 -0.02730462 0.68121892
-0.008565262 -0.029121876 0.68200529
-0.0085981144 -0.030953199 0.68279839
-0.0086312182 -0.032798648 0.68359762
-0.0086645475 -0.034658194 0.68440223
-0.0086981663 -0.036532283 0.68521392
-0.0087320479 -0.038421035 0.68603188
-0.0087661613 -0.04032433 0.68685544
-0.0088005746 -0.042242736 0.68768626
-0.0088352598 -0.04417628 0.68852365
-0.0088701863 -0.046124965 0.68936682
-0.0089054238 -0.048089296 0.69021755
-0.0089409417 -0.050069302 0.69107509
-0.008976711 -0.052064925 0.69193858
-0.0090128006 -0.054076821 0.69280982
-0.0090491818 -0.056104958 0.69368821
-0.0090858238 -0.058149248 0.69457281
-0.0091227992 -0.060210466 0.69546545
-0.0091600753 -0.062288523 0.69636536
-0.0091976225 -0.064383328 0.69727182
-0.0092355143 -0.066495717 0.69818664
-0.00927372 -0.06862548 0.69910896
-0.0093122069 -0.070772767 0.70003808
-0.0093510514 -0.072938234 0.70097595
-0.009390221 -0.07512179 0.70192158
-0.0079647582 0.073673993 0.71557939
-0.0064545376 0.058090866 0.67000449
-0.0057406928 0.050231099 0.6484623
-0.0057591274 0.048952639 0.64901859
-0.0057776812 0.047665864 0.64957857
-0.0057963375 0.046370715 0.65014154
-0.0058151321 0.04506731 0.65070868
-0.0058340491 0.043755382 0.65127957
-0.0058530718 0.042434752 0.65185368
-0.0058722366 0.041105658 0.65243202
-0.0058915275 0.039767832 0.65301412
-0.0059109274 0.038421035 0.65359962
-0.0059304736 0.037065446 0.65418941
-0.0059501496 0.035700917 0.65478319
-0.0059699384 0.034327179 0.65538043
-0.0059898775 0.032944322 0.65598214
-0.0060099508 0.031552225 0.6565879
-0.006030139 0.030150712 0.65719712
-0.0060504833 0.02873981 0.65781105
-0.0060709654 0.027319372 0.65842915
-0.0060915863 0.025889248 0.65905142
-0.0061123278 0.024449319 0.65967739
-0.0061332318 0.022999614 0.66030824
-0.0061542587 0.021539927 0.66094273
-0.00617545 0.020070225 0.66158229
-0.0061967885 0.018590391 0.6622262
-0.0062182751 0.017100275 0.66287458
-0.0062398901 0.015599728 0.66352689
-0.0062616765 0.01408878 0.66418433
-0.0062836157 0.012567222 0.66484642
-0.006305689 0.011034936 0.66551256
-0.0063279378 0.0094919205 0.66618395
-0.0063503445 0.007937938 0.66686022
-0.0063728895 0.006372869 0.66754055
-0.0063956166 0.0047967136 0.66822636
-0.0064185061 0.0032092929 0.66891712
-0.0064415387 0.0016103983 0.66961217
-0.0064647584 -0 0.67031294
-0.0064881467 -0.001622051 0.67101872
-0.0065116822 -0.0032558441 0.67172897
-0.0065354118 -0.0049015582 0.67244506
-0.0065593151 -0.0065593123 0.67316639
-0.0065833712 -0.0082291961 0.67389232
-0.0066076266 -0.009911418 0.67462432
-0.0066320617 -0.011606097 0.67536175
-0.0066566551 -0.013313323 0.67610395
-0.0066814553 -0.015033275 0.67685229
-0.0067064408 -0.016766101 0.67760634
-0.0067315898 -0.018511891 0.67836529
-0.006756952 -0.020270854 0.67913067
-0.0067825061 -0.022043139 0.67990184
-0.0068082302 -0.023828804 0.68067807
-0.0068341745 -0.02562815 0.6814611
-0.0068603172 -0.027441263 0.68224996
-0.0068866359 -0.029268205 0.68304414
-0.0069131823 -0.031109333 0.68384528
-0.0069399346 -0.032964677 0.68465263
-0.0069668684 -0.034834325 0.6854654
-0.0069940384 -0.036718696 0.68628538
-0.0070214211 -0.038617849 0.68711174
-0.007049019 -0.040531874 0.68794453
-0.0070768087 -0.042460829 0.68878311
-0.0071048443 -0.044405282 0.6896292
-0.0071331034 -0.046365172 0.69048202
-0.0071615605 -0.048340529 0.69134074
-0.0071902736 -0.050331891 0.69220722
-0.0072192177 -0.052339345 0.69308072
-0.0072483676 -0.054362774 0.69396049
-0.0072777825 -0.056402832 0.69484806
-0.0073074368 -0.058459491 0.69574302
-0.0073373052 -0.060532808 0.69664431
-0.0073674475 -0.062623322 0.69755399
-0.0073978384 -0.064731091 0.69847107
-0.0074284519 -0.066856056 0.69939494
-0.0074593495 -0.068998963 0.7003274
-0.007490505 -0.07115981 0.7012676
-0.007521892 -0.073338419 0.70221472
-0.0062530129 0.077120483 0.72682339
-0.0050227735 0.06027329 0.67732239
-0.0043236404 0.050442487 0.64919138
-0.0043375697 0.04915911 0.6497519
-0.0043516033 0.047867626 0.65031654
-0.0043657273 0.046567738 0.65088487
-0.0043799304 0.045259267 0.65145636
-0.0043942393 0.043942362 0.65203208
-0.0044086422 0.042616874 0.65261167
-0.0044231261 0.041282535 0.65319443
-0.004437719 0.039939463 0.65378159
-0.0044524092 0.03858757 0.65437269
-0.0044671823 0.037226528 0.65496713
-0.0044820681 0.035856545 0.6555661
-0.0044970536 0.034477413 0.65616906
-0.0045121252 0.033088952 0.65677547
-0.0045273127 0.031691194 0.65738654
-0.0045426027 0.030284017 0.65800178
-0.0045579816 0.028867245 0.65862054
-0.0045734798 0.027440876 0.65924418
-0.0045890836 0.026004821 0.65987206
-0.0046047796 0.024558812 0.66050363
-0.0046205982 0.023102999 0.66114008
-0.0046365261 0.021637142 0.66178095
-0.0046525486 0.020161062 0.66242564
-0.0046686977 0.018674761 0.66307545
-0.0046849591 0.017178148 0.66372979
-0.0047013192 0.015671074 0.664388
-0.0047178091 0.014153451 0.66505152
-0.0047344151 0.012625098 0.66571975
-0.0047511226 0.011085957 0.66639197
-0.0047679646 0.0095359087 0.66706967
-0.0047849263 0.0079748929 0.66775215
-0.0048019928 0.0064027011 0.66843879
-0.004819198 0.0048191845 0.6691311
-0.0048365267 0.0032243431 0.66982841
-0.0048539811 0.0016179979 0.67053062
-0.0048715444 -2.9802322e-08 0.67123741
-0.0048892526 -0.00162974 0.67194986
-0.0049070902 -0.0032713711 0.67266762
-0.0049250405 -0.0049250424 0.67338991
-0.0049431408 -0.0065908134 0.67411816
-0.0049613738 -0.0082689822 0.67485178
-0.0049797245 -0.0099594891 0.67559028
-0.0049982294 -0.011662513 0.67633474
-0.0050168722 -0.013378322 0.67708492
-0.0050356369 -0.015106916 0.67783993
-0.00505456 -0.016848505 0.67860138
-0.0050736265 -0.018603265 0.6793685
-0.0050928188 -0.020371288 0.68014085
-0.0051121749 -0.022152752 0.68091965
-0.0051316791 -0.023947835 0.6817044
-0.0051513142 -0.025756568 0.68249446
-0.0051711183 -0.027579308 0.68329132
-0.0051910761 -0.029416084 0.68409431
-0.0052111689 -0.031267017 0.68490285
-0.0052314373 -0.033132434 0.68571842
-0.005251864 -0.035012454 0.68654031
-0.0052724308 -0.036906987 0.6873678
-0.0052931798 -0.038816631 0.68820262
-0.0053140922 -0.040741354 0.68904412
-0.0053351508 -0.042681217 0.68989146
-0.0053563965 -0.044636637 0.69074631
-0.0053778128 -0.046607703 0.69160807
-0.0053993803 -0.048594415 0.69247586
-0.0054211426 -0.05059734 0.69335151
-0.0054430799 -0.052616447 0.69423425
-0.0054651969 -0.054651976 0.69512409
-0.0054874718 -0.056703866 0.69602036
-0.0055099516 -0.058772802 0.69692492
-0.0055326154 -0.060858786 0.69783682
-0.0055554449 -0.062961727 0.69875538
-0.0055784858 -0.065082371 0.69968247
-0.0056017186 -0.067220598 0.70061731
-0.0056251232 -0.069376528 0.70155907
-0.0056487471 -0.071550786 0.70250958
-0.0056725699 -0.073743403 0.70346814
-0.003479254 0.06262657 0.68521309
-0.0028946004 0.050655514 0.64992619
-0.0029039746 0.049367547 0.65049195
-0.002913401 0.048071146 0.65106082
-0.0029228972 0.046766341 0.65163404
-0.0029324559 0.045453072 0.65221095
-0.0029420683 0.044131041 0.65279108
-0.0029517529 0.042800426 0.65337563
-0.0029615015 0.041460991 0.65396404
-0.0029713057 0.040112615 0.65455574
-0.0029811838 0.038755387 0.65515196
-0.0029911282 0.03738907 0.65575212
-0.0030011297 0.036013603 0.65635574
-0.003011208 0.034628898 0.656964
-0.0030213541 0.033234894 0.65757638
-0.0030315588 0.031831384 0.65819234
-0.0030418425 0.030418396 0.658813
-0.0030521965 0.028995901 0.65943789
-0.0030626112 0.027563512 0.66006649
-0.0030731072 0.026121408 0.66069996
-0.0030836754 0.024669379 0.66133785
-0.0030943064 0.023207307 0.66197944
-0.0031050211 0.021735132 0.66262621
-0.0031158105 0.020252764 0.66327739
-0.0031266641 0.018759966 0.66393244
-0.0031376048 0.017256826 0.66459274
-0.0031486219 0.015743136 0.66525769
-0.0031597062 0.014218658 0.66592669
-0.0031708796 0.012683511 0.66660106
-0.003182132 0.011137456 0.66728026
-0.0031934539 0.0095803738 0.6679635
-0.0032048675 0.0080121756 0.66865242
-0.003216363 0.0064327121 0.66934627
-0.0032279303 0.0048418939 0.67004442
-0.0032395923 0.0032396019 0.67074829
-0.0032513386 0.0016256571 0.67145723
-0.0032631592 -0 0.67217064
-0.0032750776 -0.0016375184 0.67288995
-0.003287083 -0.003287077 0.67361462
-0.0032991657 -0.004948765 0.67434382
-0.0033113488 -0.0066227019 0.67507917
-0.0033236225 -0.0083090365 0.67581993
-0.0033359872 -0.010008007 0.67656624
-0.0033484327 -0.011719525 0.67731738
-0.003360983 -0.013443917 0.67807484
-0.003373628 -0.015181303 0.67883801
-0.0033863562 -0.016931802 0.67960626
-0.0033991931 -0.018695563 0.680381
-0.003412128 -0.020472765 0.6811617
-0.003425149 -0.022263467 0.68194759
-0.0034382823 -0.024067968 0.68274021
-0.0034515166 -0.025886387 0.68353903
-0.0034648406 -0.027718723 0.68434322
-0.0034782807 -0.029565364 0.68515438
-0.0034918254 -0.03142643 0.68597186
-0.003505463 -0.03330189 0.686795
-0.0035192207 -0.035192192 0.68762535
-0.003533087 -0.037097424 0.68846226
-0.0035470491 -0.039017528 0.68930495
-0.0035611361 -0.04095307 0.69015515
-0.0035753348 -0.04290399 0.69101214
-0.0035896341 -0.044870406 0.69187516
-0.0036040617 -0.046852827 0.69274592
-0.0036186057 -0.048851192 0.69362378
-0.003633254 -0.050865561 0.69450784
-0.0036480348 -0.0528965 0.69539994
-0.0036629371 -0.054944038 0.69629937
-0.003677961 -0.057008386 0.69720614
-0.0036930945 -0.059089512 0.69811952
-0.0037083677 -0.061188102 0.69904137
-0.0037237674 -0.063304067 0.69997084
-0.0037392809 -0.065437436 0.70090711
-0.0037549392 -0.067588896 0.7018522
-0.0037707293 -0.069758475 0.70280522
-0.0037866374 -0.071946114 0.70376533
-0.0038026958 -0.074152559 0.70473456
-0.001810301 0.065170884 0.69374418
-0.0014927627 0.05224672 0.65541399
-0.0014581657 0.049577624 0.65123773
-0.0014629236 0.048276484 0.65181208
-0.001467708 0.046966642 0.65238959
-0.0014725286 0.045648396 0.65297151
-0.0014773806 0.044321448 0.65355718
-0.0014822603 0.042985559 0.65414619
-0.001487177 0.041640967 0.65473968
-0.0014921264 0.040287435 0.65533715
-0.0014971039 0.038924724 0.65593803
-0.0015021199 0.037553012 0.65654349
-0.0015071693 0.036172062 0.65715301
-0.0015122481 0.034781694 0.6577661
-0.0015173662 0.033382058 0.65838385
-0.0015225188 0.031972885 0.65900588
-0.0015277017 0.030554056 0.65963149
-0.0015329249 0.029125571 0.66026199
-0.0015381841 0.027687311 0.66089684
-0.0015434744 0.026239067 0.66153544
-0.0015488062 0.024780869 0.66217905
-0.001554175 0.023312658 0.66282713
-0.0015595761 0.021834075 0.66347909
-0.0015650199 0.020345271 0.66413617
-0.0015705019 0.018846005 0.6647979
-0.0015760174 0.01733619 0.66546369
-0.0015815768 0.015815794 0.66613483
-0.0015871756 0.014284581 0.66681057
-0.0015928089 0.01274249 0.6674906
-0.0015984876 0.011189401 0.66817611
-0.0016042071 0.0096252263 0.66886652
-0.0016099622 0.0080498159 0.66956121
-0.0016157642 0.0064630508 0.67026156
-0.0016216082 0.0048648417 0.67096698
-0.001627489 0.0032549798 0.67167687
-0.001633418 0.0016334057 0.67239261
-0.0016393907 -0 0.67311352
-0.0016454014 -0.001645416 0.67383909
-0.0016514622 -0.0033029318 0.67457068
-0.0016575677 -0.0049727261 0.67530769
-0.0016637126 -0.0066548586 0.67604947
-0.0016699092 -0.0083495677 0.67679745
-0.0016761521 -0.010056913 0.67755103
-0.0016824361 -0.011777073 0.67830956
-0.0016887732 -0.013510197 0.67907453
-0.0016951582 -0.015256435 0.67984533
-0.0017015856 -0.017015845 0.68062115
-0.0017080681 -0.018788725 0.68140364
-0.0017146003 -0.020575196 0.68219215
-0.0017211824 -0.022375405 0.68298674
-0.001727809 -0.024189323 0.68378651
-0.0017344933 -0.026017398 0.68459338
-0.0017412293 -0.027859658 0.68540651
-0.0017480117 -0.029716164 0.68622524
-0.0017548534 -0.031587332 0.68705112
-0.0017617489 -0.033473253 0.68788344
-0.0017686922 -0.035373867 0.68872166
-0.0017756971 -0.037289619 0.68956715
-0.0017827578 -0.039220691 0.6904195
-0.001789868 -0.041166991 0.6912778
-0.001797042 -0.043128967 0.69214368
-0.0018042738 -0.045106828 0.69301665
-0.0018115571 -0.047100514 0.69389588
-0.0018189064 -0.049110472 0.69478297
-0.0018263155 -0.051136822 0.69567734
-0.0018337781 -0.053179562 0.6965782
-0.0018413094 -0.05523929 0.69748724
-0.0018489024 -0.057315975 0.69840384
-0.0018565513 -0.059409618 0.69932717
-0.0018642709 -0.061520934 0.70025897
-0.0018720551 -0.063649863 0.70119858
-0.0018798971 -0.065796405 0.70214522
-0.0018878125 -0.067961246 0.70310068
-0.0018957949 -0.070144415 0.70406425
-0.0019038451 -0.072346121 0.70503598
-0.0019119561 -0.074566305 0.70601511
0 0.067930579 0.7029978
0 0.054057628 0.6616596
0 0.049789488 0.65198994
0 0.048483461 0.65256917
0 0.047168821 0.65315223
0 0.045845419 0.65373856
0 0.044513315 0.65432936
0 0.043172419 0.65492409
0 0.041822463 0.65552217
0 0.040463597 0.65612483
0 0.03909561 0.65673161
0 0.037718326 0.65734178
0 0.036331832 0.65795672
0 0.034935981 0.65857577
0 0.033530533 0.65919846
0 0.032115608 0.65982598
0 0.030690938 0.66045785
0 0.029256463 0.66109347
0 0.027812153 0.66173398
0 0.026357859 0.66237897
0 0.024893433 0.66302782
0 0.023418814 0.66368186
0 0.021933973 0.66434038
0 0.020438582 0.66500294
0 0.01893279 0.66567075
0 0.017416358 0.66634333
0 0.015889108 0.66701996
0 0.01435107 0.66770208
0 0.012802064 0.66838908
0 0.011241853 0.66908038
0 0.0096705258 0.66977721
0 0.0080878139 0.67047918
0 0.0064936876 0.67118549
0 0.0048879385 0.67189771
0 0.0032705367 0.67261499
0 0.0016412437 0.67333692
0 -2.9802322e-08 0.67406476
0 -0.0016533732 0.67479807
0 -0.0033189356 0.67553604
0 -0.0049968362 0.6762802
0 -0.0066873431 0.67702997
0 -0.0083904266 0.67778456
0 -0.010106355 0.67854559
0 -0.011835217 0.67931229
0 -0.013577104 0.68008411
0 -0.015332252 0.68086255
0 -0.017100811 0.68164682
0 -0.018882841 0.68243641
0 -0.020678639 0.6832329
0 -0.022488326 0.68403548
0 -0.02431187 0.68484348
0 -0.02614975 0.68565857
0 -0.028001964 0.68647999
0 -0.029868662 0.68730783
0 -0.031749964 0.68814141
0 -0.033646196 0.68898237
0 -0.035557479 0.68983006
0 -0.037483871 0.69068366
0 -0.03942579 0.69154489
0 -0.041383266 0.69241297
0 -0.043356359 0.69328725
0 -0.045345575 0.69416946
0 -0.047351003 0.69505882
0 -0.049372554 0.69595462
0 -0.051410794 0.69685853
0 -0.053465903 0.69776994
0 -0.055537701 0.69868797
0 -0.057626903 0.69961447
0 -0.05973348 0.70054877
0 -0.061857492 0.70148993
0 -0.063999474 0.7024399
0 -0.066159606 0.70339781
0 -0.068337709 0.70436299
0 -0.070534617 0.70533729
0 -0.07275027 0.70631987
0 -0.07498467 0.70731002
0.0019703999 0.070934415 0.71306986
0.0015999598 0.055998564 0.6683538
0.0014706816 0.050003171 0.65274858
0.0014755216 0.048692226 0.65333277
0.0014803936 0.04737258 0.65392089
0.0014852933 0.046044111 0.65451229
0.00149023 0.044706911 0.65510821
0.0014951999 0.0433608 0.65570819
0.0015001982 0.042005539 0.65631151
0.0015052346 0.040641308 0.65691948
0.0015103051 0.039267898 0.65753156
0.0015154051 0.037885129 0.65814716
0.0015205445 0.036493093 0.65876752
0.0015257188 0.035091549 0.65939212
0.0015309236 0.03368032 0.66002041
0.001536169 0.032259554 0.66065359
0.0015414505 0.030829012 0.66129106
0.0015467632 0.029388487 0.66193247
0.001552118 0.027938128 0.66257876
0.0015575096 0.026477665 0.66322958
0.0015629391 0.025007039 0.663885
0.0015684015 0.023526013 0.66454434
0.0015739072 0.022034675 0.66520894
0.0015794465 0.020532817 0.66587764
0.0015850302 0.019020349 0.66655171
0.0015906536 0.017497182 0.66723043
0.001596317 0.015963167 0.66791409
0.0016020155 0.014418155 0.66860193
0.0016077602 0.012862086 0.66929543
0.0016135464 0.011294842 0.66999382
0.0016193687 0.0097162127 0.67069662
0.0016252388 0.0081261694 0.67140526
0.0016311517 0.0065246224 0.67211902
0.001637102 0.0049113035 0.67283726
0.0016431016 0.0032862425 0.67356145
0.0016491453 0.0016491413 0.67429101
0.001655228 -0 0.67502522
0.0016613613 -0.0016613603 0.67576563
0.0016675404 -0.0033350885 0.67651153
0.0016737597 -0.0050212741 0.67726219
0.0016800315 -0.0067201257 0.67801929
0.0016863504 -0.0084317327 0.67878211
0.0016927111 -0.010156274 0.67954987
0.001699126 -0.011893928 0.68032426
0.0017055898 -0.013644725 0.68110448
0.0017120966 -0.015408874 0.68188989
0.0017186597 -0.017186612 0.68268216
0.0017252732 -0.01897797 0.6834805
0.0017319315 -0.020783186 0.68428421
0.0017386477 -0.022602409 0.68509489
0.0017454161 -0.024435818 0.68591195
0.001752231 -0.026283473 0.68673456
0.0017591059 -0.028145701 0.68756449
0.0017660351 -0.030022621 0.68840086
0.0017730122 -0.031914204 0.68924308
0.0017800515 -0.033820987 0.6900928
0.0017871469 -0.035742909 0.69094926
0.0017942922 -0.037680149 0.6918118
0.0018015018 -0.039633036 0.69268209
0.0018087697 -0.041601717 0.69355941
0.0018160962 -0.043586314 0.69444382
0.0018234755 -0.045586914 0.69533455
0.001830922 -0.047603965 0.69623339
0.0018384296 -0.049637586 0.69713968
0.0018459918 -0.051687777 0.69805247
0.0018536237 -0.053755075 0.69897372
0.0018613191 -0.055839539 0.69990265
0.0018690712 -0.057941198 0.70083845
0.0018768955 -0.06006062 0.70178288
0.0018847856 -0.062197953 0.7027353
0.0018927348 -0.064352989 0.70369488
0.0019007588 -0.066526562 0.70466346
0.0019088516 -0.068718642 0.70564032
0.0019170054 -0.070929229 0.70662463
0.0019252371 -0.073159039 0.70761824
0.0041231196 0.074216157 0.72407383
0.0033190821 0.058083981 0.67554587
0.0029540502 0.05021885 0.65351427
0.0029638049 0.04890281 0.65410304
0.0029736334 0.047578126 0.65469623
0.0029835275 0.046244681 0.65529341
0.0029934777 0.044902176 0.65589392
0.0030035046 0.043550819 0.65649909
0.0030135987 0.042190373 0.65710831
0.0030237511 0.040820658 0.65772116
0.0030339821 0.039441794 0.65833855
0.0030442823 0.038053542 0.65896022
0.003054643 0.036655694 0.6595856
0.0030650843 0.035248458 0.6602158
0.0030755973 0.033831537 0.66085029
0.0030861725 0.03240484 0.66148853
0.003096831 0.030968279 0.66213191
0.0031075631 0.029521853 0.66277957
0.0031183597 0.028065234 0.66343123
0.003129242 0.026598543 0.66408807
0.0031402004 0.025121599 0.66474938
0.0031512254 0.023634225 0.66541487
0.0031623386 0.02213639 0.6660856
0.0031735306 0.020627946 0.66676104
0.0031847912 0.019108772 0.66744071
0.0031961428 0.017578781 0.66812587
0.0032075758 0.016037881 0.66881591
0.0032190799 0.014485866 0.66951019
0.0032306779 0.012922704 0.67021024
0.0032423595 0.011348307 0.67091525
0.0032541147 0.0097623467 0.67162478
0.0032659669 0.0081649125 0.6723401
0.0032779058 0.0065558255 0.67306066
0.0032899207 0.0049348474 0.67378581
0.0033020359 0.0033020675 0.67451704
0.0033142401 0.0016570985 0.67525369
0.0033265236 2.9802322e-08 0.67599499
0.0033389099 -0.0016694665 0.67674261
0.0033513892 -0.0033513904 0.67749578
0.0033639497 -0.0050459504 0.67825389
0.0033766169 -0.0067532361 0.67901844
0.0033893802 -0.0084734559 0.67978871
0.0034022403 -0.010206729 0.68056488
0.0034151855 -0.011953145 0.68134624
0.0034282426 -0.013712972 0.68213427
0.0034413997 -0.0154863 0.68292838
0.0034546454 -0.017273217 0.68372786
0.0034680064 -0.019074053 0.68453431
0.003481471 -0.020888805 0.6853469
0.0034950278 -0.022717655 0.68616515
0.0035087036 -0.024560899 0.68699056
0.0035224867 -0.026418626 0.6878224
0.0035363655 -0.028290927 0.68866014
0.003550367 -0.03017813 0.68950522
0.0035644802 -0.032080323 0.69035697
0.0035786924 -0.033997566 0.6912148
0.0035930322 -0.035930306 0.69208026
0.0036074873 -0.037878603 0.69295263
0.0036220453 -0.039842486 0.69383132
0.0036367348 -0.041822433 0.69471794
0.0036515445 -0.043818504 0.69561172
0.003666461 -0.045830756 0.6965121
0.0036815139 -0.047859699 0.6974206
0.0036966912 -0.04990536 0.6983366
0.0037119796 -0.05196771 0.6992594
0.0037274093 -0.054047436 0.70019066
0.0037429682 -0.056144536 0.70112967
0.0037586577 -0.058259189 0.70207667
0.0037744639 -0.060391426 0.70303065
0.0037904189 -0.062541902 0.70399356
0.0038065091 -0.064710677 0.70496476
0.0038227213 -0.066897631 0.70594323
0.0038390879 -0.069103599 0.70693099
0.0038555949 -0.071328521 0.70792735
0.0038722288 -0.073572338 0.70893121
0.0064846911 0.077816278 0.73614538
0.0051712128 0.060330808 0.68329513
0.0044502565 0.050436229 0.65428603
0.00446503 0.04911533 0.65488046
0.004479887 0.047785461 0.65547836
0.004494858 0.046446919 0.65608066
0.0045099291 0.045099288 0.65668714
0.0045250873 0.043742508 0.65729702
0.0045403624 0.042376697 0.65791166
0.0045557404 0.041001707 0.65853041
0.0045712087 0.039617121 0.65915287
0.0045867972 0.038223296 0.65978003
0.0046024923 0.036819935 0.66041154
0.0046182801 0.035406798 0.66104686
0.0046341917 0.033984065 0.66168708
0.0046502138 0.032551467 0.6623317
0.0046663312 0.031108856 0.66298026
0.0046825763 0.029656321 0.66363388
0.004698935 0.028193593 0.66429216
0.0047153924 0.026720554 0.6649543
0.0047319815 0.025237262 0.66562176
0.0047486881 0.023743451 0.66629404
0.0047654961 0.02223897 0.66697037
0.0047824406 0.020723909 0.66765213
0.0047995057 0.01919803 0.66833878
0.0048166765 0.017661154 0.66902965
0.0048339874 0.016113311 0.66972613
0.0048514232 0.014554262 0.6704278
0.0048689679 0.012983948 0.6711337
0.004886657 0.01140219 0.67184544
0.0049044755 0.0098089576 0.67256242
0.0049224072 0.0082040429 0.67328393
0.0049404874 0.0065873265 0.67401147
0.0049587013 0.0049586892 0.67474431
0.0049770325 0.0033180416 0.67548192
0.0049955174 0.0016651452 0.67622566
0.0050141397 -0 0.67697501
0.005032884 -0.0016775727 0.67772913
0.0050517865 -0.003367871 0.6784898
0.0050708316 -0.0050708354 0.67925608
0.0050900029 -0.0067866445 0.68002748
0.0051093376 -0.0085155666 0.68080544
0.00512882 -0.010257661 0.68158937
0.0051484331 -0.012012988 0.68237853
0.0051682154 -0.013781935 0.68317455
0.0051881503 -0.015564471 0.68397665
0.0052082208 -0.017360717 0.68478417
0.0052284659 -0.019171059 0.68559879
0.0052488693 -0.020995468 0.68641973
0.0052694324 -0.022834212 0.68724716
0.0052901381 -0.02468729 0.68808031
0.0053110262 -0.026555121 0.6889208
0.0053320802 -0.028437763 0.68976796
0.0053532822 -0.030335248 0.69062102
0.0053746728 -0.03224805 0.69148171
0.0053962362 -0.034176171 0.69234937
0.0054179514 -0.036119699 0.69322312
0.0054398635 -0.038079053 0.69410485
0.0054619536 -0.040054321 0.69499362
0.0054842029 -0.042045563 0.69588888
0.0055066557 -0.044053257 0.69679224
0.0055292924 -0.04607746 0.69770318
0.0055520944 -0.048118144 0.69862056
0.0055751079 -0.050175995 0.69954658
0.0055983118 -0.052250922 0.70048028
0.005621688 -0.054342985 0.70142084
0.005645283 -0.056452811 0.70237023
0.0056690769 -0.058580458 0.7033276
0.0056930482 -0.060725838 0.70429218
0.0057172473 -0.062889695 0.70526582
0.005741653 -0.06507203 0.70624781
0.0057662437 -0.067272842 0.7072373
0.0057910704 -0.069492847 0.70823628
0.0058161118 -0.071732044 0.70924383
0.0058413702 -0.073990643 0.71026015
0.0071723759 0.062758297 0.6916672
0.0059594731 0.050655514 0.65506458
0.0059793429 0.049329579 0.65566421
0.0059993449 0.047994763 0.65626782
0.0060194624 0.046650857 0.6568749
0.006039734 0.04529798 0.65748668
0.0060601435 0.043936044 0.65810257
0.0060806712 0.04256469 0.6587221
0.0061013587 0.041184157 0.65934634
0.0061221872 0.039794177 0.65997493
0.0061431378 0.0383946 0.66060722
0.0061642537 0.036985517 0.66124433
0.0061855139 0.035566717 0.66188598
0.0062069017 0.034137994 0.66253138
0.0062284581 0.032699406 0.6631819
0.0062501649 0.031250834 0.66383696
0.0062720031 0.029792011 0.664496
0.0062940149 0.028323025 0.6651603
0.0063161813 0.026843786 0.66582918
0.0063384841 0.025353938 0.66650224
0.0063609658 0.02385363 0.66718066
0.0063836076 0.022342622 0.66786397
0.0064063896 0.020820767 0.6685515
0.0064293565 0.019288093 0.66924453
0.0064524887 0.017744333 0.66994268
0.0064757657 0.016189426 0.67064512
0.0064992341 0.014623314 0.67135328
0.0065228725 0.013045758 0.67206663
0.0065466613 0.011456668 0.67278457
0.0065706465 0.0098559558 0.67350841
0.0065948092 0.0082435012 0.67423755
0.0066191265 0.0066191256 0.6749714
0.0066436464 0.0049827099 0.67571133
0.0066683497 0.0033341944 0.67645681
0.0066932137 0.001673311 0.67720711
0.0067182872 2.9802322e-08 0.67796385
0.0067435489 -0.0016858876 0.67872614
0.0067689777 -0.0033845007 0.67949355
0.0067946231 -0.0050959885 0.68026745
0.0068204636 -0.0068204701 0.68104726
0.0068464773 -0.0085580945 0.68183231
0.006872714 -0.01030907 0.68262404
0.0068991529 -0.012073517 0.68342191
0.0069257715 -0.013851523 0.6842252
0.0069526206 -0.015643388 0.68503547
0.0069796797 -0.0174492 0.68585205
0.0070069237 -0.019269049 0.68667424
0.0070344075 -0.021103203 0.68750358
0.0070621078 -0.022951871 0.68833953
0.0070900009 -0.024814993 0.68918127
0.0071181417 -0.026693046 0.69003052
0.0071465066 -0.02858603 0.69088644
0.0071750986 -0.030494183 0.69174933
0.0072038928 -0.032417536 0.69261825
0.0072329468 -0.034356505 0.69349509
0.0072622364 -0.036311179 0.69437891
0.0072917351 -0.038281649 0.69526917
0.0073215035 -0.040268302 0.69616753
0.0073515163 -0.042271197 0.69707322
0.007381747 -0.044290483 0.69798553
0.0074122562 -0.046326578 0.69890618
0.0074430187 -0.0483796 0.69983453
0.0074740085 -0.05044958 0.70076972
0.0075052865 -0.052536994 0.70171356
0.0075368281 -0.054642022 0.70266545
0.0075686048 -0.056764573 0.70362443
0.0076006814 -0.058905244 0.70459241
0.0076330318 -0.061064243 0.70556867
0.0076656272 -0.063241422 0.70655233
0.0076985331 -0.065437526 0.7075454
0.0077317231 -0.067652553 0.708547
0.0077651693 -0.069886506 0.70955622
0.0077989371 -0.072140157 0.71057534
0.0078330003 -0.074413508 0.71160328
0.0093413647 0.065389544 0.70074213
0.0076598539 0.052087039 0.66014677
0.0075069247 0.049545676 0.65645474
0.0075321472 0.048205733 0.65706372
0.0075575407 0.046856731 0.6576767
0.0075830808 0.04549849 0.65829331
0.0076088188 0.04413116 0.65891469
0.0076347319 0.042754531 0.6595403
0.0076607973 0.041368276 0.6601696
0.0076870667 0.039972752 0.66080379
0.0077135172 0.038567603 0.66144234
0.0077401246 0.037152588 0.66208464
0.0077669416 0.035727948 0.66273212
0.0077939448 0.034293354 0.66338402
0.007821111 0.032848686 0.66403985
0.0078484938 0.031393975 0.66470098
0.0078760684 0.029929042 0.66536665
0.0079038106 0.028453708 0.66603649
0.0079317754 0.026968032 0.66671157
0.0079599395 0.025471807 0.66739154
0.0079882769 0.023964822 0.66807568
0.0080168443 0.022447199 0.66876531
0.0080456166 0.020918638 0.66945994
0.0080745695 0.01937893 0.67015892
0.0081037581 0.017828286 0.67086363
0.008133159 0.016266346 0.6715734
0.0081627453 0.014692932 0.6722877
0.0081925765 0.013108104 0.67300791
0.0082226265 0.011511683 0.67373335
0.0082528694 0.0099034607 0.67446345
0.0082833637 0.0082833469 0.67519969
0.0083140852 0.0066512525 0.67594135
0.0083450042 0.0050069988 0.67668778
0.0083761858 0.0033504963 0.67744052
0.0084076002 0.0016815066 0.67819899
0.0084392214 -0 0.67896235
0.0084711108 -0.0016942322 0.67973232
0.0085032433 -0.0034013093 0.68050802
0.0085355891 -0.0051213503 0.6812889
0.0085682133 -0.0068545341 0.68207651
0.0086010871 -0.0086010993 0.68287021
0.0086341836 -0.010361016 0.68366921
0.0086675668 -0.012134582 0.68447512
0.0087012099 -0.013921916 0.68528736
0.0087350821 -0.015723139 0.68610513
0.0087692514 -0.017538488 0.68693
0.0088036899 -0.019368082 0.68776143
0.0088383667 -0.021212071 0.68859863
0.0088733509 -0.023070693 0.68944323
0.0089086136 -0.024944127 0.6902945
0.008944124 -0.026832402 0.6911518
0.008979951 -0.028735846 0.69201684
0.0090160677 -0.030654579 0.69288868
0.0090524415 -0.03258878 0.69376683
0.0090891439 -0.034538746 0.69465292
0.0091261463 -0.036504567 0.69554621
0.0091634151 -0.038486332 0.69644594
0.0092010256 -0.040484548 0.69735396
0.0092389453 -0.042499095 0.69826943
0.0092771798 -0.044530451 0.69919252
0.0093156947 -0.046578467 0.70012236
0.0093545681 -0.048643768 0.70106083
0.0093937675 -0.050726324 0.70200717
0.0094332583 -0.052826226 0.70296055
0.0094731217 -0.054944128 0.70392293
0.0095133232 -0.057079941 0.70489347
0.0095538283 -0.059233755 0.7058714
0.009594718 -0.061406195 0.70685858
0.0096359607 -0.063597351 0.70785427
0.0096775191 -0.065807134 0.70885754
0.009719478 -0.068036348 0.70987058
0.0097618019 -0.070284992 0.71089232
0.0098044546 -0.072552979 0.71192205
0.0098475236 -0.074841201 0.71296179
0.01170024 0.068251371 0.71061224
0.0095190573 0.053941339 0.66673023
0.0090479515 0.049763739 0.65725231
0.0090784859 0.048418611 0.6578666
0.009109227 0.047064364 0.65848505
0.0091401478 0.045700759 0.65910715
0.0091713099 0.044328004 0.65973407
0.0092026843 0.042945892 0.66036528
0.009234244 0.041554093 0.66100025
0.0092660515 0.040152907 0.66164011
0.0092980787 0.038742006 0.66228443
0.0093302978 0.03732121 0.66293269
0.0093627712 0.035890639 0.66358602
0.0093954718 0.034450084 0.66424388
0.0094283698 0.032999307 0.66490573
0.0094615314 0.031538427 0.66557288
0.0094949268 0.030067295 0.66624475
0.0095285261 0.028585613 0.66692066
0.0095623974 0.02709347 0.66760212
0.0095965099 0.025590688 0.66828847
0.0096308663 0.024077147 0.66897964
0.009665437 0.022552699 0.66967511
0.009700289 0.021017283 0.6703763
0.0097353952 0.019470781 0.67108262
0.0097707212 0.017913014 0.67179328
0.0098063387 0.016343892 0.67250991
0.009842217 0.014763355 0.67323166
0.0098783243 0.013171077 0.67395812
0.0099147325 0.011567175 0.6746906
0.0099514099 0.0099514127 0.67542845
0.0099883238 0.0083236098 0.67617112
0.01002555 0.0066836774 0.67692006
0.010063053 0.0050315261 0.67767453
0.010100801 0.0033669472 0.67843401
0.01013887 0.0016898513 0.67919993
0.010177229 -0 0.67997158
0.01021584 -0.0017026067 0.6807484
0.010254784 -0.003418237 0.68153191
0.010294025 -0.0051469803 0.68232137
0.010333531 -0.0068889856 0.68311614
0.010373377 -0.0086444914 0.68391782
0.010413534 -0.010413527 0.6847257
0.010453963 -0.012196302 0.68553907
0.010494747 -0.013992995 0.68635958
0.01053585 -0.015803754 0.68718648
0.010577236 -0.017628729 0.68801916
0.010618989 -0.019468129 0.68885911
0.010661073 -0.021322131 0.68970579
0.010703452 -0.023190796 0.69055837
0.010746209 -0.025074512 0.69141865
0.01078931 -0.026973248 0.69228572
0.010832716 -0.028887212 0.69315898
0.010876514 -0.030816823 0.69404018
0.010920669 -0.032761991 0.69492841
0.010965141 -0.034722924 0.69582313
0.011010018 -0.0367001 0.69672602
0.011055265 -0.038693428 0.69763631
0.011100843 -0.040703088 0.6985532
0.01114684 -0.042729557 0.69947863
0.011193221 -0.044772893 0.7004118
0.01123999 -0.046833307 0.70135272
0.011287104 -0.048910797 0.70230061
0.011334662 -0.051005989 0.70325744
0.011382624 -0.053118914 0.70422232
0.011430946 -0.055249542 0.70519441
0.011479726 -0.057398617 0.7061758
0.011528925 -0.05956611 0.7071656
0.011578499 -0.061751962 0.70816296
0.011628549 -0.063957006 0.70916992
0.011679035 -0.066181242 0.71018565
0.011729913 -0.068424523 0.71120918
0.011781283 -0.070687711 0.71224272
0.011833106 -0.072970808 0.71328527
0.014274982 0.071374893 0.72138482
0.011515564 0.05593273 0.67380041
0.010602633 0.049983859 0.65805745
0.01063854 0.048633337 0.65867662
0.010674724 0.047273785 0.65930063
0.010711157 0.045904934 0.65992886
0.010747802 0.044526637 0.66056085
0.010784735 0.043138981 0.66119766
0.010821924 0.041741699 0.66183895
0.010859332 0.040334672 0.66248405
0.010897038 0.038917989 0.66313422
0.010935005 0.037491441 0.66378897
0.010973201 0.03605479 0.66444767
0.011011703 0.034608215 0.6651116
0.011050475 0.033151448 0.66578019
0.011089483 0.03168425 0.66645283
0.011128807 0.03020674 0.66713095
0.011168409 0.02871877 0.6678139
0.011208258 0.02722007 0.66850102
0.011248427 0.025710702 0.66919374
0.011288888 0.024190485 0.66989148
0.011329602 0.022659212 0.67059356
0.01137065 0.021116942 0.67130136
0.011411995 0.019563407 0.67201436
0.011453602 0.017998487 0.67273188
0.011495555 0.016422212 0.6734553
0.011537816 0.014834344 0.67418408
0.011580349 0.013234705 0.67491752
0.011623235 0.011623263 0.67565709
0.011666443 0.0099998116 0.67640221
0.01170993 0.00836429 0.6771521
0.011753785 0.00671646 0.6779083
0.011797969 0.005056262 0.67867029
0.011842445 0.0033835471 0.67943722
0.0118873 0.0016981959 0.68021071
0.011932496 -0 0.6809901
0.011977994 -0.0017111599 0.68177468
0.012023884 -0.0034354031 0.68256605
0.012070126 -0.0051729083 0.68336344
0.012116681 -0.0069238245 0.68416625
0.012163642 -0.0086883008 0.68497604
0.012210968 -0.010466546 0.68579221
0.012258663 -0.012258649 0.68661463
0.012306687 -0.014064789 0.68744278
0.012355135 -0.015885174 0.68827826
0.012403966 -0.017719954 0.68912029
0.012453137 -0.019569218 0.68996823
0.012502747 -0.021433264 0.69082373
0.012552753 -0.023312241 0.69168603
0.012603114 -0.025206238 0.69255447
0.012653929 -0.027115554 0.69343078
0.012705154 -0.029040337 0.69431412
0.012756748 -0.030980676 0.69520378
0.012808811 -0.03293696 0.69610167
0.012861302 -0.034909248 0.69700682
0.012914173 -0.036897629 0.69791853
0.012967533 -0.038902611 0.69883871
0.013021335 -0.040924162 0.6997664
0.013075533 -0.042962492 0.70070106
0.013130237 -0.045017958 0.70164442
0.013185401 -0.047090709 0.70259565
0.013240976 -0.049180776 0.70355409
0.013297076 -0.051288724 0.70452148
0.013353654 -0.053414613 0.70549709
0.01341066 -0.055558413 0.70648015
0.013468211 -0.05772087 0.70747256
0.013526256 -0.059901983 0.70847344
0.013584805 -0.06210196 0.70948315
0.013643805 -0.064320803 0.7105006
0.013703378 -0.066559255 0.71152782
0.013763473 -0.068817347 0.71256423
0.013824041 -0.071095049 0.71360862
0.013885201 -0.073393196 0.71466333
0.017096691 0.074797988 0.73319066
0.013665137 0.058076859 0.68141258
0.012171092 0.050205737 0.65886915
0.012212534 0.048850119 0.65949446
0.012254217 0.047485113 0.66012341
0.012296227 0.046110839 0.6607573
0.012338526 0.044727147 0.66139555
0.012381076 0.043333739 0.66203755
0.012423961 0.041930884 0.66268468
0.012467145 0.040518224 0.66333622
0.012510589 0.03909561 0.66399175
0.012554378 0.037663102 0.66465247
0.012598475 0.03622064 0.66531789
0.01264284 0.034767807 0.66598731
0.012687561 0.03330487 0.6666621
0.0127326 0.031831503 0.66734165
0.012777918 0.030347526 0.66802549
0.012823601 0.028853089 0.66871476
0.012869613 0.027347922 0.66940904
0.012915912 0.025831819 0.67010766
0.012962589 0.024304837 0.67081195
0.013009607 0.022766829 0.67152137
0.013056919 0.021217525 0.67223525
0.013104624 0.019656926 0.6729551
0.013152678 0.018084943 0.67368013
0.01320104 0.016501278 0.67440987
0.013249805 0.014906019 0.67514575
0.013298932 0.013298959 0.67588699
0.013348377 0.011679828 0.676633
0.013398239 0.010048658 0.67738539
0.013448475 0.008405298 0.67814338
0.013499042 0.0067495108 0.67890638
0.013550038 0.0050812662 0.67967582
0.01360142 0.0034003258 0.68045115
0.013653145 0.0017066002 0.68123162
0.013705314 2.9802322e-08 0.68201882
0.013757884 -0.001719743 0.68281204
0.013810808 -0.0034527183 0.68361056
0.013864191 -0.0051990449 0.68441606
0.013917988 -0.0069589913 0.68522781
0.013972155 -0.0087325871 0.68604517
0.014026795 -0.010520071 0.68686956
0.014081865 -0.012321621 0.68770045
0.014137315 -0.014137328 0.68853718
0.014193257 -0.015967429 0.6893813
0.014249644 -0.017812073 0.69023216
0.014306428 -0.019671351 0.6910888
0.014363718 -0.021545589 0.69195336
0.014421471 -0.023434907 0.69282478
0.014479689 -0.025339484 0.69370323
0.014538324 -0.02725938 0.69458795
0.014597492 -0.029194951 0.6954807
0.014657144 -0.031146437 0.69638079
0.014717227 -0.033113778 0.69728738
0.014777863 -0.03509742 0.69820237
0.014839002 -0.037097514 0.69912481
0.014900587 -0.039114058 0.70005411
0.014962748 -0.04114756 0.70099199
0.015025428 -0.043198109 0.70193779
0.015088576 -0.045265734 0.70289063
0.015152317 -0.047350973 0.70385236
0.015216599 -0.049453974 0.70482236
0.015281366 -0.051574618 0.70579958
0.015346751 -0.05371362 0.70678616
0.015412698 -0.05587101 0.7077812
0.015479148 -0.058046818 0.70878386
0.01554624 -0.060241699 0.70979619
0.015613915 -0.062455654 0.71081734
0.015682118 -0.064688742 0.71184641
0.015750984 -0.066941679 0.71288556
0.015820457 -0.069214493 0.71393383
0.015890479 -0.071507186 0.71499038
0.015961193 -0.073820531 0.71605736
0.01598602 0.060391635 0.68963087
0.01375354 0.050429642 0.65968812
0.013800577 0.049068749 0.66031897
0.013847939 0.047698438 0.66095424
0.013895581 0.04631865 0.6615932
0.013943598 0.044929355 0.66223729
0.013991947 0.043530494 0.66288573
0.014040587 0.042121768 0.6635381
0.014089612 0.040703356 0.6641956
0.014138982 0.039274931 0.66485775
0.014188652 0.037836432 0.66552401
0.014238719 0.036387861 0.66619551
0.01428914 0.034929037 0.66687179
0.014339872 0.033459663 0.66755223
0.014391013 0.031980038 0.66823816
0.014442522 0.030489773 0.66892898
0.01449435 0.028988719 0.66962409
0.014546603 0.027476937 0.67032492
0.014599232 0.025954187 0.67103082
0.014652194 0.024420351 0.67174113
0.014705593 0.022875339 0.67245734
0.014759381 0.021319121 0.67317873
0.014813513 0.01975134 0.67390484
0.014868096 0.018172115 0.6746369
0.014923081 0.016581208 0.67537439
0.014978424 0.014978409 0.67611665
0.01503423 0.013363749 0.67686516
0.015090454 0.011737019 0.67761922
0.015147047 0.01009804 0.67837828
0.01520412 0.0084467232 0.67914379
0.015261624 0.006782949 0.67991501
0.01531951 0.0051064789 0.68069136
0.015377893 0.0034173429 0.68147445
0.015436723 0.0017151535 0.68226349
0.015495948 -0 0.68305784
0.015555684 -0.0017284155 0.68385905
0.015615884 -0.0034702122 0.68466645
0.015676495 -0.0052254796 0.6854794
0.015737634 -0.0069944859 0.68629944
0.015799254 -0.00877738 0.68712586
0.015861299 -0.010574162 0.68795794
0.015923891 -0.012385249 0.68879753
0.015986981 -0.014210671 0.68964374
0.016050512 -0.016050518 0.69049585
0.016114611 -0.017905116 0.69135553
0.016179224 -0.019774586 0.69222212
0.016244294 -0.021659046 0.69309491
0.016309954 -0.023558825 0.69397557
0.016376145 -0.025473982 0.69486332
0.016442813 -0.027404666 0.69575745
0.01651009 -0.029351264 0.6966598
0.01657792 -0.031313837 0.69756961
0.016646244 -0.033292472 0.69848597
0.016715199 -0.035287648 0.6994108
0.016784729 -0.037299365 0.70034337
0.016854838 -0.039327979 0.70128369
0.016925469 -0.041373372 0.70223093
0.016996764 -0.04343617 0.70318717
0.017068658 -0.045516431 0.70415151
0.017141096 -0.047614157 0.70512307
0.017214222 -0.049729973 0.70610386
0.017287973 -0.051863909 0.707093
0.017362289 -0.054016024 0.70808983
0.017437318 -0.056186914 0.70909607
0.017512998 -0.05837667 0.71011114
0.017589265 -0.060585231 0.71113402
0.017666271 -0.062813401 0.71216691
0.017743958 -0.065061182 0.71320879
0.017822254 -0.067328513 0.71425897
0.01790132 -0.069616199 0.7153194
0.01798109 -0.071924359 0.7163893
0.018061498 -0.074252814 0.71746778
0.018499665 0.062898844 0.69853228
0.015350212 0.050655723 0.66051501
0.015402898 0.049289256 0.66115099
0.015455997 0.047913581 0.66179192
0.015509462 0.046528399 0.66243738
0.015563248 0.045133442 0.66308653
0.01561746 0.043728888 0.66374099
0.01567205 0.042314529 0.66439998
0.015726972 0.040890127 0.6650629
0.015782332 0.039455801 0.66573119
0.015838085 0.038011432 0.66640413
0.015894178 0.036556602 0.66708124
0.015950723 0.035091579 0.66776383
0.016007673 0.033616126 0.66845131
0.016064977 0.032129973 0.66914296
0.016122747 0.030633241 0.66984034
0.016180934 0.02912569 0.67054272
0.016239487 0.027607113 0.67124951
0.016298519 0.026077628 0.67196214
0.016357986 0.024536967 0.6726799
0.016417829 0.022984952 0.67340231
0.01647817 0.021421641 0.67413068
0.016538955 0.019846767 0.67486441
0.016600132 0.018260121 0.67560291
0.016661823 0.016661853 0.67634755
0.016723974 0.015051574 0.6770978
0.016786529 0.013429254 0.67785287
0.016849617 0.011794746 0.67861444
0.016913177 0.010147899 0.67938167
0.016977159 0.0084885657 0.68015403
0.017041689 0.0068166554 0.680933
0.017106712 0.0051319897 0.68171787
0.017172171 0.0034344196 0.68250799
0.017238194 0.0017238259 0.68330497
0.017304728 -2.9802322e-08 0.68410814
0.017371712 -0.0017371774 0.68491673
0.017439282 -0.003487885 0.68573231
0.01750738 -0.0052521825 0.68655431
0.017575948 -0.0070303679 0.68738198
0.017645119 -0.0088225603 0.68821698
0.017714836 -0.010628879 0.68905854
0.017785039 -0.012449533 0.689906
0.01785587 -0.0142847 0.69076097
0.017927267 -0.01613456 0.69162279
0.017999168 -0.017999142 0.6924907
0.018071719 -0.019878894 0.69336647
0.018144855 -0.021773845 0.69424933
0.018218515 -0.023684084 0.69513845
0.018292848 -0.02561 0.69603574
0.01836779 -0.027551681 0.69694042
0.018443275 -0.029509217 0.69785166
0.018519457 -0.031483084 0.69877118
0.018596271 -0.033473283 0.69969839
0.018673649 -0.035479933 0.70063245
0.018751752 -0.037503541 0.70157522
0.018830506 -0.039544076 0.70252591
0.018909853 -0.041601717 0.7034837
0.018989945 -0.043676913 0.70445049
0.01907072 -0.045769751 0.7054255
0.019152185 -0.047880471 0.70640892
0.01923427 -0.050009102 0.70739979
0.019317141 -0.05215624 0.70840007
0.019400729 -0.054322034 0.70940906
0.019484961 -0.056506395 0.71042591
0.019570014 -0.058710009 0.71145254
0.019655809 -0.060933024 0.71248817
0.019742277 -0.063175291 0.71353197
0.019829594 -0.065437645 0.7145859
0.019917686 -0.067720085 0.71564925
0.020006478 -0.070022643 0.71672112
0.020096151 -0.072346121 0.7178036
0.020186633 -0.074690521 0.71889579
0.021230975 0.065623015 0.70820391
0.017306177 0.051918566 0.66513431
0.017019687 0.04951182 0.66199046
0.017078625 0.048130661 0.66263723
0.017137973 0.046739936 0.66328847
0.017197678 0.045339376 0.66394371
0.017257856 0.0439291 0.66460407
0.017318459 0.04250896 0.66526908
0.017379431 0.041078627 0.6659382
0.017440891 0.0396384 0.66661257
0.017502787 0.038187921 0.66729188
0.017565064 0.036726952 0.66797531
0.017627846 0.0352557 0.66866422
0.017691081 0.033773899 0.66935813
0.017754707 0.03228128 0.6700564
0.017818857 0.030778021 0.67076033
0.01788347 0.029263884 0.67146933
0.017948491 0.027738571 0.67218292
0.018014049 0.026202291 0.67290235
0.018080089 0.024654657 0.67362702
0.01814655 0.023095608 0.67435634
0.018213566 0.021525145 0.67509174
0.01828108 0.019942969 0.67583263
0.018349096 0.018349111 0.676579
0.018417554 0.016743213 0.67733026
0.018486589 0.015125364 0.67808789
0.018556146 0.013495386 0.67885113
0.018626161 0.011853039 0.67961943
0.018696772 0.010198236 0.68039429
0.018767923 0.008530885 0.68117511
0.018839547 0.0068507493 0.68196112
0.01891179 0.0051577687 0.6827538
0.01898459 0.0034517646 0.68355274
0.019057881 0.001732558 0.68435699
0.019131811 2.9802322e-08 0.68516827
0.019206317 -0.0017460287 0.68598592
0.019281333 -0.0035057366 0.68680912
0.019357011 -0.0052791834 0.68763959
0.019433284 -0.0070666671 0.68847662
0.019510088 -0.0088682175 0.68931937
0.019587576 -0.010684103 0.69016969
0.019665681 -0.012514502 0.69102681
0.019744337 -0.014359504 0.69188994
0.0198237 -0.016219378 0.69276088
0.019903703 -0.018094301 0.6936388
0.019984279 -0.019984275 0.69452304
0.020065585 -0.021889716 0.69541532
0.020147558 -0.023810744 0.69631481
0.020230124 -0.025747418 0.6972208
0.020313447 -0.027700126 0.6981352
0.020397462 -0.029669046 0.6990571
0.020482093 -0.031654119 0.69998586
0.02056751 -0.033655912 0.7009232
0.020653643 -0.035674483 0.70186841
0.020740418 -0.037709832 0.70282066
0.020828007 -0.039762586 0.7037819
0.020916341 -0.041832656 0.70475113
0.021005342 -0.043920249 0.70572782
0.021095188 -0.046025842 0.7067138
0.021185808 -0.048149586 0.70770824
0.02127712 -0.050291389 0.70871025
0.021369314 -0.052451938 0.70972192
0.021462308 -0.054631323 0.71074247
0.021556025 -0.056829512 0.71177089
0.021650655 -0.059047252 0.71280932
0.021746121 -0.061284512 0.71385694
0.021842431 -0.063541591 0.71491379
0.021939507 -0.065818489 0.71597904
0.022037541 -0.068116009 0.71705484
0.022136457 -0.070434183 0.71814036
0.022236168 -0.07277292 0.71923453
0.024209689 0.068594128 0.71875221
0.019570442 0.053818703 0.67208505
0.018651204 0.049736559 0.66283822
0.018716024 0.048349738 0.66349024
0.018781358 0.04695341 0.66414744
0.018847153 0.045547277 0.66480929
0.018913344 0.04413116 0.66547513
0.018980065 0.042705148 0.66614628
0.01904726 0.041269064 0.6668222
0.019114867 0.039822638 0.66750228
0.019183019 0.03836605 0.66818786
0.019251661 0.036898971 0.66887832
0.01932073 0.035421342 0.66957313
0.019390363 0.033933163 0.67027354
0.019460499 0.032434165 0.67097908
0.019531077 0.030924231 0.67168903
0.019602237 0.029403359 0.67240483
0.019673917 0.0278714 0.67312586
0.019746054 0.026328087 0.67385155
0.019818792 0.024773508 0.6745832
0.019892069 0.023207396 0.67532033
0.019965818 0.021629602 0.67606217
0.020040186 0.020040154 0.67681026
0.020115109 0.018438876 0.67756397
0.020190526 0.016825438 0.67832255
0.020266581 0.015199929 0.67908764
0.020343212 0.013562113 0.67985851
0.02042035 0.011911839 0.68063444
0.020498151 0.010249078 0.68141705
0.020576546 0.0085735619 0.68220562
0.020655468 0.0068851709 0.68299949
0.020735074 0.0051837564 0.68380034
0.020815294 0.0034691989 0.68460727
0.020896062 0.0017413199 0.68541968
0.020977536 -0 0.6862393
0.021059649 -0.0017549992 0.68706524
0.021142326 -0.0035237372 0.68789697
0.021225737 -0.0053064227 0.68873596
0.021309806 -0.0071032643 0.68958169
0.021394465 -0.0089143515 0.69043326
0.02147988 -0.010739923 0.69129246
0.021565981 -0.012580156 0.69215858
0.021652693 -0.014435112 0.69303083
0.021740183 -0.016305149 0.69391096
0.021828391 -0.018190324 0.69479817
0.021917226 -0.020090789 0.69569182
0.022006877 -0.022006899 0.69659364
0.022097262 -0.023938715 0.69750285
0.022188393 -0.025886446 0.69841957
0.02228019 -0.027850211 0.69934297
0.02237284 -0.029830426 0.70027494
0.022466261 -0.031827182 0.70121473
0.02256038 -0.033840567 0.70216149
0.022655377 -0.035871029 0.70311713
0.02275118 -0.037918627 0.70408082
0.022847706 -0.039983481 0.70505172
0.022945145 -0.042066097 0.70603186
0.023043418 -0.044166535 0.7070204
0.023142444 -0.046284884 0.70801657
0.023242418 -0.048421681 0.70902222
0.023343263 -0.050577044 0.71003664
0.023444887 -0.052750975 0.71105886
0.023547499 -0.054944158 0.71209109
0.023651009 -0.057156622 0.71313238
0.02375534 -0.05938834 0.7141819
0.023860693 -0.061640114 0.71524161
0.023966983 -0.063911945 0.7163108
0.024074126 -0.066203803 0.71738857
0.024182331 -0.068516612 0.71847701
0.024291513 -0.070850253 0.71957535
0.024401581 -0.073204726 0.7206825
0.027470915 0.071847022 0.73030102
0.022006664 0.055863082 0.67956305
0.020297533 0.049963146 0.66369307
0.020368466 0.048570931 0.66435164
0.020439826 0.047168821 0.66501433
0.020511758 0.045756996 0.6656822
0.020584198 0.044335186 0.66635484
0.020657081 0.042903185 0.66703159
0.020730553 0.04146114 0.66771376
0.020804549 0.040008783 0.66840088
0.020879004 0.038545847 0.6690923
0.020954065 0.037072569 0.66978925
0.02102967 0.035588682 0.67049122
0.021105748 0.034093916 0.67119765
0.021182451 0.032588363 0.67190993
0.021259716 0.031071901 0.67262727
