# .PCD v0.7 - Point Cloud Data file format
VERSION 0.7
FIELDS x y z
SIZE 4 4 4
TYPE F F F
COUNT 1 1 1
WIDTH 851
HEIGHT 1
VIEWPOINT 0 0 0 1 0 0 0
POINTS 851
DATA ascii
-0.024792092 -0.052063406 0.6248551
-0.024792092 -0.052063406 0.6248551
-0.023623254 -0.052219853 0.6253047
-0.023623254 -0.052219853 0.6253047
-0.024903605 -0.047316849 0.6255281
-0.023817895 -0.047635809 0.62654126
-0.027806396 -0.048029244 0.62779105
-0.02521313 -0.04034096 0.62739623
-0.02521313 -0.04034096 0.62739623
-0.026458822 -0.036538363 0.62731022
-0.026458822 -0.036538363 0.62731022
-0.027806396 -0.034126014 0.62779105
-0.029358266 -0.051057845 0.62930226
-0.029358266 -0.039569825 0.62930226
-0.029358266 -0.038293391 0.62930226
-0.029358266 -0.033187598 0.62930226
-0.026904427 -0.026904404 0.62987161
-0.029358266 -0.022976041 0.62930226
-0.030941268 -0.048990354 0.63084412
-0.030941268 -0.03867656 0.63084412
-0.021968877 -0.038768589 0.63121438
-0.021968877 -0.038768589 0.63121438
-0.02452508 -0.030979067 0.63103414
-0.028408479 -0.018078119 0.63109457
-0.028408479 -0.018078119 0.63109457
-0.029745698 -0.012932926 0.63133562
-0.01691067 -0.052032813 0.63224453
-0.032556277 -0.04688105 0.6324172
-0.032556277 -0.01172027 0.6324172
-0.030129872 -0.0052399933 0.63335192
-0.03019491 -0.0039384663 0.63369328
-0.015821997 -0.048784494 0.63437855
-0.035886157 -0.059810251 0.63566017
-0.014638978 -0.047909364 0.63586533
-0.035886157 -0.046519101 0.63566017
-0.019871417 -0.033119023 0.6351344
-0.035886157 -0.031898797 0.63566017
-0.025220448 -0.01460129 0.63545197
-0.01606562 -0.040164053 0.63682926
-0.030725066 0.0066793263 0.63647568
-0.037603207 -0.057747766 0.63733256
-0.012070897 -0.052307248 0.63712007
-0.018844984 -0.028267473 0.6377067
-0.018844984 -0.028267473 0.6377067
-0.037603207 -0.014772654 0.63733256
-0.028148809 -0 0.63702452
-0.028148809 -0 0.63702452
-0.032183029 0.013409615 0.63708973
-0.037603207 0.016115665 0.63733256
-0.034899909 0.022819132 0.63725203
-0.037603207 0.028202415 0.63733256
-0.036380894 0.029643685 0.63787204
-0.027123284 0.0027123392 0.63892508
-0.036624108 0.033911228 0.63895941
-0.010855825 -0.050208181 0.6390233
-0.039356437 -0.048856258 0.63904029
-0.039356321 -0.021713823 0.63903975
-0.039356321 -0.0081427097 0.63903981
-0.024495313 -0.0040825605 0.63949078
-0.041146874 -0.048004687 0.64078379
-0.041146874 -0.031545937 0.64078379
-0.01778499 -0.023257285 0.64036298
-0.019141318 -0.019141316 0.64026165
-0.041146874 -0.0054862499 0.64078379
-0.041146874 -0 0.64078385
-0.041146874 0.0027431548 0.64078379
-0.026014837 0.0041075945 0.64049888
-0.030067123 0.016400248 0.64019531
-0.01100303 -0.042636722 0.64124447
-0.031627543 0.024751991 0.64121211
-0.042975958 -0.045748621 0.64256537
-0.042975958 -0 0.64256537
-0.024998371 0.0083327889 0.64286435
-0.042975958 0.016635835 0.64256537
-0.027741481 0.016644895 0.64265621
-0.037459027 0.048557997 0.64269215
-0.042975958 0.056839198 0.64256537
-0.0055655143 -0.054263741 0.64317578
-0.018069301 -0.013899505 0.64300293
-0.020870926 -0.0041741431 0.64317775
-0.026431058 0.013911068 0.64314318
-0.029310774 0.025123507 0.64370364
-0.03068731 0.029292434 0.64359826
-0.036259439 0.04741618 0.64356393
-0.04484484 -0.058858842 0.64438564
-0.04484484 -0.050450444 0.6443857
-0.04484484 -0.043443412 0.64438564
-0.04484484 -0.043443412 0.64438564
-0.04484484 -0.026626587 0.64438564
-0.015449776 -0.016854286 0.64476275
-0.04484484 -0.011211216 0.6443857
-0.04484484 -0.0098098218 0.64438564
-0.04484484 -0.0084084272 0.64438564
-0.04484484 0.0042041838 0.64438564
-0.025286863 0.0154531 0.64479905
-0.04484484 0.032232225 0.6443857
-0.042021722 0.068635494 0.64430392
-0.0084733376 -0.036717802 0.64569199
-0.028256705 0.028256744 0.64576584
-0.029582158 0.030990839 0.64526355
-0.031115213 0.038186878 0.64594603
-0.032433633 0.040894568 0.64544272
-0.036764931 0.05656144 0.64591086
-0.038154762 0.060764998 0.64580262
-0.0042546093 -0.048218906 0.6464138
-0.011362505 -0.024145305 0.64666855
-0.015593729 -0.011340886 0.6463424
-0.01700053 -0.0070835352 0.64623368
-0.03397987 0.048138171 0.6461271
-0.015666716 -0.0085454583 0.64714336
-0.024232941 0.019956529 0.64729071
-0.024232941 0.019956529 0.64729071
-0.024232941 0.019956529 0.64729071
-0.048707131 -0.061600208 0.64814717
-0.0028716808 -0.045946896 0.64854276
-0.0042946283 -0.042946279 0.64802408
-0.048707131 -0.041544318 0.64814723
-0.048707131 -0.041544318 0.64814723
-0.017200712 -0 0.64824736
-0.048707131 0.028651267 0.64814723
-0.048707131 0.051572233 0.64814723
-0.035958394 0.063286781 0.648844
-0.037372727 0.067558408 0.6487326
0 -0.053320527 0.64917707
-0.0028852953 -0.043279439 0.64936459
-0.0057631484 -0.03457886 0.64913994
-0.011578686 -0.013026059 0.64993042
-0.017323142 0.0043307841 0.64947897
-0.024520069 0.027404815 0.64932948
-0.031704664 0.050439239 0.64918029
-0.050703492 -0.060844183 0.65009165
-0.050703492 -0.02752474 0.65009165
-0.050703492 -0.026076078 0.65009165
-0.050703492 -0.011589378 0.65009165
-0.016003774 0.0043646693 0.65084213
-0.050703492 0.011589378 0.65009165
-0.018888952 0.013076961 0.65061373
-0.050703492 0.037665457 0.65009165
-0.030572802 0.052410513 0.65095794
-0.030572802 0.052410513 0.65095794
0 -0.046667486 0.65126109
-0.0087578306 -0.01751563 0.65141547
-0.033601474 0.064281076 0.65157181
-0.03647564 0.072951287 0.6513415
-0.05274526 -0.057140708 0.65208036
-0.05274526 -0.049814969 0.65208036
-0.052745096 -0.038093686 0.65207982
-0.052745096 -0.036628544 0.65207982
-0.0043980833 -0.029320538 0.65218675
-0.0058744084 -0.023497641 0.65249753
-0.052745096 -0.011721134 0.65207982
-0.010284754 -0.0088154972 0.65257579
-0.052745096 0.017581701 0.65207976
-0.052745096 0.026372552 0.65207982
-0.052745096 0.029302835 0.65207982
-0.052745096 0.052745104 0.65207976
-0.011803215 -0.001475364 0.65331835
-0.0074459137 -0.010424286 0.65498185
-0.054833829 0.00296399 0.65411425
-0.019303715 0.026728243 0.65446496
-0.054833829 0.0340859 0.65411425
-0.054833829 0.044459879 0.65411425
-0.054833829 0.044459879 0.65411425
-0.025237769 0.046021819 0.6544255
-0.054833829 0.062243819 0.65411425
-0.014951762 0.016446918 0.65570533
-0.02830741 0.058104694 0.65506399
-0.031398997 0.070273936 0.655707
-0.056971174 -0.061468884 0.656196
-0.056971174 -0.044977248 0.656196
0.0045137056 -0.043632507 0.65683907
0.0029997008 -0.040495962 0.65626955
-0.010513169 0.0045056343 0.65651464
-0.056971174 0.0089954436 0.656196
0.0075516705 -0.051351339 0.65753502
0.0045361347 -0.040825218 0.65774155
-0.015062806 0.021087945 0.65704572
-0.027168212 0.061883152 0.65741563
-0.028729405 0.068043321 0.65774506
-0.05915885 -0.054608166 0.6583268
-0.05915885 -0.053091288 0.65832686
-0.05915885 -0.053091288 0.65832686
-0.05915885 -0.039439231 0.65832686
-0.05915885 -0.024270266 0.6583268
-0.05915885 -0.024270266 0.6583268
-0.0030440374 -0.012176156 0.65894544
-0.05915885 -0.010618269 0.6583268
-0.05915885 0.0015169084 0.6583268
-0.05915885 0.0015169084 0.6583268
-0.05915885 0.012135148 0.65832686
-0.05915885 0.016685843 0.65832686
-0.05915885 0.027304083 0.65832686
-0.012217902 0.019854099 0.6595754
-0.027509304 0.070301533 0.65970308
-0.061398458 -0.056793571 0.6605078
-0.061398458 -0.053723663 0.6605078
-0.061398458 -0.0092097521 0.66050786
-0.061398458 -0.004604876 0.6605078
-0.061398458 -0.004604876 0.6605078
-0.061398458 0.0076748133 0.6605078
-0.012310562 0.024621099 0.66097361
-0.018415112 0.042968601 0.66046327
-0.061398458 0.0567936 0.6605078
-0.061398458 0.0567936 0.6605078
-0.061398458 0.064468384 0.6605078
0.0092754485 -0.043285429 0.66182917
0.0015405811 -0.020027548 0.66118616
-0.0061722845 0.0061722994 0.66148674
-0.063692272 -0.046604097 0.66274202
0.0061908015 -0.032501698 0.66204554
-0.063692272 -0.02640897 0.66274196
0.004651709 -0.026359677 0.6623919
-0.063692272 -0.021748602 0.66274202
0 -0.0093315542 0.66295743
-0.0077690864 0.015538186 0.66278392
-0.063692272 0.021748573 0.66274202
-0.063692272 0.031069368 0.66274202
-0.063692272 0.032622904 0.66274196
-0.013945564 0.034089178 0.66226363
-0.063692272 0.040390223 0.66274202
-0.063692272 0.045050621 0.66274202
-0.02167313 0.058827043 0.66209143
-0.024861321 0.07147631 0.66278577
-0.018698005 0.052977651 0.66330898
-0.020242089 0.057612091 0.66317821
-0.066042073 -0.051890194 0.66503072
-0.066042073 -0.042455643 0.66503072
-0.066042073 -0.040883183 0.66503066
-0.066042073 -0.0062897205 0.66503072
-0.003154486 0.0094634295 0.66561162
-0.0047406689 0.015802234 0.66597134
-0.015765116 0.050448388 0.66552341
-0.066042073 0.059752345 0.66503072
0.014231904 -0.045858353 0.66610408
0.011082388 -0.034830362 0.66633052
0.0094924476 -0.030059427 0.66619486
0.0079047885 -0.025295317 0.66606009
0.0079253642 -0.023776084 0.66655678
-0.009510533 0.03328687 0.66655868
-0.012695786 0.044435233 0.66678619
0.017556284 -0.051072836 0.66787893
-0.068449713 -0.019102246 0.66737533
-0.068449713 -0.017510414 0.66737533
-0.068449713 -0.0079592466 0.66737533
-0.068449713 0.011142939 0.66737533
-0.004777879 0.02070415 0.66746855
-0.020665003 0.071532696 0.6671052
0.016075196 -0.041795522 0.66926634
-0.070917822 0.0048353374 0.6697793
-0.070917822 0.024176508 0.6697793
-0.070917822 0.032235384 0.66977924
-0.070917822 0.043517768 0.66977924
-0.070917822 0.056411892 0.6697793
0.011348063 -0.02107498 0.67091191
0.011348063 -0.02107498 0.67091191
0.0032391811 0.0048587918 0.67072344
0.0032391811 0.0048587918 0.67072344
-0.0080999518 0.042119741 0.67077172
-0.0080999518 0.042119741 0.67077172
-0.014576467 0.063164681 0.67072546
0.019524621 -0.045557439 0.67162412
-0.073448472 -0.060390979 0.67224413
0.02287323 -0.053915471 0.67243892
0.019576995 -0.04404825 0.67215097
0.017932454 -0.039125383 0.67200696
0.0097981039 -0.011431158 0.67234421
-0.073448472 0.0130575 0.67224413
-0.073448472 0.034275949 0.67224413
-0.008231421 0.052681118 0.67394561
-0.0098438226 0.055781692 0.67326403
-0.07604406 -0.049593955 0.6747722
0 0.026366383 0.67414033
-0.07604406 0.036368906 0.6747722
-0.07604406 0.039675176 0.6747722
-0.07604406 0.041328311 0.6747722
-0.076043792 0.059512556 0.67477149
-0.076043792 0.059512556 0.67477149
0.0099584004 -0.0016597211 0.67556912
0.0016580969 0.024871439 0.67537159
-0.0016556396 0.034768403 0.67507499
0.023375178 -0.041741401 0.67676681
0.023375178 -0.041741401 0.67676681
-0.0016646972 0.038288057 0.67616832
0.026828235 -0.050302953 0.677625
-0.078706853 -0.040190756 0.67736536
0.020060958 -0.030091435 0.67701924
-0.078706853 -0.02846846 0.6773653
-0.078706853 -0 0.67736536
0.010040566 0.0033468604 0.67722219
-0.078706853 0.016746163 0.67736536
-0.078706853 0.018420756 0.6773653
-0.078706853 0.031817675 0.6773653
-0.0033544223 0.048639119 0.67767888
-0.078706853 0.055262268 0.67736536
-0.0066987872 0.058614433 0.67737532
0.015136481 -0.010090977 0.67823654
0.0067391973 0.018532783 0.67859483
0.0255547 -0.035776585 0.68086994
-0.081440046 -0.016966671 0.68002748
-0.081440046 -0.003393352 0.68002748
-0.081440046 0.005090028 0.68002748
0.0050928555 0.028859526 0.68014222
0.022175629 -0.023881435 0.68113196
0.020511646 -0.017093033 0.68155277
0 0.051384896 0.68197834
-0.0017067171 0.054614961 0.68124056
-0.0051266872 0.066646934 0.68150353
-0.006830371 0.071718931 0.68134624
-0.006830371 0.071718931 0.68134624
0.032559682 -0.054837346 0.68207955
-0.084246196 -0.012035161 0.68276066
-0.084246196 0.046421349 0.68276066
0.025917418 -0.02764523 0.6837889
0.024102522 -0.024102509 0.68303812
0.020744706 -0.010372341 0.6838972
0.010353718 0.022433072 0.68352234
0.0051795449 0.039709836 0.68363035
0.032930594 -0.048529327 0.68443602
0.019109797 -0.0017372966 0.68492675
0.033119235 -0.045321077 0.68563449
-0.087127924 0.005227685 0.68556702
-0.087127924 0.022653252 0.68556696
-0.087127924 0.054019332 0.68556696
-0.0017458805 0.069835216 0.68596798
0.024518689 -0.014010698 0.68662643
0.017508872 0.0087544322 0.68657237
0.024660625 -0.010568827 0.68785012
0.0052692369 0.050935924 0.68723929
0 0.070497036 0.68796515
0.03708826 -0.049450994 0.68840963
0.021227088 0.0035378337 0.68874955
0.010624839 0.038957715 0.68897682
0.0035304211 0.060017169 0.68830132
0.035603981 -0.039164424 0.69011062
0.028475676 -0.016017556 0.69005394
0.026831556 -0.0071550906 0.6911453
0.0089511033 0.05191642 0.69132036
0.0071551632 0.057241291 0.69114769
0.043241978 -0.055854231 0.69271195
0.030638263 -0.014418006 0.69277251
0.028984247 -0.0054345727 0.69389081
0.018134898 0.03082934 0.69412911
0.036456991 -0.025519878 0.69525898
0.025547979 0.010949135 0.69550109
0.0072836149 0.069194317 0.69502413
0.011009248 0.062385738 0.69671059
0.029600969 0.0074002445 0.69854367
0.025936795 0.020378947 0.69885355
0.042668995 -0.033393145 0.69916081
0.024137633 0.027851105 0.69935
0.050410889 -0.054145038 0.70059681
0.031669866 0.0055888295 0.70009744
0.024211453 0.029798687 0.70003545
0.020515235 0.042895496 0.70034957
0.029965345 0.014982671 0.70129263
0.048953269 -0.043304831 0.70249778
0.028507257 0.030407727 0.70463026
0.024741514 0.043773472 0.70495737
0.015208335 0.074140638 0.70469761
0.049566668 -0.036221772 0.70534563
0.04610857 -0.019211918 0.70712978
0.036809098 0.017435908 0.70907688
0.04669825 -0.011674553 0.71009564
0.033087734 0.03308776 0.71016526
0.048999913 -0.013719976 0.71181411
0.039280739 0.019640356 0.71230179
0.037404533 0.027561247 0.71285987
0.057411142 -0.033654809 0.71419179
0.057411142 -0.033654809 0.71419179
0.031722557 0.051549137 0.71454978
0.029713469 0.057446033 0.71433711
0.037771009 0.033795148 0.71518809
0.048081703 0.0060102046 0.71705389
0.030204985 0.068464667 0.71829247
0.069191404 -0.050876051 0.72087282
0.065002918 -0.038595468 0.72042614
0.049050536 0.018393964 0.72192669
0.063550159 -0.026650071 0.72267908
0.057242706 -0.008177489 0.72200036
0.066331342 -0.026947081 0.72543716
0.039581116 0.064579695 0.72668803
0.077583835 -0.054518402 0.72833502
0.067247532 -0.018913358 0.72889328
0.055281237 0.029766828 0.73187679
0.055474926 0.032004774 0.73277605
0.049105458 0.053375512 0.73294127
0.044749897 0.066059381 0.73244965
0.059856549 0.019239575 0.73326886
0.064481765 0.0085975528 0.73467612
0.047256965 0.064441353 0.7345134
0.082900472 -0.039268613 0.73856294
0.067652136 0.010911644 0.73865175
0.047933713 0.074079424 0.73822659
0.054826554 0.057019651 0.73994756
0.050523434 0.072490156 0.74038327
0.08838658 -0.046402961 0.7419517
0.072680019 0.0022024512 0.74107772
0.068636641 0.019926757 0.74248534
0.057490524 0.055279315 0.74213386
0.057700038 0.057700068 0.74310654
0.057700038 0.057700068 0.74310654
0.078086406 -0.0044620931 0.74453199
0.060198579 0.053509891 0.74435532
0.060198579 0.053509891 0.74435532
0.067088306 0.033544153 0.74516404
0.090354979 -0.033883095 0.74789184
0.068088777 0.043122917 0.74918962
0.070693858 0.038767576 0.75049585
0.066747211 0.059842318 0.75305265
0.064869277 0.071819544 0.75487924
0.072043836 0.051127881 0.75575256
0.072319828 0.053656638 0.75682724
0.073161371 0.061361164 0.76010418
-0.024191637 -0.038833275 0.62891573
-0.030941268 -0.048990354 0.63084412
-0.030941268 -0.047056511 0.63084412
-0.020557577 -0.046254516 0.6303165
-0.024447378 -0.032810286 0.63054049
-0.027075384 -0.023207486 0.63085437
-0.027075384 -0.023207486 0.63085437
-0.032556277 -0.026696146 0.6324172
-0.027069911 -0.0152828 0.63334274
-0.030032959 -0.007181108 0.63284326
-0.01455939 -0.050957136 0.63499188
-0.01724234 -0.041116357 0.63532424
-0.01724234 -0.041116357 0.63532424
-0.035071958 0.011248939 0.63496542
-0.012057633 -0.052918904 0.63694215
-0.017490141 -0.032961443 0.63762516
-0.024144426 -0.012742147 0.63713771
-0.02555488 -0.0067249835 0.63757664
-0.030725066 0.0066793263 0.63647568
-0.039356437 -0.052927583 0.63904023
-0.010843757 -0.050829343 0.63884121
-0.039356437 -0.035285085 0.63904023
-0.022968736 -0.012834713 0.63831401
-0.027123284 0.0027123392 0.63892508
-0.028367504 0.0047287047 0.63828158
-0.039356321 0.018999577 0.63903981
-0.033244364 0.023069233 0.6390276
-0.015135421 -0.028894901 0.64131314
-0.019206081 -0.017147511 0.64082009
-0.023357578 -0.0027479529 0.64107507
-0.041146874 0.026745453 0.64078379
-0.041146874 0.026745453 0.64078379
-0.033094522 0.0310269 0.64167416
-0.041146874 0.041146874 0.64078379
-0.0055910801 -0.05171749 0.64394736
-0.0055910801 -0.05171749 0.64394736
-0.042975958 -0.042975932 0.64256537
-0.015291004 -0.022935718 0.64302039
-0.020847104 -0.0048635006 0.64298606
-0.025026977 0.0090382993 0.64305621
-0.042975958 0.015249521 0.64256537
-0.027146963 0.01670742 0.64328527
-0.029110527 0.020793229 0.64255255
-0.042975958 0.056839198 0.64256537
-0.04484484 -0.042742714 0.64438564
-0.04484484 -0.032932937 0.64438564
-0.014021704 -0.022434711 0.6444785
-0.04484484 -0.016816825 0.64438564
-0.04484484 -0.016816825 0.64438564
-0.04484484 -0.0091091245 0.64438564
-0.04484484 -0.0007007122 0.6443857
-0.04484484 0.0070070028 0.64438564
-0.032246903 0.037154824 0.6444627
-0.04484484 0.042742759 0.64438564
-0.0014249941 -0.054861449 0.64723361
-0.046754677 -0.031169772 0.64624548
-0.018470064 -0.00070956349 0.64672416
-0.019924682 0.0049820095 0.64701599
-0.026923398 0.025506377 0.64627111
-0.025762621 0.027193904 0.64798951
-0.032584641 0.043918431 0.64623523
-0.046754677 0.053130329 0.64624548
-0.037109833 0.062801272 0.64751208
-0.037109833 0.062801272 0.64751208
-0.048707131 -0.05730252 0.64814717
-0.048707131 -0.04727456 0.64814717
-0.01289498 -0.014327765 0.64817286
-0.048707131 0.00071628392 0.64814723
-0.048707131 0.00071628392 0.64814723
-0.020112792 0.010775551 0.64863789
-0.021612003 0.017289609 0.64914155
-0.048707131 0.028651267 0.64814723
-0.027304776 0.034490228 0.64869416
-0.048707131 0.037246615 0.64814717
-0.048707131 0.070911869 0.64814717
-0.037550107 0.070767522 0.64955616
0 -0.046667486 0.65126109
-0.0050959517 -0.030592829 0.6510731
-0.023369737 0.030672759 0.65153265
-0.05274526 -0.05860582 0.65208036
0.002934614 -0.052823067 0.65234119
0.002934614 -0.052823067 0.65234119
-0.0029481896 -0.03095597 0.65316057
-0.0051451838 -0.025005013 0.6527729
-0.0051451838 -0.025005013 0.6527729
-0.01473456 0.0073672533 0.65308344
-0.052745096 0.014651418 0.65207976
-0.019117136 0.020587683 0.65273249
-0.019117136 0.020587683 0.65273249
-0.052745096 0.032965675 0.65207982
-0.025176393 0.044428915 0.65398979
-0.032239012 0.06154719 0.65211213
-0.032239012 0.06154719 0.65211213
-0.052745096 0.063001096 0.65207976
-0.052745096 0.065198809 0.65207982
-0.054833829 -0.034826905 0.65411425
-0.0054541058 -0.017361652 0.65485066
-0.054833829 0.00296399 0.65411425
-0.054833829 0.02667594 0.65411425
-0.054833829 0.04075487 0.65411425
-0.025361504 0.049231172 0.65530419
-0.054833829 0.060761809 0.65411425
0.0060372655 -0.046788812 0.65741217
0.0060372655 -0.046788812 0.65741217
0.0060372655 -0.046788812 0.65741217
-0.056971174 -0.03748104 0.656196
0.0015006958 -0.035265431 0.65637159
-0.056971174 -0.026986361 0.65619606
0 -0.027161717 0.65737206
-0.0065283831 -0.0065312088 0.65714216
-0.0065283831 -0.0065312088 0.65714216
-0.012036663 0.010532081 0.6568408
-0.012036663 0.010532081 0.6568408
-0.018817311 0.033123821 0.65696704
-0.021083225 0.040660501 0.65700519
-0.056971174 0.049474955 0.65619606
-0.025676256 0.057393968 0.65753913
-0.03081128 0.071394801 0.6566608
0.0090907104 -0.0545443 0.65811253
0.0015175317 -0.028833091 0.65840387
-0.05915885 -0.0091013312 0.6583268
-0.05915885 0.012893617 0.65832686
-0.05915885 0.047023743 0.6583268
-0.025868816 0.062389523 0.6589064
-0.061398458 -0.059096009 0.6605078
-0.061398458 -0.059096009 0.6605078
0.010733382 -0.052899271 0.66031212
-0.061398458 -0.044513911 0.6605078
0.0069263335 -0.038461953 0.6609323
-0.061398458 0.0046049356 0.6605078
-0.0076905447 0.0092286766 0.66088772
-0.01391017 0.032457083 0.66178894
-0.024735013 0.068021297 0.66183287
-0.063692272 -0.052817971 0.66274202
-0.063692272 -0.046604097 0.66274202
-0.063692272 -0.034953073 0.66274202
-0.063692272 -0.034953073 0.66274202
0.0046635834 -0.024872422 0.66286969
-0.063692272 -0.0046603978 0.66274196
-0.063692272 0.013204515 0.66274196
-0.063692272 0.052817971 0.66274196
-0.063692272 0.066799194 0.66274202
0.0094190054 -0.034536362 0.66471732
0.003134904 -0.014889792 0.66442978
0.0031470598 -0.012588233 0.66516346
-0.066042073 0.048745364 0.66503072
-0.018794244 0.056382775 0.66427708
-0.022066008 0.070926487 0.66547889
-0.068449713 -0.015122607 0.66737533
0.0015805876 -0.0047417581 0.66601539
0 0.0063841641 0.66788089
0 0.0063841641 0.66788089
-0.0047530024 0.017427683 0.66646761
-0.009510533 0.03328687 0.66655868
-0.068449713 0.03661263 0.66737527
-0.068449713 0.03661263 0.66737527
-0.012695786 0.044435233 0.66678619
-0.014235526 0.047451735 0.66615266
-0.019138994 0.068581432 0.66774499
-0.070917822 -0.051576585 0.6697793
0.014495536 -0.035433531 0.66964
0.0080193616 -0.016839594 0.6688261
0.0080193616 -0.016839594 0.6688261
-0.070917822 -0.011282355 0.6697793
-0.070917822 -0.0088647306 0.6697793
-0.0032043133 0.019225895 0.66861898
-0.070917822 0.035458893 0.6697793
-0.070917822 0.037070721 0.66977924
-0.015235629 0.059352234 0.66885531
0.017884577 -0.040646732 0.67148149
0.01616057 -0.038785338 0.67029691
0.011317896 -0.022635818 0.67039168
-0.0032470494 0.027599961 0.67119831
-0.0065019839 0.039011896 0.67143625
-0.016227497 0.069778264 0.67110479
-0.073448472 0.0130575 0.67224413
-0.0032732401 0.032732397 0.67277908
-0.0081871264 0.049122751 0.6728763
-0.073448472 0.057126582 0.67224407
-0.013070689 0.0637196 0.67244303
-0.07604406 -0.05124709 0.67477226
0.023058902 -0.049411923 0.67403984
-0.07604406 -0.034715772 0.6747722
0.018250242 -0.029033318 0.67549419
-0.07604406 -0.023143858 0.6747722
0.013189573 -0.016486973 0.67423683
-0.07604406 -0.0016531348 0.6747722
-0.07604406 0.013225079 0.6747722
-0.07604406 0.024796993 0.6747722
-0.078706853 -0.015071511 0.6773653
0.0033368587 0.023358017 0.67661881
-0.078706853 0.033492297 0.67736536
-0.078706853 0.045214593 0.6773653
-0.0033544223 0.048639119 0.67767888
0.025341922 -0.040547103 0.67915761
0.023700334 -0.033857584 0.67957032
0.02017178 -0.026895672 0.67813396
0.016877659 -0.013502121 0.67895299
0.01009609 0.0067307353 0.67833918
0.01015223 0.010152221 0.67946863
-0.0067545613 0.064168334 0.67905855
0.023832925 -0.03064236 0.68071365
0.022206815 -0.023059711 0.68142158
-0.081440046 -0.016966671 0.68002748
0.017066924 -0.0068267584 0.68123758
0.0085487757 0.022226781 0.68160725
-0.081440046 0.03902337 0.68002748
-0.0016971978 0.050915927 0.6800915
-0.084246196 -0.015473813 0.68276066
0.017163189 -0.0034326315 0.68239957
-0.084246196 0.0051579177 0.68276066
0.010295333 0.018874794 0.68234766
0.0051795449 0.039709836 0.68363035
-0.084246196 0.05845654 0.68276066
-0.0017260798 0.062138855 0.68357784
-0.0051849247 0.074317247 0.68384683
0.033119235 -0.045321077 0.68563449
0.02430887 -0.019099802 0.68481731
0.020803839 -0.0086682737 0.68449205
-0.087127924 0.005227685 0.68556702
0.01745861 0.0069834888 0.68596566
0.0069508571 0.038229734 0.68498224
-0.087127924 0.054890618 0.68556696
0.036980871 -0.051068813 0.68779236
0.015745617 0.013996094 0.68640649
0.0052692369 0.050935924 0.68723929
0.003520217 0.058083594 0.68768543
0.033698361 -0.035471946 0.68931377
0.026481327 -0.015004814 0.68832684
0.017686959 0.015035212 0.68872201
0.015882563 0.019411981 0.68824327
0.010624839 0.038957715 0.68897682
0.026752872 -0.0089175999 0.69051206
0.026910605 -0.0053821206 0.6917814
0.025096461 2.9802322e-08 0.69160801
0.012478128 0.037434369 0.69039917
0.008911808 0.049016252 0.69037169
0.008911808 0.049016252 0.69037169
0.039809998 -0.041619539 0.69365299
0.028984247 -0.0054345727 0.69389081
0.027150769 -0 0.69371408
0.017974248 0.025163978 0.69218993
0.014484405 0.041642666 0.69377434
0.043891624 -0.047549248 0.69597936
0.016405899 0.040103316 0.69526237
0.036899082 -0.018449545 0.69792718
0.036899082 -0.018449545 0.69792718
0.029422086 0.0036777854 0.6971941
0.025779836 0.016572773 0.69750023
0.011009248 0.062385738 0.69671059
0.035131622 -0.011094213 0.69841951
0.033356331 -0.0037062466 0.69891405
0.022262348 0.033393562 0.6991635
0.044972792 -0.033729583 0.70141721
0.042996816 -0.028974652 0.70088136
0.041283008 -0.020641476 0.7017352
0.029965345 0.014982671 0.70129263
0.020578258 0.044898003 0.70104116
0.041798372 -0.013299465 0.7045629
0.039864626 -0.0075932443 0.70436853
0.022747803 0.047391266 0.70404685
0.055690326 -0.050887898 0.7070291
0.05167906 -0.040194839 0.70626652
0.034512255 0.017256141 0.70666593
0.030721687 0.030721694 0.70699883
0.030721687 0.030721694 0.70699883
0.034731098 0.021224588 0.70813346
0.056492183 -0.042856097 0.71036673
0.039028823 0.0156115 0.71078134
0.023403861 0.066310972 0.71064621
0.058868498 -0.045132518 0.71209013
0.059250589 -0.041475415 0.71362758
0.061479475 -0.045613796 0.71461606
0.031722557 0.051549137 0.71454978
0.061237685 -0.022453845 0.72162294
0.046650659 0.020282894 0.72005779
0.040863074 0.044949383 0.72185206
0.0365871 0.054880649 0.7205801
0.032571319 0.069214046 0.72095323
0.065439768 -0.034764886 0.72207403
0.055333573 -0 0.72260511
0.055520423 0.0020563006 0.72344041
0.041000813 0.04715094 0.72268337
0.043530516 0.047676295 0.7254405
0.06870193 -0.031228155 0.72652632
0.05628109 0.010422468 0.72684109
0.075676702 -0.046246856 0.72897118
0.067247532 -0.018913358 0.72889328
0.065310143 -0.010533899 0.72953224
0.065310143 -0.010533899 0.72953224
0.056669295 0.014692038 0.72857666
0.056669295 0.014692038 0.72857666
0.078394331 -0.048731625 0.7309792
0.050931901 0.042443246 0.73138928
0.051470231 0.049325675 0.73409677
0.067410246 0.008698076 0.73770988
0.065877773 0.021959245 0.74029326
0.052771866 0.065964848 0.7406435
0.052963346 0.068410993 0.74160665
0.089033112 -0.042290717 0.74390274
0.057490524 0.055279315 0.74213386
0.053155977 0.070874661 0.74257547
0.087359495 -0.031359822 0.74561185
0.074019209 0.013458043 0.74597639
0.087682009 -0.029227346 0.74661016
0.081292674 -0.0045162439 0.74780196
0.078663163 -0 0.74652112
0.06990815 0.031571448 0.7474364
0.063420981 0.056625903 0.74863547
0.061782863 0.070935875 0.75143826
0.073601194 0.036800563 0.75286067
0.073601194 0.036800563 0.75286067
0.081057981 0.018527538 0.75478059
0.072043836 0.051127881 0.75575256
0.069914103 0.060592234 0.75653422
0.069914103 0.060592234 0.75653422
-0.033800721 -0.03805393 0.63362908
-0.021578813 -0.034003891 0.63310719
-0.029253457 -0.01000502 0.63275772
-0.03847982 -0.049949899 0.6381864
-0.038479764 0.0018553957 0.63818622
-0.0065014064 -0.050397359 0.64342779
-0.025040358 0.0020577759 0.64085555
-0.023037424 0.0012363642 0.64265156
-0.042061418 0.0099973306 0.64167458
-0.041595712 0.054153431 0.64184111
-0.0049286522 -0.049548339 0.64530617
-0.012634782 -0.026320241 0.644683
-0.010545622 -0.026072426 0.64690232
-0.015293892 -0.010315195 0.64697111
-0.045799758 0.01796608 0.64531559
-0.045799758 0.033816595 0.64531553
-0.032302804 0.03827402 0.64475608
-0.013664966 -0.0095303506 0.64888656
-0.026438905 0.03777682 0.65061164
0.0015913791 -0.042087059 0.65432745
-0.053789467 0.013998903 0.65309703
-0.053789467 0.061887767 0.65309703
-0.053789467 0.061887767 0.65309703
-0.053789467 0.061887767 0.65309703
-0.032277945 0.062355995 0.65232575
-0.058065012 -0.058058396 0.65726137
0.0045816679 -0.03512612 0.65957361
0.0016764086 -0.029723469 0.65828776
-0.0045150183 -0.013918743 0.65689188
-0.00527908 -0.009808749 0.65739608
-0.0095259715 0.002256786 0.6568222
-0.014382883 0.02195847 0.65801525
-0.021587774 0.042425394 0.65704089
0.0050523938 -0.026413135 0.66278559
0.0050523938 -0.026413135 0.66278559
-0.010009681 0.01771605 0.66116929
-0.025851687 0.073827304 0.66250712
-0.066042073 -0.057786807 0.66503072
-0.066042073 -0.05424884 0.66503072
0.015732463 -0.0538809 0.66512924
-0.066042073 0.018082947 0.66503072
-0.068449713 0.037806533 0.66737533
-0.017307013 0.054282099 0.66514349
-0.066042073 0.057786807 0.66503072
-0.018232215 0.06203803 0.66662484
0.0064320839 -0.01004719 0.66932684
-0.0080146147 0.035264313 0.66871148
-0.07604406 -0.045874402 0.67477226
0.019656051 -0.041768014 0.67294621
-0.073448472 -0.033867918 0.67224407
-0.073448472 -0.0057126582 0.67224413
0.0083151674 0.0049891174 0.67596745
-0.07604406 0.010332078 0.67477226
-0.07604406 0.030169636 0.67477226
-0.07604406 0.030169636 0.67477226
-0.07604406 0.030169636 0.67477226
-0.0048931167 0.03588286 0.67210543
-0.0081651714 0.047357976 0.67234623
-0.078706853 -0.042283997 0.6773653
-0.0016646972 0.038288057 0.67616832
0.03060722 -0.053561434 0.6804781
0.015327104 -0.002553314 0.68079323
-0.081440046 0.014421672 0.68002748
0.0086031929 0.026243098 0.68292105
-0.084246196 0.038254641 0.68276066
-0.0016971978 0.050915927 0.6800915
0.031240117 -0.042083986 0.68472242
0.022539046 -0.01430022 0.68450648
0.022539046 -0.01430022 0.68450648
0.0062751705 0.042161655 0.68552154
0.015882563 0.019411981 0.68824327
0.0089775287 0.053865194 0.69195831
0.0053778742 0.064534485 0.69161052
0.039574657 -0.044971198 0.69236171
0.03689453 -0.030239454 0.69422948
0.029114336 -0.0027281046 0.69487226
0.022933114 0.013877819 0.69373786
0.013866944 0.04279571 0.69350284
0.0091393124 0.065803051 0.69586408
0.044561259 -0.038991094 0.69934738
0.033918653 -0.0067838333 0.69852656
0.041474894 -0.017908171 0.70278805
0.025429303 0.033899464 0.70256889
0.017864769 0.057341523 0.70215786
0.017864769 0.057341523 0.70215786
0.051517408 -0.041973166 0.70554388
0.050037004 -0.030791998 0.70752925
0.036403626 0.010539412 0.70650089
0.036403626 0.010539412 0.70650089
0.030338803 0.022754103 0.70411015
0.055954978 -0.048237026 0.70813066
0.054409966 -0.03789109 0.70978814
0.045991927 -0.010364383 0.70978177
0.033140849 0.034117147 0.71054244
0.060987711 -0.033508442 0.71790427
0.056671701 -0.014167935 0.71953869
0.049965426 -0.0019986033 0.71647602
0.046112932 0.013033569 0.71723557
0.042305931 0.029212892 0.71840143
0.032354865 0.064709753 0.71932018
0.045107774 0.03383255 0.7227211
0.060563061 -0.0020883381 0.72731149
0.037591532 0.073094636 0.72731596
0.075416364 -0.048182666 0.72809827
0.067364112 -0.017891765 0.7293331
0.057261873 0.021208107 0.73122597
0.077842258 -0.037848711 0.73382235
0.050073158 0.054359 0.73424166
0.061942361 0.026078299 0.73754919
0.058484476 0.034657478 0.73669201
0.089541882 -0.049747512 0.74208856
0.085780621 -0.041790545 0.74072504
0.080545686 -0.010066167 0.74529731
0.071441181 0.017860264 0.74471259
0.072235987 0.024831146 0.74771082
0.064906463 0.041407913 0.74539065
0.065387413 0.046224236 0.74739254
0.056245483 0.074244052 0.74679875
0.088334672 -0.024914891 0.74863029
0.080142833 0.011448979 0.75162435
0.061322019 0.065864414 0.74937791
0.058771756 0.070074022 0.74808228
