# .PCD v0.7 - Point Cloud Data file format
VERSION 0.7
FIELDS x y z
SIZE 4 4 4
TYPE F F F
COUNT 1 1 1
WIDTH 1335
HEIGHT 1
VIEWPOINT 0 0 0 1 0 0 0
POINTS 1335
DATA ascii
-0.013377518 -0.013377547 0.60978901
-0.013349239 -0.014461666 0.60950452
-0.013336273 -0.015558988 0.60937417
-0.013336273 -0.016670346 0.60937411
-0.013336273 -0.017781675 0.60937405
-0.013336273 -0.018893063 0.60937411
-0.013336273 -0.020004392 0.60937417
-0.013336273 -0.02111578 0.60937411
-0.013336273 -0.022227108 0.60937405
-0.013888117 0.050502241 0.62762558
-0.013854876 0.049121827 0.6272608
-0.013821831 0.047748119 0.62689817
-0.013788905 0.046380877 0.62653685
-0.013756174 0.045020193 0.62617767
-0.013723562 0.043665856 0.6258198
-0.013691102 0.042317957 0.6254636
-0.013658832 0.040976495 0.62510943
-0.01362668 0.039641261 0.62475663
-0.013594712 0.038312376 0.62440586
-0.013562859 0.036989629 0.62405628
-0.01353119 0.035673171 0.62370872
-0.013499634 0.034362704 0.62336248
-0.013468225 0.033058375 0.62301779
-0.013436996 0.031760186 0.62267512
-0.013405877 0.030467898 0.62233365
-0.013374937 0.029181659 0.62199408
-0.013344103 0.027901351 0.6216557
-0.013313448 0.026626885 0.62131929
-0.013282898 0.025358289 0.62098408
-0.013252488 0.024095446 0.62065035
-0.013222251 0.022838444 0.62031853
-0.013192117 0.021587104 0.61998791
-0.013162155 0.020341516 0.61965907
-0.013132295 0.01910156 0.61933136
-0.013102603 0.017867208 0.61900556
-0.013073011 0.016638368 0.61868083
-0.013043554 0.015415072 0.6183576
-0.013014262 0.014197379 0.61803615
-0.012985067 0.01298508 0.61771578
-0.012956037 0.011778206 0.61739719
-0.012927103 0.010576725 0.61707968
-0.012898331 0.0093806088 0.61676395
-0.012869653 0.0081897676 0.61644924
-0.012841105 0.007004261 0.61613595
-0.012812714 0.00582394 0.6158244
-0.012784416 0.0046488643 0.61551386
-0.012756274 0.0034789741 0.61520505
-0.012728225 0.0023142099 0.61489725
-0.012700331 0.0011545718 0.61459112
-0.012672527 -0 0.61428607
-0.012644844 -0.0011495054 0.61398226
-0.012617313 -0.0022940636 0.61368018
-0.012589871 -0.0034335852 0.613379
-0.012562579 -0.0045682192 0.61307955
-0.012535375 -0.0056978762 0.61278099
-0.012508317 -0.0068227351 0.61248404
-0.012481348 -0.0079427063 0.6121881
-0.012454493 -0.0090578496 0.61189342
-0.012427783 -0.010168165 0.61160028
-0.012401159 -0.011273801 0.6113081
-0.012374677 -0.012374669 0.61101753
-0.01234828 -0.013470888 0.61072791
-0.012322024 -0.014562398 0.61043972
-0.012295851 -0.015649289 0.61015248
-0.012269787 -0.01673153 0.6098665
-0.012243864 -0.017809242 0.60958201
-0.01221802 -0.018882394 0.60929847
-0.012192314 -0.019951046 0.60901636
-0.012166689 -0.021015197 0.60873514
-0.012141197 -0.022074908 0.60845536
-0.012725416 0.050901681 0.62883091
-0.012694752 0.049509525 0.62846076
-0.012664202 0.048123986 0.62809205
-0.012633797 0.046745092 0.62772495
-0.012603572 0.045372844 0.62736011
-0.012573458 0.044007123 0.62699664
-0.012543521 0.042647958 0.62663525
-0.012513692 0.041295201 0.62627518
-0.012484039 0.03994891 0.6259172
-0.012454493 0.038608938 0.62556058
-0.012425086 0.037275255 0.62520564
-0.01239585 0.035947978 0.62485266
-0.01236672 0.034626842 0.62450111
-0.012337758 0.033311963 0.62415147
-0.0123089 0.032003134 0.62380314
-0.012280208 0.030700564 0.62345678
-0.012251618 0.029403865 0.62311172
-0.01222316 0.028113276 0.62276816
-0.012194867 0.026828706 0.62242663
-0.012166672 0.025550008 0.62208629
-0.012138639 0.02427727 0.62174791
-0.012110703 0.023010343 0.62141067
-0.012082926 0.021749258 0.62107539
-0.012055246 0.020493925 0.62074125
-0.012027692 0.019244313 0.62040865
-0.012000295 0.018000424 0.62007797
-0.011972992 0.016762167 0.61974841
-0.011945844 0.015529603 0.61942065
-0.011918786 0.014302582 0.61909401
-0.011891853 0.013081044 0.61876893
-0.01186507 0.01186505 0.61844563
-0.011838377 0.010654509 0.61812341
-0.011811836 0.009449482 0.61780304
-0.011785381 0.0082497597 0.61748374
-0.011759076 0.0070554316 0.61716616
-0.011732859 0.005866468 0.61684966
-0.011706757 0.0046827197 0.61653459
-0.011680801 0.0035042465 0.61622131
-0.011654931 0.0023309886 0.61590904
-0.011629204 0.0011629462 0.61559844
-0.01160356 -0 0.61528891
-0.01157806 -0.0011578202 0.61498117
-0.011552642 -0.0023105145 0.61467433
-0.011527335 -0.0034582019 0.6143688
-0.011502168 -0.0046008527 0.61406505
-0.011477082 -0.0057385266 0.6137622
-0.011452134 -0.0068712533 0.61346102
-0.011427265 -0.0079990923 0.61316085
-0.011402532 -0.009122014 0.61286223
-0.011377878 -0.010240078 0.61256468
-0.011353331 -0.011353314 0.61226839
-0.011328916 -0.012461841 0.6119737
-0.01130458 -0.013565511 0.61167991
-0.011280374 -0.014664471 0.61138773
-0.011256245 -0.015758753 0.61109644
-0.011232246 -0.016848385 0.61080682
-0.011208322 -0.017933309 0.61051804
-0.011184528 -0.019013733 0.6102308
-0.011160807 -0.020089447 0.60994446
-0.011137186 -0.021160632 0.60965931
-0.011544175 0.05130747 0.63005555
-0.011516137 0.049903274 0.62967944
-0.011488204 0.048505783 0.62930477
-0.011460404 0.047114998 0.62893188
-0.01143277 0.045731097 0.62856126
-0.011405239 0.044353694 0.62819201
-0.011377869 0.042983055 0.62782496
-0.011350602 0.041618854 0.62745923
-0.011323494 0.040261328 0.62709564
-0.011296485 0.038910151 0.62673336
-0.011269605 0.03756538 0.62637281
-0.011242882 0.036227077 0.62601441
-0.011216258 0.034895003 0.62565732
-0.011189787 0.033569336 0.62530231
-0.011163411 0.032249838 0.62494862
-0.01113719 0.030936658 0.62459683
-0.011111061 0.029629499 0.62424636
-0.011085085 0.028328568 0.62389803
-0.0110592 0.027033597 0.62355083
-0.011033436 0.025744706 0.6232053
-0.01100782 0.024461836 0.62286174
-0.010982295 0.023184836 0.62251937
-0.010956916 0.021913856 0.62217897
-0.010931626 0.020648628 0.62183976
-0.01090648 0.019389331 0.62150252
-0.010881423 0.018135667 0.62116641
-0.01085648 0.016887873 0.62083191
-0.010831677 0.015645772 0.62049925
-0.010806962 0.014409304 0.62016773
-0.010782386 0.013178498 0.61983812
-0.010757894 0.011953205 0.6195097
-0.010733541 0.010733515 0.619183
-0.010709271 0.0095193386 0.6188575
-0.01068511 0.008310616 0.61853343
-0.010661084 0.0071074069 0.61821121
-0.010637139 0.0059095323 0.61789
-0.010613329 0.0047170222 0.6175707
-0.010589598 0.0035298467 0.61725241
-0.010566 0.002347976 0.61693591
-0.01054248 0.0011713803 0.61662042
-0.010519065 -0 0.61630642
-0.01049578 -0.0011661947 0.6159941
-0.010472571 -0.0023272336 0.61568278
-0.010449491 -0.0034831464 0.61537325
-0.010426487 -0.0046340227 0.61506474
-0.010403609 -0.005779773 0.6147579
-0.010380806 -0.0069205761 0.614452
-0.010358103 -0.0080563128 0.61414754
-0.010335524 -0.0091871321 0.61384469
-0.010313018 -0.010313034 0.61354285
-0.010290635 -0.011434019 0.61324263
-0.010268324 -0.012550175 0.61294341
-0.010246134 -0.013661504 0.6126458
-0.010224015 -0.014768034 0.61234915
-0.010201992 -0.015869766 0.61205375
-0.010180088 -0.01696682 0.6117599
-0.010158254 -0.018059105 0.61146712
-0.010136536 -0.01914677 0.61117578
-0.010114888 -0.020229757 0.61088544
-0.010093356 -0.021308184 0.61059666
-0.010318627 0.05030328 0.63091767
-0.010293397 0.04889366 0.63053691
-0.010268318 0.047490954 0.63015854
-0.010243334 0.046095014 0.62978154
-0.010218498 0.044705927 0.62940681
-0.010193756 0.043323427 0.62903345
-0.010169133 0.041947693 0.62866187
-0.010144655 0.040578634 0.62829262
-0.010120268 0.039216012 0.62792462
-0.010096025 0.037860125 0.62755883
-0.010071871 0.036510527 0.62719434
-0.010047859 0.035167515 0.62683201
-0.010023935 0.033830792 0.6264711
-0.010000124 0.032500386 0.62611181
-0.0099764522 0.031176418 0.62575459
-0.0099528665 0.029858589 0.62539876
-0.0099294176 0.028547108 0.62504488
-0.0099060535 0.027241647 0.62469232
-0.0098828245 0.025942415 0.62434185
-0.0098596783 0.024649203 0.62399262
-0.0098366411 0.023362041 0.62364501
-0.0098137362 0.022080928 0.62329942
-0.0097909123 0.020805687 0.62295502
-0.0097682206 0.019536436 0.6226126
-0.0097456072 0.018272996 0.62227142
-0.0097230989 0.017015457 0.62193179
-0.0097007193 0.01576367 0.62159413
-0.0096784178 0.014517635 0.6212576
-0.009656243 0.013277352 0.62092304
-0.0096341446 0.012042671 0.62058961
-0.0096121728 0.010813713 0.62025803
-0.0095902756 0.0095902383 0.61992764
-0.0095685022 0.008372426 0.6195991
-0.0095468042 0.0071601272 0.6192717
-0.0095252031 0.0059532523 0.61894584
-0.009503725 0.0047518611 0.61862171
-0.0094823185 0.0035558641 0.61829877
-0.0094610322 0.0023652613 0.6179775
-0.0094398176 0.0011799932 0.61765736
-0.0094187222 -0 0.61733907
-0.0093976967 -0.0011747181 0.61702186
-0.0093767652 -0.0023442209 0.61670601
-0.0093559492 -0.0035085082 0.61639196
-0.0093352031 -0.0046676099 0.61607891
-0.0093145724 -0.0058216155 0.6157676
-0.0092940079 -0.0069705248 0.61545736
-0.0092735579 -0.0081143677 0.61514878
-0.0092531759 -0.0092531443 0.61484122
-0.0092328824 -0.010386974 0.61453497
-0.0092126997 -0.011515886 0.61423051
-0.0091925832 -0.012639791 0.61392689
-0.0091725765 -0.013758868 0.61362505
-0.009152635 -0.014873028 0.61332417
-0.0091328016 -0.015982389 0.61302483
-0.0091130314 -0.017086953 0.61272657
-0.0090933479 -0.018186688 0.61242956
-0.0090737697 -0.019281745 0.61213416
-0.0090542547 -0.020372063 0.61183965
-0.009034846 -0.021457762 0.61154687
-0.0091017615 0.050709814 0.6321758
-0.0090793278 0.049287766 0.63178897
-0.0090570292 0.047872871 0.6314044
-0.0090348152 0.046464771 0.63102138
-0.0090127345 0.045063704 0.63064063
-0.0089907367 0.043669313 0.63026124
-0.0089688711 0.042281806 0.62988418
-0.0089470865 0.040900946 0.62950861
-0.0089254081 0.03952682 0.62913471
-0.0089038583 0.0381594 0.62876308
-0.0088823885 0.036798477 0.62839288
-0.0088610463 0.03544417 0.62802482
-0.0088397814 0.034096301 0.62765813
-0.0088186432 0.032754958 0.62729365
-0.0087975822 0.031419933 0.62693042
-0.008776621 0.030091256 0.62656897
-0.0087557826 0.028769016 0.62620962
-0.0087350197 0.027452946 0.62585163
-0.0087143788 0.026143134 0.62549567
-0.0086938124 0.024839461 0.62514102
-0.0086733643 0.023541987 0.6247884
-0.0086529907 0.022250533 0.62443709
-0.0086327121 0.020965159 0.62408733
-0.0086125517 0.019685835 0.62373972
-0.0085924612 0.018412441 0.62339324
-0.0085724881 0.017144948 0.62304884
-0.0085525839 0.015883386 0.62270564
-0.0085327961 0.014627665 0.62236434
-0.0085130762 0.013377696 0.6220243
-0.0084934467 0.012133479 0.62168586
-0.0084739309 0.010895044 0.62134928
-0.0084544821 0.0096622705 0.62101388
-0.0084351432 0.0084351599 0.62068039
-0.0084158722 0.0072136223 0.6203481
-0.0083967093 0.005997628 0.62001765
-0.0083776135 0.0047872066 0.61968833
-0.0083586043 0.003582269 0.61936057
-0.0083397012 0.0023827851 0.61903459
-0.0083208634 0.0011886656 0.61870974
-0.0083021298 -0 0.61838669
-0.0082834614 -0.0011833608 0.61806476
-0.0082648965 -0.0023614168 0.61774462
-0.0082463948 -0.003534168 0.61742556
-0.0082279751 -0.004701674 0.61710793
-0.0082096588 -0.0058640838 0.61679208
-0.0081914021 -0.0070211887 0.61647719
-0.0081732478 -0.0081732571 0.61616415
-0.0081551531 -0.0093201697 0.61585212
-0.0081371581 -0.010462075 0.61554182
-0.0081192236 -0.011598885 0.61523259
-0.0081013665 -0.012730718 0.61492461
-0.008083608 -0.013857603 0.61461842
-0.0080659082 -0.014979541 0.61431319
-0.0080483053 -0.016096652 0.61400962
-0.0080307592 -0.017208755 0.61370707
-0.008013308 -0.01831615 0.61340612
-0.0079959137 -0.019418627 0.61310613
-0.0079785958 -0.020516396 0.61280757
-0.007961371 -0.021609455 0.6125105
-0.0078650685 0.051122934 0.63345456
-0.0078455471 0.049688488 0.63306177
-0.007826101 0.048260927 0.63267058
-0.0078067509 0.046840519 0.6322813
-0.0077875177 0.045427173 0.63189435
-0.0077683576 0.044020683 0.63150883
-0.007749313 0.042621195 0.63112575
-0.0077303401 0.041228473 0.63074398
-0.0077114813 0.039842665 0.6303646
-0.0076926928 0.038463473 0.62998658
-0.007673996 0.037090987 0.62961042
-0.0076554106 0.035725236 0.62923658
-0.0076368945 0.034366012 0.62886405
-0.0076184878 0.033013463 0.62849367
-0.0076001496 0.031667292 0.62812471
-0.0075819199 0.030327678 0.62775803
-0.0075637572 0.028994381 0.62739259
-0.0075456807 0.027667493 0.62702894
-0.0075277109 0.026347011 0.62666738
-0.0075098071 0.025032669 0.62630719
-0.0074920068 0.023724705 0.62594914
-0.007474272 0.02242282 0.62559229
-0.0074566402 0.021127135 0.62523758
-0.0074390718 0.019837499 0.62488413
-0.0074215862 0.018553942 0.6245324
-0.0074042017 0.017276466 0.62418258
-0.0073868795 0.01600489 0.62383407
-0.007369657 0.014739305 0.62348759
-0.007352496 0.01347959 0.62314236
-0.0073354328 0.012225747 0.62279904
-0.0073184306 0.010977626 0.62245703
-0.0073015071 0.0097353756 0.62211651
-0.0072846799 0.0084987879 0.62177807
-0.0072679119 0.0072679222 0.62144071
-0.0072512389 0.0060427189 0.62110519
-0.0072346246 0.0048230886 0.62077093
-0.0072181034 0.0036090314 0.62043858
-0.0072016404 0.0024005771 0.62010735
-0.0071852519 0.0011975467 0.61977768
-0.0071689556 -0 0.61944979
-0.0071527152 -0.0011921227 0.6191231
-0.0071365661 -0.0023788512 0.6187982
-0.0071204724 -0.003560245 0.61847436
-0.0071044685 -0.0047363043 0.6181525
-0.0070885182 -0.0059071183 0.61783159
-0.0070726406 -0.0070726275 0.61751211
-0.0070568509 -0.0082329512 0.61719441
-0.0070411135 -0.0093881488 0.61687785
-0.007025464 -0.010538191 0.61656296
-0.0070098671 -0.011683077 0.6162492
-0.0069943555 -0.012822986 0.61593717
-0.0069788964 -0.013957769 0.6156261
-0.0069635045 -0.015087605 0.61531645
-0.0069481977 -0.016212463 0.61500853
-0.0069329408 -0.017332345 0.61470157
-0.0069177682 -0.018447369 0.61439633
-0.0069026449 -0.019557476 0.61409205
-0.006887604 -0.020662814 0.61378944
-0.0068726121 -0.021763295 0.61348784
-0.006591524 0.050095588 0.63435507
-0.0065750526 0.048655361 0.63395739
-0.0065586814 0.047222525 0.63356209
-0.006542373 0.045796603 0.6331684
-0.0065261461 0.044377804 0.63277668
-0.0065100174 0.042966127 0.63238728
-0.0064939503 0.041561276 0.63199937
-0.0064779799 0.040163487 0.63161385
-0.0064620702 0.038772434 0.63122976
-0.0064462558 0.037388295 0.63084799
-0.0064305016 0.036010832 0.63046759
-0.0064148242 0.034640074 0.6300891
-0.0063992403 0.033276051 0.62971288
-0.0063837147 0.031918555 0.62933809
-0.0063682809 0.030567735 0.6289655
-0.0063529052 0.029223353 0.62859428
-0.0063376203 0.027885556 0.62822527
-0.0063223913 0.026554018 0.62785763
-0.0063072359 0.025228947 0.62749171
-0.0062921699 0.023910284 0.62712801
-0.0062771589 0.02259776 0.62676561
-0.0062622358 0.021291584 0.6264053
-0.0062473672 0.019991577 0.62604636
-0.0062325853 0.018697768 0.62568945
-0.0062178564 0.01741001 0.62533391
-0.0062031974 0.016128302 0.62497997
-0.0061886241 0.014852703 0.62462813
-0.006174102 0.013583004 0.62427759
-0.0061596646 0.012319326 0.62392902
-0.0061452785 0.011061519 0.62358171
-0.0061309747 0.0098095536 0.62323642
-0.0061167222 0.0085634291 0.62289226
-0.0061025359 0.0073230267 0.62254983
-0.0060884305 0.0060884058 0.62220931
-0.0060743745 0.0048595071 0.62186992
-0.0060603996 0.0036362112 0.62153256
-0.0060464726 0.0024185777 0.62119627
-0.0060326247 0.001206547 0.62086201
-0.0060188253 2.9802322e-08 0.62052888
-0.0060050883 -0.0012010336 0.62019724
-0.00599143 -0.0023965836 0.6198675
-0.0059778178 -0.0035866797 0.61953884
-0.0059642824 -0.0047714114 0.61921209
-0.0059507936 -0.0059508085 0.61888641
-0.0059373803 -0.007124871 0.61856258
-0.005924012 -0.0082935989 0.61823988
-0.0059107044 -0.0094571114 0.61791861
-0.0058974712 -0.010615438 0.61759913
-0.0058842818 -0.011768579 0.61728072
-0.0058711669 -0.012916565 0.6169641
-0.0058580949 -0.014059424 0.6166485
-0.005845096 -0.015197247 0.61633468
-0.0058321399 -0.016329974 0.61602187
-0.0058192415 -0.017457724 0.6157105
-0.0058064139 -0.018580526 0.61540079
-0.0057936287 -0.019698352 0.61509216
-0.0057809143 -0.02081129 0.61478519
-0.0057682404 -0.02191934 0.61447924
-0.0053167818 0.050509423 0.63566965
-0.0053033861 0.049056321 0.63526541
-0.0052900729 0.04761067 0.63486362
-0.0052768113 0.046172112 0.63446343
-0.0052636308 0.044740885 0.63406563
-0.0052505014 0.043316633 0.63366944
-0.0052374369 0.041899502 0.63327521
-0.0052244524 0.040489525 0.63288331
-0.0052115172 0.039086401 0.63249302
-0.0051986608 0.037690282 0.63210499
-0.0051858528 0.036300987 0.63171852
-0.005173122 0.034918576 0.63133436
-0.0051604402 0.033542871 0.63095164
-0.0051478199 0.032173902 0.63057077
-0.005135275 0.030811667 0.63019222
-0.0051227775 0.02945599 0.6298151
-0.0051103542 0.028106958 0.62944013
-0.0050979774 0.026764363 0.62906671
-0.0050856741 0.025428385 0.62869537
-0.0050734165 0.024098694 0.62832546
-0.005061218 0.022775501 0.62795728
-0.0050490913 0.021458626 0.62759137
-0.0050370088 0.020148039 0.62722677
-0.0050249975 0.01884374 0.62686431
-0.0050130305 0.017545611 0.62650317
-0.0050011333 0.01625368 0.62614411
-0.0049892794 0.014967829 0.62578636
-0.0049774814 0.013688087 0.62543035
-0.0049657524 0.012414396 0.62507641
-0.0049540652 0.011146665 0.62472367
-0.004942446 0.0098848939 0.62437308
-0.0049308683 0.0086290538 0.62402368
-0.0049193571 0.0073790252 0.6236763
-0.0049078874 0.0061348677 0.62333018
-0.0048964708 0.0048964918 0.62298566
-0.0048851199 0.0036638379 0.62264311
-0.0048738089 0.0024369061 0.62230176
-0.0048625623 0.0012156665 0.62196237
-0.0048513557 -0 0.62162417
-0.0048402124 -0.0012100637 0.62128794
-0.0048291082 -0.0024145544 0.62095284
-0.0048180548 -0.0036135316 0.62061918
-0.0048070643 -0.004807055 0.62028754
-0.004796111 -0.0059951544 0.61995697
-0.0047852201 -0.0071778297 0.61962837
-0.0047743665 -0.0083551407 0.61930084
-0.0047635739 -0.0095271468 0.6189751
-0.0047528185 -0.010693848 0.61865056
-0.0047421106 -0.011855274 0.61832738
-0.0047314633 -0.013011515 0.61800611
-0.0047208522 -0.01416254 0.61768585
-0.0047102999 -0.01530847 0.61736745
-0.0046997829 -0.016449243 0.61705011
-0.0046893246 -0.01758498 0.61673445
-0.0046789013 -0.01871559 0.61641991
-0.0046685352 -0.019841254 0.61610705
-0.004658204 -0.02096194 0.61579537
-0.004647918 -0.02207759 0.61548489
-0.0040208022 0.050930172 0.63700616
-0.0040105875 0.049463928 0.63659513
-0.004000436 0.048005223 0.63618672
-0.0039903247 0.046553791 0.63577986
-0.0039802752 0.045109808 0.63537544
-0.0039702654 0.043672919 0.63497269
-0.003960317 0.042243391 0.63457239
-0.0039504073 0.040820867 0.63417363
-0.0039405464 0.039405465 0.6337769
-0.0039307461 0.037997216 0.63338256
-0.0039209835 0.036595851 0.63298976
-0.0039112801 0.03520152 0.63259929
-0.0039016136 0.033813983 0.63221037
-0.0038920059 0.032433391 0.63182378
-0.0038824345 0.031059474 0.63143867
-0.0038729098 0.029692292 0.63105547
-0.0038634427 0.028331906 0.63067448
-0.003854011 0.026978105 0.63029498
-0.003844636 0.025630921 0.62991774
-0.0038352958 0.024290204 0.62954193
-0.0038260112 0.022956073 0.62916839
-0.0038167613 0.02162832 0.62879616
-0.0038075559 0.020306945 0.62842578
-0.0037984052 0.018992037 0.6280576
-0.0037892882 0.017683357 0.62769079
-0.0037802246 0.016380966 0.62732607
-0.0037711945 0.015084773 0.62696272
-0.0037622175 0.01379481 0.62660152
-0.003753273 0.012510926 0.62624162
-0.003744371 0.011233121 0.62588346
-0.0037355211 0.0099613667 0.62552738
-0.0037267029 0.008695662 0.6251725
-0.0037179361 0.0074358582 0.62481976
-0.0037092008 0.0061819851 0.62446827
-0.003700516 0.0049340427 0.6241188
-0.0036918623 0.0036918521 0.62377065
-0.0036832488 0.0024555027 0.62342405
-0.003674685 0.0012248755 0.62307954
-0.0036661515 -0 0.6227361
-0.003657667 -0.001219213 0.62239474
-0.0036492124 -0.0024327934 0.62205452
-0.0036408061 -0.0036408007 0.62171632
-0.0036324288 -0.004843235 0.62137926
-0.0036240905 -0.0060401261 0.62104368
-0.0036157989 -0.0072315931 0.62071013
-0.0036075367 -0.0084176064 0.62037766
-0.0035993208 -0.0095981956 0.62004703
-0.0035911335 -0.010773391 0.6197176
-0.0035829921 -0.011943281 0.61939001
-0.0035748787 -0.013107896 0.61906362
-0.0035668018 -0.014267206 0.61873859
-0.0035587703 -0.015421331 0.61841542
-0.0035507663 -0.01657024 0.61809337
-0.0035428067 -0.017714024 0.61777306
-0.0035348739 -0.018852621 0.61745393
-0.0035269856 -0.019986272 0.61713654
-0.0035191237 -0.021114767 0.61682016
-0.0027030508 0.051357985 0.63836509
-0.0026961344 0.049878478 0.63794768
-0.0026892449 0.048406392 0.63753188
-0.0026823985 0.046941996 0.6371187
-0.0026755796 0.045484871 0.63670707
-0.0026687949 0.044035107 0.63629758
-0.0026620524 0.042592853 0.63589066
-0.0026553359 0.041157722 0.63548529
-0.0026486611 0.039729923 0.63508236
-0.0026420122 0.038309187 0.63468111
-0.0026354038 0.036895663 0.63428229
-0.0026288214 0.035489082 0.63388497
-0.0026222714 0.034089506 0.63348967
-0.0026157615 0.032696992 0.63309675
-0.0026092764 0.031311333 0.63270533
-0.0026028308 0.029932559 0.63231635
-0.0025964098 0.028560489 0.63192874
-0.0025900274 0.027195305 0.63154352
-0.0025836693 0.025836676 0.63115984
-0.0025773421 0.024484754 0.63077796
-0.0025710531 0.023139447 0.63039839
-0.0025647876 0.021800667 0.6300202
-0.0025585596 0.020468473 0.62964433
-0.0025523549 0.019142687 0.62926984
-0.002546187 0.017823339 0.62889755
-0.0025400419 0.016510278 0.62852669
-0.0025339266 0.015203565 0.62815762
-0.0025278474 0.013903171 0.62779069
-0.0025217903 0.012608945 0.62742507
-0.0025157693 0.011320949 0.62706167
-0.0025097702 0.010039091 0.62669957
-0.002503806 0.0087633133 0.62633967
-0.0024978637 0.0074935853 0.62598097
-0.0024919496 0.0062298775 0.62562406
-0.0024860699 0.0049721301 0.62526917
-0.0024802112 0.0037203133 0.62491554
-0.0024743867 0.0024743974 0.62456399
-0.0024685829 0.0012343228 0.6242137
-0.0024628129 -0 0.62386549
-0.0024570632 -0.0012285411 0.62351847
-0.0024513404 -0.0024513304 0.62317306
-0.0024456505 -0.0036684573 0.62282968
-0.0024399809 -0.0048799813 0.62248743
-0.0024343436 -0.0060858727 0.6221472
-0.0024287258 -0.007286191 0.62180817
-0.0024231402 -0.0084809959 0.62147099
-0.0024175744 -0.0096702874 0.62113512
-0.0024120337 -0.010854155 0.62080067
-0.0024065247 -0.012032658 0.6204682
-0.0024010346 -0.013205707 0.62013686
-0.0023955756 -0.014373451 0.61980736
-0.0023901353 -0.015535861 0.619479
-0.0023847257 -0.016693085 0.61915249
-0.0023793345 -0.017845035 0.6188271
-0.0023739736 -0.018991768 0.61850357
-0.0023686308 -0.020133376 0.61818105
-0.0023633123 -0.021269798 0.61786008
-0.001359457 0.050299913 0.63932258
-0.0013559541 0.048814356 0.63889968
-0.0013524732 0.047336549 0.63847947
-0.001349006 0.045866221 0.63806105
-0.0013455605 0.044403493 0.63764507
-0.0013421288 0.042948127 0.63723087
-0.0013387146 0.041500151 0.63681871
-0.0013353213 0.040059656 0.6364091
-0.0013319416 0.038626313 0.63600111
-0.0013285825 0.037200332 0.63559568
-0.0013252367 0.035781384 0.6351918
-0.0013219113 0.034369707 0.63479036
-0.0013185991 0.032964975 0.63439059
-0.0013153033 0.031567305 0.63399267
-0.0013120276 0.03017664 0.63359731
-0.0013087646 0.028792828 0.63320339
-0.0013055213 0.027415931 0.6328119
-0.0013022905 0.026045829 0.63242197
-0.0012990792 0.024682492 0.6320343
-0.0012958802 0.023325831 0.63164818
-0.0012926969 0.021975845 0.63126391
-0.0012895328 0.020632505 0.63088197
-0.0012863805 0.019295692 0.63050139
-0.001283247 0.017965496 0.63012314
-0.0012801253 0.016641647 0.62974638
-0.0012770223 0.015324265 0.62937182
-0.0012739309 0.014013261 0.62899864
-0.0012708544 0.012708515 0.6286273
-0.001267796 0.011410177 0.62825811
-0.0012647491 0.010118008 0.62789029
-0.0012617201 0.0088320374 0.62752467
-0.0012587021 0.0075522065 0.62716031
-0.001255702 0.0062785447 0.62679821
-0.0012527128 0.0050108731 0.62643731
-0.0012497378 0.0037492216 0.62607831
-0.0012467802 0.0024935603 0.62572128
-0.0012438332 0.0012438297 0.6253655
-0.0012409034 -0 0.62501192
-0.0012379842 -0.0012379885 0.62465948
-0.0012350818 -0.0024701655 0.62430912
-0.0012321899 -0.0036965311 0.62396002
-0.0012293115 -0.0049172342 0.62361258
-0.0012264496 -0.0061322749 0.62326717
-0.0012235978 -0.0073415935 0.6229229
-0.0012207626 -0.0085453391 0.62258065
-0.0012179372 -0.0097435415 0.62223959
-0.001215128 -0.010936171 0.6219005
-0.0012123286 -0.012123287 0.6215626
-0.001209542 -0.013304949 0.62122619
-0.0012067714 -0.014481246 0.62089175
-0.0012040103 -0.01565215 0.6205585
-0.001201265 -0.016817659 0.62022704
-0.001198529 -0.017977953 0.61989683
-0.0011958086 -0.019132942 0.61956847
-0.0011930974 -0.020282656 0.61924118
-0.0011904015 -0.021427244 0.61891574
0 0.05072853 0.64072084
0 0.049229234 0.6402908
0 0.047737837 0.63986343
0 0.046253979 0.63943779
0 0.04477796 0.63901484
0 0.04330942 0.63859361
0 0.041848481 0.63817495
0 0.040394872 0.63775802
0 0.038948745 0.63734317
0 0.037510037 0.63693094
0 0.036078542 0.63652033
0 0.034654409 0.63611221
0 0.033237368 0.63570571
0 0.031827539 0.63530177
0 0.030424744 0.63489938
0 0.029028952 0.63449901
0 0.027640224 0.63410109
0 0.026258349 0.63370466
0 0.024883389 0.63331074
0 0.023515254 0.63291824
0 0.022153944 0.63252813
0 0.02079922 0.6321395
0 0.019451171 0.63175285
0 0.018109918 0.63136852
0 0.016775131 0.63098562
0 0.015446872 0.63060504
0 0.014125079 0.63022584
0 0.012809753 0.62984902
0 0.011500776 0.62947357
0 0.010198146 0.62909985
0 0.0089018047 0.62872845
0 0.0076117516 0.62835836
0 0.0063278973 0.62799048
0 0.0050501823 0.62762392
0 0.003778547 0.62725961
0 0.002513051 0.62689656
0 0.0012535155 0.62653524
0 -0 0.626176
0 -0.001247555 0.62581819
0 -0.0024892986 0.62546241
0 -0.0037250817 0.62510788
0 -0.0049551427 0.62475544
0 -0.0061793625 0.62440425
0 -0.0073978305 0.62405473
0 -0.0086106658 0.62370723
0 -0.0098178089 0.62336093
0 -0.011019349 0.62301666
0 -0.012215316 0.62267363
0 -0.0134058 0.62233251
0 -0.014590681 0.62199259
0 -0.015770108 0.62165421
0 -0.01694423 0.6213178
0 -0.018112838 0.62098253
0 -0.019276172 0.62064922
0 -0.020434201 0.6203171
0 -0.021586925 0.61998677
0.0013828244 0.051164508 0.64214325
0.0013792042 0.049651355 0.64170623
0.0013755988 0.04814598 0.641271
0.0013720125 0.046648413 0.64083815
0.0013684486 0.045158833 0.64040792
0.0013648993 0.043676823 0.63997948
0.0013613721 0.042202562 0.63955373
0.0013578593 0.040735811 0.6391297
0.0013543686 0.039276719 0.63870835
0.0013508918 0.037824988 0.63828868
0.0013474328 0.036380708 0.63787115
0.0013439953 0.034943908 0.63745618
0.0013405716 0.033514321 0.63704282
0.001337169 0.032092065 0.63663208
0.0013337799 0.030676961 0.63622302
0.0013304115 0.02926904 0.63581645
0.0013270566 0.027868211 0.6354115
0.0013237185 0.026474386 0.63500851
0.0013204007 0.025087625 0.63460809
0.0013170959 0.023707718 0.6342091
0.0013138113 0.022334784 0.63381261
0.0013105394 0.020968616 0.63341767
0.0013072874 0.019609332 0.63302511
0.0013040479 0.018256664 0.63263404
0.0013008243 0.016910732 0.63224494
0.0012976202 0.015571475 0.63185817
0.0012944284 0.014238685 0.63147289
0.0012912557 0.012912571 0.63108993
0.001288095 0.011592805 0.63070846
0.0012849533 0.010279655 0.63032913
0.0012818234 0.0089727342 0.6299513
0.0012787087 0.0076722801 0.62957537
0.0012756125 0.0063780546 0.62920159
0.0012725279 0.0050901175 0.6288293
0.0012694615 0.003808409 0.6284591
0.0012664065 0.0025328398 0.62809038
0.0012633696 0.0012633801 0.62772375
0.0012603438 -0 0.62735856
0.0012573324 -0.0012573004 0.62699503
0.0012543388 -0.0025086701 0.62663364
0.0012513561 -0.0037540793 0.62627363
0.0012483908 -0.0049935579 0.62591565
0.0012454363 -0.0062271655 0.62555897
0.0012424989 -0.0074549615 0.62520444
0.0012395721 -0.0086770058 0.62485117
0.0012366591 -0.0098932981 0.62449956
0.0012337631 -0.011103868 0.62414992
0.0012308772 -0.012308776 0.62380159
0.0012280081 -0.013508081 0.62345529
0.0012251491 -0.014701813 0.62311018
0.0012223065 -0.015890002 0.62276703
0.001219474 -0.017072648 0.62242508
0.0012166578 -0.01824984 0.62208515
0.0012138514 -0.019421607 0.62174642
0.001211061 -0.020588011 0.6214096
0.0012082803 -0.021749049 0.6210739
0.0027822575 0.050080627 0.64314568
0.0027749217 0.048561156 0.64270294
0.0027676327 0.047049791 0.642263
0.0027603742 0.045546204 0.64182484
0.0027531534 0.044050485 0.64138907
0.0027459781 0.042562664 0.64095604
0.0027388323 0.041082501 0.64052474
0.0027317314 0.039610088 0.64009619
0.0027246596 0.038145214 0.6396693
0.0027176319 0.03668803 0.63924515
0.0027106327 0.035238236 0.63882273
0.0027036695 0.033795893 0.63840246
0.0026967495 0.032361001 0.63798481
0.0026898573 0.03093338 0.63756883
0.0026830079 0.029513091 0.63715541
0.0026761857 0.028099954 0.63674361
0.0026694057 0.02669403 0.63633448
0.0026626524 0.025295168 0.63592684
0.0026559331 0.02390343 0.63552129
0.0026492549 0.022518665 0.63511825
0.0026426031 0.021140814 0.63471675
0.0026359919 0.019769937 0.63431776
0.0026294063 0.018405855 0.63392025
0.0026228609 0.017048597 0.63352525
0.0026163408 0.015698016 0.63313168
0.0026098529 0.014354199 0.63274014
0.0026034045 0.013017058 0.63235092
0.0025969804 0.011686414 0.63196319
0.0025905953 0.010362357 0.63157785
0.0025842343 0.0090447962 0.63119388
0.0025779116 0.0077337325 0.63081229
0.0025716128 0.0064290166 0.63043213
0.0025653446 0.0051306784 0.63005382
0.002559114 0.0038386881 0.62967777
0.0025529065 0.0025528967 0.6293031
0.002546736 0.0012733638 0.62893069
0.0025405881 -0 0.62855965
0.002534477 -0.0012672246 0.62819076
0.0025283883 -0.0025283694 0.62782329
0.0025223289 -0.003783524 0.62745762
0.0025163051 -0.005032599 0.62709403
0.0025103034 -0.006275773 0.62673181
0.0025043369 -0.0075130165 0.62637168
0.002498392 -0.008744359 0.62601292
0.0024924818 -0.0099699199 0.62565613
0.0024865931 -0.01118964 0.62530071
0.002480732 -0.012403637 0.62494701
0.002474905 -0.013611972 0.62459528
0.0024690989 -0.014814615 0.62424487
0.0024633266 -0.016011626 0.62389648
0.0024575745 -0.017203003 0.62354928
0.0024518555 -0.018388897 0.62320411
0.0024461569 -0.019569248 0.62286019
0.0024404912 -0.020744205 0.62251824
0.0024348451 -0.021913618 0.62217748
0.0042097839 0.05051744 0.64461017
0.004198588 0.048983514 0.64415967
0.0041874638 0.047457933 0.6437121
0.0041763862 0.04594025 0.64326638
0.0041653793 0.044430703 0.64282352
0.0041544177 0.042928964 0.64238244
0.0041435142 0.041435122 0.64194369
0.0041326797 0.039949238 0.64150774
0.0041218894 0.038470954 0.64107358
0.004111167 0.037000477 0.64064217
0.0041004894 0.035537571 0.64021248
0.0040898779 0.034082323 0.63978559
0.0040793102 0.032634497 0.63936031
0.0040687965 0.031194121 0.63893735
0.0040583485 0.029761225 0.6385169
0.0040479423 0.028335631 0.63809818
0.0040376014 0.026917368 0.63768208
0.0040273014 0.025506228 0.63726765
0.0040170653 0.02410242 0.63685578
0.0040068696 0.022705585 0.63644558
0.0039967257 0.021315873 0.63603735
0.0039866441 0.019933194 0.63563174
0.0039766021 0.018557519 0.63522768
0.0039666221 0.017188698 0.63482606
0.0039566807 0.015826702 0.63442612
0.0039467998 0.014471591 0.63402855
0.0039369576 0.013123184 0.63363254
0.0039271638 0.011781514 0.63323843
0.0039174296 0.010446489 0.63284677
0.0039077331 0.0091180205 0.6324566
0.0038980949 0.0077961981 0.63206875
0.0038884934 0.006480813 0.63168246
0.0038789499 0.0051719546 0.63129842
0.0038694425 0.0038694441 0.63091588
0.0038599817 0.0025733411 0.63053524
0.0038505776 0.0012834966 0.63015687
0.0038412085 -0 0.62977982
0.0038318955 -0.0012772679 0.62940514
0.003822617 -0.0025483966 0.62903184
0.0038133936 -0.003813386 0.62866068
0.0038042048 -0.0050722659 0.62829095
0.0037950596 -0.0063250959 0.62792301
0.003785969 -0.0075719059 0.62755722
0.0037769112 -0.008812815 0.62719274
0.0037679069 -0.010047734 0.62683046
0.0037589357 -0.011276811 0.62646943
0.0037500167 -0.012500077 0.62611055
0.0037411302 -0.013717473 0.62575305
0.0037322952 -0.014929205 0.62539756
0.0037234924 -0.016135156 0.62504339
0.003714741 -0.017335445 0.62469119
0.0037060203 -0.018530101 0.6243403
0.0036973411 -0.019719124 0.62399107
0.0036887117 -0.020902693 0.62364382
0.0056624296 0.050961882 0.64610052
0.0056472379 0.049413353 0.64564204
0.0056321444 0.047873229 0.6451866
0.0056171152 0.046341211 0.64473307
0.0056021819 0.044817477 0.6442824
0.0055873119 0.043301672 0.64383358
0.0055725365 0.041794032 0.64338779
0.005557823 0.0402942 0.64294374
0.0055431877 0.038802326 0.64250201
0.0055286447 0.037318349 0.6420632
0.0055141617 0.035842061 0.64162612
0.0054997699 0.034373552 0.64119178
0.0054854378 0.032912642 0.64075929
0.005471196 0.031459391 0.64032954
0.005457012 0.030013561 0.63990152
0.0054429015 0.028575212 0.63947564
0.0054288795 0.027144402 0.63905245
0.0054149134 0.025720835 0.63863105
0.0054010353 0.024304658 0.63821226
0.0053872121 0.022895664 0.63779509
0.0053734756 0.021493882 0.63738054
0.0053597931 0.020099223 0.63696766
0.0053461795 0.018711627 0.63655686
0.0053326511 0.017331094 0.63614857
0.0053191758 0.015957505 0.63574195
0.0053057824 0.014590889 0.63533771
0.0052924426 0.013231099 0.63493514
0.0052791839 0.011878163 0.63453501
0.0052659768 0.010531932 0.63413644
0.0052528502 0.0091924965 0.63374031
0.0052397745 0.0078596771 0.63334572
0.0052267639 0.0065334439 0.63295311
0.0052138316 0.0052138567 0.63256288
0.0052009495 0.0039007366 0.63217407
0.0051881443 0.0025940835 0.63178766
0.0051753884 0.0012938678 0.63140273
0.0051626954 -0 0.63101965
0.0051500779 -0.0012875199 0.63063896
0.0051375083 -0.0025687516 0.63025963
0.0051250136 -0.0038437545 0.62988257
0.0051125661 -0.0051125586 0.62950695
0.005100192 -0.0063752234 0.62913346
0.0050878641 -0.0076318085 0.62876147
0.0050755963 -0.0088822842 0.62839127
0.0050634006 -0.010126829 0.62802321
0.0050512496 -0.011365294 0.62765646
0.0050391709 -0.012597919 0.62729204
0.0050271358 -0.013824612 0.62692881
0.0050151721 -0.015045524 0.62656778
0.0050032516 -0.016260564 0.62620807
0.0049914005 -0.017469913 0.62585044
0.0049795927 -0.01867348 0.62549406
0.0049678534 -0.019871414 0.62513977
0.0049561565 -0.021063656 0.62478685
0.0071408632 0.051414222 0.64761722
0.0071215569 0.049850881 0.64715117
0.0071023339 0.048295885 0.64668703
0.0070832139 0.046749204 0.64622551
0.0070642182 0.045210987 0.64576685
0.0070453025 0.043680876 0.64531022
0.0070265094 0.042159051 0.64485651
0.0070077954 0.040645212 0.64440477
0.0069892011 0.039139539 0.64395583
0.0069706854 0.037641704 0.64350879
0.0069522667 0.036151767 0.64306414
0.0069339662 0.034669787 0.64262235
0.0069157411 0.033195525 0.64218235
0.0068976311 0.031729102 0.64174515
0.006879597 0.030270219 0.64130974
0.0068616755 0.028819054 0.64087707
0.0068438281 0.027375281 0.64044619
0.0068260734 0.025939047 0.64001757
0.00680843 0.024510384 0.63959157
0.0067908582 0.023088902 0.63916743
0.0067733955 0.021674871 0.63874584
0.0067560039 0.020268023 0.63832593
0.0067387205 0.018868446 0.6379087
0.0067215064 0.017475933 0.63749307
0.0067043793 0.016090512 0.6370796
0.006687359 0.014712214 0.63666868
0.0066704052 0.013340801 0.63625938
0.0066535566 0.011976361 0.63585263
0.0066367742 0.010618865 0.63544744
0.0066200942 0.0092681348 0.63504481
0.0066034794 0.0079241693 0.63464367
0.0065869484 0.0065869391 0.63424456
0.006570518 0.0052564144 0.63384789
0.0065541514 0.003932476 0.63345277
0.0065378835 0.0026151538 0.63306004
0.006521679 0.0013043284 0.63266885
0.0065055722 -0 0.63227999
0.0064895269 -0.0012979209 0.63189256
0.0064735608 -0.0025894344 0.63150716
0.0064576901 -0.0038745999 0.63112396
0.00644188 -0.005153507 0.63074225
0.0064261644 -0.0064261556 0.63036293
0.006410508 -0.0076926053 0.62998492
0.0063949446 -0.0089529157 0.62960917
0.00637944 -0.010207117 0.62923485
0.006364027 -0.011455268 0.6288628
0.0063486714 -0.012697339 0.62849206
0.0063333903 -0.01393348 0.62812316
0.006318199 -0.01516366 0.62775636
0.0063030641 -0.016387969 0.62739098
0.0062880171 -0.017606467 0.62702775
0.0062730256 -0.018819094 0.62666583
0.0062581226 -0.020025969 0.626306
0.0062432736 -0.021227121 0.62594748
0.0086221937 0.050296158 0.64868671
0.0085987123 0.048726052 0.64821434
0.0085753854 0.047164619 0.64774501
0.0085521583 0.045611531 0.64727771
0.0085290819 0.044066966 0.64681345
0.0085061044 0.042530537 0.6463511
0.0084832506 0.041002423 0.64589137
0.008460544 0.039482534 0.64543456
0.0084379343 0.037970722 0.64497972
0.008415469 0.036467046 0.64452773
0.0083930995 0.034971237 0.64407772
0.0083708726 0.033483475 0.6436305
0.0083487388 0.032003522 0.64318526
0.0083267214 0.030531317 0.64274228
0.0083048446 0.02906695 0.64230216
0.0082830582 0.027610183 0.64186382
0.0082614087 0.026161134 0.64142823
0.0082398495 0.024719566 0.64099455
0.0082184263 0.023285568 0.64056355
0.0081970897 0.021858901 0.64013433
0.0081758639 0.020439655 0.63970727
0.0081547713 0.019027829 0.63928288
0.0081337644 0.017623186 0.63886023
0.0081128888 0.016225755 0.63844031
0.0080920961 0.014835507 0.63802195
0.0080714328 0.013452351 0.63760626
0.0080508525 0.012076259 0.63719225
0.0080303755 0.01070717 0.63678026
0.008010027 0.0093450248 0.63637084
0.0079897577 0.007989794 0.63596308
0.0079696132 0.0066413283 0.63555777
0.0079495478 0.0052997172 0.63515413
0.0079296054 0.0039647818 0.63475293
0.0079097403 0.0026365817 0.63435322
0.0078899749 0.0013149977 0.6339556
0.0078703305 2.9802322e-08 0.63356036
0.0078507606 -0.0013084412 0.63316667
0.0078313109 -0.002610445 0.63277543
0.0078119342 -0.003905952 0.63238561
0.0077926759 -0.0051950812 0.63199806
0.0077734906 -0.0064779222 0.63161212
0.007754399 -0.0077543855 0.63122803
0.0077354228 -0.0090246499 0.63084626
0.0077165184 -0.010288715 0.63046592
0.0076977266 -0.011546582 0.63008785
0.0076790047 -0.012798339 0.62971127
0.0076603955 -0.014044046 0.62933683
0.0076418547 -0.015283704 0.62896383
0.0076234248 -0.016517431 0.62859303
0.0076050628 -0.017745167 0.6282236
0.0075868093 -0.018967003 0.62785637
0.0075686225 -0.020183027 0.62749052
0.0075505441 -0.02139321 0.62712675
0.010149878 0.050749391 0.65024996
0.010121987 0.049163938 0.64976895
0.010094281 0.047587335 0.64929122
0.010066696 0.046019167 0.64881551
0.01003929 0.04445973 0.64834297
0.010012005 0.042908609 0.64787239
0.0099848956 0.041365981 0.64740491
0.009957904 0.039831638 0.64693952
0.0099310577 0.038305491 0.64647657
0.0099043855 0.036787719 0.6460166
0.009877827 0.035277963 0.6455586
0.0098514399 0.033776343 0.64510357
0.0098251635 0.03228265 0.64465046
0.0097990558 0.030797035 0.64420021
0.0097730588 0.029319197 0.64375192
0.0097471988 0.027849138 0.64330596
0.0097215027 0.026386976 0.64286286
0.0096959146 0.024932355 0.6424216
0.0096704885 0.023485482 0.64198321
0.0096451687 0.022046089 0.64154655
0.0096200071 0.020614326 0.64111263
0.0095949499 0.019189894 0.64068055
0.0095700221 0.017772883 0.64025068
0.0095452517 0.016363293 0.63982356
0.0095205819 0.014960915 0.6393981
0.0094960658 0.013565809 0.63897538
0.0094716493 0.012177855 0.63855433
0.0094473846 0.010796994 0.63813591
0.0094232168 0.0094232261 0.63771909
0.0093991728 0.0080564618 0.63730448
0.0093752779 0.0066966116 0.63689244
0.009351477 0.0053436756 0.636482
0.0093278233 0.0039976239 0.63607413
0.0093042636 0.0026583672 0.6356678
0.0092808474 0.0013258159 0.63526404
0.0092575233 -0 0.63486183
0.0092343166 -0.00131917 0.63446164
0.0092112515 -0.0026318133 0.63406396
0.0091882749 -0.0039378405 0.63366765
0.0091654388 -0.0052373707 0.6332739
0.0091426903 -0.0065304637 0.63288164
0.0091200797 -0.0078172088 0.63249171
0.0090975566 -0.0090975761 0.63210332
0.0090751676 -0.010371566 0.63171721
0.0090528652 -0.011639416 0.63133264
0.0090306718 -0.012900949 0.63094991
0.0090086116 -0.014156371 0.63056946
0.0089866342 -0.015405655 0.63019055
0.0089647872 -0.016648889 0.62981379
0.0089430232 -0.017886072 0.62943852
0.0089213885 -0.019117266 0.62906539
0.008899834 -0.020342469 0.6286937
0.0088784071 -0.021561831 0.62832421
0.011705345 0.05121088 0.65184164
0.011672925 0.049609959 0.65135241
0.011640649 0.048017681 0.65086538
0.01160855 0.046434224 0.65038109
0.011576664 0.044859588 0.64989996
0.011544917 0.043293417 0.64942086
0.011513378 0.041736007 0.64894503
0.011481978 0.040186942 0.64847124
0.011450781 0.0386464 0.64800048
0.011419721 0.037114084 0.64753181
0.011388827 0.035590112 0.64706576
0.011358135 0.034074426 0.64660257
0.011327573 0.032566756 0.64614147
0.011297209 0.031067342 0.64568329
0.011266976 0.029575795 0.64522707
0.011236935 0.028092325 0.64477384
0.011207021 0.026616663 0.64432251
0.011177268 0.025148869 0.64387351
0.011147703 0.023688883 0.64342743
0.011118262 0.022236496 0.6429832
0.011089008 0.020791888 0.64254177
0.011059877 0.01935482 0.64210218
0.01103093 0.017925233 0.64166546
0.011002101 0.016503155 0.64123046
0.010973424 0.015088469 0.64079773
0.010944926 0.013681173 0.64036775
0.010916546 0.01228112 0.63993949
0.010888343 0.010888338 0.63951397
0.010860254 0.0095027387 0.63909018
0.010832341 0.0081242621 0.63866895
0.01080454 0.0067528486 0.63824952
0.010776882 0.0053884685 0.63783216
0.010749395 0.0040310323 0.63741744
0.010722018 0.0026805103 0.63700438
0.01069481 0.0013368726 0.63659382
0.01066771 -0 0.63618493
0.010640776 -0.0013300776 0.63577849
0.010613949 -0.0026535094 0.63537371
0.010587256 -0.0039702356 0.63497096
0.010560727 -0.0052803159 0.6345706
0.010534301 -0.0065839291 0.6341719
0.010508036 -0.0078810453 0.63377559
0.010481874 -0.0091716349 0.63338083
0.010455869 -0.010455847 0.63298845
0.010429964 -0.011733681 0.63259757
0.010404217 -0.013005257 0.63220912
0.010378568 -0.014270514 0.63182205
0.010353073 -0.015529603 0.63143742
0.010327675 -0.016782463 0.63105416
0.010302401 -0.018029183 0.63067281
0.010277279 -0.019269884 0.63029373
0.010252251 -0.020504504 0.62991607
0.010227372 -0.021733165 0.62954068
0.01325222 0.050063938 0.65296429
0.013215241 0.048455924 0.65246832
0.013178512 0.04685697 0.65197563
0.013141942 0.045266658 0.6514852
0.013105577 0.043685257 0.65099746
0.013069452 0.042112678 0.65051293
0.013033486 0.040548652 0.65003055
0.012997756 0.038993269 0.64955139
0.012962184 0.03744632 0.6490742
0.012926845 0.035907894 0.64860028
0.012891657 0.034377754 0.64812833
0.012856662 0.032855898 0.64765894
0.012821894 0.031342417 0.64719266
0.012787275 0.029836982 0.64672834
0.012752882 0.028339744 0.646267
0.012718635 0.026850432 0.64580768
0.012684609 0.025369227 0.64535129
0.012650727 0.02389583 0.64489686
0.012617026 0.022430271 0.64444482
0.012583541 0.02097255 0.64399576
0.012550196 0.019522488 0.64354855
0.012517063 0.018080205 0.6431042
0.012484069 0.016645432 0.64266169
0.012451286 0.015218228 0.64222193
0.012418637 0.013798475 0.64178407
0.012386159 0.012386143 0.64134842
0.012353887 0.010981232 0.64091557
0.012321746 0.0095835626 0.64048445
0.012289808 0.0081931949 0.64005613
0.012257999 0.0068100095 0.63962948
0.012226392 0.0054339468 0.63920552
0.01219491 0.0040649772 0.63878334
0.01216359 0.002703011 0.63836324
0.012132465 0.0013480484 0.63794583
0.012101465 -2.9802322e-08 0.63753003
0.012070657 -0.0013411939 0.63711679
0.012039972 -0.0026755631 0.63670528
0.012009476 -0.0040031374 0.63629621
0.0119791 -0.0053240359 0.63588881
0.011948878 -0.0066382587 0.6354835
0.011918841 -0.007945925 0.63508064
0.011888921 -0.0092469454 0.63467932
0.011859185 -0.010541469 0.63428044
0.011829564 -0.011829585 0.63388324
0.011800123 -0.013111264 0.6334883
0.011770797 -0.014386535 0.63309503
0.011741647 -0.015655518 0.63270402
0.01171261 -0.016918212 0.63231456
0.011683747 -0.018174708 0.63192743
0.011654995 -0.019425005 0.63154185
0.011626416 -0.020669162 0.63115847
0.011597945 -0.02190724 0.63077664
0.014860686 0.050526321 0.65460593
0.014818838 0.048902124 0.65410078
0.014777272 0.047287285 0.65359908
0.014735891 0.045681238 0.65309954
0.014694788 0.04408434 0.65260339
0.014653868 0.042496234 0.65210938
0.014613176 0.04091689 0.65161818
0.014572754 0.039346427 0.65113026
0.01453251 0.037784517 0.65064454
0.014492531 0.036231369 0.65016186
0.014452729 0.034686536 0.64968145
0.014413188 0.033150345 0.64920413
0.014373819 0.03162241 0.64872897
0.014334665 0.030102789 0.6482563
0.014295768 0.028591543 0.64778674
0.014257036 0.027088374 0.6473192
0.014218559 0.0255934 0.64685476
0.014180244 0.024106443 0.64639223
0.014142178 0.022627503 0.64593279
0.014104275 0.021156371 0.64547527
0.014066573 0.019693226 0.64502013
0.014029114 0.018237859 0.64456797
0.013991812 0.016790181 0.64411771
0.01395475 0.015350223 0.64367032
0.013917843 0.013917834 0.64322478
0.013881171 0.012493074 0.64278209
0.013844651 0.011075735 0.64234126
0.013808364 0.0096658766 0.64190328
0.013772226 0.0082633793 0.64146703
0.013736276 0.0068681538 0.64103305
0.013700554 0.0054802299 0.64060187
0.013664978 0.0040994883 0.64017248
0.013629625 0.002725929 0.63974565
0.013594414 0.0013594329 0.63932073
0.013559424 -0 0.63889825
0.013524576 -0.0013524592 0.63847762
0.013489906 -0.0026980042 0.63805914
0.013455451 -0.0040366054 0.63764322
0.013421136 -0.0053684711 0.63722897
0.013387032 -0.0066935122 0.63681734
0.013353063 -0.0080118477 0.63640732
0.013319302 -0.0093235075 0.63599974
0.013285676 -0.010628521 0.63559383
0.013252256 -0.011927009 0.63519049
0.013218966 -0.013218969 0.63478857
0.013185844 -0.014504403 0.6343888
0.013152923 -0.015783519 0.63399142
0.01312013 -0.017056167 0.63359559
0.013087536 -0.018322557 0.63320214
0.013055068 -0.01958257 0.63281018
0.013022797 -0.020836473 0.6324206
0.016499141 0.050997347 0.65627813
0.016452247 0.049356759 0.65576351
0.016405672 0.047725588 0.65525246
0.016359307 0.046103507 0.65474367
0.016313255 0.044490695 0.65423834
0.016267411 0.042886823 0.65373528
0.016221873 0.041292042 0.65323544
0.016176542 0.039706051 0.65273803
0.016131461 0.038128883 0.65224338
0.016086681 0.036560625 0.65175194
0.0160421 0.03500098 0.6512627
0.015997814 0.033450007 0.6507768
0.015953723 0.031907469 0.65029287
0.015909923 0.030373484 0.64981222
0.015866315 0.028847814 0.64933372
0.015822945 0.027330548 0.64885777
0.015779858 0.025821596 0.64838499
0.01573696 0.024320751 0.64791423
0.015694341 0.022828132 0.64744651
0.015651904 0.021343499 0.64698088
0.015609744 0.019866943 0.64651823
0.015567764 0.018398255 0.64605749
0.015526009 0.016937494 0.64559925
0.015484523 0.015484512 0.64514405
0.015443211 0.014039308 0.64469069
0.015402167 0.012601763 0.64424032
0.015361294 0.011171848 0.64379179
0.015320682 0.0097495317 0.64334607
0.01528024 0.0083346665 0.64290237
0.015240011 0.0069272816 0.64246088
0.015200037 0.0055272877 0.64202219
0.015160229 0.004134655 0.64158535
0.015120672 0.0027492046 0.64115131
0.015081278 0.001371026 0.64071894
0.015042132 -0 0.64028937
0.015003144 -0.0013639033 0.63986158
0.01496436 -0.0027208328 0.63943595
0.014925817 -0.0040706992 0.63901299
0.014887431 -0.0054135919 0.63859177
0.014849283 -0.0067496896 0.6381731
0.014811288 -0.0080788732 0.63775617
0.014773529 -0.0094013512 0.63734186
0.014735919 -0.010717034 0.63692915
0.014698544 -0.012026072 0.63651896
0.014661316 -0.013328463 0.63611042
0.014624317 -0.014624327 0.6357044
0.014587463 -0.015913606 0.63529998
0.014550836 -0.017196417 0.63489801
0.014514349 -0.018472791 0.63449764
0.014478088 -0.019742876 0.63409978
0.014441968 -0.021006465 0.63370335
0.018168431 0.051477253 0.65798187
0.018116366 0.049819976 0.65745813
0.018064542 0.048172116 0.65693682
0.018013071 0.046533793 0.65641904
0.017961834 0.04490456 0.6559037
0.017910888 0.043284655 0.65539122
0.017860288 0.041674018 0.65488219
0.017809916 0.040072292 0.65437549
0.017759884 0.038479745 0.65387219
0.017710077 0.036895961 0.65337116
0.017660601 0.035321236 0.65287346
0.017611349 0.033755094 0.65237802
0.017562369 0.032197684 0.65188533
0.017513715 0.030649006 0.65139598
0.017465277 0.029108793 0.65090871
0.017417159 0.027577162 0.6504246
0.017369252 0.026053876 0.64994276
0.017321661 0.024539053 0.64946401
0.017274277 0.023032367 0.64898735
0.017227152 0.021533966 0.64851332
0.017180337 0.020043701 0.64804244
0.017133722 0.018561542 0.64757353
0.017087411 0.01708743 0.6471076
0.017041298 0.015621185 0.64664376
0.016995486 0.014162928 0.64618289
0.016949868 0.012712389 0.64572406
0.016904492 0.011269659 0.64526761
0.016859412 0.0098346472 0.64481413
0.016814521 0.0084072351 0.64436257
0.016769916 0.0069874227 0.64391392
0.016725499 0.0055751503 0.64346713
0.016681368 0.0041703582 0.64302313
0.016637418 0.0027728677 0.64258111
0.016593698 0.0013828278 0.64214128
0.016550256 2.9802322e-08 0.64170426
0.016506994 -0.001375556 0.64126915
0.016464006 -0.0027439892 0.64083666
0.016421193 -0.0041052997 0.64040601
0.016378649 -0.005459547 0.63997805
0.016336277 -0.006806761 0.63955182
