# .PCD v0.7 - Point Cloud Data file format
VERSION 0.7
FIELDS x y z
SIZE 4 4 4
TYPE F F F
COUNT 1 1 1
WIDTH 777
HEIGHT 1
VIEWPOINT 0 0 0 1 0 0 0
POINTS 777
DATA ascii
0.06419614 -0.05836013 0.65133882
0.062937863 -0.05708316 0.65190232
0.065603085 -0.056856006 0.65119916
0.060543079 -0.051683128 0.65347028
0.061894991 -0.051579148 0.6531117
0.061894991 -0.051579148 0.6531117
0.064973466 -0.044300079 0.65347135
0.057893138 -0.050470918 0.65440929
0.059401833 -0.047521442 0.65448242
0.050800148 -0.055282503 0.65557802
0.053766631 -0.050779581 0.65550506
0.061135098 -0.040259719 0.65521324
0.062651902 -0.037292808 0.65528709
0.062805548 -0.034393519 0.6557287
0.064327374 -0.031415671 0.65580302
0.046660494 -0.054186404 0.65691251
0.049467433 -0.053964466 0.65616852
0.052444331 -0.049447536 0.65609562
0.058678731 -0.034605384 0.6568408
0.067540646 -0.022513539 0.65639663
0.048364703 -0.046853304 0.65766335
0.051302992 -0.043758452 0.6573633
0.060357228 -0.028669655 0.65736562
0.065045401 -0.018152207 0.65781868
0.041027505 -0.053183794 0.65864599
0.051686708 -0.034964561 0.65872562
0.051751129 -0.033485979 0.65895432
0.060657442 -0.022746533 0.65827161
0.066917956 -0.0091251731 0.65880597
0.035065494 -0.059458852 0.65925545
0.035065494 -0.059458852 0.65925545
0.041181512 -0.04880771 0.65933448
0.056458708 -0.02288866 0.6594153
0.059635311 -0.015291095 0.65980154
0.035286117 -0.052162081 0.66041338
0.035330508 -0.050691605 0.66064632
0.052076034 -0.026037991 0.66010785
0.053630278 -0.022984415 0.66018581
0.055394821 -0.015387475 0.66096455
0.059935726 -0.0092208683 0.66073138
0.064628132 -0 0.66096693
0.067592315 0.003072381 0.66065598
0.033865403 -0.050798088 0.66103595
0.049405541 -0.021614879 0.66158956
0.066530854 0.009283334 0.66198868
0.071173005 0.0170196 0.66198987
0.026345767 -0.05579105 0.66229302
0.027871935 -0.054195434 0.66213489
0.044944104 -0.024796784 0.66229856
0.054243594 -0.0092989206 0.66230106
0.0559595 -0.0031088591 0.66285795
0.032767102 -0.037448138 0.66357106
0.035918616 -0.031233579 0.66373289
0.045116033 -0.020224422 0.66301423
0.051558744 -0.0046871603 0.6638183
0.057759598 0.0046831667 0.66365939
0.062363289 0.010913581 0.66341943
0.028266782 -0.03768906 0.66478282
0.034430325 -0.031300306 0.66413558
0.036103547 -0.02511552 0.66470349
0.042237915 -0.018772393 0.66405737
0.045464024 -0.010974079 0.66446269
0.045464024 -0.010974079 0.66446269
0.067299202 0.023476452 0.66414559
0.015750771 -0.05512768 0.6653502
0.018941773 -0.04735446 0.66576111
0.028376356 -0.033105731 0.66551757
0.037786864 -0.01889345 0.6652748
0.041077416 -0.0094794035 0.66593242
0.045640115 -0.0062951446 0.6651957
0.05348666 0.006292522 0.66511601
0.05348666 0.006292522 0.66511601
0.067909159 0.034744233 0.66585791
0.067909159 0.034744233 0.66585791
0.026892565 -0.031638294 0.66617572
0.02844991 -0.030030459 0.66601086
0.060115814 0.02372992 0.66618526
0.014336102 -0.044601202 0.66750163
0.017560199 -0.036716789 0.6679219
0.028598171 -0.023831815 0.66700518
0.028710332 -0.019140184 0.66775733
0.042954151 0.0015909076 0.66725951
0.055730838 0.023884654 0.6674304
0.060508385 0.031846523 0.66743231
0.061966032 0.031777471 0.66701549
0.0016040438 -0.057745576 0.66884685
0.0063909893 -0.054323405 0.66808677
0.020825777 -0.02723372 0.668598
0.020853136 -0.025665402 0.66885209
0.024050942 -0.020844132 0.66876864
0.032054219 -0.0080135763 0.66868591
0.04641879 0.014405847 0.66843688
0.0016082691 -0.054681122 0.66935682
0.012855084 -0.036958367 0.66918981
0.012855084 -0.036958367 0.66918981
0.016083075 -0.030557841 0.66936141
0.028937418 -0.0096458197 0.66928023
0.038583882 0.0064306557 0.66928351
0.041891411 0.014500916 0.66971159
0.046602216 0.019283682 0.66920036
0.049794488 0.024094135 0.66911596
0.051491424 0.028963923 0.66945797
0 -0.050164998 0.67055875
0.0064672581 -0.040420353 0.67038834
0.0080769425 -0.038769335 0.6702162
0.016168367 -0.024252564 0.67039108
0.017816719 -0.019436419 0.67073685
0.027571974 -0.001621902 0.67099988
0.040476169 0.01780951 0.67065781
0.051695969 0.033925474 0.67022955
0.064764321 0.058287889 0.67066514
-0.0032595019 -0.047262758 0.67194986
0.0016232569 -0.043827951 0.671166
0.0065190936 -0.030965716 0.67195261
0.01947099 -0.014603227 0.67108458
0.017911877 -0.013026804 0.67178112
0.021131085 -0.0097527802 0.67143285
0.021131085 -0.0097527802 0.67143285
0.03084326 0.0048699975 0.67117476
0.034075052 0.0097357333 0.67108929
0.032567836 0.011398762 0.67178583
0.039047092 0.021150529 0.67161328
0.039047092 0.021150529 0.67161328
0.066678591 0.066678584 0.67153418
0.066678591 0.066678584 0.67153418
0.071367897 0.071367919 0.67101401
0.071367897 0.071367919 0.67101401
-0.0065218825 -0.052175045 0.67203683
-0.003268237 -0.044121206 0.67247713
0.0098136701 -0.021262914 0.67265737
0.01142378 -0.021215558 0.67221761
0.021244349 -0.0032683909 0.67248464
0.029402541 0.0098008215 0.6723994
0.047287561 0.037503898 0.6720531
0.052249696 0.047351271 0.67231828
0.058807727 0.05880776 0.67240828
0.065371752 0.070274621 0.67249829
-0.013125508 -0.055783421 0.67327011
-0.011505472 -0.050952792 0.6736263
-0.0049331812 -0.039465457 0.67371744
0.0065717893 -0.021358311 0.67354286
0.0065717893 -0.021358311 0.67354286
0.014760201 -0.0098401308 0.67318976
0.01810528 -0 0.67390347
0.027981373 0.016459674 0.67390686
0.034487985 0.024634302 0.67346293
0.037755761 0.029547989 0.67337477
0.050934911 0.052577972 0.67355663
0.059204355 0.067427158 0.67373818
-0.011552201 -0.046208829 0.67443216
-0.0016525767 -0.028093785 0.67470521
0 -0.028030574 0.67425632
0.003296243 -0.023073703 0.67416745
0.016518777 0.0016518831 0.67462087
0.039682243 0.041335642 0.67480779
-0.0082927542 -0.034829557 0.67542636
0.0033186625 -0.014934003 0.6755206
0.0099335592 -0.0066223741 0.67506933
0.0099470802 -0.0049735308 0.67534137
0.029923543 0.031585962 0.67589331
0.049874153 0.064836413 0.67589968
-0.026729884 -0.056800991 0.67688298
-0.026729884 -0.056800991 0.67688298
-0.018368676 -0.043416888 0.67679393
-0.0033398301 -0.018369079 0.67679816
0.010028882 0.0050144196 0.67698711
0.018352982 0.016684532 0.67662168
0.020058049 0.021729559 0.67698991
0.020058049 0.021729559 0.67698991
0.024970107 0.024970114 0.67616546
0.026646983 0.028312415 0.67625755
0.04163694 0.053295285 0.6762625
0.045132525 0.063519835 0.67699856
-0.025174249 -0.048670232 0.67780828
-0.018393831 -0.041804165 0.6770699
-0.0050280998 -0.016760319 0.67753673
0.0066889264 -0 0.67707777
0.048586875 0.072042614 0.67746139
-0.030334175 -0.05224219 0.67864704
-0.025313595 -0.04218933 0.67892969
-0.021928504 -0.037109792 0.6788373
-0.016844871 -0.030320734 0.67855716
-0.015167412 -0.026964277 0.67865139
-0.013451204 -0.026902437 0.67818457
-0.0016798881 -0.0083994567 0.678002
0 -0.0016853213 0.67865652
0.013439439 0.016799301 0.67800701
0.023616998 0.038799316 0.67885184
0.038800325 0.064104885 0.67885697
0.042096868 0.067355007 0.67848325
-0.033860408 -0.052483618 0.67958724
-0.006756735 -0.010135084 0.67912406
-0.0084771896 -0.008477211 0.67987907
0.0067631165 0.013526231 0.67931664
0.0084460992 0.015202969 0.67912841
0.011851992 0.023703992 0.67960185
0.011851992 0.023703992 0.67960185
0.018633371 0.035572827 0.67969859
-0.025490008 -0.033986688 0.68034929
-0.025525531 -0.032332361 0.68063515
-0.023834987 -0.028942466 0.68073142
-0.017033091 -0.01703307 0.68082917
-0.010182053 -0.010182053 0.68006861
0.0051124888 0.020449936 0.68093222
0.025527643 0.052757084 0.6806522
0.035739217 0.069776595 0.68065512
-0.030759122 -0.035885662 0.6814968
-0.029104799 -0.030816823 0.68188393
-0.017104793 -0.011973321 0.68169469
-0.010267781 -0 0.68179339
0.010253708 0.032470107 0.68151021
0.013684479 0.03934291 0.6817044
0.018763656 0.044350475 0.68112826
0.018842757 0.049676359 0.68199629
0.029080253 0.065002918 0.68170965
-0.046332363 -0.056628466 0.68236274
-0.044574592 -0.054861039 0.68216878
-0.03773503 -0.042880684 0.68226796
-0.025704825 -0.023991197 0.682078
-0.025777269 -0.020621836 0.682661
-0.015466643 -0.0034370422 0.68266481
-0.0085967062 0.0085966885 0.68276441
0 0.024093747 0.68296242
0.015423957 0.044558108 0.68209231
0.01376169 0.046445698 0.68286943
0.015489231 0.049909741 0.68296772
0.020652458 0.05851528 0.68296927
-0.050069302 -0.055248857 0.6836319
-0.04482666 -0.048274875 0.68333912
-0.032774087 -0.027599245 0.6834417
0.0017266726 0.031080127 0.68364942
0.0034549865 0.034549832 0.68374848
0.01208693 0.048347741 0.68365324
-0.053699519 -0.057163984 0.6843217
-0.025997076 -0.010398835 0.68442988
-0.012143771 0.013878584 0.68463337
-0.010413878 0.017356455 0.68473262
0.006926355 0.043289721 0.68424284
0.006926355 0.043289721 0.68424284
-0.043554164 -0.033101141 0.6855197
-0.04005108 -0.027861655 0.68542123
-0.034877021 -0.017438501 0.68572307
-0.0069790608 0.029661 0.68583339
-0.003482908 0.033087611 0.68543369
0.0017414668 0.041795194 0.68543518
0.017415117 0.067918956 0.68544066
-0.033196624 -0.012230366 0.68612617
-0.031555019 -0.0052591562 0.68683422
-0.031555019 -0.0052591562 0.68683422
-0.026296044 0.003506124 0.68683583
-0.019237876 0.012242287 0.68633223
-0.0087321121 0.027942777 0.68603337
-0.0087571936 0.03152588 0.68663895
0 0.045516342 0.68654102
0.017490014 0.073458076 0.68634468
-0.059830543 -0.047512442 0.68763876
-0.05455178 -0.03871417 0.68764037
-0.051081769 -0.031705916 0.68784624
-0.047536209 -0.02640903 0.6877448
-0.031646002 -0.0017581284 0.68744439
-0.01757307 0.021087706 0.68734729
-0.008795104 0.036939442 0.68755412
0.0017615913 0.056370944 0.68786448
0.0070261187 0.061478555 0.68725342
0.012295845 0.070261985 0.68725586
-0.067126893 -0.05476141 0.68845665
-0.061827861 -0.045929283 0.68845826
-0.051303983 -0.026536554 0.68877113
-0.033532862 -0 0.68826234
0.0070668343 0.068901628 0.68848217
-0.071002275 -0.05502677 0.6894899
-0.0675181 -0.047973365 0.68969935
-0.062007505 -0.04251942 0.68907779
-0.062097833 -0.040807188 0.68938941
-0.056693211 -0.033661604 0.68908018
-0.04977582 -0.017777085 0.68980986
-0.019489462 0.028348327 0.68909299
-0.015961481 0.035469949 0.68930173
0.0035557232 0.07111448 0.68982846
-0.058949988 -0.026795447 0.69085467
-0.057107925 -0.024984688 0.69064456
-0.057107925 -0.024984688 0.69064456
-0.035693668 0.010708123 0.69065189
-0.030295568 0.017820925 0.69033909
-0.025022613 0.03038457 0.69097131
-0.0071217082 0.055193216 0.69013816
-0.0035747942 0.066133678 0.69097942
-0.0035747942 0.066133678 0.69097942
-0.071627818 -0.04476738 0.69137764
-0.012536055 0.053725958 0.69139808
-0.010750487 0.057335913 0.69150466
-0.079099327 -0.05213365 0.69222456
-0.044967435 0.0053960979 0.69234353
-0.030563546 0.028765678 0.69224191
-0.025170172 0.037755281 0.69224358
-0.010798102 0.062988937 0.69246262
-0.081457302 -0.047064245 0.69372749
-0.065070875 -0.021690279 0.69340909
-0.063201226 -0.019863278 0.69319481
-0.039806493 0.021712631 0.69363379
-0.028993694 0.041678429 0.6939621
-0.021691868 0.050614387 0.69342494
-0.087016121 -0.054385096 0.69405019
-0.078263283 -0.034581423 0.69492418
-0.045368932 0.016332835 0.69428217
-0.076481499 -0.030956775 0.69503427
-0.065556832 -0.012747169 0.69503844
-0.063767754 -0.0091097057 0.69514871
-0.05659325 0.0054768026 0.69558966
-0.05659325 0.0054768026 0.69558966
-0.051040575 0.012760133 0.69526237
-0.043706071 0.02367416 0.69504613
-0.034687392 0.041990012 0.69559729
-0.025508676 0.054661453 0.69516224
-0.021853793 0.060097933 0.69505376
-0.076941051 -0.023815095 0.69635504
-0.044034768 0.03302604 0.69669938
-0.086402155 -0.03492853 0.69712931
-0.073794991 -0.0092243552 0.69791764
-0.071877718 -0.0073720813 0.69769359
-0.060728893 0.0092013776 0.69736171
-0.049613278 0.025725394 0.69703096
-0.05165831 0.027674109 0.69792545
-0.029520072 0.064575166 0.69793332
-0.083312094 -0.020365179 0.69870293
-0.075945847 -0.007409364 0.69881856
-0.068364456 0.0018476546 0.69825727
-0.059186649 0.018495828 0.69848597
-0.057366252 0.022206336 0.69859958
-0.057366252 0.022206336 0.69859958
-0.042541564 0.046240836 0.69849211
-0.091224395 -0.026064128 0.69995135
-0.066956587 0.013019353 0.69973201
-0.066956587 0.013019353 0.69973201
-0.063301302 0.020479828 0.69996107
-0.050065905 0.037085861 0.69905454
-0.040898759 0.055771053 0.69962692
-0.076410085 -2.9802322e-08 0.70018536
-0.042866565 0.055912942 0.70019776
-0.037389852 0.06917122 0.70088929
-0.080671258 0.0018760562 0.70168394
-0.072980657 0.011227816 0.70110726
-0.060005601 0.035628319 0.70157522
-0.050604627 0.050604612 0.70146298
-0.041149676 0.063594967 0.70100361
-0.073431373 0.018828541 0.70250237
-0.067783341 0.028243065 0.70250416
-0.06788829 0.030172557 0.70285606
-0.086833127 -0 0.70308429
-0.086833127 -0 0.70308429
-0.053021844 0.060596406 0.70380378
-0.053021844 0.060596406 0.70380378
-0.091077812 -0 0.70426458
-0.083402261 0.011373043 0.70402932
-0.077959023 0.024718702 0.70474565
-0.076097392 0.028536528 0.70486575
-0.070280872 0.036090165 0.70450944
-0.068417139 0.039909989 0.7046293
-0.089505598 0.0076174736 0.70509994
-0.076335557 0.032442629 0.70558447
-0.082707025 0.032698095 0.70739877
-0.076816387 0.040328622 0.70703554
-0.07505367 0.046186894 0.70752358
-0.065398112 0.061551124 0.70740545
-0.075771093 0.058285475 0.7097441
-0.075771093 0.058285475 0.7097441
-0.081859797 0.052624166 0.71049184
-0.080597863 0.066837251 0.71251488
-0.085261881 0.071382046 0.71457088
0.060850903 -0.058652177 0.65222013
0.063279606 -0.050770387 0.65286165
0.057278059 -0.049096122 0.65481031
0.055316813 -0.0470936 0.65568995
0.058861628 -0.044705629 0.65510303
0.062271144 -0.04447937 0.65419281
0.061360274 -0.035918206 0.65587616
0.040824037 -0.058968067 0.6577363
0.049129806 -0.045351297 0.65770113
0.049129806 -0.045351297 0.65770113
0.05499544 -0.039175406 0.65710187
0.061048117 -0.028640211 0.6571784
0.063115112 -0.028552055 0.65661842
0.06350629 -0.021168768 0.65774268
0.069326036 -0.015070826 0.65714312
0.044760846 -0.048555002 0.6583811
0.069112703 -0.0068349168 0.6585784
0.030916644 -0.051012486 0.66181999
0.040869467 -0.037014574 0.66139054
0.043047715 -0.036898017 0.66080439
0.044773478 -0.029334366 0.66158837
0.050778091 -0.023080945 0.6609627
0.050778091 -0.023080945 0.6609627
0.053334631 -0.018974354 0.66093808
0.067105144 0.0069424883 0.66143775
0.068720341 0.010810047 0.66163456
0.070948057 0.013110444 0.66139954
0.028997496 -0.048675172 0.66274422
0.031034714 -0.046552062 0.66253263
0.031074202 -0.045057565 0.66277099
0.032809135 -0.035933793 0.66381264
0.037472446 -0.0288845 0.66369343
0.052671496 -0.012393296 0.66222197
0.049182765 -0.0093683153 0.6636973
0.060739502 0.0070089102 0.66321915
0.060933869 0.010936856 0.66382074
0.068150289 0.013165891 0.66218674
0.065621741 0.018749058 0.66382265
0.065621741 0.018749058 0.66382265
0.069040887 0.020765286 0.6632086
0.014939871 -0.058190167 0.6650641
0.015781339 -0.052866951 0.66571915
0.021212664 -0.048712522 0.66490281
0.020515876 -0.044976607 0.66572046
0.029038725 -0.036887601 0.66470182
0.032851167 -0.034415483 0.66405421
0.039327506 -0.017304093 0.66511154
0.054871287 0.0047032535 0.66446584
0.059960246 0.0205127 0.66569108
0.063170895 0.026847631 0.6658566
0.069160238 0.031436473 0.66495746
0.0095076626 -0.058630556 0.66650099
0.025381904 -0.030933678 0.66671324
0.023121737 -0.028703913 0.66771436
0.033451919 -0.012743562 0.66750747
0.038781896 -0.011080801 0.66630286
0.042731173 -0.0047478676 0.66626263
0.042731173 -0.0047478676 0.66626263
0.039893642 2.9802322e-08 0.66784513
0.044564553 0.0047748089 0.66734362
0.049211204 0.0095247626 0.66684473
0.050920393 0.015117526 0.66730392
0.05734827 0.027081132 0.66751462
0.05734827 0.027081132 0.66751462
0.066907443 0.043011904 0.66751784
0.0048163659 -0.051374555 0.66901708
0.003224347 -0.049170747 0.66982812
0.0088272616 -0.044943273 0.66897631
0.014506611 -0.030625075 0.66978854
0.014506611 -0.030625075 0.66978854
0.02482463 -0.020821378 0.66855729
0.03120419 -0.011201829 0.66838998
0.040859982 0.0064095408 0.66864681
0.046510346 0.016840458 0.66881794
0.046787094 0.024200261 0.66996992
0.06074623 0.036767453 0.66818786
0.05966882 0.04515478 0.66988814
0.070338696 0.052754015 0.66819048
-0.0016283022 -0.045592457 0.67177504
0.0091839563 -0.03295704 0.67087924
0.025071569 -0.0088961497 0.67048055
0.029284816 0.0048808157 0.67160994
0.037155718 0.0096927881 0.67022556
0.048550446 0.030748636 0.67057347
0.059082955 0.04856208 0.6706202
0.06328506 0.058416963 0.67109811
0.067236975 0.06318742 0.67079574
-0.0089925127 -0.05313164 0.67256379
-0.0089925127 -0.05313164 0.67256379
-0.0089925127 -0.05313164 0.67256379
-0.0065481355 -0.047473997 0.67282903
-0.0065613445 -0.045108721 0.67322767
-0.0065746005 -0.042734891 0.67362773
0 -0.040780336 0.67212647
0.00327852 -0.029506683 0.67309773
0.0098799421 -0.013173252 0.67399067
0.022827612 -0.0032610893 0.67204559
0.022858214 -0.00163275 0.67230946
0.024650477 0.0090390444 0.67359328
0.03512691 0.019606233 0.67244494
0.03512691 0.019606233 0.67244494
0.039151557 0.024469733 0.67213869
0.039362174 0.031161726 0.67319798
0.039362174 0.031161726 0.67319798
0.0492034 0.047563314 0.67320073
-0.016525364 -0.052881181 0.67470032
-0.014839355 -0.052762151 0.67425144
-0.014940329 -0.044820994 0.67560571
-0.001657062 -0.024855912 0.67524666
-0.0033261722 -0.023283213 0.67597383
0.0016608358 -0.016608357 0.67570221
0.0049870647 -0.009974122 0.67588556
0.014900495 0.0016556382 0.67507142
0.031343933 0.024745196 0.67435563
0.034887254 0.039041072 0.67575794
0.036465928 0.038952813 0.67530465
0.036540315 0.041523099 0.67571276
0.039844375 0.046485096 0.6756233
0.051107116 0.056877822 0.67422724
0.052958757 0.064543486 0.6749931
0.054490633 0.064397991 0.67454278
-0.020888686 -0.046788514 0.67693138
-0.016775386 -0.035228312 0.6777184
-0.0016706827 -0.015036136 0.67689085
0.0050143879 -0.0033429563 0.67698497
0.014981853 0.0083232522 0.67616266
0.021829313 0.030225188 0.67791629
0.02840301 0.035086095 0.67690074
0.033507355 0.046910316 0.67745638
0.043381464 0.058398128 0.67662948
0.043381464 0.058398128 0.67662948
-0.028622609 -0.050510466 0.67846012
-0.030418135 -0.049006969 0.67921007
-0.025296126 -0.043002829 0.67878908
-0.011013656 -0.013554037 0.67973661
-0.0067380685 -0.013476133 0.67856079
-0.0016927151 0.0008469373 0.67955029
0.0016954684 0.0084773302 0.67988271
0.0016954684 0.0084773302 0.67988271
0.010098067 0.013464063 0.678379
0.008469563 0.018633068 0.67969489
0.021027936 0.031121537 0.678289
0.040366411 0.063073143 0.67824894
-0.030630415 -0.040840566 0.68063372
-0.018688515 -0.022935316 0.68030369
-0.01878006 -0.017072767 0.68130827
-0.013601225 -0.013601243 0.68044817
-0.0051017189 0.00085087121 0.68049896
-0.0016986069 0.0050958097 0.68026155
0.0068485606 0.029106408 0.68189514
0.01198511 0.037667513 0.6818974
0.017097738 0.044454098 0.68160951
0.02565293 0.059002355 0.68166041
0.030762238 0.066651553 0.68151772
-0.049079891 -0.056828171 0.68309331
-0.046332363 -0.056628466 0.68236274
-0.044637423 -0.053221554 0.68246055
-0.031107841 -0.022466749 0.68383533
-0.025722936 -0.023150042 0.68222374
-0.020680251 -0.0086167753 0.68324888
-0.01295385 0.0069082081 0.68369424
-0.01295385 0.0069082081 0.68369424
0.0017266726 0.031080127 0.68364942
0.0051775966 0.03624317 0.68355197
0.0086253267 0.041401565 0.68345541
-0.055642456 -0.055642456 0.68511653
-0.055642456 -0.055642456 0.68511653
-0.052289288 -0.04706037 0.68561745
-0.041712809 -0.033022672 0.6850208
-0.038246118 -0.026945516 0.68507224
-0.034827281 -0.019154966 0.68542284
-0.026973283 -0.0069605857 0.68527567
-0.019046709 -2.9802322e-08 0.68423438
-0.019073756 0.0017339587 0.68453121
-0.0069196611 0.019029081 0.68404078
-0.0034680446 0.027744353 0.68453658
0.006955998 0.048691988 0.68513739
0.015599332 0.058930844 0.68444443
0.017365521 0.064252436 0.68484199
0.015688464 0.066240162 0.68563992
0.022511231 0.069265366 0.68424815
-0.061471689 -0.052689999 0.68722981
-0.057682678 -0.052438796 0.68621898
-0.049308591 -0.029056221 0.68779564
-0.045797788 -0.022898883 0.68784779
-0.035229724 -0.0052844584 0.68785179
-0.027995421 -0.0017497241 0.68643069
-0.027995421 -0.0017497241 0.68643069
-0.022713816 0.0052416623 0.68612927
-0.0069990885 0.033245713 0.68643773
-0.0069990885 0.033245713 0.68643773
-0.0017523026 0.043807566 0.6867432
-0.0017523026 0.043807566 0.6867432
-0.0035180678 0.045734882 0.68755573
0.010488885 0.061185181 0.68624163
0.010503962 0.063023776 0.68654495
0.012295845 0.070261985 0.68725586
-0.063840896 -0.044333965 0.68928486
-0.058351554 -0.038901031 0.68866563
-0.058521263 -0.035467416 0.68928647
-0.048021596 -0.014228612 0.68991482
-0.042562034 -0.008867085 0.68929207
-0.040690124 -0.0088456869 0.68877518
-0.039053306 -0.0017751157 0.68950117
-0.033679146 0.0053177774 0.6891917
-0.032015242 0.012450397 0.68992054
-0.010641068 0.044337809 0.68930334
-0.010641068 0.044337809 0.68930334
-0.0088847959 0.049754858 0.6897195
-0.0053128572 0.051357627 0.68899441
0 0.056506783 0.68837696
0.0035351086 0.063631952 0.68858421
-0.07677386 -0.057134032 0.69074315
-0.076886281 -0.055429637 0.69105864
-0.073221281 -0.050897077 0.69079697
-0.049043 -0.012483388 0.69049001
-0.037514906 0.0089321136 0.69086206
-0.030339962 0.019631743 0.6906544
-0.02494948 0.026731551 0.69034076
-0.026915099 0.032298058 0.69181758
-0.021532243 0.041270137 0.69181919
-0.014330405 0.051052719 0.69145072
-0.010766326 0.059214801 0.6918233
-0.077226117 -0.05028677 0.69201273
-0.071838796 -0.0413073 0.69201434
-0.064878553 -0.025230557 0.69276416
-0.057698872 -0.012621611 0.69287384
-0.057698872 -0.012621611 0.69287384
-0.054146405 -0.0054146051 0.69308984
-0.050288875 -0.0053881109 0.69202167
-0.048624359 0.00090113282 0.69260973
-0.048804466 0.0054227114 0.69341487
-0.048804466 0.0054227114 0.69341487
-0.041411024 0.012603343 0.69255865
-0.034277014 0.027060807 0.69299006
-0.027074445 0.039709181 0.69309986
-0.014468551 0.063299924 0.69353515
-0.090956874 -0.056393266 0.69481087
-0.087016121 -0.054385096 0.69405019
-0.085372604 -0.049043864 0.69448507
-0.085500114 -0.047297925 0.69481254
-0.082066216 -0.038297534 0.6953609
-0.080043279 -0.038202494 0.69481432
-0.080043279 -0.038202494 0.69481432
-0.072586946 -0.029034793 0.69427204
-0.072586946 -0.029034793 0.69427204
-0.068923987 -0.02357924 0.69416523
-0.067193657 -0.019067779 0.69443762
-0.065556832 -0.012747169 0.69503844
-0.059915293 -0.0072624385 0.69438565
-0.054550182 0.003636688 0.69471449
-0.049242388 0.016414136 0.69537276
-0.041718908 0.021766365 0.69417453
-0.038357668 0.036531121 0.69570637
-0.034583848 0.03822428 0.69493943
-0.029254515 0.053023815 0.69592983
-0.02359266 0.052629799 0.69428974
-0.086532764 -0.033140182 0.6974647
-0.076999009 -0.022915691 0.69652164
-0.060637511 0.0073499978 0.6970275
-0.060637511 0.0073499978 0.6970275
-0.056934174 0.012856096 0.69691718
-0.056934174 0.012856096 0.69691718
-0.056934174 0.012856096 0.69691718
-0.053435788 0.023033366 0.69764471
-0.049538732 0.023851991 0.69669759
-0.036631875 0.043043137 0.69631445
-0.034896359 0.049589545 0.69692487
-0.031301893 0.058921218 0.69748467
-0.027647324 0.066353559 0.69771004
-0.092334218 -0.038780361 0.69813603
-0.085379221 -0.020416796 0.69926906
-0.077640839 -0.012940109 0.69836628
-0.076177262 -0.0037159622 0.69949979
-0.068572238 0.0055599213 0.69893515
-0.044503551 0.04635787 0.6990571
-0.029609663 0.068472326 0.69860923
-0.090096347 -0.013139009 0.70179641
-0.084336355 -0.0056224167 0.70145041
-0.074584663 0.0037292242 0.70030081
-0.065529712 0.024339616 0.70122546
-0.059638787 0.027955711 0.7001915
-0.061848871 0.031861573 0.70145845
-0.060098127 0.037561387 0.70192426
-0.056140523 0.039298385 0.70111358
-0.050295435 0.042844236 0.70008069
-0.044947773 0.058994681 0.70129144
-0.035429955 0.068995208 0.70031494
-0.092495054 -0.0094382763 0.70308161
-0.088811979 -0.0018896163 0.70331848
-0.083272994 0.0094628334 0.70367473
-0.060564358 0.047315925 0.70368302
-0.056838274 0.054943681 0.70392108
-0.050760649 0.054520696 0.7021606
-0.085386135 0.0094873309 0.70426643
-0.085386135 0.0094873309 0.70426643
-0.08405567 0.021013916 0.70582199
-0.074233808 0.032358319 0.70498598
-0.066447988 0.041767299 0.70439249
-0.064886272 0.051527351 0.70558822
-0.055143747 0.062749803 0.70475399
-0.053270102 0.066587657 0.7048741
-0.07869523 0.036468536 0.70691311
-0.072708756 0.042094558 0.70618796
-0.072708756 0.042094558 0.70618796
-0.063308433 0.061390013 0.70679742
-0.059347477 0.065090775 0.70631433
-0.088756166 0.027012736 0.70813066
-0.08552929 0.042764664 0.70986474
-0.06950023 0.059847444 0.70826101
-0.090038456 0.045019209 0.71149558
-0.074103966 0.066303581 0.71061999
-0.085261881 0.071382046 0.71457088
-0.083189346 0.073285878 0.71431303
0.061965603 -0.045968179 0.65402907
0.042039048 -0.049838562 0.65892363
0.042039048 -0.049838562 0.65892363
0.062140621 -0.014104733 0.65930253
0.044823363 -0.037544549 0.66020286
0.068940505 0.002298519 0.66015166
0.018188965 -0.046264 0.66615248
0.02231409 -0.030550789 0.66763037
0.033835169 -0.025966674 0.66519225
0.038182415 -0.018107712 0.66529608
0.046021517 -0.0058990847 0.66515553
0.057548564 0.010463959 0.66468346
0.062044501 0.026083898 0.66604239
0.066138819 0.042234279 0.66760147
0.018493196 -0.01381997 0.67148715
0.034089506 -0.0057366989 0.66850042
0.034089506 -0.0057366989 0.66850042
0.033696905 0.010151908 0.67126369
0.045802943 0.018081907 0.66922194
0.057031974 0.030914914 0.66824311
0.065893896 0.065895364 0.67162168
-0.017469384 -0.057838321 0.67413467
-0.0024708635 -0.033755258 0.67398685
-0.0022156897 -0.022704732 0.67576164
0.022132285 0.0020508729 0.67312634
0.022437392 0.01006605 0.67438012
0.026592499 0.025762051 0.67584646
0.041765369 0.033577368 0.6729328
0.053112715 0.049845643 0.67249489
0.06624788 0.072790936 0.67267519
-0.025848418 -0.057530895 0.67651606
-0.022342531 -0.049691632 0.67685032
-0.022342531 -0.049691632 0.67685032
-0.0066553424 -0.028285205 0.67606425
-0.017769925 -0.026229769 0.67949796
0.0018451199 -0.0026871623 0.67797607
0.033301529 0.039129853 0.67621404
0.030271856 0.046253186 0.67824638
0.037816349 0.057987131 0.67810839
-0.041476361 -0.039748162 0.68383157
-0.021692071 -0.026366852 0.6805656
-0.026280764 -0.018092431 0.68322372
-0.014514688 -0.009816438 0.68133426
-0.0095899375 0.0018849999 0.68191975
0.0018763252 0.018109649 0.68144131
0.014461364 0.034029659 0.68060088
0.014009736 0.038620211 0.6814934
0.014170729 0.045527603 0.68260258
0.029837003 0.062234133 0.68103671
-0.052817613 -0.035211742 0.68774325
-0.033760544 -0.024670683 0.6842047
-0.019046709 -2.9802322e-08 0.68423438
-0.021893628 0.0096333474 0.68663502
-0.017623862 0.024673402 0.68796039
-0.0060809059 0.025624037 0.68490899
0.0018557486 0.04275078 0.68556303
-0.070595667 -0.045573056 0.69095623
-0.050396353 -0.02563905 0.68866885
-0.041785862 -0.013241053 0.68834567
-0.021532243 0.041270137 0.69181919
-0.086324938 -0.049976267 0.69459426
-0.07353206 -0.029956378 0.6943813
-0.076710589 -0.027396649 0.69569272
-0.069440246 -0.014618993 0.69580519
-0.046218943 0.021893989 0.69544739
-0.041047342 0.030405208 0.69543111
-0.014383228 0.055734992 0.69224775
-0.010790137 0.062043965 0.69230235
-0.089391649 -0.041021764 0.69694299
-0.070708357 -0.010100327 0.69691288
-0.061588317 0.0064351782 0.69713891
-0.058608841 0.0064110458 0.69630635
-0.041284077 0.037614025 0.69670111
-0.041284077 0.037614025 0.69670111
-0.034064855 0.054318488 0.69748384
-0.030321447 0.057884894 0.69703877
-0.021614239 0.073569573 0.69723731
-0.082974955 -0.010255739 0.70029813
-0.081518486 -0.0062226257 0.70056653
-0.085962676 0.0025988556 0.70327628
-0.073729053 0.0065335706 0.70053148
-0.073729053 0.0065335706 0.70053148
-0.055926062 0.034488469 0.70025063
-0.049873251 0.057400614 0.70239466
-0.042318027 0.059119873 0.70058107
-0.042466126 0.07360585 0.70304239
-0.082914628 0.014557511 0.70442581
-0.085458294 0.025925912 0.70703232
-0.06582737 0.043040566 0.70443237
-0.077059083 0.04430899 0.7077679
-0.062618755 0.047438443 0.70427471
-0.08600001 0.03382051 0.7085017
-0.0802745 0.061675102 0.71156275
-0.088770024 0.058194488 0.71334356
