# .PCD v0.7 - Point Cloud Data file format
VERSION 0.7
FIELDS x y z
SIZE 4 4 4
TYPE F F F
COUNT 1 1 1
WIDTH 515
HEIGHT 1
VIEWPOINT 0 0 0 1 0 0 0
POINTS 515
DATA ascii
0.013568871 -0.016961098 0.61171389
0.013568871 -0.0033922195 0.61171389
0.013568871 0.0079151988 0.61171383
0.010270432 -0.035375968 0.61297166
0.010270432 -0.035375968 0.61297166
0.010270432 -0.023964345 0.61297166
0.011357424 -0.0079502463 0.6123178
0.011357424 -0 0.6123178
0.011357424 0.0011357665 0.6123178
0.011357424 0.01022169 0.6123178
0.011357424 0.01022169 0.6123178
0.010270432 0.033093631 0.61297166
0.0091730217 -0.021785915 0.61363173
0.014947616 -0.034494504 0.61401677
0.014947616 -0.02414614 0.61401671
0.014947616 -0.022996336 0.61401671
0.014947616 -0.0091985464 0.61401677
0.0069463593 -0.0069463551 0.61497152
0.0080650626 -0.0069129169 0.61429864
0.0080650626 0.0046086013 0.61429858
0.0080650626 0.011521518 0.61429858
0.0069463593 0.019681364 0.61497152
0.014947616 0.019546866 0.61401671
0.014947616 0.019546866 0.61401671
0.0058167917 -0.029083967 0.61565137
0.0058167917 -0.02675727 0.61565137
0.0058167917 -0.015123665 0.61565137
0.0058167917 0.024430513 0.61565137
0.0058167917 0.031410694 0.61565137
0.0046761693 0.0035071671 0.61633742
0.0046761693 0.004676193 0.61633748
0.016373681 0.032747358 0.61639857
0.0035243554 -0.017621756 0.61703068
0.002361163 -0.010625213 0.61773038
0.002361163 -0.010625213 0.61773038
0.002361163 -0.0023611784 0.61773038
0.002361163 0.0094446242 0.61773038
0.002361163 0.010625213 0.61773038
0.002361163 0.024792224 0.61773038
0.002361163 0.033056289 0.61773038
0.017849548 -0.015469611 0.6188637
0.0011864385 -0.0059321821 0.61843735
0.0011864385 0.0035592914 0.61843735
0.017849548 0.010709733 0.61886364
0.0011864385 0.016610146 0.61843741
0.0011864385 0.020169497 0.61843735
0.0011864385 0.02847454 0.61843735
0.0011864385 0.0308474 0.61843735
-0.0011983224 -0.028759748 0.61987185
-0.0011983224 -0.028759748 0.61987185
0 -0.02026996 0.61915106
0 -0.0011923909 0.61915112
-0.0011983224 0.02276814 0.61987185
0 0.036962867 0.61915106
-0.0024087143 -0.021678418 0.62060034
-0.0024087143 0.026495844 0.62060034
-0.0024087143 0.026495844 0.62060034
-0.0036313497 -0.033892572 0.62133574
0.01937787 -0.032700121 0.62141627
0.01937787 -0.032700121 0.62141627
-0.0036313497 -0.014525384 0.6213358
0.01937787 -0.0060555935 0.62141633
0.01937787 0.016955644 0.62141627
0.01937787 0.01816678 0.62141633
-0.0036313497 0.030261248 0.6213358
-0.0061141266 -0.033016294 0.62282968
-0.0048664305 -0.031631768 0.62207907
-0.0048664305 -0.030415207 0.62207913
-0.0048664305 -0.030415207 0.62207913
-0.0048664305 -0.025548756 0.62207907
-0.0061141266 -0.0097826123 0.62282962
-0.0048664305 -0.0036498308 0.62207907
-0.0048664305 -0.0036498308 0.62207907
-0.0048664305 0.0024332404 0.62207913
-0.0048664305 0.019465744 0.62207913
-0.0048664305 0.029198617 0.62207913
-0.0073746601 0.034415096 0.62358826
0.020961493 -0.02712661 0.62406135
0.020961493 -0.025893629 0.62406135
-0.0086481944 -0.0061772764 0.6243543
0.020961493 0.0073981583 0.62406135
-0.0099349758 -0.021111846 0.62512875
-0.011235162 -0.016228586 0.62591088
-0.0099349758 -0.0086931288 0.62512881
-0.0099349758 -0.0012418628 0.62512881
-0.0099349758 -0 0.62512875
-0.0099349758 0.029804915 0.62512881
-0.011235162 0.034953833 0.62591088
0.022603478 -0.027626485 0.62680387
-0.012548984 -0.026352912 0.62670124
0.022603478 -0.01883623 0.62680382
0.022603478 -0.016324729 0.62680387
0.022603478 0.015068978 0.62680387
0.022603478 0.015068978 0.62680387
0.022603478 0.027626485 0.62680387
0.022603478 0.028882235 0.62680382
-0.013876697 0.011353642 0.62750024
-0.015218452 -0.031705081 0.62830734
-0.015218452 0.0063410103 0.6283074
-0.015218452 0.016486645 0.62830734
-0.015218452 0.030436903 0.6283074
-0.01657455 -0.020399392 0.62912351
-0.017945137 -0.017945141 0.62994796
-0.017945137 -0.010254353 0.62994796
0.024307171 -0.010234624 0.62964976
-0.017945137 -0.0089725554 0.62994796
-0.017945137 -0 0.62994802
-0.017945137 0.0038453639 0.62994796
0.024307171 0.020469189 0.62964976
-0.01657455 0.025499284 0.62912351
-0.017945137 0.034608483 0.62994796
-0.019330541 -0.010309637 0.63078177
-0.019330541 0.020619243 0.63078177
-0.019330541 0.027062774 0.63078177
-0.0207309 -0.014252484 0.6316241
-0.0207309 -0.0025913715 0.63162416
-0.0207309 0.01554817 0.6316241
-0.0207309 0.02461794 0.6316241
-0.0207309 0.031096369 0.63162416
-0.0207309 0.031096369 0.63162416
-0.022146506 -0.035173863 0.63247567
-0.022146506 -0.035173863 0.63247567
0.026075993 -0.029987395 0.63260406
-0.022146506 -0.018238276 0.63247567
0.026075993 -0 0.63260406
-0.022146506 0.015632778 0.63247567
-0.022146506 0.035173833 0.63247567
-0.025024543 -0.021073312 0.63420731
0.027913809 -0.033230722 0.63567376
-0.027966673 -0.030630201 0.63597757
-0.026487503 -0.0079462528 0.63508779
0.027913809 -0 0.63567376
0.027913809 0.0026584566 0.6356737
-0.026487503 0.0039731264 0.63508773
-0.026487503 0.0079462826 0.63508779
-0.026487503 0.027811915 0.63508779
-0.029462487 -0.014731258 0.63687778
-0.029462487 0.008035183 0.63687783
-0.029462487 0.030801713 0.63687778
-0.029462487 0.034819305 0.63687778
-0.030975057 -0.025588095 0.6377877
-0.030975057 -0.020201117 0.63778764
-0.030975057 0.0067336857 0.6377877
-0.030975057 0.020201147 0.63778764
-0.032504845 -0.03115049 0.63870829
0.029824745 -0.0257577 0.63886541
0.029824745 -0.023046404 0.63886547
-0.032504845 -0.020315528 0.63870829
0.029824745 -0.012201011 0.63886541
0.029824745 0.0054226816 0.63886541
0.029824745 0.0067783594 0.63886541
0.029824745 0.0067783594 0.63886541
0.029824745 0.014912367 0.63886547
0.029824745 0.016268075 0.63886541
0.029824745 0.023046374 0.63886547
0.029824745 0.023046374 0.63886547
0.029824745 0.029824734 0.63886541
0.029824745 0.029824734 0.63886541
-0.034051962 -0.03541404 0.63963902
-0.034051962 -0.03541404 0.63963902
-0.034051962 -0.012258738 0.63963896
-0.034051962 0.0027241707 0.63963896
-0.034051962 0.03541404 0.63963902
-0.035616793 -0.027397543 0.6405803
-0.035616793 0.0082192719 0.6405803
-0.035616793 0.031507134 0.64058036
-0.037199754 -0.008266598 0.6415329
-0.037199754 0.03168866 0.64153302
-0.037199754 0.03168866 0.64153302
0.031813245 -0.029046893 0.64218676
-0.038800944 -0.0069287121 0.64249617
0.031813245 -0.0013831854 0.64218676
-0.038800944 0.0097002387 0.64249611
-0.038800944 0.016628981 0.64249617
-0.040420912 -0.032057971 0.64347106
-0.040420912 0.03484562 0.64347106
-0.040420912 0.03484562 0.64347106
-0.042059746 -0.032245785 0.64445686
-0.042059746 -0.011215925 0.64445692
0.033884138 -0.031060457 0.64564562
-0.043718029 -0.015512854 0.64545494
-0.045395851 -0.0028372407 0.64646417
-0.045395851 0.036884129 0.64646417
-0.047093827 -0.022833347 0.64748603
-0.047093827 -0.011416674 0.64748609
-0.047093827 0.0014270842 0.64748609
-0.047093827 0.022833347 0.64748603
-0.048812043 -0.030148596 0.64851964
-0.048812043 -0.030148596 0.64851964
-0.048812043 0.007178247 0.64851964
0.036042646 -0.030275822 0.64925086
0.036042646 -0.020183891 0.64925086
0.036042646 -0.020183891 0.64925086
-0.050551005 -0.0057772696 0.64956576
-0.050551005 0.011554509 0.6495657
-0.050551005 0.017331779 0.64956576
0.036042646 0.020183891 0.64925086
-0.052311245 0.0029061735 0.65062505
-0.052311245 0.013077855 0.65062505
-0.052311245 0.027608752 0.65062505
-0.052311245 0.027608752 0.65062505
-0.052311245 0.033421069 0.65062505
-0.054092839 0.02046755 0.6516968
-0.054092839 0.036549211 0.6516968
-0.055896509 -0.013238668 0.6527822
-0.055896509 -0.0029419065 0.65278226
-0.055896509 0.016180605 0.6527822
-0.057722334 -0.026641071 0.6538806
-0.059571065 0.0044678152 0.65499318
0.040645868 -0.019570231 0.65693969
0.040645868 -0.0090324283 0.65693969
0.040645868 0.018064857 0.65693969
-0.061442781 0.022479057 0.65611911
-0.063338287 -0.02111277 0.65725982
-0.063338287 -0.015080541 0.65725982
-0.063338287 -0.0045241714 0.65725982
-0.063338287 0.0015080571 0.65725982
-0.063338287 0.02111277 0.65725982
-0.063338287 0.024128884 0.65725982
-0.063338287 0.024128884 0.65725982
-0.063338287 0.033177197 0.65725982
-0.063338287 0.033177197 0.65725982
-0.065257639 -0.036422879 0.65841448
-0.065257639 0.01214096 0.65841442
-0.06917055 -0.032279581 0.66076875
-0.06917055 -0.024593949 0.66076875
-0.06917055 -0.024593949 0.66076875
-0.06917055 -0.012297004 0.66076881
-0.06917055 0.033816695 0.66076875
-0.073185347 -0.014014214 0.66318434
-0.073185347 0.014014244 0.6631844
-0.073185347 0.017128497 0.6631844
-0.073185347 0.0295856 0.6631844
-0.075232081 -0.0015673339 0.66441566
-0.075232081 -0 0.66441566
-0.075232081 0.010971338 0.6644156
0.045674492 -0.029924661 0.66533875
0.045674492 -0.0062999129 0.66533875
0.045674492 -0.0047249496 0.66533875
0.045674492 0.011024892 0.66533875
0.045674492 0.028349668 0.66533875
-0.079407327 -0.031762928 0.66692781
-0.079407327 -0.023822188 0.66692781
0.051190495 -0.024769604 0.6745519
0.051190495 -0.024769604 0.6745519
0.051190495 -0.011559159 0.6745519
0.051190495 0.0033026338 0.67455184
0.054153956 0.01353848 0.67950159
0.057268545 -0.0017353892 0.68470412
0.057268545 0.010412484 0.68470412
0.063998707 -0.029256523 0.6959452
0.067642115 -0.0187895 0.7020306
0.067642115 -0.001878947 0.70203066
0.067642115 0.003757894 0.7020306
0.067642115 0.022547364 0.7020306
0.071492121 0.032847703 0.70846111
0.084474146 -0.031677783 0.73014486
0.084474146 -0.01900667 0.7301448
0.084474146 -0.016894817 0.73014486
0.084474146 -0.014782965 0.73014486
0.084474146 -0.012671113 0.73014486
0.084474146 -0.010559261 0.7301448
0.084474146 0.0084474087 0.73014486
0.084474146 0.010559261 0.73014486
0.08935491 -0.0043587685 0.73829699
0.08935491 0.032690793 0.73829699
0.08935491 0.034870207 0.73829699
0.094558142 -0.018011063 0.7469877
0.094558142 -0.011256933 0.7469877
0.094558142 0.0022513866 0.7469877
0.10011689 -0.030267894 0.75627226
0.10011689 -0.0069848895 0.75627226
0.10011689 0.020954698 0.75627226
0.10011689 0.025611311 0.75627232
0.010813927 -0.031307399 0.61264467
0.0091730217 0.0068797767 0.61363173
0.010813927 0.029030487 0.61264473
0.0058167917 -0.033155695 0.61565131
0.0058167917 -0.029083967 0.61565137
0.0080650626 -0.019010514 0.61429858
0.014947616 -0.0051741749 0.61401671
0.0080650626 -0.0011521876 0.61429858
0.014947616 0.00517416 0.61401671
0.0069463593 0.010998398 0.61497152
0.0058167917 0.015123665 0.61565137
0.0058167917 0.030828997 0.61565137
0.016373681 -0.012865037 0.61639857
0.016373681 0.016958445 0.61639857
0.00059321924 -0.032708354 0.6187942
0.00059321924 -0.029140167 0.6187942
0.017849548 -0.024989367 0.61886364
0.017849548 -0.017254561 0.6188637
-0.0011983224 -0.0011983514 0.61987185
-0.0011983224 0.005392462 0.61987185
0.00059321924 0.023193188 0.6187942
-0.0030200318 -0.021129563 0.6209681
-0.0030200318 -0.0090555102 0.62096798
0.01937787 0.018772334 0.62141633
-0.0067443936 0.0091947615 0.62320894
-0.0048664305 0.018857434 0.62207913
-0.0048664305 0.021290645 0.62207907
-0.0067443936 0.031262167 0.623209
-0.011235162 -0.031208754 0.62591088
-0.011235162 -0.031208754 0.62591088
0.020961493 -0.030825704 0.62406129
-0.011235162 -0.011235178 0.62591088
-0.011235162 -0.011235178 0.62591088
0.020961493 0.0030825585 0.62406135
-0.0092915855 0.011147976 0.62474155
-0.011235162 0.013107672 0.62591088
0.020961493 0.012946814 0.62406135
0.020961493 0.030825704 0.62406135
-0.011235162 0.033081308 0.62591088
0.020961493 0.036990911 0.62406135
0.020961493 0.036990911 0.62406135
0.022603478 -0.035160929 0.62680387
-0.013212841 -0.030826099 0.62710077
0.022603478 -0.0050229728 0.62680387
-0.013212841 0.0069201365 0.62710077
-0.013212841 0.023276858 0.62710071
-0.015218452 -0.022827685 0.6283074
-0.015218452 -0.0031705201 0.6283074
-0.015218452 -0.0031705201 0.6283074
0.024307171 0.012793243 0.62964976
0.024307171 0.017270878 0.62964976
-0.017031413 0.031078797 0.62939835
-0.019330541 -0.032861918 0.63078177
-0.019330541 -0.03092888 0.63078177
-0.019330541 -0.014820084 0.63078177
-0.0207309 0.0051827133 0.6316241
-0.019330541 0.014820069 0.63078177
-0.022862092 -0.01110357 0.63290632
-0.022862092 -0.0091441423 0.63290632
0.026075993 0.0032594949 0.63260412
0.026075993 0.0071709007 0.63260412
0.026075993 0.029335499 0.63260412
-0.027227089 -0.025233164 0.63553268
0.027913809 -0.023261502 0.6356737
-0.025024543 -0.009219557 0.63420737
-0.025024543 0.0072439462 0.63420737
-0.030975057 -0.0013467371 0.6377877
-0.029462487 0.024775296 0.63687778
-0.032504845 -0.03318204 0.63870835
0.029824745 -0.027113408 0.63886547
-0.032504845 -0.018961161 0.63870829
-0.032504845 -0.0027087331 0.63870829
-0.032504845 0.012866512 0.63870835
-0.032504845 0.020992711 0.63870829
-0.034051962 0.031327784 0.63963902
-0.032504845 0.037245139 0.63870835
-0.035616793 -0.032877028 0.6405803
-0.037199754 0.019288778 0.6415329
-0.037199754 0.024799824 0.6415329
-0.037199754 0.033066452 0.64153296
-0.038800944 -0.018707603 0.64249617
0.031813245 -0.011065483 0.6421867
0.031813245 0.022822529 0.64218676
-0.038800944 0.024943441 0.64249617
0.031813245 0.029046893 0.6421867
0.033884138 -0.031060457 0.64564562
0.033884138 -0.012706578 0.64564562
-0.042888887 -0.0091398284 0.64495587
-0.042888887 -0.0014061332 0.64495587
0.033884138 0.014824316 0.64564562
-0.042888887 0.025310263 0.64495587
-0.047093827 0.019265667 0.64748609
-0.050551005 -0.031052738 0.6495657
0.036042646 -0.027392417 0.64925086
-0.048812043 -0.0028712749 0.64851964
-0.048812043 -0.0014356375 0.64851964
-0.054092839 -0.010964751 0.6516968
-0.052311245 -0.010898158 0.65062505
-0.052311245 0.00072655082 0.65062511
-0.055896509 -0.025006324 0.65278226
0.038294572 0.0029457211 0.65301251
-0.055896509 0.0051483512 0.6527822
-0.055896509 0.014709622 0.65278226
-0.055896509 0.025006324 0.65278226
0.038294572 0.030930251 0.65301251
-0.059571065 0.031274796 0.65499318
-0.061442781 -0.032969296 0.65611911
-0.063338287 -0.024882913 0.65725982
-0.061442781 -0.020980448 0.65611911
-0.061442781 -0.020980448 0.65611911
-0.061442781 -0.0089916289 0.65611911
0.040645868 -0.0067743063 0.65693974
-0.061442781 -0.00149858 0.65611911
0.040645868 0.015054017 0.65693974
-0.061442781 0.020980477 0.65611911
-0.061442781 0.029222772 0.65611911
-0.067201495 -0.019091323 0.65958381
-0.065257639 -0.012899771 0.65841442
-0.067201495 0.0068728626 0.65958381
-0.065257639 0.012899756 0.65841448
-0.065257639 0.033387661 0.65841442
-0.06917055 -0.024593949 0.66076875
0.043103389 -0.016933471 0.66104436
-0.071164854 0.0069617927 0.66196847
-0.073185347 -0.028806999 0.6631844
-0.073185347 0.018685639 0.6631844
-0.077306062 -0.033131182 0.66566372
-0.077306062 -0.007099539 0.66566372
0.045674492 0.012599826 0.66533881
0.045674492 0.014962316 0.66533875
0.045674492 0.017324805 0.66533875
-0.077306062 0.026820481 0.66566372
0.045674492 0.026774734 0.66533875
-0.079407327 -0.001588136 0.66692781
0.048367251 -0.014510185 0.6698364
0.048367251 0.024989739 0.6698364
0.051190495 0.00082565844 0.67455184
0.051190495 0.0066052377 0.67455184
0.051190495 0.026420891 0.67455184
0.054153956 -0.03046158 0.67950159
0.054153956 -0.025384665 0.67950159
0.054153956 0.0050769448 0.67950153
0.054153956 0.01353848 0.67950159
0.054153956 0.0169231 0.67950159
0.054153956 0.0169231 0.67950159
0.057268545 -0.026898846 0.68470418
0.057268545 -0.015618682 0.68470418
0.057268545 0.029501975 0.68470418
0.060545698 0.0089037716 0.6901778
0.063998707 0.031085104 0.69594514
0.067642115 -0.011273682 0.7020306
0.071492121 -0.0096611083 0.70846111
0.071492121 0.032847703 0.70846111
0.079886436 -0.014338613 0.72248167
0.079886436 0.0040967464 0.72248173
0.079886436 0.0081934929 0.72248173
0.084474146 -0.0042237341 0.73014486
0.084474146 0.021118551 0.73014486
0.08935491 -0.028332055 0.73829693
0.08935491 -0.021793872 0.73829693
0.08935491 -0.021793872 0.73829693
0.08935491 -0.021793872 0.73829693
0.08935491 0.002179414 0.73829699
0.08935491 0.010896951 0.73829699
0.08935491 0.026152641 0.73829699
0.08935491 0.028332055 0.73829699
0.094558142 0.0045027733 0.7469877
0.10011689 -0.0046566129 0.75627232
0.10011689 0.020954698 0.75627226
0.013001494 0.029959749 0.61169183
0.0093506714 -0.017853897 0.61352503
0.014947616 0.0017247275 0.61401665
0.0063815755 0.0060928501 0.61531138
0.0063815755 0.0060928501 0.61531138
0.0046761693 -0.036240324 0.61633748
0.0046761693 -0.0020458251 0.61633742
0.0046761693 0.018120162 0.61633748
-0.0058054118 -0.021982007 0.62264407
0.01937787 -0.017863989 0.62141633
0.01937787 -0.0021194592 0.62141633
-0.0058054118 0.026104437 0.62264407
0.01937787 0.026039019 0.62141633
-0.010585069 -0.03610824 0.62551981
-0.013212841 -0.033971619 0.62710077
-0.013212841 -0.014154837 0.62710071
-0.013212841 -0.014154837 0.62710071
-0.013212841 0.022018649 0.62710071
-0.013212841 0.022018649 0.62710071
0.024307171 -0.030064136 0.62964976
-0.018295191 -0.022141092 0.63015878
-0.0207309 0.010041535 0.6316241
0.024307171 0.030064158 0.62964976
-0.015218452 0.033924483 0.62830734
0.026994899 -0.014152534 0.63413894
-0.026187448 -0.0022038259 0.63490707
0.026994901 0.0019747727 0.63413894
0.026994901 0.0019747727 0.63413894
-0.026125815 0.018185347 0.63486999
-0.032504845 -0.036567956 0.63870835
-0.030218773 -0.021823309 0.63733274
0.029824745 -0.0016945899 0.63886547
-0.030218773 0.0097365379 0.63733274
-0.030218773 0.029881153 0.63733274
-0.030218773 0.029881153 0.63733274
-0.035616793 -0.033904441 0.6405803
-0.040420912 -0.029967204 0.64347106
-0.046244837 -0.033792756 0.64697516
-0.046244837 0.0060471147 0.64697516
-0.049681522 -0.0021599606 0.64904273
0.036042646 0.029915407 0.64925086
0.038294572 -0.021724813 0.65301251
0.038294572 -0.021724813 0.65301251
-0.058646698 -0.0063098483 0.65443689
0.038294572 -0.0018410981 0.65301251
-0.055896509 0.013974145 0.65278226
-0.058646701 0.021898851 0.65443689
0.038294572 0.030193806 0.65301251
-0.062390532 -0.018038779 0.65668947
0.040645868 -0.01768849 0.65693974
-0.073185347 -0.025692731 0.6631844
-0.073185347 -0.013624929 0.6631844
0.043103389 0.0057727545 0.66104442
0.043103389 0.010006145 0.66104442
-0.070167705 0.017926216 0.66136861
-0.070167705 0.033924799 0.66136861
0.045674492 -0.0023624897 0.66533875
0.051190495 -0.025595263 0.6745519
0.051190495 0.025595248 0.67455184
0.051190495 0.025595248 0.67455184
0.063998707 -0.033827871 0.6959452
0.063998707 0.0022856519 0.69594514
0.063998707 0.0022856519 0.69594514
0.063998707 0.030170828 0.69594514
0.067642115 -0.014092118 0.70203066
0.071492121 0.01062721 0.70846111
0.075566806 0.010937303 0.71526682
0.079886436 0.029701367 0.72248173
0.084474146 -0.0052796453 0.73014486
0.08935491 0.029421747 0.73829699
0.094558142 0.0056284666 0.7469877
0.094558142 0.025890946 0.7469877
