# .PCD v0.7 - Point Cloud Data file format
VERSION 0.7
FIELDS x y z
SIZE 4 4 4
TYPE F F F
COUNT 1 1 1
WIDTH 1337
HEIGHT 1
VIEWPOINT 0 0 0 1 0 0 0
POINTS 1337
DATA ascii
-0.015884403 -0.071479797 0.71489871
-0.016063806 -0.074295074 0.71760565
-0.012291595 0.073749602 0.68718255
-0.011854754 0.069434971 0.67964947
-0.011447895 0.065416545 0.67263347
-0.011068038 0.06166479 0.66608304
-0.010712544 0.058153838 0.65995276
-0.010379208 0.054861546 0.65420461
-0.010065991 0.051767975 0.64880335
-0.0097711235 0.048855633 0.6437186
-0.0094930409 0.046109051 0.63892317
-0.0092303483 0.04351452 0.63439322
-0.0089818025 0.041059673 0.63010722
-0.0087462906 0.038733542 0.62604594
-0.0085228141 0.036526352 0.62219226
-0.0083104735 0.034429103 0.61853051
-0.0081548309 0.032619327 0.61584663
-0.0082085989 0.031661719 0.61677378
-0.0082631009 0.030691504 0.61771363
-0.0083183311 0.029708326 0.61866605
-0.0083743045 0.028711885 0.61963129
-0.0084310155 0.027701914 0.62060922
-0.0084885219 0.026678205 0.62160087
-0.0085468171 0.025640428 0.62260616
-0.0086058965 0.024588287 0.62362492
-0.0086658206 0.023521513 0.62465829
-0.0087265857 0.022439808 0.62570614
-0.0087882094 0.021342784 0.62676883
-0.0088506853 0.020230114 0.62784618
-0.0089140795 0.01910159 0.62893933
-0.0089783892 0.017956793 0.63004839
-0.009043633 0.016795307 0.63117343
-0.0091098072 0.015616804 0.63231462
-0.0091769826 0.014420986 0.63347292
-0.0092451563 0.013207376 0.63464856
-0.0093143499 0.011975586 0.63584179
-0.0093845595 0.0107252 0.63705254
-0.0094558643 0.0094558597 0.63828212
-0.0095282597 0.008167088 0.63953054
-0.0096017458 0.0068583488 0.64079779
-0.0096764015 0.0055293739 0.64208513
-0.009752227 0.0041795373 0.64339268
-0.0098292502 0.0028083622 0.64472091
-0.009907471 0.0014153719 0.64606977
-0.0099869762 -2.9802322e-08 0.64744085
-0.010067767 -0.0014382303 0.64883399
-0.010149878 -0.0028999746 0.65024996
-0.010233305 -0.00438568 0.65168858
-0.010318149 -0.0058960617 0.65315169
-0.010404411 -0.0074317157 0.65463924
-0.010492127 -0.008993268 0.65615177
-0.010581302 -0.010581315 0.65768957
-0.010672037 -0.0121966 0.65925431
-0.010764345 -0.013839871 0.66084605
-0.010858263 -0.015511841 0.66246563
-0.010953798 -0.017213106 0.66411304
-0.011051065 -0.01894471 0.66579038
-0.011150076 -0.020707309 0.66749775
-0.011250876 -0.022501737 0.669236
-0.011353478 -0.024328887 0.67100525
-0.011458007 -0.026189744 0.67280781
-0.011564478 -0.028085142 0.67464387
-0.011672907 -0.030016035 0.67651361
-0.011783428 -0.031983584 0.67841953
-0.011896064 -0.033988744 0.68036187
-0.012010873 -0.036032647 0.68234169
-0.012127876 -0.038116187 0.68435931
-0.012247225 -0.040240914 0.6864174
-0.012368948 -0.042407811 0.68851644
-0.012493114 -0.044618279 0.69065762
-0.01261975 -0.046873331 0.69284141
-0.012749029 -0.049174815 0.69507068
-0.012880984 -0.051523954 0.69734621
-0.013015699 -0.053922206 0.6996693
-0.013153209 -0.056370914 0.70204055
-0.01329371 -0.058872133 0.70446336
-0.013437244 -0.061427414 0.70693851
-0.013583912 -0.064038426 0.70946771
-0.013733759 -0.066706836 0.71205181
-0.013887009 -0.06943503 0.71469444
-0.014043716 -0.072224796 0.71739674
-0.01420394 -0.075077981 0.72015977
-0.010735183 0.075146317 0.6911968
-0.01034669 0.070702404 0.68338096
-0.0099853342 0.066568911 0.67611098
-0.0096483668 0.062714398 0.66933173
-0.0093333991 0.059111536 0.66299504
-0.0090383468 0.055736482 0.65705907
-0.0087613761 0.052568257 0.65148687
-0.0085008759 0.049588472 0.64624596
-0.0082554203 0.046780705 0.64130783
-0.0080237398 0.044130564 0.63664681
-0.0078046881 0.041624993 0.63223976
-0.0075972984 0.039252728 0.62806737
-0.0074006459 0.037003219 0.62411106
-0.0072139166 0.034867257 0.62035435
-0.0070363781 0.032836437 0.61678261
-0.0070790686 0.031855792 0.61764139
-0.0071263607 0.030880868 0.61859286
-0.0071742702 0.029892772 0.61955678
-0.0072228475 0.028891414 0.62053406
-0.007272087 0.027876347 0.62152469
-0.0073219836 0.026847273 0.62252849
-0.0073725893 0.025804073 0.6235466
-0.0074238987 0.024746358 0.62457889
-0.0074759275 0.023673773 0.62562561
-0.0075286701 0.022585988 0.62668675
-0.0075821835 0.021482885 0.62776333
-0.0076364623 0.020363927 0.62885535
-0.0076915245 0.019228846 0.6299631
-0.0077473652 0.018077165 0.63108653
-0.0078040436 0.016908735 0.63222682
-0.0078615574 0.015723109 0.63338387
-0.0079199038 0.01451984 0.63455766
-0.0079791453 0.013298571 0.63574958
-0.0080392789 0.012058914 0.63695937
-0.0081003262 0.010800451 0.63818759
-0.0081622843 0.0095226765 0.63943404
-0.0082252212 0.0082252026 0.64070022
-0.008289136 0.0069076419 0.64198613
-0.008354052 0.0055693686 0.64329213
-0.0084199673 0.0042099655 0.64461827
-0.0084869582 0.0028289855 0.64596599
-0.0085550221 0.0014258325 0.64733535
-0.0086241867 -0 0.64872682
-0.0086944532 -0.0014490783 0.65014046
-0.0087658996 -0.0029219389 0.65157783
-0.0088385306 -0.0044192672 0.6530391
-0.0089123752 -0.0059415698 0.65452468
-0.0089874361 -0.0074895322 0.65603483
-0.0090638008 -0.0090637803 0.6575712
-0.009141474 -0.010665059 0.65913385
-0.0092204912 -0.012293994 0.66072351
-0.0093008541 -0.013951272 0.66234028
-0.0093826624 -0.015637755 0.66398615
-0.0094659226 -0.01735419 0.66566122
-0.0095506404 -0.019101262 0.66736555
-0.0096369218 -0.020879984 0.66910148
-0.0097247763 -0.022691131 0.67086893
-0.0098142475 -0.024535596 0.67266893
-0.0099053457 -0.026414216 0.67450172
-0.0099981865 -0.02832818 0.67636949
-0.010092784 -0.030278355 0.67827266
-0.010189188 -0.032265753 0.6802122
-0.010287414 -0.034291387 0.68218833
-0.010387591 -0.036356568 0.68420374
-0.010489739 -0.038462371 0.68625879
-0.010593914 -0.040609986 0.68835467
-0.01070014 -0.042800546 0.69049174
-0.010808558 -0.04503569 0.69267297
-0.010919197 -0.047316521 0.69489884
-0.01103208 -0.049644351 0.69716984
-0.011147366 -0.052021027 0.69948924
-0.011265086 -0.054447919 0.70185763
-0.011385321 -0.056926578 0.7042765
-0.011508101 -0.059458554 0.7067467
-0.011633607 -0.062045932 0.70927173
-0.011761881 -0.064690322 0.71185231
-0.011893014 -0.06739378 0.71449053
-0.012027054 -0.070157796 0.71718717
-0.012164203 -0.072985202 0.71994644
-0.0091187144 0.076597214 0.6953668
-0.0087825833 0.072017193 0.68725193
-0.0084703527 0.067762822 0.67971396
-0.0081795594 0.063800544 0.67269361
-0.0079080695 0.06010136 0.66613925
-0.0076539982 0.056639582 0.66000545
-0.0074157678 0.053393513 0.65425408
-0.0071919193 0.050343454 0.64884984
-0.0069811889 0.04747209 0.64376235
-0.0067824563 0.044764221 0.63896453
-0.0065947254 0.042206258 0.63443232
-0.0064171064 0.039786041 0.63014418
-0.0062488047 0.037492841 0.62608099
-0.0060891048 0.035316795 0.62222558
-0.0059373653 0.033249229 0.61856222
-0.0059355898 0.032052189 0.61851943
-0.00597549 0.031072527 0.61948264
-0.0060159289 0.030079633 0.62045896
-0.0060569034 0.029073149 0.62144816
-0.0060984562 0.028052866 0.62245136
-0.0061405827 0.027018577 0.62346834
-0.0061832955 0.025969833 0.62449956
-0.0062265904 0.024906367 0.62554473
-0.0062705125 0.02382794 0.62660515
-0.0063150581 0.022734195 0.62768054
-0.0063602412 0.021624833 0.62877136
-0.0064060586 0.020499378 0.62987751
-0.0064525586 0.019357681 0.63100004
-0.006499738 0.018199265 0.63213915
-0.0065475944 0.017023742 0.63329446
-0.0065961797 0.015830845 0.63446742
-0.0066454909 0.014620066 0.63565791
-0.0066955453 0.013391078 0.63686633
-0.0067463396 0.012143403 0.63809264
-0.0067979312 0.010876656 0.63933814
-0.0068503167 0.0095904768 0.64060283
-0.0069035166 0.0082842112 0.64188725
-0.0069575282 0.0069575012 0.64319116
-0.0070124124 0.0056099594 0.64451617
-0.0070681698 0.0042409003 0.64586234
-0.0071248212 0.0028499663 0.64722997
-0.0071823657 0.0014364719 0.64861917
-0.00724087 -0 0.65003163
-0.007300335 -0.0014600754 0.6514672
-0.007360762 -0.0029442906 0.65292609
-0.0074222204 -0.0044533312 0.65440983
-0.0074847145 -0.0059877634 0.65591854
-0.0075482689 -0.0075482428 0.65745294
-0.0076128882 -0.0091354847 0.65901297
-0.0076786485 -0.010750055 0.66060054
-0.0077455547 -0.012392879 0.66221577
-0.0078136362 -0.014064521 0.66385943
-0.0078828996 -0.015765786 0.66553158
-0.0079534287 -0.01749751 0.6672343
-0.0080252308 -0.019260556 0.66896778
-0.0080983425 -0.021055669 0.6707328
-0.0081727691 -0.022883743 0.67252964
-0.0082486048 -0.024745822 0.67436051
-0.0083258618 -0.02664277 0.67622566
-0.0084045799 -0.028575569 0.67812604
-0.0084847696 -0.030545175 0.68006206
-0.008566536 -0.032552838 0.68203604
-0.0086498931 -0.034599572 0.68404847
-0.0087348558 -0.036686391 0.68609965
-0.0088215377 -0.038814753 0.68819237
-0.0089099575 -0.040985793 0.69032699
-0.0090001663 -0.043200791 0.69250482
-0.0090921875 -0.045460939 0.69472641
-0.009186144 -0.047767967 0.69699472
-0.0092820637 -0.050123155 0.69931036
-0.0093800062 -0.052528054 0.70167494
-0.0094800014 -0.054984003 0.70408905
-0.0095821889 -0.05749312 0.70655608
-0.0096866041 -0.060056984 0.70907694
-0.0097933207 -0.062677234 0.71165323
-0.009902372 -0.065355688 0.71428603
-0.010013923 -0.068094701 0.71697909
-0.010128015 -0.070896089 0.71973348
-0.010244693 -0.073761791 0.72255033
-0.007159174 0.073381543 0.6912688
-0.0069000092 0.069000095 0.68344778
-0.0066589536 0.064924777 0.67617327
-0.0064341715 0.061124623 0.66938984
-0.0062240693 0.057572663 0.66304946
-0.0060272552 0.054245293 0.6571101
-0.0058425064 0.05112192 0.6515348
-0.0056687468 0.048184365 0.64629114
-0.0055050235 0.045416445 0.64135033
-0.0053504929 0.042803943 0.63668698
-0.0052044005 0.040334105 0.63227826
-0.0050660605 0.037995458 0.62810349
-0.0049348976 0.035778016 0.62414527
-0.0048103547 0.033672482 0.62038684
-0.0047779386 0.03225109 0.61940861
-0.0048102448 0.0312666 0.6203835
-0.0048430027 0.030268788 0.6213721
-0.0048762099 0.029257268 0.62237418
-0.0049098758 0.02823177 0.6233902
-0.0049439971 0.027192026 0.62441987
-0.0049786088 0.02613768 0.62546438
-0.005013709 0.025068551 0.62652361
-0.0050492934 0.023984134 0.62759745
-0.0050854003 0.022884309 0.62868708
-0.0051220278 0.02176863 0.62979245
-0.0051591867 0.020636767 0.63091385
-0.005196874 0.019488305 0.63205111
-0.0052351309 0.018322974 0.63320565
-0.0052739549 0.017140359 0.63437724
-0.0053133587 0.0159401 0.63556635
-0.0053533413 0.014721721 0.63677287
-0.0053939456 0.013484865 0.63799828
-0.0054351701 0.012229145 0.63924235
-0.0054770298 0.010954082 0.64050555
-0.0055195233 0.0096591413 0.64178789
-0.0055626975 0.008344084 0.64309084
-0.0056065521 0.0070081651 0.64441431
-0.005651087 0.0056510866 0.64575821
-0.005696353 0.0042722821 0.64712417
-0.0057423497 0.0028712153 0.64851224
-0.0057890946 0.0014472604 0.64992297
-0.0058365888 2.9802322e-08 0.65135622
-0.0058848872 -0.0014712214 0.65281373
-0.0059339921 -0.002967 0.65429562
-0.0059839236 -0.0044879317 0.65580243
-0.0060346825 -0.0060347021 0.65733421
-0.0060863299 -0.0076079369 0.65889287
-0.0061388691 -0.0092083216 0.66047829
-0.0061923224 -0.010836571 0.66209143
-0.0062466953 -0.012493402 0.66373223
-0.0063020517 -0.014179617 0.66540283
-0.0063583986 -0.015895993 0.66710323
-0.0064157397 -0.017643273 0.66883367
-0.0064741471 -0.019422442 0.67059624
-0.0065336274 -0.021234304 0.67239124
-0.0065942104 -0.023079723 0.67421949
-0.0066559054 -0.024959654 0.6760813
-0.0067187883 -0.026875138 0.67797893
-0.0067828712 -0.02882722 0.67991281
-0.0068481881 -0.030816823 0.68188393
-0.0069147507 -0.03284505 0.68389261
-0.0069826446 -0.034913212 0.68594152
-0.0070518861 -0.037022412 0.68803102
-0.0071225134 -0.039173812 0.69016242
-0.0071945428 -0.041368634 0.69233608
-0.0072680721 -0.043608427 0.69455504
-0.0073431199 -0.045894474 0.69681978
-0.0074197333 -0.048228234 0.69913179
-0.0074979332 -0.050611049 0.70149171
-0.0075778291 -0.053044826 0.70390278
-0.007659446 -0.055530965 0.70636582
-0.0077428394 -0.058071256 0.70888245
-0.0078280373 -0.060667276 0.7114535
-0.0079151643 -0.063321322 0.71408278
-0.0080042519 -0.066035062 0.71677125
-0.0080953334 -0.068810344 0.71951985
-0.0081885466 -0.07164982 0.72233284
-0.0082839318 -0.074555367 0.72521126
-0.0054730875 0.074798882 0.6954416
-0.0052712746 0.070283651 0.68732125
-0.0050838152 0.0660896 0.67977846
-0.0049092309 0.062183619 0.67275375
-0.0047462396 0.058536977 0.66619551
-0.0045937235 0.0551247 0.66005868
-0.00445069 0.051924706 0.65430349
-0.0043163076 0.048918158 0.6488964
-0.0041898028 0.046087801 0.64380622
-0.0040705022 0.043418735 0.6390059
-0.0039578071 0.04089734 0.63447142
-0.0038511842 0.038511842 0.63018125
-0.0037501557 0.036251515 0.62611616
-0.0036542919 0.034106702 0.6222589
-0.0036058207 0.032452375 0.62030864
-0.0036303638 0.031463146 0.62129617
-0.0036552434 0.030460358 0.62229723
-0.0036804569 0.029443651 0.6233117
-0.0037060301 0.028412908 0.62434071
-0.0037319611 0.027367711 0.62538409
-0.0037582479 0.026307702 0.62644184
-0.0037849178 0.025232792 0.6275149
-0.0038119685 0.024142474 0.62860334
-0.003839409 0.02303648 0.62970746
-0.0038672364 0.021914333 0.63082719
-0.0038954813 0.020775914 0.63196361
-0.0039241421 0.019620687 0.63311684
-0.0039532161 0.018448353 0.6342867
-0.0039827353 0.017258525 0.6354745
-0.0040126992 0.016050816 0.63668013
-0.0040431172 0.014824778 0.63790405
-0.0040739877 0.013579935 0.63914621
-0.0041053458 0.012316018 0.64040792
-0.0041371901 0.011032492 0.6416893
-0.0041695321 0.0097289085 0.64299059
-0.0042023715 0.0084047318 0.6443119
-0.0042357449 0.0070595741 0.64565474
-0.0042696525 0.0056928694 0.64701909
-0.0043041077 0.004304111 0.64840543
-0.0043391096 0.0028927326 0.64981389
-0.0043746997 0.0014582574 0.65124589
-0.0044108783 2.9802322e-08 0.65270162
-0.0044476599 -0.0014825165 0.6541816
-0.004485046 -0.0029900074 0.65568584
-0.0045230808 -0.0045230687 0.65721631
-0.0045617656 -0.006082356 0.65877289
-0.0046011033 -0.0076684952 0.66035569
-0.0046411403 -0.0092822611 0.66196662
-0.0046818806 -0.010924369 0.66360587
-0.0047233421 -0.012595564 0.66527414
-0.0047655287 -0.014296561 0.66697162
-0.0048084916 -0.016028285 0.66870034
-0.0048522362 -0.01779151 0.67046052
-0.0048967847 -0.019587129 0.67225295
-0.004942141 -0.021415949 0.67407793
-0.004988363 -0.023279011 0.67593777
-0.0050354577 -0.02517727 0.67783272
-0.0050834506 -0.027111739 0.67976385
-0.0051323478 -0.029083341 0.68173134
-0.0051822145 -0.03109327 0.68373781
-0.0052330592 -0.033142716 0.68578362
-0.005284912 -0.035232753 0.68786997
-0.0053377822 -0.037364453 0.68999732
-0.0053917416 -0.039539456 0.69216847
-0.0054468024 -0.041758835 0.69438398
-0.0055030002 -0.04402402 0.6966452
-0.0055603473 -0.046336234 0.69895267
-0.0056189252 -0.048697352 0.70130968
-0.0056787506 -0.051108718 0.70371681
-0.0057398397 -0.05357185 0.70617485
-0.0058022812 -0.056088716 0.70868731
-0.0058660968 -0.058660984 0.71125507
-0.0059313308 -0.061290443 0.71387994
-0.0059980075 -0.063978761 0.71656275
-0.0060662259 -0.066728473 0.71930766
-0.0061360141 -0.069541484 0.7221157
-0.0062074261 -0.072419941 0.72498912
-0.0037205867 0.076272041 0.69977885
-0.003580794 0.071615905 0.69134164
-0.0034511259 0.067296952 0.68351543
-0.0033305089 0.063279629 0.67623556
-0.0032180496 0.059533894 0.66944808
-0.0031129369 0.056032866 0.66310394
-0.0030144732 0.05275327 0.65716118
-0.0029220481 0.049674839 0.65158272
-0.0028351212 0.046779484 0.64633632
-0.0027532172 0.044051468 0.64139295
-0.002675913 0.041476667 0.63672721
-0.0026028308 0.039042473 0.63231635
-0.0025336347 0.03673771 0.62813991
-0.0024680158 0.034552217 0.62417948
-0.0024189851 0.032656282 0.62122023
-0.002435548 0.031662107 0.62221986
-0.0024523456 0.030654311 0.62323368
-0.0024693764 0.029632539 0.62426162
-0.0024866452 0.028596431 0.62530386
-0.0025041511 0.027545661 0.62636048
-0.0025219116 0.026480079 0.62743241
-0.002539926 0.025399268 0.62851965
-0.0025581927 0.02430284 0.6296221
-0.0025767309 0.023190588 0.630741
-0.0025955399 0.022062093 0.63187629
-0.0026146253 0.020917028 0.63302815
-0.0026339863 0.019754887 0.6341967
-0.0026536437 0.018575519 0.63538313
-0.0026735964 0.01737839 0.63658738
-0.002693844 0.016163081 0.63780946
-0.0027144083 0.014929235 0.6390506
-0.0027352893 0.013676465 0.64031088
-0.0027564936 0.012404203 0.64159071
-0.0027780214 0.011112094 0.64288998
-0.0027998963 0.0097996593 0.64421022
-0.0028221183 0.008466363 0.6455515
-0.0028446959 0.0071117282 0.64691418
-0.0028676288 0.0057352781 0.64829826
-0.0028909438 0.0043364167 0.64970547
-0.0029146406 0.0029146671 0.65113568
-0.0029387295 0.0014693737 0.65258956
-0.0029632102 -0 0.6540671
-0.0029881115 -0.0014940202 0.65557003
-0.0030134353 -0.0030134618 0.65709847
-0.0030391822 -0.0045587718 0.65865242
-0.0030653826 -0.0061307549 0.6602338
-0.0030920389 -0.0077301264 0.66184264
-0.0031191625 -0.0093574822 0.66347969
-0.003146756 -0.011013627 0.66514504
-0.0031748526 -0.012699395 0.66684085
-0.0032034556 -0.014415562 0.66856724
-0.0032325785 -0.016162872 0.67032492
-0.0032622244 -0.01794222 0.67211419
-0.0032924307 -0.019754589 0.67393732
-0.0033232016 -0.021600813 0.67579454
-0.0033545531 -0.023481846 0.67768675
-0.0033864898 -0.025398672 0.67961431
-0.0034190528 -0.027352393 0.68157965
-0.0034522477 -0.029344112 0.68358314
-0.0034860813 -0.031374723 0.68562514
-0.0035205972 -0.033445656 0.68770844
-0.0035558036 -0.035558045 0.68983328
-0.0035917212 -0.037713051 0.69200116
-0.0036283578 -0.039911926 0.69421232
-0.0036657641 -0.042156279 0.69646996
-0.0037039495 -0.044447362 0.6987747
-0.0037429389 -0.046786726 0.70112795
-0.0037827424 -0.04917562 0.70353025
-0.0038234172 -0.051616162 0.70598525
-0.0038649763 -0.054109663 0.70849353
-0.0039074486 -0.056658 0.71105701
-0.0039508487 -0.059262723 0.71367639
-0.0039952402 -0.061926246 0.71635568
-0.0040406408 -0.064650238 0.71909577
-0.0040870849 -0.067436904 0.72189903
-0.0041345912 -0.070288062 0.72476619
-0.0041832332 -0.073206574 0.72770202
-0.00189766 0.077804029 0.70428944
-0.0018249826 0.072999299 0.69551647
-0.0017576666 0.068548948 0.68739074
-0.0016951399 0.064415306 0.67984307
-0.0016369091 0.060565621 0.67281401
-0.001582546 0.056971669 0.66625178
-0.0015316779 0.053608716 0.66011143
-0.0014839779 0.050455272 0.65435356
-0.0014391548 0.047492117 0.64894295
-0.0013969642 0.044702888 0.64385009
-0.001357177 0.042072475 0.63904727
-0.0013195933 0.039587796 0.63451052
-0.001284035 0.037237018 0.63021833
-0.0012503428 0.035009623 0.62615132
-0.0012183737 0.032896072 0.62229228
-0.0012255271 0.031863719 0.62315583
-0.0012340337 0.030850857 0.62418258
-0.0012426557 0.02982372 0.6252234
-0.0012514024 0.028782248 0.62627918
-0.0012602732 0.027726054 0.62734997
-0.0012692672 0.026654601 0.62843567
-0.0012783938 0.025567889 0.62953734
-0.0012876529 0.024465412 0.63065505
-0.0012970468 0.023346871 0.63178897
-0.0013065754 0.02221176 0.63293916
-0.0013162486 0.02105999 0.63410676
-0.001326066 0.019891024 0.63529187
-0.0013360273 0.018704385 0.63649434
-0.0013461432 0.017499864 0.63771546
-0.0013564134 0.016276985 0.63895512
-0.0013668416 0.015035272 0.64021391
-0.0013774274 0.013774276 0.64149177
-0.0013881824 0.01249361 0.64279002
-0.0013991066 0.011192888 0.64410865
-0.0014102042 0.0098714232 0.64544827
-0.0014214751 0.0085288584 0.6468088
-0.001432932 0.0071646869 0.64819175
-0.0014445748 0.0057783127 0.64959717
-0.0014564041 0.0043691993 0.65102512
-0.0014684331 0.0029368401 0.65247715
-0.0014806626 0.001480639 0.65395337
-0.0014930976 -0 0.6554544
-0.0015057382 -0.0015057325 0.65698022
-0.0015185998 -0.0030372143 0.65853274
-0.0015316828 -0.0045950413 0.66011202
-0.0015449933 -0.0061799586 0.66171873
-0.001558532 -0.0077926815 0.66335297
-0.0015723152 -0.0094338655 0.66501683
-0.0015863444 -0.011104435 0.66671026
-0.0016006263 -0.012805015 0.66843426
-0.0016151622 -0.01453644 0.6701889
-0.00162997 -0.016299695 0.67197633
-0.0016450521 -0.018095583 0.67379689
-0.0016604156 -0.019924998 0.67565143
-0.0016760631 -0.021788806 0.6775403
-0.0016920143 -0.023688197 0.67946577
-0.0017082718 -0.025624096 0.68142825
-0.0017248449 -0.027597517 0.68342876
-0.0017417364 -0.029609531 0.68546778
-0.0017589686 -0.031661421 0.6875478
-0.001776545 -0.033754349 0.68966949
-0.0017944694 -0.035889387 0.6918332
-0.0018127662 -0.038068056 0.69404179
-0.00183144 -0.040291667 0.69629598
-0.0018505024 -0.042561531 0.69859695
-0.0018699587 -0.044879019 0.70094556
-0.0018898357 -0.04724589 0.70334488
-0.0019101399 -0.049663633 0.70579582
-0.0019308852 -0.052133888 0.70830005
-0.001952078 -0.054658145 0.71085823
-0.0019737494 -0.057238758 0.71347427
-0.0019959074 -0.059877217 0.71614891
-0.0020185686 -0.062575638 0.71888435
-0.0020417413 -0.065335721 0.72168154
-0.0020654614 -0.068160206 0.72454476
-0.0020897391 -0.071051151 0.7274754
-0.0021145847 -0.074010462 0.73047453
0 0.074437529 0.69985664
0 0.069848776 0.69141364
0 0.065592498 0.68358237
0 0.061633497 0.6762979
0 0.057942271 0.66950625
0 0.054492176 0.66315836
0 0.051260412 0.6572122
0 0.048226923 0.65163076
0 0.045373917 0.64638144
0 0.042685807 0.6414355
0 0.040148705 0.63676745
0 0.037750214 0.63235438
0 0.035479277 0.62817603
0 0.03332594 0.62421417
0 0.032067806 0.62410331
0 0.031049818 0.62514335
0 0.030017525 0.62619799
0 0.02897051 0.6272673
0 0.027908683 0.62835217
0 0.026831537 0.62945265
0 0.025738835 0.6305691
0 0.0246301 0.63170135
0 0.023505151 0.63285071
0 0.022363573 0.63401705
0 0.021204919 0.63520032
0 0.020028919 0.63640183
0 0.018835068 0.63762152
0 0.017623097 0.63885981
0 0.01639241 0.64011663
0 0.015142739 0.64139342
0 0.013873577 0.64269012
0 0.012584388 0.64400727
0 0.011274755 0.64534473
0 0.0099442601 0.64670408
0 0.0085923076 0.64808536
0 0.0072183609 0.64948845
0 0.0058219731 0.65091515
0 0.0044024885 0.65236545
0 0.00295946 0.65383977
0 0.0014921129 0.65533829
0 -2.9802322e-08 0.6568628
0 -0.0015175939 0.65841323
0 -0.0030613542 0.65999049
0 -0.0046319067 0.66159445
0 -0.0062299669 0.66322714
0 -0.0078562796 0.66488874
0 -0.00951159 0.6665799
0 -0.011196643 0.66830081
0 -0.012912363 0.67005372
0 -0.014659464 0.6718387
0 -0.016438812 0.67365599
0 -0.018251479 0.6755079
0 -0.020098299 0.67739469
0 -0.021980196 0.67931736
0 -0.023898184 0.6812762
0 -0.025853425 0.68327391
0 -0.027846932 0.68531054
0 -0.029879868 0.68738759
0 -0.031953305 0.68950516
0 -0.034068644 0.69166631
0 -0.036227107 0.6938715
0 -0.038429976 0.69612211
0 -0.040678561 0.69841868
0 -0.042974532 0.70076436
0 -0.045319259 0.70315993
0 -0.047714382 0.70560682
0 -0.050161213 0.70810592
0 -0.052661926 0.71066076
0 -0.05521816 0.71327239
0 -0.057831466 0.71594155
0 -0.060504317 0.71867222
0 -0.063238531 0.72146559
0 -0.066036195 0.72432375
0 -0.068899214 0.72724801
0 -0.07183066 0.73024291
0 -0.074832529 0.73330975
0.0018983309 0.075933278 0.70437038
0.0018256028 0.071198493 0.69559133
0.001758242 0.066813231 0.68746018
0.0016956752 0.062739998 0.67990768
0.0016374083 0.058946699 0.67287421
0.0015830126 0.055405438 0.6663081
0.0015321148 0.052091926 0.66016418
0.0014843881 0.048984826 0.65440309
0.001439545 0.04606545 0.64899004
0.0013973276 0.043317139 0.64389396
0.0013575201 0.040725589 0.63908869
0.0013199176 0.038277626 0.63454968
0.0012843421 0.035961568 0.6302554
0.0012506341 0.033767134 0.62618649
0.0012413305 0.032274574 0.62506342
0.0012500552 0.031251371 0.62611657
0.0012589068 0.030213743 0.62718505
0.0012678845 0.029161334 0.62826878
0.0012769913 0.028093815 0.62936801
0.0012862263 0.027010739 0.63048285
0.0012955995 0.025912017 0.63161421
0.0013051103 0.024797082 0.63276231
0.0013147581 0.023665637 0.63392687
0.0013245532 0.022517413 0.63510931
0.0013344955 0.021351933 0.63630944
0.0013445881 0.020168841 0.6375277
0.0013548306 0.018967628 0.63876408
0.0013652345 0.017748058 0.64001995
0.0013757992 0.016509593 0.64129519
0.0013865248 0.015251786 0.64258987
0.0013974229 0.013974249 0.6439054
0.0014084935 0.012676418 0.6452418
0.0014197413 0.011357933 0.64659947
0.0014311656 0.01001817 0.64797854
0.0014427798 0.0086566806 0.64938045
0.001454584 0.0072728992 0.65080535
0.0014665829 0.0058663189 0.65225375
0.0014787768 0.0044363439 0.65372574
0.0014911799 0.0029823482 0.65522289
0.0015037929 0.0015037954 0.65674543
0.001516621 -0 0.6582939
0.001529665 -0.001529634 0.65986842
0.0015429402 -0.0030858815 0.66147089
0.0015564478 -0.0046693385 0.66310143
0.001570189 -0.00628075 0.66476011
0.0015841802 -0.0079209208 0.66644901
0.0015984229 -0.0095905364 0.66816831
0.001612924 -0.011290461 0.66991878
0.0016276852 -0.013021499 0.67170054
0.0016427245 -0.014784515 0.67351592
0.0016580445 -0.016580433 0.67536521
0.001673653 -0.018410176 0.67724937
0.001689552 -0.020274639 0.67916852
0.0017057622 -0.022174895 0.68112522
0.0017222865 -0.024112016 0.68311989
0.001739134 -0.026086986 0.6851536
0.0017563078 -0.028100938 0.68722665
0.0017738309 -0.030155122 0.6893419
0.0017917071 -0.032250732 0.69149977
0.0018099404 -0.03438887 0.69370067
0.0018285558 -0.036571145 0.69594783
0.001847558 -0.03879869 0.69824147
0.0018669593 -0.041073114 0.70058352
0.0018867647 -0.043395579 0.7029742
0.0019070028 -0.045768082 0.70541716
0.0019276795 -0.048191965 0.70791304
0.0019488097 -0.050669044 0.7104637
0.0019703999 -0.053200781 0.71306992
0.0019924822 -0.0557895 0.71573544
0.0020150654 -0.05843693 0.71846145
0.0020381659 -0.061144978 0.72124994
0.0020617936 -0.063915581 0.72410208
0.0020859845 -0.06675151 0.72702223
0.0021107499 -0.069654763 0.73001164
0.0021361008 -0.072627395 0.73307174
0.0038745306 0.077490598 0.70907021
0.003723166 0.072601736 0.69993448
0.0035831833 0.068080455 0.69148582
0.0034533453 0.063886911 0.68364936
0.003332576 0.059986353 0.67636037
0.0032199793 0.056349635 0.66956449
0.0031147422 0.052950621 0.6632129
0.0030161664 0.049766749 0.65726334
0.0029236388 0.046778202 0.6516788
0.002836619 0.043967575 0.64642668
0.0027546298 0.04131946 0.64147818
0.0026772472 0.038820088 0.63680768
0.0026040932 0.0364573 0.63239247
0.0025348305 0.034220189 0.62821215
0.0024987685 0.032483995 0.62603557
0.0025164525 0.031455636 0.62710291
0.0025343886 0.030412674 0.62818551
0.0025525754 0.029354632 0.62928307
0.0025710321 0.028281331 0.63039708
0.0025897578 0.027192473 0.6315273
0.0026087509 0.026087493 0.63267362
0.0026280319 0.0249663 0.63383734
0.0026475999 0.023828417 0.63501835
0.0026674618 0.022673398 0.63621712
0.002687616 0.021500915 0.63743353
0.0027080853 0.02031064 0.63866901
0.0027288683 0.019102067 0.63992333
0.0027499651 0.017874807 0.64119661
0.0027713988 0.016628385 0.64249027
0.0027931686 0.015362442 0.64380419
0.0028152838 0.014076412 0.64513892
0.0028377431 0.012769878 0.64649451
0.0028605727 0.011442304 0.64787239
0.0028837724 0.010093212 0.64927262
0.0029073425 0.0087220073 0.6506952
0.0029313101 0.0073282719 0.65214175
0.0029556763 0.0059113503 0.65361238
0.0029804509 0.0044706762 0.65510768
0.0030056345 0.0030056238 0.65662766
0.0030312573 0.0015156269 0.6581741
0.0030573208 -0 0.65974724
0.0030838363 -0.0015419126 0.66134751
0.0031108053 -0.0031107962 0.66297531
0.0031382611 -0.004707396 0.66463232
0.0031662055 -0.0063323975 0.66631901
0.003194652 -0.007986635 0.66803592
0.0032236036 -0.0096708238 0.66978323
0.0032530958 -0.011385858 0.67156327
0.0032831321 -0.013132542 0.67337614
0.0033137288 -0.014911771 0.67522281
0.0033448893 -0.016724467 0.67710352
0.0033766534 -0.018571615 0.67902064
0.0034090264 -0.020454168 0.68097454
0.0034420136 -0.02237308 0.68296546
0.0034756584 -0.024329603 0.68499613
0.0035099674 -0.026324749 0.68706691
0.0035449606 -0.028359681 0.68917882
0.0035806447 -0.030435503 0.69133258
0.0036170688 -0.032553613 0.69353092
0.0036542411 -0.034715295 0.69577456
0.0036921855 -0.036921829 0.69806468
0.0037309115 -0.039174587 0.70040202
0.0037704734 -0.041475236 0.70278978
0.0038108837 -0.043825179 0.70522869
0.003852169 -0.046225995 0.70772052
0.003894343 -0.048679262 0.71026593
0.003937467 -0.051187068 0.71286869
0.0039815567 -0.053751022 0.7155298
0.0040266276 -0.056372792 0.71825004
0.0040727486 -0.059054822 0.72103375
0.0041199382 -0.061799079 0.72388184
0.0041682343 -0.06460765 0.72679675
0.0042176568 -0.067482501 0.72977966
0.0042682849 -0.070426702 0.73283535
0.0043201433 -0.073442429 0.73596531
0.0056970064 0.074061066 0.70445138
0.0054786713 0.069396496 0.69566631
0.0052764541 0.065076262 0.68752968
0.0050886325 0.061063558 0.67997235
0.0049137231 0.057326764 0.67293453
0.004750438 0.053838313 0.66636443
0.0045976564 0.050574243 0.66021699
0.0044543957 0.047513545 0.65445262
0.0043197931 0.044637859 0.64903665
0.0041930745 0.041930735 0.64393783
0.00407359 0.039378017 0.63913023
0.0039607263 0.036966801 0.63458884
0.0038539483 0.034685552 0.63029248
0.0037726397 0.032696187 0.6270209
0.0037995046 0.031662554 0.62810183
0.0038267651 0.030614108 0.62919867
0.0038544198 0.029550552 0.63031143
0.0038824663 0.02847144 0.63143998
0.003910935 0.027376533 0.63258541
0.0039398237 0.026265472 0.63374782
0.0039691431 0.025137901 0.63492751
0.0039988901 0.023993313 0.63612449
0.0040290984 0.022831529 0.63734001
0.0040597664 0.021652073 0.63857394
0.0040908931 0.020454466 0.63982636
0.0041225124 0.019238412 0.64109868
0.0041546249 0.018003404 0.64239079
0.0041872412 0.016748965 0.6437031
0.0042203609 0.015474677 0.6450358
0.0042540221 0.014180064 0.6463902
0.004288224 0.012864679 0.64776641
0.004322981 0.011527985 0.64916486
0.0043582921 0.010169387 0.65058571
0.0043941988 0.0087884068 0.65203047
0.0044307015 0.0073845088 0.65349925
0.0044678021 0.0059570372 0.65499204
0.0045055435 0.0045055151 0.65651065
0.0045439275 0.0030293167 0.65805507
0.0045829718 0.0015276372 0.65962607
0.0046226773 -0 0.66122371
0.0046630925 -0.0015543699 0.66284996
0.0047042207 -0.003136158 0.66450483
0.0047460645 -0.0047460496 0.66618848
0.0047886758 -0.0063849092 0.66790307
0.0048320596 -0.008053422 0.66964865
0.0048762364 -0.0097524226 0.67142612
0.0049212109 -0.011482835 0.67323577
0.0049670408 -0.013245434 0.67507982
0.0050137318 -0.015041202 0.67695856
0.0050613093 -0.016871035 0.67887294
0.0051097795 -0.018735856 0.68082321
0.0051592067 -0.020636827 0.68281198
0.0052095987 -0.022574931 0.68483961
0.0052609849 -0.024551243 0.68690723
0.0053133755 -0.026566893 0.68901533
0.0053668395 -0.028623134 0.69116652
0.0054213908 -0.030721247 0.69336152
0.0054770629 -0.032862365 0.69560152
0.005533868 -0.035047859 0.6978873
0.0055918866 -0.037279278 0.70022166
0.0056511336 -0.039557934 0.70260561
0.0057116505 -0.041885436 0.70504057
0.0057734535 -0.044263124 0.7075274
0.0058366326 -0.046693087 0.71006954
0.0059012095 -0.049176723 0.71266788
0.0059672068 -0.051715791 0.71532339
0.0060347221 -0.054312497 0.71804011
0.0061037834 -0.056968659 0.72081888
0.0061744433 -0.059686273 0.72366202
0.0062467312 -0.062467307 0.72657061
0.0063207597 -0.065314502 0.72954929
0.0063965637 -0.068230003 0.73259944
0.0064742081 -0.071216226 0.73572356
0.00655373 -0.074275583 0.73892331
0.0077518579 0.075580627 0.70915455
0.0074489145 0.070764661 0.70001245
0.0071687582 0.066311032 0.691558
0.0069089122 0.062180221 0.68371648
0.0066672447 0.058338434 0.67642343
0.0064418903 0.054756045 0.66962278
0.0062312922 0.051408172 0.66326737
0.0060340273 0.048272252 0.65731442
0.0058488697 0.045328766 0.65172684
0.005674737 0.042560518 0.64647192
0.0055106729 0.039952368 0.64152086
0.0053558289 0.037490845 0.63684797
0.0052094492 0.03516382 0.63243061
0.0050708577 0.032960594 0.62824821
0.0050995592 0.031872213 0.62911439
0.0051363776 0.030818284 0.63022542
0.0051737456 0.029749036 0.63135314
0.0052116611 0.028664112 0.63249737
0.0052501364 0.027563214 0.63365847
0.0052891695 0.026445866 0.63483638
0.0053288024 0.025311798 0.6360324
0.0053690332 0.024160653 0.63724649
0.0054098614 0.022991896 0.63847858
0.0054513304 0.021805316 0.63973004
0.0054934407 0.020600408 0.64100081
0.0055362061 0.019376755 0.64229137
0.0055796262 0.018133759 0.64360172
0.0056237495 0.016871244 0.64493322
0.0056685763 0.015588582 0.64628601
0.0057141064 0.014285266 0.64766002
0.0057603908 0.012960911 0.64905667
0.0058074319 0.011614889 0.65047634
0.0058552469 0.010246694 0.65191925
0.0059038377 0.0088557601 0.65338564
0.0059532602 0.0074415803 0.65487713
0.0060035177 0.0060035288 0.65639377
0.0060546305 0.0045409799 0.65793622
0.0061066016 0.0030533075 0.65950459
0.0061594928 0.001539886 0.66110069
0.0062133083 -0 0.66272473
0.0062680719 -0.0015670061 0.66437739
0.0063237888 -0.0031619072 0.66605878
0.0063805263 -0.0047853589 0.66777098
0.0064382916 -0.0064382851 0.66951418
0.0064970898 -0.0081213415 0.67128861
0.0065569943 -0.0098354816 0.67309642
0.0066180136 -0.01158154 0.67493784
0.0066801799 -0.013360351 0.67681384
0.0067435009 -0.015172869 0.67872477
0.0068080588 -0.017020166 0.68067288
0.0068738637 -0.018903136 0.68265879
0.0069409539 -0.020822853 0.68468338
0.00700934 -0.022780359 0.68674707
0.0070791137 -0.024776906 0.68885273
0.007150291 -0.026813567 0.6910007
0.0072229141 -0.028891623 0.69319224
0.0072969995 -0.031012297 0.69542801
0.0073726489 -0.033176899 0.69771087
0.007449883 -0.03538695 0.70004165
0.0075287228 -0.037643582 0.70242083
0.0076092798 -0.039948732 0.70485193
0.0076915789 -0.042303681 0.70733547
0.0077756778 -0.044710159 0.70987344
0.007861604 -0.047169596 0.71246648
0.0079494836 -0.049684286 0.71511847
0.0080393497 -0.05225578 0.71783042
0.0081312712 -0.054886073 0.72060436
0.0082252836 -0.057576984 0.72344142
0.0083215311 -0.060331106 0.72634602
0.0084200585 -0.063150436 0.72931933
0.0085209468 -0.066037327 0.73236388
0.0086242417 -0.068993926 0.73548108
0.0087301135 -0.072023392 0.73867601
0.0098927952 0.077163815 0.71405476
0.0094983699 0.072187603 0.7045325
0.0091342255 0.067593277 0.6957413
0.0087969704 0.06333819 0.68759918
0.008483734 0.059386134 0.68003702
0.0081920372 0.055705875 0.67299479
0.0079197325 0.052270263 0.66642082
0.0076649482 0.049055666 0.6602698
0.0074260463 0.046041489 0.65450215
0.0072015864 0.043209523 0.6490832
0.0069902977 0.040543735 0.64398229
0.0067910533 0.038029909 0.63917208
0.0066028335 0.03565532 0.63462806
0.0064247842 0.03340888 0.63032961
0.0064169322 0.032084644 0.63014001
0.0064635905 0.031025231 0.63126642
0.0065109325 0.029950291 0.63240939
0.0065589543 0.028859377 0.63356876
0.0066077085 0.02775237 0.63474578
0.0066571934 0.026628822 0.63594043
0.0067074052 0.025488168 0.63715267
0.0067584002 0.024330229 0.63838381
0.0068101762 0.023154587 0.63963377
0.0068627521 0.021960795 0.64090312
0.0069161253 0.020748377 0.64219159
0.0069703562 0.019517034 0.6435008
0.0070254444 0.018266141 0.64483082
0.007081389 0.016995341 0.6461814
0.0071382527 0.015704155 0.64755428
0.0071960376 0.014392078 0.64894927
0.0072547654 0.013058543 0.65036714
0.0073144366 0.011703074 0.65180767
0.0073751211 0.010325164 0.65327275
0.0074368212 0.008924216 0.65476227
0.0074995379 0.007499516 0.65627646
0.0075633461 0.0060506761 0.65781695
0.0076282499 0.0045769513 0.65938377
0.007694276 0.0030776858 0.66097784
0.0077614305 0.0015522838 0.66259909
0.0078297937 -0 0.66424954
0.007899371 -0.0015798807 0.66592926
0.0079701962 -0.0031880736 0.66763914
0.0080422759 -0.0048253834 0.66937929
0.0081156986 -0.0064925551 0.67115188
0.0081904754 -0.0081904829 0.67295718
0.0082666418 -0.0099199414 0.67479599
0.0083442088 -0.011681855 0.67666858
0.0084232762 -0.013477236 0.67857742
0.0085038552 -0.01530695 0.6805228
0.0085859606 -0.017171949 0.68250501
0.0086696977 -0.019073337 0.68452656
0.0087550851 -0.021012217 0.68658799
0.0088421702 -0.022989661 0.68869042
0.0089309728 -0.025006711 0.69083434
0.00902161 -0.02706483 0.69302255
0.0091141071 -0.029165119 0.69525558
0.0092085199 -0.031308979 0.69753486
0.0093048727 -0.033497512 0.69986105
0.0094033005 -0.035732538 0.70223737
0.009503833 -0.038015366 0.70466441
0.0096065383 -0.040347457 0.7071439
0.0097114481 -0.042730331 0.70967662
0.009818715 -0.045166105 0.71226633
0.0099283773 -0.047656208 0.71491379
0.010040519 -0.050202608 0.71762115
0.010155178 -0.052806914 0.72038925
0.01027253 -0.055471629 0.72322237
0.010392626 -0.05819872 0.72612178
0.010515518 -0.060990006 0.72908866
0.010641398 -0.063848376 0.73212767
0.010770327 -0.066776007 0.73524028
0.010902421 -0.069775492 0.73842931
0.011037742 -0.072849095 0.74169624
0.011631984 0.073669225 0.70923901
0.011177247 0.068926364 0.70009041
0.010756727 0.064540386 0.69163018
0.010366702 0.060472459 0.68378353
0.010003972 0.056689173 0.67648596
0.0096657667 0.053161711 0.66968179
0.0093496498 0.049864829 0.66332203
0.0090535851 0.046776891 0.65736562
0.0087756943 0.043878466 0.65177488
0.0085143549 0.041152716 0.64651716
0.00826813 0.03858465 0.64156353
0.0080357473 0.036160856 0.63688833
0.0078160688 0.033869654 0.63246876
0.0077520031 0.032299995 0.63117981
0.0078087291 0.03123492 0.63232112
0.0078663127 0.030154169 0.6334796
0.0079247514 0.029057443 0.63465524
0.0079840431 0.027944177 0.6358481
0.0080442503 0.026814133 0.63705945
0.0081053739 0.025667012 0.63828909
0.0081674336 0.024502307 0.63953763
0.0082304254 0.023319542 0.64080495
0.0082944222 0.022118449 0.64209241
0.008359421 0.020898551 0.64340013
0.0084254472 0.01965937 0.64472848
0.0084924996 0.018400431 0.64607745
0.0085606528 0.017121285 0.64744866
0.0086299097 0.015821487 0.64884192
0.0087002683 0.014500469 0.65025747
0.0087718116 0.013157725 0.6516968
0.0088445414 0.011792719 0.65316004
0.0089184865 0.010404915 0.65464771
0.0089936508 0.0089936554 0.65615982
0.0090701217 0.007558465 0.65769827
0.0091479039 0.0060985982 0.65926319
0.009227002 0.0046135187 0.66085452
0.0093075102 0.0031025112 0.66247416
0.0093894359 0.0015649199 0.6641224
0.0094728163 2.9802322e-08 0.66579986
0.0095576588 -0.0015929341 0.66750681
0.0096440678 -0.0032146871 0.66924524
0.0097320527 -0.0048660338 0.67101538
0.009821659 -0.0065477788 0.67281806
0.009912896 -0.0082607567 0.67465365
0.010005877 -0.010005891 0.67652428
0.010100622 -0.011784077 0.67843038
0.010197177 -0.013596237 0.68037295
0.010295558 -0.015443325 0.68235219
0.010395894 -0.017326444 0.68437082
0.010498205 -0.019246697 0.68642914
0.010602511 -0.021205008 0.68852758
0.01070895 -0.023202717 0.690669
0.010817547 -0.025240928 0.69285381
0.010928371 -0.027320921 0.69508338
0.011041445 -0.02944383 0.69735825
0.011156929 -0.031611294 0.69968164
0.011274851 -0.033824563 0.70205408
0.011395295 -0.036085099 0.70447719
0.011518293 -0.038394302 0.70695174
0.011644022 -0.04075408 0.70948124
0.011772527 -0.043165922 0.71206647
0.0119039 -0.045631617 0.71470952
0.012038186 -0.048152745 0.71741116
0.012175589 -0.050731599 0.7201755
0.012316166 -0.053370029 0.72300369
0.012459971 -0.056069851 0.72589684
0.012607231 -0.058833778 0.72885954
0.012758013 -0.061663747 0.731893
0.012912445 -0.064562231 0.7349999
0.013070601 -0.067531437 0.73818177
0.013232742 -0.070574611 0.74144387
0.013398956 -0.073694259 0.74478775
0.013855018 0.075212955 0.7141428
0.013302477 0.070313096 0.70461458
0.012792267 0.065788805 0.69581634
0.012319795 0.061598986 0.6876688
0.011880981 0.057707638 0.68010175
0.011472352 0.054083914 0.67305523
0.011090897 0.050701261 0.6664772
0.010733991 0.047536254 0.66032267
0.010399341 0.044568598 0.6545518
0.010084925 0.041780412 0.64912987
0.0097889649 0.039155841 0.64402628
0.0095098801 0.036680967 0.63921356
0.0092462664 0.034343272 0.63466775
0.0091050938 0.032518208 0.63223326
0.0091721984 0.03144756 0.63339043
0.0092403004 0.030360997 0.63456482
0.0093093952 0.029258132 0.63575631
0.0093795573 0.028138667 0.63696623
0.0094507849 0.027002245 0.63819456
0.009523076 0.025848329 0.63944113
0.0095965089 0.02467674 0.64070749
0.0096710827 0.023486912 0.6419934
0.0097468244 0.022278458 0.64329952
0.009823733 0.021050841 0.64462578
0.0099018952 0.019803792 0.64597362
0.0099813109 0.018536717 0.6473431
0.01006198 0.017249107 0.64873421
0.010143994 0.015940547 0.65014851
0.010227357 0.014610529 0.65158606
0.010312102 0.013258427 0.65304738
0.01039823 0.011883676 0.65453261
0.010485841 0.010485858 0.65604341
0.010574942 0.0090642273 0.6575799
0.010665535 0.0076182485 0.65914214
0.010757729 0.0061472952 0.66073197
0.010851531 0.0046506524 0.66234952
0.010946983 0.0031276941 0.6639955
0.011044092 0.0015777051 0.6656701
0.011142977 -2.9802322e-08 0.66737533
0.011243649 -0.001606226 0.66911137
0.011346118 -0.0032417476 0.67087841
0.01145051 -0.0049073696 0.67267859
0.011556841 -0.0066039264 0.67451215
0.011665167 -0.0083322227 0.67638016
0.011775501 -0.010093302 0.67828286
0.011887984 -0.011887997 0.68022251
0.012002637 -0.013717294 0.6821996
0.012119522 -0.015582263 0.68421525
0.012238662 -0.017483801 0.68626976
0.012360212 -0.019423157 0.68836576
0.012484202 -0.021401495 0.69050395
0.012610706 -0.023419857 0.69268537
0.012739749 -0.025479496 0.69491065
0.01287151 -0.027581811 0.69718283
0.013006027 -0.029728085 0.69950253
0.013143385 -0.031919628 0.7018711
0.01328362 -0.034157902 0.70428944
0.013426935 -0.036444575 0.70676076
0.013573377 -0.038781077 0.70928609
0.013722992 -0.041168988 0.71186608
0.013875998 -0.043610305 0.7145046
0.014032456 -0.046106666 0.71720266
0.014192483 -0.048659921 0.71996218
0.014356139 -0.051271915 0.72278428
0.014523678 -0.053945065 0.72567338
0.014695172 -0.056681395 0.72863072
0.014870765 -0.059483051 0.7316587
0.015050537 -0.06235221 0.73475879
0.015234779 -0.065291911 0.7379359
0.015423587 -0.068304479 0.7411918
0.015617133 -0.071392596 0.74452937
0.015815524 -0.074558884 0.74795049
0.016173141 0.07682246 0.71925545
0.015514913 0.071756482 0.70932353
0.014908168 0.067086786 0.70016843
0.014347093 0.062768549 0.69170249
0.013826719 0.058763564 0.68385065
0.013342772 0.055038959 0.67654842
0.012891556 0.051566184 0.66974014
0.01246986 0.048320681 0.66337729
0.012074839 0.045280635 0.65741682
0.011704113 0.042427391 0.65182304
0.011355475 0.039744169 0.64656246
0.011027004 0.037216127 0.64160621
0.010717002 0.034830272 0.63692862
0.010476587 0.032739371 0.63330102
0.010554329 0.031663001 0.63447404
0.010633234 0.030570596 0.6356647
0.010713328 0.029461682 0.63687319
0.010794607 0.02833584 0.63809955
0.010877158 0.02719292 0.63934517
0.010960983 0.026032388 0.64060998
0.01104611 0.024853766 0.64189446
0.011132536 0.023656636 0.64319861
0.01122036 0.022440732 0.64452374
0.011309579 0.021205455 0.64586997
0.011400195 0.0199503 0.64723718
0.01149231 0.018674999 0.64862716
0.011585924 0.017378896 0.65003967
0.011681077 0.016061485 0.65147543
0.011777768 0.014722228 0.65293443
0.011876112 0.01336059 0.65441829
0.011976112 0.011976123 0.65592718
0.012077771 0.010568053 0.65746105
0.01218121 0.0091359019 0.65902179
0.012286436 0.0076790452 0.6606096
0.012393496 0.0061967373 0.66222501
0.012502397 0.0046883821 0.66386813
0.012613271 0.0031533241 0.66554111
0.012726129 0.0015907586 0.66724402
0.012841024 -0 0.66897768
0.012957969 -0.0016197562 0.67074227
0.013077108 -0.003269285 0.67253989
0.013198459 -0.0049494207 0.67437094
0.013322036 -0.0066610277 0.67623562
0.013447996 -0.0084050298 0.67813617
0.013576362 -0.010182261 0.68007302
0.013707202 -0.011993766 0.68204725
0.013840538 -0.013840526 0.68405914
0.013976544 -0.015723616 0.68611133
0.014115251 -0.017644048 0.68820423
0.014256684 -0.019602984 0.69033831
0.014401034 -0.021601528 0.69251639
0.014548339 -0.02364105 0.69473904
0.014698688 -0.025722712 0.6970076
0.014852118 -0.027847737 0.6993227
0.015008845 -0.030017674 0.70168757
0.015168915 -0.032233953 0.70410281
0.015332436 -0.034497976 0.70657021
0.015499457 -0.036811203 0.70909035
0.015670221 -0.03917557 0.71166694
0.015844792 -0.041592598 0.71430105
0.016023295 -0.044064045 0.71699446
0.016205797 -0.04659164 0.7197482
0.016392574 -0.049177706 0.72256643
0.016583707 -0.051824063 0.7254504
0.016779276 -0.054532677 0.7284013
0.016979588 -0.057306141 0.73142374
0.017184742 -0.06014657 0.73451936
0.017394911 -0.063056558 0.73769051
0.017610205 -0.066038281 0.74093902
0.017830979 -0.069095075 0.74427027
0.018057358 -0.072229415 0.74768603
0.017820163 0.073260695 0.7142309
0.017109239 0.06843695 0.70469576
0.016452799 0.063983142 0.69589138
0.01584493 0.05985862 0.68773848
0.015280377 0.056028068 0.68016654
0.014754671 0.052461058 0.67311561
0.014263934 0.049131334 0.66653371
0.013804789 0.046015978 0.66037554
0.01337428 0.043094903 0.6546014
0.012969812 0.040350527 0.64917654
0.012589091 0.037767291 0.64407021
0.012230082 0.035331368 0.63925505
0.011890982 0.03303048 0.63470697
0.011955562 0.031881511 0.63557315
0.01204553 0.030783027 0.63677984
0.012136897 0.029667974 0.63800526
0.012229661 0.028535873 0.63924938
0.012323816 0.027386278 0.64051223
0.012419472 0.026218891 0.64179528
0.012516621 0.025033265 0.64309824
0.012615304 0.023828924 0.64442182
0.012715517 0.02260536 0.64576584
0.012817373 0.021362305 0.64713198
0.012920875 0.020099163 0.64852017
0.013026061 0.018815428 0.64993095
0.013132934 0.017510593 0.65136439
0.013241616 0.016184181 0.65282208
0.013352111 0.014835685 0.65430409
0.013464425 0.013464421 0.65581048
0.013578686 0.012069911 0.65734297
0.013694904 0.010651618 0.65890169
0.013813128 0.0092087388 0.66048735
0.013933365 0.0077407956 0.66210002
0.01405576 0.0062470138 0.66374165
0.014180325 0.0047267973 0.66541231
0.01430707 0.0031793714 0.66711223
0.014436149 0.0016040206 0.66884351
0.014567578 2.9802322e-08 0.67060626
0.014701424 -0.0016334653 0.67240143
0.014837699 -0.0032972693 0.67422915
0.014976577 -0.004992187 0.67609185
0.01511808 -0.0067191124 0.67798972
0.015262282 -0.0084790289 0.67992383
0.015409206 -0.010272801 0.68189442
0.015559042 -0.012101471 0.68390411
0.015711822 -0.013966054 0.68595314
0.01586757 -0.015867591 0.68804216
0.016026501 -0.017807215 0.69017375
0.016188646 -0.019786119 0.69234848
0.016354106 -0.021805495 0.69456768
0.016522918 -0.023866445 0.69683188
0.016695317 -0.025970489 0.69914412
0.016871354 -0.028118968 0.70150524
0.01705114 -0.030313164 0.70391655
0.01723473 -0.032554477 0.70637894
0.017422387 -0.034844786 0.70889586
0.017614178 -0.037185431 0.71146816
0.017810237 -0.039578289 0.71409774
0.018010633 -0.042024791 0.71678555
0.018215669 -0.044527203 0.71953559
0.018425427 -0.047087222 0.72234893
0.018640073 -0.049706876 0.72522777
0.018859694 -0.052388012 0.72817338
0.019084636 -0.055133402 0.73119038
0.019315012 -0.057945043 0.73428023
0.019550925 -0.060825109 0.7374444
0.019792765 -0.063776702 0.74068803
0.020040663 -0.066802204 0.74401289
0.020294851 -0.069904476 0.74742216
0.020555468 -0.073086113 0.75091761
0.020224042 0.074828982 0.71934736
0.019400649 0.069842368 0.7094081
0.01864168 0.065245867 0.70024657
0.017939858 0.060995489 0.69177485
0.017288964 0.057053566 0.68391782
0.016683646 0.053387642 0.67661095
0.016119283 0.049969792 0.66979849
0.015591851 0.04677555 0.66343182
0.01509784 0.043783724 0.65746862
0.014634129 0.040975571 0.65187114
0.014198096 0.038334876 0.64660776
0.013787295 0.035846949 0.64164889
0.013399596 0.033499002 0.63696897
0.013376231 0.032102942 0.63668698
0.013477634 0.030998528 0.63791096
0.013580545 0.029877216 0.63915324
0.01368508 0.028738648 0.64041507
0.013791237 0.027582467 0.64169651
0.013899054 0.026408195 0.64299798
0.014008528 0.025215328 0.64431947
0.014119782 0.024003625 0.64566243
0.014232818 0.022772491 0.6470269
0.014347678 0.021521538 0.64841336
0.014464363 0.020250112 0.64982188
0.014583007 0.018957883 0.65125406
0.014703613 0.017644316 0.65270984
0.014826184 0.016308814 0.65418947
0.014950863 0.014950871 0.65569443
0.015077657 0.013569891 0.65722495
0.015206619 0.012165308 0.65878171
0.015337757 0.010736465 0.66036463
0.015471227 0.0092827678 0.6619758
0.01560704 0.0078034997 0.66361523
0.015745208 0.006298095 0.66528302
0.015885897 0.0047657788 0.66698128
0.016029121 0.0032058358 0.66871017
0.016174952 0.001617521 0.67047048
0.016323404 2.9802322e-08 0.67226249
0.016474664 -0.0016474724 0.67408836
0.016628753 -0.0033257604 0.67594838
0.016785694 -0.0050357282 0.6778428
0.016945686 -0.0067782402 0.67977411
0.017108755 -0.0085543394 0.68174249
0.017274996 -0.01036498 0.6837492
0.017444432 -0.012211084 0.68579447
0.017617293 -0.014093846 0.68788111
0.017793613 -0.016014248 0.69000947
0.017973498 -0.017973483 0.69218087
0.018156985 -0.019972682 0.69439578
0.018344332 -0.022013187 0.69665724
0.018535582 -0.02409628 0.69896585
0.018730864 -0.026223183 0.70132309
0.01893023 -0.028395355 0.70372963
0.019133961 -0.030614346 0.70618892
0.019342124 -0.032881618 0.70870173
0.019554788 -0.035198629 0.71126878
0.019772261 -0.037567317 0.71389389
