# .PCD v0.7 - Point Cloud Data file format
VERSION 0.7
FIELDS x y z
SIZE 4 4 4
TYPE F F F
COUNT 1 1 1
WIDTH 1362
HEIGHT 1
VIEWPOINT 0 0 0 1 0 0 0
POINTS 1362
DATA ascii
0.0136235 0.016100466 0.62472177
0.0136235 0.014862001 0.62472177
0.0136235 0.013623506 0.62472177
0.0136235 0.012385011 0.62472177
0.0136235 0.011146516 0.62472177
0.0136235 0.0099079907 0.62472177
0.0136235 0.0086694956 0.62472177
0.0136235 0.0074309707 0.62472177
0.0136235 0.0061924756 0.62472177
0.0136235 0.0049540401 0.62472177
0.0136235 0.0037154853 0.62472177
0.0136235 0.00247702 0.62472177
0.0136235 0.0012384951 0.62472177
0.0136235 -0 0.62472177
0.0136235 -0.0012384951 0.62472177
0.0136235 -0.0024769902 0.62472177
0.0136235 -0.0037154853 0.62472177
0.0136235 -0.0049540401 0.62472177
0.0136235 -0.0061925054 0.62472177
0.0136235 -0.0074310005 0.62472177
0.0136235 -0.0086695254 0.62472177
0.0136235 -0.0099079907 0.62472177
0.0136235 -0.011146486 0.62472177
0.0136235 -0.012384951 0.62472171
0.0136235 -0.013623506 0.62472171
0.0136235 -0.014861971 0.62472171
0.013652805 -0.016135156 0.62504339
0.014043489 -0.017873526 0.62933058
0.01445723 -0.019714415 0.63387084
0.014896048 -0.021666974 0.6386863
0.015362337 -0.023741812 0.64380324
0.015858812 -0.025950789 0.6492514
0.016388396 -0.028307259 0.65506291
0.016954627 -0.030826569 0.66127652
0.017561326 -0.033526182 0.66793424
0.018213056 -0.036426097 0.67508614
0.018915094 -0.039549708 0.6827901
0.019673347 -0.042923689 0.69111097
0.020494932 -0.046579391 0.70012677
0.021388216 -0.050553948 0.70992941
0.022362825 -0.054890573 0.72062445
0.023430597 -0.05964154 0.73234189
0.024605332 -0.064868629 0.74523306
0.01520515 0.06335482 0.62817353
0.015021801 0.061339021 0.62632924
0.014958797 0.059835196 0.62569547
0.014958797 0.058588594 0.62569547
0.014958797 0.057342052 0.62569547
0.014958797 0.056095481 0.62569547
0.014958797 0.054848939 0.62569547
0.014958797 0.053602368 0.62569541
0.014958797 0.052355796 0.62569541
0.014958797 0.051109225 0.62569541
0.014958797 0.049862653 0.62569547
0.014958797 0.048616081 0.62569547
0.014958797 0.04736954 0.62569547
0.014958797 0.046122968 0.62569547
0.014958797 0.044876397 0.62569547
0.014958797 0.043629825 0.62569547
0.014958797 0.042383254 0.62569541
0.014958797 0.041136682 0.62569541
0.014958797 0.03989014 0.62569547
0.014958797 0.038643569 0.62569541
0.014958797 0.037396997 0.62569541
0.014958797 0.036150396 0.62569547
0.014958797 0.034903824 0.62569547
0.014958797 0.033657253 0.62569547
0.014958797 0.032410711 0.62569547
0.014958797 0.03116414 0.62569541
0.014958797 0.029917598 0.62569547
0.014958797 0.028671026 0.62569547
0.014958797 0.027424455 0.62569547
0.014958797 0.026177913 0.62569547
0.014958797 0.024931341 0.62569547
0.014958797 0.02368477 0.62569541
0.014958797 0.022438169 0.62569547
0.014958797 0.021191597 0.62569547
0.014958797 0.019945055 0.62569547
0.014958797 0.018698514 0.62569547
0.014958797 0.017451942 0.62569547
0.014958797 0.01620537 0.62569547
0.014958797 0.014958799 0.62569547
0.014958797 0.013712227 0.62569547
0.014958797 0.012465656 0.62569541
0.014958797 0.011219084 0.62569547
0.014958797 0.0099725723 0.62569541
0.014958797 0.008725971 0.62569547
0.014958797 0.0074793994 0.62569547
0.014958797 0.0062328279 0.62569547
0.014958797 0.0049862564 0.62569547
0.014958797 0.0037397146 0.62569547
0.014958797 0.0024931729 0.62569547
0.014958797 0.0012465715 0.62569541
0.014958797 2.9802322e-08 0.62569541
0.014958797 -0.0012465417 0.62569541
0.014958797 -0.0024931431 0.62569547
0.014958797 -0.003739655 0.62569541
0.014958797 -0.0049862564 0.62569547
0.014958797 -0.0062328279 0.62569547
0.014958797 -0.0074793994 0.62569547
0.014958797 -0.008725971 0.62569547
0.014958797 -0.0099725425 0.62569541
0.014958797 -0.011219084 0.62569547
0.014958756 -0.012465626 0.62569505
0.014958756 -0.013712198 0.62569505
0.014958756 -0.014958769 0.62569499
0.014958756 -0.016205341 0.62569505
0.015104065 -0.017621398 0.62715673
0.015542549 -0.019428194 0.63156754
0.0160073 -0.021343082 0.63624263
0.016500654 -0.023375928 0.64120531
0.017025437 -0.025538146 0.64648426
0.017584642 -0.027842373 0.65210938
0.018181829 -0.030303031 0.65811658
0.018821066 -0.032936871 0.66454691
0.019506823 -0.035762519 0.67144507
0.020244515 -0.038801968 0.67886567
0.021040114 -0.042080224 0.68686879
0.021900805 -0.04562667 0.6955266
0.022835009 -0.049475878 0.70492399
0.023852361 -0.053667843 0.71515781
0.024964591 -0.058250725 0.72634602
0.026185745 -0.063282192 0.73862982
0.016311601 0.062736928 0.62668192
0.016311601 0.061482191 0.62668186
0.016311601 0.060227484 0.62668192
0.016311601 0.058972746 0.62668186
0.016311601 0.057717949 0.62668192
0.016311601 0.056463242 0.62668192
0.016311601 0.055208474 0.62668192
0.016311601 0.053953767 0.62668192
0.016311601 0.052699 0.62668186
0.016311601 0.051444292 0.62668192
0.016311601 0.050189525 0.62668186
0.016311601 0.048934788 0.62668192
0.016311556 0.047679961 0.62668151
0.016311556 0.046425194 0.62668157
0.016311556 0.045170426 0.62668151
0.016311556 0.043915749 0.62668151
0.016311556 0.042661011 0.62668151
0.016311556 0.041406274 0.62668151
0.016311556 0.040151536 0.62668151
0.016311556 0.038896799 0.62668151
0.016311556 0.037642032 0.62668157
0.016311556 0.036387295 0.62668151
0.016311556 0.035132587 0.62668151
0.016311556 0.03387782 0.62668151
0.016311556 0.032623112 0.62668151
0.016311556 0.031368375 0.62668145
0.016311556 0.030113667 0.62668145
0.016311556 0.0288589 0.62668151
0.016311556 0.027604163 0.62668151
0.016311556 0.026349425 0.62668151
0.016311556 0.025094718 0.62668151
0.016311556 0.02383998 0.62668151
0.016311556 0.022585243 0.62668151
0.016311556 0.021330506 0.62668145
0.016311556 0.020075709 0.62668151
0.016311556 0.018821031 0.62668157
0.016311556 0.017566293 0.62668151
0.016311556 0.016311556 0.62668145
0.016311556 0.015056819 0.62668151
0.016311556 0.013802081 0.62668145
0.016311556 0.012547344 0.62668145
0.016311556 0.011292607 0.62668151
0.016311556 0.010037869 0.62668151
0.016311556 0.0087831318 0.62668151
0.016311556 0.0075283945 0.62668151
0.016311556 0.0062736869 0.62668145
0.016311556 0.0050189495 0.62668151
0.016311556 0.0037641823 0.62668145
0.016311556 0.002509445 0.62668151
0.016311556 0.0012547076 0.62668151
0.016311556 -0 0.62668151
0.016311556 -0.0012547374 0.62668151
0.016311556 -0.0025094748 0.62668145
0.016311556 -0.0037642121 0.62668151
0.016311556 -0.0050189197 0.62668145
0.016311556 -0.0062736869 0.62668151
0.016311556 -0.0075283945 0.62668151
0.016311556 -0.0087831616 0.62668151
0.016311556 -0.010037869 0.62668151
0.016311556 -0.011292607 0.62668151
0.016311556 -0.012547344 0.62668145
0.016311556 -0.013802052 0.62668151
0.016311556 -0.015056849 0.62668157
0.016311556 -0.016311556 0.62668151
0.016311556 -0.017566293 0.62668151
0.01659685 -0.019150198 0.62933058
0.017085817 -0.021028668 0.63387084
0.01760442 -0.023021191 0.6386863
0.018155491 -0.025138378 0.64380324
0.018742232 -0.027392477 0.64925134
0.019368105 -0.029797077 0.65506291
0.020037286 -0.032367975 0.66127658
0.020754294 -0.035122663 0.66793424
0.021524521 -0.038081855 0.67508614
0.0223542 -0.041269273 0.6827901
0.023250319 -0.044712156 0.69111097
0.024221284 -0.048442572 0.70012677
0.025276983 -0.052498341 0.70992941
0.026428791 -0.056923509 0.72062445
0.027690705 -0.061771572 0.73234183
0.01768221 0.063150764 0.62768096
0.01768221 0.061887741 0.62768096
0.01768221 0.060624748 0.62768096
0.01768221 0.059361696 0.62768102
0.01768221 0.058098644 0.62768096
0.01768221 0.056835651 0.62768096
0.01768221 0.055572689 0.62768096
0.01768221 0.054309696 0.62768096
0.01768221 0.053046644 0.62768096
0.01768221 0.051783592 0.62768102
0.01768221 0.050520599 0.62768096
0.01768221 0.049257576 0.62768102
0.01768221 0.047994584 0.62768096
0.01768221 0.046731561 0.62768096
0.01768221 0.045468569 0.62768096
0.01768221 0.044205487 0.62768096
0.01768221 0.042942494 0.62768102
0.01768221 0.041679531 0.62768096
0.01768221 0.040416509 0.62768096
0.01768221 0.039153486 0.62768096
0.01768221 0.037890494 0.62768096
0.01768221 0.036627412 0.62768102
0.01768221 0.035364419 0.62768096
0.01768221 0.034101397 0.62768096
0.01768221 0.032838404 0.62768096
0.01768221 0.031575352 0.62768096
0.01768221 0.03031233 0.62768096
0.01768221 0.029049337 0.62768102
0.01768221 0.027786344 0.62768096
0.01768221 0.026523322 0.62768096
0.01768221 0.025260329 0.62768096
0.01768221 0.023997277 0.62768096
0.01768221 0.022734255 0.62768102
0.01768221 0.021471262 0.62768096
0.01768221 0.020208269 0.62768102
0.01768221 0.018945217 0.62768096
0.017682163 0.017682165 0.62768054
0.017682163 0.016419172 0.62768054
0.017682163 0.01515618 0.62768054
0.017682163 0.013893127 0.62768054
0.017682163 0.012630135 0.62768054
0.017682163 0.011367112 0.6276806
0.017682163 0.01010406 0.62768054
0.017682163 0.0088410676 0.62768054
0.017682163 0.0075780749 0.62768054
0.017682163 0.0063150823 0.62768054
0.017682163 0.0050520003 0.6276806
0.017682163 0.0037890077 0.62768054
0.017682163 0.002526015 0.6276806
0.017682163 0.0012629926 0.62768054
0.017682163 -0 0.62768054
0.017682163 -0.0012629926 0.62768054
0.017682163 -0.0025259852 0.62768054
0.017682163 -0.0037890077 0.62768054
0.017682163 -0.0050520301 0.62768054
0.017682163 -0.0063150227 0.62768054
0.017682163 -0.0075780749 0.62768054
0.017682163 -0.0088410974 0.62768054
0.017682163 -0.01010409 0.62768054
0.017682163 -0.011367112 0.62768054
0.017682163 -0.012630135 0.6276806
0.017682163 -0.013893127 0.6276806
0.017682163 -0.01515612 0.62768054
0.017682163 -0.016419142 0.6276806
0.017682163 -0.017682165 0.62768054
0.017682163 -0.018945158 0.62768054
0.018133024 -0.020723432 0.63156796
0.018675184 -0.022677034 0.63624263
0.019250764 -0.024750978 0.64120537
0.019863009 -0.026956916 0.64648426
0.020515416 -0.029307753 0.65210944
0.021212135 -0.031818181 0.65811664
0.021957912 -0.034505308 0.66454691
0.022757962 -0.037388086 0.67144513
0.023618601 -0.040489018 0.67886561
0.0245468 -0.043833584 0.68686873
0.025550939 -0.047451764 0.6955266
0.026640844 -0.051378757 0.70492399
0.027827756 -0.055655539 0.71515787
0.029125359 -0.060331106 0.72634602
0.030550037 -0.065464377 0.73862982
0.019071022 0.063570082 0.62869328
0.019071022 0.062298685 0.62869328
0.019071022 0.061027288 0.62869328
0.019071022 0.059755892 0.62869328
0.019071022 0.058484465 0.62869334
0.019071022 0.057213068 0.62869334
0.019071022 0.055941641 0.62869328
0.019071022 0.054670244 0.62869328
0.019071022 0.053398877 0.62869328
0.019071022 0.052127481 0.62869328
0.019071022 0.050856054 0.62869334
0.019071022 0.049584657 0.62869334
0.019071022 0.04831323 0.62869334
0.019071022 0.047041833 0.62869328
0.019071022 0.045770466 0.62869334
0.019071022 0.044499069 0.62869328
0.019071022 0.043227673 0.62869328
0.019071022 0.041956276 0.62869328
0.019071022 0.040684849 0.62869334
0.019071022 0.039413452 0.62869334
0.019071022 0.038142025 0.62869328
0.019071022 0.036870629 0.62869328
0.019071022 0.035599232 0.62869328
0.019071022 0.034327835 0.62869334
0.019071022 0.033056438 0.62869334
0.019071022 0.031785041 0.62869334
0.019071022 0.030513644 0.62869334
0.019071022 0.029242247 0.62869328
0.019071022 0.02797085 0.62869328
0.019071022 0.026699424 0.62869328
0.019071022 0.025428057 0.62869328
0.019071022 0.02415663 0.62869328
0.019071022 0.022885203 0.62869334
0.019071022 0.021613806 0.62869334
0.019071022 0.020342439 0.62869334
0.019071022 0.019071043 0.62869328
0.019071022 0.017799646 0.62869328
0.019071022 0.016528219 0.62869334
0.019071022 0.015256792 0.62869328
0.019071022 0.013985395 0.62869334
0.019071022 0.012713999 0.62869328
0.019071022 0.011442631 0.62869328
0.019071022 0.010171235 0.62869328
0.019071022 0.0088998377 0.62869328
0.019071022 0.0076284111 0.62869328
0.019071022 0.0063570142 0.62869328
0.019071022 0.0050855875 0.62869328
0.019071022 0.0038142204 0.62869328
0.019071022 0.0025427938 0.62869328
0.019071022 0.0012714267 0.62869328
0.019071022 -0 0.62869328
0.019071022 -0.0012714267 0.62869334
0.019071022 -0.0025428236 0.62869334
0.019071022 -0.0038142204 0.62869334
0.019071022 -0.0050856173 0.62869328
0.019071022 -0.0063569844 0.62869328
0.019071022 -0.0076283813 0.62869328
0.019071022 -0.0088997781 0.62869328
0.019071022 -0.010171205 0.62869328
0.019071022 -0.011442631 0.62869334
0.019071022 -0.012714028 0.62869328
0.019071022 -0.013985425 0.62869328
0.019071022 -0.015256792 0.62869328
0.019071022 -0.016528219 0.62869328
0.019071022 -0.017799646 0.62869334
0.019071022 -0.019071013 0.62869334
0.019150212 -0.020426899 0.62933064
0.019714406 -0.02234301 0.63387084
0.020312792 -0.024375349 0.6386863
0.020948643 -0.026534975 0.64380324
0.021625653 -0.028834224 0.6492514
0.022347812 -0.031286925 0.65506291
0.023119945 -0.033909231 0.66127646
0.023947263 -0.036719143 0.6679343
0.024835987 -0.039737582 0.67508614
0.02579331 -0.042988867 0.6827901
0.026827293 -0.046500653 0.69111097
0.027947746 -0.050305933 0.70012766
0.02916575 -0.054442734 0.70992935
0.030494761 -0.058956534 0.72062439
0.031950813 -0.063901633 0.73234183
0.020478455 0.063995183 0.62971956
0.020478455 0.062715262 0.62971956
0.020478455 0.061435372 0.62971961
0.020478455 0.060155481 0.62971961
0.020478455 0.058875561 0.62971961
0.020478455 0.05759567 0.62971961
0.020478455 0.05631575 0.62971961
0.020478455 0.055035859 0.62971961
0.020478455 0.053755969 0.62971961
0.020478455 0.052476019 0.62971961
0.020478455 0.051196128 0.62971961
0.020478455 0.049916208 0.62971961
0.020478401 0.048636198 0.62971914
0.020478401 0.047356278 0.62971914
0.020478401 0.046076387 0.62971914
0.020478401 0.044796526 0.62971914
0.020478401 0.043516636 0.62971914
0.020478401 0.042236686 0.62971914
0.020478401 0.040956795 0.62971914
0.020478401 0.039676905 0.62971914
0.020478401 0.038397014 0.62971914
0.020478401 0.037117124 0.62971914
0.020478401 0.035837233 0.62971914
0.020478401 0.034557313 0.62971914
0.020478401 0.033277422 0.62971914
0.020478401 0.031997502 0.62971914
0.020478401 0.030717582 0.6297192
0.020478401 0.029437691 0.6297192
0.020478401 0.0281578 0.6297192
0.020478401 0.02687788 0.62971914
0.020478401 0.02559799 0.62971914
0.020478401 0.024318069 0.62971914
0.020478401 0.023038208 0.62971914
0.020478401 0.021758318 0.62971914
0.020478401 0.020478427 0.62971914
0.020478401 0.019198477 0.6297192
0.020478401 0.017918587 0.6297192
0.020478401 0.016638696 0.6297192
0.020478401 0.015358776 0.6297192
0.020478401 0.014078885 0.6297192
0.020478401 0.012798995 0.6297192
0.020478401 0.011519134 0.62971914
0.020478401 0.010239214 0.62971914
0.020478401 0.0089593232 0.62971914
0.020478401 0.007679373 0.62971914
0.020478401 0.0063994825 0.62971914
0.020478401 0.005119592 0.62971914
0.020478401 0.0038397014 0.62971914
0.020478401 0.0025598109 0.62971914
0.020478401 0.0012799203 0.62971914
0.020478401 2.9802322e-08 0.62971914
0.020478401 -0.0012798905 0.62971914
0.020478401 -0.0025597811 0.62971914
0.020478401 -0.0038397014 0.6297192
0.020478401 -0.0051195621 0.62971914
0.020478401 -0.0063995123 0.6297192
0.020478401 -0.0076794028 0.6297192
0.020478401 -0.0089593232 0.62971914
0.020478401 -0.010239214 0.62971914
0.020478401 -0.011519104 0.62971914
0.020478401 -0.012798995 0.62971914
0.020478401 -0.014078885 0.62971914
0.020478401 -0.015358776 0.62971914
0.020478401 -0.016638696 0.62971914
0.020478401 -0.017918617 0.6297192
0.020478401 -0.019198507 0.6297192
0.020478401 -0.020478398 0.6297192
0.020723457 -0.022018701 0.63156796
0.021343067 -0.024010956 0.63624257
0.022000873 -0.026126027 0.64120531
0.022700582 -0.028375715 0.64648426
0.023446191 -0.030773103 0.65210938
0.024242438 -0.033333331 0.65811664
0.025094755 -0.036073744 0.66454685
0.026009098 -0.039013654 0.67144507
0.026992686 -0.042176068 0.67886561
0.028053485 -0.045586914 0.68686879
0.029201074 -0.049276829 0.69552672
0.030446677 -0.053281695 0.70492399
0.03180315 -0.057643205 0.71515781
0.033286273 -0.062411755 0.72634703
0.021904781 0.064425856 0.63075924
0.021904781 0.063137323 0.6307593
0.021904781 0.061848789 0.63075924
0.021904781 0.060560286 0.63075924
0.021904781 0.059271753 0.63075924
0.021904781 0.05798322 0.63075924
0.021904781 0.056694716 0.63075924
0.021904781 0.055406243 0.63075924
0.021904781 0.054117709 0.6307593
0.021904781 0.052829176 0.6307593
0.021904781 0.051540643 0.6307593
0.021904781 0.05025214 0.63075924
0.021904781 0.048963636 0.6307593
0.021904781 0.047675103 0.63075924
0.021904781 0.0463866 0.63075924
0.021904781 0.045098096 0.63075924
0.021904781 0.043809593 0.63075924
0.021904781 0.04252106 0.63075924
0.021904781 0.041232526 0.6307593
0.021904781 0.039944023 0.6307593
0.021904781 0.03865546 0.6307593
0.021904781 0.037366956 0.63075924
0.021904781 0.036078453 0.63075924
0.021904781 0.034789979 0.6307593
0.021904781 0.033501446 0.63075924
0.021904781 0.032212913 0.63075924
0.021904781 0.03092441 0.63075924
0.021904781 0.029635876 0.63075924
0.021904781 0.028347343 0.6307593
0.021904781 0.02705884 0.6307593
0.021904781 0.025770307 0.63075924
0.021904781 0.024481833 0.6307593
0.021904781 0.0231933 0.63075924
0.021904781 0.021904796 0.63075924
0.021904781 0.020616293 0.63075924
0.021904781 0.01932776 0.63075924
0.02190472 0.018039167 0.63075888
0.02190472 0.016750664 0.63075888
0.02190472 0.01546216 0.63075882
0.02190472 0.014173657 0.63075882
0.02190472 0.012885153 0.63075888
0.02190472 0.01159662 0.63075882
0.02190472 0.010308087 0.63075882
0.02190472 0.0090195835 0.63075882
0.02190472 0.0077310503 0.63075888
0.02190472 0.0064426064 0.63075882
0.02190472 0.0051540434 0.63075888
0.02190472 0.00386554 0.63075888
0.02190472 0.0025770366 0.63075888
0.02190472 0.0012885034 0.63075888
0.02190472 -0 0.63075882
0.02190472 -0.0012885332 0.63075888
0.02190472 -0.0025770068 0.63075888
0.02190472 -0.0038655102 0.63075882
0.02190472 -0.0051540434 0.63075882
0.02190472 -0.0064425468 0.63075882
0.02190472 -0.0077310801 0.63075882
0.02190472 -0.0090196133 0.63075888
0.02190472 -0.010308087 0.63075882
0.02190472 -0.01159662 0.63075888
0.02190472 -0.012885123 0.63075888
0.02190472 -0.014173627 0.63075888
0.02190472 -0.01546216 0.63075888
0.02190472 -0.016750664 0.63075888
0.02190472 -0.018039167 0.63075882
0.02190472 -0.0193277 0.63075882
0.02190472 -0.020616233 0.63075882
0.02190472 -0.021904737 0.63075882
0.022342991 -0.023657322 0.63387084
0.023021163 -0.025729537 0.6386863
0.023741866 -0.027931601 0.64380372
0.024509072 -0.030275911 0.64925134
0.02532752 -0.032776803 0.65506291
0.026202606 -0.035450608 0.66127658
0.027140232 -0.038315624 0.66793424
0.028147452 -0.04139331 0.67508614
0.029232416 -0.044708401 0.68279004
0.030404264 -0.04828912 0.69111097
0.031674113 -0.052169144 0.7001276
0.033054519 -0.056387126 0.70992935
0.034560725 -0.060989529 0.72062445
0.023350431 0.063565046 0.63181305
0.023350431 0.06226781 0.63181305
0.023350431 0.060970545 0.63181305
0.023350431 0.059673309 0.63181305
0.023350431 0.058376104 0.63181305
0.023350431 0.057078838 0.63181305
0.023350431 0.055781603 0.63181305
0.023350431 0.054484367 0.63181305
0.023350431 0.053187072 0.63181305
0.023350431 0.051889837 0.63181305
0.023350431 0.050592631 0.63181305
0.023350431 0.049295366 0.63181305
0.023350431 0.04799813 0.63181305
0.023350431 0.046700895 0.63181305
0.023350431 0.04540363 0.63181305
0.023350431 0.044106364 0.63181305
0.023350431 0.042809129 0.63181305
0.023350431 0.041511893 0.63181305
0.023350431 0.040214628 0.63181305
0.023350431 0.038917392 0.63181305
0.023350431 0.037620127 0.63181305
0.023350431 0.036322892 0.63181305
0.023350431 0.035025656 0.63181305
0.023350431 0.033728421 0.63181305
0.023350431 0.032431185 0.63181305
0.023350431 0.03113392 0.63181299
0.023350431 0.029836684 0.63181305
0.023350431 0.028539449 0.63181305
0.023350431 0.027242184 0.63181305
0.023350431 0.025944918 0.63181305
0.023350431 0.024647683 0.63181305
0.023350431 0.023350447 0.63181305
0.023350431 0.022053182 0.63181305
0.023350431 0.020755917 0.63181299
0.023350431 0.019458711 0.63181305
0.023350431 0.018161476 0.63181305
0.023350431 0.016864181 0.63181305
0.023350431 0.015566945 0.63181305
0.023350431 0.01426971 0.63181305
0.023350431 0.012972444 0.63181305
0.023350431 0.011675239 0.63181305
0.023350431 0.010377973 0.63181305
0.023350431 0.0090807378 0.63181305
0.023350431 0.0077834725 0.63181305
0.023350431 0.006486237 0.63181305
0.023350431 0.0051890016 0.63181305
0.023350431 0.0038917065 0.63181305
0.023350431 0.0025945008 0.63181305
0.023350431 0.0012972355 0.63181305
0.023350431 -0 0.63181305
0.023350431 -0.0012972653 0.63181305
0.023350431 -0.0025945008 0.63181305
0.023350431 -0.0038917065 0.63181305
0.023350431 -0.0051889718 0.63181305
0.023350431 -0.006486237 0.63181305
0.023350431 -0.0077835023 0.63181305
0.023350431 -0.0090807378 0.63181305
0.023350431 -0.010378003 0.63181305
0.023350431 -0.011675239 0.63181305
0.023350431 -0.012972474 0.63181305
0.023350431 -0.01426971 0.63181305
0.023350431 -0.015566975 0.63181305
0.023350431 -0.01686421 0.63181305
0.023350431 -0.018161446 0.63181305
0.023350431 -0.019458711 0.63181305
0.023350431 -0.020755917 0.63181305
0.023350431 -0.022053182 0.63181305
0.023350431 -0.023350447 0.63181305
0.024010951 -0.025344908 0.63624257
0.024750983 -0.027501106 0.64120537
0.025538156 -0.029794484 0.64648426
0.026376965 -0.032238513 0.65210938
0.027272832 -0.034848601 0.65811723
0.028231602 -0.037642121 0.66454685
0.029260237 -0.040639222 0.67144507
0.030366771 -0.043863147 0.67886567
0.031560171 -0.047340274 0.68686879
0.032851208 -0.051101923 0.69552672
0.034252513 -0.055184603 0.70492405
0.035778545 -0.059630901 0.71515781
0.037447054 -0.064492136 0.72634709
0.024815874 0.062692761 0.63288164
0.024815874 0.061386645 0.63288158
0.024815874 0.060080528 0.63288164
0.024815874 0.058774471 0.63288164
0.024815874 0.057468355 0.63288164
0.024815874 0.056162268 0.63288164
0.024815874 0.054856151 0.63288164
0.024815874 0.053550005 0.63288164
0.024815874 0.052243918 0.63288164
0.024815874 0.050937831 0.63288164
0.024815805 0.049631625 0.63288116
0.024815805 0.048325539 0.63288116
0.024815805 0.047019422 0.63288116
0.024815805 0.045713305 0.63288122
0.024815805 0.044407219 0.63288122
0.024815805 0.043101132 0.63288116
0.024815805 0.041795045 0.63288116
0.024815805 0.040488958 0.63288116
0.024815805 0.039182872 0.63288116
0.024815805 0.037876755 0.63288122
0.024815805 0.036570638 0.63288116
0.024815805 0.035264581 0.63288116
0.024815805 0.033958495 0.63288116
0.024815805 0.032652408 0.63288116
0.024815805 0.031346291 0.63288116
0.024815805 0.030040205 0.63288116
0.024815805 0.028734088 0.63288122
0.024815805 0.027427971 0.63288116
0.024815805 0.026121885 0.63288116
0.024815805 0.024815798 0.63288116
0.024815805 0.023509711 0.63288116
0.024815805 0.022203624 0.63288116
0.024815805 0.020897478 0.63288122
0.024815805 0.019591421 0.63288122
0.024815805 0.018285334 0.63288122
0.024815805 0.016979247 0.63288116
0.024815805 0.015673161 0.63288116
0.024815805 0.014367074 0.63288116
0.024815805 0.013060957 0.63288122
0.024815805 0.011754841 0.63288116
0.024815805 0.010448724 0.63288116
0.024815805 0.0091426373 0.63288116
0.024815805 0.0078365803 0.63288116
0.024815805 0.0065304637 0.63288116
0.024815805 0.0052243769 0.63288116
0.024815805 0.0039182901 0.63288116
0.024815805 0.0026121736 0.63288116
0.024815805 0.001306057 0.63288116
0.024815805 -0 0.63288116
0.024815805 -0.0013060868 0.63288116
0.024815805 -0.0026121736 0.63288116
0.024815805 -0.0039183199 0.63288122
0.024815805 -0.0052244067 0.63288122
0.024815805 -0.0065304935 0.63288116
0.024815805 -0.0078365803 0.63288116
0.024815805 -0.0091426671 0.63288116
0.024815805 -0.010448754 0.63288116
0.024815805 -0.011754841 0.63288116
0.024815805 -0.013060957 0.63288116
0.024815805 -0.014367074 0.63288116
0.024815805 -0.015673161 0.63288116
0.024815805 -0.016979247 0.63288116
0.024815805 -0.018285334 0.63288116
0.024815805 -0.019591451 0.63288122
0.024815805 -0.020897537 0.63288122
0.024815805 -0.022203624 0.63288116
0.024815805 -0.023509741 0.63288116
0.024971578 -0.024971575 0.63387084
0.025729537 -0.027083755 0.6386863
0.026535025 -0.029328197 0.64380372
0.027392495 -0.031717598 0.64925134
0.028307229 -0.034266651 0.65506291
0.029285265 -0.036991864 0.66127652
0.0303332 -0.039912105 0.6679343
0.031458914 -0.043049037 0.67508614
0.032671526 -0.046427935 0.68279004
0.033981238 -0.050077617 0.69111097
0.03540048 -0.054032296 0.70012766
0.036943287 -0.05833149 0.70992941
0.038626697 -0.063022494 0.72062445
0.02630138 0.061808228 0.63396442
0.02630138 0.060493141 0.63396448
0.02630138 0.059178114 0.63396442
0.02630138 0.057863057 0.63396442
0.02630138 0.05654794 0.63396448
0.02630138 0.055232882 0.63396442
0.02630138 0.053917825 0.63396442
0.02630138 0.052602768 0.63396442
0.02630138 0.051287681 0.63396442
0.02630138 0.049972624 0.63396442
0.02630138 0.048657566 0.63396442
0.02630138 0.047342479 0.63396448
0.02630138 0.046027422 0.63396448
0.02630138 0.044712335 0.63396442
0.02630138 0.043397248 0.63396448
0.02630138 0.04208222 0.63396442
0.02630138 0.040767163 0.63396442
0.02630138 0.039452046 0.63396448
0.02630138 0.038136989 0.63396442
0.02630138 0.036821932 0.63396442
0.02630138 0.035506874 0.63396442
0.02630138 0.034191787 0.63396442
0.02630138 0.03287673 0.63396442
0.02630138 0.031561673 0.63396442
0.02630138 0.030246556 0.63396442
0.02630138 0.028931499 0.63396442
0.02630138 0.027616441 0.63396442
0.02630138 0.026301354 0.63396448
0.02630138 0.024986327 0.63396442
0.02630138 0.023671269 0.63396442
0.02630138 0.022356153 0.63396448
0.02630138 0.021041095 0.63396442
0.02630138 0.019726038 0.63396442
0.026301308 0.018410921 0.63396406
0.026301308 0.017095834 0.633964
0.026301308 0.015780777 0.633964
0.026301308 0.014465719 0.63396394
0.026301308 0.013150632 0.633964
0.026301308 0.011835605 0.633964
0.026301308 0.010520518 0.633964
0.026301308 0.0092054307 0.63396406
0.026301308 0.0078903735 0.633964
0.026301308 0.0065753162 0.633964
0.026301308 0.0052602589 0.63396394
0.026301308 0.0039451718 0.633964
0.026301308 0.0026301146 0.633964
0.026301308 0.0013150573 0.633964
0.026301308 -0 0.63396394
0.026301308 -0.0013150871 0.633964
0.026301308 -0.0026301444 0.633964
0.026301308 -0.0039452016 0.633964
0.026301308 -0.0052602589 0.633964
0.026301308 -0.0065753162 0.633964
0.026301308 -0.0078903735 0.633964
0.026301308 -0.0092054605 0.63396406
0.026301308 -0.010520518 0.63396406
0.026301308 -0.011835575 0.633964
0.026301308 -0.013150632 0.633964
0.026301308 -0.01446569 0.633964
0.026301308 -0.015780777 0.63396406
0.026301308 -0.017095834 0.633964
0.026301308 -0.018410891 0.633964
0.026301308 -0.019726008 0.633964
0.026301308 -0.021041065 0.633964
0.026301308 -0.022356093 0.633964
0.026301308 -0.02367118 0.63396406
0.026301308 -0.024986237 0.633964
0.026678834 -0.02667883 0.63624257
0.027501091 -0.028876126 0.64120537
0.02837573 -0.031213313 0.64648426
0.029307736 -0.033703893 0.65210938
0.030303147 -0.036363751 0.65811723
0.031368446 -0.039210528 0.66454685
0.032511372 -0.042264819 0.67144513
0.033740856 -0.045550138 0.67886567
0.035066858 -0.049093634 0.68686873
0.036501341 -0.052926928 0.69552672
0.038058348 -0.057087511 0.70492399
0.039753936 -0.061618626 0.71515775
0.027807435 0.060911536 0.63506228
0.027807435 0.059587359 0.63506228
0.027807435 0.058263183 0.63506222
0.027807435 0.056939036 0.63506222
0.027807435 0.055614889 0.63506222
0.027807435 0.054290712 0.63506228
0.027807435 0.052966565 0.63506228
0.027807435 0.051642388 0.63506228
0.027807435 0.050318241 0.63506222
0.027807435 0.048994064 0.63506228
0.027807435 0.047669888 0.63506222
0.027807435 0.046345711 0.63506222
0.027807435 0.045021564 0.63506222
0.027807435 0.043697387 0.63506222
0.027807435 0.04237321 0.63506222
0.027807435 0.041049063 0.63506228
0.027807435 0.039724916 0.63506222
0.027807435 0.038400739 0.63506222
0.027807435 0.037076563 0.63506228
0.027807435 0.035752416 0.63506222
0.027807435 0.034428269 0.63506222
0.027807435 0.033104092 0.63506222
0.027807435 0.031779915 0.63506228
0.027807435 0.030455768 0.63506228
0.027807435 0.029131621 0.63506222
0.027807435 0.027807444 0.63506222
0.027807435 0.026483268 0.63506222
0.027807435 0.025159121 0.63506222
0.027807435 0.023834944 0.63506228
0.027807435 0.022510797 0.63506222
0.027807435 0.02118662 0.63506228
0.027807435 0.019862443 0.63506222
0.027807435 0.018538266 0.63506228
0.027807435 0.017214119 0.63506222
0.027807435 0.015889943 0.63506222
0.027807435 0.014565796 0.63506222
0.027807435 0.013241619 0.63506222
0.027807435 0.011917502 0.63506222
0.027807435 0.010593325 0.63506228
0.027807435 0.0092691183 0.63506228
0.027807435 0.0079449713 0.63506222
0.027807435 0.0066208243 0.63506222
0.027807435 0.0052966774 0.63506222
0.027807435 0.0039725006 0.63506228
0.027807435 0.0026483238 0.63506222
0.027807435 0.0013242066 0.63506222
0.027807435 2.9802322e-08 0.63506222
0.027807435 -0.001324147 0.63506228
0.027807435 -0.0026483238 0.63506222
0.027807435 -0.0039725304 0.63506222
0.027807435 -0.0052966475 0.63506222
0.027807435 -0.0066208243 0.63506222
0.027807435 -0.0079450011 0.63506222
0.027807435 -0.0092691481 0.63506228
0.027807435 -0.010593295 0.63506222
0.027807435 -0.011917472 0.63506228
0.027807435 -0.013241678 0.63506228
0.027807435 -0.014565796 0.63506222
0.027807435 -0.015889943 0.63506222
0.027807435 -0.017214119 0.63506222
0.027807435 -0.018538296 0.63506228
0.027807435 -0.019862443 0.63506228
0.027807435 -0.02118659 0.63506222
0.027807435 -0.022510767 0.63506222
0.027807357 -0.023834914 0.6350618
0.027807357 -0.025159031 0.6350618
0.027807357 -0.026483208 0.6350618
0.028437911 -0.028437912 0.6386863
0.029328186 -0.030724764 0.64380372
0.030275915 -0.033159316 0.64925134
0.03128694 -0.035756469 0.65506285
0.032367926 -0.03853327 0.66127658
0.033526167 -0.041508585 0.66793424
0.034770504 -0.044704944 0.67508686
0.036110632 -0.0481475 0.6827901
0.037558209 -0.051866084 0.69111097
0.039126847 -0.055895507 0.7001276
0.040832054 -0.060275882 0.70992935
0.042692665 -0.06505549 0.72062439
0.029334545 0.060002476 0.63617581
0.029334545 0.05866909 0.63617581
0.029334545 0.057335675 0.63617581
0.029334545 0.056002319 0.63617581
0.029334545 0.054668933 0.63617581
0.029334545 0.053335547 0.63617575
0.029334545 0.052002162 0.63617575
0.029334545 0.050668776 0.63617575
0.029334545 0.04933539 0.63617575
0.029334545 0.048001975 0.63617575
0.029334545 0.046668589 0.63617581
0.029334545 0.045335203 0.63617581
0.029334545 0.044001818 0.63617581
0.029334545 0.042668402 0.63617581
0.029334545 0.041335046 0.63617575
0.029334461 0.040001541 0.63617533
0.029334461 0.038668156 0.63617539
0.029334461 0.03733477 0.63617539
0.029334461 0.036001384 0.63617527
0.029334461 0.034667999 0.63617533
0.029334461 0.033334613 0.63617533
0.029334461 0.032001257 0.63617533
0.029334461 0.030667871 0.63617533
0.029334461 0.029334456 0.63617533
0.029334461 0.02800107 0.63617533
0.029334461 0.026667714 0.63617533
0.029334461 0.025334328 0.63617533
0.029334461 0.024000913 0.63617533
0.029334461 0.022667527 0.63617533
0.029334461 0.021334141 0.63617533
0.029334461 0.020000786 0.63617539
0.029334461 0.01866734 0.63617539
0.029334461 0.017334014 0.63617533
0.029334461 0.016000628 0.63617533
0.029334461 0.014667243 0.63617533
0.029334461 0.013333857 0.63617533
0.029334461 0.012000471 0.63617533
0.029334461 0.010667086 0.63617533
0.029334461 0.0093336999 0.63617533
0.029334461 0.008000344 0.63617527
0.029334461 0.0066668987 0.63617539
0.029334461 0.0053335428 0.63617533
0.029334461 0.0040001571 0.63617533
0.029334461 0.0026667714 0.63617533
0.029334461 0.0013333559 0.63617533
0.029334461 -2.9802322e-08 0.63617533
0.029334461 -0.0013333857 0.63617533
0.029334461 -0.0026667714 0.63617539
0.029334461 -0.0040001571 0.63617533
0.029334461 -0.0053335428 0.63617533
0.029334461 -0.0066669285 0.63617533
0.029334461 -0.0080002844 0.63617539
0.029334461 -0.0093336999 0.63617539
0.029334461 -0.010667056 0.63617527
0.029334461 -0.012000442 0.63617533
0.029334461 -0.013333827 0.63617533
0.029334461 -0.014667213 0.63617533
0.029334461 -0.016000628 0.63617533
0.029334461 -0.017334014 0.63617533
0.029334461 -0.0186674 0.63617533
0.029334461 -0.020000756 0.63617527
0.029334461 -0.021334201 0.63617539
0.029334461 -0.022667557 0.63617527
0.029334461 -0.024000913 0.63617527
0.029334461 -0.025334269 0.63617533
0.029334461 -0.026667684 0.63617533
0.029346718 -0.028012782 0.63624257
0.030251201 -0.030251175 0.64120531
0.031213302 -0.032632083 0.64648426
0.032238513 -0.035169274 0.65210944
0.033333462 -0.037878931 0.65811723
0.034505289 -0.040778935 0.66454685
0.035762511 -0.043890357 0.67144507
0.037114941 -0.047237188 0.67886567
0.038573541 -0.050846905 0.68686879
0.04015163 -0.054752201 0.69552749
0.041864183 -0.058990419 0.70492399
0.043729331 -0.063606292 0.71515781
0.030882996 0.057737797 0.63730448
0.030882996 0.056395054 0.63730448
0.030882996 0.05505231 0.63730454
0.030882996 0.053709537 0.63730454
0.030882996 0.052366823 0.63730448
0.030882996 0.05102405 0.63730448
0.030882996 0.049681336 0.63730448
0.030882996 0.048338592 0.63730443
0.030882996 0.046995848 0.63730454
0.030882996 0.045653105 0.63730448
0.030882996 0.044310361 0.63730448
0.030882996 0.042967618 0.63730448
0.030882996 0.041624904 0.63730448
0.030882996 0.04028213 0.63730454
0.030882996 0.038939446 0.63730448
0.030882996 0.037596673 0.63730448
0.030882996 0.036253959 0.63730454
0.030882996 0.034911215 0.63730448
0.030882996 0.033568501 0.63730448
0.030882996 0.032225728 0.63730448
0.030882996 0.030883014 0.63730448
0.030882996 0.0295403 0.63730448
0.030882996 0.028197497 0.63730448
0.030882996 0.026854813 0.63730448
0.030882996 0.02551201 0.63730454
0.030882996 0.024169326 0.63730454
0.030882996 0.022826582 0.63730448
0.030882996 0.021483839 0.63730454
0.030882996 0.020141095 0.63730448
0.030882996 0.018798351 0.63730454
0.030882996 0.017455608 0.63730454
0.030882996 0.016112894 0.63730448
0.030882996 0.01477012 0.63730454
0.030882996 0.013427407 0.63730454
0.030882996 0.012084663 0.63730448
0.030882996 0.010741919 0.63730454
0.030882996 0.0093991756 0.63730448
0.03088291 0.0080564022 0.63730401
0.03088291 0.0067137182 0.63730407
0.03088291 0.0053709447 0.63730407
0.03088291 0.0040282309 0.63730407
0.03088291 0.0026854873 0.63730401
0.03088291 0.0013427436 0.63730407
0.03088291 -0 0.63730407
0.03088291 -0.0013427138 0.63730401
0.03088291 -0.0026854873 0.63730407
0.03088291 -0.0040282011 0.63730407
0.03088291 -0.0053709447 0.63730407
0.03088291 -0.0067136884 0.63730407
0.03088291 -0.008056432 0.63730401
0.03088291 -0.009399116 0.63730407
0.03088291 -0.010741889 0.63730407
0.03088291 -0.012084603 0.63730407
0.03088291 -0.013427347 0.63730401
0.03088291 -0.014770091 0.63730407
0.03088291 -0.016112834 0.63730407
0.03088291 -0.017455548 0.63730401
0.03088291 -0.018798292 0.63730407
0.03088291 -0.020141035 0.63730407
0.03088291 -0.021483779 0.63730407
0.03088291 -0.022826523 0.63730407
0.03088291 -0.024169266 0.63730401
0.03088291 -0.02551195 0.63730407
0.03088291 -0.026854724 0.63730407
0.03088291 -0.028197438 0.63730407
0.031146282 -0.0297921 0.6386863
0.032121345 -0.03212133 0.64380372
0.033159334 -0.034601033 0.6492514
0.034266647 -0.037246346 0.65506285
0.035450581 -0.040074557 0.66127652
0.036719136 -0.043105096 0.6679343
0.038081981 -0.046360672 0.67508686
0.039549742 -0.049867094 0.68279016
0.041135181 -0.053654611 0.69111097
0.04285321 -0.057758689 0.70012766
0.044720817 -0.062220275 0.70992935
0.032453317 0.056793302 0.63844913
0.032453317 0.055441111 0.63844913
0.032453317 0.054088861 0.63844913
0.032453317 0.05273664 0.63844913
0.032453317 0.051384449 0.63844913
0.032453317 0.050032198 0.63844913
0.032453317 0.048679978 0.63844913
0.032453317 0.047327787 0.63844913
0.032453317 0.045975536 0.63844913
0.032453317 0.044623315 0.63844913
0.032453317 0.043271095 0.63844913
0.032453317 0.041918904 0.63844913
0.032453317 0.040566683 0.63844913
0.032453317 0.039214432 0.63844913
0.032453317 0.037862211 0.63844913
0.032453317 0.036509991 0.63844913
0.032453317 0.03515777 0.63844913
0.032453317 0.033805549 0.63844913
0.032453317 0.032453328 0.63844913
0.032453317 0.031101078 0.63844913
0.032453317 0.029748887 0.63844913
0.032453317 0.028396696 0.63844913
0.032453317 0.027044445 0.63844913
0.032453317 0.025692195 0.63844919
0.032453317 0.024340004 0.63844913
0.032453317 0.022987783 0.63844913
0.032453317 0.021635562 0.63844913
0.032453317 0.020283312 0.63844919
0.032453317 0.018931091 0.63844913
0.032453317 0.01757884 0.63844919
0.032453317 0.016226679 0.63844913
0.032453317 0.014874429 0.63844919
0.032453317 0.013522238 0.63844913
0.032453317 0.012169957 0.63844919
0.032453317 0.010817796 0.63844913
0.032453317 0.0094655454 0.63844919
0.032453317 0.0081133246 0.63844913
0.032453317 0.0067611039 0.63844919
0.032453317 0.0054088831 0.63844913
0.032453317 0.0040566325 0.63844919
0.032453317 0.0027044713 0.63844913
0.032453317 0.001352191 0.63844919
0.032453317 2.9802322e-08 0.63844913
0.032453317 -0.0013522506 0.63844919
0.032453317 -0.0027044117 0.63844913
0.032453317 -0.0040566623 0.63844919
0.032453317 -0.0054088831 0.63844907
0.032453317 -0.0067611337 0.63844919
0.032453317 -0.0081133246 0.63844913
0.032453317 -0.0094655752 0.63844919
0.032453317 -0.010817736 0.63844913
0.032453317 -0.012170017 0.63844919
0.032453317 -0.013522208 0.63844913
0.032453317 -0.014874458 0.63844919
0.032453317 -0.016226619 0.63844913
0.032453317 -0.0175789 0.63844919
0.032453317 -0.018931121 0.63844919
0.032453317 -0.020283341 0.63844919
0.032453317 -0.021635503 0.63844907
0.032453317 -0.022987783 0.63844919
0.032453317 -0.024339974 0.63844913
0.032453317 -0.025692195 0.63844919
0.032453317 -0.027044445 0.63844919
0.032453317 -0.028396666 0.63844919
0.032453317 -0.029748857 0.63844919
0.033001404 -0.031626344 0.64120579
0.034050874 -0.034050882 0.64648426
0.035169285 -0.036634684 0.65210944
0.036363777 -0.039394051 0.65811723
0.037642132 -0.042347372 0.66454685
0.039013647 -0.045515925 0.67144507
0.040489029 -0.048924267 0.67886567
0.042080227 -0.052600265 0.68686879
0.043801781 -0.056577295 0.69552749
0.045670018 -0.060893357 0.70492405
0.047704723 -0.065593988 0.71515781
0.034046076 0.055835575 0.63961053
0.034046076 0.054473698 0.63961053
0.034046076 0.053111851 0.63961053
0.034046076 0.051750064 0.63961053
0.034046076 0.050388217 0.63961053
0.034046076 0.04902637 0.63961053
0.034046076 0.047664523 0.63961053
0.034046076 0.046302646 0.63961053
0.034046076 0.044940799 0.63961053
0.034046076 0.043578953 0.63961059
0.034046076 0.042217135 0.63961059
0.034045976 0.040855169 0.63961011
0.034045976 0.039493293 0.63961011
0.034045976 0.038131505 0.63961011
0.034045976 0.036769658 0.63961005
0.034045976 0.035407841 0.63961005
0.034045976 0.034045964 0.63961005
0.034045976 0.032684118 0.63961005
0.034045976 0.0313223 0.63961005
0.034045976 0.029960483 0.63961005
0.034045976 0.028598636 0.63961005
0.034045976 0.027236819 0.63961005
0.034045976 0.025874943 0.63961011
0.034045976 0.024513066 0.63961005
0.034045976 0.023151278 0.63961011
0.034045976 0.021789402 0.63961011
0.034045976 0.020427614 0.63961005
0.034045976 0.019065768 0.63961005
0.034045976 0.017703921 0.63961005
0.034045976 0.016342074 0.63961005
0.034045976 0.014980257 0.63961005
0.034045976 0.01361841 0.63961005
0.034045976 0.012256563 0.63961005
0.034045976 0.010894716 0.63961005
0.034045976 0.0095328689 0.63961005
0.034045976 0.0081710219 0.63961011
0.034045976 0.006809175 0.63961011
0.034045976 0.0054473579 0.63961011
0.034045976 0.0040855408 0.63961005
0.034045976 0.002723664 0.63961005
0.034045976 0.0013618767 0.63961005
0.034045976 -2.9802322e-08 0.63961005
0.034045976 -0.0013618469 0.63961005
0.034045976 -0.002723664 0.63961005
0.034045976 -0.004085511 0.63961005
0.034045976 -0.0054473579 0.63961005
0.034045976 -0.006809175 0.63961005
0.034045976 -0.0081710219 0.63961011
0.034045976 -0.0095328987 0.63961011
0.034045976 -0.010894716 0.63961011
0.034045976 -0.012256563 0.63961005
0.034045976 -0.01361838 0.63961005
0.034045976 -0.014980227 0.63961005
0.034045976 -0.016342074 0.63961005
0.034045976 -0.017703861 0.63961005
0.034045976 -0.019065738 0.63961005
0.034045976 -0.020427585 0.63961005
0.034045976 -0.021789432 0.63961005
0.034045976 -0.023151278 0.63961005
0.034045976 -0.024513096 0.63961005
0.034045976 -0.025874943 0.63961011
0.034045976 -0.027236819 0.63961011
0.034045976 -0.028598607 0.63961005
0.034045976 -0.029960454 0.63961005
0.034045976 -0.0313223 0.63961005
0.034914508 -0.033517927 0.64380372
0.036042757 -0.03604275 0.64925134
0.037246354 -0.038736224 0.65506285
0.038533244 -0.041615903 0.66127658
0.039912105 -0.044701546 0.6679343
0.041393455 -0.048016399 0.67508686
0.042988852 -0.051586598 0.6827901
0.044712156 -0.055443048 0.69111097
0.046579577 -0.059621871 0.70012772
0.048609585 -0.064164609 0.70992941
0.035661556 0.05486393 0.64078814
0.035661556 0.053492308 0.64078814
0.035661556 0.052120745 0.64078814
0.035661556 0.050749153 0.64078808
0.035661556 0.049377531 0.64078808
0.035661556 0.048005939 0.64078808
0.035661556 0.046634316 0.64078808
0.035661556 0.045262754 0.64078808
0.035661556 0.043891162 0.64078814
0.035661556 0.04251954 0.64078814
0.035661556 0.041147947 0.64078814
0.035661556 0.039776325 0.64078814
0.035661556 0.038404733 0.64078814
0.035661556 0.037033141 0.64078814
0.035661556 0.035661519 0.64078814
0.035661556 0.034289956 0.64078814
0.035661556 0.032918364 0.64078808
0.035661556 0.031546772 0.64078808
0.035661556 0.030175179 0.64078808
0.035661556 0.028803587 0.64078814
0.035661556 0.027431995 0.64078814
0.035661556 0.026060373 0.64078814
0.035661556 0.02468878 0.64078814
0.035661556 0.023317158 0.64078814
0.035661556 0.021945566 0.64078814
0.035661556 0.020573974 0.64078814
0.035661556 0.019202411 0.64078808
0.035661556 0.017830819 0.64078808
0.035661556 0.016459197 0.64078808
0.035661556 0.015087605 0.64078814
0.035661556 0.013716012 0.64078814
0.035661556 0.01234442 0.64078808
0.035661556 0.010972798 0.64078814
0.035661556 0.0096011758 0.64078814
0.035661452 0.0082295537 0.6407876
0.035661452 0.0068579912 0.64078766
0.035661452 0.0054863989 0.64078766
0.035661452 0.0041147768 0.64078766
0.035661452 0.0027431846 0.64078766
0.035661452 0.0013716221 0.6407876
0.035661452 2.9802322e-08 0.6407876
0.035661452 -0.0013715625 0.6407876
0.035661452 -0.0027431846 0.64078766
0.035661452 -0.0041147768 0.64078766
0.035661452 -0.0054863989 0.64078766
0.035661452 -0.0068579614 0.64078766
0.035661452 -0.0082295835 0.64078766
0.035661452 -0.0096011758 0.64078766
0.035661452 -0.010972768 0.64078772
0.035661452 -0.01234436 0.6407876
0.035661452 -0.013715923 0.64078766
0.035661452 -0.015087545 0.6407876
0.035661452 -0.016459137 0.6407876
0.035661452 -0.017830729 0.64078766
0.035661452 -0.019202322 0.64078766
0.035661452 -0.020573914 0.64078766
0.035661452 -0.021945506 0.6407876
0.035661452 -0.023317069 0.6407876
0.035661452 -0.024688691 0.6407876
0.035661452 -0.026060253 0.64078766
0.035661452 -0.027431875 0.6407876
0.035661452 -0.028803498 0.64078766
0.035661452 -0.03017506 0.64078766
0.035661452 -0.031546682 0.64078766
0.035751522 -0.033001393 0.64120585
0.03688845 -0.035469651 0.64648426
0.03810006 -0.038100094 0.65210938
0.039394092 -0.040909231 0.65811718
0.04077898 -0.043915808 0.66454691
0.042264786 -0.047141522 0.67144513
0.043863114 -0.050611317 0.67886567
0.045586914 -0.054353625 0.68686873
0.047451932 -0.058402389 0.69552749
0.049475852 -0.062796265 0.70492399
0.037300348 0.053878278 0.64198273
0.037300348 0.052496791 0.64198267
0.037300348 0.051115304 0.64198267
0.037300348 0.049733818 0.64198267
0.037300348 0.048352331 0.64198273
0.037300348 0.046970814 0.64198267
0.037300348 0.045589328 0.64198267
0.037300348 0.044207811 0.64198267
0.037300348 0.042826325 0.64198267
0.037300348 0.041444808 0.64198267
0.037300348 0.040063322 0.64198267
0.037300348 0.038681835 0.64198267
0.037300348 0.037300348 0.64198267
0.037300348 0.035918862 0.64198267
0.037300348 0.034537345 0.64198273
0.037300348 0.033155859 0.64198267
0.037300348 0.031774372 0.64198267
0.037300348 0.030392915 0.64198267
0.037300348 0.029011428 0.64198267
0.037300348 0.027629852 0.64198267
0.037300348 0.026248366 0.64198267
0.037300348 0.024866879 0.64198267
0.037300348 0.023485392 0.64198267
0.037300348 0.022103935 0.64198267
0.037300348 0.020722419 0.64198273
0.037300348 0.019340903 0.64198267
0.037300348 0.017959416 0.64198267
0.037300348 0.016577929 0.64198267
0.037300348 0.015196443 0.64198267
0.037300348 0.013814956 0.64198267
0.037300348 0.012433469 0.64198273
0.037300348 0.011051983 0.64198267
0.037300348 0.009670496 0.64198267
0.037300348 0.0082889795 0.64198267
0.037300348 0.0069074333 0.64198273
0.037300348 0.0055259764 0.64198267
0.037300348 0.0041444898 0.64198267
0.037300348 0.0027630031 0.64198267
0.037300348 0.0013814867 0.64198267
0.037300348 -0 0.64198267
0.037300348 -0.0013815165 0.64198267
0.037300348 -0.0027630031 0.64198267
0.037300348 -0.00414446 0.64198267
0.037300348 -0.0055259466 0.64198267
0.037300348 -0.0069074631 0.64198273
0.037300348 -0.0082889795 0.64198267
0.037300348 -0.0096704662 0.64198267
0.037300348 -0.011051953 0.64198267
0.037300348 -0.012433439 0.64198267
0.037300348 -0.013814956 0.64198267
0.037300348 -0.015196443 0.64198267
0.037300348 -0.016577929 0.64198267
0.037300348 -0.017959416 0.64198267
0.037300348 -0.019340903 0.64198267
0.037300348 -0.020722419 0.64198267
0.037300348 -0.022103906 0.64198267
0.037300348 -0.023485392 0.64198267
0.037300348 -0.024866879 0.64198267
0.037300348 -0.026248366 0.64198267
0.037300348 -0.027629912 0.64198267
0.037300348 -0.029011399 0.64198273
0.037300348 -0.030392855 0.64198267
0.037300348 -0.031774342 0.64198267
0.037300348 -0.033155859 0.64198267
0.037707668 -0.034914523 0.64380372
0.038926177 -0.037484467 0.6492514
0.040226191 -0.040226191 0.65506345
0.041615903 -0.04315725 0.66127652
0.043105073 -0.046298057 0.6679343
0.044704933 -0.049672157 0.67508686
0.046427958 -0.053306192 0.6827901
0.048289128 -0.057231575 0.69111097
0.05030594 -0.061485022 0.7001276
0.038963076 0.051486939 0.64319509
0.038963076 0.050095379 0.64319509
0.038963076 0.048703879 0.64319515
0.038963076 0.047312289 0.64319509
0.038963076 0.045920759 0.64319515
0.038963076 0.044529259 0.64319509
0.038963076 0.043137699 0.64319509
0.03896296 0.04174605 0.64319462
0.03896296 0.04035449 0.64319462
0.03896296 0.03896296 0.64319468
0.03896296 0.03757143 0.64319462
0.03896296 0.03617987 0.64319462
0.03896296 0.03478837 0.64319468
0.03896296 0.03339681 0.64319468
0.03896296 0.03200528 0.64319462
0.03896296 0.03061378 0.64319462
0.03896296 0.02922222 0.64319462
0.03896296 0.02783072 0.64319456
0.03896296 0.02643916 0.64319462
0.03896296 0.02504763 0.64319462
0.03896296 0.0236561 0.64319468
0.03896296 0.02226454 0.64319462
0.03896296 0.02087298 0.64319468
0.03896296 0.01948151 0.64319462
0.03896296 0.01808995 0.64319462
0.03896296 0.01669839 0.64319468
0.03896296 0.01530692 0.64319462
0.03896296 0.01391536 0.64319462
0.03896296 0.01252383 0.64319462
0.03896296 0.01113227 0.64319462
0.03896296 0.0097407401 0.64319462
0.03896296 0.00834921 0.64319462
0.03896296 0.0069576502 0.64319462
0.03896296 0.0055660903 0.64319468
0.03896296 0.0041746199 0.64319462
0.03896296 0.0027830601 0.64319462
0.03896296 0.0013915002 0.64319462
0.03896296 -0 0.64319468
0.03896296 -0.0013915598 0.64319468
0.03896296 -0.0027830601 0.64319462
0.03896296 -0.0041745901 0.64319462
0.03896296 -0.00556615 0.64319462
0.03896296 -0.0069576502 0.64319456
0.03896296 -0.0083491802 0.64319462
0.03896296 -0.0097407401 0.64319462
0.03896296 -0.01113227 0.64319462
0.03896296 -0.0125238 0.64319468
0.03896296 -0.0139153 0.64319462
0.03896296 -0.01530686 0.64319462
0.03896296 -0.01669842 0.64319462
0.03896296 -0.01808992 0.64319456
0.03896296 -0.01948145 0.64319462
0.03896296 -0.02087301 0.64319462
0.03896296 -0.02226454 0.64319462
0.03896296 -0.0236561 0.64319462
0.03896296 -0.02504763 0.64319456
0.03896296 -0.02643916 0.64319462
0.03896296 -0.02783069 0.64319462
0.03896296 -0.02922219 0.64319456
0.03896296 -0.03061375 0.64319462
0.03896296 -0.03200531 0.64319462
0.03896296 -0.03339681 0.64319462
0.03896296 -0.03478837 0.64319462
0.039726019 -0.036888421 0.64648426
