# .PCD v0.7 - Point Cloud Data file format
VERSION 0.7
FIELDS x y z
SIZE 4 4 4
TYPE F F F
COUNT 1 1 1
WIDTH 731
HEIGHT 1
VIEWPOINT 0 0 0 1 0 0 0
POINTS 731
DATA ascii
0.048892766 -0.0036669672 0.62276858
0.052690014 -0.0061267614 0.62313432
0.054584701 -2.9802322e-08 0.62497056
0.053484827 -0.0099506676 0.6253655
0.055144653 -0.01253289 0.62650675
0.048754729 -0.0087508559 0.62612462
0.046726808 -0.010103106 0.62766546
0.049505405 -0.012693673 0.62844801
0.045814827 -0.011453718 0.62884212
0.051168699 -0.01535064 0.62963682
0.034449719 -0.0063796043 0.62923825
0.03070122 -0.0051168799 0.62963682
0.052549914 0.0025633872 0.62993705
0.055436291 -0.01933822 0.6308437
0.046291173 -0.01414451 0.63043934
0.039758526 -0.010260254 0.63003707
0.02949826 -0.005130142 0.63003701
0.023188049 -0.0025764704 0.63072407
0.04820361 -0.01823917 0.63248342
0.023388764 -0.0051974952 0.63207006
0.036587041 0.0013066828 0.6329518
0.036587041 0.0013066828 0.6329518
0.044342153 0.0026083887 0.63265014
0.037981208 -0.014406651 0.63331598
0.030123025 -0.010477573 0.63331592
0.015758114 -0.0039395392 0.63373595
0.04073574 0.0026281476 0.63384223
0.033270966 -0.015970051 0.63586801
0.026545381 -0.011945426 0.63543713
0.022503214 -0.0092660189 0.63500845
0.011913465 -0.0039711297 0.63500851
0.055854172 0.0066493154 0.63575006
0.057535712 -0.029436857 0.63673723
0.014718438 -0.008028239 0.63673723
0.013344276 -0.0066721439 0.63630128
0.052265093 0.0067006946 0.63698965
0.050983373 -0.026833355 0.6371752
0.036323514 -0.020179719 0.6376155
0.025560994 -0.014798492 0.6376155
0.016115569 2.9802322e-08 0.63733166
0.010851057 -0.0094946623 0.63895142
0.010791895 -0.0080939233 0.63805872
0.032732714 -0.021821827 0.63985443
0.0081831785 -0.0095470548 0.63985443
0.0040803435 -0.0068005621 0.63940191
0.0013632297 -0.0013632476 0.63977796
0.044918034 0.0068057775 0.6395272
0.058601804 0.0095398724 0.63972998
0.019199925 -0.016457051 0.64076698
0 -0.006857127 0.64076704
0.0068382821 -0 0.64031231
0.027404128 0.0041106641 0.64062011
0.056170315 0.0095900595 0.64059615
0.059135258 -0.037131429 0.64122754
0.059135258 -0.037131429 0.64122754
0.024823286 -0.02068609 0.64169019
-0.0041257157 -0.0055009425 0.64122754
-0.0069249431 -0.0013849735 0.64240444
0.030403454 0.0055279136 0.64204073
0.043111794 -0.031986147 0.64309424
0.018079139 -0.019469857 0.6430943
0.015297732 -0.018079132 0.64309424
0.036465846 -0.030855715 0.64452225
0.037761234 -0.030768424 0.64404321
0.025245585 -0.025245547 0.64452219
-0.0041956929 -0.0097899437 0.64404321
-0.0084151952 -0.0084151924 0.64452219
-0.0084151952 -0.0084151924 0.64452219
0.0070317374 0.0028126836 0.6449827
0.039160263 0.0083914697 0.64404523
0.053213473 0.011202872 0.64425933
0.057667281 -0.042195559 0.64500344
-0.019747399 -0.0042315722 0.64548743
-0.0014092538 0.0014092326 0.64533359
0.058330659 -0.045526356 0.6469565
0.042558607 -0.036884129 0.64646423
0.028372407 -0.029791057 0.64646423
0.0071134949 -0.019917786 0.64695656
0.0085117221 -0.019860655 0.64646423
-0.0071134949 -0.0128043 0.64695656
0.018405432 0.0056632161 0.64612406
0.05294447 -0.04435885 0.64795029
0.030049566 -0.03291145 0.64795029
0.021463973 -0.028618634 0.64795029
0.017121615 -0.02568239 0.64745176
0.025831468 -0.031571805 0.64845127
0.015831813 -0.027345836 0.64895505
-0.025831468 -0.0057403147 0.64845121
0.033296674 -0.037639707 0.6499722
-0.0086607514 -0.015878052 0.6494624
-0.021715222 -0.010133773 0.6499722
0.063884892 -0.053721398 0.65048492
0.063884892 -0.053721398 0.65048492
0.037750162 -0.040654033 0.65048498
-0.0262009 2.9802322e-08 0.65092874
0.029002853 0.010151029 0.65026927
0.050967231 -0.048054814 0.65100127
0.039317578 -0.04222998 0.65100127
0.020447066 -0.033591598 0.65152007
0.020447066 -0.033591598 0.65152007
0.0087630274 -0.027749628 0.65152007
-0.029210094 -0.0087630153 0.65152013
-0.011660216 0.0029150248 0.65116066
-0.011660216 0.0029150248 0.65116066
0.033691049 -0.041015178 0.65204203
0.024902077 -0.036620706 0.65204197
-0.001471836 0.0058873296 0.65288788
0.014779582 -0.033993036 0.65362692
-0.038426917 -0.0073897839 0.65362692
-0.038426917 -0.0073897839 0.65362692
-0.041307125 -0.0014752448 0.65330052
-0.0044406108 0.0059207976 0.65389788
0.011823888 0.0088679194 0.65363026
0.034062177 0.013328671 0.65398973
0.066707365 -0.060777813 0.65416139
-0.0029736895 -0.026763201 0.65469968
-0.0014823858 -0.026682943 0.65416139
-0.031130103 -0.011859089 0.65416139
-0.042989191 -0.0059295595 0.65416139
0.047866691 -0.053850025 0.65578473
0.034300495 -0.046231091 0.65524054
0.028335191 -0.043248445 0.65524054
0.011966673 -0.035899997 0.65578473
0.010439281 -0.034300506 0.65524048
-0.0074566295 -0.025352538 0.65524054
-0.014958341 -0.022437543 0.65578473
-0.023933345 -0.017949998 0.65578473
-0.032872137 0.001494199 0.655586
-0.031288121 0.0014899373 0.65506971
0.053728595 0.017909527 0.65537757
0.051167872 -0.057187617 0.6568836
0.013503369 -0.037509352 0.65633279
0.0060197497 -0.03461355 0.6568836
0.045424424 -0.056023449 0.65799534
0.013585756 -0.039247751 0.6574378
-0.010566699 -0.027171493 0.65743774
-0.028681042 -0.018114358 0.6574378
0.037969999 -0.053157985 0.65855688
-0.0015187999 -0.033413619 0.65855694
-0.0015187999 -0.033413619 0.65855694
-0.022781996 -0.022781998 0.65855694
-0.041007593 -0.013669193 0.65855694
-0.050120395 -0.0091128349 0.65855694
0.05454741 0.019697666 0.65812314
0.027422566 -0.048751235 0.65912139
0.016809991 -0.044317245 0.65968931
-0.0076409043 -0.032091767 0.65968931
-0.013753628 -0.029035419 0.65968931
-0.015234759 -0.027422577 0.65912139
-0.015234759 -0.027422577 0.65912139
-0.019805763 0.0060940981 0.65912676
0.065819055 0.022960126 0.65999043
0.049053438 -0.061316788 0.66026139
0.026140621 -0.05074355 0.6608364
0.027592558 -0.050586343 0.66026139
-0.0061316798 -0.033724248 0.66026139
-0.069195762 -0.0030753613 0.6608364
-0.016918924 0.0076903999 0.66088468
-0.016918924 0.0076903999 0.66088468
0 0.010749817 0.66059577
0 0.010749817 0.66059577
0.0091934344 0.012257904 0.66017914
0.0091934344 0.012257904 0.66017914
0.024549974 0.015343726 0.66043681
0.024549974 0.015343726 0.66043681
0.064477801 0.023027807 0.66053492
-0.013925746 -0.032493383 0.6619978
-0.013925746 -0.032493383 0.6619978
-0.020114968 -0.029398829 0.6619978
-0.027764583 -0.024679601 0.66141498
-0.041777238 -0.018567652 0.66199785
-0.066534124 -0.0061891973 0.6619978
-0.0062086345 -0.0372518 0.66258371
-0.049669076 -0.015521616 0.66258371
0.010861079 0.013964266 0.66251421
0.034363069 -0.059354424 0.66376656
-0.076295093 -0.0031141043 0.66317326
-0.063781172 -0 0.66300368
0.015619937 0.015619993 0.66377085
-0.012575091 -0.03772527 0.66496503
-0.053446271 0.0031439066 0.6649726
0.02980952 0.018827081 0.66460723
0.036268599 -0.063075811 0.66556972
-0.042576179 -0.023653418 0.66556966
-0.074114338 -0.0078845024 0.66557038
0.031638842 -0.061695725 0.66617888
0.026979268 -0.060306638 0.66679132
0.0031638844 -0.047458261 0.66617888
-0.0047610472 -0.044436425 0.66679132
-0.01582366 0.01107657 0.66623002
0.041223232 0.022197127 0.66660941
-0.0095527321 -0.042987317 0.66740769
-0.062245641 0.0031920969 0.66788089
-0.020760046 0.011178523 0.66798764
-0.019104499 0.01114428 0.66739798
-0.032048784 -0.033651263 0.66865307
-0.039931666 -0.028750807 0.66802871
-0.071877003 -0.012778133 0.66802871
0.029031938 -0.066128343 0.66991407
0.022580398 -0.06290251 0.66991407
0.0048229364 -0.053052336 0.66928154
0.0048229364 -0.053052336 0.66928154
-0.045160796 -0.029031903 0.66991407
-0.046621714 -0.027329981 0.66928154
-0.058064077 -0.022580475 0.66991472
-0.056267589 -0.022507042 0.66928148
-0.077418767 -0.012903064 0.66991472
-0.075559333 -0.012861162 0.66928154
-0.0016181654 -0.051781267 0.67055136
-0.030745141 -0.037217826 0.67055142
-0.027485 0.011317372 0.67038232
-0.0016153002 0.016153008 0.67020553
0.032300375 0.022610277 0.67017156
0.066204451 0.029065371 0.67013824
0.0048864554 -0.057008654 0.67183733
-0.011401729 -0.048864543 0.67183733
-0.074679822 -0.016234756 0.67119229
-0.056992337 0.0065134168 0.67178112
-0.0098052192 -0.050660312 0.67248738
-0.0049188547 -0.054107398 0.673141
-0.014756564 -0.049188554 0.673141
-0.026321108 -0.044416875 0.67379898
-0.026321108 -0.044416875 0.67379898
-0.073782824 -0.019675434 0.673141
-0.078783683 0.0032826364 0.67334723
0.041072682 0.026286513 0.67353797
0.05758765 0.029616505 0.6738342
-0.018278122 -0.051511079 0.6758002
-0.041541189 -0.039879531 0.67580014
-0.076279148 0.0049747229 0.67538917
-0.068039268 0.0066379905 0.67554027
-0.043244503 0.011642754 0.67599362
0.0016728888 -0.063569784 0.67715716
0.0016728888 -0.063569784 0.67715716
-0.083928175 -0.02182135 0.67784214
-0.055581138 -0.037054092 0.67853177
-0.0656868 -0.032001257 0.67853177
-0.058922183 0.010100931 0.67843688
0.072516948 0.035415262 0.67879295
-0.057461206 -0.037180781 0.67922688
-0.081121698 -0.025350541 0.67922688
-0.045820553 0.013576448 0.68007457
-0.0051276144 0.022219628 0.68154085
-0.023988301 -0.058257282 0.68205327
-0.054830398 -0.042836249 0.68205333
-0.078818701 -0.030842096 0.68205333
-0.080893219 0.008605659 0.6829806
-0.0086025279 0.022366583 0.68290496
0.05499291 0.034370571 0.6826663
-0.044860378 -0.05003655 0.6834957
-0.018973434 0.020698279 0.68343031
-0.018973434 0.020698279 0.68343031
0.025888361 0.029340148 0.68355501
-0.041700542 -0.053863198 0.68495917
-0.029641967 -0.061027586 0.68569815
-0.054052997 -0.048822045 0.68569815
-0.064514868 -0.043591112 0.68569815
-0.024390424 0.020906091 0.68552047
0.03841164 0.03317368 0.68598044
-0.024497354 -0.064743012 0.68644243
-0.062940523 0.013986766 0.68626583
0.04717904 0.034947455 0.68614799
-0.065437451 -0.047751635 0.68870807
-0.068974607 -0.045983046 0.68870807
-0.060096845 0.015907973 0.68858421
-0.035498604 -0.063897491 0.68947458
-0.033664498 0.021261781 0.68909866
0.046402823 0.037479192 0.69065678
-0.046481639 -0.060783684 0.69102275
-0.078661233 -0.044693857 0.69102275
0.025117708 0.034088284 0.69179124
-0.068429418 -0.052222461 0.69259423
-0.090038709 -0.041417837 0.69259423
0.06119927 0.041399539 0.69249821
0 0.030875444 0.69445646
0.058000285 0.041687697 0.69401073
-0.07675004 -0.052994102 0.69580609
-0.089579821 0.014625251 0.69589996
-0.021911213 0.02738902 0.69563138
-0.082536995 -0.051356316 0.69662368
-0.0917302 0.014676809 0.69667792
-0.0917302 0.014676809 0.69667792
-0.075610936 0.018441677 0.69783247
-0.075610936 0.018441677 0.69783247
-0.075762317 -0.0572837 0.69827819
-0.086910993 0.016642541 0.69843614
0.0092577329 0.035179406 0.69872308
-0.089702636 -0.054195344 0.70080632
-0.044887178 0.026184171 0.70098662
-0.079087183 -0.062139958 0.70252323
0.030129172 0.041427612 0.7025286
0.060195018 0.047027349 0.7022897
-0.020775398 0.032107413 0.70320451
-0.08795888 -0.063100934 0.70603842
-0.08795888 -0.063100934 0.70603842
-0.030777087 0.032700658 0.70741677
0.038564287 0.046277136 0.70797765
-0.082964331 0.023152828 0.70812118
0.0077212066 0.040536344 0.7082296
0.050977878 0.050977916 0.71189749
0.019628458 0.045145452 0.71215802
-0.071775056 0.029906303 0.71588868
-0.059637927 0.031806916 0.71518606
-0.083983123 0.027994365 0.7165944
-0.012027768 0.042097181 0.71720159
0.060290251 0.056270897 0.71781081
-0.056358621 0.034217715 0.71818894
-0.03629671 0.03831324 0.7186327
-0.070931979 0.032426059 0.71985722
0.0040477877 0.046549559 0.71952724
0.056708619 0.056708634 0.71969783
-0.0081196744 0.044658244 0.72025442
-0.039261613 0.041328013 0.72465819
0.0041318801 0.049582571 0.72460252
-0.018632477 0.045546055 0.72512591
0.035219982 0.055937618 0.72530556
-0.033358376 0.04378289 0.7268911
-0.078811295 0.038340628 0.7323395
0.017189741 0.058015376 0.7345947
-0.075551741 0.041013837 0.73579019
-0.03481866 0.050051838 0.73790807
0.043642305 0.065463483 0.73862612
-0.050423585 0.048231244 0.73985922
-0.057729855 0.048848331 0.74324501
-0.029202191 0.056158096 0.74637663
-0.042821184 0.054089904 0.74727285
0.027093804 0.06773451 0.74776417
-0.07033138 0.049912572 0.74908441
-0.047742169 0.054562509 0.74964964
-0.018841116 0.065943927 0.75951207
-0.021292504 0.066243351 0.76080298
-0.062187605 0.067162603 0.77548987
0.055419605 -0.011208624 0.62555486
0.05099716 -0.0087068379 0.6253655
0.042965591 -0.0049816072 0.62555492
0.047057159 -0.0087841451 0.62669885
0.048754729 -0.0087508559 0.62612462
0.045120016 -0.010805212 0.62864602
0.033259653 -0.006396085 0.62963676
0.040515777 -0.0075967014 0.62805557
0.040515777 -0.0075967014 0.62805557
0.048862901 -0.015430391 0.63043928
0.048862901 -0.015430391 0.63043928
0.043131843 -0.012875423 0.6306417
0.032065678 -0.0012826025 0.63004833
0.053236198 0.0038953424 0.63195759
0.034752194 -0.013114363 0.63352597
0.026741797 -0.0078271329 0.63269103
0.053090762 -0.025218159 0.63543713
0.038996611 -0.01718533 0.63479489
0.027099282 -0.011238419 0.63479614
0.013318439 -0.0013318062 0.63598931
0.013318439 -0.0013318062 0.63598931
0.025063735 2.9802322e-08 0.63445628
0.043112583 0.0039797276 0.63535237
0.050972827 0.005295977 0.63504148
0.050972827 0.005295977 0.63504148
0.022808518 -0.01274775 0.63717639
0.010733341 -0.0067083538 0.6371752
0.010733341 -0.0067083538 0.6371752
0.004701308 -0.004030481 0.63739532
0.0084742829 -0.0049073696 0.63673794
0.021556159 0.0013472438 0.63785022
0.062393583 -0.035265923 0.63895136
0.062393583 -0.035265923 0.63895136
0.055159532 -0.032687679 0.63962793
0.055159532 -0.032687679 0.63962793
0.032375686 -0.018885821 0.63805866
0.052725878 -0.032868654 0.64053822
0.041142695 -0.027428448 0.64076698
0.01504396 -0.013676345 0.64030939
-0.0082744285 -0.004137218 0.64169019
0.028698776 0.0040998459 0.64018577
0.031701341 0.0055132806 0.64159942
0.053093735 0.0096535832 0.64169145
0.05083121 -0.036209226 0.64333081
0.042991243 -0.031205252 0.64262486
0.033377133 -0.027120888 0.64309561
0.026811685 -0.023114821 0.6426245
0.02284931 -0.020772979 0.6423896
0.043009397 0.0083243847 0.64269555
0.060138263 -0.041956931 0.64404321
0.05266872 -0.039326712 0.64476281
0.026876733 -0.028291315 0.64597464
0.0091025867 -0.016806602 0.64428294
0.0091025867 -0.016806602 0.64428294
-0.012598973 -0.0013999045 0.64420271
-0.012598973 -0.0013999045 0.64420271
0.026844431 0.0070643127 0.64576948
0.058956355 -0.045461103 0.6467104
0.044358879 -0.040066093 0.64795029
0.021340486 -0.027031273 0.64695656
0.021340486 -0.027031273 0.64695656
0.014186203 -0.022697896 0.64646417
-0.021463973 -0.0071546733 0.64795029
-0.021463973 -0.0071546733 0.64795029
-0.021342607 -0.0014228523 0.64697361
0.0028356744 0.0028356612 0.64636964
0.0092334971 0.0042620897 0.64671367
-0.0028701629 -0.017220974 0.64845121
-0.0086356206 -0.015114427 0.64895678
-0.015179541 -0.013010129 0.64971733
-0.030377766 -0.0014465451 0.6498369
-0.030377766 -0.0014465451 0.6498369
-0.014444424 0.0014444292 0.64958119
0.059062328 -0.052500784 0.65126061
0.031261392 -0.037805766 0.65074313
0.0072810333 -0.026211739 0.65100127
-0.020447066 -0.013144523 0.65152013
-0.032131102 -0.0073024929 0.65152001
-0.033492755 -0.0058248341 0.65100121
0.029002853 0.010151029 0.65026927
0.0532065 -0.053206474 0.65362692
0.047013678 -0.048482865 0.65256691
0.011823666 -0.032515109 0.65362692
0.00073241413 -0.02493906 0.65230477
-0.019156242 -0.016209096 0.6530956
-0.01692198 -0.016923063 0.65283298
-0.042733155 -0.0044206381 0.6530956
-0.041259963 -0.0051597059 0.65309721
0.022761527 0.010279879 0.65249157
0.038179263 0.01321587 0.65247715
0.060974874 0.017631575 0.65258169
0.060974874 0.017631575 0.65258169
0.066443913 0.019194871 0.65345466
0.063095033 -0.059384629 0.65443051
0.052861407 -0.055096164 0.65497005
0.038891688 -0.04936251 0.65578473
0.040948726 -0.049139827 0.65497005
0.037283145 -0.047722429 0.65524054
0.01795001 -0.038891673 0.65578473
0.0007434279 -0.029039629 0.6549716
-0.0052286573 -0.026884422 0.65551263
-0.031317845 -0.013421953 0.65524054
-0.017182913 0.0044822246 0.65557218
0.030803256 -0.046582252 0.65660787
0.028507112 -0.045011252 0.65633273
0.00075476419 -0.033260494 0.65771687
-0.004501123 -0.028507113 0.65633273
-0.01050262 -0.025506377 0.65633279
-0.027171807 -0.01887162 0.65743977
-0.027171807 -0.01887162 0.65743977
0.027042024 0.013520986 0.65656942
0.053157993 -0.060752004 0.65855694
0.022922713 -0.047373593 0.65968931
-0.0045845429 -0.03361997 0.65968931
-0.010697266 -0.030563623 0.65968931
-0.036563423 -0.016758204 0.65912139
-0.053486332 -0.0091691017 0.65968931
-0.059233192 -0.0045563877 0.65855688
-0.059233192 -0.0045563877 0.65855688
-0.027404457 0.0045674145 0.65899992
0.049053438 -0.061316788 0.66026139
0.0030849534 -0.040104419 0.66141498
0.0030849534 -0.040104419 0.66141498
-0.01313278 -0.032442689 0.66170639
-0.026952602 -0.024641261 0.66112566
-0.041517455 -0.016914517 0.66083634
-0.050915532 0.001542896 0.66146541
-0.033072755 0.0046146512 0.66090053
0.064477801 0.023027807 0.66053492
0.040356126 -0.060534209 0.66258371
0.024991322 -0.054668516 0.6637665
0.0062086345 -0.043460429 0.66258371
-0.0069969241 -0.037310421 0.66287851
-0.010899299 -0.035811961 0.66317326
-0.018743491 -0.032801092 0.66376656
-0.02105448 -0.031190038 0.66346991
-0.032760829 0.0062401593 0.663535
-0.032760829 0.0062401593 0.663535
0.010861079 0.013964266 0.66251421
0.020369815 -0.05327487 0.66436416
0.020369815 -0.05327487 0.66436416
0.012575091 -0.05030036 0.66496503
-0.0047306865 -0.042576164 0.66556966
-0.010968362 -0.037605792 0.66436422
-0.03311481 -0.028384119 0.66556972
-0.036268599 -0.026807249 0.66556972
-0.045440357 -0.020369798 0.66436416
-0.052037556 -0.018922776 0.66556972
-0.077268139 -0.0063076019 0.66557038
-0.077268139 -0.0063076019 0.66557038
-0.036938943 0.0062872916 0.66495693
0.012571369 0.015714228 0.66490889
0.034802727 -0.063277692 0.66617888
0.026979268 -0.060306638 0.66679132
0.00079350785 -0.047687083 0.66709948
-0.011109111 -0.041262418 0.66679126
-0.025473952 -0.03502667 0.66740769
-0.053052299 -0.024114698 0.66928154
-0.064515643 -0.019354671 0.66991472
0.011327158 -0.058253944 0.67055142
-0.030947549 -0.039091647 0.67183739
-0.071318939 0.0032417476 0.67087972
-0.063261166 0.0048662126 0.67102408
0.0048645572 0.01783669 0.67095625
0.0064659305 0.017781317 0.67034829
0.048521701 0.025878221 0.67045784
0.048521701 0.025878221 0.67045784
0.056650143 0.027515799 0.67060089
0.056650143 0.027515799 0.67060089
-0.06302242 -0.024553657 0.67281419
-0.0016419768 0.018061757 0.67342567
0.070137821 0.030991137 0.67211425
-0.018278122 -0.051511079 0.6758002
-0.044565178 -0.036312401 0.67446208
-0.076179974 -0.021529078 0.67512882
-0.030897658 -0.04676187 0.67681658
-0.056686372 -0.033344924 0.676476
-0.065394752 0.0083839595 0.67762786
-0.038529906 0.013401717 0.67743766
0.013419737 0.023484528 0.67770976
0.02182365 0.025181115 0.67786372
0.02182365 0.025181115 0.67786372
-0.018527046 -0.055581123 0.67853177
-0.025264153 -0.052212566 0.67853177
-0.025264153 -0.052212566 0.67853177
-0.033747122 0.015186191 0.67890352
-0.033747122 0.015186191 0.67890352
-0.023564674 0.016831905 0.67840075
-0.064663045 -0.035734862 0.68062997
-0.066516563 0.010233283 0.68110001
-0.0051276144 0.022219628 0.68154085
0.030760124 0.029051214 0.68150353
0.040910825 0.03068313 0.68098712
0.06663464 0.035880208 0.68146551
-0.044860378 -0.05003655 0.6834957
-0.054830398 -0.042836249 0.68205333
-0.061684199 -0.039409369 0.68205327
-0.075917564 -0.03450799 0.6834957
-0.078818701 -0.030842096 0.68205333
-0.022667388 -0.064514875 0.68569815
-0.026154676 -0.062771201 0.68569815
-0.032897413 -0.057137609 0.6842252
-0.032897413 -0.057137609 0.6842252
-0.045175582 -0.052125663 0.68495905
-0.070989154 -0.038091719 0.6842252
-0.070989154 -0.038091719 0.6842252
-0.070989154 -0.038091719 0.6842252
-0.043631379 0.017452568 0.68589246
-0.015691938 0.022666097 0.68568653
0.013040649 0.02782315 0.68513107
-0.073619634 0.012269944 0.68680912
-0.073619634 0.012269944 0.68680912
-0.060347628 -0.051472962 0.68947458
-0.074547067 -0.044373244 0.68947458
0.014135148 0.030037224 0.68850446
0.048827462 0.037287578 0.68955529
-0.073034108 -0.046314329 0.69024587
-0.061226323 -0.055824012 0.69259429
0.0072962674 0.032833219 0.6954059
0.016430173 0.03468594 0.69558793
0.029029649 0.036287069 0.69423336
0.034743499 0.038400739 0.69595373
0.074695915 0.045546293 0.69513857
-0.053190511 -0.066029608 0.69662368
0.014656007 0.03480801 0.69636363
-0.018468935 0.029550314 0.69816136
-0.044887178 0.026184171 0.70098662
0.061852548 0.046858013 0.70147192
0.063498184 0.046689868 0.70066005
-0.088558078 0.018842131 0.7026664
-0.032196738 0.030302823 0.70383865
-0.085794352 0.020971954 0.70536149
-0.034215037 0.030413389 0.70467269
0.024748491 0.041882038 0.7050221
0.075108252 0.051340997 0.70475513
-0.049925581 0.028803229 0.70701194
-0.030777087 0.032700658 0.70741677
-0.019181492 0.034526736 0.70676267
-0.031384151 0.035307199 0.71199667
0.042935256 0.048790067 0.71080083
0.01773249 0.045316368 0.71305501
-0.047571659 0.033696651 0.71448851
-0.066362172 0.032175601 0.71796769
0.010002773 0.046012759 0.71670985
0.026256645 0.050493598 0.71902597
0.056708619 0.056708634 0.71969783
-0.080288745 0.032938987 0.72372693
-0.06773185 0.034892172 0.72297788
-0.051817041 0.039380938 0.72541636
-0.06679485 0.037572116 0.72718567
0.008371246 0.052320331 0.72784626
0.022858853 0.054030031 0.72606766
0.022858853 0.054030031 0.72606766
0.043722104 0.058296144 0.72654182
0.076944359 0.064466894 0.72624874
0.076944359 0.064466894 0.72624874
-0.063443221 0.040180743 0.73049736
-0.0084653087 0.05079186 0.73068488
-0.06000258 0.042858958 0.73389846
-0.00864942 0.05405885 0.73624092
-0.026249625 0.052499235 0.73927248
-0.044263247 0.050902784 0.74237388
0.013289182 0.062016159 0.74257922
-0.015672628 0.058212638 0.74548632
0.020125253 0.064848006 0.74514747
-0.016033618 0.061843961 0.75171137
0.0046108919 0.066857934 0.75351346
-0.051415633 0.058426857 0.75733137
-0.056597818 0.058956057 0.75988656
-0.042302068 0.061102986 0.75890547
-0.050029911 0.061941773 0.76279986
-0.031325277 0.067469835 0.76609045
-0.071714073 0.064295411 0.77372688
-0.071714073 0.064295411 0.77372688
0.054584701 -2.9802322e-08 0.62497056
0.040866483 -2.9802322e-08 0.6293785
0.036382519 -0.011694402 0.63207012
0.018138453 -0.0062717013 0.63447952
0.02597506 -0.0073917462 0.63265711
0.029923856 0.00066206604 0.63400865
0.045834705 0.0036171712 0.63386786
0.042578489 -0.025822587 0.63925385
-0.0020327193 -0.0027090609 0.63872766
0.034123931 0.0040546134 0.6383667
0.019524716 -0.020919323 0.64356744
0.025335319 -0.019173399 0.64053822
-0.013231277 -0.0041780025 0.64333081
-0.0020609652 -0.006181933 0.64099848
0.00068381638 -0.0068476349 0.64053822
0.02119628 0.002735123 0.64030063
0.034047842 -0.033389639 0.64695978
0.04551683 -0.035013705 0.6442827
0.04551683 -0.035013705 0.6442827
-0.0014309316 -0.017171174 0.64795029
-0.013759738 -0.0062083937 0.64482534
0.061619312 -0.050112154 0.64887232
0.030488145 -0.037026908 0.65048766
-0.005943201 -0.018258816 0.65012783
-0.040894132 -0.002921015 0.65152007
0.010125086 0.0062713972 0.64980775
0.055560995 0.016083479 0.65171641
0.054022841 -0.054030035 0.6538974
0.054022841 -0.054030035 0.6538974
-0.017182913 0.0044822246 0.65557218
0.058070876 -0.064947687 0.65968931
-0.0020313109 -0.034026079 0.65912259
-0.010032982 -0.026588917 0.65688473
-0.025809592 0.0045541227 0.65846491
-0.018395133 0.0055484623 0.65775549
0.0056756167 0.010217324 0.65787637
0.018161196 0.012615706 0.65789974
0.02146088 -0.047520489 0.66026139
-0.049125567 -0.017154515 0.66347021
-0.061627656 -0.010111131 0.66295421
-0.057733905 -2.9802322e-08 0.66106057
-0.014378612 0.0093245804 0.66281807
0.032905087 -0.059542537 0.66436422
0.0102324 -0.049596369 0.66526949
-0.0055647679 -0.044507921 0.66709948
-0.014164654 -0.038331777 0.66587776
-0.014164654 -0.038331777 0.66587776
-0.07264483 -2.9802322e-08 0.66585213
-0.028723905 0.0095746219 0.66784835
-0.014201416 0.011043072 0.66565245
0.029473703 -0.065379791 0.66928291
-0.0335426 -0.031945348 0.66802871
-0.070355594 -0.013858497 0.66823691
0.013770369 0.01944232 0.67079604
0.038157292 0.024356514 0.67122781
-0.0022081258 -0.05851727 0.67513013
-0.0022081258 -0.05851727 0.67513013
-0.04992713 -0.031101316 0.67281419
-0.055562913 -0.027781427 0.67248732
-0.078307144 -0.01843068 0.67380369
-0.053379588 0.0082120448 0.67347789
-0.037895281 0.011532297 0.67408884
0.018129136 0.022249758 0.67411894
-0.017596729 -0.054464512 0.67750168
-0.034354169 -0.046085805 0.67750174
-0.049574696 -0.041126393 0.67922825
-0.070979401 -0.02672112 0.67681694
-0.062163599 0.0092469454 0.67804158
0.070105106 0.034428015 0.67790729
-0.024155587 -0.060388982 0.6834957
-0.041839164 -0.050438236 0.68277359
-0.072466761 -0.036233395 0.6834957
-0.085425325 0.00683406 0.68145651
0.04169365 0.030633092 0.68065161
-0.025418881 -0.064858004 0.68681765
-0.038136326 -0.054893862 0.68446988
-0.058311861 -0.046129137 0.68533146
-0.058311861 -0.046129137 0.68533146
-0.086324945 -0.033832125 0.68644476
0.0021770508 0.026172936 0.68584514
-0.080741011 -0.044856101 0.69180608
-0.065069802 0.016044229 0.69041157
-0.045378182 0.01957424 0.69002342
0.0062306207 0.029349029 0.68988609
0.02596854 0.034029767 0.69141924
-0.073921636 -0.049882799 0.69285893
0.029883251 0.036224037 0.6938529
0.029883251 0.036224037 0.6938529
-0.062021106 -0.064796373 0.69869626
-0.0018565877 0.033418626 0.69933152
-0.066643611 0.02252686 0.70182413
-0.045906648 0.026231408 0.70139378
-0.045906648 0.026231408 0.70139378
0.057684369 0.047283679 0.70352733
-0.08525756 -0.065139189 0.70648617
-0.08525756 -0.065139189 0.70648617
0.049992211 0.048069477 0.70732129
-0.060645185 0.029344499 0.71136743
0.0067668352 0.040611789 0.70866334
0.049612686 0.049612701 0.71003926
-0.034523576 0.035508066 0.7133438
-0.029899841 0.037873089 0.71583694
-0.017887617 0.039750248 0.71513557
-0.006951212 0.041695923 0.71489501
-0.080990791 0.030371577 0.71963286
-0.080990791 0.030371577 0.71963286
-0.048539359 0.03640452 0.7193557
0.083911397 0.059936702 0.71638829
0.0041318801 0.049582571 0.72460252
0.035219982 0.055937618 0.72530556
0.0052616713 0.052638009 0.72938031
0.058177419 0.063468635 0.73059952
-0.0053746561 0.053724393 0.73462594
0.021311302 0.057540536 0.73247176
0.021311302 0.057540536 0.73247176
0.042638533 0.065601289 0.73918068
-0.074705221 0.04394424 0.74044859
-0.045469068 0.051011443 0.74294436
0.049665056 0.068430632 0.74168313
0.027093804 0.06773451 0.74776417
-0.07033138 0.049912572 0.74908441
-0.060428619 0.055780262 0.75577462
-0.033549376 0.060152903 0.75449455
-0.0069091246 0.064485133 0.7532233
-0.017626412 0.065795377 0.75887173
