# .PCD v0.7 - Point Cloud Data file format
VERSION 0.7
FIELDS x y z
SIZE 4 4 4
TYPE F F F
COUNT 1 1 1
WIDTH 1354
HEIGHT 1
VIEWPOINT 0 0 0 1 0 0 0
POINTS 1354
DATA ascii
0.020860607 0.032239109 0.70413959
0.020470155 0.029774785 0.69985491
0.020094052 0.02740103 0.69572765
0.019731596 0.025112957 0.69175017
0.019381912 0.022905916 0.68791282
0.019044407 0.020775706 0.68420911
0.01871852 0.018718541 0.68063295
0.018403536 0.016730487 0.67717636
0.018098975 0.014808238 0.67383432
0.017804392 0.012948632 0.67060161
0.017519185 0.011148572 0.66747177
0.017242974 0.0094052553 0.66444075
0.01697539 0.0077160895 0.66150439
0.016715931 0.0060785115 0.65865713
0.016464286 0.0044902563 0.65589571
0.016220152 0.0029491186 0.6532166
0.015983107 0.0014529824 0.65061533
0.015752889 -0 0.64808899
0.015529255 -0.0014117658 0.64563495
0.015346282 -0.0027902424 0.64362705
0.015433308 -0.0042091012 0.64458203
0.015521372 -0.0056441426 0.6455484
0.015610448 -0.0070956647 0.64652592
0.015700502 -0.008563906 0.6475141
0.015791653 -0.010049224 0.64851439
0.015883816 -0.011551887 0.64952576
0.015977113 -0.013072193 0.65054959
0.016071511 -0.014610469 0.65158546
0.016166983 -0.016167015 0.65263313
0.016263645 -0.017742157 0.65369391
0.016361417 -0.019336194 0.6547668
0.016460426 -0.020949662 0.65585327
0.016560642 -0.02258271 0.65695304
0.01666203 -0.024235666 0.65806562
0.016764721 -0.025909126 0.65919256
0.01686863 -0.027603239 0.66033286
0.016973894 -0.029318541 0.66148794
0.017080478 -0.031055391 0.66265756
0.017188352 -0.032814115 0.66384137
0.017297655 -0.034595311 0.66504079
0.017408298 -0.036399186 0.666255
0.017520426 -0.038226396 0.66748548
0.017634006 -0.040077239 0.66873181
0.01774901 -0.041952193 0.66999382
0.017865583 -0.043851882 0.67127311
0.017983638 -0.045776516 0.67256856
0.018103324 -0.047726929 0.67388195
0.01822455 -0.0497033 0.67521226
0.018347476 -0.051706523 0.67656118
0.018472072 -0.053736925 0.67792845
0.018598305 -0.055794924 0.67931378
0.018726341 -0.057881445 0.68071878
0.018856088 -0.059996635 0.68214256
0.01898771 -0.062141597 0.68358696
0.019121114 -0.064316481 0.68505096
0.028932462 0.067509085 0.76625961
0.028247453 0.063556761 0.75936902
0.027594138 0.059787303 0.75279713
0.026970482 0.056188524 0.74652368
0.026374273 0.052748531 0.74052632
0.025803857 0.049457401 0.7347883
0.025257701 0.046305805 0.72929436
0.024734076 0.043284625 0.72402722
0.024231723 0.0403862 0.71897388
0.023749471 0.037603348 0.71412277
0.02328594 0.034928918 0.70946008
0.022840159 0.032356888 0.70497584
0.022411212 0.029881656 0.700661
0.021997998 0.0274975 0.69650435
0.021599744 0.025199652 0.69249821
0.021215731 0.02298373 0.68863535
0.020845059 0.020845026 0.68490672
0.020487117 0.018779874 0.68130606
0.020141331 0.01678443 0.67782772
0.019806955 0.014855206 0.67446411
0.019483501 0.012989014 0.67121041
0.019170504 0.011182755 0.66806197
0.018867344 0.0094336867 0.66501236
0.018573621 0.0077390075 0.66205776
0.018288964 0.0060963035 0.65919429
0.01801284 0.0045032203 0.65641677
0.017744934 0.0029575229 0.65372181
0.017484931 0.0014570653 0.65110636
0.017232386 -0 0.64856601
0.016987035 -0.0014155507 0.6460979
0.016788732 -0.00279814 0.64410317
0.01688426 -0.0042210519 0.64506412
0.016980829 -0.0056602657 0.64603549
0.017078558 -0.0071160793 0.64701861
0.017177422 -0.0085887313 0.64801311
0.017277382 -0.01007843 0.64901859
0.017378567 -0.011585712 0.65003645
0.017480889 -0.013110667 0.65106577
0.017584478 -0.014653713 0.65210772
0.017689304 -0.016215205 0.65316224
0.01779533 -0.017795354 0.65422875
0.017902691 -0.019394606 0.65530872
0.018011298 -0.02101317 0.65640122
0.018121287 -0.022651613 0.65750766
0.018232573 -0.024310082 0.65862709
0.018345291 -0.025989175 0.65976095
0.018459411 -0.027689099 0.66090888
0.018574899 -0.029410243 0.66207063
0.018691905 -0.031153172 0.66324759
0.018810328 -0.032918096 0.6644389
0.018930327 -0.034705579 0.66564596
0.019051868 -0.036516041 0.66686851
0.019174913 -0.038349807 0.66810626
0.019299623 -0.040207535 0.66936076
0.019425901 -0.042089462 0.67063105
0.019553907 -0.043996304 0.67191869
0.019683545 -0.04592827 0.67322278
0.019814983 -0.047886193 0.67454487
0.019948188 -0.049870491 0.67588484
0.020083124 -0.051881403 0.67724216
0.02021997 -0.053919911 0.67861873
0.020358622 -0.055986196 0.68001354
0.020499261 -0.058081239 0.68142825
0.020641858 -0.06020543 0.68286264
0.020786377 -0.062359154 0.6843164
0.02093301 -0.064543426 0.68579137
0.031489216 0.067822933 0.7676127
0.030740449 0.063845545 0.76066005
0.030026317 0.060052633 0.75402904
0.029344609 0.056431919 0.74769908
0.028693303 0.052972227 0.74165142
0.028070156 0.04966259 0.73586524
0.027473496 0.04649359 0.73032498
0.026901791 0.043456733 0.72501647
0.026353283 0.040543526 0.71992332
0.025826698 0.037746727 0.71503371
0.025320847 0.035059661 0.71033669
0.024834331 0.03247568 0.70581913
0.024366157 0.029989123 0.70147198
0.023915403 0.027594686 0.69728655
0.023480931 0.025287122 0.69325233
0.023061967 0.023061991 0.68936199
0.022657771 0.020914823 0.68560886
0.022267424 0.018841654 0.68198431
0.021890294 0.0168387 0.67848247
0.021525804 0.014902472 0.67509806
0.021173179 0.013029665 0.6718238
0.020831922 0.011217177 0.6686551
0.020501558 0.0094622672 0.66558748
0.020181444 0.0077621043 0.66261512
0.019871172 0.0061142147 0.65973407
0.019570358 0.0045162439 0.65694094
0.019278454 0.0029659271 0.65423048
0.018995132 0.0014611483 0.65159965
0.018720074 -0 0.64904565
0.01845281 -0.0014194548 0.64656401
0.018239364 -0.0028060377 0.64458203
0.018343439 -0.0042331219 0.64554846
0.01844871 -0.0056765079 0.64652592
0.01855514 -0.0071366131 0.6475141
0.018662862 -0.0086136162 0.64851439
0.018771783 -0.010107875 0.64952582
0.018882044 -0.011619717 0.65054959
0.018993605 -0.01314941 0.65158546
0.019106435 -0.014697224 0.65263313
0.019220671 -0.016263664 0.65369385
0.019336222 -0.017848819 0.6547668
0.019453231 -0.019453228 0.65585327
0.019571668 -0.021077186 0.65695304
0.01969149 -0.022720933 0.65806568
0.019812852 -0.024385005 0.65919256
0.019935656 -0.026069701 0.6603328
0.020060057 -0.027775466 0.66148794
0.02018602 -0.02950266 0.66265762
0.020313507 -0.03125155 0.66384137
0.020442683 -0.033022791 0.66504079
0.020573445 -0.034816593 0.666255
0.020705959 -0.036633641 0.66748548
0.02084012 -0.038474053 0.66873121
0.020976102 -0.040338635 0.66999382
0.021113871 -0.042227745 0.67127311
0.02125339 -0.04414165 0.67256856
0.021394838 -0.046081185 0.67388195
0.021538107 -0.048046559 0.67521232
0.021683382 -0.050038576 0.67656124
0.02183063 -0.052057624 0.67792845
0.021979814 -0.054104179 0.67931378
0.022131132 -0.056179017 0.68071878
0.022284465 -0.058282435 0.6821425
0.02244002 -0.060415447 0.68358696
0.022597682 -0.062578171 0.6850509
0.022757655 -0.064771771 0.68653631
0.034070034 0.06814006 0.76897991
0.033256035 0.064136684 0.76196146
0.03248018 0.060320318 0.75527191
0.031739548 0.056677788 0.74888599
0.031031942 0.053197622 0.74278486
0.030355338 0.049869478 0.73695111
0.029707475 0.046683192 0.73136514
0.029086687 0.043630064 0.72601259
0.028491439 0.040702075 0.72088021
0.027919944 0.037891328 0.71595263
0.027370928 0.035191178 0.71121895
0.026843194 0.032595307 0.70666873
0.026335321 0.030097485 0.70228976
0.025846306 0.027692467 0.69807339
0.025375223 0.025375217 0.69401163
0.024920911 0.023140818 0.69009447
0.024482578 0.020985097 0.686315
0.024059486 0.018903881 0.68266708
0.023650683 0.016893357 0.6791423
0.023255542 0.014950037 0.67573529
0.022873469 0.013070583 0.67244095
0.022503667 0.011251807 0.66925251
0.022145633 0.0094909966 0.66616547
0.021798886 0.0077853501 0.6631757
0.021462759 0.0061322153 0.66027755
0.021136843 0.0045293272 0.65746748
0.020820741 0.002974391 0.65474194
0.02051389 0.001465261 0.65209627
0.020215953 2.9802322e-08 0.64952737
0.019926606 -0.0014233291 0.64703262
0.019698303 -0.0028140545 0.64506412
0.019810967 -0.0042452514 0.64603555
0.019924985 -0.0056928694 0.64701861
0.020040326 -0.0071572661 0.64801311
0.020156946 -0.00863868 0.64901859
0.020274995 -0.010137498 0.65003645
0.020394372 -0.01165393 0.65106577
0.020515226 -0.013188392 0.65210778
0.02063752 -0.014741093 0.65316224
0.020761218 -0.016312391 0.65422875
0.020886471 -0.017902702 0.65530872
0.02101318 -0.019512236 0.65640122
0.021141503 -0.021141499 0.65750766
0.021271333 -0.0227907 0.65862709
0.021402838 -0.024460405 0.65976095
0.021535978 -0.026150823 0.66090888
0.021670716 -0.02786237 0.66207063
0.02180722 -0.029595494 0.66324759
0.021945383 -0.031350523 0.66443884
0.022085384 -0.033128083 0.66564596
0.022227179 -0.034928441 0.66686857
0.022370731 -0.036751926 0.66810626
0.022516226 -0.038599253 0.66936082
0.02266355 -0.0404706 0.67063105
0.022812892 -0.042366803 0.67191875
0.022964217 -0.044288129 0.67322344
0.023117481 -0.046234995 0.67454493
0.023272885 -0.048208117 0.67588484
0.023430314 -0.050207824 0.67724222
0.023589965 -0.052234918 0.67861879
0.023751812 -0.054289877 0.68001425
0.023915805 -0.056373 0.68142825
0.024082169 -0.05848527 0.68286264
0.024250772 -0.060626924 0.6843164
0.024421845 -0.062799007 0.68579137
0.024595257 -0.065001756 0.68728662
0.036675099 0.068460196 0.77035999
0.035794839 0.064430684 0.76327622
0.034955844 0.060590118 0.7565245
0.034155447 0.056925744 0.75008339
0.033390719 0.053425193 0.74392933
0.03265949 0.050077885 0.73804486
0.031959742 0.046874315 0.73241371
0.031289216 0.043804914 0.72701776
0.030646246 0.040861666 0.72184348
0.030029295 0.038037091 0.71687865
0.029436572 0.035323888 0.71210885
0.028866796 0.032715708 0.70752364
0.02831877 0.03020671 0.70311344
0.027791055 0.027791023 0.69886672
0.02728265 0.02546382 0.6947754
0.026792614 0.023220241 0.6908319
0.026319772 0.021055818 0.68702674
0.025863327 0.018966436 0.68335354
0.02542254 0.016948402 0.67980635
0.024996435 0.01499787 0.67637736
0.024584379 0.013111651 0.67306137
0.024185771 0.011286676 0.66985363
0.023799799 0.0095199347 0.66674757
0.023425959 0.0078086257 0.66373909
0.023063751 0.0061503649 0.6608243
0.022712504 0.0045425296 0.65799767
0.022371793 0.0029829443 0.65525585
0.022041224 0.0014694035 0.65259564
0.021720212 -0 0.65001231
0.021408418 -0.0014272332 0.64750326
0.021165509 -0.0028220713 0.64554846
0.021286976 -0.0042574108 0.64652592
0.021409776 -0.0057092905 0.64751416
0.02153407 -0.0071780086 0.64851439
0.02165975 -0.0086639524 0.64952582
0.021786973 -0.010167241 0.65054959
0.021915698 -0.011688352 0.65158546
0.022045886 -0.013227522 0.65263313
0.022177698 -0.014785111 0.65369391
0.022311024 -0.016361415 0.65476686
0.022446036 -0.017956853 0.65585333
0.022582693 -0.019571692 0.65695304
0.02272095 -0.02120623 0.65806568
0.022860982 -0.022860974 0.65919256
0.023002679 -0.024536222 0.66033286
0.023146218 -0.026232392 0.66148794
0.02329156 -0.02794987 0.66265762
0.023438662 -0.029688954 0.66384137
0.023587711 -0.031450301 0.66504085
0.023738587 -0.03323403 0.666255
0.02389149 -0.035040826 0.66748542
0.024046374 -0.036871105 0.66873187
0.024203194 -0.038725138 0.66999388
0.02436216 -0.040603608 0.67127311
0.024523143 -0.042506754 0.67256856
0.024686351 -0.044435441 0.67388195
0.024851659 -0.046389788 0.67521232
0.025019286 -0.0483706 0.6765613
0.025189187 -0.050378412 0.67792845
0.025361324 -0.052413404 0.67931378
0.025535922 -0.054476619 0.68071878
0.025712846 -0.056568205 0.68214256
0.025892332 -0.058689266 0.68358696
0.026074342 -0.06084013 0.68505168
0.026258834 -0.063021183 0.68653631
0.026446052 -0.065233588 0.68804294
0.039304554 0.068782985 0.77175158
0.038357038 0.064727485 0.76460308
0.037453946 0.060862631 0.75778973
0.036592398 0.057175666 0.75128984
0.035769764 0.053654641 0.74508363
0.034983143 0.05028826 0.73914897
0.034230378 0.047066778 0.73346984
0.033509474 0.043981194 0.72803098
0.032818165 0.041022718 0.72281551
0.032154799 0.038183808 0.71781087
0.031517856 0.035457551 0.71300542
0.03090553 0.032837123 0.70838583
0.030316541 0.030316532 0.70394218
0.029749701 0.027890354 0.69966573
0.029203553 0.025553107 0.69554538
0.0286771 0.023300141 0.69157356
0.028169394 0.021127045 0.68774325
0.027679253 0.019029498 0.68404543
0.027205873 0.017003655 0.68047404
0.02674851 0.01504606 0.67702353
0.026306182 0.013153106 0.67368639
0.025878241 0.011321723 0.67045784
0.025464086 0.0095490515 0.66733325
0.025062896 0.0078321397 0.66430652
0.024674153 0.0061685741 0.66137367
0.02429736 0.0045557618 0.65853095
0.023931831 0.0029914677 0.65577328
0.023577131 0.0014735758 0.65309727
0.023232868 -0 0.65050006
0.022898443 -0.0014311373 0.64797693
0.022641104 -0.0028301179 0.64603549
0.022771413 -0.0042696595 0.64701861
0.022903228 -0.005725801 0.64801306
0.02303651 -0.0071989 0.64901865
0.023171423 -0.0086892545 0.65003645
0.023307852 -0.010197192 0.65106577
0.023445971 -0.011722982 0.65210772
0.023585737 -0.013266981 0.65316224
0.023727106 -0.014829427 0.65422875
0.023870254 -0.016410768 0.65530872
0.024015063 -0.018011302 0.65640128
0.024161719 -0.019631416 0.65750766
0.024310095 -0.021271318 0.65862703
0.024460386 -0.022931606 0.65976089
0.024612546 -0.024612546 0.66090894
0.024766531 -0.026314437 0.66207063
0.024922539 -0.028037876 0.66324764
0.025080439 -0.02978301 0.66443884
0.025240438 -0.031550586 0.66564596
0.025402488 -0.033340752 0.66686857
0.025566552 -0.035154015 0.66810632
0.02573283 -0.036990941 0.66936076
0.025901202 -0.038851798 0.67063105
0.026071878 -0.040737301 0.67191863
0.026244819 -0.042647809 0.67322344
0.026419977 -0.044583708 0.67454493
0.026597586 -0.046545774 0.67588484
0.0267775 -0.048534214 0.67724222
0.026959961 -0.050549895 0.67861879
0.027144928 -0.052593321 0.68001425
0.027332349 -0.054664731 0.68142825
0.027522478 -0.056765079 0.68286258
0.027715169 -0.058894724 0.6843164
0.027910681 -0.061054647 0.68579137
0.028108865 -0.063244939 0.68728656
0.028309988 -0.065466851 0.68880391
0.04094274 0.0650267 0.76594073
0.039974615 0.061137646 0.75906646
0.039051026 0.057427973 0.7525084
0.038169157 0.053885847 0.74624652
0.037326403 0.050500423 0.74026251
0.0365199 0.047261029 0.73453575
0.035747509 0.044158697 0.72905129
0.035007264 0.041185021 0.72379512
0.034296911 0.038331866 0.71875125
0.033614814 0.035592169 0.7139079
0.032959454 0.032959461 0.70925438
0.032329027 0.030427337 0.70477802
0.031722263 0.027990252 0.70046961
0.031137979 0.025643051 0.69632077
0.030574713 0.023380697 0.69232124
0.030031463 0.02119866 0.68846387
0.029507289 0.019092917 0.68474185
0.029000994 0.017059386 0.68114686
0.028511781 0.015094459 0.6776731
0.028038897 0.01319477 0.67431533
0.027581345 0.011357009 0.67106646
0.027138488 0.0095782876 0.6679219
0.02670972 0.007855773 0.66487741
0.0262942 0.0061868727 0.66192687
0.02589141 0.0045691133 0.6590668
0.025500858 0.0030000806 0.65629369
0.025121832 0.0014777482 0.65360236
0.024753911 2.9802322e-08 0.65098989
0.024396682 -0.001435101 0.64845335
0.024125237 -0.002838254 0.64652592
0.024264414 -0.0042819679 0.6475141
0.02440528 -0.0057424307 0.64851439
0.024547717 -0.0072199106 0.64952576
0.0246919 -0.0087147951 0.65054959
0.02483779 -0.010227323 0.65158546
0.024985336 -0.011757791 0.65263319
0.025134724 -0.013306618 0.65369391
0.025285829 -0.014874011 0.6547668
0.025438841 -0.016460449 0.65585333
0.025593717 -0.018066168 0.65695304
0.025750408 -0.019691467 0.65806562
0.025909115 -0.021336913 0.65919256
0.026069703 -0.023002654 0.6603328
0.026232382 -0.024689287 0.66148794
0.026397103 -0.026397109 0.66265756
0.026563816 -0.028126389 0.66384137
0.026732739 -0.029877752 0.66504085
0.026903735 -0.031651437 0.666255
0.027077021 -0.0334481 0.66748548
0.027252557 -0.035268009 0.66873181
0.027430288 -0.03711158 0.66999388
0.027610449 -0.038979471 0.67127311
0.027792895 -0.040871888 0.67256856
0.027977863 -0.042789668 0.67388201
0.028165214 -0.044732988 0.67521226
0.028355191 -0.046702683 0.67656124
0.028547747 -0.048699081 0.67792851
0.028742833 -0.050722659 0.67931372
0.028940711 -0.052774251 0.68071878
0.029141225 -0.054854065 0.68214262
0.029344643 -0.056963086 0.68358696
0.029550921 -0.05910182 0.68505168
0.029760011 -0.061270595 0.68653631
0.029972192 -0.063470513 0.68804294
0.030187305 -0.065701783 0.68957043
0.043552682 0.065329045 0.76729232
0.042517956 0.061414808 0.76035333
0.041531458 0.057682633 0.75373775
0.040589508 0.054119378 0.74742079
0.039689336 0.050714165 0.74138415
0.038828403 0.04745695 0.7356106
0.038003854 0.044337809 0.73008102
0.037213601 0.041348428 0.72478151
0.036455698 0.038481057 0.71969891
0.0357279 0.035727918 0.71481812
0.035028592 0.033082575 0.71012855
0.034356274 0.030538917 0.70561981
0.033709142 0.028090954 0.70128012
0.033085939 0.025733471 0.69710088
0.032485489 0.023461729 0.69307411
0.031906322 0.021270901 0.68919009
0.031347442 0.019156754 0.68544221
0.030807918 0.017115504 0.68182409
0.030286543 0.015143275 0.67832768
0.029782521 0.013236672 0.67494756
0.029295104 0.011392534 0.6716789
0.028823283 0.0096077919 0.66851479
0.02836642 0.0078795552 0.66545105
0.027923906 0.0062053204 0.66248345
0.027494896 0.0045824647 0.65960646
0.027078873 0.0030087829 0.65681648
0.026675332 0.0014819801 0.65411031
0.02628356 -2.9802322e-08 0.65148306
0.025903132 -0.0014390647 0.6489318
0.025617838 -0.0028464198 0.64701861
0.025766131 -0.0042943358 0.64801311
0.025916073 -0.00575912 0.64901859
0.026067851 -0.0072410703 0.65003645
0.026221335 -0.0087404251 0.65106571
0.026376719 -0.010257602 0.65210778
0.026533956 -0.011792898 0.65316224
0.026692992 -0.013346493 0.65422875
0.026854036 -0.014918894 0.65530872
0.027016945 -0.016510338 0.65640122
0.027181933 -0.018121302 0.65750766
0.027348857 -0.019751936 0.65862709
0.027517933 -0.021402836 0.65976095
0.027689114 -0.023074269 0.66090888
0.02786235 -0.024766535 0.66207063
0.028037855 -0.026480198 0.66324759
0.028215492 -0.028215468 0.66443884
0.028395491 -0.02997303 0.66564596
0.028577801 -0.031753093 0.66686857
0.02876237 -0.033556104 0.66810632
0.028949436 -0.035382628 0.66936076
0.02913885 -0.037232965 0.67063105
0.029330863 -0.039107829 0.67191875
0.029525422 -0.041007519 0.67322338
0.029722475 -0.042932451 0.67454487
0.029922282 -0.04488343 0.6758849
0.030124687 -0.046860605 0.67724216
0.030329958 -0.048864961 0.67861879
0.030537933 -0.050896585 0.68001354
0.030748893 -0.052956402 0.68142819
0.030962788 -0.055044949 0.68286264
0.031179564 -0.057162553 0.68431634
0.031399515 -0.059310198 0.68579137
0.031622473 -0.061488122 0.6872865
0.03184874 -0.063697487 0.68880397
0.032078262 -0.065938681 0.6903432
0.046187002 0.065634191 0.76865661
0.045084689 0.061694831 0.7616533
0.044033766 0.057939172 0.75497663
0.043030921 0.054354876 0.74860531
0.042072546 0.050929934 0.74251664
0.041155931 0.047654212 0.73669314
0.04027858 0.044518441 0.73111922
0.039437685 0.041513324 0.72577685
0.038631182 0.038631171 0.72065294
0.037857164 0.035864681 0.71573544
0.037113398 0.033206701 0.71101022
0.036398295 0.030651212 0.70646703
0.035710372 0.028192431 0.70209646
0.035047833 0.025824726 0.69788718
0.03440943 0.023543298 0.69383132
0.033793993 0.021343589 0.68992138
0.033200063 0.019221097 0.68614799
0.032626648 0.017171919 0.68250501
0.03207282 0.015192389 0.67898637
0.031537369 0.013278902 0.67558455
0.031019503 0.011428207 0.6722945
0.030518476 0.0096374154 0.66911137
0.030033275 0.0079034567 0.6660288
0.029563259 0.0062238574 0.66304266
0.029107822 0.0045959651 0.66014922
0.028666116 0.0030174851 0.65734291
0.028237613 0.001486212 0.65462053
0.027821818 -0 0.65197897
0.027418006 -0.0014430881 0.64941347
0.027119052 -0.0028546154 0.64751416
0.02727649 -0.0043067932 0.64851439
0.027435683 -0.0057759583 0.64952582
0.027596833 -0.0072623193 0.65054953
0.027759884 -0.0087662935 0.65158552
0.027924787 -0.01028806 0.65263319
0.028091751 -0.011828095 0.65369385
0.028260631 -0.013386607 0.65476686
0.028431645 -0.014964044 0.65585327
0.028604744 -0.016560674 0.65695304
0.028779868 -0.018176794 0.65806568
0.028957246 -0.019812822 0.65919256
0.029136728 -0.021469146 0.6603328
0.029318543 -0.023146242 0.66148794
0.029502643 -0.024844348 0.66265756
0.029688969 -0.026563823 0.66384137
0.029877767 -0.028305262 0.66504085
0.030068878 -0.030068904 0.666255
0.030262554 -0.031855315 0.66748548
0.030458737 -0.033664942 0.66873181
0.030657381 -0.035498023 0.66999388
0.030858735 -0.037355304 0.67127311
0.031062644 -0.039237022 0.67256856
0.031269375 -0.041143924 0.67388201
0.031478766 -0.043076217 0.67521226
0.031691097 -0.045034736 0.67656124
0.031906307 -0.047019839 0.67792857
0.032124344 -0.049031883 0.67931378
0.0323455 -0.051071852 0.68071878
0.032569602 -0.053139865 0.68214256
0.032796957 -0.055236995 0.68358696
0.0330275 -0.05736354 0.68505168
0.033261187 -0.059520006 0.68653631
0.033498332 -0.061707497 0.68804294
0.033738751 -0.063926071 0.68957043
0.048845798 0.065941811 0.77003205
0.047674932 0.061977416 0.7629652
0.04655866 0.058198333 0.75622797
0.045493465 0.054592162 0.74979889
0.044476129 0.05114755 0.74365878
0.043503094 0.04785341 0.737786
0.042571727 0.044700295 0.73216468
0.041679583 0.041679591 0.72678012
0.040823892 0.038782686 0.72161555
0.040002625 0.036002338 0.71665883
0.039213914 0.033331811 0.71189851
0.03845555 0.030764431 0.70732135
0.037725955 0.028294504 0.70291781
0.037023678 0.025916576 0.69867921
0.036346931 0.023625523 0.69459468
0.035694476 0.021416694 0.69065678
0.035065163 0.019285828 0.68685853
0.034457535 0.017228782 0.68319118
0.033870604 0.015241772 0.67964876
0.033303447 0.0133214 0.67622566
0.032754861 0.011464208 0.67291468
0.032224055 0.0096672177 0.66971093
0.031710286 0.0079275668 0.66661006
0.031212537 0.0062424839 0.66360593
0.030730173 0.0046095252 0.6606946
0.030262588 0.0030262172 0.65787244
0.029808924 0.0014904439 0.65513432
0.029368665 -2.9802322e-08 0.65247715
0.028941307 -0.0014470518 0.64989781
0.028629035 -0.0028629005 0.64801306
0.028795637 -0.00431934 0.64901859
0.028964277 -0.0057928562 0.65003645
0.029134816 -0.0072836876 0.65106571
0.029307466 -0.0087922215 0.65210772
0.029482173 -0.010318756 0.65316218
0.02965888 -0.01186353 0.65422875
0.029837815 -0.013427019 0.65530872
0.030018827 -0.015009433 0.65640122
0.030202145 -0.016611159 0.6575076
0.030387618 -0.018232554 0.65862709
0.030575482 -0.019874066 0.65976095
0.030765686 -0.021535993 0.66090894
0.030958164 -0.023218632 0.66207063
0.031153174 -0.02492255 0.66324759
0.031350546 -0.026647985 0.6644389
0.031550545 -0.028395474 0.66564596
0.031753112 -0.030165464 0.66686857
0.031958189 -0.031958193 0.66810632
0.032166038 -0.033774346 0.66936082
0.032376502 -0.035614163 0.67063105
0.032589845 -0.037478328 0.67191863
0.032806024 -0.039367199 0.67322338
0.033024974 -0.041281193 0.67454493
0.033246979 -0.043221056 0.67588484
0.033471875 -0.045187026 0.67724222
0.033699952 -0.047179937 0.67861879
0.033931036 -0.049199998 0.68001348
0.034165435 -0.051248163 0.68142819
0.034403097 -0.053324819 0.68286264
0.034643963 -0.055430323 0.68431634
0.034888349 -0.057565778 0.68579143
0.035136081 -0.059731334 0.68728662
0.035387486 -0.061928093 0.68880397
0.035642516 -0.064156532 0.69034314
0.051529903 0.066252738 0.77142203
0.050288763 0.062262297 0.76428783
0.049106244 0.058459818 0.75749052
0.047977831 0.054831803 0.75100428
0.046900112 0.051366776 0.74480939
0.045869958 0.048054278 0.73888797
0.044883884 0.044883937 0.73321986
0.043939311 0.041846991 0.72779036
0.043033868 0.038935393 0.72258574
0.042164803 0.036141247 0.71759021
0.041330144 0.033457726 0.71279252
0.040528055 0.030878514 0.70818204
0.039756346 0.028397411 0.70374614
0.039013479 0.026008964 0.699476
0.038298011 0.023708314 0.6953634
0.037608169 0.021490395 0.69139814
0.036942739 0.019350946 0.68757319
0.036300581 0.017286003 0.68388188
0.035680234 0.015291512 0.68031609
0.035080738 0.013364106 0.67687011
0.034501173 0.011500388 0.67353868
0.03394033 0.0096972287 0.67031491
0.033397432 0.0079517663 0.66719425
0.032871734 0.0062612891 0.66417253
0.032362226 0.0046232045 0.6612438
0.031868268 0.0030350685 0.65840447
0.031389266 0.0014947355 0.65565103
0.03092435 -2.9802322e-08 0.65297872
0.030473007 -0.0014511049 0.65038431
0.0301477 -0.0028712153 0.64851439
0.030323651 -0.0043319166 0.64952576
0.030501762 -0.0058098435 0.65054953
0.030681979 -0.0073052347 0.65158546
0.030864239 -0.0088183582 0.65263319
0.031048775 -0.010349572 0.65369391
0.031235434 -0.011899203 0.6547668
0.031424452 -0.01346764 0.65585333
0.031615768 -0.01505515 0.65695304
0.03180933 -0.016662002 0.65806562
0.032005377 -0.018288791 0.65919256
0.032203753 -0.019935638 0.6603328
0.032404706 -0.021603167 0.66148794
0.032608185 -0.023291558 0.66265756
0.032814126 -0.025001198 0.66384137
0.033022795 -0.026732743 0.66504085
0.033234026 -0.028486311 0.666255
0.033448085 -0.03026256 0.66748542
0.033664808 -0.032061726 0.66873115
0.033884473 -0.033884495 0.66999388
0.034107022 -0.035731196 0.67127311
0.034332398 -0.037602156 0.67256856
0.034560893 -0.03949818 0.67388201
0.034792323 -0.041419446 0.67521232
0.035027001 -0.04336676 0.67656124
0.035264865 -0.045340538 0.67792857
0.035505854 -0.047341138 0.67931378
0.035750289 -0.049369425 0.68071878
0.035997983 -0.051425695 0.68214262
0.036249265 -0.053510815 0.68358696
0.036504079 -0.05562529 0.68505168
0.036762368 -0.057769477 0.68653637
0.037024472 -0.059944361 0.688043
0.037290201 -0.062150329 0.68957043
0.037559915 -0.064388454 0.69112074
0.054239441 0.066566586 0.77282524
0.052926995 0.062550068 0.76562399
0.051676828 0.058723658 0.75876451
0.050484106 0.055073589 0.75222027
0.049345203 0.051588207 0.7459712
0.04825655 0.048256576 0.73999798
0.047215112 0.045068979 0.7342838
0.046217471 0.04201588 0.72880983
0.045261115 0.039089143 0.72356248
0.044343729 0.036281198 0.71852893
0.043462604 0.033584744 0.71369433
0.042615995 0.030993462 0.70904911
0.041801564 0.028501093 0.70458043
0.041017681 0.026102155 0.70027936
0.040262658 0.023791611 0.69613671
0.039535075 0.021564603 0.69214451
0.038833179 0.0194166 0.6882934
0.038155768 0.017343551 0.68457651
0.037501726 0.01534164 0.68098783
0.036869593 0.013407111 0.67751944
0.036258545 0.011536807 0.67416674
0.0356673 0.009727478 0.67092264
0.035095025 0.0079761446 0.66778272
0.034540828 0.006280154 0.66474187
0.034003969 0.0046369433 0.66179621
0.033483438 0.0030439496 0.65894014
0.032978602 0.001499027 0.65617019
0.032488864 -0 0.65348303
0.032013364 -0.001455158 0.65087408
0.031675201 -0.0028795898 0.64901865
0.031860705 -0.0043446422 0.65003645
0.0320483 -0.0058269501 0.65106571
0.032238211 -0.0073268414 0.65210778
0.032430388 -0.0088447034 0.65316224
0.03262477 -0.010380596 0.65422875
0.032821599 -0.011935145 0.65530872
0.033020712 -0.013508499 0.65640128
0.033222359 -0.015101075 0.65750766
0.033426486 -0.016713232 0.65862763
0.033633031 -0.018345296 0.65976095
0.033842254 -0.019997716 0.66090894
0.034053981 -0.021670729 0.66207063
0.034268491 -0.023364902 0.66324759
0.034485601 -0.025080413 0.66443884
0.034705602 -0.026817948 0.66564596
0.034928422 -0.028577775 0.66686851
0.035154007 -0.030360281 0.66810632
0.035382643 -0.032166034 0.66936082
0.035614152 -0.03399536 0.67063105
0.035848834 -0.035848826 0.67191869
0.036086626 -0.037726909 0.6732235
0.03632747 -0.039629966 0.67454487
0.036571678 -0.041558713 0.67588484
0.036819063 -0.043513417 0.67724222
0.037069947 -0.045494944 0.67861873
0.037324276 -0.04750362 0.68001425
0.03758198 -0.049539864 0.68142819
0.03784341 -0.051604629 0.68286258
0.03810836 -0.053698123 0.6843164
0.038377184 -0.055821359 0.68579137
0.038649831 -0.057974726 0.68728733
0.038926236 -0.06015873 0.68880391
0.039206769 -0.062374413 0.6903432
0.039491225 -0.064621985 0.69190395
0.056974474 0.066883057 0.7742402
0.055589736 0.062840551 0.76697266
0.054270446 0.058989584 0.76004863
0.053012583 0.055317491 0.753447
0.05181146 0.051811457 0.74714315
0.050663557 0.048460811 0.74111861
0.049565423 0.045255363 0.73535532
0.048514094 0.042186171 0.72983766
0.047506232 0.039244294 0.7245481
0.046539396 0.036422133 0.71947384
0.045611318 0.033712685 0.71460295
0.044719346 0.031109095 0.70992172
0.043861773 0.028605461 0.70542085
0.043036293 0.026196033 0.70108855
0.042241316 0.023875535 0.69691628
0.041475177 0.021639228 0.69289535
0.040736489 0.019482672 0.68901843
0.040023502 0.017401546 0.68527651
0.039335042 0.015391976 0.68166333
0.038670007 0.013450474 0.67817295
0.038026951 0.011573404 0.67479807
0.037404936 0.0097578168 0.67153347
0.036803063 0.0080006719 0.66837472
0.036220133 0.0062991679 0.66531533
0.035655379 0.0046506822 0.66235137
0.035108082 0.0030528605 0.65947902
0.034577224 0.0015033782 0.65669286
0.034062177 -0 0.65398979
0.033562355 -0.0014592409 0.65136653
0.033211615 -0.0028879642 0.64952576
0.03340669 -0.0043573976 0.65054959
0.033604071 -0.0058442056 0.65158546
0.03380369 -0.0073486269 0.65263313
0.034005802 -0.0088710785 0.65369385
0.034210239 -0.010411799 0.6547668
0.034417257 -0.011971235 0.65585333
0.034626793 -0.013549626 0.65695304
0.034838788 -0.015147299 0.65806562
0.035053506 -0.0167647 0.65919256
0.035270773 -0.018402129 0.6603328
0.03549087 -0.020060062 0.66148794
0.035713729 -0.021738768 0.66265756
0.03593928 -0.023438662 0.66384137
0.036167823 -0.025160253 0.66504085
0.036399171 -0.026903749 0.666255
0.036633618 -0.028669804 0.66748548
0.036871105 -0.030458719 0.66873187
0.037111565 -0.032270938 0.66999388
0.037355311 -0.034107029 0.67127311
0.037602149 -0.03596729 0.67256856
0.037852403 -0.037852407 0.67388201
0.038106013 -0.039762795 0.67521298
0.038362905 -0.041698813 0.67656124
0.038623422 -0.043661267 0.67792851
0.038887363 -0.045650363 0.67931378
0.039155077 -0.047667056 0.68071878
0.039426364 -0.049711496 0.68214262
0.039701574 -0.051784694 0.68358696
0.039980661 -0.05388698 0.68505168
0.040263545 -0.056018859 0.68653637
0.040550612 -0.058181316 0.68804294
0.040841646 -0.060374618 0.68957043
0.041137051 -0.062599838 0.6911208
0.041436754 -0.064857513 0.69269365
0.059735946 0.067202955 0.77567017
0.058277328 0.063133776 0.76833391
0.056887947 0.059258252 0.76134592
0.055563286 0.055563271 0.75468326
0.054299165 0.052036643 0.74832529
0.053091031 0.048666775 0.74224889
0.051935494 0.045443535 0.7364369
0.050829183 0.042357653 0.73087263
0.049769245 0.039400667 0.72554147
0.048752394 0.03656432 0.72042716
0.047776267 0.03384155 0.71551764
0.046838652 0.031225801 0.71080172
0.045936942 0.028710574 0.70626652
0.0450693 0.026290447 0.70190263
0.044233993 0.023960084 0.69770133
0.043428924 0.021714449 0.69365221
0.042652629 0.019549131 0.68974775
0.04190376 0.017459929 0.68598121
0.041180585 0.015442699 0.68234396
0.040481947 0.013493955 0.67883003
0.039806757 0.011610299 0.67543411
0.039153587 0.009788394 0.67214894
0.038521502 0.0080253184 0.66896975
0.037909631 0.006318301 0.6658923
0.037316769 0.0046645701 0.66291046
0.036742166 0.0030618608 0.66002035
0.036185108 0.0015076995 0.65721858
0.035644572 -0 0.65449995
0.035119951 -0.0014633536 0.65186131
0.034757134 -0.0028964281 0.65003645
0.034961779 -0.0043702424 0.65106577
0.035168957 -0.005861491 0.65210778
0.035378609 -0.0073705316 0.65316224
0.03559066 -0.0088976622 0.65422875
0.035805382 -0.010443211 0.65530872
0.036022596 -0.012007535 0.65640122
0.036242574 -0.013590932 0.65750766
0.036465261 -0.01519388 0.65862769
0.036690582 -0.016816527 0.65976095
0.036918823 -0.018459409 0.66090894
0.037149798 -0.020122826 0.66207063
0.03738381 -0.021807224 0.66324759
0.037620656 -0.0235129 0.66443884
0.037860654 -0.025240451 0.66564596
0.038103737 -0.026990145 0.66686857
0.038349826 -0.02876237 0.66810632
0.038599245 -0.030557722 0.66936076
0.038851801 -0.032376498 0.67063099
0.039107814 -0.034219325 0.67191869
0.039367229 -0.036086649 0.6732235
0.039629966 -0.037978739 0.67454493
0.039896376 -0.039896369 0.67588484
0.040166248 -0.041839838 0.67724222
0.040439941 -0.043809921 0.67861879
0.040717389 -0.045807093 0.68001425
0.040998522 -0.047831625 0.68142825
0.041283716 -0.049884468 0.68286258
0.041572753 -0.051965952 0.6843164
0.041866019 -0.05407694 0.68579137
0.042163294 -0.05621773 0.68728662
0.042464983 -0.058389366 0.68880397
0.042771023 -0.060592294 0.6903432
0.043081332 -0.062826931 0.69190395
0.043396354 -0.065094531 0.69348836
0.062523961 0.067525864 0.77711397
0.060989793 0.063429385 0.76970637
0.059529405 0.059529424 0.76265502
0.058137037 0.055811584 0.75593197
0.056808311 0.052263618 0.74951637
0.055538967 0.048874319 0.74338746
0.054325357 0.045633286 0.73752761
0.053163409 0.042530715 0.7319172
0.052050129 0.039558113 0.72654182
0.050982736 0.03670758 0.72138798
0.049958032 0.033971459 0.7164402
0.048973709 0.031343192 0.71168756
0.048027616 0.028816581 0.70711941
0.0471172 0.026385665 0.7027235
0.04624065 0.024045169 0.69849122
0.045396302 0.021790236 0.69441432
0.044582065 0.019616097 0.69048285
0.043796521 0.01751861 0.68668985
0.043038342 0.01549378 0.68302906
0.042305809 0.013537854 0.67949212
0.041597795 0.011647403 0.67607349
0.040913232 0.00981915 0.67276812
0.0402507 0.0080501437 0.66956913
0.039609283 0.0063374639 0.66647208
0.038988113 0.0046785772 0.66347283
0.038386006 0.0030709207 0.66056556
0.037802212 0.0015120804 0.65774679
0.037236024 -0 0.65501297
0.036686435 -0.0014674664 0.65235937
0.036311623 -0.0029049516 0.65054959
0.036526162 -0.0043831468 0.65158546
0.036743142 -0.0058789253 0.65263319
0.03696283 -0.0073926151 0.65369391
0.037185039 -0.0089243948 0.6547668
0.037410062 -0.010474831 0.65585327
0.037637819 -0.012044102 0.65695298
0.03786825 -0.013632566 0.65806568
0.038101636 -0.015240639 0.65919256
0.038337797 -0.016868621 0.66033286
0.038577031 -0.018516988 0.66148794
0.038819268 -0.020186007 0.66265756
0.039064433 -0.021876097 0.66384131
0.039312851 -0.023587734 0.66504085
0.039564315 -0.025321156 0.666255
0.039819147 -0.027077019 0.66748548
0.040077288 -0.028855652 0.66873181
0.040338658 -0.030657351 0.66999388
0.040603597 -0.032482892 0.67127311
0.040871903 -0.034332424 0.67256856
0.041143917 -0.036206663 0.67388201
0.041419581 -0.038106024 0.67521298
0.04169881 -0.040030897 0.6765613
0.04198198 -0.041981965 0.67792851
0.042268872 -0.043959618 0.67931372
0.04255987 -0.045964628 0.68071878
0.042854737 -0.047997296 0.68214256
0.043153886 -0.050058484 0.68358696
0.04345724 -0.0521487 0.68505168
0.043764718 -0.054268241 0.68653631
0.044076752 -0.05641824 0.688043
0.044393096 -0.058598876 0.68957043
0.044714183 -0.060811281 0.69112074
0.04503978 -0.063055694 0.69269288
0.045370325 -0.065333277 0.69428885
0.065338559 0.067851603 0.77857012
0.063728116 0.063728124 0.77109325
0.062194832 0.059802741 0.76397467
0.060733896 0.056062043 0.7571919
0.059339728 0.052492857 0.75071925
0.058008138 0.049083829 0.744537
0.056734994 0.045824438 0.73862618
0.055516791 0.042705238 0.73297036
0.054349557 0.039716989 0.72755122
0.053230397 0.036851823 0.72235531
0.052156616 0.03410241 0.71737003
0.051125091 0.031461567 0.71258098
0.050133575 0.028923243 0.70797765
0.049179982 0.026481539 0.7035504
0.048261799 0.02413094 0.69928753
0.047377273 0.021866441 0.69518089
0.046524763 0.01968354 0.69122297
0.045702219 0.017577767 0.6874041
0.044908255 0.015545189 0.68371797
0.044141568 0.013582021 0.68015844
0.043400463 0.011684746 0.6767177
0.042683836 0.0098501444 0.67339057
0.04199063 0.0080751181 0.67017221
0.041319441 0.0063568056 0.66705608
0.040669374 0.0046926439 0.664038
0.040039573 0.0030799806 0.66111398
0.039428856 0.0015164912 0.65827864
0.038836487 -0 0.65552843
0.038261775 -0.0014716387 0.65286022
0.037875261 -0.0029135048 0.65106577
0.038099706 -0.0043961108 0.65210772
0.038326822 -0.0058964193 0.65316224
0.038556546 -0.0074146986 0.65422875
0.038789164 -0.0089513063 0.65530872
0.039024476 -0.0105066 0.65640128
0.03926279 -0.012080878 0.65750766
0.039504033 -0.013674468 0.65862763
0.039748129 -0.015287727 0.65976095
0.039995391 -0.016921133 0.66090894
0.040245615 -0.018574923 0.66207063
0.040499125 -0.020249546 0.66324759
0.040755711 -0.021945357 0.66443884
0.041015711 -0.023662895 0.66564596
0.041279044 -0.025402486 0.66686857
0.041545644 -0.027164459 0.66810632
0.041815851 -0.02894941 0.66936076
0.042089451 -0.030757695 0.67063105
0.042366803 -0.032589853 0.67191869
0.042647831 -0.034446299 0.67322344
0.042932462 -0.036327481 0.67454493
0.043221075 -0.038234025 0.67588484
0.043513436 -0.040166259 0.67724222
0.043809935 -0.042124927 0.67861879
0.04411035 -0.044110358 0.68001348
0.044415068 -0.046123356 0.68142819
0.044724025 -0.048164308 0.68286264
0.04503715 -0.050233752 0.6843164
0.045354854 -0.05233255 0.68579143
0.045676902 -0.054460913 0.68728656
0.046003733 -0.056619972 0.68880391
0.046335272 -0.058810145 0.69034314
0.046671446 -0.061031908 0.69190395
0.047012713 -0.063286364 0.69348836
0.04735883 -0.065573752 0.6950953
0.068180799 0.068180829 0.78004193
0.066491999 0.064029366 0.77249175
0.064885169 0.060078889 0.76530796
0.063353851 0.056314528 0.75846177
0.061893452 0.052724063 0.75193274
0.060498569 0.049295127 0.74569654
0.059165183 0.046017379 0.73973525
0.057889298 0.042880982 0.73403108
0.056667529 0.039877146 0.72856879
0.05549603 0.036997378 0.72333133
0.054371987 0.034234196 0.71830595
0.053292796 0.031580925 0.71348107
0.052255396 0.0290308 0.70884317
0.05125761 0.026578039 0.7043823
0.050297417 0.024217278 0.70008957
0.049372341 0.021943271 0.69595373
0.048480682 0.01975137 0.69196737
0.04762084 0.017637342 0.68812323
0.046790786 0.015596926 0.68441224
0.045989174 0.013626426 0.68082839
0.045214731 0.011722356 0.67736602
0.04446578 0.0098813176 0.67401767
0.043741241 0.0081002116 0.67077839
0.043040078 0.0063763261 0.66764367
0.042360898 0.0047067702 0.66460723
0.041702822 0.0030890703 0.66166514
0.041065007 0.0015209317 0.6588136
0.040446285 -0 0.6560474
0.039845925 -0.0014757514 0.65336335
0.039448258 -0.0029220879 0.65158546
0.039682593 -0.0044091642 0.65263313
0.039919857 -0.0059140325 0.65369391
0.040159844 -0.0074369907 0.65476686
0.040402867 -0.0089784563 0.65585339
0.040648848 -0.010538608 0.65695298
0.040897708 -0.012117833 0.65806562
0.041149769 -0.013716608 0.65919256
0.041404825 -0.015335113 0.6603328
0.041663196 -0.016973883 0.66148794
0.041924808 -0.018633246 0.66265756
0.042189591 -0.020313531 0.66384137
0.042457879 -0.022015214 0.66504085
0.042729456 -0.023738563 0.66625494
0.04300468 -0.025484264 0.66748542
0.043283474 -0.027252555 0.66873181
0.043565754 -0.029043853 0.66999388
0.043851886 -0.030858696 0.67127305
0.044141654 -0.032697558 0.67256856
0.04443543 -0.034560919 0.67388201
0.044732988 -0.036449105 0.67521226
0.045034714 -0.03836289 0.6765613
0.045340542 -0.040302694 0.67792845
0.045650385 -0.042268872 0.67931378
0.045964658 -0.04426226 0.68071878
0.046283122 -0.046283156 0.68214262
0.046606198 -0.048332334 0.68358696
0.046933815 -0.05041042 0.68505168
0.047265898 -0.052517653 0.68653631
0.047602892 -0.054655164 0.68804288
0.047944546 -0.056823164 0.68957043
0.048291322 -0.059022695 0.69112074
0.048642963 -0.061254084 0.69269282
0.04899995 -0.063518435 0.69428885
0.04936222 -0.065816283 0.69590849
0.069282502 0.064333737 0.77390516
0.067600124 0.060357243 0.76665217
0.065997846 0.056569606 0.75974458
0.064469457 0.052957028 0.75315553
0.063010238 0.049508065 0.7468648
0.061615914 0.046211928 0.74085367
0.060281683 0.043058366 0.7351017
0.059004016 0.040038437 0.72959352
0.057779629 0.037144035 0.72431511
0.056604788 0.034367204 0.7192502
0.055476766 0.031701028 0.71438718
0.054393053 0.029139131 0.70971525
0.053350646 0.026675344 0.7052213
0.052347451 0.024304181 0.70089644
0.051381484 0.022020638 0.69673204
0.050450325 0.019819796 0.69271773
0.049552314 0.017697215 0.68884635
0.048685897 0.01564905 0.68511111
0.047849081 0.01367116 0.68150353
0.047040548 0.011760116 0.67801791
0.046259049 0.0099126697 0.67464876
0.045502927 0.0081255436 0.67138904
0.044771135 0.0063959062 0.66823423
0.044062648 0.0047210157 0.66517985
0.043376096 0.003098309 0.66222012
0.042710617 0.0015253723 0.65935111
0.042065371 -0 0.65656942
0.041439209 -0.0014799535 0.65386993
0.041030452 -0.0029307604 0.65210772
0.041275039 -0.0044223368 0.65316218
0.041522436 -0.0059317648 0.65422875
0.041772943 -0.0074594617 0.65530872
0.04202636 -0.009005636 0.65640122
0.042283006 -0.010570735 0.65750766
0.0425428 -0.012155086 0.65862769
0.042805675 -0.013758987 0.65976095
0.043071955 -0.015382856 0.66090888
0.043341432 -0.017026991 0.66207063
0.04361444 -0.018691868 0.66324759
0.043890767 -0.020377874 0.66443884
0.044170767 -0.022085369 0.66564596
0.044454359 -0.023814827 0.66686857
0.044741463 -0.025566548 0.66810632
0.045032453 -0.027341098 0.66936076
0.045327101 -0.029138833 0.67063105
0.045625784 -0.030960381 0.67191869
0.045928434 -0.032806069 0.67322344
0.046234962 -0.034676224 0.67454493
0.04654577 -0.036571681 0.67588484
0.046860628 -0.03849262 0.67724222
0.04717993 -0.040439934 0.67861879
0.047503624 -0.04241392 0.68001425
0.04783161 -0.044415057 0.68142825
0.048164338 -0.046444207 0.68286264
0.048501544 -0.048501521 0.6843164
0.048843689 -0.050588101 0.68579137
0.049190514 -0.052704096 0.68728662
0.049542483 -0.054850578 0.68880391
0.049899526 -0.057028055 0.69034326
0.050261561 -0.059236825 0.69190395
0.050629076 -0.061478198 0.69348842
0.051001817 -0.063752264 0.6950953
0.05138028 -0.066060334 0.69672686
0.070340723 0.060638577 0.76801038
0.068665557 0.056826681 0.76103765
0.067068651 0.053192377 0.7543906
0.065544017 0.049723029 0.74804437
0.064087167 0.046407938 0.74198037
0.062693954 0.043237209 0.73618114
0.061359748 0.040201247 0.73062766
0.06008115 0.037291765 0.72530556
0.058855001 0.034501195 0.72020185
0.057677656 0.031822145 0.71530128
0.056546494 0.029248208 0.71059275
0.055459067 0.026773363 0.70606649
0.054412462 0.0243918 0.70170999
0.053404629 0.022098482 0.69751495
0.052433651 0.01988861 0.69347334
0.051497154 0.017757654 0.6895752
0.050593525 0.015701413 0.6858139
0.049721241 0.013716221 0.68218315
0.048878349 0.011798233 0.67867464
0.048063561 0.0099441707 0.67528313
0.047275655 0.008150965 0.67200351
0.046513006 0.0064156055 0.66882902
0.045774575 0.004735291 0.66575539
0.045059372 0.0031075478 0.66277838
0.044366024 0.0015298724 0.65989238
0.043693699 -0 0.65709382
0.043041579 -0.0014841855 0.65437949
0.042622045 -0.0029394329 0.65263313
0.042876881 -0.004435569 0.65369391
0.043134648 -0.0059496164 0.6547668
0.043395672 -0.007482022 0.65585333
0.04365987 -0.0090330541 0.65695304
0.043927167 -0.0106031 0.65806562
0.044197902 -0.012192547 0.65919256
0.044471845 -0.013801605 0.66033286
0.044749353 -0.015430808 0.66148794
0.045030352 -0.017080486 0.66265756
0.045314748 -0.018750936 0.66384137
0.04560291 -0.020442665 0.66504079
0.045894608 -0.02215603 0.666255
0.046190217 -0.023891509 0.66748548
0.046489656 -0.025649458 0.66873181
0.046792842 -0.027430296 0.66999388
0.047100175 -0.029234588 0.67127311
0.047411405 -0.031062633 0.67256862
0.047726944 -0.032915145 0.67388201
0.048046544 -0.034792304 0.67521226
0.048370618 -0.036694944 0.67656124
0.0486991 -0.038623452 0.67792851
0.049031895 -0.040578127 0.67931378
0.049369451 -0.042559862 0.68071878
0.049711503 -0.044568926 0.68214256
0.05005851 -0.046606183 0.68358696
0.050410397 -0.04867211 0.68505168
0.050767075 -0.050767064 0.68653631
0.051129032 -0.052892119 0.688043
0.051495992 -0.055047423 0.68957043
0.051868454 -0.057234198 0.69112074
0.052246142 -0.059452504 0.69269288
0.052629579 -0.061703652 0.69428885
0.053018678 -0.06398803 0.69590843
0.07135798 0.057086349 0.76234394
0.069691055 0.053429842 0.75563675
0.068099894 0.049939901 0.74923444
0.066579774 0.046605855 0.74311787
0.065126337 0.043417603 0.7372697
0.063734718 0.040365338 0.73167026
0.062401321 0.037440807 0.72630513
0.061122838 0.034636289 0.72116077
0.059895437 0.031944215 0.71622223
0.05871636 0.029358208 0.71147799
0.057582811 0.026872009 0.70691687
0.056492422 0.024480045 0.70252949
0.055442344 0.022176951 0.69830436
0.054430801 0.01995796 0.69423419
0.053455308 0.017818451 0.69030917
0.052514166 0.015754223 0.68652225
0.051605772 0.01376155 0.68286717
0.050728094 0.011836588 0.67933565
0.049879771 0.00997594 0.67592227
0.04905935 0.0081765652 0.67262113
0.048265647 0.0064354241 0.66942757
0.04749706 0.0047496855 0.66633499
0.046752565 0.0031168461 0.66333938
0.046031203 0.0015343726 0.66043681
0.045331612 2.9802322e-08 0.65762186
0.04465311 -0.0014884472 0.65489179
0.04422326 -0.0029482245 0.65316224
0.044488322 -0.0044488311 0.65422875
0.044756725 -0.0059675574 0.65530872
0.045028243 -0.0075047016 0.65640122
0.045303222 -0.0090606213 0.65750766
0.045581575 -0.010635704 0.65862763
0.045863226 -0.012230217 0.65976095
0.046148524 -0.01384455 0.66090888
0.046437249 -0.015479088 0.66207063
0.046729755 -0.017134219 0.66324759
0.047025979 -0.018810391 0.6644395
0.047325816 -0.020507842 0.6656459
0.047629669 -0.022227168 0.66686857
0.047937281 -0.023968607 0.66810632
0.048249055 -0.025732815 0.66936082
0.048564915 -0.02752012 0.67063171
0.048884772 -0.02933085 0.67191869
0.049209036 -0.031165689 0.67322338
0.049537461 -0.033024997 0.67454487
0.049870469 -0.034909338 0.67588484
0.050207812 -0.036819041 0.67724222
0.050549928 -0.03875497 0.67861879
0.050896738 -0.040717363 0.68001419
0.051248156 -0.042706817 0.68142825
0.051604647 -0.044724017 0.68286258
0.051965941 -0.046769351 0.6843164
0.052332524 -0.048843682 0.68579137
0.052704319 -0.050947517 0.68728733
0.053081233 -0.053081214 0.68880397
0.053463776 -0.055245876 0.69034314
0.053851668 -0.057441801 0.69190395
0.054245438 -0.059670001 0.69348836
0.054644801 -0.061930776 0.69509524
0.055050302 -0.064225346 0.69672686
0.072336614 0.053669125 0.75689256
0.070677832 0.050158441 0.7504335
0.069093741 0.046805412 0.7442652
0.067578793 0.043599218 0.73836613
0.066129148 0.040530771 0.73272139
0.064740114 0.03759104 0.72731268
0.063408218 0.034772247 0.72212636
0.062130295 0.032067269 0.71715027
0.060902607 0.029469013 0.7123698
0.059722494 0.02697143 0.70777458
0.058587253 0.024568826 0.70335406
0.057494584 0.022255957 0.6990993
0.056441709 0.020027727 0.69499958
0.055426918 0.017879635 0.69104809
0.054447766 0.01580745 0.68723536
0.053502608 0.013807148 0.68355501
0.052589897 0.011875123 0.68000102
0.051707622 0.010007918 0.67656553
0.050854456 0.0082023442 0.67324334
0.050028987 0.0064553618 0.6700291
0.049230058 0.0047641993 0.66691816
0.048456084 0.003126204 0.66390437
0.047706064 0.0015389025 0.66098386
0.046979062 2.9802322e-08 0.658153
0.046273746 -0.0014926791 0.65540653
0.045833904 -0.002957046 0.65369391
0.046109453 -0.0044622123 0.6547668
0.046388473 -0.0059856176 0.65585333
0.046670895 -0.00752756 0.65695304
0.046956629 -0.0090883672 0.65806568
0.047246031 -0.010668457 0.65919256
0.047538869 -0.012268096 0.66033286
0.047835518 -0.013887733 0.66148794
0.048135895 -0.015527695 0.66265756
0.048439901 -0.01718834 0.66384137
0.048747934 -0.018870145 0.66504079
0.049059752 -0.020573467 0.666255
0.049375746 -0.022298723 0.66748548
0.049695838 -0.024046361 0.66873187
0.050019935 -0.025816739 0.66999388
0.050348464 -0.027610451 0.67127311
0.050681159 -0.029427767 0.67256856
0.051018458 -0.031269401 0.67388201
0.051360279 -0.033135682 0.67521298
0.051706526 -0.035026997 0.67656124
0.052057657 -0.036944151 0.67792851
0.052413404 -0.038887352 0.67931372
0.052774239 -0.040857464 0.68071878
0.05313988 -0.042854756 0.6821425
0.053510822 -0.044880033 0.68358701
0.053886976 -0.0469338 0.68505162
0.054268252 -0.049016476 0.68653631
0.054655172 -0.051129013 0.68804288
0.055047438 -0.053271711 0.68957043
0.055445585 -0.055445582 0.69112074
0.055849541 -0.057651132 0.69269371
0.056259204 -0.05988884 0.69428885
0.05667514 -0.062159836 0.69590843
0.057097048 -0.06446442 0.69755137
0.075006351 0.053910822 0.75816119
0.073278777 0.050379157 0.75164443
0.071628988 0.047006547 0.74542105
0.070052177 0.043782592 0.73947304
0.068542987 0.040697426 0.73378003
0.067097746 0.037742496 0.72832823
0.065711908 0.034909457 0.7231006
0.064382158 0.032191068 0.71808451
0.063105427 0.029580683 0.7132684
0.061878085 0.027071655 0.70863861
0.060697578 0.024658382 0.70418549
0.059561271 0.02233547 0.69989908
0.058466952 0.020098031 0.6957711
0.057411905 0.017941236 0.69179124
0.056394465 0.015860945 0.68795323
0.055412259 0.013853043 0.68424821
0.054463685 0.011913955 0.68066996
0.053547032 0.010040075 0.67721212
0.052660912 0.008228302 0.67386949
0.051803466 0.0064754188 0.67063504
