# .PCD v0.7 - Point Cloud Data file format
VERSION 0.7
FIELDS x y z
SIZE 4 4 4
TYPE F F F
COUNT 1 1 1
WIDTH 573
HEIGHT 1
VIEWPOINT 0 0 0 1 0 0 0
POINTS 573
DATA ascii
0.041863173 0.018605858 0.61559188
0.039203849 0.013067961 0.61862528
0.039117016 0.01422441 0.61830771
0.036759473 0.017786831 0.61835903
0.042125337 0.0024071932 0.62050664
0.040883232 0.0048098266 0.62036985
0.035020608 0.01207608 0.6209926
0.040552929 -0.0049155056 0.62356007
0.041630894 -0.0048977435 0.62302434
0.034400944 0.0049144328 0.62352729
0.029576337 0.011091113 0.62397909
0.035828423 -0 0.62435514
0.025923505 0.016047865 0.62423319
0.047249869 -0.021138102 0.62531531
0.04349352 -0.014912069 0.62522537
0.030060405 0.002505064 0.6264137
0.027501503 0.0075004399 0.62611818
0.021345971 0.015067726 0.62679136
0.020117695 0.01634565 0.62699783
0.041701116 -0.02021873 0.62776005
0.041701116 -0.02021873 0.62776005
0.039096411 -0.015134096 0.62745881
0.035208587 -0.0075446665 0.62700915
0.035208587 -0.0075446665 0.62700915
0.027760657 0.0025236905 0.62754011
0.023904262 0.01006493 0.62708998
0.022677055 0.011338562 0.62729722
0.036848336 -0.015247613 0.62860048
0.024073917 0.0063352585 0.62816781
0.022838222 0.007612735 0.62837809
0.038708478 -0.025805652 0.63097245
0.02836198 -0.0090242326 0.63083947
0.02836198 -0.0090242326 0.63083947
0.020601321 0.0038627684 0.63064653
0.020601321 0.0038627684 0.63064653
0.0167685 0.0090292096 0.63092434
0.0167685 0.0090292096 0.63092434
0.016728181 0.010294229 0.63055009
0.014194232 0.012903869 0.63098478
0.012859883 0.016717851 0.63045406
0.044047486 -0.036274374 0.63160396
0.045170255 -0.03613624 0.63100821
0.045170255 -0.03613624 0.63100821
0.032405622 -0.018147171 0.63168979
0.032327414 -0.016810268 0.63131213
0.046846826 -0.042942911 0.6323024
0.046846826 -0.042942911 0.6323024
0.040429052 -0.033908248 0.63264799
0.032563187 -0.020840436 0.63245052
0.031228896 -0.018216848 0.63229078
0.044696175 -0.044696182 0.63390708
0.023621613 -0.010498494 0.63363165
0.010519293 0.0092043877 0.63394541
0.0091500245 0.014378637 0.63300806
0.044916589 -0.047558725 0.63468957
0.013208731 0.0026417375 0.63466507
0.0066027967 0.013205588 0.63462722
0.018569041 -0.0079581738 0.6353274
0.0093090544 0.0053194463 0.63575047
0.0066191112 0.011914402 0.63502109
0.043983947 -0.050648183 0.63611042
0.025332306 -0.021332473 0.63616264
0.018754806 -0.013396293 0.63692904
0.018707978 -0.012026578 0.63652533
0.036301605 -0.043024123 0.63751757
0.036301605 -0.043024123 0.63751757
0.026894517 -0.02823922 0.63754433
0.026894517 -0.02823922 0.63754433
0.012114323 -0.0053841472 0.63770247
0.012114323 -0.0053841472 0.63770247
0.0094024325 -0 0.63736069
0.004043025 0.0067383647 0.63790035
0.039171383 -0.049977273 0.63827002
0.028340209 -0.032388836 0.6381247
-0.004058186 0.017585456 0.63851035
0.034053825 -0.046313196 0.63964796
0.016285749 -0.016285747 0.63904357
0.013611526 -0.013611525 0.6395272
0.013577034 -0.01221931 0.63911086
0.024711361 -0.035694182 0.64093965
0.054846421 -0.035650164 0.64073527
0.054846421 -0.028794348 0.64073527
0.054846421 -0.027423203 0.64073527
0.01784269 -0.024705261 0.6408987
0.054846421 -0.017825097 0.64073527
0.054846581 -0.010969311 0.64073581
0.0041050008 -0.0013682842 0.64039403
0.0013724068 0.0013724267 0.64088571
0.024838725 -0.038638026 0.64179373
0.01514274 -0.022025794 0.64139342
0.012394642 -0.017903358 0.64146221
0.0082576321 -0.0110102 0.6413523
-0.0096227499 0.017870814 0.64115995
0.012490999 -0.022206247 0.64275455
0.027801869 -0.047263175 0.64302069
0.027801869 -0.047263175 0.64302069
0.019485841 -0.034796149 0.64323223
0.013966464 -0.027932912 0.6438117
0.013966464 -0.027932912 0.6438117
0.013930109 -0.026467204 0.64337289
-0.0083426954 0.0097331405 0.6430636
-0.011157244 0.012551904 0.64357138
0.021009739 -0.040618837 0.64429492
-0.0041959411 -0 0.64405322
-0.0041959411 -0 0.64405322
-0.014062303 0.012656093 0.64496857
-0.014062303 0.012656093 0.64496857
0.022488443 0.023893982 0.64488375
0.0084754145 -0.025426209 0.64573371
-0.0056325472 -0.0014081299 0.64519876
-0.018316695 0.018316716 0.64530009
0.0070923995 -0.025532633 0.64644724
0.014264008 -0.039939225 0.64740336
0.011385775 -0.034157336 0.64701962
0.0014272624 -0.019981712 0.64750737
-0.012838731 0.0028530657 0.6474185
-0.015656808 0.0085400641 0.64703465
0.017201025 -0.047302812 0.64825052
-0.0086340876 -0.0086341202 0.64892602
-0.012907502 -0 0.64834082
0.010085295 -0.038900435 0.6491363
0.0086580804 -0.037518322 0.6494087
0.059362218 -0.037644327 0.6499936
-0.01157936 -0.0072371066 0.64994061
0.059362218 -0.0057914257 0.6499936
-0.020235615 0.0072270334 0.64969695
0.059362397 0.013030767 0.64999413
0.059362397 0.013030767 0.64999413
-0.010170943 -0.011623919 0.65061319
-0.026181383 0.0130907 0.65079784
0.052335382 0.029075235 0.65070599
-0.010198601 -0.013112485 0.65109015
-0.017526381 -0.0029210746 0.65152335
0.0058856024 -0.044142008 0.65283537
0.0044091223 -0.041151792 0.65263093
0 -0.035344958 0.65299308
-0.0073615871 -0.023557097 0.652946
-0.0087995799 -0.019065768 0.65225548
-0.022012543 0.0014674962 0.65236485
-0.010310784 -0.019148588 0.65302467
-0.029503983 0.010326385 0.65329385
-0.02079685 -0.007427454 0.65453601
0.0044704508 -0.049174935 0.65509862
0.0044704508 -0.049174935 0.65509862
-0.017967355 -0.016470045 0.65595919
-0.016397599 -0.016397595 0.65516382
-0.011964477 0.02243337 0.65575159
0.049151089 0.029788584 0.6550113
-0.0045015658 -0.039013565 0.65635061
-0.025589887 -0.0075264275 0.65692586
-0.036032207 0.010509402 0.65644956
-0.036032207 0.010509402 0.65644956
-0.0045269369 -0.042251408 0.6573714
-0.0075483173 -0.037741572 0.65745401
-0.019606084 -0.018097937 0.65727264
-0.024181036 -0.012090504 0.65765339
-0.028694147 -0.0045306683 0.65752107
-0.03927283 0.012083977 0.65755427
-0.0045655118 -0.047176957 0.65892363
-0.00759112 -0.040992051 0.65848744
-0.034865052 0.0030317307 0.65820348
-0.016770996 -0.028968066 0.65926141
-0.030512406 -0.007628113 0.6593802
-0.045874055 0.015291363 0.65980452
0.00913841 0.025892168 0.65907216
-0.0076562054 -0.04593721 0.66005874
-0.0076562054 -0.04593721 0.66005874
-0.024527116 -0.019928277 0.66026437
-0.026103416 -0.018425941 0.66057229
-0.03526425 -0.0030664504 0.66029859
-0.047617987 0.015360653 0.66064095
-0.016866716 0.023000062 0.66031182
-0.013873326 -0.040078491 0.6612947
-0.015440593 -0.038601488 0.66160601
-0.024739549 -0.024739534 0.66186702
-0.026178442 -0.020018816 0.66110498
-0.038569346 -0.0015427768 0.66145086
-0.017062426 -0.038778245 0.66245949
-0.024883168 -0.02799356 0.66295058
-0.043415524 0.0031010807 0.66239005
-0.043415524 0.0031010807 0.66239005
-0.040648386 -0.0062535703 0.66394055
-0.040648386 -0.0062535703 0.66394055
-0.029785885 -0.025082856 0.66445708
-0.047083765 0.0015694499 0.66467202
-0.050246548 0.0062808096 0.66476208
-0.05658076 0.015716851 0.66494107
-0.036303487 -0.018940955 0.66575277
-0.026873853 -0.034777939 0.6660428
-0.036410753 -0.020579994 0.66631579
-0.036410753 -0.020579994 0.66631579
-0.022279873 -0.046151161 0.66732287
-0.050993949 -0.0015935302 0.66758138
0.014318292 0.028636605 0.66726273
-0.020776052 -0.051141053 0.6681363
-0.027276337 -0.043321252 0.66890073
-0.038400207 -0.024000138 0.6683597
-0.048069753 -0.009613961 0.6686393
-0.057594847 0.0063994229 0.66834134
-0.043426223 -0.01930052 0.66937006
0.038586378 0.032155305 0.66929603
-0.03393035 -0.037161797 0.67025757
-0.064831398 0.0097247064 0.67086768
-0.034136355 -0.040638477 0.67144167
-0.039101075 -0.034213424 0.67188478
-0.039101075 -0.034213424 0.67188478
-0.043954156 -0.026046902 0.67173028
-0.050362311 -0.014621347 0.67132699
-0.058467977 -0.0016241074 0.671269
-0.032751229 -0.047489285 0.67289275
-0.04566263 -0.024462134 0.67207754
0.070100322 -0.016302407 0.67200893
0.070100322 -0.0016302466 0.67200893
0.070100561 0.021193236 0.67200965
0.022892779 0.031068772 0.67260748
-0.070708439 0.0098662972 0.67371601
-0.072259784 0.013138175 0.67346084
-0.03637806 -0.04795289 0.67482251
-0.039704885 -0.043013632 0.67492175
-0.056041993 -0.014834642 0.67418826
-0.066030331 -0 0.67448568
-0.066030331 -0 0.67448568
-0.0049411072 0.02799964 0.67403638
0.061216414 0.036398977 0.67493713
-0.043437749 -0.043437719 0.67689073
-0.050328124 -0.035229683 0.67772633
-0.056917913 -0.023436785 0.67729807
-0.08038716 0.013397843 0.67737961
-0.021785883 0.026813388 0.677513
-0.048867717 -0.040442228 0.67863035
-0.072261393 -0.0016804934 0.67807555
0.031958207 0.033640236 0.67825824
-0.06609457 -0.016947329 0.67979389
-0.06769947 -0.01353991 0.67952281
-0.07112062 -0.0084667504 0.67962676
-0.050648171 0.023635805 0.67901409
-0.047544591 -0.047544599 0.6801908
-0.062871955 -0.023789346 0.6803382
-0.062871955 -0.023789346 0.6803382
-0.080069087 0.0017035902 0.68086398
-0.084840685 0.011877686 0.68004513
-0.058005758 -0.034121037 0.68116021
-0.075019956 -0.0068199933 0.68103313
-0.011961968 0.029050499 0.68149835
-0.054915227 -0.042902529 0.68237329
-0.078973323 -0.0051504374 0.682459
-0.070865557 -0.02246955 0.68386126
0 0.031079978 0.68364859
-0.05894443 -0.043341488 0.68449283
-0.083250485 -0.0052031577 0.68458039
-0.085145183 -0.0034753084 0.68497527
0.076552317 -0.031316847 0.68523711
0.076552317 -0.020877898 0.68523705
0.076552317 0.026097387 0.68523705
-0.078879647 -0.019281685 0.68681306
-0.059611663 0.024545968 0.68686169
-0.070599452 -0.037064701 0.68827426
-0.079925895 -0.026641965 0.6896196
-0.081163816 0.023447335 0.69294024
-0.090274349 -0.021665871 0.69316316
-0.054759629 0.027379811 0.6955573
-0.010984894 0.032954663 0.69622058
-0.08295168 -0.047927648 0.69773614
-0.05715787 0.027657062 0.69778818
-0.05715787 0.027657062 0.69778818
-0.087287739 -0.046429664 0.69940376
0.083934247 -0.018652081 0.7003718
-0.077078842 0.026319593 0.70215422
0.075196773 0.045118093 0.70214796
-0.049491994 0.030456632 0.70499897
-0.054437134 0.031106889 0.70990527
-0.054437134 0.031106889 0.70990527
-0.023379931 0.035069913 0.71040547
0.092461959 0.022110462 0.71785522
-0.078245558 0.030094445 0.71740294
-0.030193919 0.03623271 0.71820349
0.10242651 0.0087171495 0.73828483
0.0022162243 0.046540678 0.74274349
0.054043781 0.0540438 0.74704075
-0.0745885 0.038424343 0.7480588
0.043245815 -0.0028293333 0.62158537
0.036509696 0.006084919 0.62212527
0.036509696 0.006084919 0.62212527
0.042652592 -0.011127055 0.62446094
0.036716945 -0.0049787313 0.62546784
0.035279267 -0.0029066107 0.62553024
0.029247839 0.0068447813 0.62546259
0.026737493 0.011192918 0.62534428
0.026737493 0.011192918 0.62534428
0.024665214 0.018498927 0.6240893
0.039188657 -0.016433924 0.62781799
0.018975299 0.01518026 0.62792295
0.018975299 0.01518026 0.62792295
0.045512401 -0.03105117 0.62925673
0.04699716 -0.031120494 0.62854749
0.037412427 -0.015219107 0.6283139
0.019042794 0.013329223 0.62846613
0.040655449 -0.02904126 0.63102138
0.029824793 -0.014264047 0.63175076
0.014863688 0.010986343 0.63125241
0.039085086 -0.03126809 0.63248783
0.018208332 0.0026012063 0.63221729
0.0074325576 0.015303761 0.63356555
0.050785273 0.018881708 0.63240933
0.050785273 0.018881708 0.63240933
0.040927391 -0.04092738 0.63458848
0.02746476 -0.023035776 0.63564342
0.018477505 -0.0052792728 0.63453811
0.0052638068 0.017107368 0.63407099
0.032770716 -0.034778491 0.63668829
0.030640787 -0.029308558 0.6360333
0.025065619 -0.024618965 0.6373173
0.018801818 -0.014772862 0.63733447
0.020692036 -0.014685601 0.63637692
0.014726401 -0.0066938102 0.63682467
0.010756949 -0.0026892722 0.6375314
0.010756949 -0.0026892722 0.6375314
0.0080206431 0.0046778768 0.63658446
0.025912803 -0.034095794 0.63985062
0.0068040965 -0.0027216375 0.63948703
0.016871579 -0.021432698 0.64035785
0.054846421 -0.015082777 0.64073527
0.0091809183 -0.012854626 0.64147222
0.0068563595 -0.0068563521 0.64074874
-0.0048813084 0.002788499 0.64352238
-0.009034466 0.011117622 0.64297301
-0.009034466 0.011117622 0.64297301
0.022434993 -0.04346779 0.64448053
0.016884713 -0.036583543 0.64506865
0.0098728444 -0.026797712 0.64547265
0.0084088808 -0.021022201 0.64439523
0.0046692891 -0.014944723 0.64434338
0.00070240028 -0.011261821 0.64514911
-0.0042346516 -0.0049413443 0.64561081
-0.004932683 -0.0028178543 0.64529324
-0.009798795 0.0083989501 0.64419574
0.0071112262 -0.02702266 0.64690173
0.0084978193 -0.026909769 0.6461845
-0.012873044 0.0014303625 0.64787865
-0.011364384 0.0028410852 0.64669687
-0.014955053 0.0071207434 0.64713144
0.059362218 -0.039092183 0.64999366
0.0072069238 -0.034593225 0.64921212
0.00096046645 -0.02499656 0.64929831
-0.0014316904 -0.017180294 0.64804184
-0.0086690281 -0.010837257 0.64962894
-0.005738148 -0.011476308 0.64838552
-0.020235615 0.0072270334 0.64969695
0.030239474 0.025919557 0.64904195
0.011204015 -0.048717469 0.65164244
0.0087405145 -0.042975187 0.65106714
0.0029280137 -0.036600173 0.65194285
-0.007321327 -0.020499706 0.65197402
-0.017526381 -0.0029210746 0.65152335
-0.021176603 0.002920717 0.651501
0.0054069571 -0.044738531 0.65325665
0.0029400697 -0.038956925 0.65267044
-0.0029467188 -0.030940562 0.65307182
-0.0029467188 -0.030940562 0.65307182
-0.014759826 -0.013283879 0.65338844
-0.027190208 0.008817926 0.65262461
0.0044457214 -0.045939088 0.65410352
-0.010454523 -0.026883066 0.65550339
-0.031374976 0.0059762001 0.6555689
-0.0015125531 -0.048401713 0.65780288
-0.0029961732 -0.040448338 0.65605664
-0.0029961732 -0.040448338 0.65605664
-0.0090472866 -0.034681261 0.6572389
-0.028694147 -0.0045306683 0.65752107
-0.0030300717 -0.046966136 0.65810257
-0.012206066 -0.036618203 0.65939689
-0.021329282 -0.021329254 0.6591267
-0.027487755 -0.01298143 0.65955859
-0.031909052 -0.0030390024 0.65863883
-0.033483654 -0.0015219748 0.65894133
-0.04108233 0.010650963 0.65889102
-0.021543808 -0.026930869 0.66097641
0.064413145 -0.016870141 0.66034907
-0.033120744 -0.0092425048 0.66116655
-0.038513977 -0.00077140331 0.66118354
-0.049377955 0.015430629 0.66148549
-0.049377955 0.015430629 0.66148549
0.064413354 0.030672997 0.66034967
0.064413354 0.030672997 0.66034967
-0.01247256 -0.049111828 0.66341794
-0.018590976 -0.0356327 0.66223234
-0.018590976 -0.0356327 0.66223234
-0.027925555 -0.021719873 0.66249448
-0.031042969 -0.017073631 0.66258246
-0.031042969 -0.017073631 0.66258246
-0.043415524 0.0031010807 0.66239005
-0.034768045 -0.022125125 0.66598856
-0.03947904 -0.014212489 0.66584325
-0.041007496 -0.011040509 0.66560787
-0.04076748 -0.0078398883 0.6644935
-0.047361393 -0.0015787184 0.66578913
0.0031515616 0.026788294 0.66543519
0.015771428 0.02838859 0.66559952
-0.019031342 -0.049164295 0.6666621
-0.018975176 -0.047437936 0.6660971
-0.05260022 0.00079578161 0.66762793
-0.053886328 0.0063395798 0.66653502
-0.062160823 0.015938699 0.66761833
-0.027194899 -0.041592181 0.66832238
-0.053153742 -0.0048321486 0.66965264
-0.053153742 -0.0048321486 0.66965264
-0.057594847 0.0063994229 0.66834134
-0.065265596 0.016583394 0.66894573
0.038586378 0.032155305 0.66929603
-0.032502893 -0.043067604 0.67139393
-0.034136355 -0.040638477 0.67144167
-0.037349105 -0.034914523 0.67124057
-0.053556561 -0.0089273155 0.67112613
-0.029328536 0.024440467 0.67190307
0.070100561 -0.026899055 0.67200959
0.070100322 -0.021193147 0.67200893
-0.062313709 -0.0016398728 0.67316711
0.070100561 0.013041973 0.67200959
0.070100561 0.01467222 0.67200959
0.070100561 0.01956293 0.67200965
0.049143873 0.034400702 0.67296124
-0.052719295 -0.019769728 0.67408973
-0.061506048 -0.011636257 0.67588198
-0.07760109 0.018161952 0.67452544
0.0082426202 0.029673457 0.67421597
-0.045332003 -0.043653011 0.6778903
-0.048562251 -0.03684032 0.67735887
-0.07045237 -0.0033548772 0.67770612
-0.073384725 0.0050034821 0.67654705
-0.045762379 -0.049152195 0.67981446
-0.059255078 -0.027088016 0.67958498
-0.06227918 -0.018515408 0.67840427
-0.06738013 -0.010950595 0.67855912
-0.072261393 -0.0016804934 0.67807555
-0.08140526 0.0067837834 0.67993999
-0.052595563 -0.039022505 0.68002301
-0.071459696 -0.011060566 0.6806013
-0.079815306 0.0033963919 0.6802122
-0.051538929 -0.048963368 0.68259823
-0.051538929 -0.048963368 0.68259823
-0.053270508 -0.046396881 0.68265116
-0.063885257 -0.03280592 0.683644
-0.067373469 -0.027640402 0.68375224
-0.065104254 -0.025699049 0.68203151
-0.074361041 -0.017293274 0.68396974
-0.081101164 -0.0051766932 0.68351471
-0.078973323 -0.0051504374 0.682459
-0.080581822 -0.0017145276 0.68218082
0.076552317 -0.017398238 0.68523711
-0.078366585 -0.01567331 0.68543673
-0.081892394 -0.010454357 0.68554688
0.076552317 0.031316847 0.68523705
-0.066595152 -0.038555086 0.68676752
-0.070367642 -0.035183817 0.68757474
-0.071542427 -0.044714034 0.69111991
-0.077099241 -0.037653118 0.69165647
-0.076842085 -0.035740525 0.6909346
-0.077881426 -0.043468684 0.69385225
-0.085508674 -0.034567326 0.69483453
-0.08668644 -0.042421043 0.69785941
0.047792848 0.040440112 0.6971103
-0.085554965 -0.050217032 0.69973022
-0.091052927 -0.040880919 0.69952893
0.083934247 -0.022382438 0.70037174
0.083933577 0.014921546 0.70037007
-0.092023797 0.02441451 0.70192063
0.083933577 0.035438627 0.70037001
0.075196773 0.045118093 0.70214796
0.092461959 0.022110462 0.71785522
0.092461959 0.030150652 0.71785516
0.092461564 0.042210698 0.71785414
0.068137124 0.048096806 0.71712971
-0.0020630809 0.041261643 0.72425747
0.012534665 0.043871343 0.72739953
-0.023193181 0.040060967 0.72973651
0.0064906883 0.045434862 0.73638666
0.041205224 0.049879998 0.73700631
0.041205224 0.049879998 0.73700631
0.10242698 -0.0021792948 0.73828608
0.10242698 -0.0021792948 0.73828608
0.10242651 -0 0.73828483
0.10242651 -0 0.73828483
-0.017186718 0.051560163 0.77159595
-0.031592537 0.055286944 0.79301798
0.038495842 0.010770857 0.61968881
0.03813782 0.014191121 0.61880016
0.045912687 -0.018319728 0.62528861
0.04073992 -0.0074072182 0.62424409
0.04073992 -0.0074072182 0.62424409
0.047112886 0.0058891103 0.62488019
0.029466104 0.009685725 0.62447059
0.029466104 0.009685725 0.62447059
0.029392254 -0.0027504093 0.62837911
0.046338391 0.02317222 0.63061804
0.042128325 -0.041957967 0.63431829
0.044261657 -0.039054394 0.63236427
0.031887375 -0.029895231 0.63560271
0.017722147 0.0017373625 0.63272536
0.016890537 0.005197078 0.63205755
0.035453793 -0.049089879 0.63982356
0.035453793 -0.049089879 0.63982356
0.01813115 -0.017731776 0.63858575
0.0068214224 -0.0040928423 0.63990527
0.0002224643 0.017579656 0.63640547
0.017008752 -0.022376515 0.64058423
-0.002052732 0.0085491613 0.64033663
0.021728422 -0.042232867 0.64444381
0.011446587 -0.037201405 0.64793724
0.0046692891 -0.014944723 0.64434338
-0.010738506 0.0095696952 0.64429373
0.04343617 0.02706033 0.6471411
0.011204015 -0.048717469 0.65164244
-0.0021565065 -0.017959155 0.64864123
-0.014310576 -0.0020237237 0.64966136
-0.0060633733 -0.030178292 0.65436852
-0.016936101 -0.01693528 0.65559638
-0.021403534 -0.0094571318 0.65546679
-0.027529657 0.0099089444 0.65245199
-0.027529657 0.0099089444 0.65245199
-0.0061099604 -0.038478941 0.65697575
-0.034075439 -0.0020344756 0.65939218
-0.041317001 0.0076512992 0.65994018
-0.015330151 -0.034493908 0.66027284
-0.015330151 -0.034493908 0.66027284
-0.028088313 -0.024967372 0.66358602
-0.028088313 -0.024967372 0.66358602
-0.042134281 0.0017020047 0.66219491
-0.046321239 0.013563527 0.66056252
-0.045151114 0.020240128 0.66316026
0.019293625 0.027787521 0.66156888
0.064413354 0.032206684 0.66034967
-0.041496255 -0.017556131 0.66787702
0.0023705484 0.026905209 0.66626537
-0.021889757 -0.050717734 0.6685524
-0.046047896 -0.021669259 0.67139792
-0.062426962 0.005673781 0.67094541
-0.065306358 0.013704658 0.66986215
-0.033054423 -0.052887082 0.67472267
-0.038498014 -0.041994728 0.67401052
0.070100322 -0.01834023 0.67200899
-0.065350309 -0.0024828538 0.67492372
-0.070257507 0.0057844669 0.67476481
0.070100322 0.0057058334 0.67200893
0.070100442 0.010189019 0.67200935
-0.076804787 0.014365892 0.67531526
0.047936961 0.03471294 0.67475617
-0.064818472 -0.017472714 0.67932928
-0.057448741 -0.019148588 0.67622411
-0.08140526 0.0067837834 0.67993999
-0.053837188 -0.041873068 0.68152195
-0.06900765 -0.024152666 0.68347055
-0.074249916 -0.0062348647 0.68047202
-0.065145366 -0.044017136 0.68775511
-0.067045838 -0.030632665 0.68452299
-0.077678077 -0.018329427 0.68592495
-0.077678077 -0.018329427 0.68592495
0.076552041 0.0021747723 0.68523633
0.06939476 0.039901972 0.68463874
-0.0053316392 0.031989843 0.68975019
-0.074536636 -0.045683138 0.69289559
-0.089592293 -0.041397393 0.69897115
0.083934247 -0.017719463 0.7003718
0.083933577 0.013988942 0.70037007
0.060095504 0.043193668 0.70191431
0.073511995 0.045828775 0.70572257
0.039133545 0.043046862 0.71141338
-0.074020647 0.029606134 0.7134732
0.092462353 0.0010050237 0.71785617
-0.0020630809 0.041261643 0.72425747
0.013496289 0.043622538 0.72596943
-0.04261357 0.038352221 0.73241717
0.10242651 0.014165372 0.73828489
-0.0025267676 0.055588901 0.78022939
