# .PCD v0.7 - Point Cloud Data file format
VERSION 0.7
FIELDS x y z
SIZE 4 4 4
TYPE F F F
COUNT 1 1 1
WIDTH 1276
HEIGHT 1
VIEWPOINT 0 0 0 1 0 0 0
POINTS 1276
DATA ascii
-0.0069327839 0.021331698 0.68600518
-0.0069327839 0.020798355 0.68600518
-0.0069327839 0.020265043 0.68600518
-0.0069327839 0.01973179 0.68600512
-0.0069327839 0.019198507 0.68600518
-0.0069327839 0.018665195 0.68600518
-0.0069327839 0.018131912 0.68600518
-0.0069327839 0.017598599 0.68600518
-0.0069327839 0.017065346 0.68600518
-0.0069327839 0.016532063 0.68600518
-0.0069327839 0.015998751 0.68600518
-0.0069327839 0.015465468 0.68600518
-0.0069327839 0.014932156 0.68600523
-0.0069327839 0.014398873 0.68600512
-0.0069327839 0.01386562 0.68600518
-0.0069327839 0.013332307 0.68600518
-0.0069327839 0.012798965 0.68600518
-0.0069327839 0.012265682 0.68600523
-0.0069327839 0.011732429 0.68600518
-0.0069327839 0.011199117 0.68600518
-0.0069327839 0.010665834 0.68600518
-0.0069327839 0.010132521 0.68600523
-0.0069327839 0.0095992684 0.68600512
-0.0069327839 0.0090659857 0.68600518
-0.0069327839 0.0085326731 0.68600518
-0.0069327839 0.0079993904 0.68600518
-0.0069327839 0.0074661076 0.68600523
-0.0069327839 0.006932795 0.68600523
-0.0069327839 0.0063995421 0.68600518
-0.0069327839 0.0058662295 0.68600518
-0.0069327839 0.005332917 0.68600518
-0.0069327839 0.0047996342 0.68600512
-0.0069327839 0.0042663515 0.68600518
-0.0069327839 0.0037330389 0.68600518
-0.0069327839 0.0031997561 0.68600518
-0.0069327839 0.0026664436 0.68600518
-0.0069327839 0.0021331608 0.68600518
-0.0069327839 0.0015999079 0.68600518
-0.0069327839 0.0010665953 0.68600518
-0.0069327839 0.00053331256 0.68600518
-0.0069327839 -0 0.68600518
-0.0069327839 -0.00053328276 0.68600518
-0.0069327839 -0.0010665357 0.68600512
-0.0069327839 -0.0015998483 0.68600518
-0.0069327839 -0.0021331608 0.68600518
-0.0069327839 -0.0026664138 0.68600518
-0.0069327839 -0.0031997561 0.68600523
-0.0069327839 -0.0037330091 0.68600518
-0.0069327839 -0.0042663217 0.68600518
-0.0069327839 -0.0047996342 0.68600518
-0.0069327839 -0.005332917 0.68600518
-0.0069327839 -0.0058661699 0.68600512
-0.0069327839 -0.0063994825 0.68600518
-0.0069327839 -0.0069327652 0.68600518
-0.0069327839 -0.0074660778 0.68600518
-0.0069327839 -0.0079993606 0.68600523
-0.0069327839 -0.0085326135 0.68600512
-0.0069327839 -0.0090659261 0.68600518
-0.0069327839 -0.0095992088 0.68600518
-0.0069327839 -0.010132521 0.68600523
-0.0069327839 -0.010665774 0.68600512
-0.0069327839 -0.011199087 0.68600518
-0.0069327839 -0.011732399 0.68600518
-0.0069327839 -0.012265712 0.68600523
-0.0069327839 -0.012798965 0.68600523
-0.0069327839 -0.013332278 0.68600518
-0.0069327839 -0.01386556 0.68600518
-0.0069327839 -0.014398843 0.68600523
-0.0069327839 -0.014932156 0.68600518
-0.0069327839 -0.015465438 0.68600518
-0.0069327839 -0.015998691 0.68600518
-0.0069327839 -0.016532004 0.68600518
-0.0069327839 -0.017065287 0.68600518
-0.0069327839 -0.017598569 0.68600518
-0.0069327839 -0.018131882 0.68600523
-0.0069327839 -0.018665135 0.68600518
-0.0069327839 -0.019198477 0.68600518
-0.0069327839 -0.01973179 0.68600512
-0.0069327839 -0.020265043 0.68600523
-0.0069327839 -0.020798326 0.68600518
-0.0069327839 -0.021331638 0.68600518
-0.0069327839 -0.021864921 0.68600512
-0.006942837 -0.022430688 0.68619186
-0.0069837556 -0.023100108 0.68695176
-0.007025179 -0.023777515 0.68772107
-0.0070670773 -0.024462968 0.68849909
-0.0071094986 -0.025156677 0.68928689
-0.0071524112 -0.0258587 0.69008386
-0.0071958662 -0.026569337 0.69089085
-0.0072398316 -0.027288616 0.69170731
-0.0072843581 -0.028016776 0.69253421
-0.0073294146 -0.028753847 0.693371
-0.0073750317 -0.029500127 0.6942181
-0.0074212425 -0.030255824 0.69507629
-0.007468014 -0.031020969 0.69594485
-0.0075154011 -0.031795889 0.69682491
-0.0075633707 -0.032580674 0.69771576
-0.0076119793 -0.033375561 0.69861841
-0.0076611936 -0.034180671 0.69953239
-0.0077110725 -0.03499642 0.70045865
-0.0077615804 -0.03582266 0.7013967
-0.0078127543 -0.036659837 0.70234698
-0.0078646326 -0.037508219 0.70331043
-0.0079171797 -0.038367838 0.70428622
-0.0079704588 -0.039239168 0.70527571
-0.0080244336 -0.040122151 0.70627809
-0.0080791712 -0.041017294 0.70729458
-0.0081346342 -0.041924685 0.70832461
-0.0081908908 -0.042844653 0.7093693
-0.0082479026 -0.043777317 0.71042812
-0.0083057424 -0.044723243 0.71150219
-0.008364371 -0.045682341 0.71259099
-0.0084238332 -0.046655029 0.71369523
-0.0084841754 -0.047641873 0.71481586
-0.0085453596 -0.048642784 0.71595216
-0.008607462 -0.049658418 0.71710539
-0.0086704427 -0.050688744 0.71827501
-0.0087343846 -0.051734447 0.71946251
-0.0087992437 -0.05279544 0.72066694
-0.008865105 -0.053872526 0.72189009
-0.0089319283 -0.054965675 0.723131
-0.0089997659 -0.056075454 0.72439086
-0.0090686753 -0.057202399 0.72567058
-0.0091386149 -0.05834654 0.72696936
-0.0092096748 -0.059508681 0.72828901
-0.009281815 -0.060688794 0.72962868
-0.0093551287 -0.061887741 0.73099023
-0.009429574 -0.063105583 0.73237276
-0.0095052496 -0.064343214 0.73377812
-0.0095821135 -0.065600634 0.73520553
-0.00966023 -0.066878527 0.73665625
-0.009739669 -0.06817767 0.73813152
-0.0098203877 -0.069498122 0.73963052
-0.009902494 -0.070840895 0.74115533
-0.0099859452 -0.07220605 0.74270499
-0.010070854 -0.073594689 0.74428189
-0.010157179 -0.075006843 0.74588501
-0.01024504 -0.076443762 0.74751663
-0.010334389 -0.077905357 0.74917597
-0.010425355 -0.079393059 0.75086528
-0.006418115 0.048135847 0.68637979
-0.006418115 0.047601014 0.68637979
-0.006418115 0.047066182 0.68637985
-0.006418115 0.046531349 0.68637979
-0.006418115 0.045996487 0.68637985
-0.006418115 0.045461655 0.68637979
-0.006418115 0.044926792 0.68637985
-0.006418115 0.04439199 0.68637985
-0.006418115 0.043857157 0.68637979
-0.006418115 0.043322295 0.68637985
-0.006418115 0.042787433 0.68637985
-0.006418115 0.04225263 0.68637985
-0.006418115 0.041717798 0.68637979
-0.006418115 0.041182935 0.68637985
-0.006418115 0.040648073 0.68637979
-0.006418115 0.04011324 0.68637985
-0.006418115 0.039578408 0.68637979
-0.006418115 0.039043546 0.68637985
-0.006418115 0.038508713 0.68637979
-0.006418115 0.037973851 0.68637985
-0.006418115 0.037439048 0.68637985
-0.006418115 0.036904186 0.68637985
-0.006418115 0.036369354 0.68637979
-0.006418115 0.035834521 0.68637979
-0.006418115 0.035299659 0.68637979
-0.006418115 0.034764796 0.68637985
-0.006418115 0.034229964 0.68637979
-0.006418115 0.033695132 0.68637979
-0.006418115 0.033160269 0.68637985
-0.006418115 0.032625407 0.68637985
-0.006418115 0.032090575 0.68637979
-0.006418115 0.031555742 0.68637979
-0.006418115 0.03102088 0.68637979
-0.006418115 0.030486077 0.68637979
-0.006418115 0.029951215 0.68637985
-0.006418115 0.029416382 0.68637979
-0.006418115 0.02888152 0.68637985
-0.006418115 0.028346717 0.68637979
-0.006418115 0.027811855 0.68637985
-0.006418115 0.027277023 0.68637985
-0.006418115 0.02674216 0.68637985
-0.006418115 0.026207328 0.68637979
-0.006418115 0.025672466 0.68637985
-0.006418115 0.025137633 0.68637979
-0.006418115 0.024602771 0.68637985
-0.006418115 0.024067938 0.68637979
-0.006418115 0.023533106 0.68637985
-0.006418115 0.022998273 0.68637985
-0.006418115 0.022463411 0.68637985
-0.006418115 0.021928549 0.68637985
-0.006418115 0.021393776 0.68637979
-0.006418115 0.020858884 0.68637979
-0.006418115 0.020324051 0.68637979
-0.006418115 0.019789189 0.68637979
-0.006418115 0.019254357 0.68637979
-0.006418115 0.018719524 0.68637985
-0.006418115 0.018184692 0.68637979
-0.006418115 0.017649829 0.68637985
-0.006418115 0.017114997 0.68637979
-0.006418115 0.016580164 0.68637979
-0.006418115 0.016045332 0.68637979
-0.006418115 0.01551047 0.68637985
-0.006418115 0.014975637 0.68637979
-0.006418115 0.014440805 0.68637985
-0.006418115 0.013905942 0.68637979
-0.006418115 0.01337108 0.68637985
-0.006418115 0.012836248 0.68637985
-0.006418115 0.012301385 0.68637985
-0.006418115 0.011766553 0.68637985
-0.006418115 0.011231691 0.68637985
-0.006418115 0.010696858 0.68637979
-0.006418115 0.010161996 0.68637985
-0.006418115 0.0096271932 0.68637979
-0.006418115 0.0090923607 0.68637979
-0.006418115 0.0085574985 0.68637985
-0.006418115 0.0080226064 0.68637985
-0.006418115 0.0074878037 0.68637985
-0.006418115 0.0069529712 0.68637979
-0.006418115 0.0064181089 0.68637985
-0.006418115 0.0058832765 0.68637979
-0.006418115 0.0053484142 0.68637979
-0.006418115 0.0048136115 0.68637979
-0.006418115 0.0042787492 0.68637985
-0.006418115 0.0037439167 0.68637979
-0.006418115 0.0032090545 0.68637985
-0.006418115 0.0026742518 0.68637979
-0.006418115 0.0021393895 0.68637985
-0.006418115 0.001604557 0.68637985
-0.006418115 0.0010696948 0.68637985
-0.006418115 0.00053486228 0.68637979
-0.006418115 2.9802322e-08 0.68637985
-0.006418115 -0.00053483248 0.68637979
-0.006418115 -0.001069665 0.68637979
-0.006418115 -0.0016045272 0.68637979
-0.006418115 -0.0021393597 0.68637985
-0.006418115 -0.0026741922 0.68637985
-0.006418115 -0.0032090247 0.68637979
-0.006418115 -0.0037438869 0.68637985
-0.006418115 -0.0042786896 0.68637979
-0.006418115 -0.0048135519 0.68637979
-0.006418115 -0.0053483844 0.68637979
-0.006418115 -0.0058832765 0.68637979
-0.006418115 -0.0064180791 0.68637979
-0.006418115 -0.0069529414 0.68637985
-0.006418115 -0.0074877739 0.68637979
-0.006418115 -0.0080226362 0.68637979
-0.006418115 -0.0085574687 0.68637979
-0.006418115 -0.0090923011 0.68637979
-0.006418115 -0.0096271336 0.68637985
-0.006418115 -0.010162026 0.68637985
-0.006418115 -0.010696858 0.68637985
-0.006418115 -0.011231661 0.68637979
-0.006418115 -0.011766523 0.68637985
-0.006418115 -0.012301385 0.68637985
-0.006418115 -0.012836218 0.68637979
-0.006418115 -0.01337105 0.68637979
-0.006418115 -0.013905883 0.68637979
-0.006418115 -0.014440715 0.68637979
-0.006418115 -0.014975607 0.68637979
-0.006418115 -0.01551044 0.68637979
-0.006418115 -0.016045272 0.68637979
-0.006418115 -0.016580105 0.68637985
-0.006418115 -0.017114967 0.68637985
-0.006418115 -0.0176498 0.68637985
-0.006418115 -0.018184662 0.68637985
-0.006418115 -0.018719465 0.68637979
-0.006418115 -0.019254327 0.68637985
-0.006418115 -0.019789189 0.68637979
-0.006418115 -0.020324051 0.68637985
-0.006418115 -0.020858854 0.68637979
-0.006418115 -0.021393716 0.68637985
-0.006418115 -0.021928549 0.68637979
-0.006418115 -0.022463411 0.68637979
-0.006418115 -0.022998214 0.68637979
-0.0064348336 -0.023594379 0.6867162
-0.0064729135 -0.024273396 0.68748224
-0.0065114652 -0.024960637 0.68825793
-0.0065504601 -0.025655925 0.68904239
-0.006589944 -0.026359767 0.68983674
-0.006629888 -0.027072042 0.69064033
-0.0066703185 -0.02779296 0.69145375
-0.0067112651 -0.028522879 0.69227755
-0.0067526973 -0.029261649 0.69311112
-0.006794665 -0.030009747 0.69395542
-0.0068371361 -0.030767083 0.69480991
-0.0068801632 -0.031534076 0.69567549
-0.0069237142 -0.032310635 0.69655174
-0.0069678407 -0.033097237 0.69743943
-0.0070125125 -0.033893824 0.69833821
-0.0070577818 -0.034700751 0.69924891
-0.0071036178 -0.03551805 0.70017105
-0.007150053 -0.036346078 0.70110524
-0.0071971221 -0.037185162 0.7020523
-0.0072447918 -0.038035154 0.70301127
-0.00729312 -0.03889662 0.70398355
-0.0073420745 -0.03976959 0.70496845
-0.0073917145 -0.040654451 0.70596719
-0.0074420059 -0.041551203 0.70697892
-0.0074930107 -0.042460382 0.70800507
-0.0075446949 -0.043381959 0.70904487
-0.0075970967 -0.044316381 0.71009904
-0.0076502571 -0.045263976 0.71116859
-0.0077041411 -0.046224803 0.71225268
-0.0077588153 -0.047199458 0.71335268
-0.0078142453 -0.048187822 0.71446782
-0.007870499 -0.049190581 0.71559954
-0.0079275416 -0.050207734 0.71674716
-0.0079854447 -0.051239938 0.71791208
-0.0080441721 -0.052287132 0.71909356
-0.0081037693 -0.053349793 0.72029263
-0.0081642857 -0.054428548 0.72151011
-0.0082256831 -0.055523336 0.7227453
-0.0082880408 -0.056634933 0.72399986
-0.0083513204 -0.057763308 0.72527289
-0.0084156049 -0.058909237 0.7265662
-0.0084808553 -0.06007272 0.72787899
-0.008547157 -0.061254621 0.72921288
-0.0086144721 -0.062454879 0.7305671
-0.0086828545 -0.063674271 0.73194289
-0.0087523656 -0.064913362 0.73334134
-0.0088229654 -0.066172212 0.73476166
-0.0088947471 -0.067451805 0.73620582
-0.0089676706 -0.06875214 0.73767292
-0.0090418365 -0.07007423 0.73916501
-0.0091172028 -0.071418077 0.74068129
-0.009193873 -0.072784781 0.74222374
-0.0092718052 -0.074174404 0.74379158
-0.0093511092 -0.075588107 0.74538714
-0.0094317421 -0.077025861 0.74700928
-0.0095137777 -0.078488648 0.74865979
-0.0059004254 0.048276216 0.68675631
-0.0059004254 0.047739834 0.68675631
-0.0059004254 0.047203392 0.68675625
-0.0059004254 0.046667039 0.68675631
-0.0059004254 0.046130598 0.68675631
-0.0059004254 0.045594215 0.68675631
-0.0059004254 0.045057803 0.68675631
-0.0059004254 0.044521421 0.68675631
-0.0059004254 0.043984979 0.68675637
-0.0059004254 0.043448597 0.68675631
-0.0059004254 0.042912215 0.68675631
-0.0059004254 0.042375803 0.68675625
-0.0059004254 0.041839421 0.68675625
-0.0059004254 0.041302979 0.68675631
-0.0059004254 0.040766597 0.68675625
-0.0059004254 0.040230185 0.68675631
-0.0059004254 0.039693803 0.68675625
-0.0059004254 0.03915742 0.68675625
-0.0059004254 0.038620979 0.68675631
-0.0059004254 0.038084567 0.68675625
-0.0059004254 0.037548184 0.68675625
-0.0059004254 0.037011743 0.68675631
-0.0059004254 0.03647539 0.68675631
-0.0059004254 0.035938948 0.68675631
-0.0059004254 0.035402596 0.68675625
-0.0059004254 0.034866184 0.68675625
-0.0059004254 0.034329742 0.68675631
-0.0059004254 0.03379336 0.68675631
-0.0059004254 0.033256948 0.68675631
-0.0059004254 0.032720536 0.68675625
-0.0059004254 0.032184184 0.68675625
-0.0059004254 0.031647712 0.68675631
-0.0059004254 0.03111136 0.68675631
-0.0059004254 0.030574977 0.68675631
-0.0059004254 0.030038536 0.68675631
-0.0059004254 0.029502153 0.68675631
-0.0059004254 0.028965712 0.68675631
-0.0059004254 0.028429359 0.68675631
-0.0059004254 0.027892947 0.68675625
-0.0059004254 0.027356535 0.68675631
-0.0059004254 0.026820123 0.68675631
-0.0059004254 0.026283741 0.68675631
-0.0059004254 0.025747329 0.68675631
-0.0059004254 0.025210947 0.68675625
-0.0059004254 0.024674505 0.68675631
-0.0059004254 0.024138123 0.68675631
-0.0059004254 0.023601741 0.68675631
-0.0059004254 0.023065299 0.68675631
-0.0059004254 0.022528887 0.68675631
-0.0059004254 0.021992505 0.68675631
-0.0059004254 0.021456093 0.68675631
-0.0059004254 0.02091974 0.68675631
-0.0059004254 0.020383269 0.68675631
-0.0059004254 0.019846886 0.68675631
-0.0059004254 0.019310504 0.68675631
-0.0059004254 0.018774092 0.68675625
-0.0059004254 0.01823774 0.68675625
-0.0059004254 0.017701298 0.68675631
-0.0059004254 0.017164916 0.68675631
-0.0059004254 0.016628504 0.68675625
-0.0059004254 0.016092092 0.68675625
-0.0059004254 0.01555568 0.68675631
-0.0059004254 0.015019298 0.68675631
-0.0059004254 0.014482886 0.68675631
-0.0059004254 0.013946503 0.68675625
-0.0059004254 0.013410062 0.68675637
-0.0059004254 0.012873679 0.68675631
-0.0059004254 0.012337267 0.68675625
-0.0059004254 0.011800885 0.68675625
-0.0059004254 0.011264473 0.68675625
-0.0059004254 0.010728061 0.68675631
-0.0059004254 0.010191649 0.68675625
-0.0059004254 0.009655267 0.68675625
-0.0059004254 0.0091188252 0.68675631
-0.0059004254 0.008582443 0.68675631
-0.0059004254 0.0080460608 0.68675631
-0.0059004254 0.0075096488 0.68675625
-0.0059004254 0.0069732368 0.68675625
-0.0059004254 0.0064368546 0.68675631
-0.0059004254 0.0059004128 0.68675631
-0.0059004254 0.0053640604 0.68675631
-0.0059004254 0.0048276484 0.68675625
-0.0059004254 0.0042912662 0.68675625
-0.0059004254 0.0037548542 0.68675631
-0.0059004254 0.0032184124 0.68675631
-0.0059004254 0.00268206 0.68675631
-0.0059004254 0.0021456182 0.68675631
-0.0059004254 0.0016092062 0.68675631
-0.0059004254 0.001072824 0.68675631
-0.0059004254 0.000536412 0.68675631
-0.0059004254 2.9802322e-08 0.68675631
-0.0059004254 -0.0005363822 0.68675631
-0.0059004254 -0.0010727942 0.68675631
-0.0059004254 -0.0016091764 0.68675631
-0.0059004254 -0.0021455884 0.68675625
-0.0059004254 -0.0026820004 0.68675631
-0.0059004254 -0.0032184124 0.68675631
-0.0059004254 -0.0037547946 0.68675625
-0.0059004254 -0.0042912066 0.68675631
-0.0059004254 -0.0048276186 0.68675631
-0.0059004254 -0.0053640306 0.68675631
-0.0059004254 -0.0059004128 0.68675631
-0.0059004254 -0.006436795 0.68675631
-0.0059004254 -0.006973207 0.68675625
-0.0059004254 -0.0075096488 0.68675631
-0.0059004254 -0.008046031 0.68675631
-0.0059004254 -0.0085824132 0.68675631
-0.0059004254 -0.0091187954 0.68675625
-0.0059004254 -0.0096552372 0.68675631
-0.0059004254 -0.010191619 0.68675631
-0.0059004254 -0.010728002 0.68675631
-0.0059004254 -0.011264443 0.68675631
-0.0059004254 -0.011800826 0.68675637
-0.0059004254 -0.012337267 0.68675631
-0.0059004254 -0.01287362 0.68675631
-0.0059004254 -0.013410032 0.68675625
-0.0059004254 -0.013946414 0.68675631
-0.0059004254 -0.014482856 0.68675631
-0.0059004254 -0.015019238 0.68675625
-0.0059004254 -0.01555565 0.68675631
-0.0059004254 -0.016092062 0.68675631
-0.0059004254 -0.016628504 0.68675625
-0.0059004254 -0.017164856 0.68675631
-0.0059004254 -0.017701268 0.68675625
-0.0059004254 -0.01823765 0.68675631
-0.0059004254 -0.018774092 0.68675631
-0.0059004254 -0.019310474 0.68675631
-0.0059004254 -0.019846886 0.68675631
-0.0059004254 -0.020383269 0.68675625
-0.0059004254 -0.020919651 0.68675631
-0.0059004254 -0.021456093 0.68675631
-0.0059004254 -0.021992445 0.68675625
-0.0059004254 -0.022528887 0.68675631
-0.0059004254 -0.023065239 0.68675625
-0.0059004254 -0.023601711 0.68675637
-0.0059004254 -0.024138093 0.68675631
-0.0059226826 -0.024767578 0.68724483
-0.0059578754 -0.025456369 0.68801719
-0.0059934892 -0.026153386 0.68879879
-0.0060295491 -0.026858896 0.68959022
-0.0060660271 -0.02757284 0.69039088
-0.0061029675 -0.028295577 0.69120157
-0.0061403424 -0.029027075 0.69202185
-0.0061781961 -0.029767632 0.69285262
-0.0062165009 -0.03051734 0.69369334
-0.0062553026 -0.031276494 0.69454491
-0.0062945727 -0.032045096 0.69540679
-0.0063343388 -0.032823354 0.69627953
-0.0063746301 -0.033611685 0.69716382
-0.0064154174 -0.03440994 0.69805902
-0.00645675 -0.035218626 0.69896621
-0.0064985985 -0.036037683 0.69988465
-0.0065410133 -0.036867499 0.7008155
-0.0065839654 -0.037708104 0.70175815
-0.0066275056 -0.038560033 0.70271379
-0.0066716042 -0.039423108 0.70368165
-0.0067163156 -0.040297896 0.70466298
-0.0067616077 -0.041184306 0.70565701
-0.0068075159 -0.042082816 0.70666456
-0.0068540731 -0.042993695 0.70768642
-0.0069012498 -0.04391706 0.70872182
-0.0069491025 -0.04485327 0.70977199
-0.0069976011 -0.045802504 0.71083653
-0.0070468043 -0.046765149 0.71191633
-0.0070966808 -0.047741294 0.71301097
-0.0071472926 -0.048731536 0.71412182
-0.0071986062 -0.049735814 0.71524799
-0.0072506629 -0.050754637 0.71639049
-0.0073035024 -0.051788449 0.71755022
-0.007357093 -0.052837312 0.7187264
-0.0074115014 -0.053901821 0.71992052
-0.0074666939 -0.054982007 0.7211318
-0.0075227418 -0.056078613 0.72236186
-0.0075796098 -0.05719161 0.72361004
-0.0076373727 -0.058321714 0.72487772
-0.0076959934 -0.059469044 0.72616434
-0.0077555222 -0.060634077 0.72747087
-0.0078160074 -0.061817497 0.72879833
-0.0078774141 -0.063019276 0.73014605
-0.007939823 -0.064240396 0.73151582
-0.0080031985 -0.065480679 0.7329067
-0.0080676246 -0.066741228 0.7343207
-0.008133065 -0.068021953 0.73575687
-0.008199608 -0.069323957 0.73721737
-0.0082672164 -0.07064712 0.73870122
-0.0083359815 -0.071992546 0.74021041
-0.008405868 -0.073360324 0.74174428
-0.0084769344 -0.074751109 0.74330395
-0.0085492479 -0.076166004 0.74489105
-0.0086227702 -0.07760492 0.74650466
-0.0053797239 0.048417509 0.68713534
-0.0053797239 0.047879547 0.68713534
-0.0053797239 0.047341585 0.68713534
-0.0053797239 0.046803623 0.68713534
-0.0053797239 0.046265632 0.68713534
-0.0053797239 0.04572767 0.68713534
-0.0053797239 0.045189708 0.68713534
-0.0053797239 0.044651747 0.68713534
-0.0053797239 0.044113785 0.68713534
-0.0053797239 0.043575794 0.68713534
-0.0053797239 0.043037772 0.68713534
-0.0053797239 0.04249981 0.68713534
-0.0053797239 0.041961849 0.68713534
-0.0053797239 0.041423887 0.68713534
-0.0053797239 0.040885895 0.68713534
-0.0053797239 0.040347934 0.68713534
-0.0053797239 0.039809972 0.68713534
-0.0053797239 0.03927201 0.68713534
-0.0053797239 0.038734049 0.68713534
-0.0053797239 0.038196057 0.68713534
-0.0053797239 0.037658066 0.68713534
-0.0053797239 0.037120134 0.68713534
-0.0053797239 0.036582142 0.68713528
-0.0053797239 0.036044151 0.68713534
-0.0053797239 0.035506189 0.68713534
-0.0053797239 0.034968197 0.68713534
-0.0053797239 0.034430236 0.68713534
-0.0053797239 0.033892274 0.68713534
-0.0053797239 0.033354312 0.68713534
-0.0053797239 0.03281635 0.68713534
-0.0053797239 0.032278359 0.68713534
-0.0053797239 0.031740397 0.68713534
-0.0053797239 0.031202406 0.68713534
-0.0053797239 0.030664444 0.68713534
-0.0053797239 0.030126512 0.68713534
-0.0053797239 0.029588491 0.68713534
-0.0053797239 0.029050499 0.68713534
-0.0053797239 0.028512567 0.68713534
-0.0053797239 0.027974576 0.68713534
-0.0053797239 0.027436614 0.68713534
-0.0053797239 0.026898623 0.68713534
-0.0053797239 0.026360661 0.68713534
-0.0053797239 0.025822669 0.68713534
-0.0053797239 0.025284737 0.68713534
-0.0053797239 0.024746776 0.68713534
-0.0053797239 0.024208754 0.68713534
-0.0053797239 0.023670822 0.68713534
-0.0053797239 0.023132831 0.68713534
-0.0053797239 0.022594839 0.68713534
-0.0053797239 0.022056878 0.68713534
-0.0053797239 0.021518886 0.68713534
-0.0053797239 0.020980924 0.68713534
-0.0053797239 0.020442963 0.68713534
-0.0053797239 0.019905001 0.68713534
-0.0053797239 0.019367039 0.68713534
-0.0053797239 0.018829048 0.68713534
-0.0053797239 0.018291086 0.68713534
-0.0053797239 0.017753124 0.68713534
-0.0053797239 0.017215133 0.68713534
-0.0053797239 0.016677171 0.68713534
-0.0053797239 0.016139179 0.68713534
-0.0053797239 0.015601188 0.68713534
-0.0053797239 0.015063226 0.68713534
-0.0053797239 0.014525265 0.68713534
-0.0053797239 0.013987303 0.68713534
-0.0053797239 0.013449341 0.68713534
-0.0053797239 0.01291135 0.68713534
-0.0053797239 0.012373388 0.68713534
-0.0053797239 0.011835426 0.68713534
-0.0053797239 0.011297435 0.68713534
-0.0053797239 0.010759473 0.68713534
-0.0053797239 0.010221481 0.68713534
-0.0053797239 0.0096835196 0.68713534
-0.0053797239 0.0091455281 0.68713534
-0.0053797239 0.0086075664 0.68713534
-0.0053797239 0.0080696046 0.68713534
-0.0053797239 0.0075316131 0.68713534
-0.0053797239 0.0069936216 0.68713534
-0.0053797239 0.0064556897 0.68713534
-0.0053797239 0.0059176981 0.68713534
-0.0053797239 0.0053797364 0.68713534
-0.0053797239 0.0048418045 0.68713534
-0.0053797239 0.0043037832 0.68713534
-0.0053797239 0.0037658215 0.68713534
-0.0053797239 0.0032278597 0.68713534
-0.0053797239 0.002689898 0.68713534
-0.0053797239 0.0021519065 0.68713534
-0.0053797239 0.001613915 0.68713534
-0.0053797239 0.0010759532 0.68713534
-0.0053797239 0.00053796172 0.68713534
-0.0053797239 -0 0.68713534
-0.0053797239 -0.00053793192 0.68713534
-0.0053797239 -0.0010759532 0.68713534
-0.0053797239 -0.001613915 0.68713534
-0.0053797239 -0.0021518469 0.68713534
-0.0053797239 -0.0026898384 0.68713534
-0.0053797239 -0.0032278001 0.68713534
-0.0053797239 -0.0037657917 0.68713534
-0.0053797239 -0.0043037832 0.68713534
-0.0053797239 -0.0048417747 0.68713534
-0.0053797239 -0.0053797066 0.68713534
-0.0053797239 -0.0059176683 0.68713534
-0.0053797239 -0.0064556599 0.68713534
-0.0053797239 -0.0069936216 0.68713534
-0.0053797239 -0.0075315833 0.68713534
-0.0053797239 -0.0080695748 0.68713534
-0.0053797239 -0.0086075366 0.68713534
-0.0053797239 -0.0091454983 0.68713534
-0.0053797239 -0.0096834898 0.68713534
-0.0053797239 -0.010221452 0.68713534
-0.0053797239 -0.010759443 0.6871354
-0.0053797239 -0.011297405 0.68713534
-0.0053797239 -0.011835396 0.68713534
-0.0053797239 -0.012373358 0.68713534
-0.0053797239 -0.01291132 0.68713534
-0.0053797239 -0.013449311 0.68713534
-0.0053797239 -0.013987243 0.68713534
-0.0053797239 -0.014525235 0.68713534
-0.0053797239 -0.015063226 0.68713534
-0.0053797239 -0.015601158 0.68713534
-0.0053797239 -0.01613915 0.68713534
-0.0053797239 -0.016677111 0.68713534
-0.0053797239 -0.017215073 0.68713534
-0.0053797239 -0.017753094 0.68713534
-0.0053797239 -0.018291056 0.68713534
-0.0053797239 -0.018829018 0.68713534
-0.0053797239 -0.01936698 0.68713534
-0.0053797239 -0.019904971 0.68713534
-0.0053797239 -0.020442933 0.68713534
-0.0053797239 -0.020980895 0.68713534
-0.0053797239 -0.021518886 0.68713534
-0.0053797239 -0.022056848 0.68713534
-0.0053797239 -0.02259481 0.68713534
-0.0053797239 -0.023132771 0.68713528
-0.0053797239 -0.023670793 0.6871354
-0.0053797239 -0.024208754 0.68713534
-0.0053797239 -0.024746716 0.68713534
-0.0053797239 -0.025284708 0.6871354
-0.0054063164 -0.025950313 0.68777734
-0.0054385886 -0.026649088 0.68855649
-0.0054712333 -0.027356148 0.68934458
-0.0055042878 -0.028071821 0.69014257
-0.0055377288 -0.028796196 0.69094992
-0.0055715945 -0.029529452 0.69176751
-0.0056058597 -0.030271649 0.69259477
-0.0056405496 -0.031023026 0.69343221
-0.0056756889 -0.031783849 0.69428062
-0.0057112509 -0.03255412 0.69513917
-0.0057472787 -0.033334225 0.69600892
-0.005783747 -0.034124076 0.69688934
-0.0058206986 -0.034924179 0.69778144
-0.005858107 -0.035734445 0.69868457
-0.0058960179 -0.03655529 0.69959986
-0.0059344042 -0.037386745 0.70052648
-0.0059732934 -0.038229048 0.70146537
-0.0060127145 -0.039082617 0.70241708
-0.0060526407 -0.039947391 0.703381
-0.0060931197 -0.040823877 0.70435828
-0.006134124 -0.041712016 0.70534813
-0.0061757048 -0.042612344 0.70635206
-0.0062178317 -0.043524802 0.70736909
-0.0062605585 -0.044449955 0.70840061
-0.0063038557 -0.045387745 0.70944589
-0.0063477773 -0.046338797 0.7105062
-0.0063922931 -0.047302961 0.71158087
-0.0064374381 -0.048280776 0.7126708
-0.0064832475 -0.049272627 0.71377677
-0.0065296907 -0.050278574 0.71489799
-0.0065768268 -0.051299214 0.71603596
-0.006624626 -0.052334517 0.71718991
-0.0066731479 -0.053385168 0.71836132
-0.0067223622 -0.054451138 0.71954954
-0.0067723324 -0.055533111 0.72075588
-0.0068230256 -0.056631088 0.72197974
-0.0068744845 -0.057745665 0.72322208
-0.0069267498 -0.058877379 0.72448391
-0.006979791 -0.060026199 0.72576439
-0.0070336764 -0.061192989 0.72706532
-0.0070883739 -0.062377632 0.72838581
-0.0071439557 -0.063581169 0.72972763
-0.0072003892 -0.064803481 0.73109007
-0.0072577484 -0.066045493 0.73247492
-0.0073160008 -0.067307204 0.73388124
-0.0073751961 -0.0685893 0.73531032
-0.0074353861 -0.069892615 0.73676342
-0.0074965367 -0.07121709 0.73823977
-0.0075587323 -0.072563797 0.73974127
-0.0076219374 -0.073932797 0.74126714
-0.0076862401 -0.075325131 0.74281955
-0.007751605 -0.076740891 0.74439764
-0.0048559643 0.049099237 0.68751657
-0.0048559643 0.048559695 0.68751657
-0.0048559643 0.048020154 0.68751657
-0.0048559643 0.047480583 0.68751657
-0.0048559643 0.046941042 0.68751657
-0.0048559643 0.046401471 0.68751657
-0.0048559643 0.04586193 0.68751657
-0.0048559643 0.045322359 0.68751657
-0.0048559643 0.044782788 0.68751657
-0.0048559643 0.044243246 0.68751657
-0.0048559643 0.043703675 0.68751663
-0.0048559643 0.043164164 0.68751657
-0.0048559643 0.042624593 0.68751663
-0.0048559643 0.042085052 0.68751657
-0.0048559643 0.04154548 0.68751663
-0.0048559643 0.041005969 0.68751657
-0.0048559643 0.040466368 0.68751663
-0.0048559643 0.039926797 0.68751663
-0.0048559643 0.039387256 0.68751663
-0.0048559643 0.038847744 0.68751657
-0.0048559643 0.038308173 0.68751663
-0.0048559643 0.037768602 0.68751663
-0.0048559643 0.037229061 0.68751663
-0.0048559643 0.036689579 0.68751657
-0.0048559643 0.036149979 0.68751663
-0.0048559643 0.035610408 0.68751663
-0.0048559643 0.035070866 0.68751663
-0.0048559643 0.034531325 0.68751663
-0.0048559643 0.033991754 0.68751663
-0.0048559643 0.033452213 0.68751663
-0.0048559643 0.032912642 0.68751663
-0.0048559643 0.032373101 0.68751663
-0.0048559643 0.031833529 0.68751663
-0.0048559643 0.031293988 0.68751663
-0.0048559643 0.030754447 0.68751663
-0.0048559643 0.030214906 0.68751663
-0.0048559643 0.029675335 0.68751663
-0.0048559643 0.029135793 0.68751663
-0.0048559643 0.028596222 0.68751663
-0.0048559643 0.028056681 0.68751663
-0.0048559643 0.02751714 0.68751663
-0.0048559643 0.026977599 0.68751663
-0.0048559643 0.026438028 0.68751663
-0.0048559643 0.025898486 0.68751663
-0.0048559643 0.025358975 0.68751663
-0.0048559643 0.024819404 0.68751663
-0.0048559643 0.024279833 0.68751657
-0.0048559643 0.023740292 0.68751663
-0.0048559643 0.02320075 0.68751663
-0.0048559643 0.022661179 0.68751663
-0.0048559643 0.022121608 0.68751657
-0.0048559643 0.021582067 0.68751663
-0.0048559643 0.021042526 0.68751663
-0.0048559643 0.020502955 0.68751663
-0.0048559643 0.019963413 0.68751663
-0.0048559643 0.019423872 0.68751663
-0.0048559643 0.018884331 0.68751663
-0.0048559643 0.01834476 0.68751663
-0.0048559643 0.017805219 0.68751663
-0.0048559643 0.017265648 0.68751663
-0.0048559643 0.016726106 0.68751663
-0.0048559643 0.016186565 0.68751663
-0.0048559643 0.015647024 0.68751663
-0.0048559643 0.015107453 0.68751663
-0.0048559643 0.014567912 0.68751663
-0.0048559643 0.014028341 0.68751663
-0.0048559643 0.013488829 0.68751663
-0.0048559643 0.012949258 0.68751663
-0.0048559643 0.012409717 0.68751663
-0.0048559643 0.011870176 0.68751663
-0.0048559643 0.011330605 0.68751657
-0.0048559643 0.010791063 0.68751663
-0.0048559643 0.010251492 0.68751657
-0.0048559643 0.009711951 0.68751663
-0.0048559643 0.00917238 0.68751657
-0.0048559643 0.0086328089 0.68751663
-0.0048559643 0.0080932677 0.68751657
-0.0048559643 0.0075537562 0.68751663
-0.0048559643 0.0070141852 0.68751657
-0.0048559643 0.0064746439 0.68751657
-0.0048559643 0.0059350729 0.68751657
-0.0048559643 0.0053955317 0.68751657
-0.0048559643 0.0048559904 0.68751657
-0.0048559643 0.0043164492 0.68751657
-0.0048559643 0.0037768781 0.68751657
-0.0048559643 0.0032373369 0.68751657
-0.0048559643 0.0026977956 0.68751663
-0.0048559643 0.0021582246 0.68751657
-0.0048559643 0.0016186833 0.68751657
-0.0048559643 0.0010791421 0.68751657
-0.0048559643 0.00053960085 0.68751663
-0.0048559643 2.9802322e-08 0.68751657
-0.0048559643 -0.00053954124 0.68751657
-0.0048559643 -0.0010790825 0.68751657
-0.0048559643 -0.0016186237 0.68751657
-0.0048559643 -0.0021581948 0.68751657
-0.0048559643 -0.0026977658 0.68751657
-0.0048559643 -0.0032373071 0.68751657
-0.0048559643 -0.0037768483 0.68751657
-0.0048559643 -0.0043163896 0.68751657
-0.0048559643 -0.0048559308 0.68751657
-0.0048559643 -0.0053955019 0.68751657
-0.0048559643 -0.0059350431 0.68751657
-0.0048559643 -0.0064745843 0.68751663
-0.0048559643 -0.0070141256 0.68751657
-0.0048559643 -0.0075536966 0.68751657
-0.0048559643 -0.0080932379 0.68751657
-0.0048559643 -0.0086328089 0.68751657
-0.0048559643 -0.0091723502 0.68751657
-0.0048559643 -0.009711951 0.68751663
-0.0048559643 -0.010251433 0.68751657
-0.0048559643 -0.010790974 0.68751663
-0.0048559643 -0.011330545 0.68751657
-0.0048559643 -0.011870146 0.68751663
-0.0048559643 -0.012409657 0.68751657
-0.0048559643 -0.012949198 0.68751663
-0.0048559643 -0.01348877 0.68751657
-0.0048559643 -0.01402837 0.68751663
-0.0048559643 -0.014567882 0.68751657
-0.0048559643 -0.015107423 0.68751663
-0.0048559643 -0.015646994 0.68751657
-0.0048559643 -0.016186535 0.68751663
-0.0048559643 -0.016726077 0.68751657
-0.0048559643 -0.017265648 0.68751663
-0.0048559643 -0.017805159 0.68751657
-0.0048559643 -0.01834473 0.68751663
-0.0048559643 -0.018884301 0.68751663
-0.0048559643 -0.019423842 0.68751663
-0.0048559643 -0.019963384 0.68751657
-0.0048559643 -0.020502955 0.68751663
-0.0048559643 -0.021042526 0.68751663
-0.0048559643 -0.021582067 0.68751657
-0.0048559643 -0.022121578 0.68751657
-0.0048559643 -0.02266115 0.68751663
-0.0048559643 -0.023200721 0.68751663
-0.0048559643 -0.023740262 0.68751657
-0.0048559643 -0.024279833 0.68751663
-0.0048559643 -0.024819374 0.68751663
-0.0048559643 -0.025358945 0.68751663
-0.0048559643 -0.025898486 0.68751657
-0.0048567904 -0.026442498 0.68753874
-0.004885715 -0.027142853 0.68831468
-0.0049150009 -0.027851641 0.68910021
-0.0049446262 -0.028568953 0.68989491
-0.0049746102 -0.029294908 0.69069922
-0.0050049741 -0.030029833 0.69151378
-0.005035697 -0.030773669 0.69233787
-0.0050668139 -0.031526864 0.69317257
-0.0050983028 -0.032289237 0.69401717
-0.0051302006 -0.033061296 0.69487292
-0.0051624849 -0.033842951 0.69573891
-0.0051951944 -0.03463465 0.69661629
-0.0052283043 -0.035436273 0.69750446
-0.0052618389 -0.036248207 0.69840407
-0.0052958229 -0.037070751 0.69931561
-0.005330232 -0.037903875 0.70023859
-0.0053651086 -0.038747996 0.70117414
-0.0054004272 -0.039603144 0.70212162
-0.0054362309 -0.040469706 0.70308203
-0.0054724952 -0.041347712 0.70405477
-0.0055092648 -0.042237669 0.70504105
-0.005546513 -0.043139517 0.70604032
-0.005584287 -0.044053823 0.70705354
-0.0056225606 -0.044980466 0.70808023
-0.0056613623 -0.045919925 0.70912105
-0.0057007223 -0.046872616 0.71017694
-0.0057406146 -0.04783842 0.71124697
-0.005781088 -0.048818052 0.71233261
-0.0058221165 -0.049811453 0.71343327
-0.0058637518 -0.050819159 0.71455014
-0.0059059667 -0.051841259 0.71568251
-0.0059488141 -0.05287832 0.71683186
-0.0059922673 -0.053930372 0.71799749
-0.0060363594 -0.054997951 0.71918023
-0.0060811266 -0.056081474 0.72038102
-0.0061265416 -0.057181031 0.72159934
-0.0061726617 -0.058297366 0.72283649
-0.0062194592 -0.059430361 0.72409183
-0.0062669944 -0.060580939 0.72536689
-0.0063152388 -0.061748981 0.72666103
-0.0063642552 -0.062935412 0.72797596
-0.0064140148 -0.064140141 0.72931069
-0.0064645582 -0.065363854 0.73066646
-0.0065159295 -0.066607267 0.73204452
-0.0065680984 -0.067870319 0.73344386
-0.0066211349 -0.069154084 0.73486662
-0.0066750092 -0.070458412 0.73631167
-0.0067297937 -0.071784467 0.73778135
-0.0067854584 -0.073132157 0.7392745
-0.0068420786 -0.074502617 0.74079335
-0.0068996241 -0.075895846 0.74233693
-0.0043291217 0.049243748 0.68790013
-0.0043291217 0.048702627 0.68790013
-0.0043291217 0.048161477 0.68790013
-0.0043291217 0.047620356 0.68790013
-0.0043291217 0.047079206 0.68790013
-0.0043291217 0.046538055 0.68790013
-0.0043291217 0.045996934 0.68790013
-0.0043291217 0.045455784 0.68790013
-0.0043291217 0.044914633 0.68790013
-0.0043291217 0.044373512 0.68790013
-0.0043291217 0.043832362 0.68790013
-0.0043291217 0.043291241 0.68790013
-0.0043291217 0.04275009 0.68790013
-0.0043291217 0.04220894 0.68790013
-0.0043291217 0.041667789 0.68790013
-0.0043291217 0.041126668 0.68790013
-0.0043291217 0.040585518 0.68790013
-0.0043291217 0.040044397 0.68790013
-0.0043291217 0.039503276 0.68790013
-0.0043291217 0.038962096 0.68790013
-0.0043291217 0.038420975 0.68790013
-0.0043291217 0.037879825 0.68790013
-0.0043291217 0.037338704 0.68790013
-0.0043291217 0.036797553 0.68790013
-0.0043291217 0.036256403 0.68790013
-0.0043291217 0.035715282 0.68790007
-0.0043291217 0.035174131 0.68790013
-0.0043291217 0.034632981 0.68790013
-0.0043291217 0.03409186 0.68790007
-0.0043291217 0.033550709 0.68790013
-0.0043291217 0.033009589 0.68790013
-0.0043291217 0.032468438 0.68790013
-0.0043291217 0.031927288 0.68790007
-0.0043291217 0.031386167 0.68790013
-0.0043291217 0.030845016 0.68790007
-0.0043291217 0.030303866 0.68790007
-0.0043291217 0.029762745 0.68790007
-0.0043291217 0.029221594 0.68790013
-0.0043291217 0.028680474 0.68790007
-0.0043291217 0.028139323 0.68790013
-0.0043291217 0.027598172 0.68790007
-0.0043291217 0.027057022 0.68790019
-0.0043291217 0.026515901 0.68790013
-0.0043291217 0.025974721 0.68790019
-0.0043291217 0.0254336 0.68790013
-0.0043291217 0.024892449 0.68790013
-0.0043291217 0.024351299 0.68790019
-0.0043291217 0.023810178 0.68790013
-0.0043291217 0.023268998 0.68790013
-0.0043291217 0.022727907 0.68790019
-0.0043291217 0.022186756 0.68790013
-0.0043291217 0.021645606 0.68790013
-0.0043291217 0.021104485 0.68790013
-0.0043291217 0.020563334 0.68790019
-0.0043291217 0.020022184 0.68790013
-0.0043291217 0.019481063 0.68790013
-0.0043291217 0.018939912 0.68790013
-0.0043291217 0.018398792 0.68790013
-0.0043291217 0.017857641 0.68790013
-0.0043291217 0.01731649 0.68790013
-0.0043291217 0.01677537 0.68790013
-0.0043291217 0.016234219 0.68790013
-0.0043291217 0.015693069 0.68790013
-0.0043291217 0.015151948 0.68790013
-0.0043291217 0.014610797 0.68790013
-0.0043291217 0.014069676 0.68790013
-0.0043291217 0.013528526 0.68790013
-0.0043291217 0.012987375 0.68790013
-0.0043291217 0.012446254 0.68790007
-0.0043291217 0.011905104 0.68790013
-0.0043291217 0.011363924 0.68790013
-0.0043291217 0.010822833 0.68790013
-0.0043291217 0.010281682 0.68790013
-0.0043291217 0.0097405314 0.68790013
-0.0043291217 0.0091994405 0.68790013
-0.0043291217 0.0086582601 0.68790013
-0.0043291217 0.0081171393 0.68790013
-0.0043291217 0.0075759888 0.68790013
-0.0043291217 0.0070348382 0.68790013
-0.0043291217 0.0064937174 0.68790013
-0.0043291217 0.0059525669 0.68790007
-0.0043291217 0.0054113865 0.68790013
-0.0043291217 0.0048702955 0.68790013
-0.0043291217 0.004329145 0.68790007
-0.0043291217 0.0037879944 0.68790013
-0.0043291217 0.0032468736 0.68790007
-0.0043291217 0.0027056932 0.68790019
-0.0043291217 0.0021646023 0.68790007
-0.0043291217 0.0016234219 0.68790013
-0.0043291217 0.0010823011 0.68790007
-0.0043291217 0.00054115057 0.68790013
-0.0043291217 2.9802322e-08 0.68790007
-0.0043291217 -0.00054118037 0.68790013
-0.0043291217 -0.0010822713 0.68790019
-0.0043291217 -0.0016234219 0.68790013
-0.0043291217 -0.0021645427 0.68790019
-0.0043291217 -0.0027056932 0.68790013
-0.0043291217 -0.0032468438 0.68790013
-0.0043291217 -0.0037879646 0.68790019
-0.0043291217 -0.0043291152 0.68790013
-0.0043291217 -0.0048702657 0.68790013
-0.0043291217 -0.0054113865 0.68790013
-0.0043291217 -0.0059525371 0.68790013
-0.0043291217 -0.0064936876 0.68790013
-0.0043291217 -0.0070348084 0.68790013
-0.0043291217 -0.007575959 0.68790013
-0.0043291217 -0.0081170797 0.68790019
-0.0043291217 -0.0086582303 0.68790013
-0.0043291217 -0.0091993809 0.68790013
-0.0043291217 -0.0097405016 0.68790013
-0.0043291217 -0.010281652 0.68790013
-0.0043291217 -0.010822773 0.68790013
-0.0043291217 -0.011363924 0.68790007
-0.0043291217 -0.011905074 0.68790013
-0.0043291217 -0.012446225 0.68790013
-0.0043291217 -0.012987345 0.68790013
-0.0043291217 -0.013528496 0.68790013
-0.0043291217 -0.014069617 0.68790007
-0.0043291217 -0.014610767 0.68790007
-0.0043291217 -0.015151918 0.68790013
-0.0043291217 -0.015693039 0.68790013
-0.0043291217 -0.016234189 0.68790013
-0.0043291217 -0.01677531 0.68790013
-0.0043291217 -0.017316461 0.68790007
-0.0043291217 -0.017857611 0.68790007
-0.0043291217 -0.018398732 0.68790007
-0.0043291217 -0.018939883 0.68790013
-0.0043291217 -0.019481033 0.68790013
-0.0043291217 -0.020022154 0.68790013
-0.0043291217 -0.020563304 0.68790007
-0.0043291217 -0.021104425 0.68790007
-0.0043291217 -0.021645576 0.68790007
-0.0043291217 -0.022186726 0.68790013
-0.0043291217 -0.022727847 0.68790013
-0.0043291217 -0.023268998 0.68790013
-0.0043291217 -0.023810148 0.68790007
-0.0043291217 -0.024351269 0.68790007
-0.0043291217 -0.024892449 0.68790013
-0.0043291217 -0.02543354 0.68790013
-0.0043291217 -0.025974721 0.68790019
-0.0043291217 -0.026515841 0.68790007
-0.0043291217 -0.027056992 0.68790013
-0.0043348745 -0.027634829 0.68807375
-0.0043608104 -0.028345227 0.68885642
-0.0043870457 -0.029064119 0.68964815
-0.0044136117 -0.029791832 0.69044983
-0.0044404883 -0.030528337 0.69126093
-0.0044677076 -0.031273961 0.69208235
-0.0044952487 -0.032028615 0.69291347
-0.0045231455 -0.032792807 0.69375533
-0.0045513767 -0.033566386 0.69460726
-0.0045799627 -0.03434968 0.69546992
-0.0046089245 -0.035143048 0.6963439
-0.0046382402 -0.035946339 0.69722861
-0.0046679457 -0.036760032 0.698125
-0.0046980195 -0.037584126 0.6990326
-0.0047284984 -0.038418978 0.69995236
-0.0047593601 -0.039264709 0.70088375
-0.0047906423 -0.040121615 0.70182776
-0.0048223231 -0.040989727 0.70278382
-0.0048544263 -0.041869432 0.70375264
-0.0048869746 -0.042761058 0.70473492
-0.0049199471 -0.043664515 0.7057299
-0.0049533839 -0.04458046 0.70673883
-0.0049872613 -0.045508742 0.70776123
-0.0050216224 -0.046450019 0.70879817
-0.0050564427 -0.04740414 0.709849
-0.0050917668 -0.048371762 0.71091497
-0.0051275711 -0.049352854 0.71199548
-0.0051638992 -0.050347984 0.71309173
-0.0052007283 -0.05135718 0.71420324
-0.0052380865 -0.05238083 0.7153306
-0.0052760039 -0.053419501 0.71647477
-0.0053144554 -0.054473162 0.71763521
-0.0053534899 -0.055542439 0.71881312
-0.0053930837 -0.056627363 0.72000802
-0.0054332865 -0.057728648 0.72122127
-0.0054740733 -0.058846265 0.7224521
-0.0055154976 -0.059981018 0.72370219
-0.0055575329 -0.061132818 0.72497076
-0.005600214 -0.062302381 0.72625875
-0.0056435768 -0.063490212 0.72756732
-0.0056875949 -0.064696372 0.72889572
-0.0057323268 -0.065921754 0.73024559
-0.005777746 -0.067166299 0.7316162
-0.0058239126 -0.06843096 0.73300946
-0.0058708009 -0.069715708 0.73442435
-0.005918473 -0.071021646 0.73586303
-0.0059669022 -0.072348654 0.7373246
-0.0060161301 -0.073697567 0.73881006
-0.0060662022 -0.075069249 0.74032122
-0.0037991668 0.049931914 0.68828595
-0.0037991668 0.049389184 0.68828595
-0.0037991668 0.048846424 0.68828589
-0.0037991668 0.048303694 0.68828589
-0.0037991668 0.047760993 0.68828589
-0.0037991668 0.047218233 0.68828589
-0.0037991668 0.046675503 0.68828589
-0.0037991668 0.046132773 0.68828589
-0.0037991668 0.045590043 0.68828589
-0.0037991668 0.045047253 0.68828595
-0.0037991668 0.044504523 0.68828595
-0.0037991668 0.043961823 0.68828595
-0.0037991668 0.043419063 0.68828589
-0.0037991668 0.042876333 0.68828589
-0.0037991668 0.042333633 0.68828589
-0.0037991668 0.041790843 0.68828589
-0.0037991668 0.041248113 0.68828589
-0.0037991668 0.040705383 0.68828589
-0.0037991668 0.040162623 0.68828595
-0.0037991668 0.039619893 0.68828595
-0.0037991668 0.039077163 0.68828595
-0.0037991668 0.038534403 0.68828589
-0.0037991668 0.037991703 0.68828589
-0.0037991668 0.037448943 0.68828589
-0.0037991668 0.036906213 0.68828589
-0.0037991668 0.036363482 0.68828595
-0.0037991668 0.035820723 0.68828589
-0.0037991668 0.035277992 0.68828595
-0.0037991668 0.034735292 0.68828595
-0.0037991668 0.034192502 0.68828595
-0.0037991668 0.033649772 0.68828589
-0.0037991668 0.033107042 0.68828589
-0.0037991668 0.032564312 0.68828589
-0.0037991668 0.032021582 0.68828589
-0.0037991668 0.031478792 0.68828595
-0.0037991668 0.030936092 0.68828589
-0.0037991668 0.030393362 0.68828589
-0.0037991668 0.029850572 0.68828595
-0.0037991668 0.029307872 0.68828595
-0.0037991668 0.028765172 0.68828589
-0.0037991668 0.028222382 0.68828589
-0.0037991668 0.027679682 0.68828589
-0.0037991668 0.027136952 0.68828589
-0.0037991668 0.026594162 0.68828595
-0.0037991668 0.026051432 0.68828589
-0.0037991668 0.025508672 0.68828589
-0.0037991668 0.024965972 0.68828589
-0.0037991668 0.024423242 0.68828589
-0.0037991668 0.023880452 0.68828589
-0.0037991668 0.023337752 0.68828589
-0.0037991668 0.022795051 0.68828589
-0.0037991668 0.022252262 0.68828589
-0.0037991668 0.021709532 0.68828595
-0.0037991668 0.021166801 0.68828595
-0.0037991668 0.020624042 0.68828589
-0.0037991668 0.020081341 0.68828589
-0.0037991668 0.019538581 0.68828589
-0.0037991668 0.018995851 0.68828589
-0.0037991668 0.018453121 0.68828589
-0.0037991668 0.017910391 0.68828589
-0.0037991668 0.017367661 0.68828589
-0.0037991668 0.016824901 0.68828595
-0.0037991668 0.016282111 0.68828589
-0.0037991668 0.015739411 0.68828589
-0.0037991668 0.015196681 0.68828589
-0.0037991668 0.014653921 0.68828589
-0.0037991668 0.014111221 0.68828589
-0.0037991668 0.013568491 0.68828589
-0.0037991668 0.013025731 0.68828589
-0.0037991668 0.012483031 0.68828589
-0.0037991668 0.011940241 0.68828595
-0.0037991668 0.011397511 0.68828595
-0.0037991668 0.010854781 0.68828589
-0.0037991668 0.010312051 0.68828589
-0.0037991668 0.0097693205 0.68828589
-0.0037991668 0.0092265606 0.68828589
-0.0037991668 0.0086838007 0.68828589
-0.0037991668 0.0081410706 0.68828595
-0.0037991668 0.0075983703 0.68828589
-0.0037991668 0.0070555806 0.68828595
-0.0037991561 0.0065128505 0.68828553
-0.0037991561 0.0059700906 0.68828553
-0.0037991561 0.0054273903 0.68828553
-0.0037991561 0.0048846304 0.68828553
-0.0037991561 0.0043419003 0.68828553
-0.0037991561 0.0037992001 0.68828553
-0.0037991561 0.0032564402 0.68828553
-0.0037991561 0.0027137101 0.68828547
-0.0037991561 0.0021710098 0.68828547
-0.0037991561 0.0016281903 0.68828553
-0.0037991561 0.00108549 0.68828553
-0.0037991561 0.00054273009 0.68828553
-0.0037991561 -0 0.68828553
-0.0037991561 -0.00054270029 0.68828553
-0.0037991561 -0.00108549 0.68828553
-0.0037991561 -0.0016281903 0.68828553
-0.0037991561 -0.0021708906 0.68828553
-0.0037991561 -0.0027136803 0.68828547
-0.0037991561 -0.0032564104 0.68828559
-0.0037991561 -0.0037991107 0.68828547
-0.0037991561 -0.0043419003 0.68828553
-0.0037991561 -0.0048846304 0.68828553
-0.0037991561 -0.0054273605 0.68828553
-0.0037991561 -0.0059700906 0.68828553
-0.0037991561 -0.0065128207 0.68828547
-0.0037991561 -0.0070555806 0.68828547
-0.0037991561 -0.0075982809 0.68828553
-0.0037991561 -0.008141011 0.68828553
-0.0037991561 -0.0086837709 0.68828553
-0.0037991561 -0.009226501 0.68828559
-0.0037991561 -0.0097692609 0.68828559
-0.0037991561 -0.010311991 0.68828559
-0.0037991561 -0.010854691 0.68828559
-0.0037991561 -0.011397451 0.68828553
-0.0037991561 -0.011940181 0.68828553
-0.0037991561 -0.012482911 0.68828553
-0.0037991561 -0.013025641 0.68828553
-0.0037991561 -0.013568401 0.68828547
-0.0037991561 -0.014111161 0.68828553
-0.0037991561 -0.014653891 0.68828553
-0.0037991561 -0.015196621 0.68828553
-0.0037991561 -0.015739352 0.68828553
-0.0037991561 -0.016282082 0.68828553
-0.0037991561 -0.016824812 0.68828547
-0.0037991561 -0.017367542 0.68828547
-0.0037991561 -0.017910302 0.68828547
-0.0037991561 -0.018453032 0.68828553
-0.0037991561 -0.018995762 0.68828553
-0.0037991561 -0.019538492 0.68828553
-0.0037991561 -0.020081252 0.68828559
-0.0037991561 -0.020623982 0.68828559
-0.0037991561 -0.021166712 0.68828559
-0.0037991561 -0.021709442 0.68828553
-0.0037991561 -0.022252172 0.68828553
-0.0037991561 -0.022794932 0.68828553
-0.0037991561 -0.023337632 0.68828553
-0.0037991561 -0.023880392 0.68828547
-0.0037991561 -0.024423122 0.68828547
-0.0037991561 -0.024965882 0.68828553
-0.0037991561 -0.025508612 0.68828553
-0.0037991561 -0.026051342 0.68828553
-0.0037991561 -0.026594073 0.68828553
-0.0037991561 -0.027136832 0.68828553
-0.0037991561 -0.027679563 0.68828547
-0.0037991561 -0.028222263 0.68828547
-0.0038086658 -0.028837025 0.68861353
-0.0038315477 -0.029557645 0.6894027
-0.0038546952 -0.030286849 0.69020098
-0.0038781357 -0.031025082 0.6910094
-0.0039018511 -0.031772196 0.69182742
-0.003925859 -0.03252852 0.69265538
-0.0039501749 -0.03329432 0.69349396
-0.0039747828 -0.034069538 0.69434267
-0.003999711 -0.034854621 0.69520247
-0.0040249419 -0.035649478 0.69607264
-0.0040505053 -0.036454529 0.69695425
-0.0040763831 -0.037269771 0.69784677
-0.0041026059 -0.038095564 0.69875109
-0.004129156 -0.038932025 0.69966686
-0.0041560517 -0.039779335 0.70059443
-0.0041833129 -0.040637881 0.70153469
-0.0042109215 -0.041507632 0.70248675
-0.00423891 -0.042389095 0.70345211
-0.0042672595 -0.043282181 0.70442981
-0.0042960043 -0.044187456 0.70542127
-0.0043251254 -0.045104861 0.70642555
-0.0043546581 -0.046034932 0.70744407
-0.0043845824 -0.046977669 0.70847619
-0.0044149202 -0.047933429 0.70952249
-0.0044456962 -0.048902661 0.71058393
-0.0044768895 -0.049885303 0.71165967
-0.0045085386 -0.050882071 0.71275127
-0.0045406227 -0.051892817 0.71385783
-0.0045731831 -0.052918226 0.71498072
-0.0046061971 -0.053958297 0.71611941
-0.0046397075 -0.055013686 0.71727514
-0.0046736933 -0.056084305 0.71844727
-0.0047081965 -0.057170987 0.71963727
-0.004743197 -0.058273554 0.72084427
-0.0047787209 -0.059392631 0.7220695
-0.0048147985 -0.060528904 0.72331381
-0.0048514074 -0.061682165 0.72457641
-0.0048885951 -0.062853336 0.72585899
-0.0049263397 -0.064042389 0.72716069
