# .PCD v0.7 - Point Cloud Data file format
VERSION 0.7
FIELDS x y z
SIZE 4 4 4
TYPE F F F
COUNT 1 1 1
WIDTH 1331
HEIGHT 1
VIEWPOINT 0 0 0 1 0 0 0
POINTS 1331
DATA ascii
0.0024183944 -0.017412424 0.67402774
0.018005015 -0.009489134 0.67473829
0.018005015 -0.0055961311 0.67473829
0.018005015 -0.0046228915 0.67473829
0.015018577 -0.00048446655 0.67421877
0.017295493 0.0027482412 0.67432976
0.018675048 -0.032681316 0.6759035
-0.0063911746 -0.024581432 0.67594701
0.018675048 -0.017446414 0.67590356
0.00048935995 -0.016417881 0.67557615
0.0055413069 -0.010430893 0.67530078
0.018675048 -0.0086003244 0.67590356
0.0096614566 -0.0037663183 0.67585993
0.013472902 0.00049049658 0.67553777
0.015537767 0.0035983226 0.6757158
0.018689616 0.008361131 0.67599607
-0.010404202 -0.027744561 0.67686665
-0.010404202 -0.027744561 0.67686665
0.0046947962 -0.0086485893 0.6765722
0.0079279244 -0.003715992 0.67688048
0.011668104 0.00059393648 0.67662257
0.013457833 0.0018054247 0.67612481
0.019358505 -0.034497827 0.67709213
-0.0089344848 -0.025314361 0.67708933
-0.0047352184 -0.018690296 0.67758512
-0.0026601187 -0.015793463 0.67766464
0.019358505 -0.013650224 0.67709213
0.019358505 -0.011664733 0.67709208
0.0018292658 -0.0098122656 0.67771053
0.0048240921 -0.0058223112 0.67774105
0.010633484 0.00059665443 0.67721951
0.014577622 0.0057980618 0.67723644
0.019358505 0.0096792579 0.67709208
0.01853817 0.010758936 0.67713803
0.020055795 -0.032339931 0.67830479
-0.013283564 -0.028320707 0.67827117
0.020055795 -0.028328806 0.67830479
-0.0062844185 -0.018349431 0.67862713
-0.0022606999 -0.013311058 0.67852652
0.020055795 -0.01228416 0.67830479
0.00025062833 -0.010287344 0.67841053
0.00025062833 -0.010287344 0.67841053
0.016341142 0.011313543 0.67864716
0.017195581 0.011352619 0.67817235
0.020055795 0.013286963 0.67830479
0.020055795 0.013286963 0.67830479
0.020767342 -0.02760537 0.67954218
-0.011176661 -0.021845281 0.67990661
-0.0085824709 -0.020194054 0.6791392
-0.0010157349 -0.0086337328 0.67986739
0.020767342 -0.007344529 0.67954218
0.0015234796 -0.0053319484 0.67985749
0.020767342 0.0022793412 0.67954218
0.017172182 0.013636768 0.67919064
0.019500153 0.017474681 0.67953849
-0.0084927548 -0.017494649 0.6802749
0.021493586 -0.0094673932 0.68080521
0.021493586 -0.0094673932 0.68080521
0.021493586 -0.0053733736 0.68080521
0.0046084435 0.0010240972 0.68087697
0.010179041 0.0066164136 0.68012923
0.021493586 0.009467423 0.68080521
0.021493586 0.017655447 0.68080521
0.019781364 0.020634275 0.68076634
-0.0023176919 -0.0064369291 0.68158329
0.0010262374 -0.0030786991 0.68113518
0.0015496161 -0.00051650405 0.68196082
0.0096214879 0.0094499094 0.68169701
0.015758321 0.016615003 0.68131506
0.015758321 0.016615003 0.68131506
0.016411837 0.016924739 0.68107504
0.017404495 0.019361932 0.68157548
0.021362891 0.02445209 0.68153524
-0.013514521 -0.018452242 0.68274558
-0.011683224 -0.01635582 0.68261313
-0.0046548084 -0.0082752109 0.68212068
-0.0046548084 -0.0082752109 0.68212068
0.0036405192 0.0041606128 0.68281436
0.0044085975 0.0044091716 0.68248129
0.0054398896 0.0054404363 0.6823411
0.0067627556 0.0083234012 0.68284762
0.0093038287 0.0098207295 0.68204308
0.022234987 0.012668803 0.68209457
0.010658115 0.013257682 0.68277508
0.021850396 0.028093368 0.6828562
0.022992028 -0.036316946 0.68341112
0.022992028 -0.034487993 0.68341112
0.022992028 -0.032659128 0.68341112
-0.021598807 -0.027520737 0.68341154
0.022992028 -0.017505258 0.68341112
0.022992028 -0.017505258 0.68341112
-0.00990004 -0.013026357 0.68305111
0.022992028 -0.012279809 0.68341112
-0.0044516288 -0.0044510663 0.6836859
-0.0034004115 -0.0033998415 0.68354297
-0.0026084716 -0.0031301677 0.68320549
0.022992028 0.0013063848 0.68341112
0.0013968684 0.0033180516 0.68373573
0.0044408096 0.006531328 0.68339634
0.0068123178 0.010480493 0.68376803
0.022992028 0.012279853 0.68341112
0.010420097 0.013546139 0.68303901
0.022992028 0.02168569 0.68341112
0.022992028 0.023514599 0.68341112
0.023765208 -0.02931042 0.68475568
-0.021361608 -0.024525672 0.68459237
-0.021361608 -0.024525672 0.68459237
0.023765208 -0.012410715 0.6847558
0.023765208 -0.007657662 0.68475574
-0.0073951995 -0.0058104992 0.68478298
-0.0034349631 -0.00052839518 0.68482602
-0.0034349631 -0.00052839518 0.68482602
-0.0031724602 2.9802322e-08 0.68490732
0.023765208 0.0013203174 0.68475574
0.023765208 0.0066014379 0.68475574
0.010393366 0.017616272 0.68484497
0.01671331 0.025510143 0.68467808
0.016927825 0.02644977 0.68496794
0.020401744 0.030251216 0.68463987
-0.01652189 -0.030911893 0.68592626
-0.023405045 -0.024734616 0.68567729
-0.015692925 -0.014628448 0.68568206
-0.01060086 -0.0090107024 0.68522102
-0.0084769838 -0.0063576996 0.68516511
0.0091837775 0.016778469 0.68517292
0.013852609 0.024508476 0.68588489
0.015976762 0.027160496 0.68582839
0.017576797 0.02929467 0.68584567
0.020517666 0.03330797 0.68591762
0.022597166 0.035358675 0.68562245
-0.0026708087 -0.033652186 0.68621534
-0.0026708087 -0.033652186 0.68621534
-0.0026708087 -0.033652186 0.68621534
-0.022532389 -0.030043185 0.68677634
0.024555044 -0.024288133 0.68612933
-0.018474493 -0.016331971 0.6865344
-0.017325085 -0.01464521 0.68661451
-0.016550951 -0.014682025 0.68615258
-0.010197246 -0.004830271 0.68682748
0.024555044 -0.0034697056 0.68612933
0.024555044 -0.0034697056 0.68612933
0.024555044 -0.0005338192 0.68612933
-0.00053713925 0.0080571175 0.68693417
0.024555044 0.013612062 0.68612933
0.0056978613 0.0146013 0.68622255
0.0056978613 0.0146013 0.68622255
0.0080127856 0.017628133 0.68622118
0.024554977 0.028558508 0.68612897
0.018795472 0.033294857 0.68690383
0.025362089 -0.039392173 0.6875329
0.0053891786 -0.035568595 0.68736362
0.025362089 -0.025631875 0.6875329
-0.025628535 -0.023469776 0.68751407
-0.024505435 -0.021442017 0.6877594
0.025362089 -0.021314934 0.6875329
0.025362089 -0.020505518 0.68753284
-0.023248896 -0.019734263 0.68778712
0.025362089 -0.014299884 0.68753284
-0.016408384 -0.010638168 0.68784928
-0.01345164 -0.0083397478 0.68715787
0.025362089 -0.0056659877 0.6875329
-0.0081154034 0.0002707988 0.68787277
-0.005920657 0.0016147494 0.68720031
0.00054057175 0.011352032 0.68776292
0.0083472971 0.02046518 0.68727642
0.0083472971 0.02046518 0.68727642
0.025362015 0.020505488 0.68753248
0.0097348467 0.023526147 0.68782401
0.025362015 0.02563183 0.68753248
0.014194779 0.02839002 0.68739527
0.025362015 0.031567648 0.68753254
0.017560523 0.033500731 0.68770552
-0.029413072 -0.025600284 0.68875629
-0.022524955 -0.017639481 0.68829167
-0.012525903 -0.0035396516 0.68873644
-0.012525903 -0.0035396516 0.68873644
-0.0064993715 0.0027080774 0.68801457
-0.0048751938 0.0048752129 0.68803245
-0.0034494544 0.008350959 0.68874061
0.026186828 0.0095472932 0.68896687
-0.0010892297 0.011436939 0.68873894
0.0013601882 0.014421858 0.68864143
0.0013601882 0.014421858 0.68864143
0.01432981 0.031380974 0.68863332
0.019293511 0.037500724 0.68846709
0.026186828 0.041462481 0.68896693
0.026186828 0.045554191 0.68896687
-0.030596709 -0.026225716 0.68916267
-0.029242871 -0.023394059 0.68962878
-0.024192363 -0.015944958 0.6899972
-0.024192363 -0.015944958 0.6899972
-0.017520096 -0.0084860176 0.6894362
-0.017044079 -0.0065976977 0.6899929
-0.012385353 -0.0023676555 0.68917102
-0.011499767 -0.00054758787 0.68946159
0.0054752501 0.021627516 0.68944156
0.010677721 0.028474852 0.68945801
0.013307746 0.031538062 0.689291
0.015299584 0.033877701 0.68917328
0.023312185 0.04552801 0.68968421
-0.02935423 -0.020492554 0.69096935
-0.021462008 -0.012106776 0.69011337
-0.021462008 -0.012106776 0.69011337
0.027030004 -0.01048103 0.6904332
0.027030004 -0.01048103 0.6904332
0.027030004 0.0035856217 0.69043326
0.027030004 0.0035856217 0.69043326
-0.008623735 0.004770577 0.69014513
-0.0027541583 0.012669116 0.69023991
-0.0027541583 0.012669116 0.69023991
0.0011013161 0.01762107 0.69019794
0.0035865954 0.021521658 0.69048268
0.00935876 0.028351799 0.69016343
0.014933148 0.037056327 0.69078255
0.027892167 -0.036538735 0.69193268
0.027892167 -0.036538735 0.69193268
0.027892167 -0.036538735 0.69193268
-0.031474613 -0.022402287 0.69135016
-0.031474613 -0.022402287 0.69135016
-0.029525734 -0.018940985 0.69175059
-0.021453407 -0.0096168518 0.69120377
-0.01968444 -0.0074856728 0.69112277
0.027892167 -0.0025102645 0.69193262
-0.013627647 0.0013908148 0.69153976
-0.0074339779 0.010221561 0.69185781
0.027892167 0.022592679 0.69193262
0.0052887695 0.02644591 0.69166869
0.027892167 0.027613252 0.69193268
0.010579559 0.033409178 0.69168532
0.027892167 0.036538735 0.69193262
0.018309932 0.042446032 0.69120914
0.023290839 0.048799872 0.691136
0.027892167 0.050484836 0.69193256
0.02397041 0.051285535 0.69183797
-0.030511139 -0.017782351 0.6928277
-0.022898277 -0.0094943941 0.69208986
-0.02358616 -0.0087041259 0.6928336
-0.017664183 -0.0014016032 0.69263589
-0.010353693 0.0075554177 0.69236624
-0.0044662268 0.014515251 0.6920377
0.0013053608 0.022754103 0.69233859
0.012587333 0.037483364 0.69232118
0.017647248 0.044539496 0.69251162
0.023367189 0.052343052 0.69265056
0.028773963 -0.031312838 0.69346613
-0.039594196 -0.027432829 0.69381285
-0.035416126 -0.022229057 0.69369602
-0.030547453 -0.015556291 0.69382787
0.028773963 -0.0053598583 0.69346619
0.009415539 0.036344837 0.69364703
0.011499124 0.039399438 0.69379091
0.016335674 0.044500619 0.6932497
0.028773963 0.049367085 0.69346619
0.020587772 0.050483525 0.69343311
0.020587772 0.050483525 0.69343311
0.022261184 0.052413285 0.69331843
0.023751309 0.055419743 0.69378287
-0.029584657 -0.012516588 0.69461054
-0.024402067 -0.0065258294 0.69426149
-0.020982413 -0.0022683442 0.69416553
-0.01652847 0.0051295459 0.69485474
-0.014579585 0.0066270931 0.69439143
-0.011588893 0.011588782 0.69485188
-0.0093697561 0.013344578 0.69434643
-0.0053153746 0.01955235 0.69474262
0.0011340661 0.026650548 0.69415122
0.00056964037 0.027342767 0.69478065
0.0014238365 0.028484166 0.69479096
0.01050854 0.039479725 0.6943965
-0.014868742 -0.034312487 0.69532013
-0.03951228 -0.023478329 0.69550526
-0.039591573 -0.022951633 0.69578278
-0.036572557 -0.020286053 0.69521666
0.029676074 -0.015694052 0.69503498
-0.023693681 -0.0037111342 0.69509202
-0.023693681 -0.0037111342 0.69509202
-0.0224106 2.9802322e-08 0.6959855
-0.013718523 0.0097173154 0.69525504
0.029676074 0.01055786 0.69503498
0.029676074 0.012555271 0.69503498
0.029676074 0.019688979 0.69503498
0.0022857264 0.030571908 0.69521314
0.001723965 0.031606019 0.69599134
0.029676074 0.03966324 0.69503498
0.0093522696 0.040463887 0.69549531
0.011487277 0.04422605 0.695921
0.029676074 0.045370191 0.69503498
0.013778208 0.04707557 0.69585538
0.014610713 0.047557682 0.69558787
0.029676074 0.050506398 0.69503498
0.018560033 0.051682726 0.69512832
0.018560033 0.051682726 0.69512832
0.020679407 0.056293964 0.6959365
0.020679407 0.056293964 0.6959365
0.030599209 -0.030310512 0.69664037
-0.044446938 -0.027418271 0.69661367
-0.044446938 -0.027418271 0.69661367
0.030599209 -0.026557803 0.69664037
-0.037580203 -0.017922848 0.69683671
-0.032791063 -0.013231456 0.69614267
-0.032791063 -0.013231456 0.69614267
-0.028487291 -0.0074813962 0.6961937
-0.013537167 0.012385026 0.69632411
-0.0092478432 0.019073695 0.69679654
-0.005480133 0.02336137 0.69651306
0.030599209 0.024537116 0.69664037
-0.0040477253 0.026021093 0.69685841
-0.0025984384 0.027424254 0.69664103
-0.0025984384 0.027424254 0.69664103
0.010667427 0.044401154 0.69647014
0.012523599 0.047590595 0.69680417
-0.040330809 -0.019583493 0.69769001
-0.038415316 -0.01687941 0.69777668
-0.035659306 -0.014495462 0.69723821
-0.033459693 -0.010474205 0.69774067
-0.032456711 -0.010432512 0.69718134
-0.028476795 -0.0043584108 0.6975615
-0.026219511 -0.00058266521 0.69792289
-0.026219511 -0.00058266521 0.69792289
-0.018531069 0.0075282454 0.69706345
-0.0017374197 0.029536158 0.69707406
0.0025199465 0.036445469 0.697662
0.0025199465 0.036445469 0.697662
0.01651429 0.053599209 0.6971494
0.01651429 0.053599209 0.6971494
-0.043553263 -0.021483451 0.69870985
-0.043553263 -0.021483451 0.69870985
-0.0334641 -0.0076321661 0.69899327
0.031544108 -0.0043811202 0.69828367
-0.01961714 0.0096622929 0.69862753
-0.016372578 0.013448924 0.69842482
-0.0070319995 0.026370019 0.69873023
-0.0013666537 0.033575468 0.6986376
-0.0013666537 0.033575468 0.6986376
0.0052472423 0.040811896 0.69801247
0.011297899 0.049478054 0.69834042
0.031544108 0.053449765 0.69828367
-0.0011780144 -0.038285464 0.69945621
0.032511555 -0.038422734 0.69996607
-0.048572995 -0.026494116 0.69939625
-0.046600021 -0.023299709 0.69966543
-0.046600021 -0.023299709 0.69966543
0.032511555 -0.020393595 0.69996613
-0.041618563 -0.016529173 0.69977522
-0.035635069 -0.0094240159 0.69945514
-0.027151108 0.0023609996 0.69975418
0.032511555 0.01034461 0.69996607
0.032511555 0.022462517 0.69996613
-0.0099936472 0.023514479 0.69917965
0.032511555 0.032511562 0.69996607
0.032511555 0.032511562 0.69996607
-0.00058913842 0.036526591 0.69948792
0.0074690441 0.047370963 0.69961834
0.0094407611 0.05015406 0.69970739
-0.050593488 -0.025594354 0.70095557
-0.039392736 -0.011679064 0.70062721
-0.029618191 0.0002964884 0.7002666
-0.023665631 0.0076913536 0.70009208
-0.023665631 0.0076913536 0.70009208
-0.02039402 0.013265988 0.70066023
-0.014532001 0.020463198 0.70045072
-0.0075081028 0.029438924 0.70035446
-0.0065491945 0.032150596 0.70099509
0.00029663608 0.040397406 0.70068073
0.012479945 0.056456923 0.70072997
0.013330711 0.05658178 0.70029473
-0.01727578 -0.035742968 0.70107603
0.033502359 -0.028417155 0.70168924
-0.053333633 -0.026966393 0.70193005
-0.043568004 -0.015517354 0.70134294
-0.039688013 -0.010444298 0.7013402
0.033502359 -0.008674711 0.70168924
0.033502359 0.0026921779 0.70168918
-0.029341208 0.004191637 0.70182043
-0.026542021 0.006560877 0.70125085
-0.025141068 0.0095775723 0.70177138
0.033502359 0.011666015 0.70168918
-0.020595249 0.014625646 0.70137429
-0.013521991 0.023663204 0.7012769
-0.011927018 0.02564308 0.70122921
0.033502359 0.026622415 0.70168924
0.033502359 0.026622415 0.70168924
-0.011370767 0.02752924 0.70173872
-0.0053851372 0.035302579 0.70171142
0.0041714776 0.046482176 0.70112646
0.0044769282 0.047460094 0.70138061
0.033502359 0.048458785 0.70168918
0.0074848346 0.05239442 0.70181906
0.0083575239 0.052533031 0.70137769
0.033502359 0.055338755 0.70168918
-0.0054327496 -0.03863287 0.70298862
-0.048593279 -0.020397156 0.70209014
-0.048593279 -0.020397156 0.70209014
-0.042406268 -0.011428505 0.70247263
-0.042405274 -0.01065139 0.70281398
-0.035007611 -0.00060355663 0.70297426
-0.011466739 0.030175626 0.70295817
-0.011466739 0.030175626 0.70295817
-0.0024108181 0.041586637 0.70276308
-0.0024108181 0.041586637 0.70276308
0.00040176534 0.045425437 0.70283222
0.034517389 -0.025433838 0.70345443
-0.045340523 -0.013601825 0.70320624
-0.032342985 0.0044472618 0.70366168
0.034517389 0.030581206 0.70345438
0.034517389 0.030581206 0.70345438
-0.0094813472 0.033688337 0.70336008
0.0067294999 -0.041600555 0.70495236
-0.055416532 -0.024358869 0.70427638
-0.055416532 -0.024358869 0.70427638
-0.045678373 -0.011571854 0.70429379
-0.045456305 -0.010677204 0.70455962
-0.041400757 -0.0060883462 0.704243
-0.032431457 0.0073429942 0.70498651
-0.029621879 0.010382801 0.70470583
-0.029621879 0.010382801 0.70470583
-0.019539898 0.023509294 0.70467448
-0.017654229 0.024959475 0.70422649
0.0042602355 0.053557247 0.70418757
0.0091199232 0.059583515 0.70404029
0.035557531 -0.046592593 0.70526332
-0.057736658 -0.029482514 0.7055431
-0.06027789 -0.027370736 0.70575088
-0.050603859 -0.015641257 0.70534009
-0.013517646 0.033487245 0.70559591
0.035557531 0.035557568 0.70526332
-0.0096238963 0.038494736 0.70555675
0.035557531 0.040462017 0.70526332
0.035557531 0.050577536 0.70526338
0.00061495765 0.052271426 0.70572126
0.0030925865 -0.041440636 0.70658058
-0.059351705 -0.024420381 0.70651531
-0.048762128 -0.011110336 0.70627272
-0.046470005 -0.0068155825 0.70684195
-0.041936304 -0.0024668276 0.70614439
-0.038611565 0.0024711341 0.70640212
-0.038611565 0.0024711341 0.70640212
-0.036403127 0.0049360693 0.70621479
-0.032711394 0.0098751485 0.70626163
-0.030358132 0.014249772 0.70683086
-0.028473195 0.016403392 0.70669293
-0.027421098 0.017524719 0.70658016
-0.025514415 0.01934151 0.70628154
-0.019182824 0.028464854 0.70664907
-0.010512165 0.039575189 0.70654327
-0.0064861383 0.04447338 0.70637989
-0.0063983984 0.045406401 0.70673984
0.0043153232 0.057948619 0.70608747
0.035439789 -0.047874808 0.70736122
0.036623739 -0.032588914 0.70711756
0.036623739 -0.023588151 0.70711756
-0.058607034 -0.020574808 0.70777845
0.036623739 -0.016449645 0.7071175
-0.047429606 -0.0056166351 0.70792204
-0.036341749 0.0083067622 0.70766222
0.036623739 0.018311903 0.70711756
-0.025597343 0.023100078 0.70798278
0.036623739 0.03041634 0.70711756
-0.012418997 0.038498908 0.70716786
-0.004669114 0.049488276 0.70753956
0.0024815574 0.057696223 0.70703256
0.036623739 0.05741857 0.70711756
-0.00062541227 -0.0412772 0.70824516
-0.040124301 -0.033854872 0.70861453
-0.062403463 -0.023518935 0.70866942
-0.061599474 -0.023451626 0.7082361
-0.058556505 -0.019588113 0.70818329
-0.040330492 0.0052242577 0.70860314
-0.029462501 0.019432753 0.70859516
-0.027646901 0.022620201 0.70895171
-0.0012539836 0.056429297 0.70862651
-0.0012539836 0.056429297 0.70862651
0.037716996 -0.023573086 0.70901877
-0.051608067 -0.0081817508 0.70919991
-0.049281836 -0.0037908852 0.70979178
-0.049281836 -0.0037908852 0.70979178
0.037716996 0.0015715659 0.70901883
-0.044279002 0.0031628311 0.70997018
-0.025822811 0.025822848 0.70931047
-0.022099636 0.031570941 0.70969516
0.037716996 0.034573942 0.70901883
-0.017068157 0.038561404 0.70987284
0.037716996 0.040545806 0.70901883
-0.011359162 0.04543668 0.70960975
0.037716996 0.047460571 0.70901883
0.037716996 0.053432435 0.70901883
-0.0044184383 0.054599643 0.70964384
-0.0044184383 0.054599643 0.70964384
0.00063194078 0.061614573 0.70982134
0.038838353 -0.046478659 0.71096891
0.038838353 -0.028332889 0.71096897
0.038838353 -0.022602618 0.71096885
-0.059515141 -0.016461641 0.71011078
-0.057688877 -0.013629436 0.71030486
0.038838353 -0.0025467873 0.71096891
-0.03563391 0.016544342 0.71087849
0.038838353 0.016554058 0.71096891
0.038838353 0.025467783 0.71096897
0.038838353 0.025467783 0.71096897
-0.027360657 0.027360678 0.71087235
0.038838353 0.049343824 0.71096897
0.038838353 0.050617248 0.71096897
0.038838353 0.057620853 0.71096891
0.038838353 0.059530959 0.71096897
-0.00063350634 0.060816646 0.7101993
-0.062433545 -0.016328841 0.71184981
-0.059367009 -0.013405442 0.71136987
-0.056508832 -0.0095776767 0.7114079
-0.052298471 -0.0044645071 0.71123254
-0.040327072 0.012482569 0.71179414
-0.037372194 0.01565145 0.7114867
-0.03450574 0.01948972 0.71152449
-0.032630492 0.022393495 0.71172196
-0.02362946 0.033528656 0.71143723
-0.0095731094 0.05169481 0.71133423
-0.005120941 0.05857113 0.71179539
-0.0012792187 0.063321352 0.71167266
-0.01547402 -0.039974511 0.71291393
0.039988905 -0.024509311 0.71296984
-0.057294942 -0.0077251792 0.71267557
0.039988905 -0.0074172914 0.7129699
0.039988905 0.00032252073 0.71296978
0.039988905 0.0025799572 0.71296978
-0.048355494 0.0045132041 0.71291131
-0.046324495 0.0064339936 0.71258676
-0.041470043 0.012537695 0.71247661
-0.026285877 0.031414837 0.71203709
0.039988905 0.044503838 0.71296978
0.039988905 0.044503838 0.71296978
-0.010310463 0.054129958 0.71283019
-0.064361759 -0.014686396 0.71368259
-0.059063509 -0.0071395338 0.71395177
-0.055686224 -0.0035609454 0.71358109
-0.051642668 0.00064554811 0.71310282
-0.04436399 0.011333749 0.71361333
-0.039567612 0.018162221 0.71385515
-0.034341685 0.024622381 0.71368778
-0.031134002 0.029188156 0.71384931
-0.025280306 0.036624432 0.71374977
-0.023923177 0.037501216 0.71335375
-0.018154081 0.046033561 0.71378529
-0.01458201 0.050549313 0.71371478
-0.06238595 -0.011047482 0.71414584
-0.061692722 -0.010390311 0.71403563
-0.044906721 0.012365639 0.71437967
-0.04340113 0.01533711 0.71482027
-0.04340113 0.01533711 0.71482027
-0.032624956 0.0293625 0.71478456
-0.026298553 0.037382804 0.7146697
-0.020805826 0.043562204 0.71422517
-0.020394001 0.044475835 0.7143898
0.041169807 -0.034634888 0.71502352
-0.065063842 -0.010515332 0.715922
-0.058479629 -0.001971215 0.71588916
0.041169807 0.011436075 0.71502352
-0.046485301 0.012439728 0.71532136
-0.046485301 0.012439728 0.71532136
0.041169807 0.021565169 0.71502352
0.041169807 0.021565169 0.71502352
-0.035334606 0.02682814 0.71523011
-0.035496965 0.028266102 0.71595597
0.041169807 0.036595434 0.71502352
-0.025511581 0.039576039 0.71518147
0.041169807 0.044437289 0.71502352
-0.019701697 0.048597544 0.71580434
-0.014399242 0.054324448 0.71527028
-0.0085128862 0.062209576 0.71534908
-0.023756992 -0.039594978 0.71657526
-0.023756992 -0.039594978 0.71657526
-0.051562116 -0.034374714 0.71684957
-0.058614131 -0.0013171434 0.716254
-0.049356885 0.010529459 0.71613479
-0.040503822 0.022392094 0.71625519
-0.027280711 0.040480785 0.71659797
-0.022495709 0.047637999 0.71699101
-0.011536548 0.060646683 0.71640301
0.04238227 -0.046355605 0.71713209
0.04238227 -0.043375582 0.71713209
0.04238227 -0.03443557 0.71713209
0.04238227 -0.019535571 0.71713209
0.04238227 -0.013575569 0.71713209
0.04238227 -0.0086088777 0.71713203
0.04238227 -0.0076155365 0.71713209
0.04238227 0.0003311336 0.71713209
-0.056910008 0.0026469529 0.71701652
-0.057365946 0.0035439532 0.7176739
0.04238227 0.003642261 0.71713209
-0.053720094 0.0076273233 0.71737063
-0.050398704 0.011936545 0.7173537
-0.044556286 0.020615637 0.71780711
0.04238227 0.031455606 0.71713209
-0.025481392 0.045423012 0.71773612
-0.021660022 0.049508147 0.7173326
0.04238227 0.050660044 0.71713209
0.04238227 0.051653385 0.71713209
-0.017602045 0.055462569 0.71761507
-0.016626293 0.057194471 0.71781504
0.04238227 0.058606759 0.71713209
-0.0099275438 0.064198136 0.71703875
0.04238227 0.064566746 0.71713209
-0.064134367 -0.0033403039 0.71854281
-0.05055669 0.014476657 0.71856213
-0.037380237 0.031372696 0.71840715
-0.036729138 0.032388836 0.7184791
-0.036729138 0.032388836 0.7184791
-0.028391253 0.043421164 0.71853101
-0.013990958 0.061293721 0.71810097
0.043627582 -0.053024262 0.71929777
0.043627582 -0.022484958 0.71929777
0.043627582 -0.01342386 0.71929777
-0.058493409 0.0063876361 0.71957409
-0.056998815 0.0073763132 0.71914828
-0.055482142 0.010423779 0.7196154
-0.055482142 0.010423779 0.7196154
0.043627582 0.014430672 0.71929777
0.043627582 0.014430672 0.71929777
0.043627582 0.019464612 0.71929777
-0.046980407 0.020805597 0.71928698
0.043627582 0.044634402 0.71929777
0.043627582 0.046647981 0.71929783
-0.025540322 0.049400777 0.71951997
-0.020590823 0.055505067 0.71935505
-0.020590823 0.055505067 0.71935505
0.043627582 0.061414242 0.71929777
-0.0161753 0.06267935 0.71996826
-0.015490035 0.063307136 0.71984971
-0.015490035 0.063307136 0.71984971
-0.06546136 -0.0013496876 0.72018278
-0.049216419 0.019551724 0.72002304
-0.035266928 0.040014416 0.72099173
-0.02708297 0.050103486 0.72071755
-0.023611207 0.053293914 0.72012162
-0.023028469 0.055539221 0.72077394
-0.020283911 0.058485687 0.72048962
-0.013535662 0.067678332 0.72064722
0.0449071 -0.051370993 0.72152299
0.0449071 -0.051370993 0.72152299
0.0449071 -0.00068038702 0.72152299
0.0449071 -0.00068038702 0.72152299
-0.063900143 0.0033989549 0.72137284
-0.06150905 0.0064566582 0.72134095
-0.06150905 0.0064566582 0.72134095
-0.057421975 0.012483111 0.72163862
-0.051656276 0.019371524 0.72134846
-0.046880387 0.025478914 0.72128522
-0.038400598 0.036700979 0.72133869
-0.038182266 0.038182259 0.7218647
-0.029878706 0.047534317 0.72119725
0.0449071 0.049670011 0.72152305
-0.018367214 0.063264847 0.72148836
-0.059685834 0.012348831 0.72288299
-0.058591776 0.013362899 0.72269917
-0.030726187 0.04847914 0.72210079
-0.027341874 0.053316683 0.72228014
-0.026638627 0.053960323 0.72215819
-0.021577317 0.061647952 0.72262543
0.045458909 -0.055101693 0.72354144
0.046222247 -0.04449752 0.7238102
0.046222247 -0.038633525 0.7238102
0.046222247 -0.015522376 0.72381014
0.04622208 -0.0055190623 0.72380948
-0.065983854 0.0048113465 0.72319388
0.04622208 0.0065538734 0.72380948
-0.060562149 0.012387753 0.723405
-0.054630093 0.019584209 0.72315472
0.04622208 0.02552563 0.72380954
0.04622208 0.036563754 0.72380954
-0.040607836 0.038543075 0.72342002
-0.038549859 0.041303426 0.72344947
-0.035775993 0.044719994 0.72335517
-0.033296354 0.048451643 0.72356862
0.04622208 0.060364679 0.72380948
-0.020649994 0.064703315 0.72343564
-0.020649994 0.064703315 0.72343564
-0.019337639 0.06768176 0.7239902
0.020086553 -0.05056268 0.72447538
-0.065721646 0.0076099336 0.72427422
-0.052721161 0.025666893 0.72473121
-0.045663394 0.033901632 0.72428942
-0.044374444 0.036401346 0.72464699
-0.044374444 0.036401346 0.72464699
-0.041526813 0.039450496 0.72434831
-0.028385529 0.05677107 0.72440058
-0.065615565 0.011168599 0.72577864
-0.064789727 0.011495411 0.72544682
-0.058479548 0.019493192 0.72533119
-0.048813086 0.032774538 0.72560763
-0.048813086 0.032774538 0.72560763
-0.034808796 0.050473183 0.72532904
-0.02755015 0.060678855 0.72563863
-0.025788737 0.062729388 0.72552627
-0.025134064 0.064231515 0.72581011
-0.025134064 0.064231515 0.72581011
-0.024387779 0.06445387 0.72547817
-0.0230437 0.067036271 0.72584039
-0.021561872 0.067467809 0.72517657
-0.061055861 -0.035791367 0.72668481
0.047574535 -0.026585788 0.7261619
0.047574535 -0.013642684 0.72616184
0.047574535 0.0055970252 0.72616184
0.047574535 0.012593269 0.7261619
-0.061599635 0.017499924 0.72625136
-0.060853556 0.018186152 0.72612339
-0.043396074 0.041296273 0.726237
-0.043396074 0.041296273 0.726237
0.04757436 0.043376684 0.72616124
-0.040038858 0.047063231 0.72684044
-0.03647783 0.051209301 0.72661364
-0.035107821 0.053363919 0.7267729
-0.032926437 0.055344462 0.72638804
-0.070466645 0.0084559917 0.7273789
-0.059950564 0.022569627 0.72753197
-0.03528098 0.055038363 0.72760898
-0.026106862 0.067031115 0.72760206
-0.024658035 0.068337977 0.72734237
0.048965558 -0.026611686 0.72858095
0.048965558 -0.019515261 0.72858095
0.048965376 0.0014193058 0.72858036
0.048965376 0.011354327 0.72858036
-0.069551222 0.012420312 0.72859561
-0.067350589 0.014888078 0.72841382
-0.067350589 0.014888078 0.72841382
0.048965376 0.016321808 0.7285803
-0.062517561 0.022023231 0.72876954
0.048965376 0.03832072 0.72858036
0.048965376 0.054642528 0.72858036
-0.03333459 0.05957675 0.72848457
-0.031867314 0.06090197 0.72822291
-0.032681342 0.061099887 0.72877848
0.030628918 -0.054134816 0.72922188
-0.051285245 0.037751645 0.72922057
-0.04927998 0.041423738 0.72968107
-0.043623958 0.049345136 0.72990906
-0.040688552 0.052467287 0.72959214
-0.033584405 0.062166899 0.7297678
-0.033584405 0.062166899 0.7297678
-0.025840005 -0.04378444 0.73054421
-0.058787525 0.030469596 0.73033738
-0.054574162 0.036622167 0.7306174
-0.054574162 0.036622167 0.7306174
-0.049589753 0.04348135 0.73076499
-0.045499805 0.04764913 0.73024303
-0.042339958 0.052386731 0.73050773
-0.035244055 0.062576205 0.73090363
-0.03226668 0.065250456 0.73036546
-0.03226668 0.065250456 0.73036546
-0.02864245 0.069457948 0.73012978
0.050397005 -0.043557405 0.7310704
0.050397005 -0.043557405 0.7310704
-0.059775434 0.03096801 0.73112559
-0.054605499 0.039416984 0.73186529
-0.0520631 0.042662829 0.73182881
0.050396815 0.054716557 0.73106968
-0.068887435 0.021753967 0.73231941
-0.06594748 0.025364429 0.73221481
-0.06594748 0.025364429 0.73221481
-0.053096313 0.043640822 0.73285437
-0.034848351 0.066792667 0.73253095
0.051870465 -0.05442746 0.73363256
-0.027010052 -0.044530064 0.73349524
0.051870465 -0.016437784 0.73363245
0.051870465 -0.00073051453 0.7336325
0.051870465 0.0014611483 0.7336325
0.051870465 0.0084016025 0.73363245
0.051870465 0.023378253 0.7336325
-0.065670416 0.028457165 0.73341554
-0.064273633 0.030676067 0.73358715
-0.061159268 0.033491999 0.73303294
-0.058360286 0.037934184 0.73337507
-0.056325849 0.041695774 0.73385817
-0.054141529 0.04463017 0.73389143
0.051870465 0.051505193 0.7336325
0.051870465 0.05260101 0.73363256
-0.038064994 0.065881729 0.73398238
-0.036450043 0.066339105 0.73325372
-0.067581147 0.028648585 0.73460007
-0.064770021 0.033121049 0.73494899
-0.062253218 0.034422398 0.73407215
-0.058810227 0.040432036 0.73473287
-0.044742614 0.057945371 0.73433638
-0.043207236 0.059318423 0.73405647
-0.039693378 0.065420598 0.73471713
-0.03529622 0.071327776 0.73478359
-0.034533545 0.072006106 0.73464322
-0.057693232 0.044379413 0.73582625
-0.045089465 0.060612082 0.73570913
-0.037688971 0.070204943 0.73566759
-0.035387233 0.072248966 0.73524141
0.053388223 -0.04968071 0.7362721
-0.062989496 -0.03853476 0.73616338
0.053388223 -0.037445888 0.73627198
0.053388223 -0.021503568 0.73627198
-0.072708361 0.02596727 0.73637313
-0.067486241 0.032630712 0.73629707
-0.064647973 0.037154049 0.73665273
-0.064647973 0.037154049 0.73665273
-0.06163789 0.040844411 0.73654282
-0.056269433 0.046644419 0.73600256
0.053388223 0.050422221 0.73627198
-0.051330823 0.055050433 0.73685664
0.053388223 0.057466522 0.73627198
-0.049108449 0.058037281 0.73689109
-0.065785639 0.038125813 0.73773527
-0.063555174 0.041123956 0.73776996
-0.044894557 0.0658454 0.73789907
0.033875115 -0.057964087 0.7389946
-0.052516699 -0.041263103 0.73838091
0.054952096 -0.01957199 0.73899174
0.054952096 0.024464995 0.73899168
-0.072852932 0.030793518 0.73857951
0.054952096 0.032369077 0.73899168
-0.070613116 0.033804148 0.7386139
0.054952096 0.047424436 0.73899174
-0.050351471 0.060497418 0.73868895
-0.064226791 0.044580966 0.73967755
-0.059558652 0.049757898 0.73926657
-0.059558652 0.049757898 0.73926657
-0.051211741 0.06024912 0.73907506
-0.048424136 0.065826565 0.73992324
-0.074446455 0.033424944 0.74065495
-0.074446455 0.033424944 0.74065495
-0.068465069 0.041839778 0.74091208
-0.067469299 0.041694552 0.74027455
-0.056807078 0.055292249 0.7401166
-0.048552625 0.066759855 0.740408
-0.048552625 0.066759855 0.740408
-0.04441569 0.072507277 0.74055403
-0.042430464 0.07425335 0.74017912
0.056564227 -0.059621722 0.74179536
0.056564227 -0.059621722 0.74179536
-0.022100523 -0.048011452 0.7412414
0.056564227 -0.037454635 0.7417953
0.056564227 -0.020638287 0.74179536
0.056564227 -0.017580748 0.7417953
0.056564227 0.019491732 0.74179536
0.056564227 0.019491732 0.74179536
0.056564227 0.042423189 0.7417953
0.056564227 0.047391653 0.7417953
-0.064267635 0.049730897 0.74196661
0.056564227 0.052742302 0.7417953
0.056564227 0.054271102 0.7417953
-0.055792008 0.060377628 0.74176943
-0.069840476 0.043746233 0.7425428
-0.067370497 0.045934439 0.74208325
-0.068375513 0.046095848 0.74273276
-0.027040353 -0.047900021 0.74377501
-0.077324659 0.037115872 0.74393559
-0.073568881 0.040443391 0.74323702
-0.069387905 0.046258599 0.74338758
-0.067088015 0.049352139 0.74342376
-0.060021479 0.057712972 0.74303257
-0.053270731 0.06793949 0.74364418
-0.023276418 -0.048880458 0.74457151
0.058226872 -0.021738023 0.74468684
0.058226872 -0.013586268 0.74468684
0.058226872 -0.013586268 0.74468684
0.058226872 0.0034936219 0.74468678
0.058226872 0.031442523 0.74468678
0.058226872 0.031442523 0.74468678
0.058226872 0.047357887 0.74468678
-0.058194131 0.063625574 0.7445814
-0.047974799 0.075831175 0.74406606
-0.074790813 0.043627977 0.74534166
-0.051380634 0.073956996 0.74520254
0.037610535 -0.061117083 0.74642372
0.021177536 -0.058042109 0.7466169
0.0047109127 -0.054960608 0.74680984
-0.069033325 0.054128438 0.74664497
-0.06435249 0.06042856 0.74672157
-0.062010393 0.063580304 0.746759
-0.061006408 0.063352823 0.74608111
0.059942454 -0.063491657 0.74767029
0.059942454 -0.063491657 0.74767029
0.059942454 -0.061519831 0.74767029
0.059942454 -0.055604473 0.74767029
0.059942454 -0.051266551 0.74767035
0.059942454 -0.02050662 0.74767035
0.059942454 -0.0074927956 0.74767029
0.059942454 -0.0047322512 0.74767035
0.059942454 -0.0047322512 0.74767035
0.059942454 0.021295339 0.74767035
0.059942454 0.021295339 0.74767035
0.059942454 0.035492271 0.74767029
0.059942454 0.045745611 0.74767029
-0.073468708 0.051349074 0.74797678
-0.070069514 0.054323584 0.74732786
-0.066455409 0.058590576 0.74712378
-0.063195743 0.064775676 0.74796736
-0.057640288 0.071853012 0.74788195
-0.056645866 0.071594119 0.74719512
-0.077535406 0.046679497 0.74826455
-0.076244511 0.050035477 0.74899745
-0.067246743 0.060126513 0.74825495
-0.066582859 0.061826974 0.74862075
-0.059485137 0.071382195 0.7487371
-0.077319615 0.050217927 0.74969661
-0.071508154 0.056412011 0.74907506
-0.071047425 0.05907315 0.74998057
-0.061346609 0.070907146 0.74959993
-0.058545083 0.074475348 0.74955654
0.061713532 -0.039272219 0.75075036
0.061713532 -0.03526485 0.75075036
0.061713532 -0.013625026 0.7507503
0.061713532 0.0024044216 0.75075042
0.061713532 0.037669361 0.7507503
0.061713532 0.042478174 0.75075036
-0.077535786 0.051157653 0.7502346
-0.061690163 0.072906554 0.75067711
-0.058283903 0.075848937 0.75001049
-0.07383915 0.05778718 0.75102198
-0.068381786 0.065968305 0.75147873
-0.061863519 0.073914886 0.75122064
-0.0048465659 -0.054927707 0.75226808
-0.07666152 0.056487441 0.75207555
-0.074466266 0.060706228 0.75266767
0.06354285 -0.060284227 0.7539317
0.06354285 -0.046435148 0.7539317
0.06354285 -0.028512836 0.7539317
0.06354285 -0.021588266 0.75393176
0.06354285 -0.0024439394 0.7539317
0.06354285 0.0044805855 0.75393164
0.06354285 0.02525422 0.7539317
0.06354285 0.033400774 0.7539317
0.06354285 0.038288653 0.75393164
-0.077976726 0.057670295 0.75335371
-0.07467737 0.061690003 0.75322163
-0.070034899 0.069220543 0.75386107
-0.064122126 0.075485587 0.75321233
0.0073681511 -0.058126509 0.75490505
-0.077092476 0.063150227 0.75525481
-0.06951353 0.074449062 0.75586092
-0.040427141 -0.049502581 0.75644046
-0.075078323 0.068478078 0.75643873
-0.073297717 0.07000351 0.75608468
0.037305582 -0.064662993 0.75739872
0.065433331 -0.0024847984 0.75721943
0.065433331 0.016565412 0.75721937
0.065433331 0.023191571 0.75721943
0.065433331 0.046383142 0.75721943
-0.050010763 -0.048343688 0.75848508
-0.075052284 0.073384464 0.758582
-0.071667343 0.077500761 0.75844371
-0.07527183 0.074435532 0.75917095
0.067388088 -0.0075811148 0.76061893
0.067388088 0.023585826 0.76061887
0.067388088 0.029482335 0.76061881
-0.065834351 -0.047024548 0.76367056
0.050582819 -0.06944415 0.76423645
0.069410466 -0.041560546 0.76413596
0.069410466 -0.022279888 0.76413596
0.069410466 -0.020566046 0.76413596
0.069410466 -0.018852204 0.76413596
0.069410466 -0.016281456 0.76413596
0.069410466 -0.007712245 0.76413596
0.069410466 0.0068553686 0.76413596
0.069410466 0.016281486 0.76413596
0.069410466 0.036847562 0.76413596
0.069410466 0.048844397 0.76413596
0.023421623 -0.065060049 0.76668251
-0.031334896 -0.054836005 0.76739377
0.071504012 -0.036624014 0.76777685
0.071504012 0.019183993 0.76777679
0.071504012 0.024416029 0.76777679
0.071504012 0.035751998 0.76777679
0.073672578 -0.010651439 0.77154809
0.073672578 -0.0097638369 0.77154809
0.073672578 0.028403878 0.77154809
0.075920254 -0.070497364 0.77545696
0.075920254 -0.051517308 0.77545696
0.075920254 0.0094900429 0.77545702
0.075920254 0.033441097 0.77545696
0.075920254 0.034344912 0.77545691
0.0081869289 -0.065495402 0.77686846
0.078251451 -0.053395092 0.77951115
0.078251451 -0.02761814 0.77951109
0.078251451 -0.023475409 0.77951109
0.078251451 -0.015650272 0.77951109
0.078251451 -0.012888461 0.77951109
0.078251451 -0.0073648393 0.77951115
0.078251451 0.0018412173 0.77951115
0.078251451 0.019332737 0.77951115
0.078251451 0.022094548 0.77951109
0.078251451 0.029459387 0.77951109
-0.046879299 -0.057192713 0.78361058
0.080670923 -0.045494631 0.78371876
0.041479472 -0.074474484 0.78484893
0.083183765 -0.016254276 0.7880888
0.083183765 0.0057368279 0.7880888
0.083183765 0.0239034 0.7880888
0.083183765 0.024859548 0.7880888
0.085795499 -0.00097492337 0.79263079
0.085795499 0.0019499362 0.79263079
0.085795499 0.029248476 0.79263085
0.088512078 0.0029835999 0.79735518
0.091339938 0.025372237 0.80227304
0.091339938 0.025372237 0.80227304
0.091339938 0.026387125 0.80227304
0.091339938 0.027402014 0.80227304
0.091339938 0.028416902 0.80227304
-0.020327298 -0.07275027 0.81554377
-0.027266402 -0.073073924 0.82056499
0.0091960533 -0.023267431 0.66754919
0.011832657 -0.019160843 0.6678375
0.010653787 -0.030571729 0.66908568
0.0012574467 -0.028698262 0.6697315
0.0073468238 -0.02128377 0.66948676
0.013398438 -0.013396952 0.66947132
0.015451519 -0.031137116 0.6702975
0.0018193319 -0.02317613 0.67183733
0.0018193319 -0.02317613 0.67183733
0.016071623 -0.021034904 0.67137593
0.00671981 -0.01901998 0.67084372
0.0075925007 -0.015659481 0.67181933
0.010791316 -0.014765827 0.67037052
0.015451519 -0.015100315 0.6702975
0.016071623 -0.0090993624 0.67137593
0.014595784 -0.032544404 0.67280018
0.017072195 -0.032881577 0.6733551
0.017025843 -0.027035378 0.67303538
0.017025843 -0.027035378 0.67303538
0.00086935359 -0.022836996 0.67253357
0.010336067 -0.010931211 0.67231953
0.01116471 -0.0071789972 0.67349309
0.011591217 -0.005795598 0.67385602
0.006348541 -0.031742692 0.67515528
-0.0011346388 -0.019021157 0.67536622
0.002993468 -0.014874784 0.67481297
0.018340033 -0.011003282 0.67532092
0.018340033 -0.0051348545 0.67532092
0.012791799 -0.0030914582 0.67435414
0.018340033 0.0011003428 0.67532092
0.018340033 0.0011003428 0.67532092
0.017523421 0.0065509677 0.67587125
-0.0086111147 -0.023336835 0.677773
0.0033292812 -0.0090914881 0.67716378
0.019358505 -0.009182848 0.67709208
0.019358505 -0.009182848 0.67709208
0.0093836281 0.00019962192 0.67776465
0.017310992 0.0091740377 0.67714757
0.020833179 -0.036076933 0.67992985
-0.010566353 -0.029686421 0.67873085
-0.012746774 -0.025136029 0.67936307
0.02041157 -0.024945892 0.67892349
0.02041157 -0.0047875829 0.67892349
0.0050717499 -0.0010141283 0.67971373
0.02041157 0.004787609 0.67892349
0.02041157 0.004787609 0.67892349
0.013081178 0.0086665032 0.67936003
0.017208165 0.01473062 0.67965114
0.017946966 -0.035893887 0.68105102
-0.0048422515 -0.011048364 0.68100852
0.0050372588 0.0027260543 0.68137884
0.0070817671 0.0049280417 0.68117028
0.017543945 0.020123988 0.68183035
0.0093747266 -0.034894824 0.68299395
0.022613507 -0.030993883 0.68275285
0.0036705581 0.006554842 0.68385035
0.022613507 0.0070175938 0.68275285
0.011251019 0.014815338 0.68311882
0.012945062 0.015103338 0.68227005
-0.010589777 -0.031769276 0.6850872
-0.021081045 -0.024793295 0.68431318
-0.010650116 -0.0089691915 0.68526769
-0.0068855919 -0.0031317906 0.68566787
-0.002883716 0.00076571357 0.68507785
0.0094989659 0.018732142 0.6858508
0.023191202 0.035038769 0.68515551
0.024958566 -0.034952268 0.68683112
0.024958566 -0.027036496 0.68683112
0.024958566 -0.027036496 0.68683112
-0.021028062 -0.018914433 0.68686885
-0.018957958 -0.015002844 0.68739748
-0.0089246742 -0.0028939806 0.68694663
-0.0049205739 0.0029464192 0.68721008
0.0032407437 0.014675371 0.68767011
0.024958495 0.019053247 0.68683076
0.010689112 0.021290172 0.68629092
0.014810277 0.028950252 0.68728733
0.018945929 0.033069368 0.68671793
-0.025119545 -0.020841431 0.6883772
-0.009632499 -0.00081390887 0.68826926
-0.0075914743 0.0016267598 0.68816763
0.026186828 0.018821806 0.68896687
-0.026651591 -0.015136324 0.69176912
-0.0097361896 0.0036740601 0.69030333
0.027461085 0.0049918853 0.69118297
-0.010212585 0.0063132248 0.69173855
0 0.015957355 0.69010031
0.012681218 0.033174906 0.69037187
0.012681218 0.033174906 0.69037187
0.015105641 0.037067257 0.69068807
0.017738126 0.042999268 0.69178176
0.023773927 0.050891306 0.69177771
0.015669744 -0.039174348 0.69236481
0.028773963 -0.036954775 0.69346613
-0.016877903 -0.033193171 0.69308019
-0.031431034 -0.030308485 0.69275951
-0.040314995 -0.028634708 0.69369924
-0.038857743 -0.028330352 0.69299382
-0.025216412 -0.010945934 0.6927861
-0.019375591 -0.0046574278 0.6921891
-0.01495353 0.0030947737 0.69305295
0.028773963 0.0070524588 0.69346613
-0.0091663301 0.0091661289 0.69239122
-0.0024024884 0.021057036 0.69372702
0.0022343844 0.023461044 0.69211435
0.028773963 0.025106713 0.69346613
0.015042207 0.042877208 0.6932804
0.028773963 0.043019921 0.69346619
0.028773963 0.044853553 0.69346619
0.020260245 0.047227763 0.69218934
0.02122283 0.052349791 0.69388843
0.029676074 -0.035097659 0.69503498
-0.038753413 -0.021673016 0.69586247
-0.012186892 0.012760848 0.69571197
0.0031042024 0.031071167 0.69496149
0.0032780352 0.032723971 0.69558835
0.0062400769 0.033469558 0.69421077
0.013629824 0.046772413 0.6958074
0.022615146 0.05516706 0.69432592
0.0028753404 -0.037954509 0.69609106
-0.046877336 -0.027805924 0.69784284
-0.037254415 -0.018626999 0.69633925
0.030599209 -0.018908001 0.69664037
-0.023120617 0.00091595622 0.69679749
-0.021224201 0.0029827615 0.69661462
-0.018674508 0.0086914152 0.6976577
-0.0031664211 0.025761299 0.69623637
0.030599209 0.030887887 0.69664037
0.030599209 0.030887887 0.69664037
0.006327928 0.037967563 0.69613886
0.031544108 -0.03899201 0.69828367
-0.041191641 -0.030599475 0.69932222
0.031544108 -0.024972409 0.69828367
0.032511555 -0.022905834 0.69996607
-0.041174211 -0.018801047 0.69851995
-0.037679121 -0.01475013 0.69828928
0.031544108 -0.0049652532 0.69828367
-0.015376534 0.015303335 0.69866717
0.0071068443 0.046838284 0.69959247
0.0076853121 0.048476607 0.69998026
0.014161067 0.052995324 0.69823885
-0.0047620526 -0.038096398 0.70096499
-0.0047620526 -0.038096398 0.70096499
0.033502359 -0.03095977 0.70168924
0.033502359 -0.03095977 0.70168924
-0.046074141 -0.017950982 0.70171559
0.033502359 -0.01510597 0.70168924
-0.037718501 -0.010268748 0.70028353
-0.023131821 0.0091934456 0.70044535
-0.019537764 0.013321519 0.70019168
-0.011840627 0.023385555 0.70018637
-0.011840627 0.023385555 0.70018637
0.033502359 0.033053696 0.70168924
-0.0065903454 0.034149975 0.70189822
0.033502359 0.045018822 0.70168924
0.034517389 -0.037091047 0.70345438
0.034517389 -0.037091047 0.70345438
-0.030834066 -0.033857018 0.70321816
-0.030834066 -0.033857018 0.70321816
-0.049286827 -0.0300529 0.70236582
-0.055046588 -0.026918767 0.7029373
-0.051651936 -0.024024099 0.70225596
-0.036915626 -0.002778487 0.70311612
0.034517389 0.0028764755 0.70345438
-0.026941374 0.010958775 0.70341557
0.034517389 0.013019741 0.70345443
0.034517389 0.039059147 0.70345438
0.0026038401 0.047172897 0.70233285
0.012327231 0.060134858 0.70243573
0.035557531 -0.046899125 0.70526332
0.035557531 0.00091960281 0.70526338
-0.034446124 0.0064589977 0.70575786
-0.026448676 0.016915187 0.70575213
-0.021034289 0.021034349 0.7044462
0.035557531 0.027127974 0.70526332
0.035557531 0.03509777 0.70526332
-0.0050632306 0.042980261 0.70490354
0.036623739 -0.04500372 0.70711756
-0.01989232 -0.037298113 0.70733327
-0.057193108 -0.020956133 0.70679641
-0.045120031 -0.0051100529 0.70681494
0.036623739 0.00093112886 0.70711756
-0.030759871 0.014966031 0.70737737
-0.024906574 0.022790702 0.7074489
-0.021208812 0.025224369 0.70639008
-0.019593269 0.026999075 0.70624048
-0.014981558 0.035031181 0.70711821
0.036623739 0.051056005 0.70711756
-0.0011797929 0.052922439 0.70704091
0.036623739 0.059125617 0.70711756
-0.0075631998 -0.040337026 0.70941716
0.037716996 -0.039131381 0.70901883
0.037716996 -0.039131381 0.70901883
0.037716996 -0.02294448 0.70901883
0.037716996 -0.019015633 0.70901883
-0.053662464 -0.01282876 0.70833862
-0.053662464 -0.01282876 0.70833862
-0.052504163 -0.0075909495 0.70997572
-0.050502904 -0.0056815743 0.70966327
-0.048922569 -0.0036296621 0.70965588
-0.048922569 -0.0036296621 0.70965588
-0.013212578 0.041029021 0.70873809
-0.0051196041 0.05126778 0.70858186
-0.0083157318 -0.040938973 0.71168768
-0.027971806 -0.03687191 0.71073443
-0.059515141 -0.016461641 0.71011078
-0.058407761 -0.01120133 0.7117871
-0.049205329 -0.0027452311 0.71020788
-0.031086108 0.022868728 0.71104163
-0.013936808 0.043394521 0.71019566
-0.0067218645 0.05649329 0.7118032
-0.062916823 -0.013230085 0.7134912
-0.056436915 -0.0038921535 0.71386737
-0.056436915 -0.0038921535 0.71386737
0.039988905 0.013060905 0.71296978
0.039988905 0.013060905 0.71296978
-0.039093893 0.016838213 0.71300012
-0.020995874 0.041021485 0.71321678
-0.019342443 0.04118184 0.71233523
-0.010804166 0.054858495 0.71343493
-0.0019244649 0.063507348 0.71212631
0.00065640395 -0.043979049 0.71572727
0.041169807 -0.03512501 0.71502352
-0.061036587 -0.0070294789 0.71513623
-0.060581587 -0.0052482537 0.71565783
-0.045097899 0.012938234 0.71474189
-0.041039288 0.018886179 0.71502125
-0.031677306 0.029724469 0.71439803
-0.016965333 0.051002923 0.71528673
0.041169807 0.060937859 0.71502352
0.04238227 -0.046852268 0.71713209
-0.057271957 0.0013216734 0.71664214
-0.050515875 0.012628973 0.71772587
-0.042867325 0.021091586 0.71704429
-0.032916903 0.034906521 0.71739149
-0.012930204 0.060935318 0.71733248
0.006715416 -0.046336383 0.71938181
-0.042106204 -0.036759377 0.71861196
-0.064587124 -0.0013455451 0.71968144
-0.063037015 -0.001004532 0.71893859
-0.060571186 0.0040381253 0.71973705
-0.060571186 0.0040381253 0.71973705
-0.052856319 0.014308207 0.71981227
-0.048661705 0.018626023 0.71929622
-0.044627856 0.024781507 0.71968114
-0.042465422 0.028310299 0.71998841
-0.03564737 0.032981947 0.71811724
-0.029011391 0.043056589 0.71872783
-0.029011391 0.043056589 0.71872783
-0.014942829 0.062957078 0.71938086
0.043627582 0.062924422 0.71929783
-0.029168541 -0.040021926 0.72102261
0.0449071 -0.013097897 0.72152299
0.0449071 0.016840175 0.72152299
-0.0404258 0.034975447 0.72174579
0.0449071 0.04507722 0.72152299
-0.028941818 0.049076345 0.72133589
-0.027146211 0.049334817 0.72041571
-0.023151813 0.05517 0.72068238
0.046222247 -0.047084585 0.72381008
0.046222247 -0.038978443 0.72381014
0.046222247 -0.038978443 0.72381014
-0.059381682 -0.035214722 0.72395509
0.046222247 -0.032941952 0.72381008
-0.037562311 0.039611161 0.72213638
-0.037562311 0.039611161 0.72213638
-0.029175937 0.05105754 0.72234225
-0.022639556 0.062745087 0.72371978
0.034600768 -0.053285152 0.72432464
-0.06510371 0.010880247 0.72535706
-0.060878955 0.016846588 0.72554874
-0.056860127 0.021058455 0.72508734
-0.045015123 0.036875289 0.72522449
-0.040855564 0.042945888 0.72549963
-0.034211759 0.052364945 0.7258175
0.034465138 -0.054159492 0.72706592
-0.016796937 -0.04409194 0.72622144
0.04757436 0.021163613 0.72616124
-0.053158045 0.029090788 0.72648907
-0.04757873 0.035684019 0.72617674
0.04757436 0.047049649 0.72616124
-0.02938438 0.059468389 0.72616249
0.048965558 -0.050917074 0.72858095
0.048965558 -0.015079945 0.72858095
0.048965376 -0.0051448941 0.72858036
-0.067113779 0.016912352 0.72916812
-0.05643471 0.032146364 0.72971988
-0.046742059 0.044422515 0.72953892
0.048965376 0.05091691 0.72858036
-0.034282681 0.061066493 0.7296859
-0.031704091 0.061282523 0.72829628
0.00791205 -0.050349414 0.73090625
-0.044368267 -0.040074557 0.73002261
0.050396815 0.00089995563 0.73106968
-0.067180783 0.021054372 0.7310288
0.050396815 0.025018446 0.73106968
-0.053557441 0.037078828 0.73023307
-0.051542066 0.039372444 0.73008168
-0.042823538 0.052899398 0.73101151
-0.042823538 0.052899398 0.73101151
-0.03917126 0.05713933 0.73077357
-0.0308391 0.069025278 0.73120433
0.051870465 -0.046939105 0.7336325
0.051870465 -0.046939105 0.7336325
0.051870465 -0.034884714 0.7336325
0.051870465 0.0069404393 0.7336325
-0.071042791 0.020858057 0.73316634
-0.068020254 0.026330471 0.73383301
-0.063478455 0.029019006 0.73240042
-0.069830135 -0.036752671 0.73471498
-0.057564802 0.041066214 0.73429489
-0.035921682 0.069278017 0.73424226
-0.028220747 -0.045301706 0.73654914
0.053388223 0.040968083 0.73627198
-0.053349432 0.053051818 0.73714006
0.053388223 0.056910388 0.73627198
0.049635034 -0.060915709 0.73881733
0.029986974 -0.056975275 0.73824477
0.054952096 -0.02502954 0.73899174
-0.061271977 0.045516234 0.73838729
-0.058186173 0.052519217 0.7396909
-0.058186173 0.052519217 0.7396909
-0.0542158 -0.041998118 0.74160731
0.056564227 -0.039174542 0.7417953
0.056564227 -0.023122534 0.7417953
0.056564227 0.028855428 0.74179536
0.056564227 0.037072524 0.7417953
-0.071101271 0.038979024 0.7411716
0.056564227 0.047009483 0.7417953
0.056564227 0.047009483 0.7417953
