# .PCD v0.7 - Point Cloud Data file format
VERSION 0.7
FIELDS x y z
SIZE 4 4 4
TYPE F F F
COUNT 1 1 1
WIDTH 1328
HEIGHT 1
VIEWPOINT 0 0 0 1 0 0 0
POINTS 1328
DATA ascii
-0.02067532 -0.0094678504 0.69720495
-0.017668566 -0.0081100464 0.69711047
0.0026136609 0.0026142523 0.69748867
0.0029141172 0.0034970045 0.69796336
0.015264956 0.0085022748 0.69720495
0.017461028 0.010476649 0.6977728
0.024686228 0.013650537 0.69748861
0.027627829 0.015413947 0.69767833
0.027627829 0.015413947 0.69767833
0.042373952 0.022348315 0.69739401
0.0026317516 -0.039774373 0.69846886
0.0026317516 -0.039774373 0.69846886
-0.0041052722 -0.038706839 0.69884306
-0.0316591 -0.03341791 0.69879776
-0.050585907 -0.022514619 0.69844192
-0.043508992 -0.019272327 0.69824994
-0.039528348 -0.016689248 0.69863421
-0.039528348 -0.016689248 0.69863421
-0.020482114 -0.0073146373 0.69853789
-0.016667167 -0.0055552348 0.69844198
-0.014327943 -0.0043856278 0.69844198
-0.011419442 -0.0026347935 0.69863421
-0.0073003313 -0.0011679977 0.69824994
-0.0044804607 0.00038990378 0.69834584
-0.0013673347 0.0025396149 0.69873041
0.0044926722 0.0054696202 0.69873041
0.0064459997 0.0064460039 0.69873029
0.0095453281 0.0074027879 0.69834584
0.0316872 0.019364417 0.69892341
0.035016891 0.019842893 0.69815445
0.038518574 0.021593779 0.69815445
0.040699076 0.023424059 0.69863391
-0.049017847 -0.030709952 0.69983506
-0.036581136 -0.013570398 0.69970036
-0.023042344 -0.0064991117 0.69989616
-0.01148198 -0.0014716089 0.69940847
-0.0099892057 -0.001175195 0.69911665
0.02353619 0.015886962 0.69931078
0.027534282 0.018487584 0.69970083
0.037265684 0.022751978 0.69931096
0.042580478 0.025509715 0.69937611
-0.019609323 -0.03684175 0.70071518
-0.018965503 -0.036745638 0.70034099
-0.043870561 -0.032013625 0.70038289
-0.043870561 -0.032013625 0.70038289
-0.054131292 -0.030337334 0.7008667
-0.052665848 -0.030179292 0.70011866
-0.055590395 -0.029569328 0.70003086
-0.056618914 -0.022528887 0.70038784
-0.055509806 -0.021669105 0.70058572
-0.051290181 -0.019406796 0.70068449
-0.043841913 -0.016292199 0.70028937
-0.030765416 -0.010057896 0.70009249
-0.02958213 -0.0094662607 0.70009249
-0.019605102 -0.0035645366 0.70068431
-0.019605102 -0.0035645366 0.70068431
-0.015689539 -0.0023681819 0.7001909
-0.014525451 -0.0014817417 0.70038807
-0.010404046 0.0011890382 0.70078361
-0.0095055215 0.0014856458 0.70068455
-0.0035645706 0.0044561327 0.70068455
0.0095186597 0.011303455 0.70088279
-0.011655062 -0.038848892 0.70154893
-0.05810865 -0.020967036 0.70188272
-0.057429731 -0.02093792 0.70168197
-0.054548144 -0.020269185 0.70118129
-0.041490421 -0.013431646 0.70138139
-0.038559038 -0.011656895 0.70158172
-0.035520636 -0.01044675 0.70138156
-0.031419173 -0.0085505154 0.70128125
-0.027442025 -0.0065622032 0.70128107
-0.027442025 -0.0065622032 0.70128107
-0.01737269 -0.00059905648 0.70188284
-0.0065531489 0.0035744309 0.70108187
0.011657112 0.013451189 0.70158184
0.01551071 0.014914155 0.70128107
0.02204241 0.017872244 0.70108187
0.026565492 0.020596303 0.70138156
0.03129784 0.022653863 0.70118141
0.040408149 0.028136209 0.70178235
-0.026545972 -0.036802351 0.70291102
-0.058434226 -0.019879639 0.7026931
-0.020424953 -0.0015013814 0.70228732
-0.011997887 0.0023996234 0.7020846
-0.012249127 0.003213197 0.70269346
0.0024096672 0.010542721 0.70269358
0.0045147454 0.011437893 0.70259154
0.0057027689 0.011405975 0.70218587
0.010534687 0.014447853 0.7025916
0.020482171 0.019579008 0.70269358
0.027749971 0.023527145 0.70289719
0.040520951 0.028815046 0.70218587
0.00060674141 -0.042471886 0.70373768
0.00060674141 -0.042471886 0.70373768
-0.041540436 -0.01048563 0.70330703
-0.032342687 -0.0060453117 0.70320439
-0.03080951 -0.0054369867 0.70310193
-0.029444214 -0.0036425591 0.70382249
-0.026371503 -0.0024249107 0.70361578
-0.022414934 -0.00060579181 0.70351255
-0.019761955 0.000403593 0.70330709
-0.01941325 0.0012133718 0.70371902
-0.0093021942 0.0062691672 0.70371914
-0.0033251392 0.0084634572 0.70320433
0.0075777429 0.014549717 0.70361578
0.022585114 0.021577161 0.70330727
0.025692448 0.022972271 0.70320451
0.027184863 0.023560196 0.70310193
0.030737689 0.026289117 0.70371926
0.03364601 0.027584292 0.70361614
0.035464626 0.028493136 0.70361578
0.040368095 0.030680537 0.70344448
0.042466484 0.032153249 0.70371902
0.037802987 -0.049997479 0.70445812
-0.017117647 -0.039737374 0.70484895
-0.036028959 -0.036028951 0.70468378
-0.05752968 -0.03165631 0.7042287
-0.059621189 -0.018251389 0.70413315
-0.057350017 -0.016472876 0.70455009
-0.057350017 -0.016472876 0.70455009
-0.023249976 0.0012236834 0.70496893
-0.01957893 0.0030592382 0.70496893
-0.011013146 0.0073421001 0.70496899
-0.0036710491 0.01101315 0.70496899
0.0024335179 0.012775958 0.70413309
0.007513992 0.015637528 0.70434153
0.0095719267 0.017311236 0.70475948
0.018251384 0.020684898 0.70413315
-0.047312316 -0.034408927 0.70559764
-0.039381966 -0.0055380762 0.70581436
-0.038151275 -0.0049227178 0.7058143
-0.028552424 -0.00061401725 0.70549631
-0.02736298 0.00030767918 0.70570815
0.00030635684 0.013489351 0.70528507
0.014317065 0.020657789 0.70539069
0.018460294 0.023383051 0.7058143
0.019458061 0.023554813 0.70560235
0.020921668 0.024613768 0.7058143
0.027363025 0.027670711 0.70570838
0.031248398 0.028797537 0.70517951
0.040612649 0.034459263 0.7058143
0.032116268 -0.050027251 0.7063641
0.02169292 -0.048344225 0.70688969
-0.057960261 -0.032679707 0.70611739
-0.057960261 -0.032679707 0.70611739
-0.049914259 -0.010475814 0.70602733
-0.024358597 0.0024666935 0.70613408
-0.018566554 0.0061888397 0.70666939
-0.013595948 0.0083434284 0.70645517
-0.013015328 0.0092966855 0.70688486
-0.0006171104 0.014502555 0.70624101
0.010505921 0.020393848 0.70645458
0.010505921 0.020393848 0.70645458
0.040054649 0.034508646 0.70602727
0.041525096 0.036566913 0.70688486
0.01060286 -0.046777308 0.70783126
0.011490691 -0.046585575 0.70721412
-0.024562592 -0.039796889 0.70737958
-0.060379442 -0.013382599 0.70753449
-0.060379442 -0.013382599 0.70753449
-0.048412301 -0.0080687106 0.70710039
-0.043446936 -0.0055860281 0.70710045
-0.043446936 -0.0055860281 0.70710045
0.001241341 0.016758114 0.70710039
0.022671115 0.027640104 0.70720899
0.023359258 0.028654337 0.70764339
0.031411689 0.032344952 0.70742577
0.042315319 -0.053286493 0.7086044
0.015698986 -0.048352867 0.70886016
0.016571773 -0.048153192 0.70823407
-0.039450858 -0.037572205 0.70843637
-0.053382713 -0.03516978 0.70887768
-0.042353924 -0.0025098473 0.70874012
-0.025116803 0.0062792003 0.70885068
-0.021616152 0.0075185895 0.70851952
-0.015070083 0.011302561 0.70885062
-0.004389029 0.016302109 0.70862949
-0.0034462523 0.016604051 0.70851988
0.0031259111 0.019380659 0.70818967
0.010337854 0.023496106 0.70852
0.029469293 0.033231348 0.70863003
0.038136117 0.036885768 0.70818967
0.04269857 0.040186912 0.70885062
0.034405649 -0.05239825 0.70966768
0.035206251 -0.052180678 0.7090348
0.027779453 -0.051139414 0.70967901
0.018273257 -0.049148768 0.70937985
0.0085011721 -0.047231138 0.70929217
-0.0015760858 -0.045378655 0.70941544
-0.0015760858 -0.045378655 0.70941544
-0.047512338 -0.0044050813 0.70918369
-0.047370762 -0.0034733564 0.70974147
-0.032456689 0.0034666955 0.70940644
-0.020542622 0.010113195 0.70985341
-0.019579915 0.010422051 0.70974147
-0.017356731 0.01136063 0.70962936
-0.017078534 0.012018263 0.70996559
-0.014548381 0.013283312 0.70996559
-0.0085082334 0.015440926 0.7094065
0.0031441937 0.020751715 0.70907241
0.0083968043 0.023721289 0.70929492
0.019551143 0.029642075 0.70951742
0.024524711 0.031441927 0.70907241
0.025934068 0.033524543 0.70996559
0.037608139 0.039188549 0.70985341
0.040708646 0.040393323 0.70962936
-0.056545481 -0.0066706091 0.71064258
-0.052655481 -0.0050752163 0.7104159
-0.039544534 0.0014805894 0.71041608
-0.037540615 0.0031814575 0.71086931
-0.023472926 0.0095160902 0.71041584
-0.0084712263 0.01736635 0.71064252
0.037429798 0.039967448 0.71041584
0.041645408 0.04259938 0.71075577
0.012132404 -0.04916814 0.71141636
-0.007653614 -0.045283854 0.71123612
-0.007653614 -0.045283854 0.71123612
-0.034452111 -0.040194094 0.71128464
-0.031282749 -0.040859103 0.71138644
-0.057350047 -0.0063722134 0.71109653
-0.057350047 -0.0063722134 0.71109653
-0.051691674 -0.0031908154 0.71132493
-0.046370775 2.9802322e-08 0.71166885
-0.0086219218 0.018520683 0.71143949
-0.001599222 0.022385776 0.71166885
0.018562015 0.032643557 0.71178377
0.027441259 0.036375642 0.71132487
0.027441259 0.036375642 0.71132487
0.031695768 0.038503252 0.71132517
0.033135694 0.038870722 0.71109706
0.046586324 0.045948148 0.71132493
0.04461208 -0.055845901 0.71222734
-0.012517154 -0.044931725 0.71222138
-0.019607104 -0.043713182 0.71245289
-0.061722197 -0.0064293444 0.71247661
-0.035414528 0.0070829093 0.71270871
-0.026399922 0.011590242 0.71270871
-0.024468316 0.012556612 0.71270931
-0.021587092 0.014176458 0.7128253
-0.016666569 0.015384525 0.71201366
-0.012663411 0.018458873 0.71270913
-0.011607599 0.019345999 0.71294188
-0.0054611522 0.021522924 0.71236092
0.010632087 0.030286059 0.7128253
0.033482961 0.041532248 0.71270931
0.01616689 -0.051087379 0.71337861
0.019413322 -0.05176881 0.71348363
-0.02387041 -0.043224782 0.71300942
-0.056356855 -0.00194332 0.71364522
-0.053604346 -0.0012916923 0.71317583
-0.039395966 0.0058125257 0.71317577
-0.039395966 0.0058125257 0.71317577
-0.029407868 0.010987476 0.71329308
-0.017437559 0.016791731 0.71317577
-0.0025872295 0.02457872 0.71341044
-0.0025872295 0.02457872 0.71341044
0.014585804 0.033710003 0.71376324
0.03651692 0.043949887 0.71329308
-0.026391286 -0.043658853 0.71457362
-0.037227027 -0.041798711 0.71493095
-0.061353423 -0.0026107728 0.71483207
-0.061353423 -0.0026107728 0.71483207
-0.056415156 -0.00032585859 0.71471262
-0.050392997 0.0019506961 0.7142365
-0.041415021 0.0071742237 0.71471262
-0.037388414 0.0084529966 0.7142365
-0.035572778 0.0095442636 0.71435541
-0.035572778 0.0095442636 0.71435541
-0.021473838 0.016593948 0.71435559
-0.014554798 0.020420512 0.71459341
-0.0084465984 0.022740841 0.71411806
0.0026028878 0.028631777 0.71435553
0.0084593911 0.03156054 0.71435559
0.0084593911 0.03156054 0.71435559
0.042513855 0.048587602 0.71435559
-0.044654407 0.0072235167 0.7157945
-0.039559465 0.0093984511 0.71555293
-0.03055191 0.013530463 0.715312
-0.018331097 0.019640476 0.71531153
0.02946081 0.043537036 0.71531218
0.039698735 0.049213633 0.71567357
0.043635823 0.051182166 0.71567357
0.02933445 -0.055373788 0.71640509
0.001648082 -0.050116241 0.71645641
-0.046448864 -0.04084824 0.71631593
-0.06354557 -0.037534386 0.7162329
-0.059464607 0.0013214648 0.71676874
-0.042749669 0.0085499287 0.71603715
-0.038803548 0.010523021 0.71603703
-0.036283709 0.01253438 0.71652395
-0.027665101 0.016467363 0.7162798
-0.024334343 0.017757535 0.7160365
-0.024334343 0.017757535 0.7160365
-0.021142973 0.020482272 0.71676874
-0.0046038106 0.027622879 0.71603709
0.0056115389 0.033670768 0.71664631
0.0056115389 0.033670768 0.71664631
0.0184434 0.039521575 0.7162798
0.023529474 0.042441361 0.71652412
0.034554727 0.047389716 0.71615839
0.010618834 -0.052430481 0.71748316
-0.058280688 -0.03907454 0.71714598
-0.065511547 -0.0013234317 0.71701372
-0.050369237 0.0066275299 0.71726012
-0.030486643 0.01656884 0.71726012
-0.026510123 0.018557101 0.71726006
-0.017479479 0.023453832 0.71750748
-0.011589507 0.025827497 0.71713686
-0.0086158104 0.027504861 0.71726042
0.00033086637 0.031787694 0.71713686
0.012611755 0.038499057 0.71750712
0.012611755 0.038499057 0.71750712
0.022568459 0.043478012 0.71750754
0.041283671 -0.058596164 0.7180115
0.02336142 -0.055399925 0.71839863
0.0053526252 -0.052188069 0.71878707
-0.02940823 -0.045449078 0.71861583
-0.040136646 -0.04348135 0.71875465
-0.065634944 0.00033344328 0.71812773
-0.061351463 0.0026674867 0.71825248
-0.048605643 0.0086557865 0.71800309
-0.035398699 0.016029596 0.71850264
-0.016645767 0.024635762 0.71800309
-0.0099874604 0.02796492 0.71800315
-0.0080272732 0.030102283 0.71875358
-0.0024489709 0.032504879 0.71850288
-0.0024489709 0.032504879 0.71850288
0.015314107 0.040615678 0.71800309
0.020323332 0.043312564 0.71812785
0.021972414 0.043944836 0.71800309
0.02729906 0.04660818 0.71800303
0.036315665 0.051308751 0.71812773
0.039406095 0.053431988 0.71850264
0.042378485 0.054725334 0.71837753
-0.012743246 -0.048960894 0.71917796
-0.038382508 -0.044442892 0.71982497
-0.060680233 0.0043585449 0.71913099
-0.060581248 0.0053850114 0.71976405
-0.039652418 0.01545772 0.71951056
-0.031489048 0.018759459 0.71900475
-0.028630476 0.020578524 0.71925753
0.0043580057 0.036877662 0.71913099
0.0060298177 0.037518889 0.71900475
0.0093943598 0.039590567 0.71925724
0.012404039 0.040900677 0.71913099
0.012442837 0.041701227 0.71963727
0.028496103 0.048946723 0.71913099
0.038188849 0.053598374 0.71900475
0.043548681 0.056278318 0.71900475
0.043382432 0.057171017 0.71963733
0.027730562 -0.05749017 0.72054392
0.016923547 -0.05550921 0.72068554
0.010139854 -0.054079175 0.72045583
0.0027082199 -0.052810252 0.72071284
-0.065395534 0.0033709109 0.72001898
-0.058454361 0.007433489 0.7204026
-0.050563559 0.010786951 0.72001892
-0.043665584 0.014630596 0.72027493
-0.02745977 0.022733441 0.72027481
-0.015506158 0.028315604 0.72001898
-0.015506158 0.028315604 0.72001898
-0.012502031 0.030409724 0.72040284
-0.012502031 0.030409724 0.72040284
0.007439299 0.040578038 0.72053057
0.017611507 0.04606086 0.72078788
0.019612769 0.046664864 0.72053117
0.029395776 0.05135861 0.72040284
0.030338136 0.051237732 0.72001898
0.045614287 0.059467882 0.72040296
0.046518475 0.05932793 0.72001898
0.012249317 -0.055121928 0.72154886
0.012891227 -0.0549573 0.72105825
-0.0013571985 -0.052252144 0.72108567
-0.020469224 -0.049126118 0.72198093
-0.029868267 -0.04683885 0.72113997
-0.062615678 -0.040836304 0.72156996
-0.06342072 0.0063424408 0.72130501
-0.046352893 0.015678197 0.72182465
-0.031886436 0.021709919 0.72104597
-0.023461791 0.026521742 0.72143447
-0.018375684 0.029264957 0.72156405
-0.011569874 0.032667905 0.72156411
-0.007486389 0.034709662 0.72156411
-0.0054532816 0.036128014 0.72182465
0.0074627833 0.041384548 0.72104597
0.0095131034 0.04280898 0.72130489
0.02238835 0.048847347 0.72104597
0.032616355 0.054360628 0.72130489
0.032616355 0.054360628 0.72130489
0.03731392 0.056310117 0.72104597
0.04046236 0.058483794 0.72143447
0.041384526 0.058345407 0.72104597
0.048168875 0.061737627 0.72104597
-0.043190744 -0.045247436 0.72276795
-0.05530218 0.011606634 0.72208607
-0.055478223 0.012328506 0.72261077
-0.052571204 0.012972116 0.72208607
-0.023896003 0.027309746 0.72208607
-0.017479576 0.031531304 0.72274268
-0.015703088 0.031406194 0.72208607
-0.013676583 0.032823831 0.72234827
0.025663707 0.05269672 0.72247958
0.036613669 0.05817169 0.72247952
0.048991371 -0.063481748 0.72384274
-0.015123046 -0.050868422 0.72321302
-0.044420831 -0.045453325 0.72352105
-0.063900866 0.0089323521 0.72313941
-0.061348356 0.011028945 0.72367084
-0.051615506 0.015485227 0.72340512
-0.041424874 0.021402836 0.72393817
-0.041424874 0.021402836 0.72393817
-0.036416624 0.022674531 0.72313941
-0.030919774 0.025422961 0.72313941
-0.02130029 0.030232698 0.72313935
-0.0024070665 0.039883986 0.72327191
0.027572367 0.055489972 0.72367126
0.033350989 0.05776301 0.72327191
0.044495758 0.064157084 0.72380447
0.050158743 0.065962195 0.72313941
0.023485422 -0.058713526 0.72401857
0.0083156694 -0.056130737 0.72455567
-0.0027743634 -0.054100066 0.72470498
-0.067471452 -0.041520566 0.72432327
-0.068681762 0.0090188384 0.72474462
-0.0595668 0.013160139 0.72447473
-0.056194168 0.015262634 0.72474468
-0.046332199 0.019362718 0.72420633
-0.029461116 0.028421074 0.72460967
-0.022626217 0.031630903 0.72447526
-0.010372881 0.037342399 0.72420633
-0.0093578696 0.038472682 0.72460973
-0.00069152535 0.042183071 0.72420633
-0.00069152535 0.042183071 0.72420633
0.0076313065 0.047175348 0.72474468
0.014568858 0.05064413 0.72474462
0.048484605 0.067185819 0.72447473
0.036827389 -0.061842173 0.72501051
0.011129521 -0.057038784 0.72518885
-0.0076707969 -0.053695589 0.72561133
-0.047332797 -0.045940638 0.72530365
-0.066708162 0.010423154 0.72501546
-0.050419629 0.018776864 0.72515118
-0.050419629 0.018776864 0.72515118
-0.044472106 0.021541208 0.72501534
-0.040433433 0.024399489 0.725559
-0.028628685 0.030723482 0.72583234
-0.023625808 0.031964362 0.7250154
-0.0076808669 0.041197389 0.72583234
-0.0045206277 0.041726276 0.72515094
0.00034799965 0.044580087 0.72542274
0.013604757 0.051629409 0.72569567
0.016059995 0.053067833 0.72583234
0.025561443 0.057397448 0.72555941
0.030624107 0.059508786 0.72528714
0.034535587 0.062094808 0.72569561
0.0385966 0.063284993 0.72515124
0.042424016 -0.063812122 0.72654974
0.02065926 -0.059528232 0.72633255
-0.0049000075 -0.05460006 0.7262525
-0.019603416 -0.051809013 0.72628176
-0.049452357 -0.046295285 0.72660089
-0.064554349 0.014033556 0.72665733
-0.063618898 0.014501761 0.72665757
-0.061546918 0.014687359 0.72610664
-0.052711878 0.020381927 0.72693425
-0.052711878 0.020381927 0.72693425
-0.049585313 0.021518549 0.72665757
-0.049585313 0.021518549 0.72665757
-0.041466679 0.026004523 0.72693431
-0.041466679 0.026004523 0.72693431
-0.039293949 0.02666378 0.72665727
-0.034326173 0.028721899 0.72638118
-0.034326173 0.028721899 0.72638118
-0.01958311 0.035669237 0.72610664
-0.014711216 0.038529366 0.72638124
-0.01439644 0.039326087 0.72679579
0.012630199 0.052625865 0.72665733
0.012630199 0.052625865 0.72665733
0.021383446 0.056789592 0.72651929
0.040379167 0.066713914 0.72679579
0.041565016 -0.064108729 0.7273367
-0.069022581 -0.042962998 0.72729331
-0.069807708 0.012692302 0.72749037
-0.069807708 0.012692302 0.72749037
-0.059328113 0.018363476 0.72777015
-0.026464328 0.034579694 0.72763026
-0.0063461559 0.044423103 0.72749043
-0.0056318087 0.044350505 0.72721219
0.00035256418 0.047557592 0.72735131
0.0074096411 0.051516697 0.7276302
0.017628208 0.056410313 0.72749037
0.019508613 0.057351016 0.7274909
0.030647736 0.062705174 0.72735131
0.030647736 0.062705174 0.72735131
0.036537305 -0.063852549 0.72853923
-0.011331401 -0.054532409 0.72823501
-0.040457647 0.029101104 0.72861415
-0.025552269 0.03655453 0.72861469
-0.017375648 0.040424317 0.72847295
-0.00070861646 0.048540816 0.7283324
0.0044953022 0.051578097 0.72861451
0.033250127 0.065085381 0.72805077
0.037494823 0.067207694 0.72805077
0.050600775 -0.066992551 0.72931516
-0.012827789 -0.05487442 0.72930741
-0.031339109 -0.051282167 0.72921032
-0.069490962 0.01567997 0.72932434
-0.066338539 0.017476901 0.72946745
-0.058491778 0.021399438 0.72946668
-0.054211892 0.023539394 0.72946668
-0.049534671 0.025658116 0.72932434
-0.033581506 0.034296036 0.72975296
-0.030723505 0.035725027 0.72975296
-0.029578373 0.035636261 0.72932434
-0.020651922 0.03987959 0.729182
-0.015004503 0.043584526 0.7297529
0.009257758 0.054834425 0.729182
0.035338111 0.068535134 0.72960979
0.02297513 -0.062463611 0.7305913
-0.017915543 -0.054463267 0.73026514
0.053089153 -0.017576799 0.73045814
0.053089153 -0.016500652 0.73045802
0.053089052 -0.012554824 0.73045772
0.053088952 -0.011478692 0.73045743
0.053089153 0.011478752 0.73045802
-0.066478126 0.019404367 0.73076183
-0.065454483 0.020139903 0.73090684
-0.064321488 0.020482674 0.73076189
-0.061754741 0.021542341 0.73061681
0.05308935 0.025468543 0.73045874
-0.047393173 0.02872315 0.73061681
-0.028387528 0.038449645 0.73076177
-0.017176555 0.042941391 0.73004013
-0.0043084701 0.050265521 0.73061681
-0.0035844173 0.050181836 0.73032832
0.0064519513 0.05520004 0.73032832
0.0093194852 0.05663383 0.73032832
0.014361568 0.059600502 0.73061681
0.027286978 0.066063225 0.73061681
0.030058973 0.066559166 0.73004013
0.032921731 0.067990541 0.73004019
0.022327706 -0.062661648 0.73114073
-0.05124018 0.028146058 0.73148936
-0.05124018 0.028146058 0.73148936
-0.015529744 0.046227217 0.73163581
-0.0075717382 0.049755171 0.73134369
0.0025235103 0.054802805 0.73134369
0.0086748777 0.058555454 0.73178238
0.013362238 0.060673177 0.73163581
-0.025464432 -0.054566622 0.73290473
-0.070240065 0.019551367 0.73207641
-0.061135191 0.025473028 0.73296374
-0.058367949 0.026399206 0.73266733
-0.057302408 0.026475787 0.73237157
-0.048516329 0.03041321 0.73207641
-0.039826836 0.034757972 0.73207641
-0.021452259 0.045085475 0.73281527
-0.017408311 0.046422184 0.73237139
-0.017408311 0.046422184 0.73237139
-0.01160554 0.049323559 0.73237139
0.0014555997 0.056768388 0.73296374
0.038685918 -0.067152917 0.73347634
0.01535717 -0.062891245 0.73380727
-0.030730864 -0.05414483 0.73390222
-0.041611195 -0.051831454 0.7335
-0.045929164 0.0335356 0.73326182
-0.046085317 0.034381121 0.73386014
-0.041696236 0.036575645 0.73386019
-0.040233213 0.037307143 0.73386025
-0.0073027015 0.053309739 0.7335602
-0.0036575648 0.055595011 0.73386019
-0.0036575648 0.055595011 0.73386019
0.013498257 0.063479751 0.73341095
0.02943591 -0.066230774 0.73491877
0.030074408 -0.066016972 0.73434526
-0.071199097 0.022754341 0.73446339
-0.062390961 0.027158439 0.73446327
-0.058821127 0.029410601 0.73476577
-0.037434578 0.039636642 0.73446333
-0.015414238 0.050646782 0.73446333
0.0073526409 0.062497437 0.73476577
0.011367165 0.063804582 0.7343123
0.028626442 0.072667122 0.73446333
-0.0022156741 -0.060561717 0.73556095
-0.013263486 -0.058211923 0.73515111
-0.013263486 -0.058211923 0.73515111
-0.069969781 0.024305314 0.73506993
-0.069471404 0.025498167 0.73568159
-0.066629417 0.027392119 0.73598802
-0.055429261 0.032518506 0.73568141
-0.052383117 0.033570126 0.7353757
-0.044267293 0.03762722 0.73537517
-0.037691895 0.04138723 0.73568141
-0.030301329 0.04508248 0.73568141
-0.021359196 0.048610598 0.73506993
-0.014755764 0.052383035 0.73537517
-0.014755764 0.052383035 0.73537517
-0.010329035 0.054596335 0.73537517
-0.0036952838 0.058385491 0.73568141
0.013637072 0.066344097 0.73522252
0.018476421 0.069471329 0.73568141
0.027251389 0.072915882 0.73506999
0.046844214 -0.070638061 0.73676836
0.046844214 -0.070638061 0.73676836
-0.062538803 -0.049882144 0.73699784
-0.072802819 0.025258094 0.73660588
-0.051170684 0.035597026 0.73629636
-0.041601613 0.040858775 0.73660582
-0.02604592 0.049115181 0.73691571
-0.02604592 0.049115181 0.73691571
-0.0052091843 0.059533566 0.73691559
-0.003720846 0.06027773 0.73691565
0.0066744378 0.064519614 0.73629636
0.020446688 0.072122201 0.73676074
0.0067281029 -0.0635432 0.73773599
-0.027558062 -0.056605697 0.73707092
-0.063474171 0.031363726 0.73753989
-0.062618621 0.031309336 0.73722726
-0.047709428 0.038763911 0.73722726
-0.044727586 0.040254831 0.7372272
-0.044727586 0.040254831 0.7372272
-0.025433855 0.050867736 0.73785365
-0.014909197 0.055164039 0.73722726
0.0164572 0.071813256 0.73785371
0.017533198 0.071626335 0.7373836
0.041268971 -0.070532411 0.73840666
-0.018035641 -0.059367299 0.73868191
-0.068191372 0.029974252 0.73816776
-0.068191372 0.029974252 0.73816776
-0.02141298 0.054095134 0.73864228
-0.013511959 0.057801187 0.73848379
-0.011240336 0.058449745 0.73816782
-0.00524549 0.061447173 0.73816782
-0.0015013288 0.063806504 0.73848379
0.0093918424 0.069497541 0.73864228
0.014287576 0.072189867 0.73880076
-0.063276827 0.033898294 0.73911893
-0.039171368 0.045951039 0.73911899
-0.024503879 0.053530857 0.73927826
-0.017356148 0.057350785 0.73943752
0.050896462 -0.073685884 0.74065268
0.023497831 -0.068219513 0.74025339
0.018998265 -0.067633808 0.74072081
-0.068349563 -0.050882459 0.74060231
-0.07345558 0.030290991 0.7400794
-0.070675239 0.032677799 0.74072516
-0.067635439 0.034197748 0.74072516
-0.036413163 0.049309492 0.74040133
-0.0311579 0.052436471 0.74072516
-0.0311579 0.052436471 0.74072516
-0.018602651 0.058464453 0.74056327
-0.0094739264 0.062530473 0.74024045
-0.0007599488 0.067635477 0.74072516
0.0045516454 0.069791883 0.74040145
0.0053196414 0.070675254 0.74072516
0.034305308 -0.070897609 0.74130255
-0.049559258 -0.054896414 0.74132907
-0.069341034 -0.051053286 0.74121785
-0.061447069 0.038548112 0.74153948
-0.061447069 0.038548112 0.74153948
-0.058063854 0.040491909 0.7417028
-0.024447938 0.057299882 0.7417028
0.0053385189 0.071688712 0.74137628
0.0064878976 0.072515607 0.74153948
0.0091679767 0.074107826 0.7417028
0.0091679767 0.074107826 0.7417028
0.012180717 0.074606925 0.74105012
0.053575955 -0.075006336 0.74203414
0.041370597 -0.072781593 0.74221551
0.013039395 -0.067498028 0.74243313
-0.059495449 -0.053737223 0.74259043
-0.068116903 0.03597188 0.74203122
-0.055537634 0.042515635 0.74219602
-0.04259076 0.049498096 0.74252582
-0.033735842 0.053670645 0.74236083
-0.029955538 0.056070656 0.7426908
-0.0095751714 0.065496862 0.74219602
-0.00076809066 0.070664376 0.7426908
0.003453674 0.072520331 0.74252582
0.040108979 -0.073275983 0.74347198
-0.017009284 -0.062625051 0.7439121
-0.017009284 -0.062625051 0.7439121
-0.071688652 0.036229759 0.74335599
-0.065521881 0.039313197 0.74335593
-0.050784737 0.04616797 0.7430228
-0.0077223056 0.068728536 0.74369025
0.002312537 0.073230356 0.74335593
0.0053959196 0.07477203 0.74335593
-0.013564793 -0.063557625 0.74438143
-0.047190659 0.049511522 0.74402511
-0.046500731 0.050375789 0.74436188
-0.032550514 0.057350904 0.74436182
-0.029450463 0.058900952 0.74436182
-0.02480039 0.061225981 0.74436188
-0.0046500731 0.071301132 0.74436182
-0.0031239016 -0.066382885 0.74580145
-0.006221368 -0.065324366 0.7450037
-0.010915927 -0.064715832 0.74549574
-0.035036832 -0.059951901 0.7452271
-0.07025753 0.040593237 0.74572027
-0.062225368 0.043557763 0.74503899
-0.058441799 0.045974225 0.74537867
-0.058441799 0.045974225 0.74537867
-0.038890857 0.055225015 0.74503899
-0.038890857 0.055225015 0.74503899
-0.014051505 0.06869626 0.74572027
-0.0015556342 0.073892623 0.74503899
0.053345468 -0.077664733 0.74665046
0.004693456 -0.068055123 0.7461074
0.0086116744 -0.068893373 0.74626112
-0.045553286 -0.058905095 0.74686998
-0.048487693 -0.057872385 0.74606317
-0.069857217 0.04238528 0.74675196
-0.058868445 0.047879696 0.74675202
-0.042308021 0.055627197 0.74640661
-0.026638383 0.063462079 0.74640661
-0.022679728 0.064910918 0.74606317
-0.022679728 0.064910918 0.74606317
-0.024332289 0.065147758 0.74675196
0.0023547378 0.0784913 0.74675202
0.019687902 -0.071663946 0.74738055
-0.022099439 -0.063930482 0.74780297
-0.022099439 -0.063930482 0.74780297
-0.063810967 0.046479613 0.7474466
-0.058403242 0.049721688 0.74779505
-0.046479598 0.055145323 0.74744654
-0.046479598 0.055145323 0.74744654
-0.037744731 0.058976173 0.74709862
0.0023712274 -0.068765581 0.748079
-0.024511229 0.06720823 0.74814552
-0.016604381 0.071161628 0.74814552
-0.011860272 0.073533714 0.74814552
-0.011951438 -0.066928029 0.74961281
-0.062183909 -0.057400495 0.74972558
-0.068629839 0.047881275 0.74991673
-0.062471129 0.050135791 0.74938184
-0.057244983 0.052474618 0.74920404
-0.054265458 0.055063456 0.74991679
-0.0413436 0.060425282 0.74920398
-0.024692819 0.069299251 0.7495597
-0.0223446 0.071023911 0.74991673
-0.0079506924 0.077121735 0.74920398
-0.0048053679 -0.068876922 0.75061041
-0.012793059 -0.067163557 0.75028968
-0.034480818 -0.063348442 0.75084817
-0.06714721 -0.056755394 0.75024271
-0.063160695 0.051168203 0.7502743
-0.047170643 0.059163213 0.7502743
-0.039175618 0.063160717 0.7502743
-0.035977613 0.064759761 0.7502743
-0.012815878 0.076895297 0.75063396
0.040931705 -0.077850491 0.75101787
0.040931705 -0.077850491 0.75101787
-0.0056260927 -0.069120526 0.75129426
-0.044342391 -0.06207934 0.75189734
-0.061285321 -0.058866143 0.75193608
-0.067535058 0.050651342 0.75135738
-0.051455285 0.058691204 0.75135738
-0.047524031 0.061217397 0.75172031
-0.024544962 0.072426677 0.75153887
-0.016497556 0.076450378 0.75153887
-0.049313374 -0.061439604 0.75242621
-0.049313374 -0.061439604 0.75242621
-0.057301443 -0.059722632 0.75209939
-0.057301443 -0.059722632 0.75209939
-0.068724401 0.051745445 0.7524519
-0.061563507 0.055893183 0.75281978
-0.059718326 0.055683315 0.75208545
-0.053462815 0.059943199 0.75281894
-0.027541451 0.072903872 0.75281894
-0.019368105 0.075858414 0.75208545
-0.014580769 0.079384208 0.75281894
0.017084813 -0.074847728 0.75366867
-0.057621624 0.058433205 0.75318819
-0.038288478 0.06924513 0.75393087
-0.031771291 0.072503716 0.75393087
-0.012173583 0.081157237 0.75318813
-0.00081664696 -0.071864933 0.75441337
-0.027006103 -0.067106038 0.75482857
-0.057133432 0.060398221 0.75430346
-0.057133432 0.060398221 0.75430346
-0.024485756 0.076722056 0.75430346
-0.022853373 0.077538252 0.75430351
-0.066497482 -0.059929818 0.75545377
-0.063206844 0.059102535 0.75543243
-0.038580798 0.071415573 0.75543237
-0.027525723 0.077235281 0.75562155
-0.024673056 0.078953803 0.75581074
-0.023028186 0.079776227 0.75581074
0.044514552 -0.081610024 0.75627148
0.009896107 -0.075045466 0.75635165
-0.015645189 -0.069991589 0.75605118
-0.032943934 -0.066711485 0.75609159
-0.051912747 0.065920949 0.75619137
-0.046968676 0.068392992 0.75619137
-0.037528943 0.073407516 0.75638247
-0.036326163 0.074303567 0.75657344
0 -0.0738056 0.75746238
-0.036466088 0.075418532 0.75734127
-0.035706159 0.076394588 0.75772774
-0.028178342 0.079562396 0.75734127
-0.027402401 0.080546439 0.7577278
-0.023374986 -0.070124954 0.75880098
-0.061805744 0.065146625 0.75889546
-0.044927087 0.07238254 0.75811583
0.02847104 -0.080388784 0.75941956
-0.059515212 -0.063706398 0.75962698
-0.062762909 0.065273464 0.75928807
-0.051516194 0.071200714 0.75948513
-0.051516194 0.071200714 0.75948513
-0.034310393 0.079499722 0.75928807
0.026995242 -0.080985695 0.7609207
0.018526724 -0.079159617 0.76056403
-0.039484996 0.078129947 0.76007688
-0.0093180481 -0.07454437 0.76176417
-0.057474893 -0.065081835 0.76131129
-0.05408369 0.07267499 0.76127231
-0.036409061 0.082132101 0.76167417
-0.033022173 0.083825558 0.76167417
0.02122904 -0.080670327 0.76226306
-0.0017035424 -0.076659411 0.76289308
-0.042419679 0.079749018 0.76207769
-0.016262438 -0.074464858 0.76389414
-0.057180706 0.074249566 0.76329678
-0.041818723 0.081930578 0.76329684
-0.0034328215 -0.077238441 0.76444638
-0.061079308 0.074843645 0.76494539
-0.058381647 0.075552762 0.76453054
-0.054947432 0.077269852 0.76453054
-0.052476589 0.079145074 0.76494533
-0.062063798 0.074993759 0.76536191
-0.057869606 0.077735305 0.76577914
-0.049995836 0.081027776 0.76536185
0.0078036878 -0.080638051 0.76658803
-0.023352895 -0.074383259 0.76606792
-0.060801942 -0.067750722 0.76695573
-0.042493325 0.086721092 0.76662046
-0.061907195 -0.068010718 0.7677604
-0.064564086 0.077651441 0.76789445
-0.062565401 0.077337831 0.76704371
0.010494472 -0.082206666 0.76838982
-0.048961382 -0.070819139 0.76833451
-0.063020959 -0.06827268 0.76857126
-0.055078521 0.08305493 0.76832289
-0.055078521 0.08305493 0.76832289
0.028087296 -0.08601734 0.76915962
-0.055457916 -0.070422769 0.76977676
-0.051227719 0.088323653 0.77048951
-0.051227719 0.088323653 0.77048951
-0.03462353 -0.075461537 0.77158707
-0.062043842 -0.070020884 0.77123886
-0.060307935 0.085140646 0.7713694
0.010710371 -0.084790438 0.77273333
-0.045548964 -0.074128717 0.77287483
-0.058006078 0.088347733 0.7727021
-0.058006078 0.088347733 0.7727021
0.019672101 -0.086736053 0.77313304
0.019672101 -0.086736053 0.77313304
-0.0063295416 -0.083188236 0.77555543
-0.063337825 -0.072386056 0.7757017
-0.045412 -0.076292157 0.7765258
0.010935287 -0.087482274 0.77725828
-0.052137237 -0.075919122 0.77808267
-0.025862977 -0.082207292 0.78025281
-0.055552442 -0.076847523 0.78078318
-0.047396224 -0.081521511 0.78610653
-0.029625911 -0.086010695 0.78797758
0.072490193 -0.028512791 0.7905997
0.072489828 -0.015464485 0.79059857
0.072489455 -0.0038660765 0.79059738
0.07248909 0.0028995872 0.79059619
0.072488725 0.019330382 0.790595
0.072488725 0.020296812 0.79059505
0.07248909 0.040593922 0.79059619
0.072489455 0.049292833 0.79059732
0.028468793 -0.028002083 0.66992903
0.027137071 -0.025191147 0.67151934
0.034084879 -0.022959918 0.67154646
0.026694942 -0.030509716 0.67479151
0.022952437 -0.022951907 0.67432678
0.020786118 -0.030519536 0.67673606
0.020786118 -0.030519536 0.67673606
0.028038697 -0.031482011 0.67601418
0.017026901 -0.029614307 0.67641616
0.010914863 -0.026179766 0.67613578
0.016934909 -0.022853479 0.6763407
0.020880988 -0.020880427 0.6763407
0.024827063 -0.018907392 0.6763407
0.024827063 -0.018907392 0.6763407
0.026671996 -0.018301189 0.67613572
0.031457454 -0.01349709 0.67769873
-0.00080967136 -0.02715292 0.67933601
-0.00050841668 -0.025929242 0.67999995
0.0048889625 -0.02484935 0.67895079
0.016986666 -0.018800495 0.67895091
0.023730909 -0.034048706 0.68180406
0.010992454 -0.018956829 0.68079209
0.019143462 -0.014900404 0.68077981
0.019143462 -0.014900404 0.68077981
0.029146874 -0.0091093425 0.6812914
0.023050141 -0.034490328 0.68278074
-0.00091581547 -0.030325294 0.68348449
-0.0029798269 -0.022999486 0.68269986
0.0052670497 -0.017313745 0.68371248
0.012673285 -0.01603578 0.68214059
0.03693448 -0.0014406294 0.68373799
0.00070701283 -0.031608906 0.68514794
-0.0047275522 -0.029941142 0.68407196
-0.0030707326 -0.02052734 0.68433166
0.024689473 -0.0068073063 0.68422794
0.014975367 -0.035513893 0.68716359
-0.019745041 -0.026148826 0.68609178
-0.02105869 -0.025167421 0.68715358
-0.016937589 -0.023064813 0.68718088
0.021057976 -0.0049284818 0.68662256
0.019735161 -0.0037848353 0.68779242
-0.018774906 -0.029930472 0.68863654
-0.016817426 -0.019193083 0.68965149
0.0089447713 -0.036523055 0.69085503
0.00090000156 -0.035014685 0.69090295
-0.038931187 -0.027160835 0.69176531
-0.031178534 -0.024974203 0.69055843
-0.028914042 -0.024369854 0.69021618
-0.027091522 -0.022798516 0.69064403
-0.021059033 -0.020508103 0.69017363
-0.003169952 -0.010758359 0.69069552
0.013264231 -0.0011123742 0.69162166
0.019109897 0.00083217735 0.69098759
0.034971066 0.0075726882 0.69021618
0.035099849 -0.042683497 0.6928457
-0.033063378 -0.029826514 0.69312072
-0.033063378 -0.029826514 0.69312072
-0.027072255 -0.020315573 0.69224721
-0.014799643 -0.011782835 0.69380033
-0.0091974735 -0.010765731 0.69264412
-0.0068815281 -0.0078237755 0.69380039
0.0047510164 -0.0044716895 0.69220328
0.010923963 -0.00090975873 0.69251138
0.037233699 0.014233842 0.69380045
0.033866934 -0.044199228 0.69583702
-0.016885921 -0.011008129 0.69497859
0.0092046978 0.0027434989 0.69543636
0.019082174 0.0070221247 0.69500864
0.028879059 0.011284173 0.69459611
0.029008918 0.012893633 0.69559717
0.031276282 0.014347032 0.69580436
0.03703123 0.016904788 0.69559717
0.041256677 0.018769501 0.69543642
0.024739135 -0.043110728 0.69695556
-0.047145732 -0.02935914 0.6969167
-0.052861005 -0.025012746 0.69756019
-0.052861005 -0.025012746 0.69756019
-0.046604834 -0.021360457 0.69789982
-0.039032765 -0.02023541 0.69617522
-0.031107027 -0.014973456 0.69701719
-0.02516829 -0.012784707 0.69651127
-0.0040797642 2.9802322e-08 0.69796336
0.00086706178 0.00086916657 0.69692361
0.023169188 0.012835102 0.69745177
0.042460032 0.022830635 0.69767869
-0.0073362272 -0.038146392 0.6989398
-0.016897216 -0.036436945 0.69913894
-0.016897216 -0.036436945 0.69913894
-0.022907844 -0.035241257 0.69905728
-0.046736874 -0.030768022 0.69919014
-0.058440849 -0.026590183 0.69834602
-0.027116047 -0.010816704 0.6984179
-0.026917636 -0.0092783887 0.69935066
0.027060801 0.018401658 0.69979846
0.038997889 0.023070648 0.69895625
-0.0023920112 -0.040664166 0.70162797
0.00089442247 -0.040944718 0.70103478
-0.011030017 -0.038747244 0.7011714
-0.031024065 -0.035004698 0.7013011
-0.043841913 -0.016292199 0.70028937
-0.01924184 -0.0041443408 0.7001909
-0.014930829 -0.00095075369 0.70086366
0.032721512 0.021913439 0.70024025
0.040977933 0.028266352 0.70168209
0.041872762 -0.050368667 0.70376432
-0.037342239 -0.034828469 0.70306158
-0.031851295 -0.035457075 0.70234382
-0.033594083 -0.0083985031 0.7020846
-0.032873664 -0.0068141087 0.70287818
-0.016962564 0.0010468335 0.70281678
0.027025489 0.023166418 0.70289826
0.034517817 0.025813505 0.70218587
0.034517817 0.025813505 0.70218587
0.036908336 -0.050233617 0.70515335
0.038309913 -0.049863696 0.70406419
0.015113881 -0.045803055 0.70469511
0.006091346 -0.043857694 0.70431542
-0.015809884 -0.039524674 0.704059
-0.042990047 -0.034880675 0.70499313
-0.060793549 -0.018435836 0.70439363
-0.04430471 -0.0079994798 0.7058143
-0.028305788 2.9802322e-08 0.7058143
0.0093258265 0.018652271 0.70570838
0.018910686 0.022857798 0.70532793
0.0064777797 -0.045038879 0.70620739
-0.00061869615 -0.043927431 0.70662379
-0.032936994 -0.037729286 0.70657969
-0.057308961 -0.01417318 0.70602727
-0.054584615 -0.0099811256 0.70786119
-0.046196297 -0.005618453 0.70797044
-0.038946275 -0.0031391864 0.70722795
-0.028883165 0.0027014366 0.70775241
-0.018402994 0.0081096888 0.70786142
0.0051543931 0.019091947 0.70734525
0.027219962 0.030753326 0.70775259
0.032816969 0.031274654 0.70627677
0.044849493 -0.054135576 0.70922804
0.01713199 -0.048719302 0.70901847
-0.018635469 -0.042323604 0.70976222
-0.030830503 -0.039637707 0.70915246
-0.055127986 -0.0348702 0.70893526
-0.052950233 -0.0070797554 0.70921218
-0.047007907 -0.0048357188 0.70874095
-0.029032357 0.0048791878 0.70921224
-0.01488523 0.011225956 0.70874113
-0.004901208 0.01553677 0.70829964
0.0070815925 0.022978384 0.7092396
0.019068621 0.028858203 0.70916593
0.031076446 0.034933176 0.70921206
0.036526501 -0.053361088 0.71062052
-0.0011180895 -0.046588831 0.71133327
-0.0044675712 -0.045952141 0.71133828
-0.038822897 -0.039145455 0.71091914
-0.032990731 -0.039969504 0.71042407
-0.04708863 -0.037542664 0.71087778
-0.059136674 -0.0084025711 0.71035957
-0.059136674 -0.0084025711 0.71035957
-0.058972787 -0.0070648491 0.71117365
-0.055047195 -0.0064449264 0.71030307
-0.047027554 -0.0012095809 0.71109766
-0.02240243 0.012161314 0.71178377
-0.012685506 0.016842797 0.71166885
-0.0091489516 0.01720362 0.71075654
0.015018809 0.030517921 0.71155417
0.039015088 0.042368971 0.71145886
0.04461208 -0.055845901 0.71222734
0.029460657 -0.053742245 0.71357697
0.016863421 -0.050918754 0.71286345
0.0069218213 -0.048944533 0.71273434
-0.0009713599 -0.047897667 0.71352112
-0.027079374 -0.042551361 0.712906
-0.04938326 -0.00085500878 0.71209085
-0.041161574 0.0049309991 0.71317655
-0.040222973 0.0064875782 0.71388131
-0.025127439 0.012984601 0.71320027
-0.020420711 0.016206741 0.71376324
-0.013190952 0.018808087 0.71310639
0.0038925461 0.02854532 0.71388131
0.0090640699 0.030646574 0.7135672
0.024922639 0.036983471 0.7125352
0.030986818 0.039657284 0.71230292
0.036808465 0.043052983 0.71261722
0.036808465 0.043052983 0.71261722
0.04488913 -0.057459705 0.71489376
0.0389839 -0.05587694 0.71411645
0.0389839 -0.05587694 0.71411645
-0.062665597 -0.0019685328 0.71567357
-0.056847632 0.00069273019 0.71551311
-0.050989926 0.0030805543 0.71516234
-0.047065541 0.0050427406 0.71516234
0.04063914 0.047466815 0.71423674
0.032370459 -0.056152821 0.7167455
0.0085718138 -0.051430851 0.71644342
-0.010636963 -0.048531145 0.71775669
-0.034887508 -0.043857962 0.71768534
-0.052545689 -0.040573239 0.71783519
-0.061130591 -0.038330197 0.7168045
-0.035212059 0.013109411 0.71654922
-0.033087064 0.013662897 0.71621948
-0.030873839 0.016820326 0.71754855
-0.026890181 0.018812185 0.71754879
0.022707306 0.041465998 0.71615851
0.025210246 0.044671692 0.71742505
0.0023362255 -0.051407769 0.71843827
-0.060768176 0.0045595132 0.71928966
-0.055263951 0.0053266585 0.71800309
-0.055263951 0.0053266585 0.71800309
-0.053932291 0.005992502 0.71800303
-0.052963607 0.0070066266 0.71834654
-0.051185515 0.00879623 0.71893036
-0.041947335 0.011984944 0.71800309
-0.039131414 0.014823279 0.71893036
-0.024614355 0.022685235 0.71932125
-0.001001333 0.033035971 0.71837783
0.012798182 0.040943842 0.71903133
0.047687873 -0.061994195 0.72172689
-0.025360726 -0.047339082 0.72052401
-0.041166916 -0.044908762 0.72152919
-0.067560166 -0.039184868 0.72036195
-0.046678536 0.014814764 0.72137058
-0.046678536 0.014814764 0.72137058
-0.037446689 0.017542481 0.72014683
0.00067657052 0.037297003 0.7205959
0.0068591153 0.039695572 0.72014689
0.0068591153 0.039695572 0.72014689
0.019003905 0.045767978 0.72014689
0.032852583 0.053038176 0.72037107
0.031330712 -0.059908062 0.72349972
0.018455368 -0.056733161 0.72227657
0.0048124203 -0.05461885 0.72311586
0.010952624 -0.055454634 0.7225405
-0.003077189 -0.052645311 0.72231841
-0.018919468 -0.05022119 0.72334599
-0.065062523 0.0071819946 0.72238135
-0.040044047 0.022093296 0.72393817
-0.030859306 0.026376881 0.72373801
-0.020921528 0.030832851 0.72340548
-0.013081105 0.033172715 0.72238135
-0.0069759712 0.037029047 0.72290218
0.0090852957 0.044916492 0.72280943
0.032976344 0.057117224 0.72297472
0.035023302 0.058764189 0.7233789
0.048474748 0.0634951 0.72208607
0.04089975 -0.062391579 0.72462028
0.015104076 -0.057644084 0.72492623
-0.003126468 -0.054182887 0.72496128
-0.064898163 0.011037516 0.72482699
-0.049026292 0.019003946 0.72484654
-0.042888071 0.02283741 0.72534209
-0.036629237 0.026512414 0.72569561
-0.00097171229 0.042959135 0.72480005
0.00095756748 0.044938121 0.72545737
-0.046825282 -0.047176778 0.72724968
-0.04125426 -0.047547281 0.7260651
-0.060730271 -0.044230878 0.72675383
-0.062945716 0.013987958 0.72610664
-0.067160435 0.014231905 0.7276305
-0.0430924 0.024925414 0.72676164
-0.03496984 0.027975887 0.72610664
-0.023779491 0.033571094 0.72610664
-0.008977171 0.042714886 0.72723615
-0.0024702665 0.046576723 0.7276302
-0.0024702665 0.046576723 0.7276302
0.0041963812 0.047559023 0.72610664
0.041283611 0.06845367 0.7276302
0.028934743 -0.062488116 0.72868884
0.028934743 -0.062488116 0.72868884
-0.0021427283 -0.057139426 0.72969085
-0.010673704 -0.055167913 0.72910607
-0.010673704 -0.055167913 0.72910607
-0.01953909 -0.05328688 0.72878528
-0.029728232 -0.050962687 0.72813898
-0.053456757 0.021949023 0.72819155
-0.043119319 0.027407601 0.72837919
-0.021930935 0.037494838 0.72805071
-0.016967673 0.040891178 0.72864348
-0.0011373044 0.04911283 0.72884208
0.0030181629 0.051022511 0.72873324
0.0063670455 0.051643819 0.72805071
0.009187974 0.054844197 0.72921079
0.011010476 0.055054449 0.72875637
0.032923166 0.065138891 0.72819126
0.035338111 0.068535134 0.72960979
0.045001335 -0.066966206 0.73109686
-0.023458309 -0.054133236 0.73150957
-0.023458309 -0.054133236 0.73150957
-0.042628016 -0.050575584 0.73168635
-0.050660767 -0.04921332 0.73198003
-0.050660767 -0.04921332 0.73198003
-0.059555363 -0.046639711 0.73048544
-0.068967097 -0.045496225 0.73160279
0.053089552 -0.032822236 0.73045933
-0.065163985 0.019095829 0.73013616
-0.061276864 0.021262005 0.7302804
-0.046829462 0.030577615 0.73163623
-0.022752739 0.042615682 0.73163593
-0.0049695559 0.050697397 0.73111117
0.0031549998 0.055175565 0.73138058
0.020039314 0.061549336 0.73004007
0.025088593 0.066423833 0.73156297
0.054004576 -0.070059955 0.73344457
-0.030730864 -0.05414483 0.73390222
-0.017042041 -0.055837974 0.73232853
-0.067278787 -0.046549246 0.73285079
-0.060856115 0.026533704 0.73356092
-0.016694935 0.048441555 0.7334488
-0.0065836166 0.054131955 0.73386019
0.01496933 0.062782876 0.73248267
0.028990656 0.071111865 0.73333704
-0.073275998 0.021250069 0.73416126
-0.066987 0.025270298 0.73472881
-0.057060741 0.030957943 0.73519844
-0.050915789 0.035012312 0.73583478
-0.041436605 0.037402675 0.7343123
-0.032880656 0.041680899 0.7343123
-0.026912373 0.045190547 0.73465288
-0.02530212 0.04546994 0.7343123
-0.0044419612 0.058485866 0.73598802
-0.0044419612 0.058485866 0.73598802
0.0025665371 0.059404269 0.7343123
0.018701021 0.067471504 0.7343123
0.030435193 0.073338598 0.7343123
0.042489044 -0.070069641 0.73721814
0.031073144 -0.067731917 0.73694891
0.0033553252 -0.062644154 0.73730063
-0.020548517 -0.058281317 0.73764658
-0.057017755 -0.05106014 0.73720884
-0.057017755 -0.05106014 0.73720884
-0.056861486 0.034589984 0.73748803
-0.035037406 0.045101009 0.73722792
-0.032972213 0.046534613 0.73748797
-0.032972213 0.046534613 0.73748797
-0.027439354 0.047462672 0.73629642
-0.017198373 0.053360134 0.73679996
0.00081884762 0.062884964 0.73713458
0.044753835 -0.071456671 0.73884869
0.037173931 -0.069843099 0.73856503
0.01422589 -0.065139592 0.73801696
-0.02177605 -0.058570057 0.73854023
-0.045893293 -0.054169089 0.73889047
-0.067135319 0.031173702 0.73860323
-0.050996959 0.039206378 0.73857951
-0.011009768 0.059052836 0.73848408
-0.012095075 0.060475379 0.73975796
0.016993439 0.074772567 0.73959774
-0.073055774 0.032617658 0.74145794
-0.063288391 0.035623223 0.74024045
-0.05500786 0.042019874 0.7417028
-0.043581933 0.045476481 0.74024045
-0.04490912 0.046817329 0.74153966
-0.030559922 0.054243892 0.7417028
-0.019327825 0.057603523 0.74024045
-0.0011453208 0.068698987 0.74153948
0.0067395344 0.071198642 0.74060428
-0.055223227 -0.054456234 0.74242496
-0.061064646 0.039625056 0.74211359
-0.038986757 0.05113044 0.7424159
-0.0068156063 0.068924412 0.7435233
0.0030614338 0.071561038 0.74203122
0.014370563 -0.069137245 0.74479902
-0.0027294015 -0.066269219 0.74547851
-0.0066222213 -0.065436527 0.7453261
-0.06575533 -0.053377837 0.74401903
-0.071121991 0.039307181 0.74516702
-0.066684507 0.042116314 0.7455495
-0.052793827 0.048589122 0.74524331
-0.03900462 0.054854989 0.74483579
-0.036989804 0.0550019 0.74427795
-0.023419177 0.064012408 0.74572027
-0.019039702 0.064889945 0.74486983
0.0085097905 0.077361733 0.74402511
0.004693456 -0.068055123 0.7461074
0 -0.067450494 0.74660605
-0.049439911 -0.058072299 0.74671531
-0.06980025 -0.054114819 0.74659741
-0.068995103 0.044156656 0.74762082
-0.061782707 0.045359462 0.74606323
-0.044577394 0.053962111 0.74606317
-0.041449156 0.055526257 0.74606323
-0.019325957 0.067119002 0.74640727
-0.011357448 0.071014851 0.74635005
0.0023461787 0.0774239 0.74606323
0.038552068 -0.076310605 0.74916375
0.0305526 -0.074597657 0.74884737
0.017507385 -0.072416902 0.74937809
0.022579465 -0.072890311 0.74853212
-0.0069489181 -0.067485228 0.7489323
-0.041012131 -0.06131804 0.74951041
-0.057114094 0.051178373 0.74832171
-0.035103749 0.063218221 0.7489922
-0.010763677 0.076539099 0.74973822
-0.005280952 0.077366441 0.74849749
-0.0069793602 0.078568883 0.7498275
0.028470179 -0.075387701 0.75087655
-0.060775191 -0.058762074 0.75159192
-0.069014065 0.049353473 0.75099534
-0.06699913 0.050919872 0.75135756
-0.057211593 0.054907255 0.75077003
-0.051199943 0.057333451 0.75039423
-0.041180477 0.06292282 0.75077003
-0.041180477 0.06292282 0.75077003
-0.021586565 0.071955234 0.7502743
-0.05933708 -0.060149908 0.75349349
-0.013328476 0.079160839 0.75226867
-0.013897602 -0.069487989 0.75462067
-0.027008303 -0.067106627 0.75483024
-0.054322015 -0.062552601 0.75596178
-0.069471002 -0.058846027 0.75457245
-0.069471002 -0.058846027 0.75457245
-0.069471002 -0.058846027 0.75457245
-0.06308648 0.058580704 0.75505501
-0.06308648 0.058580704 0.75505501
-0.057105057 0.062445402 0.75562119
-0.04715544 0.066837966 0.75524402
-0.046056371 0.06826213 0.7558108
-0.044600543 0.068406299 0.75543261
-0.034908898 0.071655035 0.75439715
-0.030753652 0.075038746 0.75524384
-0.027146328 0.076623842 0.75510228
-0.019165533 0.080760032 0.75519669
-0.019165533 0.080760032 0.75519669
0.02992511 -0.079800248 0.75793958
-0.058485456 0.064706892 0.7575345
-0.051912747 0.065920949 0.75619137
0.015478963 -0.077817038 0.75926483
-0.041409146 -0.06692259 0.75921416
-0.050709479 -0.065376505 0.7596072
-0.064918675 0.064499468 0.75948513
-0.046987332 0.073060736 0.75922298
-0.03877363 0.077268869 0.75928867
-0.031615358 0.079038411 0.75811583
-0.029951392 0.079870403 0.75811577
-0.029951392 0.079870403 0.75811577
-0.022896528 -0.072081625 0.76198733
0.020842683 -0.080821633 0.76264757
-0.0025649287 -0.076947838 0.76366681
-0.061082326 0.072614878 0.7635017
-0.054729044 0.076107621 0.76370668
-0.054729044 0.076107621 0.76370668
-0.049020849 0.077073812 0.762483
-0.044663653 0.080508962 0.76329732
-0.037119832 0.083024323 0.762483
0.032598138 -0.084068894 0.76435965
-0.0077169966 -0.076312512 0.76426268
-0.01718308 -0.07474637 0.7646755
0.011325422 -0.081891477 0.76758027
-0.049832948 0.085677713 0.76832289
0.025752665 -0.087026209 0.77164507
0.022093827 -0.085724056 0.77061421
-0.011084343 -0.079801038 0.7713204
0.0013380691 -0.083014607 0.77275741
-0.064318597 -0.07057178 0.77292234
-0.047710255 -0.074716032 0.77458328
