# .PCD v0.7 - Point Cloud Data file format
VERSION 0.7
FIELDS x y z
SIZE 4 4 4
TYPE F F F
COUNT 1 1 1
WIDTH 1349
HEIGHT 1
VIEWPOINT 0 0 0 1 0 0 0
POINTS 1349
DATA ascii
0.013104971 -0.0070565045 0.67894268
0.013128116 -0.0075739324 0.67915761
0.013151342 -0.0080931187 0.67937326
0.01317465 -0.0086141527 0.67958975
0.013198006 -0.0091370642 0.67980659
0.01322148 -0.0096618235 0.6800245
0.013245039 -0.01018846 0.68024325
0.013268645 -0.010716975 0.68046248
0.01329237 -0.011247367 0.68068284
0.013316182 -0.011779666 0.68090391
0.013340078 -0.012313902 0.68112582
0.013364026 -0.012850016 0.68134815
0.013388094 -0.013388067 0.6815716
0.01341225 -0.013928086 0.6817959
0.013436493 -0.014470041 0.68202102
0.013460788 -0.015013963 0.68224657
0.013485207 -0.015559852 0.68247336
0.013509715 -0.016107708 0.68270093
0.013534312 -0.016657621 0.68292934
0.013558961 -0.01720944 0.68315822
0.013583739 -0.017763317 0.68338829
0.013608606 -0.018319249 0.68361914
0.013633528 -0.018877178 0.68385059
0.013658578 -0.019437194 0.68408316
0.01368372 -0.019999295 0.68431664
0.013708956 -0.020563424 0.68455094
0.013734247 -0.021129608 0.68478578
0.013759669 -0.021697938 0.68502188
0.013785186 -0.022268355 0.68525875
0.013810798 -0.022840917 0.68549663
0.013836466 -0.023415506 0.68573493
0.013862267 -0.02399236 0.68597454
0.013888166 -0.024571329 0.68621498
0.013914162 -0.025152504 0.68645638
0.013940217 -0.025735736 0.68669832
0.013966408 -0.026321292 0.6869415
0.013992697 -0.026909024 0.68718565
0.014019047 -0.027498901 0.68743026
0.014045536 -0.028091073 0.68767631
0.014072125 -0.028685451 0.68792319
0.014098814 -0.029282153 0.68817097
0.014125565 -0.029880971 0.68841934
0.014152458 -0.030482203 0.68866909
0.014179453 -0.03108573 0.68891978
0.014206553 -0.031691521 0.68917131
0.014233714 -0.032299578 0.68942362
0.01426102 -0.032910019 0.68967712
0.014288432 -0.033522844 0.68993163
0.014315949 -0.034137994 0.69018716
0.014343532 -0.034755468 0.69044328
0.014371262 -0.035375416 0.69070077
0.0143991 -0.035997719 0.69095927
0.014427045 -0.036622494 0.69121873
0.014455058 -0.037249535 0.69147885
0.01448322 -0.037879169 0.69174033
0.014511495 -0.038511246 0.69200283
0.014539836 -0.039145678 0.69226605
0.014568331 -0.039782763 0.69253063
0.014596938 -0.040422261 0.69279629
0.014625657 -0.041064322 0.69306296
0.014654446 -0.041708827 0.69333029
0.014683394 -0.042355895 0.69359905
0.014712455 -0.043005615 0.69386894
0.014741631 -0.043657899 0.69413984
0.014770879 -0.044312626 0.6944114
0.014800289 -0.044970095 0.69468445
0.014829814 -0.045630187 0.69495863
0.014859459 -0.046292901 0.69523388
0.014889177 -0.046958178 0.69550979
0.014919059 -0.047626227 0.69578731
0.014949062 -0.048296958 0.6960659
0.01497914 -0.048970222 0.69634515
0.015009385 -0.049646437 0.69662601
0.015039751 -0.050325304 0.69690806
0.015070242 -0.051006943 0.69719106
0.015100811 -0.051691175 0.69747496
0.015131549 -0.052378446 0.6977604
0.015162414 -0.053068459 0.69804692
0.015193403 -0.053761244 0.69833475
0.015224474 -0.054456741 0.69862318
0.015255718 -0.055155247 0.69891334
0.015287092 -0.055856645 0.69920462
0.015318595 -0.056560963 0.69949722
0.015350179 -0.057267964 0.69979042
0.015381943 -0.057978094 0.7000854
0.015413838 -0.058691114 0.70038158
0.025083488 0.071534425 0.78154212
0.022526931 0.06340915 0.75868261
0.020443391 0.056787223 0.74005252
0.018712571 0.05128631 0.72457641
0.017252011 0.04664433 0.71151674
0.016002892 0.042674363 0.70034766
0.014922486 0.039240628 0.69068718
0.013978701 0.036241084 0.68224835
0.013147228 0.033598483 0.67481369
0.012409087 0.031252533 0.66821355
0.011963837 0.02968809 0.66423237
0.011963837 0.02924493 0.66423237
0.011963837 0.028801829 0.66423237
0.011963837 0.028358757 0.66423237
0.011963837 0.027915657 0.66423231
0.011977272 0.027503401 0.66435248
0.011995884 0.027101815 0.66451889
0.012014554 0.026699036 0.66468585
0.012033255 0.026294917 0.66485304
0.012052041 0.025889575 0.66502106
0.012070887 0.025483012 0.66518956
0.012089764 0.025075108 0.6653583
0.012108727 0.024665952 0.66552788
0.012127751 0.024255514 0.66569799
0.012146834 0.023843825 0.66586864
0.012165949 0.023430735 0.66603959
0.012185153 0.023016423 0.66621125
0.012204417 0.0226008 0.6663835
0.012223742 0.022183836 0.6665563
0.0122431 0.0217655 0.66672939
0.012262548 0.021345913 0.66690332
0.012282059 0.020925015 0.66707772
0.012301631 0.020502746 0.66725278
0.012321237 0.020079076 0.66742802
0.012340934 0.019654095 0.66760421
0.012360696 0.019227743 0.66778088
0.01238049 0.01880002 0.6679579
0.012400378 0.018370956 0.66813564
0.012420328 0.017940491 0.6683141
0.012440345 0.017508656 0.66849303
0.012460396 0.01707539 0.66867232
0.01248054 0.016640723 0.66885245
0.012500751 0.016204685 0.66903317
0.012521028 0.015767246 0.66921449
0.01254134 0.015328348 0.6693961
0.012561748 0.014888018 0.66957855
0.012582223 0.014446288 0.66976166
0.012602764 0.014003068 0.66994536
0.012623342 0.013558418 0.67012936
0.012644017 0.013112307 0.67031419
0.012664762 0.012664765 0.67049968
0.012685543 0.012215704 0.67068553
0.012706423 0.011765242 0.67087221
0.012727372 0.01131323 0.67105949
0.012748391 0.010859758 0.67124748
0.012769448 0.010404736 0.67143577
0.012790605 0.0099482536 0.6716249
0.012811835 0.0094902813 0.67181474
0.012833133 0.0090307593 0.67200518
0.012854471 0.0085696578 0.67219597
0.012875912 0.0081070364 0.67238772
0.012897423 0.0076429546 0.67258
0.01291901 0.0071772635 0.672773
0.012940633 0.0067099929 0.67296636
0.012962363 0.0062411427 0.67316073
0.012984166 0.0057707727 0.6733557
0.013006042 0.0052987933 0.6735512
0.013027959 0.0048252046 0.67374718
0.013049982 0.0043500364 0.67394418
0.013072081 0.003873229 0.67414171
0.013094221 0.0033947825 0.67433977
0.013116471 0.0029147863 0.67453861
0.013138795 0.0024331212 0.67473829
0.013161195 0.0019498169 0.67493856
0.013183639 0.0014648438 0.67513925
0.013206193 0.00097823143 0.67534089
0.013228824 0.00048995018 0.67554331
0.013251534 -0 0.67574632
0.013274287 -0.00049161911 0.67594975
0.013297152 -0.00098493695 0.67615426
0.013320097 -0.0014799833 0.67635936
0.01334312 -0.0019767284 0.67656529
0.013366189 -0.0024751723 0.67677152
0.013389372 -0.0029754043 0.67697883
0.013412636 -0.0034773648 0.67718685
0.013435947 -0.003981024 0.67739528
0.013459372 -0.0044864416 0.67760473
0.013482881 -0.0049936473 0.67781496
0.013506471 -0.0055025816 0.67802584
0.013530109 -0.0060133934 0.6782372
0.013553865 -0.0065259039 0.67844963
0.013577704 -0.0070402622 0.67866278
0.013601628 -0.0075564682 0.67887676
0.0136256 -0.0080744028 0.67909104
0.013649694 -0.0085942149 0.67930651
0.013673872 -0.0091158748 0.67952263
0.013698136 -0.0096394122 0.67973959
0.013722449 -0.010164768 0.67995703
0.013746887 -0.010692 0.68017554
0.01377141 -0.011221111 0.68039477
0.013795986 -0.011752129 0.68061459
0.013820685 -0.012285054 0.68083537
0.013845474 -0.012819886 0.6810571
0.013870351 -0.013356626 0.68127954
0.013895281 -0.013895273 0.68150246
0.013920338 -0.014435887 0.68172646
0.013945485 -0.014978468 0.6819514
0.013970723 -0.015522987 0.68217695
0.013996016 -0.016069502 0.68240315
0.014021437 -0.016617984 0.68263042
0.014046952 -0.017168492 0.68285859
0.014072559 -0.017720968 0.68308753
0.014098221 -0.01827544 0.68331701
0.014124016 -0.018831998 0.68354768
0.014149906 -0.019390583 0.68377918
0.014175852 -0.019951224 0.68401116
0.014201932 -0.020513862 0.68424433
0.014228107 -0.021078676 0.6844784
0.014254381 -0.021645546 0.6847133
0.01428071 -0.022214442 0.68494874
0.014307178 -0.022785515 0.68518543
0.014333745 -0.023358673 0.68542296
0.014360409 -0.023934036 0.68566144
0.014387133 -0.024511367 0.68590033
0.014413998 -0.025091022 0.68614054
0.014440962 -0.025672823 0.6863817
0.014468026 -0.0262568 0.68662363
0.014495154 -0.026842862 0.68686616
0.014522422 -0.02743122 0.68711001
0.014549795 -0.028021842 0.6873548
0.014577229 -0.028614551 0.68760014
0.014604809 -0.029209614 0.68784666
0.014632491 -0.029806912 0.68809426
0.014660281 -0.030406475 0.68834269
0.014688134 -0.031008303 0.68859178
0.014716134 -0.031612456 0.68884212
0.014744243 -0.032218903 0.68909347
0.014772457 -0.032827646 0.68934572
0.014800739 -0.033438712 0.68959856
0.014829171 -0.034052163 0.68985283
0.014857713 -0.034667999 0.69010806
0.014886364 -0.035286158 0.69036418
0.014915084 -0.035906702 0.69062102
0.014943957 -0.03652966 0.69087923
0.014972943 -0.037155032 0.69113839
0.015001998 -0.037782788 0.69139814
0.015031209 -0.038413078 0.69165939
0.015060535 -0.039045811 0.69192153
0.015089975 -0.039680988 0.69218481
0.015119486 -0.040318608 0.69244868
0.015149157 -0.040958792 0.69271398
0.015178946 -0.041601539 0.69298035
0.015208851 -0.042246789 0.69324774
0.015238829 -0.042894453 0.69351578
0.015268971 -0.043544829 0.69378531
0.015299233 -0.044197768 0.69405591
0.015329614 -0.0448533 0.69432759
0.015360071 -0.045511305 0.69459987
0.015390695 -0.046172082 0.69487369
0.015421441 -0.046835482 0.69514859
0.015452264 -0.047501355 0.6954242
0.015483257 -0.04817012 0.69570142
0.015514376 -0.048841536 0.6959796
0.015545618 -0.049515694 0.69625902
0.01557694 -0.050192356 0.69653904
0.015608435 -0.050871909 0.69682062
0.015640059 -0.051554233 0.69710338
0.015671812 -0.052239388 0.69738734
0.015703645 -0.052927077 0.69767195
0.015735656 -0.053617775 0.69795823
0.015767798 -0.054311305 0.69824553
0.01580007 -0.055007637 0.69853419
0.015832426 -0.05570668 0.69882351
0.015864966 -0.056408733 0.69911438
0.015897637 -0.057113707 0.69940662
0.015930446 -0.057821602 0.69969988
0.015963338 -0.058532268 0.69999409
0.025460593 0.070016682 0.77678341
0.022915253 0.06219855 0.75483704
0.020832503 0.055801392 0.73687917
0.019096877 0.050470352 0.72191423
0.017628152 0.045959145 0.70925063
0.016369261 0.042092383 0.69839627
0.015278144 0.038741022 0.68898845
0.014323438 0.035808593 0.68075675
0.013480995 0.033221036 0.67349309
0.012732175 0.030921012 0.66703659
0.012518898 0.029955924 0.66519767
0.012518898 0.029508829 0.66519761
0.012518898 0.029061735 0.66519767
0.012518898 0.02861464 0.66519761
0.012518898 0.028167546 0.66519767
0.012518898 0.027720422 0.66519767
0.012518898 0.027273357 0.66519761
0.012518868 0.026826173 0.66519743
0.012518868 0.026379079 0.66519737
0.012518868 0.025931954 0.66519737
0.012518868 0.02548483 0.66519743
0.012518868 0.025037766 0.66519737
0.012531491 0.024615437 0.66530621
0.012551138 0.024205804 0.66547561
0.012570818 0.0237948 0.66564536
0.012590588 0.023382515 0.66581577
0.012610422 0.022968978 0.66598678
0.012630288 0.0225541 0.66615808
0.012650246 0.02213797 0.66633016
0.012670268 0.021720469 0.66650277
0.012690353 0.021301687 0.66667598
0.012710473 0.020881474 0.66684949
0.012730685 0.020460069 0.66702372
0.012750963 0.020037234 0.66719854
0.012771305 0.019613087 0.66737396
0.012791681 0.01918754 0.66754967
0.012812153 0.018760651 0.66772616
0.012832691 0.018332452 0.66790324
0.012853295 0.017902851 0.66808093
0.012873934 0.017471761 0.66825885
0.012894671 0.017039448 0.66843766
0.012915474 0.016605616 0.66861701
0.012936314 0.016170412 0.66879666
0.012957252 0.015733808 0.66897726
0.012978259 0.015295804 0.66915834
0.012999333 0.014856398 0.66934007
0.013020443 0.014415532 0.66952205
0.013041655 0.013973206 0.66970497
0.013062936 0.013529509 0.66988844
0.013084287 0.013084322 0.67007256
0.013105676 0.012637615 0.67025697
0.013127166 0.012189567 0.67044222
0.013148727 0.011739939 0.67062813
0.013170359 0.011288911 0.67081463
0.01319203 0.010836333 0.67100155
0.013213804 0.010382295 0.67118925
0.013235652 0.0099267662 0.67137766
0.013257537 0.0094696879 0.67156637
0.01327953 0.0090111196 0.67175603
0.013301595 0.0085510612 0.67194623
0.013323733 0.0080894232 0.67213714
0.013345912 0.0076262355 0.67232835
0.013368198 0.0071615577 0.67252046
0.013390559 0.0066953301 0.67271328
0.013412994 0.0062274933 0.6729067
0.013435472 0.0057580769 0.67310059
0.013458058 0.005287081 0.67329526
0.013480722 0.0048145354 0.6734907
0.013503461 0.0043404102 0.67368674
0.013526242 0.003864646 0.6738832
0.013549135 0.0033872724 0.67408055
0.013572107 0.002908349 0.67427862
0.01359512 0.002427727 0.67447704
0.013618248 0.0019454658 0.67467648
0.013641453 0.0014616251 0.67487651
0.013664739 0.00097608566 0.67507732
0.013688069 0.0004888773 0.67527843
0.013711513 2.9802322e-08 0.6754806
0.013735037 -0.00049048662 0.67568344
0.013758644 -0.00098276138 0.67588699
0.013782295 -0.0014766753 0.67609096
0.013806066 -0.0019722581 0.67629588
0.013829916 -0.002469629 0.67650151
0.01385385 -0.0029686391 0.67670786
0.01387783 -0.0034694374 0.67691463
0.013901929 -0.0039719641 0.67712241
0.013926113 -0.0044762194 0.67733097
0.013950381 -0.0049822628 0.67754018
0.013974696 -0.0054900348 0.67774981
0.013999135 -0.0059996247 0.67796052
0.014023658 -0.0065110028 0.67817199
0.01404823 -0.0070241094 0.67838389
0.014072927 -0.0075390339 0.67859674
0.014097709 -0.008055836 0.67881048
0.014122579 -0.0085743964 0.67902488
0.014147501 -0.0090948343 0.67923975
0.014172546 -0.0096170604 0.67945576
0.014197681 -0.010141164 0.67967242
0.014222906 -0.010667175 0.67988998
0.014248182 -0.011194974 0.68010783
0.014273587 -0.01172474 0.68032694
0.014299082 -0.012256354 0.6805467
0.014324668 -0.012789905 0.68076736
0.014350308 -0.013325274 0.68098843
0.014376079 -0.01386264 0.68121064
0.014401942 -0.014401942 0.68143362
0.014427857 -0.014943153 0.68165708
0.014453907 -0.0154863 0.68188167
0.014480052 -0.016031474 0.68210709
0.014506291 -0.016578585 0.68233329
0.014532585 -0.017127663 0.68256009
0.014559015 -0.017678797 0.6827879
0.014585542 -0.018231928 0.68301666
0.014612164 -0.018787026 0.6832462
0.014638844 -0.019344151 0.68347621
0.014665661 -0.019903392 0.68370748
0.014692578 -0.020464659 0.68393958
0.014719593 -0.021027982 0.68417239
0.014746668 -0.021593332 0.68440592
0.014773882 -0.022160828 0.68464053
0.014801198 -0.02273038 0.68487608
0.014828573 -0.023301989 0.68511212
0.014856092 -0.023875833 0.6853494
0.014883712 -0.024451792 0.68558753
0.014911436 -0.025029898 0.68582654
0.014939221 -0.025610119 0.68606615
0.014967151 -0.026192516 0.68630695
0.014995187 -0.026777118 0.68654871
0.015023328 -0.027363867 0.6867913
0.015051532 -0.02795282 0.68703455
0.015079885 -0.028544039 0.68727899
0.015108345 -0.029137522 0.68752438
0.015136912 -0.029733211 0.68777061
0.015165544 -0.030331105 0.68801761
0.015194329 -0.030931294 0.68826574
0.015223223 -0.031533808 0.68851489
0.015252183 -0.032138526 0.68876457
0.015281297 -0.0327456 0.68901557
0.015310524 -0.033355027 0.68926758
0.015339862 -0.03396681 0.68952054
0.015369267 -0.034580797 0.6897741
0.015398831 -0.035197318 0.69002903
0.015428509 -0.035816163 0.69028485
0.015458301 -0.036437392 0.6905418
0.015488164 -0.037060946 0.69079924
0.015518187 -0.037687033 0.6910581
0.015548326 -0.038315475 0.69131798
0.015578584 -0.03894645 0.69157887
0.015608913 -0.03957969 0.69184035
0.015639408 -0.040215582 0.69210327
0.01567002 -0.040853977 0.69236732
0.015700707 -0.041494697 0.69263184
0.01573156 -0.04213807 0.69289786
0.015762536 -0.042784035 0.69316494
0.015793633 -0.043432504 0.69343305
0.015824808 -0.044083387 0.69370186
0.015856151 -0.044736981 0.69397211
0.015887618 -0.045393169 0.69424343
0.015919212 -0.046052009 0.69451588
0.015950885 -0.046713293 0.69478887
0.01598273 -0.047377378 0.69506347
0.016014704 -0.048044086 0.6953392
0.016046805 -0.048713475 0.69561595
0.016078986 -0.049385428 0.69589341
0.016111346 -0.050060213 0.69617248
0.016143838 -0.050737768 0.69645256
0.01617641 -0.051417887 0.69673342
0.016209163 -0.052100897 0.69701588
0.01624205 -0.052786648 0.69729936
0.016275071 -0.053475231 0.69758409
0.016308175 -0.054166436 0.69786954
0.016341465 -0.054860651 0.6981566
0.016374892 -0.055557638 0.69844478
0.016408455 -0.056257546 0.69873416
0.016442105 -0.056960166 0.69902432
0.016475944 -0.057665795 0.69931602
0.016509924 -0.058374345 0.69960904
0.028973578 0.07792896 0.7984587
0.02582215 0.068562269 0.77222347
0.02328893 0.06103307 0.75113469
0.021208419 0.054849386 0.73381472
0.019469077 0.049679726 0.71933496
0.017993463 0.045293927 0.70705062
0.016725721 0.04152593 0.69649684
0.015624904 0.038254082 0.68733269
0.014660004 0.035386264 0.67930001
0.013807379 0.032852054 0.67220199
0.013084035 0.030679822 0.66618025
0.013084035 0.030228645 0.66618025
0.013084035 0.029777497 0.66618025
0.013084035 0.02932629 0.66618025
0.013084035 0.028875142 0.66618025
0.013084066 0.028424025 0.66618055
0.013084066 0.027972847 0.66618049
0.013084066 0.02752164 0.66618049
0.013084035 0.027070463 0.66618025
0.013084035 0.026619256 0.66618025
0.013084035 0.026168078 0.66618025
0.013084035 0.025716901 0.66618031
0.013084035 0.025265753 0.66618025
0.013084035 0.024814546 0.66618025
0.013084035 0.024363399 0.66618025
0.013084035 0.023912221 0.66618031
0.013084035 0.023461044 0.66618025
0.013084035 0.023009866 0.66618031
0.013084035 0.022558719 0.66618025
0.013084035 0.022107512 0.66618025
0.013095641 0.021675587 0.66627687
0.013116357 0.02125755 0.66644937
0.013137139 0.020838231 0.66662234
0.013157987 0.020417571 0.66679597
0.01317887 0.01999554 0.66696978
0.013199851 0.019572198 0.66714442
0.013220899 0.019147545 0.66731966
0.013242014 0.018721461 0.66749543
0.013263165 0.018294066 0.6676715
0.013284415 0.01786527 0.66784841
0.013305733 0.017435104 0.66802591
0.013327121 0.017003566 0.66820395
0.013348545 0.016570628 0.66838229
0.01337007 0.016136318 0.66856146
0.013391664 0.015700579 0.66874123
0.013413295 0.015263408 0.66892135
0.013435031 0.014824867 0.66910225
0.013456835 0.014384866 0.66928381
0.013478712 0.013943493 0.6694659
0.013500626 0.013500631 0.66964841
0.013522645 0.013056368 0.66983163
0.013544735 0.012610644 0.67001557
0.013566898 0.01216343 0.67020005
0.013589101 0.011714786 0.67038488
0.013611409 0.011264622 0.67057061
0.01363379 0.010813028 0.67075688
0.013656246 0.010359913 0.67094386
0.013678743 0.0099053085 0.67113113
0.013701347 0.0094492137 0.67131937
0.013724025 0.0089916587 0.67150807
0.013746746 0.0085324645 0.67169726
0.013769575 0.0080718398 0.67188728
0.01379248 0.0076096654 0.67207801
0.013815462 0.0071459413 0.67226928
0.013838486 0.0066806674 0.67246103
0.013861622 0.006213814 0.67265362
0.013884835 0.0057454705 0.67284679
0.013908125 0.0052755177 0.67304069
0.01393146 0.0048039556 0.673235
0.013954907 0.0043308139 0.6734302
0.013978434 0.0038561225 0.67362607
0.01400204 0.0033798218 0.67382258
0.01402569 0.0029018819 0.67401946
0.014049457 0.0024223328 0.67421734
0.014073305 0.0019411743 0.67441583
0.014097196 0.0014583468 0.67461473
0.014121206 0.00097388029 0.67481458
0.014145296 0.00048777461 0.67501515
0.01416947 2.9802322e-08 0.67521644
0.01419369 -0.00048941374 0.67541802
0.01421803 -0.00098052621 0.67562062
0.014242453 -0.0014733374 0.67582393
0.01426696 -0.0019678473 0.67602801
0.014291515 -0.002464056 0.67623246
0.014316191 -0.0029619336 0.6764378
0.014340953 -0.0034615695 0.67664397
0.014365801 -0.0039629638 0.6768508
0.014390697 -0.0044660568 0.6770581
0.014415718 -0.0049709082 0.67726636
0.014440825 -0.0054775476 0.67747539
0.014465982 -0.0059859157 0.67768484
0.014491266 -0.0064961016 0.67789531
0.014516638 -0.0070080459 0.67810655
0.014542098 -0.0075217783 0.6783185
0.01456761 -0.0080372989 0.67853081
0.01459325 -0.0085546374 0.67874426
0.014618981 -0.0090738237 0.67895854
0.014644802 -0.0095948577 0.67917347
0.014670676 -0.01011768 0.67938888
0.014696679 -0.010642409 0.67960536
0.014722777 -0.011168987 0.67982262
0.014748966 -0.011697441 0.6800406
0.014775209 -0.012227744 0.68025911
0.014801586 -0.012759954 0.68047869
0.014828056 -0.013294101 0.68069899
0.014854623 -0.013830155 0.68092018
0.014881244 -0.014368057 0.68114185
0.014908001 -0.014908016 0.68136454
0.014934854 -0.015449852 0.68158817
0.014961764 -0.015993595 0.68181217
0.014988811 -0.016539365 0.68203723
0.015015956 -0.017087132 0.68226331
0.015043201 -0.017636836 0.68249005
0.015070502 -0.018188506 0.68271732
0.015097944 -0.018742293 0.68294585
0.015125487 -0.019298017 0.68317509
0.015153131 -0.019855797 0.68340528
0.015180833 -0.020415604 0.68363589
0.015208679 -0.020977467 0.68386763
0.015236628 -0.021541446 0.68410039
0.015264679 -0.022107422 0.68433386
0.015292792 -0.022675484 0.68456787
0.015321051 -0.023245722 0.68480313
0.015349413 -0.023818046 0.68503922
0.01537784 -0.024392426 0.68527591
0.015406413 -0.024968982 0.68551379
0.015435095 -0.025547713 0.68575257
0.015463882 -0.02612862 0.68599224
0.015492733 -0.026711613 0.68623245
0.015521736 -0.027296841 0.68647385
0.015550848 -0.027884275 0.6867162
0.01558007 -0.028473914 0.68695939
0.015609358 -0.029065698 0.68720329
0.015638798 -0.029659808 0.68744838
0.015668351 -0.030256093 0.68769431
0.015698018 -0.030854702 0.68794131
0.015727749 -0.031455487 0.68818879
0.015757641 -0.032058656 0.6884377
0.015787646 -0.03266409 0.68868744
0.015817719 -0.03327179 0.68893784
0.015847951 -0.033881783 0.68918949
0.015878303 -0.034494221 0.68944222
0.015908768 -0.035108984 0.68969584
0.015939305 -0.035726011 0.68994999
0.015970007 -0.036345512 0.69020563
0.016000826 -0.036967427 0.69046217
0.016031764 -0.037591726 0.69071984
0.016062777 -0.038218319 0.69097793
0.016093954 -0.038847446 0.69123745
0.016125256 -0.039479047 0.69149804
0.016156677 -0.040113121 0.69175965
0.016188174 -0.04074955 0.69202185
0.016219843 -0.041388512 0.69228548
0.016251635 -0.042030096 0.69255012
0.016283505 -0.042674005 0.69281548
0.016315548 -0.043320596 0.69308221
0.016347716 -0.043969721 0.69335002
0.016380012 -0.044621378 0.69361883
0.016412387 -0.045275539 0.69388837
0.016444938 -0.045932382 0.69415939
0.01647762 -0.046591878 0.69443148
0.016510433 -0.047253996 0.69470465
0.016543325 -0.047918588 0.69497848
0.0165764 -0.048586011 0.69525379
0.016609605 -0.049256057 0.69553018
0.016642947 -0.049928814 0.69580775
0.01667637 -0.050604135 0.69608599
0.01670998 -0.051282316 0.69636583
0.016743723 -0.0519633 0.69664669
0.016777555 -0.052646786 0.69692832
0.016811572 -0.053333253 0.69721156
0.016845729 -0.054022491 0.69749588
0.016880024 -0.054714561 0.69778144
0.016914409 -0.055409253 0.69806767
0.016948985 -0.056106955 0.6983555
0.016983703 -0.056807548 0.69864452
0.017018564 -0.057510972 0.69893473
0.017053515 -0.058217138 0.69922572
0.029290007 0.076154053 0.79296505
0.026168993 0.067167073 0.76784915
0.023648955 0.059910685 0.74756944
0.021571638 0.05392912 0.73085248
0.019829864 0.048913687 0.71683574
0.018348288 0.044647485 0.70491296
0.017072765 0.040974647 0.69464833
0.01596301 0.037779123 0.6857177
0.014988762 0.0349738 0.6778776
0.014126558 0.032491088 0.67093909
0.013659589 0.030961722 0.66718125
0.013659589 0.030506402 0.66718125
0.013659589 0.030051112 0.66718125
0.013659589 0.029595792 0.66718125
0.013659589 0.029140443 0.66718125
0.013659589 0.028685153 0.66718119
0.013659589 0.028229833 0.66718119
0.013659589 0.027774513 0.66718125
0.013659589 0.027319193 0.66718119
0.013659589 0.026863873 0.66718119
0.013659589 0.026408553 0.66718119
0.013659589 0.025953263 0.66718125
0.013659589 0.025497943 0.66718119
0.013659589 0.025042593 0.66718119
0.013659589 0.024587303 0.66718119
0.013659589 0.024131984 0.66718119
0.013659589 0.023676634 0.66718119
0.013659589 0.023221284 0.66718125
0.013659589 0.022765994 0.66718125
0.013659589 0.022310674 0.66718125
0.013659589 0.021855354 0.66718125
0.013659589 0.021400064 0.66718125
0.013659589 0.020944715 0.66718125
0.013659589 0.020489395 0.66718119
0.013659589 0.020034105 0.66718125
0.013659589 0.019578755 0.66718119
0.013659589 0.019123435 0.66718119
0.01367005 0.01868242 0.66726536
0.013691871 0.01825586 0.66744101
0.013713762 0.017827898 0.6676172
0.013735691 0.017398566 0.66779363
0.013757723 0.016967893 0.6679709
0.013779826 0.016535789 0.66814882
0.013801999 0.016102314 0.66832727
0.013824211 0.015667498 0.66850597
0.013846528 0.015231192 0.66868562
0.013868918 0.014793545 0.66886574
0.013891345 0.014354408 0.66904622
0.01391388 0.01391387 0.6692276
0.013936487 0.013471991 0.66940951
0.013959168 0.013028562 0.66959202
0.013981889 0.012583733 0.66977489
0.014004719 0.012137473 0.66995859
0.014027623 0.011689693 0.67014289
0.014050602 0.011240512 0.67032784
0.014073621 0.010789782 0.67051309
0.014096752 0.010337651 0.67069924
0.014119958 0.0098839998 0.67088598
0.014143241 0.009428829 0.67107332
0.014166566 0.008972168 0.67126107
0.014190002 0.0085140169 0.67144966
0.014213517 0.0080543458 0.67163891
0.014237074 0.0075931549 0.67182839
0.014260745 0.0071304142 0.67201895
0.014284495 0.0066661239 0.6722101
0.014308324 0.006200254 0.67240185
0.014332198 0.0057328939 0.67259395
0.014356186 0.0052639246 0.67278695
0.014380255 0.0047934353 0.67298073
0.014404405 0.0043213069 0.67317498
0.0144286 0.0038476288 0.67336971
0.014452913 0.0033723712 0.67356539
0.014477307 0.0028954744 0.67376167
0.014501784 0.0024169683 0.67395866
0.014526308 0.0019368827 0.67415601
0.01455095 0.0014550984 0.67435431
0.014575678 0.00097173452 0.67455333
0.014600452 0.00048667192 0.67475271
0.014625347 -0 0.67495304
0.014650329 -0.00048834085 0.67515409
0.014675395 -0.00097835064 0.67535579
0.014700509 -0.0014700294 0.67555785
0.014725748 -0.0019634366 0.67576098
0.014751073 -0.0024585128 0.67596483
0.014776486 -0.0029552877 0.67616928
0.014801948 -0.0034537613 0.6763742
0.014827535 -0.0039539933 0.67658013
0.014853213 -0.004455924 0.67678672
0.01487898 -0.0049596131 0.67699409
0.014904796 -0.0054650605 0.67720187
0.014930741 -0.005972296 0.67741066
0.014956778 -0.0064812601 0.67762017
0.014982864 -0.0069920123 0.6778301
0.015009083 -0.0075045228 0.6780411
0.015035393 -0.0080188811 0.67825282
0.015061796 -0.0085349977 0.67846525
0.015088252 -0.0090529323 0.67867821
0.015114839 -0.0095726848 0.67889214
0.015141523 -0.010094374 0.67910689
0.015168299 -0.010617822 0.67932236
0.01519513 -0.011143088 0.67953831
0.015222098 -0.011670262 0.67975533
0.01524916 -0.012199283 0.67997307
0.01527632 -0.012730271 0.68019164
0.015303534 -0.013263077 0.68041068
0.015330888 -0.01379779 0.6806308
0.01535834 -0.01433444 0.6808517
0.015385848 -0.014872968 0.68107307
0.015413497 -0.015413493 0.68129557
0.015441245 -0.015955925 0.68151885
0.015469094 -0.016500384 0.68174303
0.015497001 -0.01704666 0.68196756
0.015525051 -0.017595023 0.68219328
0.015553203 -0.018145353 0.68241984
0.015581457 -0.018697739 0.68264723
0.015609772 -0.019252032 0.68287504
0.015638232 -0.019808412 0.6831041
0.015666796 -0.020366818 0.68333393
0.015695464 -0.02092728 0.68356466
0.015724195 -0.021489739 0.68379593
0.015753074 -0.022054315 0.68402827
0.01578206 -0.022620946 0.68426156
0.015811108 -0.023189604 0.68449533
0.015840309 -0.023760438 0.68473029
0.015869616 -0.024333388 0.68496609
0.015899034 -0.024908453 0.68520284
0.015928514 -0.025485575 0.68544006
0.015958151 -0.026064962 0.6856786
0.015987895 -0.026646465 0.68591797
0.016017752 -0.027230173 0.68615824
0.016047677 -0.027815938 0.68639904
0.016077757 -0.028403997 0.68664116
0.016107952 -0.028994292 0.68688405
0.016138259 -0.029586822 0.68712801
0.016168635 -0.030181438 0.68737251
0.016199172 -0.030778438 0.6876182
0.016229823 -0.031377673 0.68786484
0.016260592 -0.031979144 0.68811244
0.01629143 -0.032582879 0.68836069
0.016322434 -0.033188909 0.68861014
0.016353555 -0.033797324 0.68886054
0.016384747 -0.034407973 0.68911159
0.016416106 -0.035021007 0.68936396
0.016447585 -0.035636425 0.68961728
0.016479185 -0.036254197 0.68987155
0.016510859 -0.036874235 0.69012642
0.016542705 -0.037496746 0.69038272
0.016574671 -0.03812173 0.69063997
0.016606763 -0.038749069 0.69089824
0.016638929 -0.039378792 0.6911571
0.01667127 -0.040011019 0.69141734
0.016703736 -0.040645778 0.69167864
0.01673633 -0.041282922 0.6919409
0.016769001 -0.04192248 0.69220376
0.016801851 -0.04256466 0.69246817
0.016834827 -0.043209374 0.69273353
0.016867885 -0.043856502 0.6929996
0.016901122 -0.044506282 0.69326711
0.016934492 -0.045158625 0.69353557
0.016967993 -0.045813531 0.69380522
0.017001575 -0.04647094 0.69407541
0.017035343 -0.047131091 0.6943472
0.017069243 -0.047793865 0.69462001
0.017103281 -0.048459291 0.6948939
0.017137403 -0.049127221 0.6951685
0.017171713 -0.049797952 0.69544464
0.017206158 -0.050471395 0.69572181
0.017240744 -0.051147521 0.69600016
0.017275415 -0.051826239 0.69627917
0.017310282 -0.052507848 0.69655973
0.017345287 -0.053192198 0.69684142
0.017380381 -0.053879172 0.69712383
0.017415673 -0.054569066 0.69740784
0.017451106 -0.055261821 0.69769299
0.017486684 -0.055957377 0.69797927
0.017522356 -0.056655586 0.69826639
0.017558223 -0.057356834 0.69855499
0.017594241 -0.058060974 0.69884479
0.029592346 0.074458152 0.78771615
0.026501883 0.06582725 0.76364827
0.023995979 0.058828831 0.74413288
0.021922953 0.053039402 0.7279886
0.020179693 0.048170894 0.71441245
0.018693188 0.04401949 0.70283586
0.017410716 0.040437788 0.69284821
0.01629287 0.037315965 0.68414271
0.015309945 0.034570873 0.67648792
0.014438835 0.032138079 0.66970384
0.01424582 0.031248897 0.66820073
0.01424582 0.030789346 0.66820073
0.01424582 0.030329823 0.66820073
0.01424582 0.029870272 0.66820073
0.01424582 0.02941072 0.66820073
0.01424582 0.028951228 0.66820073
0.01424582 0.028491646 0.66820073
0.01424582 0.028032094 0.66820073
0.01424582 0.027572572 0.66820073
0.01424582 0.02711302 0.66820067
0.01424582 0.026653498 0.66820073
0.01424582 0.026193947 0.66820073
0.01424582 0.025734395 0.66820073
0.01424582 0.025274843 0.66820073
0.01424582 0.024815321 0.66820073
0.01424582 0.024355799 0.66820073
0.01424582 0.023896217 0.66820073
0.01424582 0.023436666 0.66820073
0.01424582 0.022977173 0.66820073
0.01424582 0.022517592 0.66820073
0.01424582 0.02205807 0.66820073
0.01424582 0.021598518 0.66820073
0.01424582 0.021138996 0.66820067
0.01424582 0.020679444 0.66820073
0.01424582 0.020219892 0.66820073
0.01424582 0.01976037 0.66820073
0.01424582 0.019300818 0.66820073
0.01424582 0.018841267 0.66820073
0.01424582 0.018381745 0.66820073
0.01424582 0.017922193 0.66820067
0.01424582 0.017462641 0.66820073
0.01424582 0.017003119 0.66820073
0.01424582 0.016543597 0.66820073
0.01424582 0.016084015 0.66820073
0.01425497 0.015634507 0.66827202
0.014277901 0.015199065 0.66845053
0.014300939 0.014762282 0.66863
0.01432405 0.014324069 0.66880995
0.014347238 0.013884455 0.66899049
0.014370466 0.013443351 0.66917145
0.014393803 0.013000876 0.66935313
0.014417217 0.01255697 0.66953552
0.014440707 0.012111574 0.66971844
0.014464238 0.011664718 0.66990173
0.014487881 0.011216432 0.67008585
0.014511603 0.010766685 0.67027056
0.014535401 0.010315478 0.67045587
0.014559242 0.009862721 0.67064154
0.014583197 0.0094085038 0.6708281
0.014607233 0.0089528263 0.67101538
0.014631347 0.0084956288 0.67120308
0.014655503 0.0080369413 0.67139125
0.014679777 0.0075766444 0.67158031
0.014704131 0.007114917 0.67176998
0.014728529 0.0066516399 0.67195994
0.014753045 0.0061867833 0.67215085
0.014777644 0.0057204068 0.67234242
0.014802324 0.0052524507 0.67253464
0.014827049 0.0047829151 0.67272723
0.014851894 0.0043118894 0.6729207
0.014876824 0.0038391948 0.67311484
0.014901836 0.0033649206 0.67330962
0.014926895 0.0028890967 0.67350477
0.014952078 0.0024116337 0.67370087
0.014977344 0.0019325614 0.67389768
0.015002697 0.0014518797 0.67409515
0.015028097 0.00096955895 0.67429292
0.015053621 0.00048559904 0.6744917
0.015079233 -0 0.67469114
0.015104893 -0.00048723817 0.674891
0.015130679 -0.00097614527 0.6750918
0.015156554 -0.0014667511 0.67529333
0.015182517 -0.0019590259 0.67549551
0.01520853 -0.0024529994 0.6756981
0.015234672 -0.002948612 0.67590165
0.015260904 -0.0034460127 0.67610598
0.015287225 -0.0039450824 0.67631096
0.015313599 -0.0044458807 0.67651635
0.015340104 -0.0049484074 0.67672276
0.0153667 -0.0054526925 0.67692995
0.015393388 -0.0059586763 0.67713773
0.01542013 -0.0064664781 0.67734599
0.015447005 -0.006976068 0.67755532
0.015473973 -0.0074873865 0.67776531
0.015500996 -0.0080004632 0.67797577
0.015528154 -0.0085154474 0.67818725
0.015555407 -0.00903216 0.67839944
0.015582755 -0.0095507205 0.67861247
0.015610158 -0.010071069 0.67882591
0.015637701 -0.010593265 0.67904037
0.015665341 -0.011117339 0.67925566
0.015693078 -0.011643261 0.67947161
0.01572087 -0.01217097 0.6796881
0.015748806 -0.012700617 0.67990565
0.015776839 -0.013232201 0.68012398
0.015804972 -0.013765603 0.68034309
0.015833165 -0.014300913 0.68056267
0.0158615 -0.014838159 0.68078327
0.015889937 -0.015377373 0.68100476
0.015918432 -0.015918404 0.68122667
0.015947074 -0.016461492 0.68144971
0.015975818 -0.017006487 0.68167359
0.016004667 -0.017553508 0.6818983
0.016033577 -0.018102378 0.68212342
0.016062634 -0.018653363 0.68234968
0.016091798 -0.019206315 0.68257678
0.016121067 -0.019761264 0.6828047
0.016150398 -0.02031824 0.68303323
0.016179882 -0.020877212 0.68326277
0.016209472 -0.02143833 0.6834932
0.016239172 -0.022001475 0.68372452
0.016268935 -0.022566557 0.68395627
0.016298853 -0.023133844 0.68418926
0.016328881 -0.023703188 0.68442315
0.016358973 -0.024274588 0.68465757
0.016389225 -0.024848163 0.68489307
0.016419586 -0.025423855 0.68512952
0.016450062 -0.026001692 0.68536687
0.016480604 -0.026581615 0.68560475
0.016511306 -0.027163774 0.68584383
0.016542124 -0.027748048 0.68608385
0.016573055 -0.028334558 0.68632478
0.016604055 -0.028923184 0.68656617
0.01663522 -0.029514074 0.68680888
0.016666502 -0.0301072 0.68705249
0.0166979 -0.030702561 0.68729699
0.016729372 -0.031300068 0.68754208
0.016761009 -0.031899959 0.68778843
0.016792765 -0.032502115 0.68803579
0.016824594 -0.033106446 0.68828362
0.016856592 -0.033713162 0.68853283
0.016888712 -0.034322232 0.68878305
0.016920956 -0.034933567 0.6890341
0.016953273 -0.035547167 0.68928576
0.016985763 -0.036163211 0.68953878
0.01701838 -0.036781669 0.68979281
0.017051119 -0.037402451 0.69004774
0.017083935 -0.038025498 0.69030339
0.017116928 -0.038651109 0.69056028
0.01715005 -0.039279133 0.69081831
0.017183298 -0.039909601 0.69107717
0.017216628 -0.040542364 0.69133675
0.017250137 -0.04117775 0.6915977
0.017283775 -0.041815609 0.69185972
0.017317496 -0.042455792 0.69212228
0.017351398 -0.043098629 0.69238627
0.017385434 -0.043743968 0.69265139
0.017419605 -0.0443919 0.69291747
0.017453855 -0.045042187 0.69318414
0.017488295 -0.045695186 0.69345242
0.01752287 -0.046350837 0.69372171
0.017557582 -0.047008991 0.69399202
0.017592382 -0.047669679 0.69426304
0.01762737 -0.048333079 0.69453549
0.017662497 -0.04899919 0.69480908
0.017697765 -0.049667925 0.69508374
0.017733121 -0.050339192 0.69535905
0.017768672 -0.051013261 0.69563591
0.017804366 -0.051690072 0.69591391
0.017840205 -0.052369624 0.69619304
0.017876131 -0.05305171 0.69647276
0.017912259 -0.053736746 0.69675422
0.017948534 -0.054424554 0.69703668
0.017984899 -0.055115014 0.69731987
0.018021468 -0.055808365 0.69760466
0.018058186 -0.056504607 0.69789058
0.018095054 -0.05720371 0.6981777
0.018132016 -0.057905465 0.69846559
0.029881366 0.072835863 0.78269488
0.026821867 0.064540148 0.75961274
0.024330597 0.057785213 0.74081749
0.022262864 0.052178621 0.7252177
0.020518987 0.047450155 0.71206111
0.01902852 0.043408811 0.70081645
0.017739872 0.039914727 0.69109434
0.016614737 0.036863953 0.68260586
0.015623772 0.034177005 0.67512959
0.014843026 0.03200528 0.66923934
0.014843026 0.031541407 0.66923928
0.014843026 0.031077594 0.66923928
0.014843026 0.03061375 0.66923928
0.014843026 0.030149937 0.66923928
0.014843026 0.029686034 0.66923934
0.014843026 0.02922222 0.66923934
0.014843026 0.028758377 0.66923928
0.014843026 0.028294533 0.66923934
0.014843026 0.02783066 0.66923928
0.014843026 0.027366847 0.66923928
0.014843026 0.026903003 0.66923928
0.014843026 0.02643919 0.66923928
0.014843026 0.025975317 0.66923928
0.014843026 0.025511444 0.66923928
0.014843026 0.02504763 0.66923928
0.014843026 0.024583757 0.66923934
0.014843026 0.024119943 0.66923934
0.014843026 0.02365607 0.66923928
0.014843026 0.023192257 0.66923928
0.014843026 0.022728413 0.66923928
0.014843026 0.02226457 0.66923934
0.014843026 0.021800727 0.66923928
0.014843026 0.021336883 0.66923928
0.014843026 0.02087301 0.66923934
0.014843026 0.020409167 0.66923934
0.014843026 0.019945353 0.66923934
0.014843026 0.01948148 0.66923928
0.014843026 0.019017667 0.66923928
0.014843026 0.018553793 0.66923928
0.014843026 0.01808998 0.66923928
0.014843026 0.017626107 0.66923928
0.014843026 0.017162263 0.66923934
0.014843026 0.01669842 0.66923934
0.014843026 0.016234577 0.66923928
0.014843026 0.015770763 0.66923928
0.014843026 0.01530686 0.66923934
0.014843026 0.014843017 0.66923928
0.014843026 0.014379203 0.66923928
0.014843026 0.01391536 0.66923928
0.014843026 0.013451487 0.66923934
0.014843026 0.012987673 0.66923934
0.014850659 0.012530267 0.66929686
0.014874804 0.012085795 0.66947907
0.014899028 0.011639893 0.66966176
0.014923329 0.011192501 0.66984516
0.014947674 0.010743648 0.67002881
0.014972136 0.010293335 0.6702134
0.014996678 0.0098415613 0.67039853
0.0150213 0.0093883276 0.67058426
0.015045966 0.0089335442 0.67077041
0.015070751 0.0084773004 0.67095739
0.015095618 0.0080195367 0.67114496
0.015120528 0.0075602829 0.6713329
0.015145559 0.0070995092 0.67152172
0.015170673 0.0066371858 0.67171121
0.01519587 0.0061733723 0.67190135
0.015221114 0.0057079196 0.67209172
0.015246479 0.0052410066 0.67228317
0.015271929 0.0047725141 0.6724751
0.015297464 0.0043024123 0.6726678
0.015323046 0.0038307905 0.67286074
0.015348753 0.0033575594 0.6730547
0.015374546 0.0028827488 0.6732493
0.015400426 0.0024062991 0.67344457
0.015426353 0.0019283295 0.67364019
0.015452408 0.0014486611 0.67383677
0.015478551 0.00096741319 0.67403394
0.015504743 0.00048452616 0.67423159
0.015531062 2.9802322e-08 0.67443013
0.015557473 -0.00048616529 0.67462939
0.015583973 -0.0009739995 0.67482936
0.015610524 -0.001463443 0.67502964
0.015637204 -0.0019546449 0.67523092
0.015663976 -0.0024474859 0.67543292
0.015690841 -0.0029420257 0.67563558
0.015717756 -0.0034382343 0.67583865
0.015744805 -0.0039361715 0.67604268
0.015771948 -0.0044358373 0.67624748
0.015799183 -0.0049372613 0.67645299
0.015826473 -0.0054403245 0.67665887
0.015853899 -0.0059451759 0.67686576
0.015881417 -0.0064518154 0.67707336
0.015909033 -0.0069601834 0.67728168
0.015936704 -0.0074703097 0.67749047
0.015964514 -0.007982254 0.67770028
0.01599242 -0.0084959567 0.67791075
0.01602038 -0.0090114474 0.67812175
0.016048482 -0.0095287859 0.67833376
0.016076682 -0.010047913 0.67854655
0.016104981 -0.010568887 0.67876005
0.016133338 -0.01109165 0.67897397
0.016161839 -0.01161629 0.67918897
0.016190438 -0.012142807 0.67940474
0.016219141 -0.012671202 0.67962128
0.016247902 -0.013201386 0.6798383
0.016276808 -0.013733566 0.68005633
0.016305817 -0.014267594 0.6802752
0.01633493 -0.014803559 0.6804949
0.016364103 -0.015341312 0.68071496
0.016393425 -0.015881121 0.68093616
0.016422851 -0.016422838 0.68115813
0.016452339 -0.016966462 0.68138063
0.016481979 -0.017512083 0.68160427
0.016511725 -0.018059701 0.68182868
0.016541578 -0.018609256 0.68205386
0.016571494 -0.019160777 0.68227959
0.016601564 -0.019714326 0.68250644
0.016631743 -0.02026996 0.68273413
0.016662033 -0.020827502 0.68296266
0.016692387 -0.0213871 0.68319166
0.016722899 -0.021948814 0.68342185
0.016753521 -0.022512496 0.68365288
0.016784256 -0.023078322 0.68388474
0.016815057 -0.023646176 0.68411714
0.01684602 -0.024216115 0.68435073
0.016877094 -0.024788201 0.68458521
0.016908238 -0.025362343 0.68482012
0.016939543 -0.02593866 0.68505633
0.016970966 -0.026517123 0.68529332
0.017002504 -0.027097702 0.68553126
0.017034113 -0.027680427 0.68576974
0.017065888 -0.028265357 0.68600953
0.01709778 -0.028852493 0.68625009
0.017129792 -0.029441804 0.68649167
0.017161876 -0.03003329 0.68673372
0.01719413 -0.030627042 0.68697703
0.017226504 -0.031223059 0.68722129
0.017259 -0.031821221 0.68746638
0.017291572 -0.032421649 0.68771219
0.017324315 -0.03302443 0.68795919
0.01735718 -0.033629507 0.68820715
0.017390123 -0.034236759 0.6884557
0.01742324 -0.034846485 0.68870556
0.017456485 -0.035458505 0.68895632
0.017489854 -0.036072791 0.68920809
0.017523304 -0.036689371 0.6894604
0.017556932 -0.037308484 0.68971419
0.017590687 -0.037929922 0.68996888
0.017624576 -0.038553745 0.69022441
0.017658541 -0.039179862 0.69048071
0.017692689 -0.039808542 0.69073838
0.017726971 -0.040439636 0.690997
0.017761383 -0.041073203 0.69125658
0.017795879 -0.041709065 0.69151688
0.017830562 -0.04234755 0.69177854
0.017865378 -0.042988569 0.69204128
0.017900283 -0.043631911 0.69230449
0.017935373 -0.044277936 0.69256932
0.017970603 -0.044926465 0.69283509
0.018005969 -0.045577586 0.69310188
0.018041423 -0.046231151 0.69336933
0.01807707 -0.046887368 0.69363832
0.018112857 -0.047546238 0.69390827
0.018148789 -0.04820773 0.69417936
0.018184807 -0.048871666 0.69445109
0.018221024 -0.049538374 0.69472432
0.018257385 -0.050207794 0.69499868
0.018293891 -0.050879866 0.69527411
0.018330488 -0.051554471 0.6955502
0.018367289 -0.052231967 0.69582778
0.018404236 -0.052912176 0.69610655
0.018441277 -0.053594947 0.69638598
0.018478524 -0.054280639 0.69666708
0.01851592 -0.054969132 0.69694918
0.018553469 -0.055660397 0.69723243
0.018591113 -0.056354314 0.6975165
0.018628968 -0.057051212 0.69780201
0.018666977 -0.05775097 0.69808882
0.030158203 0.071283042 0.77788866
0.027129464 0.0633021 0.75573105
0.024653643 0.056778103 0.73761839
0.022591837 0.05134511 0.72253466
0.020848345 0.046750873 0.70977962
0.019354617 0.042814791 0.69885182
0.018060675 0.039405137 0.68938553
0.016928855 0.0364227 0.68110538
0.015930569 0.033792138 0.6738022
0.015451519 0.032307714 0.6702975
0.015451519 0.03183952 0.6702975
0.015451519 0.031371266 0.6702975
0.015451519 0.030903071 0.6702975
0.015451519 0.030434817 0.6702975
0.015451519 0.029966593 0.67029756
0.015451519 0.029498339 0.6702975
0.015451519 0.029030114 0.6702975
0.015451519 0.02856189 0.67029756
0.015451519 0.028093666 0.67029756
0.015451519 0.027625471 0.6702975
0.015451519 0.027157217 0.6702975
0.015451519 0.026688993 0.6702975
0.015451519 0.026220769 0.6702975
0.015451519 0.025752544 0.6702975
0.015451519 0.02528432 0.67029756
0.015451519 0.024816096 0.6702975
0.015451519 0.024347842 0.6702975
0.015451519 0.023879588 0.67029756
0.015451519 0.023411393 0.67029756
0.015451519 0.022943169 0.6702975
0.015451519 0.022474945 0.6702975
0.015451519 0.02200672 0.6702975
0.015451519 0.021538496 0.6702975
0.015451519 0.021070242 0.6702975
0.015451519 0.020602047 0.6702975
0.015451519 0.020133793 0.6702975
0.015451519 0.019665569 0.6702975
0.015451519 0.019197345 0.67029756
0.015451519 0.01872912 0.6702975
0.015451519 0.018260866 0.67029756
0.015451519 0.017792672 0.67029756
0.015451519 0.017324448 0.6702975
0.015451519 0.016856223 0.6702975
0.015451519 0.016387999 0.6702975
0.015451519 0.015919745 0.6702975
0.015451519 0.015451521 0.6702975
0.015451519 0.014983296 0.67029756
0.015451519 0.014515072 0.6702975
0.015451519 0.014046818 0.6702975
0.015451519 0.013578624 0.67029756
0.015451519 0.013110369 0.67029756
0.015451519 0.012642145 0.6702975
0.015451519 0.012173951 0.6702975
0.015451519 0.011705726 0.6702975
0.015451519 0.011237472 0.6702975
0.015451519 0.010769278 0.6702975
0.015451519 0.010301024 0.6702975
0.015451519 0.0098327696 0.6702975
0.015457488 0.009368211 0.67034119
0.015482853 0.0089144111 0.67052674
0.015508302 0.0084590912 0.67071295
0.015533797 0.008002311 0.67089945
0.015559414 0.0075439811 0.67108685
0.015585116 0.0070841908 0.6712749
0.015610864 0.0066227913 0.67146325
0.015636737 0.0061599314 0.67165256
0.015662694 0.0056955516 0.67184246
0.015688738 0.0052295923 0.67203295
0.01571483 0.0047620833 0.67222387
0.015741048 0.0042929947 0.67241567
0.015767355 0.0038224161 0.67260808
0.01579375 0.0033501983 0.6728012
0.015820192 0.0028764009 0.67299467
0.015846763 0.0024010241 0.67318904
0.015873425 0.0019240677 0.67338413
0.015900174 0.0014454722 0.67357981
0.015926976 0.00096529722 0.67377591
0.015953908 0.00048345327 0.67397285
0.015980929 2.9802322e-08 0.67417061
0.016008003 -0.0004850626 0.67436868
0.01603521 -0.00097182393 0.6745677
0.016062509 -0.0014601946 0.67476743
0.016089901 -0.001950264 0.67496777
0.016117346 -0.0024420321 0.67516857
0.016144926 -0.0029354393 0.6753704
0.016172601 -0.0034305453 0.67557275
0.016200369 -0.00392735 0.675776
0.016228192 -0.0044258237 0.6759795
0.016256154 -0.0049260855 0.67618406
0.016284211 -0.0054280758 0.67638934
0.016312364 -0.0059317648 0.67659527
0.016340574 -0.0064371824 0.67680168
0.016368924 -0.0069443882 0.67700911
0.016397372 -0.0074533522 0.67721725
0.016425876 -0.0079640448 0.67742574
0.016454523 -0.0084765851 0.67763531
0.01648327 -0.008990854 0.6778456
0.016512118 -0.0095069706 0.6780566
0.016541023 -0.010024846 0.67826807
0.016570073 -0.010544538 0.67848063
0.016599225 -0.011066109 0.67869389
0.01662848 -0.011589527 0.67890787
0.016657794 -0.012114733 0.67912233
0.016687255 -0.012641877 0.67933798
0.016716823 -0.013170809 0.67955422
0.016746495 -0.013701677 0.6797713
0.016776226 -0.014234364 0.6799888
0.016806109 -0.014769018 0.68020743
0.016836099 -0.015305549 0.68042684
0.016866149 -0.015843928 0.68064666
0.016896354 -0.016384333 0.68086761
0.016926667 -0.016926646 0.6810894
0.016957089 -0.017470896 0.68131196
0.016987573 -0.018017113 0.68153501
0.017018216 -0.018565297 0.68175912
0.017048968 -0.019115508 0.68198419
0.01707983 -0.019667685 0.68220997
0.017110759 -0.0202218 0.68243617
0.017141847 -0.020777971 0.68266368
0.017173048 -0.021336198 0.68289191
0.017204363 -0.021896452 0.68312097
0.017235745 -0.022458702 0.68335056
0.017267289 -0.023023009 0.68358135
0.017298948 -0.023589462 0.68381286
0.017330723 -0.024157971 0.68404543
0.017362569 -0.024728507 0.68427843
0.017394578 -0.025301158 0.68451256
0.017426707 -0.025876015 0.68474764
0.017458906 -0.026452899 0.68498319
0.017491274 -0.027031988 0.68521994
0.01752376 -0.027613163 0.68545759
0.017556367 -0.028196573 0.68569613
0.017589048 -0.02878207 0.68593526
0.017621901 -0.029369861 0.68617558
0.017654873 -0.029959768 0.68641686
0.017687973 -0.03055194 0.68665898
0.017721146 -0.031146228 0.68690163
0.017754493 -0.031742841 0.68714559
0.017787965 -0.032341748 0.68739051
0.017821565 -0.032942891 0.68763632
0.017855242 -0.03354618 0.68788266
0.017889095 -0.034151882 0.68813032
0.017923079 -0.034759849 0.68837893
0.017957138 -0.035370111 0.68862814
0.017991383 -0.035982758 0.6888786
0.018025754 -0.036597729 0.68913013
0.01806026 -0.037215084 0.68938255
0.018094845 -0.037834674 0.68963557
0.018129615 -0.038456708 0.68988991
0.018164519 -0.039081216 0.69014531
0.018199557 -0.039708108 0.69040161
0.018234678 -0.040337265 0.69065857
0.018269988 -0.040969044 0.6909169
0.018305434 -0.041603267 0.69117618
0.018341022 -0.042239904 0.69143659
0.018376689 -0.042878926 0.69169748
0.018412551 -0.04352057 0.69195986
0.018448554 -0.044164717 0.69222319
0.018484646 -0.044811219 0.69248724
0.018520931 -0.045460463 0.69275272
0.018557359 -0.04611221 0.69301921
0.018593932 -0.046766549 0.69328678
0.018630592 -0.047423303 0.69355494
0.018667454 -0.048082799 0.69382465
0.018704461 -0.048744947 0.69409537
0.018741617 -0.049409717 0.69436723
0.018778862 -0.050076962 0.69463974
0.018816313 -0.050747007 0.69491369
0.018853916 -0.051419735 0.69518876
0.018891666 -0.052095175 0.69546497
0.018929513 -0.052773178 0.69574183
0.018967567 -0.053454041 0.69602019
0.019005775 -0.054137647 0.69629973
0.019044079 -0.054823846 0.69657999
0.019082597 -0.055512995 0.69686174
0.019121271 -0.056204945 0.69714475
0.019160101 -0.056899697 0.69742876
0.019199032 -0.057597071 0.69771355
0.030423339 0.069794744 0.77328217
0.027425596 0.062110931 0.75199628
0.024965527 0.055805326 0.7345283
0.022910548 0.050538003 0.71993661
0.02116807 0.046071738 0.70756394
0.019671969 0.042236894 0.69694066
0.018373337 0.038908273 0.68771952
0.017235588 0.035991967 0.67964089
0.016230492 0.033415765 0.67250401
0.016071623 0.03261596 0.67137593
0.016071623 0.032143235 0.67137599
0.016071623 0.03167057 0.67137599
0.016071623 0.031197876 0.67137593
0.016071623 0.030725151 0.67137599
0.016071623 0.030252457 0.67137599
0.016071623 0.029779792 0.67137593
0.016071623 0.029307067 0.67137599
0.016071623 0.028834373 0.67137599
0.016071623 0.028361708 0.67137593
