# .PCD v0.7 - Point Cloud Data file format
VERSION 0.7
FIELDS x y z
SIZE 4 4 4
TYPE F F F
COUNT 1 1 1
WIDTH 1006
HEIGHT 1
VIEWPOINT 0 0 0 1 0 0 0
POINTS 1006
DATA ascii
-0.0014236069 0.060355023 0.69743937
0.00028573681 0.058575869 0.69819504
0.001430046 0.058627382 0.69837713
0.0026724092 0.059358817 0.69860142
0.0026724092 0.059358817 0.69860142
-0.0025048819 0.056451738 0.70055997
-0.0025048819 0.056451738 0.70055997
-0.0040433258 0.060360864 0.70042014
-0.00058130879 0.052899092 0.70175666
0.0014565822 0.052433029 0.70222032
0.0046720412 0.057524294 0.70273304
0.0095376279 0.061702184 0.70270699
0.0014674726 0.04989031 0.70379764
0.0023486218 0.050495386 0.70387393
0.0035205244 0.0525143 0.70372856
0.0064500971 0.058343858 0.70359033
-0.0064386958 0.059118927 0.703215
0.013502327 0.06369555 0.70383847
-0.00058871123 0.048568487 0.70443726
-0.0070818663 0.05665496 0.70496035
0.0064835437 0.056583673 0.70469147
-0.01031132 0.059509963 0.7046169
0.0013824578 0.046608411 0.70580262
-0.0029565073 0.049373463 0.70537531
0.010078577 0.05691433 0.70593882
-0.0085647786 0.057294354 0.70514429
-0.0047512478 0.052560464 0.7063185
0.004747923 0.052227169 0.706168
0.004747923 0.052227169 0.706168
0.0074429987 0.053588733 0.70687044
-0.0065298732 0.054316476 0.70621669
0.012500886 0.057742208 0.7068162
-0.0014951769 0.043654278 0.70780247
0.0015907639 0.04434238 0.70727098
-0.0029813282 0.046508729 0.70717299
-0.012559661 0.056518257 0.70782971
0.014730925 0.059321087 0.70750874
0.017516002 0.063693583 0.70748508
0.017516002 0.063693583 0.70748508
-0.0042006457 0.047707111 0.70855868
-0.0096016647 0.052508891 0.70856303
-0.0096016647 0.052508891 0.70856303
-0.012219011 0.054484159 0.70886195
0.012586607 0.055440798 0.70829439
-0.016408525 0.06043043 0.70863485
-0.016408525 0.06043043 0.70863485
0.0084877871 0.047895402 0.71079612
0.0093765929 0.049301662 0.71031094
-0.01149207 0.051411897 0.71028018
-0.01149207 0.051411897 0.71028018
-0.015348773 0.055537522 0.71064901
0.01572559 0.056249231 0.71027458
0.019950952 0.064386934 0.71018183
0.00030385004 0.037373349 0.71131378
0.011546428 0.049527869 0.71131617
-0.013769532 0.052445024 0.71123123
0.014566217 0.053409457 0.71103334
-0.01946662 0.061745435 0.71154261
0.019446744 0.061378807 0.71131766
-0.0030512058 0.038445234 0.71223396
-0.0030512058 0.038445234 0.71223396
-0.0105784 0.047398895 0.71225083
-0.016480982 0.054631189 0.71229398
0.017692635 0.056433171 0.71217954
0.00030717524 0.033481881 0.71372211
0.000306456 0.034323126 0.71320117
0.000306456 0.034323126 0.71320117
0.0076786727 0.042692468 0.71369779
-0.0077717369 0.04335659 0.71342868
0.0092164734 0.04362461 0.71375149
-0.010421061 0.045668542 0.71323436
-0.016546739 0.053317279 0.71317583
0.017171044 0.053659305 0.71332413
0.020264747 0.059566081 0.71362531
0.0049277791 0.039422274 0.71430945
0.0055438364 0.040346578 0.71431279
0.01131922 0.043629974 0.71482867
-0.015993899 0.051057458 0.71401167
0.017282184 0.051537707 0.7147615
-0.020322487 0.059427619 0.71425891
-0.023444701 0.069717169 0.71466923
0.0037113321 0.034329578 0.71524477
-0.0080614695 0.039687246 0.71580887
-0.0083568087 0.04054492 0.71540952
-0.013226612 0.044432532 0.71576428
-0.016108934 0.048636362 0.71561384
-0.016108934 0.048636362 0.71561384
-0.018613219 0.052737474 0.71592754
-0.02046093 0.057352364 0.71577817
-0.00062128576 0.029510826 0.71623361
0.00031057288 0.029504195 0.71618283
-0.003111993 0.0314309 0.71663654
-0.0024846368 0.031057984 0.71618778
0.0062305969 0.036760539 0.71687603
-0.011508336 0.041366696 0.71651351
-0.0066593438 0.036418073 0.71732968
-0.0093812915 0.037525177 0.71773052
0.0097806547 0.038289856 0.71732253
0.016466867 0.045439504 0.71769255
0.023155715 0.061957181 0.71787924
0.024366232 0.068725318 0.71749723
0.010254486 0.03662182 0.71859539
0.012531508 0.039474279 0.71814913
-0.015677471 0.04358314 0.71833867
-0.019450083 0.050507188 0.71845573
-0.00063075777 0.023968816 0.71966368
-0.0125818 0.038374513 0.71905971
0.015158192 0.039790273 0.71996558
0.015724225 0.042140931 0.71901596
-0.017334238 0.044438407 0.71950841
-0.022643995 0.05912599 0.7190271
0.027123507 0.071908832 0.71967149
0.027712069 0.073373765 0.71932399
0.024586907 0.074391156 0.71954632
-0.001581942 0.023409724 0.72036517
-0.008543252 0.032590002 0.72041053
-0.008543252 0.032590002 0.72041053
0.012039262 0.034850508 0.72070944
-0.017733796 0.043384224 0.72060239
-0.021499915 0.053117454 0.72024047
-0.022792635 0.057297856 0.72052228
0.026010292 0.068514913 0.72098172
0.026010292 0.068514913 0.72098172
-0.025969263 0.06935671 0.72061932
-0.027546346 0.071555883 0.72056186
0.0038160319 0.024485961 0.72156399
-0.0053027961 0.028422307 0.72167897
0.0076211165 0.030484527 0.72123361
0.0095340256 0.031462058 0.72141784
-0.012096439 0.033424109 0.72179914
-0.015869955 0.039357543 0.72112679
-0.015869955 0.039357543 0.72112679
0.017800681 0.041640624 0.72146744
-0.019392077 0.045459628 0.72148734
-0.020315165 0.048248559 0.72114521
0.02796294 0.070542872 0.72138876
-0.003833652 0.023640901 0.72262746
-0.0044661439 0.026158839 0.72229379
0.0063907909 0.027480423 0.72267711
-0.0076484932 0.029319227 0.72205985
0.016584791 0.038272589 0.7222417
-0.022389559 0.051815867 0.7229026
-0.022326041 0.052625373 0.7222454
-0.024868721 0.065041274 0.72216308
0.026213896 0.06585446 0.72278005
-0.016343927 0.036532521 0.72334415
-0.021126444 0.047374457 0.72308135
0.023045612 0.053132981 0.72306705
-0.002578547 0.017405242 0.72468972
0.0019291459 0.017362356 0.7241146
0.0038673677 0.019658849 0.72466242
0.0038576373 0.020574093 0.72407514
0.0064530023 0.023876101 0.72492999
-0.008382163 0.025468633 0.72474223
-0.015476068 0.032886654 0.72476196
-0.019348377 0.03998664 0.72480166
0.020600747 0.043132812 0.7243771
-0.025432209 0.062452778 0.72440219
0.025728192 0.063034087 0.72417116
0.026399512 0.063422978 0.72441947
0.0025895869 0.01553753 0.72568923
-0.0032330933 0.017458737 0.72540742
-0.0045328508 0.020721614 0.72574472
0.011649705 0.026535481 0.72562009
0.011649705 0.026535481 0.72562009
-0.0129121 0.029052228 0.72504038
-0.0129121 0.029052228 0.72504038
-0.021313792 0.044565201 0.72513717
0.02331977 0.049878418 0.72582489
-0.00065006176 0.012675941 0.72665429
-0.0025977665 0.014612183 0.7264297
-0.0074822847 0.021470502 0.72685671
-0.0064973463 0.021441281 0.72653586
0.0095200455 0.023583462 0.7263025
-0.0097340364 0.024010599 0.72624654
-0.015579672 0.030510217 0.72632527
0.018848229 0.035421416 0.72660977
-0.020163391 0.038700432 0.7267884
-0.021450829 0.042576388 0.726641
0.028614743 0.063732892 0.72675323
0.0058679567 0.01955989 0.72735447
-0.011733712 0.024119318 0.72731018
-0.013686691 0.026395515 0.72726464
0.014980838 0.028007686 0.72711748
0.018276012 0.032635719 0.727615
-0.022866134 0.04573226 0.72783351
-0.022821974 0.04629603 0.72737658
0.026139995 0.057507992 0.72789937
-0.0032764857 0.012450635 0.7285502
-0.009603166 0.020515591 0.72835469
0.011467935 0.021624759 0.72854948
-0.019020656 0.032794237 0.72876298
0.019028813 0.032152146 0.72886479
-0.024883794 0.055006266 0.72838342
-0.026816295 0.058211029 0.72810078
-0.0046090642 0.014485627 0.72968757
0.0076726107 0.017318001 0.72940278
0.009540461 0.018422589 0.72951031
-0.014453392 0.024308026 0.72915685
-0.017116273 0.027649373 0.72964424
-0.020362293 0.03546983 0.72911191
-0.021068197 0.036539868 0.72966695
-0.024358254 0.050691515 0.72964889
-0.024358254 0.050691515 0.72964889
0.027601428 0.057174385 0.72923094
0.021073669 0.080343395 0.72972894
0.021073669 0.080343395 0.72972894
0.0036357366 0.0095844567 0.73060298
-0.0039715576 0.010590822 0.73095083
-0.0085985921 0.015874356 0.73077112
-0.011249265 0.017866492 0.73087668
-0.016550522 0.024494797 0.73098505
-0.017204758 0.025807112 0.73087668
0.019179361 0.029430106 0.73074478
0.021143436 0.034688175 0.73051846
0.026435193 0.053531289 0.73057187
-0.00066266797 0.0053013861 0.73121941
0.0033231631 0.0066463351 0.73193085
-0.010625103 0.015937656 0.73172677
0.011300061 0.015953064 0.73195869
0.011300061 0.015953064 0.73195869
-0.012617009 0.017929405 0.73172104
-0.019899726 0.030512929 0.731457
-0.019899726 0.030512929 0.731457
-0.021240989 0.033852845 0.73162246
-0.017714651 0.077501677 0.73181081
0.017601367 0.079371937 0.73177505
-0.0066492143 0.012633532 0.73203546
0.0093448143 0.012682259 0.73296446
-0.0086562643 0.013317347 0.73237777
0.0079779122 0.013296545 0.73200089
-0.016636565 0.022625715 0.73223144
0.017336683 0.022671074 0.73271406
0.017651439 0.023646206 0.73245627
0.021990625 0.033985555 0.73256457
0.026020216 0.04937169 0.7328552
0.027366735 0.050728619 0.73296249
0.028671492 0.05434218 0.7327081
-0.020629391 0.077526405 0.73223203
0.00033406689 0.0020044446 0.73319876
-0.0026756327 0.0033445358 0.7334792
-0.0026756327 0.0033445358 0.7334792
-0.022785095 0.035517991 0.73392892
-0.023377752 0.039408237 0.733127
0.016709838 0.077533662 0.73329282
0.0060575139 0.0074036717 0.73498166
-0.01678207 0.019467235 0.73433906
0.01815708 0.020847052 0.73477429
0.020488195 0.026533753 0.73450029
-0.003372703 0.0013491213 0.73551893
-0.0053932536 0.0064042211 0.73537982
0.012149446 0.010799557 0.73567408
0.014160199 0.013485909 0.73543
-0.016189575 0.016526595 0.73552799
0.016853156 0.017527312 0.73536879
-0.019536709 0.023578793 0.73520708
0.024999253 0.042566329 0.73592257
-0.025654333 0.044557512 0.73572654
-0.011471366 0.084348291 0.73560786
-0.011471366 0.084348291 0.73560786
0.0040692473 0.00067824125 0.73684692
0.0064410158 0.0047459006 0.7367661
0.011524012 0.0084732771 0.73672932
0.012629393 0.010373911 0.73625267
-0.013536636 0.01150614 0.73634863
-0.0054349676 0.0033968985 0.73726803
0.0074939285 0.003406316 0.73795444
0.0088305622 0.0054342151 0.73723298
0.010537031 0.006457746 0.7374208
0.028616691 0.045650482 0.73798466
-0.028503161 0.047505289 0.73700583
0.00341065 -0.0034106374 0.73826724
-0.0061531868 0.00136742 0.73883128
0.0085446183 0.0027342141 0.73878264
-0.020451019 0.021132767 0.73811173
-0.021812191 0.025220364 0.73808652
-0.023251664 0.029406548 0.73889828
0.028042335 0.042405516 0.73892969
-0.012980519 0.081640378 0.73864937
-0.010228937 0.081149578 0.73819453
-0.0095688626 0.081676885 0.73875982
0.0082403589 0.00068670511 0.73992097
0.0082403589 0.00068670511 0.73992097
-0.010624362 0.0034271479 0.73946071
0.020535963 0.019166887 0.73913705
-0.0096122082 0.079644024 0.73988104
0.0034469368 -0.0075832605 0.74089539
0.0062047429 -0.0020682514 0.74090564
0.012383176 0.0034398139 0.74037635
-0.013304485 0.0045876009 0.74044818
0.015833527 0.0075725615 0.74054289
-0.018608537 0.012405723 0.74082935
-0.018608537 0.012405723 0.74082935
0.023410361 0.026508436 0.74058855
0.026504256 0.037518293 0.74054283
-0.014473964 0.078572959 0.74084067
-0.013095817 0.078574926 0.74084681
-0.013420992 0.079491451 0.74047983
0.0096446062 0.084734797 0.74071902
0.0087224245 0.085619852 0.74062252
0.010329453 0.087456077 0.74062121
0.010329453 0.087456077 0.74062121
-0.0027607447 -0.0089723766 0.74118459
-0.0096744159 -0.00069099665 0.74149013
-0.01379944 0.0041398406 0.74110711
-0.016552618 0.0082763135 0.74100584
-0.016552618 0.0082763135 0.74100584
-0.020384531 0.015547678 0.74147308
-0.020722564 0.016578078 0.74138957
-0.020722564 0.016578078 0.74138957
0.026941229 0.036612451 0.74140722
-0.027654845 0.037679434 0.74161375
0.029067567 0.042217195 0.74187225
0.011760809 0.080942035 0.74177349
-0.0044888766 0.086669639 0.74133325
0.0055243694 0.086318344 0.74131501
-0.0013873419 -0.012486041 0.7424466
-0.001384894 -0.01177156 0.74200332
-0.0076401038 -0.0041672885 0.74276668
0.0083414325 -0.0041707456 0.74297106
-0.011447352 -0.00069375336 0.74247921
-0.011447352 -0.00069375336 0.74247921
0.012481415 0.0003464222 0.74235278
-0.02361005 0.024998873 0.74271542
-0.023558162 0.025636822 0.74216276
0.025024297 0.031280369 0.74297106
-0.027753323 0.036425933 0.74250531
-0.0034668553 0.082511157 0.74233794
-0.0034668553 0.082511157 0.74233794
0.0076445607 0.082700282 0.74291337
0.0076445607 0.082700282 0.74291337
-0.0083175823 0.083175868 0.7422514
0.00034828545 -0.014627755 0.74349308
-0.0041725594 -0.0083451271 0.74308228
0.012536653 -0.0013929605 0.74346411
-0.015320638 0.0024370551 0.74343222
-0.020901075 0.013585389 0.7435444
0.020889798 0.013230234 0.74340832
-0.02643613 0.033392996 0.74317694
0.00034846537 0.078390069 0.74358064
0.0094029717 0.080449149 0.74348247
-0.0083527109 0.081438959 0.74331146
0.0034816333 0.081470251 0.74340832
-0.0042028408 -0.011207581 0.74491
0.0077050468 -0.0077050328 0.7449047
0.017502796 0.0035005808 0.74477899
-0.017469555 0.0045417845 0.74429756
0.027309407 0.03151083 0.7448259
-0.009109254 0.077779025 0.74499631
-0.0034948546 0.079332948 0.74436581
-0.0066465409 0.080459848 0.7446121
-0.0035097406 -0.01439023 0.74544394
0.011584698 -0.0056166351 0.74549329
0.011584698 -0.0056166351 0.74549329
0.026648548 0.030154943 0.74520117
0.0056270426 0.078778595 0.74596268
0.0056270426 0.078778595 0.74596268
0.00035234948 -0.019379087 0.74643451
0.0035250883 -0.016568199 0.74655557
-0.0084552262 -0.0095124096 0.74640512
0.016557157 -0.0007045269 0.74638176
0.024624024 0.02462402 0.74602175
0.026121354 0.026827395 0.74690497
-0.012037726 -0.0084972084 0.74767244
-0.014149057 -0.00565961 0.74743742
-0.014149057 -0.00565961 0.74743742
0.015546421 -0.0035332441 0.74714869
-0.016979804 -0.0014149249 0.74745154
0.019794574 0.0042417347 0.74725503
-0.02196523 0.0099197924 0.74783689
-0.0071122684 -0.014224499 0.74880415
-0.0071122684 -0.014224499 0.74880415
0.010637556 -0.010637552 0.74805945
0.010637556 -0.010637552 0.74805945
-0.012311392 -0.0094703138 0.74845523
-0.015615094 -0.0049684346 0.74827915
-0.016310157 -0.0035456717 0.74804741
0.027757138 0.02562201 0.74898326
0.00071431854 -0.025001138 0.74992377
-0.0021412135 -0.023553312 0.74971342
-0.00071188255 -0.023492098 0.74904156
0.0057064588 -0.016406059 0.74955755
0.01357531 -0.010717303 0.74998581
-0.019279419 -0.00071403384 0.74982738
0.019946674 0.0014247894 0.74922216
-0.021371618 0.0056991279 0.74922436
0.0085975984 -0.016478717 0.75070167
-0.017201774 -0.0064506531 0.75080079
0.017188257 -0.0064455867 0.75059688
-0.021458231 0.0042916834 0.75026989
0.022195874 0.0057279766 0.7505312
0.022195874 0.0057279766 0.7505312
0.026438734 0.022151381 0.75001132
-0.027933316 0.023635894 0.75061917
-0.00071838917 -0.027298778 0.75139785
0.0035868934 -0.023673475 0.75103194
-0.0053858506 -0.019387811 0.75128162
-0.012933678 -0.013652205 0.75145167
-0.012933678 -0.013652205 0.75145167
0.0028861619 -0.027418524 0.75253904
0.0028861619 -0.027418524 0.75253904
-0.004332161 -0.023466185 0.75271511
-0.0086470013 -0.018735141 0.7521925
-0.011556947 -0.017335415 0.75281745
0.016589381 -0.010458857 0.75244379
0.017285639 -0.0086427927 0.75206625
0.020886002 -0.00072020292 0.75205618
-0.026002569 0.017335057 0.75281173
0.025945377 0.01801762 0.75223649
0.02745072 0.018782079 0.75284576
0.0065212296 -0.022461981 0.75364012
-0.019579681 -0.0065265298 0.75385463
-0.020996159 -0.0021719933 0.75343168
0.0014564832 -0.032770872 0.75496572
0.011638449 -0.020367295 0.7546621
0.011638449 -0.020367295 0.7546621
-0.017429624 -0.011619687 0.75423878
0.019636629 -0.0080001056 0.75461841
0.0065690889 -0.025546432 0.75556588
-0.010228251 -0.023378849 0.75581586
0.015302093 -0.016759396 0.75512129
0.026244849 0.013486624 0.7552489
-0.0065825712 -0.026330262 0.75610828
-0.021993019 -0.0043985844 0.75672531
-0.021993019 -0.0043985844 0.75672531
0.024926187 0.0087974966 0.75673348
0.024872726 0.0095102191 0.75616401
-0.027448365 0.013541341 0.75630838
0.005513614 -0.029403925 0.75744873
0.0066176555 -0.02867648 0.75752002
-0.010304398 -0.026496977 0.75778556
-0.010304398 -0.026496977 0.75778556
0.010281983 -0.02570495 0.75720584
-0.014708041 -0.021326661 0.75755876
-0.014708041 -0.021326661 0.75755876
0.023566741 -0.00073641539 0.75794214
0.027585711 0.011402264 0.75763464
-0.0073893722 -0.030296385 0.75883895
-0.015486736 -0.021386415 0.75830531
0.019554678 -0.014388427 0.75846118
0.021399694 -0.0095929503 0.75847077
-0.021378789 -0.0088463724 0.75820971
0.0251252 0.0059118271 0.7588532
-0.013324009 -0.025907755 0.75930446
0.025223436 0.0044512153 0.75989944
-0.0037227578 -0.038716674 0.76087213
0.013395051 -0.02827844 0.76073372
-0.013374642 -0.027492315 0.76032317
-0.015635373 -0.02531442 0.76086843
0.015626444 -0.025299937 0.76071453
0.017122241 -0.023077786 0.76083356
0.017122241 -0.023077786 0.76083356
0.018603077 -0.020091325 0.76071692
-0.024548287 0.0014877915 0.76063162
0.026043376 0.0044645965 0.76070726
-0.027519537 0.0066939592 0.7605896
-0.027467115 0.0074235499 0.7600764
-0.0097152106 -0.033629566 0.76187605
-0.010450276 -0.032470822 0.76155901
0.014171786 -0.028343529 0.76135439
-0.019368542 -0.01862359 0.76101422
-0.019368542 -0.01862359 0.76101422
-0.0208616 -0.014901131 0.76105517
0.023914043 -0.0052311718 0.76187235
-0.0022475307 -0.044201374 0.76254708
0.010476711 -0.033675134 0.76224273
-0.012749007 -0.032247454 0.76282394
0.011728737 -0.032690447 0.76235002
-0.020209258 -0.018712252 0.7622987
0.02096791 -0.017223626 0.76243013
0.0030032366 -0.044297725 0.76313818
0.0082587153 -0.036788851 0.76313204
0.011286831 -0.035365403 0.76373434
0.023338964 -0.011293024 0.76388443
-0.027095729 0.00075265765 0.76380813
-0.027046297 0.0015025735 0.76331091
0.027821898 0.0022558272 0.76354885
0.0015068074 -0.047464401 0.76407778
-0.012822286 -0.034695625 0.76438498
-0.012822286 -0.034695625 0.76438498
0.01281759 -0.03468284 0.76428491
0.01886398 -0.025655031 0.76449621
-0.022614371 -0.0143224 0.76422572
-0.024162292 -0.0075506866 0.76468176
-0.025674064 -0.0022653639 0.76469904
0.015902797 -0.032562852 0.76547998
-0.023464672 -0.012489691 0.76535285
0.027287584 -0.002273947 0.76573801
0.027287584 -0.002273947 0.76573801
-0.027380314 -0.0034229159 0.76667082
0.0045704674 -0.04646638 0.76709825
-0.0064877598 -0.045031279 0.76764047
0.015997147 -0.035041362 0.76710707
-0.017541837 -0.032795578 0.76744008
0.026720615 -0.0061075389 0.76771438
-0.012996729 -0.040519178 0.76810092
-0.013767174 -0.039771855 0.76822031
0.017638627 -0.035277247 0.76896399
0.017638627 -0.035277247 0.76896399
-0.010765166 -0.04536745 0.7697041
-0.020008873 -0.031552404 0.76993275
0.0023155645 -0.050942421 0.77075946
-0.0077003743 -0.047742307 0.77010143
0.011574663 -0.046298653 0.77068317
0.012346192 -0.045526594 0.77068061
-0.016195161 -0.040102273 0.7705217
0.025409946 -0.01154995 0.77008718
-0.026590519 -0.010404915 0.77035522
0.027022548 -0.010809034 0.77083844
-0.0054209013 -0.05149892 0.77168643
0.0085130176 -0.049530298 0.77150393
-0.010459326 -0.048423037 0.77181447
0.018573143 -0.037533611 0.7714932
-0.019344445 -0.035593748 0.77145582
-0.0015552545 -0.054433882 0.7728498
-0.0015522365 -0.053552121 0.77230334
-0.00077602075 -0.053545415 0.77226812
-0.0062068379 -0.051982284 0.77220798
0.0062060002 -0.05197525 0.77217007
-0.020217648 -0.035769641 0.77284068
-0.020217648 -0.035769641 0.77284068
0.024098691 -0.021766543 0.77275932
-0.02483798 -0.016299874 0.7723282
0.0035095203 -0.055370823 0.77366221
-0.005457921 -0.054579198 0.77360153
-0.0046746992 -0.054538161 0.77338922
0.0074105971 -0.053822786 0.77372378
-0.013251296 -0.048328221 0.77352369
-0.015563501 -0.045134157 0.77304828
0.017523648 -0.042445078 0.77327996
0.025758496 -0.017172337 0.77391207
-0.02649999 -0.015588194 0.77349597
0.0023426684 -0.056224018 0.77403116
-0.0093747545 -0.053123593 0.77415437
-0.012493411 -0.049973607 0.77401268
0.014472317 -0.048500031 0.77452707
0.017190432 -0.044538856 0.7742101
0.018746436 -0.041398376 0.77410799
0.019576864 -0.040719867 0.77482247
0.023432935 -0.027338415 0.77410668
-0.025814675 -0.017992049 0.77452856
0.027385749 -0.016431421 0.77459633
-0.0055008661 -0.05815199 0.77582324
-0.0055008661 -0.05815199 0.77582324
-0.0055008661 -0.05815199 0.77582324
0.0003925639 -0.058881402 0.7755506
0.0062793372 -0.057298928 0.77548981
0.012539496 -0.051725447 0.77505571
-0.016458087 -0.046239346 0.77505571
0.01726103 -0.045506328 0.77537209
-0.0031556932 -0.060747057 0.77694046
0.0015766458 -0.060700834 0.77672309
-0.0015735815 -0.059796065 0.77616829
0.010231127 -0.055877686 0.77624762
-0.012593107 -0.053520679 0.77626914
-0.019671345 -0.042490125 0.77619112
0.022852832 -0.033885241 0.77661657
0.00039488563 -0.061598644 0.77723134
-0.0086835772 -0.058416754 0.77711892
-0.0086835772 -0.058416754 0.77711892
0.018154336 -0.046569794 0.77708381
-0.024496483 -0.026076883 0.7774061
-0.025252352 -0.022884905 0.77701747
-0.025252352 -0.022884905 0.77701747
-0.027620936 -0.019729227 0.77702969
-0.0023799071 -0.063464165 0.77852631
0.0047577322 -0.062643468 0.77840066
0.017476177 -0.050839782 0.77891356
0.021383159 -0.041182339 0.77804339
0.003579285 -0.064425111 0.77927572
-0.0063677416 -0.0636774 0.77949154
0.012730421 -0.058480754 0.77937698
0.020700889 -0.044586539 0.77957135
0.026256783 -0.025461107 0.77938014
-0.0096010976 -0.064007282 0.78098482
0.011193977 -0.062366456 0.78079599
0.012769304 -0.059856117 0.78025699
-0.015977226 -0.055920273 0.78053939
0.016794188 -0.055180907 0.78085148
-0.024743844 -0.029532969 0.78029573
-0.004412754 -0.06819506 0.78178275
0.0064183744 -0.067392945 0.78178346
0.012821515 -0.061703533 0.78143871
-0.019240592 -0.051308215 0.78156424
0.020005934 -0.048814446 0.78103763
-0.021634255 -0.044470847 0.78141117
-0.025608085 -0.028809071 0.78104323
0.004026067 -0.070053577 0.78283978
0.004026067 -0.070053577 0.78283978
-0.0096398499 -0.065872282 0.78215432
0.011262548 -0.065161854 0.78256965
-0.011241023 -0.064234376 0.78201282
-0.012849481 -0.062641174 0.78207165
-0.024963904 -0.033016771 0.78286642
-0.024963904 -0.033016771 0.78286642
0.028126525 -0.027322888 0.78226078
-0.0032320884 -0.071913958 0.78385675
-0.0032320884 -0.071913958 0.78385675
0.0096781198 -0.067746818 0.78330922
-0.017740903 -0.057254702 0.78327101
-0.027446955 -0.030676007 0.78358209
-0.0064840931 -0.072135508 0.78475833
-0.0064840931 -0.072135508 0.78475833
0.0056678527 -0.072062671 0.78446192
0.0085015129 -0.070438698 0.7844429
-0.0016246393 -0.074733377 0.78541303
0.0032516224 -0.074787259 0.78562522
0.014618976 -0.065785408 0.78535724
0.018661356 -0.058418125 0.78506672
-0.027618598 -0.033304751 0.78541017
-0.0057029021 -0.074952424 0.78627521
0.0097978935 -0.073484212 0.78692371
-0.015480441 -0.065995544 0.78629684
0.0044936296 -0.076797932 0.78710771
0.0073623685 -0.076077789 0.78748494
-0.012269471 -0.071980864 0.78745735
-0.022058325 -0.052286386 0.78709894
-0.02860127 -0.033504307 0.78717291
0.0065772641 -0.07892713 0.78897589
-0.006564063 -0.077948213 0.7883783
-0.018869916 -0.063173175 0.78835052
0.02136484 -0.057520717 0.78881896
0.021315588 -0.056568265 0.78813291
0.022153385 -0.054152727 0.78837389
-0.0016480287 -0.08157739 0.78964812
-0.0082422197 -0.079125285 0.78972334
-0.011522368 -0.075718403 0.78929031
0.015642283 -0.070801914 0.7893815
-0.017304387 -0.068393528 0.78964961
-0.017267276 -0.067424595 0.78900963
-0.0082764952 -0.081109643 0.79096448
-0.018165022 -0.067705929 0.79025227
-0.0074703093 -0.083003432 0.79182816
0.0033122415 -0.083634108 0.79111332
0.012422386 -0.077846944 0.79114908
-0.0016651568 -0.086588115 0.7927494
-0.00083072897 -0.08556506 0.79207963
0.014150796 -0.07824558 0.79268473
-0.014559136 -0.077368155 0.79250944
-0.014559136 -0.077368155 0.79250944
-0.014559136 -0.077368155 0.79250944
-0.016631145 -0.074008584 0.79237968
0.0025038724 -0.087635547 0.79349029
0.0041688439 -0.086711913 0.79318047
-0.0066738203 -0.0859254 0.79334664
-0.0066738203 -0.0859254 0.79334664
-0.0058338442 -0.085840821 0.79304922
0.010834606 -0.082509696 0.79305834
0.0025095486 -0.088670701 0.79417545
0.0075326506 -0.087043941 0.79433656
0.015091353 -0.080487221 0.79486072
0.022588203 -0.061908364 0.79420573
0.02097529 -0.068798929 0.79507905
0.023520838 -0.059642136 0.79544789
-0.012636409 -0.085927546 0.79631603
-0.018569322 -0.077653527 0.79690731
-0.018569322 -0.077653527 0.79690731
-0.018569322 -0.077653527 0.79690731
-0.010985512 -0.087884098 0.79726189
-0.016887013 -0.081057668 0.79701257
0.020288141 -0.074389845 0.79737049
-0.021127271 -0.071832716 0.79728055
0.018649925 -0.079686046 0.79823405
-0.016999319 -0.084146619 0.79904604
0.020477556 -0.078497291 0.8002286
0.024003824 -0.066867769 0.80169445
-0.0031204796 0.056995358 0.70090842
0.0045250063 0.059273522 0.70127553
0.0045250063 0.059273522 0.70127553
-0.0010680705 0.052517362 0.702169
0.0071403552 0.060764685 0.7023254
0.00092340825 0.063287213 0.70263761
-0.0031695338 0.05092172 0.7047407
-0.012436789 0.059815079 0.70571083
-0.012436789 0.059815079 0.70571083
-0.016583394 0.065444976 0.70572394
0.0035635498 0.048404694 0.70632541
0.018520694 0.065419629 0.70759892
-0.0027581248 0.043017916 0.70912659
0.0028733467 0.042974513 0.70898986
0.0068467157 0.049227379 0.70935887
-0.014489868 0.055544496 0.70988131
0.016293433 0.057932228 0.70977849
-0.017070612 0.060997423 0.70899487
0.02047874 0.067006983 0.709364
0.02140478 0.068769634 0.7111457
-0.0074361172 0.044562444 0.71256417
-0.0074361172 0.044562444 0.71256417
0.016605496 0.051661551 0.71396399
-0.019285746 0.059028961 0.71295559
-0.021241639 0.064716719 0.71260315
-0.02286686 0.070594072 0.71354496
-0.0044357218 0.037237845 0.71537685
-0.021447619 0.061040919 0.71528351
-0.023166774 0.071253628 0.71496916
0.0087250033 0.037311394 0.7174508
0.0071410048 0.038498625 0.71611035
-0.012697008 0.041237846 0.71737319
0.016887048 0.046997625 0.71716815
-0.018710412 0.051077127 0.71709263
0.021808621 0.058674347 0.71689177
0.02373579 0.065273136 0.71744323
-0.0011539854 0.025149023 0.71912432
0.0010910889 0.025062878 0.7191053
0.0083653312 0.033145472 0.71987647
-0.0056394753 0.034463495 0.71816111
0.013588789 0.040347725 0.71836376
-0.01653149 0.043373864 0.71930218
0.017552024 0.046387523 0.71825147
-0.024766734 0.069156021 0.71926278
-0.0069450261 0.029634668 0.72162294
-0.0087630153 0.031264033 0.72132778
-0.013357455 0.03669101 0.72066468
-0.017530244 0.042873822 0.72069681
0.024758918 0.065281719 0.72114348
0.028324816 0.070971191 0.72174799
0.022274312 0.075732678 0.72171015
0.003722304 0.023077175 0.72231865
0.014947229 0.034927588 0.7228024
-0.020959508 0.04703759 0.72300172
-0.025171673 0.063488953 0.72348428
0.025584698 0.064919874 0.72287208
-0.014249818 0.02947095 0.72580588
-0.011263935 0.02848132 0.72433126
-0.016956298 0.034878958 0.72500885
0.023832612 0.054428205 0.72450429
0.023832612 0.054428205 0.72450429
0.0045673531 0.017290428 0.7275297
0.016878473 0.030987445 0.7270782
0.025932509 0.060293078 0.72602093
0.027145419 0.060895652 0.72654116
-0.00098789996 0.0079021007 0.72971249
-0.0072769411 0.018846406 0.72840905
0.012730075 0.021069791 0.72969091
-0.013069263 0.023074044 0.72886133
0.018435746 0.029628903 0.72968096
0.022999585 0.043040454 0.72921431
-0.02295503 0.044597507 0.72875333
0.0282223 0.05890508 0.72892511
-0.018458627 0.080426902 0.72997683
-0.017795945 0.080411315 0.72993064
0.021073669 0.080343395 0.72972894
0.0035083839 0.0089335144 0.73088109
-0.011088262 0.017205548 0.73120457
0.012618751 0.017599568 0.73175418
0.025636602 0.052923024 0.7303139
-0.022490768 0.081363678 0.73079395
-0.020836724 0.081031635 0.73079032
-0.0030027814 0.0049477695 0.73286736
0.0078164078 0.012971766 0.7321465
0.0078164078 0.012971766 0.7321465
-0.01421874 0.016894661 0.73355389
-0.012997383 0.016911916 0.73261422
-0.018066186 0.023084313 0.7335552
-0.023377825 0.039407402 0.73312777
-0.02804238 0.052412227 0.73303288
-0.0053703482 0.0080555677 0.73434293
-0.012320701 0.011139065 0.73572218
0.018422484 0.021113545 0.73494333
-0.022249877 0.031014135 0.73540962
-0.022249877 0.031014135 0.73540962
0.0022693228 -0.004311542 0.7377677
-0.0010159942 -0.003047809 0.73649311
-0.0043062717 0.001019617 0.73744553
0.010215864 0.0054484904 0.73787892
-0.018358022 0.017337829 0.73746932
0.022617884 0.02917701 0.73695821
-0.0022082245 -0.0067772735 0.73940217
0.0052964417 0.00059741363 0.73872042
-0.01316307 0.0070080981 0.73886108
0.017370595 0.012787831 0.73888797
0.017739804 0.014328331 0.73832887
-0.019139385 0.016917232 0.73876929
-0.022561841 0.026663076 0.73883295
0.026675459 0.039174512 0.73964489
-0.016398629 0.078689612 0.73868227
-0.014891525 0.080846451 0.73900956
-0.012455978 0.0013840199 0.74184102
-0.010850876 0.00088135072 0.74116606
0.01244849 0.0013831854 0.74169034
0.025452102 0.036458433 0.74035478
0.011584005 0.081261307 0.74169177
-0.0027028238 0.08292672 0.74106741
-0.0010331762 0.082713351 0.74068511
0.0029413791 0.084803171 0.74085444
0.0053173052 -0.0053171022 0.74239469
0.021389307 0.015128493 0.74313498
-0.0090714097 0.079549313 0.74394214
0.00090855034 0.079165578 0.74321771
-0.0085539091 0.082650721 0.74241209
0.0052381232 0.084617637 0.74230361
-0.0013950178 0.089281172 0.74383646
0.0029791296 -0.014949255 0.74500573
-0.0084327757 -0.0084327459 0.74572766
0.0054283049 -0.0091933049 0.74488318
-0.026916727 0.030911094 0.74508202
0.025875265 0.030420661 0.74449646
-0.0031755229 -0.017073411 0.74673098
0.0042497823 -0.016290814 0.74774319
0.013016222 -0.0068323016 0.747181
0.016857542 -0.001058951 0.74692184
-0.01746019 0.00061671436 0.74671221
-0.019705204 0.006333828 0.74609917
-0.023274546 0.016925912 0.74665397
0.0031131853 -0.020985682 0.74885666
0.0064275735 -0.016426027 0.74987173
-0.0099345958 -0.011353821 0.74822009
-0.01348387 -0.0078063905 0.74824297
-0.0068307184 -0.018933853 0.75161952
0.020140052 -0.002157867 0.75172317
0.020536786 0.00059686106 0.75067204
-0.027882067 0.02430746 0.75014329
0.0036068757 -0.025969476 0.75247914
-0.010825173 -0.018785505 0.75330669
0.010821145 -0.018778522 0.75320929
-0.021677911 0.00072164339 0.75292158
-0.024785629 0.015039697 0.75266659
-0.0088840891 -0.023010457 0.75494093
0.01111106 -0.021082038 0.7547968
-0.016595762 -0.014954239 0.75541151
0.0028474384 -0.034890682 0.75724775
0.003484 -0.03318771 0.75684124
0.006989019 -0.028690964 0.75765455
0.006989019 -0.028690964 0.75765455
-0.012981731 -0.023084573 0.75733346
0.01146695 -0.023177713 0.7562992
0.021244952 -0.0069599152 0.75653845
0.021244952 -0.0069599152 0.75653845
-0.021947484 -0.003657937 0.7561757
0.023460399 0.00073205435 0.75673866
0.025644565 0.010623842 0.75658095
-0.028566314 0.016114354 0.75649679
0.00092733232 -0.040789708 0.75981474
-0.0031068355 -0.037049059 0.75904483
0.011791077 -0.025792986 0.7581166
-0.017697483 -0.017697513 0.75828052
0.022144569 -0.0073814988 0.7585547
-0.024406966 0.0031419918 0.75908077
-0.005212435 -0.035241086 0.76086253
-0.015363045 -0.02502647 0.76043987
0.021123385 -0.014785916 0.7612195
0.021123385 -0.014785916 0.7612195
0.01842168 -0.025000475 0.76353216
0.025469979 0.0007481873 0.76252544
-0.011027996 -0.03716303 0.76477635
0.013575862 -0.03393963 0.76437134
-0.011044026 -0.040843606 0.7670607
0.024747793 -0.0091347992 0.76698565
-0.026980381 -0.0036100596 0.76646751
0.0061580539 -0.048494637 0.76999962
0.016723992 -0.036974825 0.76904291
-0.020008873 -0.031552404 0.76993275
0.022288278 -0.024593949 0.76956683
-0.026443392 -0.0087864539 0.76925623
-0.0088995127 -0.049139649 0.77148092
0.011552001 -0.045437902 0.77013612
0.017382124 -0.039012022 0.77099597
0.0062424387 -0.054621309 0.77381951
-0.014228839 -0.047169052 0.77358305
0.012944259 -0.04711638 0.77249306
0.025214905 -0.016965682 0.7730639
-0.025642712 -0.015152857 0.77264148
0.025633039 -0.01514715 0.77253532
0.026860898 -0.014793225 0.77319318
-0.026791273 -0.01358971 0.77246243
0.028053831 -0.013247669 0.7734459
0.01112499 -0.052958407 0.7749424
0.014797149 -0.048993625 0.77512097
-0.020368377 -0.038778648 0.77494001
-0.019547494 -0.039876878 0.77439713
0.02277372 -0.032590404 0.77562863
0.025109222 -0.020793974 0.77539778
-0.025453899 -0.019188218 0.77485955
0.003079256 -0.061108589 0.77715379
-0.0091943583 -0.05726745 0.77663565
-0.013129611 -0.05330541 0.77652025
-0.028351318 -0.016932473 0.77643836
0.0055440716 -0.061776757 0.77805841
0.011218417 -0.059166517 0.77884412
-0.017445847 -0.049958527 0.77841431
0.019833785 -0.045221031 0.77854407
0.019833785 -0.045221031 0.77854407
0.022287946 -0.040595889 0.77950251
0.022210542 -0.039265513 0.77850139
0.022210542 -0.039265513 0.77850139
-0.026312767 -0.026312768 0.77999443
0.00099814264 -0.066671848 0.78039426
0.008946538 -0.065161549 0.78137386
0.008946538 -0.065161549 0.78137386
-0.014672695 -0.058689505 0.78106403
0.01317755 -0.059697129 0.78045309
-0.018937673 -0.051077135 0.78101134
-0.021561202 -0.043122411 0.78043139
-0.02807836 -0.02647385 0.78176254
0.0029034885 -0.071139246 0.78332657
-0.0087472275 -0.068897307 0.78362793
-0.0087472275 -0.068897307 0.78362793
0.0087463846 -0.068890691 0.78359985
-0.012494309 -0.064753503 0.78314471
-0.012494309 -0.064753503 0.78314471
-0.012494309 -0.064753503 0.78314471
0.0051021772 -0.07302013 0.78491652
0.008536323 -0.07235302 0.78564334
0.0090069091 -0.071076058 0.78506804
-0.017816536 -0.059118509 0.7845161
0.027495263 -0.031538695 0.7840966
-0.0016279375 -0.075699091 0.78601027
-0.012800321 -0.070807233 0.78710878
0.016884528 -0.065085337 0.78709722
-0.0030087885 -0.079325907 0.78841513
-0.018125629 -0.066735238 0.78960389
-0.020577155 -0.060497269 0.78931201
-0.020577155 -0.060497269 0.78931201
0.022179822 -0.054628566 0.78872848
0.02308837 -0.052773416 0.78985465
-0.023013938 -0.051370889 0.78889191
-0.0051789465 -0.083270445 0.79129332
-0.013200861 -0.075079858 0.79002458
0.00041796252 -0.088603139 0.79394472
-0.0029188734 -0.087147117 0.79324239
0.021108596 -0.064989418 0.79297704
0.015640333 -0.07931681 0.79465938
-0.019250011 -0.071978241 0.79433501
-0.018610762 -0.078672767 0.79758948
0.021099344 -0.071316257 0.79687607
-0.023867283 -0.06478259 0.79992855
0.021246072 -0.080961458 0.8031503
0.024155172 -0.069014758 0.80365187
0.02350341 -0.077474177 0.80648088
-0.00057619583 0.055891037 0.69990504
-0.0015243631 0.050804727 0.70349497
0.0087056626 0.059374571 0.70378208
-0.0035007426 0.045456849 0.70856476
0.0099202134 0.050084993 0.71012872
-0.017246027 0.058431283 0.71080124
-0.019150324 0.065185815 0.70901501
0.0083723804 0.039690509 0.71582735
0.024145925 0.07088916 0.7154516
-0.0064768968 0.037479974 0.71656203
0.022213165 0.058181088 0.71808976
0.0044909804 0.023417011 0.72357863
-0.0062134815 0.029487047 0.721389
-0.01895253 0.045263935 0.72104549
-0.021497739 0.050122894 0.72216362
0.026816603 0.069209896 0.7211293
-0.022318948 0.076966941 0.72383684
0.013306945 0.0266314 0.72668338
-0.0038109981 0.013807606 0.72867179
-0.0066423216 0.01751296 0.72896695
0.02151766 0.07913734 0.73000538
-0.0081029423 0.0074276924 0.73577404
0.0049836128 0.0061689718 0.73455375
0.0049836128 0.0061689718 0.73455375
0.016219148 0.015543371 0.73597413
-0.015641637 0.020966411 0.7322796
-0.019970892 0.029290646 0.73231614
-0.012154069 0.084403276 0.73576713
0.026416561 0.041894495 0.73775268
0.0032111739 -0.0072248429 0.74041033
-0.0075609777 -0 0.74016178
-0.020213068 0.011500239 0.74365294
-0.023258433 0.025500976 0.74141502
-0.0020931917 0.081720248 0.74174511
-0.0059825941 0.085685566 0.74158734
0.013630296 0.084804378 0.74081439
0.0095191626 -0.0094098179 0.74676037
0.0064203572 -0.0074678306 0.74428117
-0.01169768 -0.0031427816 0.74414623
0.019570764 0.0083874762 0.74436039
0.024737634 0.02332304 0.74719715
0.0060261404 0.080819182 0.74447572
-0.0007197035 -0.028068423 0.75187373
-0.020838685 0.0022250731 0.75046575
0.020838279 0.0021630931 0.7502135
0.016547972 -0.028582841 0.7636348
0.017530721 -0.025650511 0.76290643
-0.026792521 0.0052496879 0.76089722
0.026858538 0.0056395675 0.76058543
-0.01031846 -0.038437475 0.76520187
0.013653974 -0.037697773 0.76679415
-0.021189477 -0.022057474 0.76609337
-0.021189477 -0.022057474 0.76609337
-0.024326317 -0.0095057338 0.76653802
0.0058961352 -0.049417373 0.77042788
-0.0067599392 -0.046894543 0.76896751
0.023091495 -0.021932883 0.76996267
0.0097637791 -0.053533863 0.77458084
-0.023251191 -0.026628932 0.77347463
0.024394829 -0.022051558 0.77392709
-0.028821794 -0.0095440447 0.77333522
0.0019322566 -0.062322866 0.77778995
-0.021354534 -0.041449804 0.77852631
-0.021354534 -0.041449804 0.77852631
0.023382191 -0.034079291 0.77825892
0.022474239 -0.042375103 0.78189248
-0.026120109 -0.029967196 0.78202367
0.026665088 -0.026665261 0.7804513
0.0054606711 -0.071584582 0.78416312
0.016507883 -0.065351874 0.78685772
-0.0061787874 -0.078435741 0.78858924
0.013260601 -0.077215552 0.79137468
-0.02348702 -0.050058633 0.78966761
-0.023855746 -0.047300756 0.78914022
0.0061053662 -0.086524948 0.79357213
0.02326829 -0.055677742 0.79218161
-0.021516968 -0.077948064 0.8018688
