# .PCD v0.7 - Point Cloud Data file format
VERSION 0.7
FIELDS x y z
SIZE 4 4 4
TYPE F F F
COUNT 1 1 1
WIDTH 814
HEIGHT 1
VIEWPOINT 0 0 0 1 0 0 0
POINTS 814
DATA ascii
0.015006465 0.075032353 0.71767616
0.026654635 0.07055629 0.71836382
0.026654635 0.07055629 0.71836382
0.011946897 0.07168141 0.71894896
0.015401131 0.071347937 0.71888852
0.016655613 0.071650475 0.71885073
0.014411209 0.073622391 0.71814871
0.024542935 0.069223672 0.71913803
0.027676828 0.069192082 0.71903396
0.0086293994 0.070508823 0.71990442
0.023281205 0.072675034 0.71910745
0.0053555816 0.076555654 0.71942127
0.0053555816 0.076555654 0.71942127
0.0076050735 0.068445653 0.7207495
0.0035910537 0.074570224 0.72074407
0.0035910537 0.074570224 0.72074407
0.025464226 0.060477585 0.72178143
0.012412762 0.062700272 0.72176212
0.0085880999 0.064570218 0.72162026
0.020653639 0.066409163 0.7213794
0.0035011086 0.070344359 0.72177976
0.0025476089 0.071969986 0.72188878
0.013429359 0.059472889 0.72282708
0.01054203 0.060377218 0.72261703
0.014373153 0.060367011 0.72257811
0.014348149 0.061537392 0.72217572
0.021404035 0.061656922 0.72262406
0.021404035 0.061656922 0.72262406
0.010195537 0.062447667 0.72200429
0.007334861 0.0634633 0.72222227
0 0.078448951 0.72221249
0.009625487 0.057431966 0.7236259
0.009625487 0.057431966 0.7236259
0.0064074746 0.060550526 0.72328132
0.0025635511 0.06569095 0.72333211
-0.00064219435 0.07256797 0.72380525
0.006451854 0.054840773 0.72488844
0.012560372 0.054428041 0.72450274
0.01447529 0.055649124 0.72422153
0.005142129 0.059134513 0.72401232
0.0025749695 0.061477318 0.72436583
0.002572492 0.062382936 0.7241416
-0.0012903909 0.069358438 0.72489202
-0.001611102 0.072483435 0.72456694
0.024575701 0.050444871 0.72544742
0.0084133996 0.051451057 0.7256124
0.0084133996 0.051451057 0.7256124
0.012615818 0.051433489 0.72553241
0.015548902 0.05150561 0.72586095
0.021309419 0.05101347 0.72508925
0.0045218254 0.055553883 0.72517437
0.00258327 0.058446378 0.72511733
-0.00064778025 0.062510684 0.72582811
-0.0016172787 0.067589201 0.72546852
0.031016171 0.070432574 0.72524506
-0.0032354516 0.075385958 0.72557825
0.008447391 0.048409954 0.72655928
0.010393429 0.048394263 0.72648323
0.015601714 0.049405426 0.72665781
0.018524272 0.050373182 0.72662389
0.0026032587 0.051414371 0.72692698
-0.006506688 0.076453477 0.72687411
-0.0064830771 0.079093575 0.72601908
0.022544729 0.042475358 0.72788727
0.010437801 0.045339078 0.7274875
0.013387579 0.045386821 0.72773635
0.016340697 0.04640764 0.72794569
-0.0026104096 0.060365662 0.72757435
-0.0039122007 0.067485392 0.7273683
-0.0039122007 0.067485392 0.7273683
-0.0052282652 0.071888626 0.72791135
0.0332679 0.071427897 0.72746909
0.0016398418 0.04559157 0.72880298
0.016364045 0.045491934 0.72828388
-0.0019622447 0.055596948 0.72810996
-0.0056705042 0.071533822 0.72817916
-0.0085120415 0.07235226 0.72836018
-0.0058845193 0.072575778 0.72802091
-0.010502704 0.07548818 0.72895652
-0.010502704 0.07548818 0.72895652
0.021462705 0.038326114 0.72917438
0.022989957 0.040068239 0.72911477
0.014467355 0.041429251 0.72938669
0.031607132 0.063872755 0.72970355
0.031607132 0.063872755 0.72970355
-0.0055916654 0.064463526 0.72945333
-0.0096389838 0.070539132 0.72923821
0.034893647 0.071432933 0.72966325
0.034803357 0.072233409 0.72904634
0.010584184 0.03572163 0.73080063
0.010569535 0.036662951 0.73046905
0.015551545 0.037720829 0.73089385
0.016496176 0.039590865 0.73019791
-0.00066141586 0.041338384 0.730766
0.02967304 0.05934608 0.73003632
-0.0086004185 0.064503014 0.73082209
0.03367858 0.067357153 0.73038518
0.018537983 0.032441497 0.73100317
0.015612556 0.03454721 0.73183548
-0.0013282808 0.038520187 0.73175263
-0.0056404197 0.051423825 0.73153311
-0.010632046 0.061798811 0.73188388
-0.010632046 0.061798811 0.73188388
-0.0079474365 0.0635795 0.73108125
-0.01172642 0.065488867 0.73160779
-0.01193452 0.068623438 0.73135006
-0.01193452 0.068623438 0.73135006
0.018350082 0.026691064 0.73288804
0.010013503 0.02937296 0.73299342
0.010013503 0.02937296 0.73299342
0.007657174 0.030628681 0.73236811
0.0026611392 0.032598972 0.73216701
0.0026611392 0.032598972 0.73216701
0.01264606 0.032613516 0.73227471
-0.0017744675 0.037483118 0.73220176
-0.0017744675 0.037483118 0.73220176
-0.0046601077 0.043605238 0.73232818
-0.0066537769 0.052564889 0.73220062
0.029274283 0.054556668 0.73218149
0.016758125 0.023461401 0.73399222
0.015407135 0.026459992 0.73382944
0.015369848 0.02940321 0.73324239
-0.001339775 0.030479774 0.73383385
-0.0043478948 0.037456721 0.73346525
-0.0046747644 0.040069401 0.73308635
-0.010380853 0.055587709 0.73377728
0.033472527 0.061589479 0.7336756
0.0023522181 0.024530858 0.73462838
0.009387115 0.026149869 0.73405856
0.009387115 0.026149869 0.73405856
0.01242682 0.026532575 0.73449558
0.00033526894 0.027501509 0.73415291
0.00033526894 0.027501509 0.73415291
-0.005377762 0.034619257 0.73467863
-0.005377762 0.034619257 0.73467863
-0.010095204 0.051822096 0.73496592
-0.013420416 0.058378845 0.73424423
0.03353741 0.061038077 0.73414552
0.017504571 0.02019757 0.73505247
0.013517217 0.021627575 0.73599702
-0.00067451334 0.023607969 0.73550898
0.011460747 0.023595661 0.73538166
0.027692564 0.044578284 0.73584038
0.029034974 0.047603562 0.73576927
-0.014172947 0.053654686 0.73564982
0.003391867 0.016959339 0.73690689
0.016576074 0.016575888 0.73625493
-0.0020356171 0.019677639 0.73696685
0.0023669079 0.01961191 0.73614585
0.00540704 0.019600511 0.73600394
0.0013520614 0.020280957 0.73605847
0.011512801 0.020655185 0.73649043
-0.004735555 0.026383817 0.73623133
-0.0081282156 0.034544915 0.73653674
0.026381342 0.041263133 0.73620844
0.027078671 0.042310163 0.73639745
0.032533109 0.054560423 0.73668945
0.0044169407 0.015629247 0.73732573
0.00033967238 0.016647771 0.73731697
0.00033967238 0.016647771 0.73731697
0.0095216874 0.016662791 0.73753953
0.010556703 0.016345724 0.73788393
0.013579343 0.016295254 0.73712188
0 0.017650098 0.73707879
-0.0033937166 0.021041065 0.73704082
-0.012603777 0.042920932 0.73796099
-0.010865577 0.044480875 0.73716944
0.029931357 0.046597376 0.73758936
0.03125985 0.050287604 0.73733723
0.031975761 0.05170548 0.73761731
-0.015655247 0.05241105 0.73773599
0.038084019 0.070727497 0.73752189
0.01366753 0.0095672607 0.73871863
-0.00068412215 0.011630088 0.73898864
-0.00068412215 0.011630088 0.73898864
0.012282007 0.014329016 0.73834097
-0.010925922 0.03755784 0.73853523
-0.010925922 0.03755784 0.73853523
-0.014338511 0.041649967 0.73850489
-0.014338511 0.041649967 0.73850489
-0.014322857 0.042627439 0.73823494
0.032779373 0.052583635 0.73854738
0.0065210797 0.0089235306 0.73982167
0.010626439 0.011654854 0.73951614
-0.0054851263 0.014398485 0.73953861
-0.010624341 0.029472873 0.73945677
0.024651857 0.032184392 0.73922467
-0.012355909 0.036381334 0.73982787
0.02671605 0.036306471 0.73931634
0.03012819 0.044507563 0.73920935
0.033618651 0.053515434 0.73970306
0.011714719 0.0044790655 0.74079174
0.0034443743 0.0055110455 0.74070972
-0.00068748347 0.0075623095 0.74020594
-0.0089404183 0.018568605 0.74029315
-0.015490784 0.035456285 0.74056464
-0.015490784 0.035456285 0.74056464
0.0034590045 0.0024211705 0.74176943
-0.00069102971 0.003455162 0.74149019
-0.00069102971 0.003455162 0.74149019
-0.00069102971 0.003455162 0.74149019
0.0065734284 0.0034596622 0.74181563
0.0065734284 0.0034596622 0.74181563
-0.0043822303 0.0046127737 0.74181366
-0.00656369 0.0086360648 0.74144101
-0.010347953 0.019316167 0.74106777
0.022127591 0.022473022 0.74165583
0.028314035 0.036601096 0.74132949
0.014592337 -0.0020846128 0.74288195
-0.0020849498 -0.00069496036 0.74292177
-0.0020849498 -0.00069496036 0.74292177
0.0048477729 0.0020776391 0.7420367
-0.0048482763 0.0041556954 0.74206269
-0.014593005 0.027796209 0.74289346
-0.016671816 0.028481066 0.74280435
-0.013859356 0.029451028 0.74219203
0.026331462 0.030489028 0.74217939
-0.018007061 0.035321593 0.74205118
0.033289004 0.049239993 0.74239224
0.034637593 0.05403465 0.74211371
0.012542258 -0.0055743158 0.74357682
0.0013920986 -0.0024363101 0.74330783
0.010433313 -0.0027821958 0.74312854
-0.012536445 0.015322357 0.74345988
0.022325141 0.018836856 0.74389136
0.023666376 0.022622019 0.74331534
-0.018807571 0.030649394 0.74349886
0.0098020593 -0.0084017217 0.74479181
0.00035012647 -0.0070022941 0.74482274
-0.0024497451 -0.0062992126 0.74470723
-0.0024497451 -0.0062992126 0.74470723
-0.0024497451 -0.0062992126 0.74470723
0.0034980043 -0.0055968165 0.74459404
0.0074697509 -0.0044352412 0.7448408
-0.0055861464 -0.0024440587 0.74411148
-0.010500776 0.0024500787 0.74475724
-0.0095503908 0.0023293397 0.74430323
-0.013300255 0.011550173 0.74474341
0.02309894 0.018899173 0.7447269
-0.016465086 0.021719903 0.74497074
0.025186054 0.023786843 0.74459827
0.027981333 0.030779481 0.74456954
0.0014054452 -0.0094869137 0.74572444
0.0093538612 -0.0095878346 0.74529922
0.013335774 -0.0094756484 0.74542034
-0.0063311704 -0.0084415376 0.74599278
0.0024570352 -0.0084238499 0.74545932
0.00562023 -0.0073767304 0.74565434
-0.006316199 -0.006316185 0.74539036
-0.011589043 0.0014047027 0.74558902
-0.014749621 0.014398381 0.74559426
-0.016507316 0.019668236 0.74562097
0.031619843 0.040051788 0.74570298
0.032303475 0.04248552 0.74555314
0.010587855 -0.015528828 0.74685955
0.0084700342 -0.014469743 0.74685198
0.01055823 -0.013373733 0.74614429
-0.00070540624 -0.012697309 0.74669635
0.0056468081 -0.010587782 0.7468574
-0.0049267374 -0.0098534524 0.74612176
-0.013392976 0.0024670511 0.74651062
0.01975104 0.0084647536 0.74669194
0.01975104 0.0084647536 0.74669194
0.022563854 0.014454663 0.74659276
0.024673428 0.019385949 0.74653292
0.0095558893 -0.017696112 0.74757934
0.0095558893 -0.017696112 0.74757934
-0.005664032 -0.014514223 0.74763703
-0.002474911 -0.014495999 0.74731505
0.0014130536 -0.013423979 0.74710208
0.014160484 -0.012390777 0.74764431
0.02478987 0.01770708 0.74773765
0.028298473 0.02759105 0.74744076
0.028298473 0.02759105 0.74744076
0.031843212 0.038919508 0.74750042
0.0078272 -0.021346897 0.74892604
-0.0024875163 -0.018478617 0.7486192
0.001423103 -0.018500328 0.74892175
0.0063845427 -0.014897227 0.74814028
-0.012422056 -0.0085177571 0.74829352
-0.015612339 0.0024837255 0.7482338
-0.016352499 0.0035549104 0.74871409
-0.016315117 0.0074481368 0.74812555
-0.018496078 0.0099594295 0.74886233
0.02274248 0.011371225 0.74861431
-0.017733861 0.012059033 0.74812603
0.023469785 0.012801677 0.74879646
0.0085739903 -0.025007457 0.74998915
0.0092835175 -0.024279952 0.74985069
0.0085580787 -0.023534715 0.74950898
-0.0024968579 -0.021401688 0.74958742
0.013534895 -0.016384333 0.7492156
-0.010680106 -0.014952123 0.74908668
-0.015003068 -0.0092875957 0.74996477
-0.015692092 -0.004636392 0.74954653
0.017831998 -0.00071325898 0.7495476
0.019941138 0.0042731464 0.74915051
-0.020677954 0.0085563958 0.74945819
-0.020654382 0.0096148849 0.74916387
-0.0220693 0.014238298 0.74905252
0.0057349107 -0.025448769 0.75084549
-0.0053720837 -0.024353206 0.75063086
-0.0025064116 -0.024348274 0.75057852
0.0014311905 -0.022541434 0.75038612
0.0042895409 -0.02037546 0.75014281
-0.010720655 -0.018582433 0.75006562
-0.013624804 -0.017210275 0.75092918
-0.013588581 -0.014303744 0.75023878
-0.018640142 0.0028677583 0.75086892
0.020729266 0.0042888224 0.75009894
-0.020396693 0.0053673983 0.75041407
-0.022889074 0.011444539 0.75027317
0.0064694313 -0.029471815 0.75155592
0.0093598207 -0.029519409 0.75197625
-0.0075480621 -0.026597619 0.75156659
-0.01363389 -0.01793927 0.75110233
-0.015803881 -0.013648778 0.75138664
-0.017268863 -0.010433346 0.75181305
-0.023734596 0.0075519234 0.75170243
0.023007382 0.0071898103 0.75161201
-0.0054168012 -0.03105624 0.75279194
-0.0054168012 -0.03105624 0.75279194
0.0075684688 -0.03171511 0.75227028
0.0054052854 -0.03063032 0.75224042
0.00036123279 -0.029611513 0.75278968
-0.010456704 -0.027403384 0.75239503
-0.013691262 -0.022338361 0.75219589
0.018728616 -0.0036016405 0.75210118
-0.023798844 0.0025240332 0.75240743
-0.023798844 0.0025240332 0.75240743
0.022401189 0.0036131144 0.75292963
0.024573945 0.0093959272 0.75298178
0.025225434 0.012252361 0.75224435
0.008699134 -0.034434289 0.7537657
0.008699134 -0.034434289 0.7537657
-0.0065190769 -0.033319712 0.75355351
-0.0094209053 -0.032610804 0.75367773
-0.00072354078 -0.031474188 0.75326347
0.0043378565 -0.031810939 0.75305891
-0.016685735 -0.023214877 0.75396085
-0.018133041 -0.018132985 0.75390828
-0.018133041 -0.018132985 0.75390828
-0.023568865 -0.0043511242 0.75386095
0.0043594381 -0.037418634 0.75436145
-0.007271335 -0.036356658 0.75456446
-0.007271335 -0.036356658 0.75456446
-0.0043630865 -0.036359072 0.75458169
-0.011640811 -0.034558773 0.75471556
-0.011640811 -0.034558773 0.75471556
-0.014555552 -0.031294405 0.7547977
-0.013321569 -0.03148713 0.75438058
-0.014513312 -0.028300941 0.75403285
-0.017421355 -0.021776676 0.75411403
-0.020343775 -0.0087187588 0.75435793
0.0043825381 -0.042364538 0.75575566
-0.0043848231 -0.040194184 0.75589359
0.005467616 -0.040824741 0.75524521
0.0080293082 -0.039416581 0.75557971
0.00072875386 -0.035708934 0.75515127
0.00072875386 -0.035708934 0.75515127
-0.013362808 -0.034500103 0.75519514
-0.020416526 -0.0145832 0.75529885
-0.02263603 -0.010587975 0.75567293
-0.023336131 -0.0094802976 0.75533241
0.025581162 0.0087707043 0.75592494
0.0043950682 -0.044683158 0.75651199
0.0080612246 -0.041405678 0.75663042
-0.0095123705 -0.040976346 0.75622571
-0.0014642125 -0.040265828 0.75636518
-0.016492911 -0.035550974 0.75669163
0.010268643 -0.03594023 0.75686073
-0.016475435 -0.034414813 0.75641012
-0.020479109 -0.019747704 0.75610834
-0.020479109 -0.019747704 0.75610834
0.016135661 -0.017602503 0.75684792
-0.026397306 -0.010265589 0.75678247
-0.026397306 -0.010265589 0.75678247
0.028547255 0.019031495 0.75631988
0.002574539 -0.047448121 0.75764048
-0.0095514907 -0.044451326 0.7573154
-0.0036704722 -0.043311536 0.7570852
-0.012484825 -0.042595267 0.75719643
-0.014706164 -0.041545048 0.75752473
-0.016192624 -0.040481538 0.75778556
0.013978804 -0.023543209 0.75767624
0.015425012 -0.019832134 0.75724089
0.022088358 -0.0044176877 0.75787622
-0.012565606 -0.047305793 0.75891721
-0.0084767304 -0.046437487 0.7581749
-0.013290094 -0.045776963 0.75862217
-0.013290094 -0.045776963 0.75862217
-0.021432361 -0.031409562 0.75887871
-0.021388859 -0.028395638 0.75833547
0.015507169 -0.022153109 0.75865769
-0.02658066 -0.018458784 0.75862694
-0.012598605 -0.049653322 0.75962013
-0.0096210167 -0.049585223 0.75925213
-0.017748488 -0.042892158 0.75905013
-0.01961286 -0.039595127 0.75925994
0.018551098 -0.017066985 0.75996399
-0.011531851 -0.053567037 0.76066762
-0.0085519059 -0.053542435 0.76054388
-0.0085519059 -0.053542435 0.76054388
-0.0055683972 -0.051599488 0.76010633
0.00024814068 -0.049362391 0.76072872
0.00024814068 -0.049362391 0.76072872
0.011889472 -0.032696038 0.76034355
-0.0252595 -0.024516523 0.76028359
-0.0252595 -0.024516523 0.76028359
-0.0037272337 -0.053672165 0.76119626
-0.0037272337 -0.053672165 0.76119626
-0.017548863 -0.052272648 0.76166892
-0.017548863 -0.052272648 0.76166892
-0.017548863 -0.052272648 0.76166892
-0.021610519 -0.04247582 0.76110339
0.012696485 -0.033608317 0.76170516
-0.024645014 -0.030619532 0.761693
-0.024645014 -0.030619532 0.761693
0.015666232 -0.026483729 0.76140058
0.018675901 -0.019422948 0.7617718
-0.0097384043 -0.059554264 0.76252222
-0.0097384043 -0.059554264 0.76252222
-0.0056252433 -0.059253767 0.76286244
-0.011596447 -0.058356121 0.76217717
-0.018743988 -0.054732442 0.76275802
-0.024704751 -0.034436911 0.76234865
0.015743393 -0.02848804 0.76273119
0.021719398 -0.011234194 0.76246303
-0.012405677 -0.062404111 0.7635175
-0.0063928161 -0.061672822 0.76360846
-0.0045047132 -0.059312016 0.76312959
-0.017262161 -0.057790697 0.76303667
-0.019533262 -0.055594653 0.76330847
0.0030103922 -0.053434432 0.76378596
-0.023339964 -0.048562288 0.76389611
-0.023339964 -0.048562288 0.76389611
-0.023285728 -0.045444816 0.76326245
0.0097651221 -0.04244107 0.76326638
0.0097651221 -0.04244107 0.76326638
-0.02479177 -0.040568382 0.76330352
-0.030094009 -0.032351017 0.76369619
-0.0075563602 -0.065740317 0.76488614
-0.0052874158 -0.064204335 0.76478082
-0.018132964 -0.063465357 0.76485145
-0.018504854 -0.062689245 0.76476169
-0.0015072569 -0.059536636 0.76415914
0.0022628689 -0.055817395 0.76439857
-0.025621628 -0.040693134 0.76414061
-0.029479956 -0.038550675 0.76498038
-0.026369965 -0.036917925 0.76408637
-0.013654341 -0.069788843 0.76595026
-0.0090991287 -0.069001704 0.7658366
-0.024238775 -0.053779781 0.76554728
-0.025009755 -0.051535249 0.76569563
0.0083437124 -0.04930374 0.76593024
-0.031035427 -0.0374697 0.7653662
0.014393146 -0.036361635 0.7655735
-0.014429783 -0.070629925 0.76627165
-0.0094967028 -0.070656046 0.76637316
-0.019738965 -0.066429347 0.76617348
-0.022053726 -0.064640224 0.76663786
-0.022053726 -0.064640224 0.76663786
-0.024342807 -0.059335589 0.76672459
-0.026573556 -0.045554638 0.76619279
-0.014513448 -0.075622708 0.76786637
-0.018319268 -0.073277056 0.76766253
-0.012571169 -0.073522501 0.76715064
-0.0053432672 -0.071752459 0.76767015
-0.0053432672 -0.071752459 0.76767015
-0.020602345 -0.070582241 0.76757085
-0.0060940678 -0.070843548 0.76710331
-0.0060940678 -0.070843548 0.76710331
-0.021362996 -0.069429725 0.76753986
-0.0022923846 -0.069535673 0.76796138
0.0022880866 -0.062541038 0.76744258
-0.027478654 -0.049614221 0.76766002
0.010698628 -0.048143804 0.76798296
-0.016465183 -0.07734777 0.76857388
-0.018384561 -0.07660234 0.76864773
-0.0066396063 -0.075334653 0.76868045
-0.021431133 -0.072712749 0.76842111
0.00076506048 -0.066560239 0.76829904
0.0053667976 -0.060568094 0.7688874
0.0053667976 -0.060568094 0.7688874
0.0068854815 -0.056613952 0.76829648
0.009949347 -0.050512046 0.76839817
0.010718469 -0.048998654 0.76849616
0.013016179 -0.044408143 0.76851529
0.013784226 -0.042501777 0.76856333
0.015313151 -0.038282841 0.76851523
0.015313151 -0.038282841 0.76851523
-0.01154635 -0.081594199 0.76999962
-0.016527848 -0.080717117 0.7696296
-0.011533733 -0.08073613 0.7696951
-0.021509461 -0.076435551 0.76943421
-0.0030680248 -0.072865605 0.76900357
-0.0015366412 -0.072222143 0.76947963
-0.029229304 -0.050766677 0.76979524
-0.029194972 -0.047633886 0.76946807
-0.014644775 -0.083243966 0.77036941
-0.010410298 -0.082512081 0.77050102
-0.0065493952 -0.07936573 0.7702837
-0.003466689 -0.076272979 0.77024508
0.0007704536 -0.070881695 0.77025199
-0.026961394 -0.067788631 0.77020568
0.0046237046 -0.064731866 0.77031142
-0.015478357 -0.086678803 0.77150655
-0.010577604 -0.085395038 0.7715261
-0.010577604 -0.085395038 0.7715261
-0.022474904 -0.084474623 0.77189726
-0.021662865 -0.083556741 0.77141815
-0.020871473 -0.083485901 0.77118051
-0.026326276 -0.076655954 0.77164578
-0.027123377 -0.075558096 0.77188164
-0.027845021 -0.070385993 0.77134538
0.0085230628 -0.059661388 0.77183461
0.0085070571 -0.058775991 0.77130777
0.016995436 -0.036308408 0.77100027
-0.014782498 -0.091029048 0.77299434
-0.010891452 -0.089465469 0.77297068
-0.016285526 -0.088407099 0.77207989
-0.0054338668 -0.083448917 0.77235711
-0.028001107 -0.077780843 0.77291548
-0.029518664 -0.069524303 0.77255279
-0.029479874 -0.067493379 0.77218306
-0.031067282 -0.054367721 0.77250755
-0.022571921 -0.088730991 0.77310872
-0.0074075526 -0.088503614 0.77362418
-0.0074075526 -0.088503614 0.77362418
-0.027300069 -0.083460182 0.77370977
-0.0023392073 -0.082651973 0.77361339
0 -0.079578429 0.77377456
0 -0.079578429 0.77377456
0.0070076953 -0.06540513 0.77321404
0.00078212348 -0.079776585 0.77447808
0.00078212348 -0.079776585 0.77447808
0.0023442598 -0.076579154 0.77422333
-0.03208331 -0.064557925 0.77462161
-0.029046174 -0.087138474 0.77553123
-0.0031350947 -0.08699885 0.77507567
-0.00078423438 -0.083913058 0.77524257
-0.030635701 -0.082480729 0.77571201
-0.032227408 -0.074673265 0.7758944
-0.0023648806 -0.089471608 0.77671248
-0.031519059 -0.083525509 0.77659762
-0.033108152 -0.073310912 0.77671099
0.0086663496 -0.066967249 0.77655184
-0.0015790566 -0.089216679 0.77715957
0.0063243392 -0.074310929 0.77752686
0.0031745988 -0.083333194 0.77865207
0.0047655716 -0.080220461 0.7788738
0.011894105 -0.060263455 0.77839524
-0.035060558 -0.08047989 0.77980405
-0.036031943 -0.065658212 0.78120881
0.011209831 -0.065657556 0.78120601
-0.036054015 -0.064496517 0.78138644
0.0097326664 -0.074617088 0.78495526
0.0073046149 -0.082785606 0.78516108
0.0081199929 -0.08038795 0.78529704
0.023169044 0.071105637 0.71945763
0.03023087 0.072428107 0.71932042
0.023237314 0.06095821 0.72179461
0.015063038 0.062982619 0.72172874
0.013005663 0.06502793 0.72099173
0.0031336099 0.073105313 0.72132099
0.0031336099 0.073105313 0.72132099
0.022967085 0.053964823 0.72389352
0.011071526 0.056962073 0.72367334
0.021087278 0.059097148 0.72336274
0.0049492004 0.064982973 0.72252393
0.0049492004 0.064982973 0.72252393
0.020715473 0.064377412 0.72206908
0.013060931 0.055005427 0.72433591
-0.0013437856 0.070898265 0.72465229
0.017073087 0.050947551 0.72640252
0.025960173 0.050946608 0.72627139
0.00016208197 0.058869101 0.72615981
-0.0049737878 0.073049821 0.72744083
-0.0038898916 0.07650122 0.72602189
0.017800376 0.037578613 0.72999007
0.011001798 0.039040759 0.72969496
0.01762072 0.03902933 0.72979093
0.0031554564 0.043048136 0.72904843
0.01831698 0.0448111 0.72814488
-0.0046097254 0.056962676 0.72972167
-0.0050087897 0.063050434 0.72908658
-0.0050087897 0.063050434 0.72908658
-0.0090060811 0.067599639 0.72988153
-0.0056184288 0.070964225 0.7282809
0.036216326 0.074737027 0.72970235
0.017215049 0.033127274 0.73133844
0.0012541721 0.035235234 0.73174608
0.0011701029 0.037092771 0.73125774
0.013166256 0.036784794 0.73083436
-0.0048700627 0.047259953 0.7317282
-0.0033024922 0.048758488 0.7303921
0.029706147 0.058916524 0.73030269
-0.0020100703 0.031156003 0.73388302
-0.012838438 0.060911682 0.73337603
0.035903182 0.070476651 0.73201823
0.016984548 0.020852007 0.73483706
0.016665868 0.022817483 0.734276
0.01295978 0.025077509 0.73504496
0.022545394 0.029107109 0.73495114
-0.0029648885 0.031016558 0.73432285
-0.0081008775 0.038985297 0.73571169
0.036360987 0.067671418 0.73508829
-0.0010177055 0.01899334 0.73689789
0.0049036024 0.019106792 0.73617816
-0.003381579 0.024347365 0.73616177
-0.010216594 0.037120253 0.73789644
-0.010216594 0.037120253 0.73789644
-0.013110241 0.043246485 0.73787576
-0.011006215 0.046901714 0.73651308
0.016466752 0.0075472593 0.73971021
0.0049718572 0.009085888 0.73958224
0.0027282711 0.012958368 0.7382344
0.0092457635 0.014626163 0.73824
-0.0071632909 0.022938721 0.7382912
-0.010553832 0.031032696 0.73914242
0.024914838 0.032921992 0.73911148
0.028765488 0.041092779 0.73926163
0.033489689 0.054334894 0.73874998
0.011414621 0.0010376126 0.74177182
-0.0083072949 0.0096918643 0.74194092
0.030511683 0.042922318 0.74094272
-0.0029635064 -0.0029637069 0.74374354
0.0090024462 0.0041549802 0.74202108
-0.0088446038 0.0087571368 0.74243659
-0.013532367 0.026890237 0.74254668
0.029357176 0.03699962 0.74286717
0.029357176 0.03699962 0.74286717
0.011054428 -0.011054784 0.74541295
0.006890384 -0.0050221444 0.74499583
0.0088316491 -0.0050720982 0.74458504
-0.012941236 0.011016998 0.74455953
0.020687375 0.013059933 0.74518895
0.031523354 0.040628701 0.74492645
0.016221324 -0.0049369037 0.74664873
-0.017048832 0.012948353 0.74759614
0.025386691 0.020978361 0.74661648
-0.0030348119 -0.022136293 0.74983519
-0.0030348119 -0.022136293 0.74983519
0.0028569594 -0.02035524 0.7498883
0.0090642646 -0.020972196 0.7486918
-0.0010646477 -0.017389908 0.74828219
-0.014996635 -0.0052031772 0.74915648
-0.022095896 0.020670384 0.74936324
-0.022095896 0.020670384 0.74936324
0.0005997768 -0.026864555 0.751831
0.010236019 -0.026936486 0.75136745
-0.0089595253 -0.02311562 0.7508049
-0.015052333 -0.013080741 0.75079954
-0.017564777 -0.0030470751 0.75086188
0.018681269 -0.0025150478 0.75144172
0.020865101 0.0029891036 0.75103873
-0.020953022 0.0048348829 0.75065482
-0.021090243 0.0066725463 0.7501415
0.024430841 0.011137202 0.75145757
0.032910947 0.040780962 0.75033545
0.008699134 -0.034434289 0.7537657
0.0036245747 -0.032983691 0.75376105
-0.0048635011 -0.029181 0.75216758
-0.0048635011 -0.029181 0.75216758
0.010784231 -0.029035531 0.7530278
0.0030636191 -0.027031727 0.75228608
-0.018382773 -0.012777351 0.75315434
-0.023791052 0.0030637905 0.75232196
0.030279158 0.028837264 0.75231886
0.0034070674 -0.040886652 0.75564426
-0.0010959995 -0.038729534 0.75587279
0.0073442161 -0.03712479 0.75428152
-0.0090820026 -0.035056666 0.7543546
-0.023113081 -0.0056874603 0.75417554
0.030520847 0.028340816 0.75440264
-0.0069822748 -0.045017827 0.75740492
-0.0011044294 -0.044181868 0.75790739
-0.010934554 -0.042856894 0.75699633
0.0069593098 -0.042945061 0.75651932
-0.015011977 -0.036980361 0.75642878
-0.018830171 -0.032882985 0.75734496
-0.021408208 -0.015003718 0.75628895
-0.0090787066 -0.050766673 0.75962824
-0.0070099635 -0.047225207 0.75846124
-0.021372555 -0.02726841 0.7581318
0.020004481 -0.012595415 0.75955218
0.027301123 0.012543797 0.75845182
-0.016443042 -0.054560989 0.76190758
-0.0049916566 -0.053049989 0.76071566
-0.01892912 -0.050685223 0.76183105
-0.0070524914 -0.051965937 0.76008248
-0.02093008 -0.042975735 0.76096553
0.011899447 -0.033095643 0.76056933
-0.027075352 -0.028755963 0.76172411
0.013375955 -0.02972433 0.76034951
-0.028709466 -0.024980724 0.76128471
-0.0068856375 -0.060945418 0.76326901
-0.0011264617 -0.056897774 0.76324987
0.00090224633 -0.055002809 0.76335138
0.00090224633 -0.055002809 0.76335138
0.00099908409 -0.052869167 0.76249367
0.014271966 -0.032864071 0.76326382
-0.029954964 -0.023027845 0.76243746
-0.015159324 -0.068595231 0.76572645
-0.0069865985 -0.065148637 0.76477891
-0.0030731885 -0.064754277 0.76568812
-0.023096912 -0.057078987 0.76547611
-0.023096912 -0.057078987 0.76547611
-0.025314411 -0.044960506 0.76488674
-0.025649764 -0.041115448 0.7644403
-0.031218207 -0.031217545 0.76474828
0.018137556 -0.02531749 0.76492071
0.018137556 -0.02531749 0.76492071
-0.0029736676 -0.068945043 0.7674309
-0.024682075 -0.062849462 0.76768124
0.0034223162 -0.059059571 0.76661891
-0.031874552 -0.037566498 0.7660746
0.014979066 -0.037064742 0.76704824
-0.014918687 -0.076888621 0.76829845
-0.022763953 -0.074917942 0.76950419
-0.021413838 -0.071889281 0.76819742
-0.02625899 -0.066992134 0.76956326
0.012766648 -0.045192432 0.76863116
-0.015099195 -0.087110944 0.77165139
-0.018999342 -0.081389062 0.77017564
-0.018999342 -0.081389062 0.77017564
-0.010398647 -0.081649393 0.77018827
-0.0266979 -0.074869514 0.77147889
0.0023258114 -0.072100133 0.77199638
0.0046427348 -0.066933051 0.77145994
-0.030235127 -0.060470223 0.77199244
-0.030235127 -0.060470223 0.77199244
-0.029053502 -0.059134196 0.77056527
-0.016877493 -0.088849105 0.77225083
-0.0070040091 -0.086779758 0.77309054
-0.023020919 -0.085099459 0.77225423
-0.03104762 -0.043078542 0.77232957
-0.030644797 -0.0828982 0.77579641
-0.030644797 -0.0828982 0.77579641
0.0086182803 -0.064637497 0.77496934
-0.032530971 -0.063002348 0.77510595
0.010188018 -0.060736671 0.77504671
-0.033015467 -0.050898649 0.77591181
0.0023701293 -0.082559839 0.77734601
0.0015737002 -0.081832439 0.77618974
0.0013231457 -0.087035 0.77864575
0.0013231457 -0.087035 0.77864575
-0.034548592 -0.076937772 0.77885205
-0.00079799752 -0.092567712 0.78022659
0.0071951048 -0.077147976 0.7807548
0.0071951048 -0.077147976 0.7807548
-0.036014311 -0.066826478 0.78106689
-0.03520339 -0.055004582 0.78097963
0.0056461105 -0.08509545 0.78333724
-0.038452074 -0.069540948 0.78751695
0.018082876 0.073879652 0.71822035
0.0084635131 0.076486185 0.71827966
-0.00080236437 0.07404422 0.72365344
0.030272383 0.065432191 0.72631204
0.03268858 0.070307285 0.72740722
-0.0038723983 0.06198445 0.72825557
-0.0024145832 0.037893333 0.73239243
0.0059953667 0.010104027 0.73935223
-0.0059019006 0.021897655 0.73790455
0.023861151 0.032382682 0.73812866
-0.016457129 0.041999184 0.73956501
0.031850472 0.052857351 0.73665202
0.0019035439 0.0019016163 0.74190217
0.019589875 0.013403967 0.74016082
0.037498694 0.06556236 0.74117988
0.037498694 0.06556236 0.74117988
-0.0017816153 -0.010163335 0.74590987
-0.009844387 -0.0057799732 0.74644738
0.0062004994 -0.0032746699 0.74422663
-0.011416638 0.0060660285 0.74448788
0.022013843 0.014015658 0.74620622
0.030990014 0.038002215 0.74580848
0.03235922 0.04229157 0.745992
-0.0058477921 -0.028067973 0.75186962
-0.0060573705 -0.018023551 0.74877769
-0.010200195 -0.014057387 0.74870563
0.024430841 0.011137202 0.75145757
-0.0036551564 -0.040206701 0.75597596
-0.01777133 -0.026063409 0.75525111
-0.01777133 -0.026063409 0.75525111
0.013447447 -0.021434158 0.75443733
-0.025018457 -0.0059547722 0.75499666
0.020943452 -0.0019292999 0.75416756
-0.014231888 -0.042178053 0.75756824
0.0064250119 -0.042746849 0.75630033
0.027219303 0.012872919 0.75765103
-0.010095505 -0.058050301 0.76205343
-0.0060223686 -0.057646677 0.76223153
-0.020702781 -0.053933315 0.76345158
0.0099487854 -0.042216118 0.76273465
-0.022753365 -0.038171403 0.76118273
-0.02911328 -0.015676379 0.76157558
0.019319616 -0.015604317 0.76033276
0.0052097454 -0.057619046 0.7673043
0.0084005613 -0.05269444 0.76780176
0.012775177 -0.041700449 0.76650065
0.012775177 -0.041700449 0.76650065
-0.0100628 -0.077898629 0.76891196
-0.02263218 -0.07065808 0.76840961
-0.026292225 -0.066038281 0.76943481
-0.027515547 -0.05197382 0.76803118
-0.0055612577 -0.083357789 0.77226901
-0.030207384 -0.073775686 0.7738865
0.0026384434 -0.074219555 0.77335608
0.0026384434 -0.074219555 0.77335608
-0.036668815 -0.078285053 0.78201854
0.0080442708 -0.077226534 0.78255498
0.0080442708 -0.077226534 0.78255498
-0.036142193 -0.061942004 0.78209603
