# .PCD v0.7 - Point Cloud Data file format
VERSION 0.7
FIELDS x y z
SIZE 4 4 4
TYPE F F F
COUNT 1 1 1
WIDTH 783
HEIGHT 1
VIEWPOINT 0 0 0 1 0 0 0
POINTS 783
DATA ascii
0.012424016 0.029606685 0.68270195
0.017275367 0.02923502 0.68373585
0.0091940034 0.031472009 0.68333161
0.0058500012 0.035100013 0.68383455
0.025346739 0.021611191 0.68448663
0.01573316 0.026666597 0.68438268
0.023496682 0.02750209 0.68463027
0.012776759 0.031941921 0.68403244
0.006576478 0.03323872 0.68435043
0.006576478 0.03323872 0.68435043
0.024446391 0.020954221 0.68581498
0.0075245374 0.030635655 0.68588012
0.0074994522 0.036425889 0.68523127
0.027459571 0.020460129 0.68622625
0.015662249 0.024843574 0.68682551
0.01129729 0.027436286 0.68606091
0.010231324 0.028001547 0.68625087
0.0064807837 0.030783743 0.68682104
0.0025145123 0.037543468 0.6863994
0.0012591771 0.041373603 0.68667328
0.029236898 0.021115571 0.68731308
0.021509355 0.022593906 0.68761438
0.022176428 0.022176445 0.68711913
0.032510966 0.027363673 0.68746716
0.032510966 0.027363673 0.68746716
0.029590055 0.0285077 0.68726152
-0.00054298568 0.044524848 0.68787861
0.018532285 0.022892833 0.68863237
0.012545401 0.024545372 0.68877184
-0.0013615645 0.042747051 0.6884461
0.0032751127 0.04421404 0.68891668
-0.0043592202 0.046589166 0.68857276
0.024265697 0.018244397 0.68945658
0.033643879 0.025437996 0.6893543
0.035671499 0.026342064 0.68998134
0.0036497384 0.031572275 0.68951243
0.019525878 0.021451145 0.69042909
0.015584601 0.022184661 0.6904335
0.031836867 0.02415213 0.6900245
0.037577663 0.029329121 0.69038868
-0.0044089216 0.042986989 0.69082254
0.011350967 0.022702321 0.69176388
0.010499312 0.023484915 0.69135863
0.03957906 0.02963849 0.6912393
-0.00055174239 0.039173722 0.6910497
0 0.050417721 0.69188201
0.022598607 0.016485592 0.6924839
0.020380875 0.018713584 0.69253719
0.039704949 0.028598696 0.69234324
0.038352005 0.032237947 0.69252861
-0.002777054 0.040266886 0.69237816
0.016445093 0.020068675 0.69312131
0.0087495474 0.022711527 0.69349158
0.035161883 0.024557531 0.6933611
0.0053947582 0.025486182 0.69334996
0.0027910369 0.028468609 0.69339085
0.0027910369 0.028468609 0.69339085
-0.00055759837 0.03540729 0.69317037
-0.00055775931 0.047409534 0.6932286
0.01261708 0.020187601 0.69431728
-0.0011238497 0.034558162 0.69473708
-0.0036427486 0.039227605 0.69418293
0.019157745 0.01746735 0.69529414
-0.0022578419 0.036689937 0.69565535
0.017289642 0.017573193 0.6965304
0.0084986892 0.020396858 0.6964227
0.031431798 0.020954281 0.69633281
0.041904945 0.033976972 0.69631535
0.044517905 0.035444386 0.69661307
-0.0053789662 0.038499728 0.69627523
-0.0064269081 0.03950445 0.69659293
0.005112343 0.055667758 0.69695091
0.0014194711 0.057340369 0.6968379
0.0073908386 0.020466954 0.69712758
0.00057024241 0.026801407 0.69774914
-0.0017057818 0.032409847 0.69715214
0.040463693 0.036474347 0.69762921
0.044664867 0.036414579 0.69729096
0.0024673797 0.055422287 0.69744748
0.0051349029 0.05705449 0.69785863
0.034365766 0.021765023 0.6986618
0.040660989 0.03779754 0.69863552
0.022467056 0.011521578 0.69986248
0.004410157 0.020517161 0.6995635
0.032498151 0.02013123 0.69953644
0.0024896411 0.022599807 0.69931781
-0.0040331199 0.034569621 0.6998921
-0.007478978 0.03768228 0.69958282
0.044799939 0.039343894 0.69923961
0.0043197726 0.060474575 0.69981545
0.017718894 0.013674578 0.70048589
0.016755182 0.014732599 0.70047331
0.0054828115 0.019046545 0.70025694
-0.00057908462 0.024900615 0.70095122
-0.0011564059 0.026307955 0.70063198
0.044998772 0.040383518 0.70016271
0.045398891 0.041061476 0.70067817
0.0040470581 0.053189963 0.70061314
0.013322461 0.015060186 0.70100653
0.0040616449 0.019147754 0.70136774
0.022169165 0.0099177957 0.70251364
0.022169165 0.0099177957 0.70251364
0.013704416 0.013996065 0.70243049
0.013704416 0.013996065 0.70243049
-0.0025283075 0.026640158 0.70249975
-0.0040788571 0.031465471 0.70225823
0.016707323 0.011724815 0.70354241
0.016707323 0.011724815 0.70354241
0.010542078 0.014056116 0.70333636
0 0.021377921 0.70334893
0.035739362 0.021092087 0.70341599
0.036308289 0.021667868 0.70331693
0.017704478 0.0088522732 0.70495802
0.018655572 0.0086401608 0.70458627
0.010323063 0.012977764 0.70486712
-0.0088300249 0.034142822 0.70442176
0.041877337 0.04571113 0.70483947
0.049509998 0.045384169 0.70468843
0.049509998 0.045384169 0.70468843
0.008536214 0.05945918 0.70443493
0.0070558265 0.061150491 0.70417452
0.010400955 0.064564645 0.7044453
0.030187335 0.015981555 0.70559514
-0.0035525768 0.024571717 0.70566308
0.01248649 0.011297315 0.706568
0.029150005 0.014872491 0.70667773
0.03275023 0.0172683 0.70688087
0.033841472 0.01840502 0.70624757
0.041662332 0.04285267 0.70677841
0.041547429 0.046889246 0.70618403
0.045473985 0.048446164 0.70651031
0.043473616 0.051513359 0.70690626
0.0073266178 0.058415048 0.70637178
0.010682332 0.067061335 0.70615804
0.0035882667 0.013755053 0.7078172
0.003577824 0.014311284 0.70718694
0.017986286 0.0059954524 0.70835972
0.013171146 0.010177702 0.70805037
0.041732483 0.05464305 0.70869666
0.019397117 0.063390508 0.70849407
0.016164239 0.064058274 0.70804572
0.0063288999 0.010849938 0.7095294
0.0048250654 0.011459559 0.70965993
-0.0048187398 0.022286654 0.70937365
-0.0084493943 0.028969377 0.70980299
-0.0084493943 0.028969377 0.70980299
0.037611283 0.055363744 0.70916975
0.020489929 0.063277751 0.70948315
0.022866469 0.06559068 0.70915878
0.022866469 0.06559068 0.70915878
0.016848978 0.068599433 0.70915878
0.014549275 0.0066684186 0.7107777
0.013927363 0.0078719854 0.71053064
0.0075653149 0.0096838325 0.71042252
0.0042291968 0.011479259 0.71003574
-0.0014135302 0.015546134 0.71058863
0.041572966 0.052471273 0.71049422
0.039305568 0.055027843 0.71022773
0.01575473 0.061807007 0.71068037
0.014531792 0.064182132 0.71051395
0.028514614 0.065522939 0.71094942
0.01828195 0.0036564171 0.71192873
0.010318 0.0084971786 0.71103895
0.00030401046 0.012783453 0.71168864
0.040785082 0.05265516 0.71168768
0.02765299 0.066550121 0.71133614
-0.010398258 0.027524799 0.71274865
0.0048901113 0.054707795 0.7126044
0.015460494 0.060621541 0.71225011
0.015460494 0.060621541 0.71225011
0.012630144 0.062539309 0.71255845
0.021981629 0.063502491 0.7123642
0.010435188 0.0067521632 0.71353531
0.0065437048 0.0077701909 0.71340132
0.00245595 0.0095163286 0.71359062
0.003373119 0.0092001706 0.71335721
-0.0055206916 0.018402308 0.71338159
-0.0073720836 0.022423178 0.71371841
-0.009613174 0.026589364 0.71345305
0.041190438 0.047645569 0.71387863
0.041083381 0.049361229 0.71329999
0.018435188 0.060221642 0.7137785
0.0073929792 0.0067769289 0.71434891
0.027750937 0.010483682 0.71456844
0.038803536 0.039419442 0.71429384
0.014389141 0.059407167 0.7145673
0.028660892 0.062253028 0.71445215
0.017358907 0.0012399256 0.71575385
0.012999996 0.0037142932 0.71542305
-0.013018598 0.027897 0.71574378
0.0049521341 0.052306443 0.7154119
0.024466377 0.062559828 0.71555209
0.039374959 0.049322765 0.71638918
0.037609152 0.050974548 0.71636224
0.012477648 0.0024955273 0.71717393
0.0065611666 0.0046858341 0.71751797
0.0065611666 0.0046858341 0.71751797
-0.0006250444 0.0081255436 0.71759474
-0.0056274328 0.013442948 0.71767652
0.039981116 0.045603454 0.71747184
0.039760232 0.046630435 0.71740234
0.016566891 0.057514668 0.71763635
0.019649077 0.059570849 0.71713591
0.015372718 -0.0006274581 0.71846962
0.011602847 0.0025088489 0.71837795
0.0025114461 0.0053362995 0.71861488
0.013162979 0.057039618 0.71823359
0.026698319 0.059678927 0.71873719
0.0088417772 0.0025262535 0.71995258
0.0034628264 0.00440754 0.71926153
-0.0037773182 0.0094433129 0.71922743
-0.01386634 0.024581254 0.71949363
0.036625087 0.048622966 0.71992052
0.036625087 0.048622966 0.71992052
0.022398224 0.059938997 0.71972847
0.0066458443 0.0025318414 0.72045779
-0.0069611026 0.012339786 0.72041321
-0.0075898413 0.013598129 0.72028983
-0.0082308231 0.014562249 0.72052646
-0.0085407086 0.015499502 0.72033679
0.013606725 0.055059493 0.72042775
0.0085458094 0.05665724 0.72049189
0.020276343 0.058928132 0.72070593
-0.0053026397 0.0086957617 0.72166556
-0.010170241 0.018433601 0.72143173
-0.010170241 0.018433601 0.72143173
-0.01144392 0.020980537 0.72148001
0.011431936 0.056524605 0.72123891
0.027650639 0.057208627 0.72143579
-0.0095842034 0.014695764 0.72262925
0.036445245 0.037084639 0.72278982
0.036689918 0.046580628 0.72231913
0.017232819 0.055527985 0.72237778
0.023347482 0.057569414 0.72288752
0.026129156 0.057356685 0.72203159
0.0044944091 0.00064206123 0.72375602
0.005450245 0.00064122677 0.72345304
0.0016026716 0.0019235313 0.7234326
0.036484968 0.046086282 0.72304219
0.012211096 0.052700549 0.72398448
0.018619837 0.056501597 0.7237578
0.013522999 -0.0045076609 0.72444189
0.010744529 -0.0034384928 0.72470772
0.010744529 -0.0034384928 0.72470772
0.00032242181 0.0016105473 0.72457308
-0.0057946313 0.0064384639 0.7244041
-0.0070900456 0.0077345967 0.72465819
-0.0083592767 0.010288358 0.7241047
-0.011609565 0.017414361 0.72481257
0.010940474 0.053415239 0.72429883
0.010286001 0.055287302 0.72405177
-0.011014638 0.01360634 0.72587866
0.010676475 0.052413791 0.7255758
-0.0058436049 0.004545033 0.72637463
-0.010386985 0.011360452 0.72633743
-0.011695094 0.014618635 0.72653323
0.021452859 0.05525741 0.72666329
0.010439881 -0.0058724284 0.72753453
-0.0035862369 0.0016300678 0.72738123
0.022175552 0.0013044775 0.72743666
0.010445023 0.050592721 0.727651
0.0094538638 0.052488089 0.72736365
0.0094538638 0.052488089 0.72736365
0.024426367 0.054064065 0.72712946
0.025509683 0.0032704771 0.72811466
-0.0078643383 0.0045875311 0.7285735
-0.011145963 0.009834677 0.7286762
0.03082937 0.042636395 0.7287845
0.022723131 0.053529929 0.72861362
0.0078958916 -0.0046058893 0.72952569
-0.0056987195 0.001534005 0.72935772
-0.017083233 0.018397331 0.72918403
-0.017083233 0.018397331 0.72918403
0.035586122 0.038881153 0.72989196
0.03549958 0.040101409 0.72931159
0.011519398 0.049367875 0.72961521
0.0056256084 -0.0046329349 0.73092234
0.0046179607 -0.0039582253 0.73014778
0.0046179607 -0.0039582253 0.73014778
0.019801131 -0.0013200641 0.73026693
-0.0092621157 0.0039694905 0.73082536
-0.012557363 0.010574639 0.7305842
0.0076099914 0.05095388 0.73088282
0.0079186661 0.051471323 0.73021299
-0.0077370973 0.0015471876 0.73139799
-0.0077370973 0.0015471876 0.73139799
-0.0099350847 0.0046363771 0.73110032
0.034496441 0.039471656 0.73148203
0.0066316854 0.050400823 0.73140067
0.023929825 0.050518543 0.73196155
0.0013303149 -0.0046560764 0.73212093
-0.012668952 0.0076677203 0.73271102
0.023992937 0.04998529 0.7325964
0.020646229 0.051282585 0.73242873
0.0073566423 -0.0083601773 0.7334348
0.0073566423 -0.0083601773 0.7334348
-0.0013374409 -0.0046810508 0.73341119
0.021434721 -0.0020094812 0.73381478
-0.010378514 0.0023436844 0.73371851
-0.016069973 0.013391644 0.73372328
0.033484917 0.038507357 0.73376536
0.032475837 0.039506957 0.73373312
0.03072517 0.040076315 0.73312801
0.023416013 0.049508154 0.73352289
-0.0043666465 -0.0040304065 0.73450482
0.01951023 0.04978475 0.73487645
-0.011461861 0.0020226836 0.73540533
0.029678468 0.038447112 0.73550797
0.029678468 0.038447112 0.73550797
-0.00441908 -0.0064593107 0.7374593
-0.00441908 -0.0064593107 0.7374593
0.018343464 -0.0054350495 0.73727411
-0.0081665553 -0.0040832758 0.73769367
-0.012245985 0.00068035722 0.7376163
-0.01834847 0.011552751 0.73734128
0.019016111 0.048219442 0.73718697
0.02392151 -0.0020503998 0.73875314
-0.012628377 0.00034156442 0.73843825
-0.015692968 0.0075053573 0.73832989
0.0163862 0.04779312 0.73849475
-0.008572652 -0.0054861903 0.73958755
-0.015095206 0.0034307539 0.73972142
-0.015095206 0.0034307539 0.73972142
-0.018537298 0.0096119344 0.73987383
0.015828758 -0.0082584918 0.74046785
0.015828758 -0.0082584918 0.74046785
0.019242715 -0.0061851442 0.74011767
0.0055262917 -0.014506489 0.74140203
0.0024217279 -0.011763334 0.74182761
-0.014504473 2.9802322e-08 0.7413668
-0.018666232 0.0082961619 0.7416032
0.01867684 0.044962764 0.74174547
0.01867684 0.044962764 0.74174547
0.014528178 0.045659989 0.74177557
-0.0076406128 -0.0090297759 0.74278343
-0.0076406128 -0.0090297759 0.74278343
-0.021469867 0.010388672 0.74205017
0.015611533 0.045100242 0.74251139
-0.0045251828 -0.011138216 0.74334002
-0.01251533 -0.0048670769 0.7430352
-0.01463067 -0.0024388582 0.74354303
-0.016716097 0.0020895302 0.74347252
-0.018190615 0.0048974752 0.74460781
0.0063245017 -0.018270791 0.74572444
0.0035124626 -0.016508967 0.74564117
-0.00070287345 -0.014057457 0.7457791
-0.00070287345 -0.014057457 0.7457791
-0.018261395 0.0035118163 0.74559367
-0.0056462586 -0.013409823 0.74683249
-0.016559422 -0.0024657696 0.74641776
-0.017652476 -0.00070607662 0.74694723
-0.0098939314 -0.011307329 0.74716818
-0.014392858 -0.0073143644 0.74757332
-0.002486306 -0.015627101 0.74847728
-0.002486306 -0.015627101 0.74847728
-0.0056894994 -0.014934897 0.74878985
-0.0056894994 -0.014934897 0.74878985
-0.011366639 -0.011366606 0.74851006
0.019928543 -0.0092525184 0.74898767
-0.020614062 0.0035541654 0.74866033
0.005702313 -0.020670891 0.74936986
-0.016391629 -0.0064140856 0.74933022
-0.0242729 0.0064252317 0.74977541
-0.017181173 -0.0064429343 0.75049001
0.0028748445 -0.021561325 0.75151443
-0.0053952951 -0.017264172 0.75174236
-0.0086259823 -0.015814245 0.75155818
-0.011480331 -0.013632864 0.75108331
-0.0014441869 -0.01877442 0.75273931
-0.0093639437 -0.01584667 0.75209105
-0.01878956 -0.0065040588 0.75295007
-0.020203047 -0.0021645725 0.75253797
-0.022347549 0.0014417768 0.752303
0.0054360582 -0.023192167 0.75370371
-0.0050742719 -0.018847257 0.75375414
-0.012313546 -0.015210837 0.75354785
-0.025335792 0.0036194026 0.75338614
0.0029095109 -0.024003476 0.75465292
-0.018164322 -0.009445399 0.75436139
-0.019612255 -0.0065374076 0.75429153
-0.021080088 -0.0025444627 0.75447977
-0.014609613 -0.01534006 0.75577658
-0.018977534 -0.0094887614 0.75556815
-0.022591172 -0.00072869658 0.75514889
-0.0044020475 -0.021276593 0.75693321
-0.00073153467 -0.021946013 0.75615823
-0.0084212143 -0.019770816 0.75641841
-0.019752042 -0.0087786615 0.7561664
-0.023447676 -0.0014654398 0.75659466
-0.025641616 2.9802322e-08 0.75655037
0.00036703428 -0.024588466 0.75704485
0.010276915 -0.019085675 0.75707465
-0.0066506998 -0.022168994 0.75884962
-0.0014840154 -0.025228262 0.75995088
-0.020738479 -0.011109918 0.75946277
-0.022927776 -0.0044376552 0.75908101
-0.026637143 -0.0014798343 0.75919509
-0.026637143 -0.0014798343 0.75919509
-0.0044626677 -0.02380085 0.76059192
-0.01638584 -0.018620253 0.76096594
-0.017102744 -0.017475128 0.76052666
0.015596455 -0.017081827 0.76019734
-0.021539975 -0.010398626 0.76022249
-0.023021594 -0.0059410632 0.76017702
-0.0096973088 -0.023124337 0.76137733
-0.013450685 -0.02167055 0.76185298
-0.013502227 -0.022503674 0.76288992
-0.0052579837 -0.025538802 0.76325816
-0.019513573 -0.017261952 0.76303416
-0.02635901 -0.0060248673 0.763973
-0.00075430667 -0.030172229 0.76440471
-0.00075430667 -0.030172229 0.76440471
-0.014338311 -0.023394078 0.76452827
-0.021866586 -0.015080422 0.764301
-0.010591188 -0.025721461 0.76520389
0.00913426 -0.024358004 0.76689678
0.00913426 -0.024358004 0.76689678
-0.021252844 -0.018216699 0.76611525
0.00076172716 -0.031992495 0.76709187
-0.0038164097 -0.030531287 0.7676549
-0.003060523 -0.032135487 0.76832449
-0.018359095 -0.023713797 0.76826346
-0.024508355 -0.015317708 0.76859802
-0.025986074 -0.0099358261 0.7680223
-0.029222835 -0.0092282593 0.76973361
-0.026852995 -0.0099739432 0.7690841
-0.0034671742 -0.033518359 0.77028054
-0.027023301 -0.011581391 0.77084619
-0.0061993683 -0.031771749 0.7718699
-0.020155909 -0.025582463 0.7719807
-0.021645796 -0.023191899 0.77119744
-0.0054470985 -0.034238905 0.77304167
-0.016360149 -0.029604077 0.77336681
-0.0023436227 -0.036716729 0.77414644
-0.0023436227 -0.036716729 0.77414644
0.012524017 -0.025048018 0.77470541
-0.026599307 -0.01877597 0.77455378
-0.010973554 -0.032920629 0.77509439
0.0078530889 -0.02905643 0.77563161
-0.025864411 -0.021161765 0.77507442
-0.029785082 -0.013324916 0.77509165
-0.026004946 -0.022852778 0.77661651
-0.0071044425 -0.036311597 0.77710682
-0.029244803 -0.015807927 0.7774753
-0.026226131 -0.025431365 0.77904373
-0.0047896807 -0.040712267 0.78032893
-0.0047896807 -0.040712267 0.78032893
-0.019977562 -0.033562303 0.78062671
-0.024805335 -0.029606372 0.78101403
0.0064365179 -0.032987177 0.78260475
-0.0064592953 -0.042792857 0.78363585
-0.0096812565 -0.039531797 0.78340387
-0.010478246 -0.038688868 0.78313136
-0.017756358 -0.037126929 0.78352553
-0.023443999 -0.033953339 0.78399861
-0.023443999 -0.033953339 0.78399861
-0.02764485 -0.0308972 0.78568983
-0.030918591 -0.024409413 0.78589386
-0.034106292 -0.019489288 0.78531712
-0.034106292 -0.019489288 0.78531712
-0.034906961 -0.018671125 0.78522116
-0.017149756 -0.040016085 0.78698307
-0.022824656 -0.036682457 0.78644395
-0.020519055 -0.039396584 0.78847039
-0.027223408 -0.0354729 0.78998756
-0.036224239 -0.02140519 0.7893815
-0.018200431 -0.042191893 0.79083514
-0.033096619 -0.025649905 0.79087979
-0.033096619 -0.025649905 0.79087979
-0.036354698 -0.022308558 0.79045522
-0.030975647 -0.035161525 0.79441565
-0.030975647 -0.035161525 0.79441565
-0.023540284 -0.043717653 0.79569936
-0.021172542 -0.04657954 0.79793632
0.0025338603 -0.041386366 0.79711014
-0.01444368 -0.048428774 0.79892373
-0.013593913 -0.048428327 0.79892057
-0.00084720284 -0.044054538 0.79804534
-0.030593006 -0.040790647 0.79898798
-0.034787972 -0.032242477 0.79851049
-0.035648249 -0.028858095 0.79861212
-0.028980961 -0.043471426 0.79992062
0.0034105878 -0.041779667 0.80001688
-0.028252754 -0.045375645 0.80128336
-0.030171022 -0.045687526 0.80341446
-0.031912234 -0.043987095 0.80358237
-0.03530962 -0.037893236 0.80311799
-0.036227696 -0.036227673 0.80360824
-0.038222454 -0.032141566 0.80582738
-0.02532861 -0.052404016 0.80753243
-0.0017493383 -0.048981458 0.80799186
-0.0096467063 -0.053495407 0.80882627
-0.028011886 -0.051646918 0.8082462
-0.035932664 -0.043820292 0.80862099
-0.028137712 -0.052758187 0.80967009
-0.038702615 -0.038702607 0.80977923
-0.033517081 -0.049393535 0.81065691
-0.021249255 -0.056664675 0.8118726
-0.016812421 -0.056631297 0.81168383
-0.01593525 -0.056658655 0.81183857
-0.024771599 -0.055736095 0.81162435
-0.027444331 -0.054888666 0.81184196
-0.038240887 -0.045355439 0.81329846
-0.0098724095 -0.057439476 0.81625664
-0.02070705 -0.060320556 0.81727594
-0.0045080786 -0.054998547 0.81775004
-0.042390607 -0.036528125 0.81786311
-0.03799665 -0.052471578 0.81886053
-0.041757394 -0.046296269 0.81997848
-0.015476894 -0.06190756 0.82093316
-0.03909963 -0.052738994 0.82053053
-0.042699326 -0.031797349 0.82024175
-0.023704184 -0.062907249 0.82140166
-0.038268156 -0.054668784 0.82120144
-0.032023083 -0.061301321 0.82257712
-0.043928217 -0.037522048 0.8226589
-0.019278787 -0.064262629 0.82369691
-0.043210313 -0.048726499 0.82417881
-0.011099539 -0.062897384 0.82620436
-0.038851187 -0.059201807 0.8262285
0.0088263787 0.033049382 0.68350357
0.0095825689 0.033538967 0.68403256
0.028949043 0.028724125 0.68719423
-0.00081295514 0.043361746 0.68753123
0.021924119 0.0194574 0.68973178
0.011113442 0.023262054 0.69122809
-0.0005540647 0.037676424 0.69189072
-0.0010243043 0.049068615 0.69106448
-0.0010243043 0.049068615 0.69106448
0.018525347 0.020192167 0.69250357
0.038659871 0.027534679 0.69268537
0.0028206182 0.028991599 0.69289136
0.02307725 0.014658699 0.69491458
0.011197157 0.019665927 0.69569677
0.032063346 0.021938086 0.69495082
-0.00078900362 0.032892335 0.69521153
-0.00078900362 0.032892335 0.69521153
0 0.032495797 0.69413853
-0.0049142051 0.039310537 0.69500631
0.016999837 0.017169425 0.69713825
0.0008992785 0.027094355 0.69708985
0.041472502 0.03516167 0.6971733
0.040962599 0.036937948 0.69703865
0.019098621 0.013127113 0.69915301
0.038676228 0.02549769 0.69874096
0.039590921 0.02639395 0.69903076
0.0043197726 0.060474575 0.69981545
0.0088527594 0.016663654 0.7007848
0.032660469 0.019518346 0.70119905
0.044498295 0.039008796 0.70052218
0.004618038 0.054261953 0.70028853
0.0058662477 0.015838891 0.70368171
0.010910042 0.014270617 0.70290518
0.00063281954 0.020955689 0.70302743
0 0.022445425 0.70237136
0.037180055 0.022542238 0.70327902
0.037180055 0.022542238 0.70327902
0.046939123 0.044770744 0.70345551
0.048858993 0.044310682 0.7037797
0.0085119158 0.059877679 0.7038306
0.030187335 0.015981555 0.70559514
-0.008820069 0.033159319 0.70536041
0.044186708 0.040946126 0.70459837
0.0057623396 0.060427196 0.70525795
0.032749571 0.017267644 0.70688105
-0.0010728219 0.018941263 0.70694894
-0.0010728219 0.018941263 0.70694894
0.013760203 0.068202734 0.70789874
0.013760203 0.068202734 0.70789874
0.02103105 0.006308943 0.70884442
0.0028480054 0.013077982 0.70917588
-0.010807861 0.034976348 0.70868349
0.042288303 0.040189236 0.70846701
0.044648714 0.053338543 0.7082752
0.037190583 0.057189282 0.70893896
0.011997886 0.064188749 0.70848703
0.016164239 0.064058274 0.70804572
-0.002432944 0.015814155 0.71150786
0.035439752 0.018477246 0.71062708
-0.0062783859 0.023188164 0.71125954
0.041958001 0.048950933 0.71145391
0.041958001 0.048950933 0.71145391
0.023180254 0.064988516 0.7109921
0.020906426 0.069110274 0.71104902
0.013306493 0.0053226752 0.71365303
-0.0054873517 0.020120353 0.71204007
0.039566197 0.038953215 0.71310449
0.027001671 0.063515566 0.71347958
0.011211289 0.0054120719 0.71524668
-0.0018629087 0.010556489 0.71611911
0.029584467 0.010899365 0.71679527
0.030447237 0.01180613 0.71626484
-0.010792095 0.023617104 0.71780241
0.038577057 0.035297327 0.71748173
0.0029874085 0.0047953539 0.71903479
0.012967628 0.056711841 0.71885055
0.0093957018 0.058253407 0.71807843
0.011444936 -0.00095407665 0.72150046
-0.013897694 0.024005115 0.72000974
0.012019944 0.056303948 0.72034121
0.027039649 0.058348797 0.72029805
0.03790728 0.040959008 0.72391456
0.038287848 0.042913899 0.72233367
0.0051509016 1.4901161e-08 0.72443485
-0.006476406 0.0058287978 0.72577751
-0.01139524 0.016662255 0.72481525
0.03132695 0.046183541 0.72516096
0.011326514 0.051779404 0.72563338
0.026114106 0.0039171278 0.72766507
-0.0058436049 0.004545033 0.72637463
0.036586903 0.037567109 0.72784054
0.024695601 0.054374736 0.72659677
0.0085047958 -0.0039252639 0.72815835
-0.006586744 0.0019760728 0.72977316
-0.010524528 0.0075641572 0.7294504
-0.012708764 0.013256183 0.72928303
0.017183883 0.053193398 0.72906303
0.00074981165 -0.0034856051 0.73083901
0.013006978 -0.009337917 0.73278672
0.029027835 0.040372387 0.73290294
0.011227104 0.047576621 0.73277628
0.011227104 0.047576621 0.73277628
0.0047060968 -0.0071716262 0.73470581
-0.012139809 0.0030345768 0.73548019
-0.014384738 0.0090003386 0.73493636
-0.0027384446 -0.0085561275 0.73910397
0.0040919767 -0.009547919 0.73821872
-0.015220087 0.0049589947 0.7389549
-0.017405964 0.010238662 0.73842859
0.0089706099 -0.015180131 0.74111974
0.013761639 0.046101481 0.74042261
0.021519462 -0.0055533946 0.74262953
-0.0069433441 -0.011145405 0.7448017
-0.019224819 0.0062916726 0.74440253
0.0021159323 -0.015516818 0.74666172
0.0021159323 -0.015516818 0.74666172
-0.01883135 0.0029426068 0.74696612
0.016877994 -0.012569517 0.7513411
-0.019321606 -0.0014311969 0.75039321
-0.014696739 -0.01252837 0.75298691
-0.014696739 -0.01252837 0.75298691
-0.022991112 0.0011563182 0.75305939
-0.022991112 0.0011563182 0.75305939
0.0069207 -0.022948951 0.75506961
-0.0043824804 -0.020451546 0.75575221
-0.0043824804 -0.020451546 0.75575221
0.01310033 -0.01649653 0.75479931
-0.01748424 -0.015267819 0.75877327
-0.022261914 -0.0081627071 0.75997114
-0.021181304 -0.0092360731 0.75881189
-0.02580598 -0.0014746189 0.75825107
-0.010815538 -0.022625422 0.7613529
-0.0051237592 -0.025247212 0.76280808
-0.020288836 -0.016531616 0.76336604
-0.021009067 -0.014912233 0.76295358
0.003791217 -0.029571444 0.76583034
-0.016418908 -0.024819821 0.76779932
-0.018527932 -0.022334984 0.76697719
-0.0011506842 -0.03336931 0.76903325
0.00038337792 -0.03294073 0.76866257
-0.0051036691 -0.029600134 0.76846254
-0.010824895 -0.030153424 0.77123404
-0.025428846 -0.015411437 0.77029455
-0.030840371 -0.0077100396 0.77045321
0.00039015425 -0.035006613 0.77295756
0.0070046596 -0.028405815 0.77307463
-0.024888877 -0.022927105 0.77511013
-0.017315768 -0.031483203 0.77627313
-0.017315768 -0.031483203 0.77627313
0.0051218225 -0.031130061 0.77663708
0.0051218225 -0.031130061 0.77663708
-0.030929133 -0.014477795 0.77721453
-0.011248142 -0.035467319 0.7787897
-0.030445099 -0.018427283 0.78138149
-0.019287225 -0.035359889 0.78226787
-0.021691959 -0.033743024 0.78218514
-0.010560978 -0.040619135 0.78543597
0.00081075588 -0.037294775 0.78484684
-0.029182864 -0.0271568 0.78480303
-0.017571783 -0.040046602 0.78720856
0.0040972382 -0.036875129 0.78799433
0.0040972382 -0.036875129 0.78799433
0.0085947514 -0.033151731 0.78767252
-0.022498541 -0.038961142 0.78932154
-0.029555732 -0.031197667 0.78855383
-0.029555732 -0.031197667 0.78855383
-0.024754429 -0.037956774 0.79005855
-0.037226863 -0.021508873 0.79082477
-0.031793997 -0.033467323 0.79423624
-0.01486869 -0.048429415 0.79892766
-0.020832209 -0.047615707 0.79915994
-0.020832209 -0.047615707 0.79915994
-0.031321898 -0.041572273 0.8005867
-0.021141285 -0.050911009 0.80372953
-0.016853588 -0.051857069 0.80423141
-0.031150583 -0.045860589 0.80459678
-0.035507448 -0.039837599 0.80486524
-0.03816095 -0.030789182 0.80532116
-0.024988368 -0.053482994 0.80875301
-0.031206172 -0.050545543 0.80957866
-0.0026323455 -0.050014555 0.80899835
-0.032761816 -0.048557423 0.80903071
-0.037770286 -0.040845156 0.80933523
-0.0097193774 -0.054781914 0.81121862
-0.0066581955 -0.054161742 0.81278241
-0.037546057 -0.048721179 0.81497538
-0.017134404 -0.060421288 0.81782073
-0.037458837 -0.050943356 0.81680173
-0.01095609 -0.060714051 0.82186979
-0.035499226 -0.057344884 0.82087195
-0.038268156 -0.054668784 0.82120144
-0.038555663 -0.056915492 0.8236804
-0.044051006 -0.035791427 0.82358533
-0.012951329 -0.063831538 0.82625258
-0.041650295 -0.055533707 0.8264218
-0.044804916 -0.052272409 0.8292731
-0.045570534 -0.045570523 0.82803285
0.0068148794 0.034112439 0.68370509
0.0068148794 0.034112439 0.68370509
0.0068645617 0.022896994 0.69481719
0.037637666 0.032428939 0.6924209
-0.0034056986 0.036888354 0.69676453
0.022134563 0.010386044 0.70202029
0.024429614 0.011633158 0.70188296
0.033339974 0.019457143 0.70263022
0.0062152762 0.064477287 0.70302963
0.0070240987 0.011956923 0.70774484
0.0028968498 0.01491966 0.70707589
0.029373571 0.015107867 0.70647681
0 0.020304769 0.70438033
0.014280817 0.06294369 0.71047801
0.018214125 0.062185835 0.71013802
0.030209973 0.063768953 0.71170241
0.014401729 0.065140709 0.70933479
0.030836746 0.013152524 0.71365225
-0.0068843043 0.021816056 0.71333665
0.037954569 0.052650854 0.71364725
0.0037880421 0.003788054 0.71987474
0.013397593 0.0013088846 0.71736932
0.0055780718 0.0050447248 0.71745461
-0.0073417248 0.017175686 0.71718287
0.017831219 0.058012486 0.71798295
0.037551578 0.045920443 0.72167772
0.013403896 0.05159042 0.72671336
0.012926625 -0.0086174905 0.73129749
-0.0087455241 0.0031147203 0.73101711
-0.0078643383 0.0045875311 0.7285735
0.024912927 0.051598176 0.73023772
0.026212117 0.0016416655 0.73433608
-0.015097738 0.013238934 0.73289043
0.006789126 -0.013133943 0.73894989
-0.015820548 0.0044706911 0.74033856
0.02225833 0.045349974 0.74164724
-0.0018292519 -0.01392858 0.74594617
-0.0018292519 -0.01392858 0.74594617
0.022006592 -0.0060517131 0.74526656
0.022006592 -0.0060517131 0.74526656
0.014316652 0.043997645 0.74415004
-0.0067737848 -0.014729423 0.74916786
0.014840842 -0.014780752 0.75339699
0.014840842 -0.014780752 0.75339699
-0.0190209 -0.0065159351 0.7533595
-0.0190209 -0.0065159351 0.7533595
0.0015864769 -0.025979137 0.75813103
-0.01536773 -0.019085806 0.76052415
-0.01536773 -0.019085806 0.76052415
-0.022529898 -0.010224191 0.76183093
0.0069319457 -0.027087286 0.77016246
0.0069319457 -0.027087286 0.77016246
-0.01365977 -0.032284897 0.77524596
0.0047742566 -0.032624096 0.77939802
-0.025455156 -0.025850192 0.77838963
-0.023516603 -0.026671197 0.77670336
-0.013655095 -0.037578892 0.78242671
-0.0089881485 -0.044394277 0.78713381
0.0017090682 -0.037357669 0.78597373
0 -0.044306606 0.79980081
-0.0099238362 -0.049777683 0.80202746
-0.034943104 -0.042330008 0.80601007
-0.034943104 -0.042330008 0.80601007
-0.020800782 -0.056648567 0.81178159
-0.014273299 -0.060723446 0.81945372
-0.03698536 -0.053246848 0.81836295
