# .PCD v0.7 - Point Cloud Data file format
VERSION 0.7
FIELDS x y z
SIZE 4 4 4
TYPE F F F
COUNT 1 1 1
WIDTH 1321
HEIGHT 1
VIEWPOINT 0 0 0 1 0 0 0
POINTS 1321
DATA ascii
0.0013830852 -0.084368199 0.74167585
0.0013830852 -0.085059702 0.74167585
0.001383091 -0.085751653 0.74167687
0.001383091 -0.086443216 0.74167693
0.001383091 -0.087134719 0.74167687
0.0020842289 0.091706097 0.74283481
0.0020799835 0.090825975 0.74232233
0.0020775134 0.090025604 0.74202418
0.0020775134 0.089333087 0.74202418
0.0020775134 0.088640571 0.74202418
0.0020775134 0.087948084 0.74202418
0.0020775134 0.087255567 0.74202418
0.0020775134 0.086563081 0.74202418
0.0020775048 0.085870206 0.74202311
0.0020775048 0.08517772 0.74202311
0.0020775048 0.084485233 0.74202317
0.0020775048 0.083792716 0.74202311
0.0020775048 0.0831002 0.74202311
0.0020775048 0.082407713 0.74202311
0.0020775048 0.081715196 0.74202311
0.0020775048 0.08102271 0.74202311
0.0020774961 0.080329865 0.74202204
0.0020774961 0.079637378 0.74202204
0.0020774961 0.078944892 0.7420221
0.0020774961 0.078252345 0.7420221
0.0020774961 0.077559859 0.7420221
0.0020774961 0.076867372 0.7420221
0.0020774961 0.076174855 0.74202216
0.0020774961 0.075482368 0.74202216
0.0020774875 0.074789554 0.74202108
0.0020774875 0.074097067 0.74202108
0.0020774875 0.073404551 0.74202108
0.0020774875 0.072712064 0.74202102
0.0020774875 0.072019577 0.74202102
0.0020774875 0.07132706 0.74202108
0.0020774875 0.070634574 0.74202108
0.0020774875 0.069942087 0.74202108
0.0020774875 0.0692496 0.74202108
0.0020774789 0.068556815 0.74202001
0.0020774789 0.067864329 0.74202001
0.0020774789 0.067171812 0.74202001
0.0020774789 0.066479325 0.74202001
0.0020774789 0.065786868 0.74202001
0.0020774789 0.065094322 0.74202001
0.0020774789 0.064401835 0.74202007
0.0020774789 0.063709408 0.74201995
0.0020774789 0.063016891 0.74201995
0.0020774789 0.062324345 0.74202001
0.0020774875 0.061632127 0.74202102
0.0020774875 0.06093967 0.74202108
0.0020774875 0.060247153 0.74202102
0.0020774875 0.059554636 0.74202102
0.0020774875 0.05886215 0.74202102
0.0020774875 0.058169663 0.74202108
0.0020774961 0.057477415 0.7420221
0.0020774961 0.056784928 0.74202204
0.0020774961 0.056092441 0.7420221
0.0020774961 0.055399925 0.7420221
0.0020774961 0.054707438 0.7420221
0.0020774961 0.054014951 0.74202204
0.0020774961 0.053322434 0.74202204
0.0020774961 0.052629948 0.7420221
0.0020775048 0.05193764 0.74202311
0.0020775048 0.051245153 0.74202311
0.0020775048 0.050552636 0.74202311
0.0020775048 0.04986015 0.74202311
0.0020775048 0.049167663 0.74202311
0.0020775048 0.048475146 0.74202311
0.0020775048 0.04778263 0.74202311
0.0020775134 0.047090322 0.74202418
0.0020775134 0.046397835 0.74202418
0.0020775134 0.045705289 0.74202418
0.0020775134 0.045012802 0.74202412
0.0020775134 0.044320315 0.74202412
0.0020775134 0.043627799 0.74202418
0.0020775134 0.042935312 0.74202418
0.0020749976 0.042191625 0.7417205
0.0020749976 0.041499972 0.74172044
0.0020749976 0.04080829 0.74172056
0.0020749976 0.040116638 0.7417205
0.0020749976 0.039425015 0.74172044
0.0020749976 0.038733274 0.74172056
0.0020749976 0.038041651 0.7417205
0.0020750063 0.037350148 0.74172151
0.0020750063 0.036658436 0.74172151
0.0020750063 0.035966784 0.74172151
0.0020750063 0.035275131 0.74172151
0.0020750063 0.034583479 0.74172151
0.0020750149 0.033891916 0.74172264
0.0020750149 0.033200234 0.74172258
0.0020750149 0.032508582 0.74172252
0.0020750149 0.03181693 0.74172258
0.0020750235 0.031125396 0.7417236
0.0020750235 0.030433685 0.7417236
0.0020750235 0.029742002 0.74172366
0.0020750235 0.02905035 0.7417236
0.0020750235 0.028358668 0.74172366
0.0020750321 0.027667075 0.74172461
0.0020750321 0.026975423 0.74172467
0.0020750321 0.026283711 0.74172467
0.0020750321 0.025592119 0.74172461
0.0020750321 0.024900407 0.74172467
0.0020750407 0.024208814 0.74172568
0.0020750407 0.023517162 0.74172562
0.0020750407 0.02282548 0.74172574
0.0020750407 0.022133768 0.74172568
0.0020750493 0.021442205 0.74172676
0.0020750493 0.020750493 0.74172676
0.0020750493 0.020058811 0.7417267
0.0020750493 0.019367129 0.74172676
0.0020750493 0.018675447 0.74172676
0.0020750579 0.017983854 0.74172783
0.0020750579 0.017292172 0.74172777
0.0020750579 0.01660049 0.74172777
0.0020750579 0.015908778 0.74172771
0.0020750666 0.015217185 0.74172878
0.0020750666 0.014525503 0.74172878
0.0020750666 0.013833791 0.74172878
0.0020750666 0.013142109 0.74172884
0.0020750666 0.012450397 0.74172878
0.0020750752 0.011758804 0.74172986
0.0020750752 0.011067122 0.74172986
0.0020750752 0.01037541 0.74172986
0.0020750752 0.0096837282 0.74172986
0.0020750752 0.0089919865 0.7417298
0.0020750838 0.0083003342 0.74173093
0.0020750838 0.0076086521 0.74173093
0.0020750838 0.0069169104 0.74173093
0.0020750838 0.0062252879 0.74173087
0.0020750924 0.0055336058 0.74173188
0.0020750924 0.0048418641 0.74173188
0.0020750924 0.0041502118 0.74173194
0.0020750924 0.0034584999 0.74173194
0.0020750924 0.002766788 0.74173188
0.002075101 0.0020751059 0.74173295
0.002075101 0.0013834238 0.74173295
0.002075101 0.0006917119 0.74173301
0.002075101 -0 0.74173301
0.0020751096 -0.0006917119 0.74173403
0.0020751096 -0.001383394 0.74173403
0.0020751096 -0.0020751059 0.74173397
0.0020751096 -0.002766788 0.74173403
0.0020751096 -0.0034584999 0.74173403
0.0020751182 -0.0041502416 0.74173504
0.0020751182 -0.0048419237 0.7417351
0.0020751182 -0.0055336058 0.7417351
0.0020751182 -0.0062253177 0.74173504
0.0020751269 -0.0069170594 0.74173605
0.0020751269 -0.0076088011 0.74173605
0.0020751269 -0.0083004832 0.74173605
0.0020751269 -0.0089922249 0.74173605
0.0020751269 -0.009683907 0.74173605
0.0020751352 -0.010375679 0.74173713
0.0020751352 -0.01106739 0.74173713
0.0020751352 -0.011759102 0.74173713
0.0020751352 -0.012450814 0.74173713
0.0020751352 -0.013142526 0.74173713
0.0020751441 -0.013834327 0.74173814
0.0020751441 -0.01452598 0.7417382
0.0020751441 -0.015217692 0.7417382
0.0020751441 -0.015909404 0.74173814
0.0020751527 -0.016601205 0.74173921
0.0020751527 -0.017292917 0.74173921
0.0020751527 -0.017984658 0.74173921
0.0020751527 -0.01867637 0.74173921
0.0020751527 -0.019368052 0.74173921
0.0020751611 -0.020059884 0.74174023
0.0020751611 -0.020751595 0.74174023
0.0020751611 -0.021443337 0.74174023
0.0020751611 -0.022135019 0.74174023
0.0020751699 -0.02282685 0.74174124
0.0020751699 -0.023518592 0.74174124
0.0020751699 -0.024210304 0.7417413
0.0020751699 -0.024902016 0.7417413
0.0020751699 -0.025593758 0.7417413
0.0020751783 -0.026285559 0.74174225
0.0020751783 -0.026977271 0.74174225
0.0020751783 -0.027669042 0.74174237
0.0020751783 -0.028360754 0.74174237
0.0020751783 -0.029052496 0.74174231
0.0020751869 -0.029744327 0.74174333
0.0020751869 -0.030436069 0.74174333
0.0020751869 -0.031127781 0.74174339
0.0020751869 -0.031819522 0.74174333
0.0020751958 -0.032511383 0.7417444
0.0020751958 -0.033203125 0.7417444
0.0020751958 -0.033894837 0.7417444
0.0020751958 -0.034586579 0.7417444
0.0020751958 -0.03527832 0.7417444
0.0020752042 -0.035970211 0.74174541
0.0020752042 -0.036661923 0.74174541
0.0020752042 -0.037353694 0.74174547
0.0020752042 -0.038045406 0.74174547
0.0020752128 -0.038737267 0.74174643
0.0020752128 -0.039429039 0.74174649
0.0020752128 -0.040120751 0.74174643
0.0020752128 -0.040812492 0.74174643
0.0020752128 -0.041504234 0.74174649
0.0020752216 -0.042196184 0.7417475
0.0020752216 -0.042887896 0.7417475
0.0020752216 -0.043579638 0.7417475
0.0020752216 -0.04427135 0.7417475
0.0020752216 -0.044963092 0.7417475
0.00207523 -0.045655042 0.74174851
0.00207523 -0.046346784 0.74174851
0.00207523 -0.047038555 0.74174857
0.00207523 -0.047730297 0.74174857
0.0020752386 -0.048422247 0.74174958
0.0020752386 -0.049113959 0.74174958
0.0020752386 -0.049805731 0.74174964
0.0020752386 -0.050497472 0.74174964
0.0020752386 -0.051189214 0.74174953
0.0020752472 -0.051881164 0.7417506
0.0020752472 -0.052572936 0.7417506
0.0020752472 -0.053264707 0.74175066
0.0020752472 -0.053956419 0.74175066
0.0020752558 -0.05464837 0.74175167
0.0020752558 -0.055340111 0.74175161
0.0020752558 -0.056031883 0.74175167
0.0020752558 -0.056723654 0.74175167
0.0020752558 -0.057415396 0.74175167
0.0020752647 -0.058107376 0.74175268
0.0020752647 -0.058799148 0.74175268
0.0020752647 -0.059490889 0.74175268
0.0020752647 -0.060182661 0.74175274
0.0020752731 -0.060874671 0.7417537
0.0020752731 -0.061566412 0.7417537
0.0020752731 -0.062258184 0.74175376
0.0020752731 -0.062949926 0.74175376
0.0020752731 -0.063641667 0.7417537
0.0020752817 -0.064333737 0.74175477
0.0020752817 -0.065025479 0.74175483
0.0020752817 -0.06571722 0.74175477
0.0020752817 -0.066408992 0.74175477
0.0020752817 -0.067100763 0.74175483
0.0020752903 -0.067792803 0.74175584
0.0020752903 -0.068484575 0.74175584
0.0020752903 -0.069176316 0.74175584
0.0020752903 -0.069868088 0.74175584
0.0020752989 -0.070560157 0.74175686
0.0020752989 -0.071251959 0.74175686
0.0020752989 -0.071943671 0.74175686
0.0020752989 -0.072635442 0.74175686
0.0020752989 -0.073327214 0.7417568
0.0020753075 -0.074019313 0.74175793
0.0020753075 -0.074711084 0.74175787
0.0020753075 -0.075402826 0.74175787
0.0020753075 -0.076094598 0.74175793
0.0020753162 -0.076786697 0.741759
0.0020753162 -0.077478468 0.74175888
0.0020753162 -0.07817024 0.74175894
0.0020753162 -0.078861982 0.74175894
0.0020753162 -0.079553783 0.74175894
0.0020753248 -0.080245912 0.74176002
0.0020753248 -0.080937684 0.74175996
0.0020753248 -0.081629425 0.7417599
0.0020753248 -0.082321197 0.74175996
0.0020753248 -0.083012998 0.74176002
0.0020753334 -0.083705097 0.74176109
0.0020753334 -0.084396839 0.74176097
0.0020753334 -0.08508867 0.74176103
0.0020753334 -0.085780442 0.74176103
0.002075342 -0.086472541 0.74176204
0.002075342 -0.087164342 0.7417621
0.0027802689 0.091748893 0.74295217
0.002774603 0.090868264 0.74243927
0.0027710418 0.090058893 0.74211687
0.0027710418 0.089366108 0.74211693
0.0027710304 0.088672966 0.7421158
0.0027710304 0.087980211 0.74211586
0.0027710304 0.087287486 0.74211586
0.0027710304 0.086594731 0.7421158
0.0027710304 0.085901976 0.74211586
0.0027710304 0.085209221 0.74211586
0.0027710304 0.084516466 0.74211586
0.0027710304 0.083823651 0.74211586
0.002771019 0.083130568 0.74211478
0.002771019 0.082437843 0.74211478
0.002771019 0.081745058 0.74211478
0.002771019 0.081052303 0.74211478
0.002771019 0.080359578 0.74211478
0.002771019 0.079666793 0.74211478
0.002771019 0.078974068 0.74211478
0.002771019 0.078281313 0.74211478
0.0027710074 0.077588201 0.74211377
0.0027710074 0.076895475 0.74211377
0.0027710074 0.07620275 0.74211371
0.0027710074 0.075509965 0.74211377
0.0027710074 0.07481721 0.74211377
0.0027710074 0.074124455 0.74211371
0.0027710074 0.07343173 0.74211371
0.0027710074 0.072738945 0.74211377
0.0027710074 0.07204622 0.74211377
0.002770996 0.071353167 0.74211276
0.002770996 0.070660412 0.74211264
0.002770996 0.069967687 0.7421127
0.002770996 0.069274932 0.74211264
0.002770996 0.068582147 0.7421127
0.002770996 0.067889452 0.7421127
0.002770996 0.067196637 0.74211276
0.002770996 0.066503942 0.74211276
0.0027709843 0.065810889 0.74211168
0.0027709843 0.065118134 0.74211168
0.0027709843 0.064425409 0.74211168
0.0027709843 0.063732654 0.74211168
0.0027709843 0.063039929 0.74211168
0.0027709843 0.062347174 0.74211168
0.0027709843 0.061654389 0.74211168
0.0027709843 0.060961694 0.74211162
0.0027709843 0.060268939 0.74211162
0.002770996 0.059576422 0.74211264
0.002770996 0.058883697 0.7421127
0.002770996 0.058190912 0.7421127
0.002770996 0.057498157 0.7421127
0.002770996 0.056805432 0.7421127
0.0027710074 0.056112945 0.74211371
0.0027710074 0.05542019 0.74211371
0.0027710074 0.054727435 0.74211377
0.0027710074 0.05403465 0.74211371
0.0027710074 0.053341925 0.74211377
0.002771019 0.052649409 0.74211478
0.002771019 0.051956624 0.74211478
0.002771019 0.051263869 0.74211484
0.002771019 0.050571084 0.74211478
0.002771019 0.049878359 0.74211478
0.0027710304 0.049185842 0.7421158
0.0027710304 0.048493028 0.74211586
0.0027710304 0.047800273 0.74211586
0.0027710304 0.047107518 0.7421158
0.0027710304 0.046414763 0.74211586
0.0027710304 0.045722008 0.7421158
0.0027710418 0.045029432 0.74211687
0.0027710418 0.044336677 0.74211687
0.0027710418 0.043643922 0.74211693
0.0027710418 0.042951167 0.74211693
0.0027677196 0.042207718 0.7418161
0.0027677196 0.041515797 0.74181604
0.0027677196 0.040823877 0.74181604
0.0027677196 0.040131897 0.7418161
0.0027677196 0.039440036 0.7418161
0.0027677196 0.038748085 0.74181604
0.0027677196 0.038056195 0.7418161
0.0027677196 0.037364215 0.7418161
0.0027677196 0.036672324 0.74181604
0.0027677196 0.035980374 0.7418161
0.0027677196 0.035288423 0.7418161
0.0027677196 0.034596503 0.7418161
0.0027677196 0.033904612 0.74181604
0.0027677196 0.033212602 0.74181604
0.0027677196 0.032520741 0.74181604
0.002767731 0.03182894 0.74181712
0.002767731 0.031137019 0.74181712
0.002767731 0.030445039 0.74181712
0.002767731 0.029753149 0.74181712
0.002767731 0.029061198 0.74181718
0.002767731 0.028369248 0.74181718
0.002767731 0.027677327 0.74181718
0.002767731 0.026985407 0.74181712
0.002767731 0.026293457 0.74181718
0.002767731 0.025601536 0.74181712
0.002767731 0.024909616 0.74181718
0.002767731 0.024217665 0.74181712
0.002767731 0.023525745 0.74181712
0.002767731 0.022833794 0.74181712
0.002767731 0.022141874 0.74181712
0.0027677426 0.021450043 0.74181813
0.0027677426 0.020758092 0.74181819
0.0027677426 0.020066142 0.74181819
0.0027677426 0.019374222 0.74181819
0.0027677426 0.018682271 0.74181819
0.0027677426 0.017990351 0.74181819
0.0027677426 0.0172984 0.74181819
0.0027677426 0.01660648 0.74181819
0.0027677426 0.015914559 0.74181819
0.0027677426 0.015222609 0.74181819
0.0027677426 0.014530689 0.74181819
0.0027677426 0.013838768 0.74181819
0.0027677426 0.013146788 0.74181813
0.0027677426 0.012454897 0.74181819
0.0027677426 0.011762947 0.74181813
0.002767754 0.011071026 0.74181926
0.002767754 0.010379106 0.7418192
0.002767754 0.0096871853 0.74181926
0.002767754 0.008995235 0.7418192
0.002767754 0.0083032548 0.7418192
0.002767754 0.0076113045 0.7418192
0.002767754 0.0069193542 0.74181926
0.002767754 0.0062274337 0.7418192
0.002767754 0.0055355132 0.74181926
0.002767754 0.0048435628 0.7418192
0.002767754 0.0041516423 0.74181926
0.002767754 0.0034597218 0.7418192
0.002767754 0.0027677715 0.7418192
0.002767754 0.002075851 0.74181914
0.002767754 0.0013839006 0.7418192
0.0027677657 0.00069192052 0.74182028
0.0027677657 2.9802322e-08 0.74182022
0.0027677657 -0.00069192052 0.74182028
0.0027677657 -0.0013838708 0.74182022
0.0027677657 -0.0020757914 0.74182028
0.0027677657 -0.0027677417 0.74182028
0.0027677657 -0.003459692 0.74182022
0.0027677657 -0.0041516721 0.74182028
0.0027677657 -0.0048435628 0.74182022
0.0027677657 -0.005535543 0.74182022
0.0027677657 -0.0062274635 0.74182028
0.0027677657 -0.0069194138 0.74182022
0.0027677771 -0.0076113641 0.74182129
0.0027677771 -0.0083033442 0.74182135
0.0027677771 -0.008995235 0.74182129
0.0027677771 -0.0096872151 0.74182129
0.0027677771 -0.010379136 0.74182129
0.0027677885 -0.011071116 0.74182236
0.0027677885 -0.011763066 0.74182236
0.0027677885 -0.012455016 0.7418223
0.0027677885 -0.013146967 0.74182236
0.0027677999 -0.013838977 0.74182338
0.0027677999 -0.014530897 0.74182332
0.0027677999 -0.015222907 0.74182343
0.0027677999 -0.015914828 0.74182338
0.0027677999 -0.016606778 0.74182343
0.0027678115 -0.017298758 0.74182439
0.0027678115 -0.017990768 0.74182439
0.0027678115 -0.018682718 0.74182439
0.0027678115 -0.019374669 0.74182439
0.0027678115 -0.020066619 0.74182445
0.0027678229 -0.020758659 0.74182546
0.0027678229 -0.021450639 0.74182546
0.0027678229 -0.022142559 0.74182546
0.0027678229 -0.022834539 0.7418254
0.0027678343 -0.023526579 0.74182653
0.0027678343 -0.0242185 0.74182647
0.0027678343 -0.02491051 0.74182647
0.0027678343 -0.02560246 0.74182647
0.0027678343 -0.02629438 0.74182642
0.0027678458 -0.02698651 0.74182755
0.0027678458 -0.02767843 0.74182755
0.0027678458 -0.02837038 0.74182755
0.0027678458 -0.029062331 0.74182749
0.0027678574 -0.02975446 0.74182856
0.0027678574 -0.03044641 0.74182856
0.0027678574 -0.031138361 0.74182856
0.0027678574 -0.031830341 0.74182856
0.0027678574 -0.032522321 0.74182856
0.0027678688 -0.03321442 0.74182957
0.0027678688 -0.03390637 0.74182963
0.0027678688 -0.034598351 0.74182963
0.0027678688 -0.035290301 0.74182957
0.0027678804 -0.03598243 0.74183059
0.0027678804 -0.03667438 0.74183065
0.0027678804 -0.03736639 0.74183065
0.0027678804 -0.038058341 0.74183065
0.0027678804 -0.038750291 0.74183059
0.0027678919 -0.03944242 0.74183166
0.0027678919 -0.04013443 0.74183172
0.0027678919 -0.04082638 0.74183166
0.0027678919 -0.04151836 0.74183166
0.0027678919 -0.04221034 0.74183166
0.0027679033 -0.04290247 0.74183273
0.0027679033 -0.04359445 0.74183273
0.0027679033 -0.04428643 0.74183273
0.0027679033 -0.04497844 0.74183273
0.0027679147 -0.045670599 0.74183381
0.0027679147 -0.046362579 0.74183381
0.0027679147 -0.047054529 0.74183375
0.0027679147 -0.047746509 0.74183375
0.0027679147 -0.048438519 0.74183375
0.0027679263 -0.049130708 0.74183476
0.0027679263 -0.049822658 0.74183476
0.0027679263 -0.050514638 0.74183482
0.0027679263 -0.051206619 0.74183482
0.0027679377 -0.051898777 0.74183583
0.0027679377 -0.052590787 0.74183583
0.0027679377 -0.053282768 0.74183583
0.0027679377 -0.053974777 0.74183583
0.0027679377 -0.054666758 0.74183583
0.0027679494 -0.055359006 0.74183685
0.0027679494 -0.056050956 0.74183691
0.0027679494 -0.056742936 0.74183691
0.0027679494 -0.057434946 0.74183691
0.0027679494 -0.058126926 0.74183685
0.0027679608 -0.058819175 0.74183792
0.0027679608 -0.059511125 0.74183798
0.0027679608 -0.060203135 0.74183792
0.0027679608 -0.060895085 0.74183786
0.0027679722 -0.061587363 0.74183893
0.0027679722 -0.062279344 0.74183905
0.0027679722 -0.062971324 0.74183893
0.0027679722 -0.063663363 0.74183899
0.0027679722 -0.064355344 0.74183893
0.0027679836 -0.065047592 0.74184
0.0027679836 -0.065739602 0.74184
0.0027679836 -0.066431582 0.74184
0.0027679836 -0.067123592 0.74184
0.0027679952 -0.06781587 0.74184108
0.0027679952 -0.06850785 0.74184108
0.0027679952 -0.06919983 0.74184108
0.0027679952 -0.06989184 0.74184108
0.0027679952 -0.07058385 0.74184102
0.0027680066 -0.071276158 0.74184209
0.0027680066 -0.071968138 0.74184209
0.0027680066 -0.072660178 0.74184203
0.0027680066 -0.073352158 0.74184203
0.0027680066 -0.074044168 0.74184203
0.0027680183 -0.074736506 0.74184316
0.0027680183 -0.075428486 0.7418431
0.0027680183 -0.076120496 0.7418431
0.0027680183 -0.076812476 0.7418431
0.0027680297 -0.077504814 0.74184418
0.0027680297 -0.078196824 0.74184418
0.0027680297 -0.078888834 0.74184424
0.0027680297 -0.079580873 0.74184412
0.0027680297 -0.080272824 0.74184418
0.0027680411 -0.080965191 0.74184513
0.0027680411 -0.081657201 0.74184519
0.0027680411 -0.082349211 0.74184519
0.0027680411 -0.083041221 0.74184525
0.0027680525 -0.083733588 0.74184626
0.0027680525 -0.084425598 0.74184626
0.0027680525 -0.085117608 0.74184626
0.0027680525 -0.085809588 0.7418462
0.0027680525 -0.086501628 0.7418462
0.0027680642 -0.087194026 0.74184728
0.0034770747 0.091794789 0.74307817
0.00346987 0.090910643 0.74255633
0.0034650688 0.090091795 0.7422086
0.0034650688 0.089398831 0.7422086
0.0034650688 0.088705778 0.7422086
0.0034650688 0.088012755 0.7422086
0.0034650688 0.087319791 0.7422086
0.0034650688 0.086626709 0.7422086
0.0034650832 0.085934073 0.74220961
0.0034650832 0.085241079 0.74220967
0.0034650832 0.084548056 0.74220961
0.0034650832 0.083855063 0.74220967
0.0034650832 0.08316201 0.74220967
0.0034650976 0.082469344 0.74221069
0.0034650976 0.081776291 0.74221075
0.0034650976 0.081083268 0.74221075
0.0034650976 0.080390304 0.74221069
0.0034650976 0.079697281 0.74221075
0.0034650976 0.079004258 0.74221069
0.0034651121 0.078311533 0.7422117
0.0034651121 0.077618539 0.74221176
0.0034651121 0.076925486 0.74221176
0.0034651121 0.076232463 0.7422117
0.0034651121 0.07553947 0.7422117
0.0034651265 0.074846715 0.74221277
0.0034651265 0.074153751 0.74221277
0.0034651265 0.073460698 0.74221277
0.0034651265 0.072767675 0.74221277
0.0034651265 0.072074652 0.74221277
0.0034651409 0.071381927 0.74221379
0.0034651409 0.070688874 0.74221379
0.0034651409 0.06999591 0.74221385
0.0034651409 0.069302797 0.74221385
0.0034651409 0.068609834 0.74221385
0.0034651409 0.067916781 0.74221385
0.0034651554 0.067224056 0.74221486
0.0034651554 0.066530973 0.74221486
0.0034651554 0.065837979 0.74221492
0.0034651554 0.065144956 0.74221486
0.0034651554 0.064451873 0.74221486
0.0034651698 0.063759148 0.74221587
0.0034651698 0.063066125 0.74221587
0.0034651698 0.062373042 0.74221587
0.0034651698 0.061680049 0.74221587
0.0034651698 0.060987025 0.74221593
0.0034651842 0.060294211 0.74221694
0.0034651842 0.059601158 0.74221694
0.0034651842 0.058908165 0.74221694
0.0034651842 0.058215111 0.74221694
0.0034651842 0.057522058 0.74221694
0.0034651987 0.056829244 0.74221802
0.0034651987 0.05613625 0.74221796
0.0034651987 0.055443197 0.74221796
0.0034651987 0.054750144 0.74221796
0.0034651987 0.054057121 0.74221796
0.0034652131 0.053364307 0.74221903
0.0034652131 0.052671254 0.74221909
0.0034652131 0.051978201 0.74221903
0.0034652131 0.051285177 0.74221903
0.0034652131 0.050592124 0.74221909
0.0034652131 0.049899131 0.74221903
0.0034652275 0.049206227 0.7422201
0.0034652275 0.048513174 0.7422201
0.0034652275 0.047820151 0.74222004
0.0034652275 0.047127098 0.7422201
0.0034652275 0.046434075 0.74222004
0.0034652418 0.04574123 0.74222112
0.0034652418 0.045048177 0.74222112
0.0034652418 0.044355124 0.74222112
0.0034652418 0.043662071 0.74222112
0.0034652418 0.042968988 0.74222112
0.003460956 0.042223662 0.7419107
0.003460956 0.041531503 0.74191076
0.003460956 0.040839285 0.7419107
0.003460956 0.040147096 0.7419107
0.003460956 0.039454907 0.74191076
0.003460956 0.038762718 0.74191076
0.003460956 0.03807053 0.7419107
0.003460956 0.037378341 0.74191076
0.0034609705 0.036686331 0.74191177
0.0034609705 0.035994112 0.74191183
0.0034609705 0.035301894 0.74191177
0.0034609705 0.034609735 0.74191177
0.0034609705 0.033917516 0.74191177
0.0034609705 0.033225328 0.74191177
0.0034609705 0.032533139 0.74191177
0.0034609705 0.03184098 0.74191177
0.0034609705 0.031148732 0.74191177
0.0034609705 0.030456513 0.74191177
0.0034609705 0.029764384 0.74191177
0.0034609705 0.029072195 0.74191171
0.0034609705 0.028379977 0.74191177
0.0034609705 0.027687788 0.74191177
0.0034609705 0.026995599 0.74191177
0.0034609849 0.0263035 0.74191278
0.0034609849 0.025611281 0.74191278
0.0034609849 0.024919093 0.74191284
0.0034609849 0.024226934 0.74191278
0.0034609849 0.023534685 0.74191284
0.0034609849 0.022842497 0.74191284
0.0034609849 0.022150338 0.74191284
0.0034609849 0.021458149 0.74191278
0.0034609849 0.02076593 0.74191278
0.0034609849 0.020073712 0.74191278
0.0034609849 0.019381553 0.74191284
0.0034609849 0.018689334 0.74191284
0.0034609849 0.017997146 0.74191278
0.0034609849 0.017304927 0.74191284
0.0034609849 0.016612738 0.74191278
0.0034609993 0.015920609 0.74191386
0.0034609993 0.01522842 0.7419138
0.0034609993 0.014536232 0.74191386
0.0034609993 0.013844013 0.74191386
0.0034609993 0.013151795 0.74191391
0.0034609993 0.012459636 0.74191386
0.0034609993 0.011767417 0.7419138
0.0034609993 0.011075199 0.74191386
0.0034609993 0.01038301 0.74191386
0.0034609993 0.0096908212 0.7419138
0.0034609993 0.0089986026 0.74191386
0.0034609993 0.0083064139 0.7419138
0.0034609993 0.0076141953 0.74191386
0.0034609993 0.0069220066 0.7419138
0.0034609993 0.0062298179 0.74191386
0.0034610138 0.0055376291 0.74191487
0.0034610138 0.0048454404 0.74191493
0.0034610138 0.0041532516 0.74191487
0.0034610138 0.0034610331 0.74191487
0.0034610138 0.0027688444 0.74191487
0.0034610138 0.002076596 0.74191487
0.0034610138 0.0013844073 0.74191487
0.0034610138 0.00069218874 0.74191493
0.0034610138 2.9802322e-08 0.74191487
0.0034610138 -0.00069215894 0.74191487
0.0034610138 -0.0013844073 0.74191487
0.0034610138 -0.0020766258 0.74191487
0.0034610138 -0.0027688146 0.74191487
0.0034610138 -0.0034609735 0.74191487
0.0034610138 -0.0041532218 0.74191493
0.0034610278 -0.0048454106 0.74191594
0.0034610278 -0.0055376589 0.74191594
0.0034610278 -0.0062298179 0.74191594
0.0034610278 -0.0069220662 0.74191594
0.0034610278 -0.0076142251 0.74191594
0.0034610278 -0.0083064735 0.74191594
0.0034610278 -0.0089986622 0.74191594
0.0034610278 -0.009690851 0.74191594
0.0034610278 -0.01038307 0.74191594
0.0034610278 -0.011075288 0.74191594
0.0034610278 -0.011767477 0.74191594
0.0034610278 -0.012459666 0.74191588
0.0034610278 -0.013151884 0.74191594
0.0034610278 -0.013844103 0.74191594
0.0034610422 -0.014536381 0.74191701
0.0034610422 -0.015228599 0.74191701
0.0034610422 -0.015920788 0.74191695
0.0034610422 -0.016612947 0.74191695
0.0034610422 -0.017305195 0.74191695
0.0034610422 -0.017997444 0.74191701
0.0034610422 -0.018689632 0.74191695
0.0034610422 -0.019381821 0.74191695
0.0034610422 -0.02007401 0.74191701
0.0034610422 -0.020766258 0.74191701
0.0034610422 -0.021458477 0.74191695
0.0034610422 -0.022150636 0.74191695
0.0034610422 -0.022842854 0.74191695
0.0034610422 -0.023535043 0.74191701
0.0034610422 -0.024227262 0.74191701
0.0034610566 -0.024919569 0.74191797
0.0034610566 -0.025611818 0.74191809
0.0034610566 -0.026304007 0.74191803
0.0034610566 -0.026996255 0.74191803
0.0034610566 -0.027688444 0.74191797
0.0034610566 -0.028380662 0.74191803
0.0034610566 -0.029072881 0.74191797
0.0034610566 -0.029765099 0.74191797
0.0034610566 -0.030457258 0.74191803
0.0034610566 -0.031149507 0.74191803
0.0034610566 -0.031841695 0.74191797
0.0034610566 -0.032533914 0.74191803
0.0034610566 -0.033226103 0.74191797
0.0034610566 -0.033918321 0.74191803
0.0034610566 -0.03461054 0.74191803
0.0034610711 -0.035302907 0.74191904
0.0034610711 -0.035995126 0.74191904
0.0034610711 -0.036687344 0.74191904
0.0034610711 -0.037379563 0.7419191
0.0034610711 -0.038071752 0.74191904
0.0034610711 -0.038764 0.74191904
0.0034610711 -0.039456189 0.74191904
0.0034610711 -0.040148437 0.74191904
0.0034610711 -0.040840626 0.74191904
0.0034610711 -0.041532815 0.74191904
0.0034610711 -0.042225033 0.74191904
0.0034610711 -0.042917281 0.74191904
0.0034610711 -0.0436095 0.7419191
0.0034610711 -0.044301689 0.74191904
0.0034610711 -0.044993877 0.74191904
0.0034610855 -0.045686275 0.74192005
0.0034610855 -0.046378493 0.74192011
0.0034610855 -0.047070771 0.74192011
0.0034610855 -0.04776299 0.74192011
0.0034610855 -0.048455179 0.74192011
0.0034610855 -0.049147367 0.74192011
0.0034610855 -0.049839586 0.74192011
0.0034610855 -0.050531834 0.74192011
0.0034610855 -0.051224053 0.74192011
0.0034610855 -0.051916242 0.74192005
0.0034610999 -0.052608699 0.74192113
0.0034610999 -0.053300917 0.74192119
0.0034610999 -0.053993106 0.74192113
0.0034610999 -0.054685354 0.74192113
0.0034610999 -0.055377603 0.74192113
0.0034611139 -0.05607003 0.7419222
0.0034611139 -0.056762278 0.7419222
0.0034611139 -0.057454467 0.74192214
0.0034611139 -0.058146715 0.74192214
0.0034611283 -0.058839202 0.74192321
0.0034611283 -0.059531391 0.74192321
0.0034611283 -0.060223609 0.74192315
0.0034611283 -0.060915828 0.74192321
0.0034611283 -0.061608106 0.74192321
0.0034611428 -0.062300593 0.74192429
0.0034611428 -0.062992781 0.74192423
0.0034611428 -0.06368503 0.74192423
0.0034611428 -0.064377248 0.74192429
0.0034611572 -0.065069765 0.7419253
0.0034611572 -0.065761983 0.74192524
0.0034611572 -0.066454202 0.7419253
0.0034611572 -0.06714645 0.7419253
0.0034611572 -0.067838699 0.7419253
0.0034611716 -0.068531185 0.74192631
0.0034611716 -0.069223404 0.74192631
0.0034611716 -0.069915652 0.74192631
0.0034611716 -0.070607901 0.74192631
0.0034611716 -0.071300119 0.74192631
0.0034611861 -0.071992636 0.74192739
0.0034611861 -0.072684884 0.74192739
0.0034611861 -0.073377162 0.74192739
0.0034611861 -0.074069381 0.74192739
0.0034612005 -0.074761897 0.74192846
0.0034612005 -0.075454116 0.7419284
0.0034612005 -0.076146334 0.7419284
0.0034612005 -0.076838613 0.7419284
0.0034612005 -0.077530861 0.7419284
0.0034612145 -0.078223467 0.74192953
0.0034612145 -0.078915685 0.74192953
0.0034612145 -0.079607904 0.74192947
0.0034612145 -0.080300182 0.74192947
0.0034612289 -0.080992728 0.74193043
0.0034612289 -0.081684977 0.74193048
0.0034612289 -0.082377225 0.74193048
0.0034612289 -0.083069444 0.74193048
0.0034612289 -0.083761722 0.74193054
0.0034612434 -0.084454358 0.74193156
0.0034612434 -0.085146606 0.74193156
0.0034612434 -0.085838825 0.7419315
0.0034612434 -0.086531043 0.7419315
0.0034612434 -0.087223351 0.74193156
0.0041754497 0.091859907 0.74325681
0.0041667912 0.090974957 0.74273425
0.0041603474 0.090140849 0.74234533
0.0041603474 0.089447439 0.74234527
0.0041603474 0.088754088 0.74234533
0.0041603474 0.088060707 0.74234533
0.0041603302 0.087366968 0.74234426
0.0041603302 0.086673558 0.74234426
0.0041603302 0.085980147 0.74234426
0.0041603302 0.085286766 0.74234426
0.0041603302 0.084593385 0.7423442
0.0041603302 0.083900005 0.74234426
0.0041603125 0.083206266 0.74234319
0.0041603125 0.082512885 0.74234319
0.0041603125 0.081819534 0.74234319
0.0041603125 0.081126124 0.74234319
0.0041603125 0.080432713 0.74234319
0.0041603125 0.079739332 0.74234319
0.0041602952 0.079045624 0.74234211
0.0041602952 0.078352243 0.74234211
0.0041602952 0.077658892 0.74234217
0.0041602952 0.076965481 0.74234211
0.0041602952 0.07627207 0.74234217
0.0041602952 0.075578719 0.74234217
0.004160278 0.074884981 0.74234116
0.004160278 0.07419166 0.74234104
0.004160278 0.073498249 0.7423411
0.004160278 0.072804898 0.74234116
0.004160278 0.072111487 0.7423411
0.004160278 0.071418166 0.7423411
0.0041602608 0.070724487 0.74234009
0.0041602608 0.070031077 0.74234009
0.0041602608 0.069337666 0.74234009
0.0041602608 0.068644285 0.74234009
0.0041602608 0.067950934 0.74234009
0.0041602608 0.067257553 0.74234003
0.0041602436 0.066563934 0.74233902
0.0041602436 0.065870523 0.74233902
0.0041602436 0.065177143 0.74233902
0.0041602436 0.064483762 0.74233907
0.0041602436 0.063790411 0.74233902
0.0041602436 0.06309703 0.74233902
0.0041602263 0.062403411 0.74233794
0.0041602263 0.06171 0.74233794
0.0041602263 0.061016679 0.742338
0.0041602263 0.060323268 0.74233794
0.0041602263 0.059629917 0.74233794
0.0041602263 0.058936536 0.74233794
0.0041602091 0.058242947 0.74233693
0.0041602091 0.057549566 0.74233693
0.0041602091 0.056856185 0.74233699
0.0041602091 0.056162834 0.74233693
0.0041602091 0.055469483 0.74233693
0.0041602091 0.054776132 0.74233687
0.0041601914 0.054082483 0.74233592
0.0041601914 0.053389162 0.74233586
0.0041601914 0.052695751 0.74233592
0.0041601914 0.05200243 0.74233592
0.0041601914 0.051309079 0.74233592
0.0041601914 0.050615698 0.74233592
0.0041601746 0.049922138 0.74233484
0.0041601746 0.049228728 0.74233484
0.0041601746 0.048535377 0.7423349
0.0041601914 0.047842205 0.74233592
0.0041601914 0.047148824 0.74233586
0.0041601914 0.046455503 0.74233586
0.0041601914 0.045762122 0.74233592
0.0041601914 0.045068741 0.74233592
0.0041602091 0.044375598 0.74233687
0.0041602091 0.043682218 0.74233693
0.0041602091 0.042988837 0.74233699
0.0041552512 0.04224509 0.74203777
0.0041552512 0.041552514 0.74203765
0.0041552512 0.040859967 0.74203771
0.0041552512 0.040167481 0.74203771
0.0041552512 0.039474905 0.74203771
0.004155234 0.038782239 0.74203664
0.004155234 0.038089633 0.7420367
0.004155234 0.037397146 0.7420367
0.004155234 0.03670454 0.7420367
0.004155234 0.036012053 0.74203664
0.004155234 0.035319537 0.74203664
0.004155234 0.034626931 0.74203664
0.004155234 0.033934444 0.74203664
0.004155234 0.033241898 0.7420367
0.004155234 0.032549351 0.7420367
0.004155234 0.031856835 0.74203664
0.004155234 0.031164259 0.7420367
0.004155234 0.030471742 0.7420367
0.004155234 0.029779196 0.74203664
0.004155234 0.029086679 0.74203664
0.004155234 0.028394133 0.74203664
0.004155234 0.027701557 0.7420367
0.004155234 0.02700904 0.74203664
0.004155234 0.026316494 0.7420367
0.004155234 0.025623947 0.74203664
0.0041552167 0.024931312 0.74203563
0.0041552167 0.024238765 0.74203563
0.0041552167 0.023546278 0.74203563
0.0041552167 0.022853702 0.74203563
0.0041552167 0.022161186 0.74203563
0.0041552167 0.02146861 0.74203557
0.0041552167 0.020776093 0.74203563
0.0041552167 0.020083576 0.74203563
0.0041552167 0.01939103 0.74203563
0.0041552167 0.018698484 0.74203563
0.0041552167 0.018005967 0.74203563
0.0041552167 0.017313391 0.74203563
0.0041552167 0.016620874 0.74203563
0.0041552167 0.015928358 0.74203569
0.0041552167 0.015235782 0.74203563
0.0041552167 0.014543295 0.74203563
0.0041552167 0.013850778 0.74203557
0.0041552167 0.013158202 0.74203563
0.0041552167 0.012465656 0.74203563
0.0041551995 0.01177308 0.74203455
0.0041551995 0.011080533 0.74203461
0.0041551995 0.010388017 0.74203461
0.0041551995 0.0096955001 0.74203455
0.0041551995 0.009002924 0.74203455
0.0041551995 0.0083104372 0.74203455
0.0041551995 0.007617861 0.74203455
0.0041551995 0.0069253445 0.74203455
0.0041551995 0.0062327981 0.74203455
0.0041551995 0.0055403113 0.74203455
0.0041551995 0.0048477352 0.74203461
0.0041551995 0.0041552186 0.74203455
0.0041551995 0.0034626424 0.74203461
0.0041551995 0.0027701855 0.74203461
0.0041551995 0.0020776093 0.74203461
0.0041551995 0.0013850927 0.74203455
0.0041551995 0.00069254637 0.74203455
0.0041551995 -0 0.74203455
0.0041551995 -0.00069251657 0.74203455
0.0041551995 -0.0013850331 0.74203455
0.0041551823 -0.0020775795 0.7420336
0.0041551823 -0.0027700961 0.7420336
0.0041551823 -0.0034626424 0.7420336
0.0041551823 -0.004155159 0.74203348
0.0041551823 -0.0048477054 0.74203354
0.0041551823 -0.0055402219 0.74203354
0.0041551823 -0.0062327385 0.74203348
0.0041551823 -0.0069252849 0.74203354
0.0041551823 -0.0076178312 0.74203354
0.0041551823 -0.0083103478 0.74203354
0.0041551823 -0.0090028942 0.74203354
0.0041551823 -0.0096954107 0.74203354
0.0041551823 -0.010387957 0.7420336
0.0041551823 -0.011080474 0.74203354
0.0041551823 -0.01177302 0.74203354
0.0041551823 -0.012465507 0.74203354
0.0041551823 -0.013158083 0.7420336
0.0041551823 -0.0138506 0.74203348
0.0041551823 -0.014543116 0.74203348
0.0041551651 -0.015235573 0.74203247
0.0041551651 -0.015928119 0.74203253
0.0041551651 -0.016620636 0.74203253
0.0041551651 -0.017313182 0.74203247
0.0041551651 -0.018005699 0.74203253
0.0041551651 -0.018698275 0.74203253
0.0041551651 -0.019390762 0.74203253
0.0041551651 -0.020083249 0.74203247
0.0041551651 -0.020775825 0.74203253
0.0041551651 -0.021468341 0.74203253
0.0041551651 -0.022160858 0.74203253
0.0041551651 -0.022853434 0.74203253
0.0041551651 -0.023545921 0.74203253
0.0041551651 -0.024238408 0.74203253
0.0041551651 -0.024930954 0.74203247
0.0041551651 -0.0256235 0.74203253
0.0041551651 -0.026316017 0.74203253
0.0041551651 -0.027008593 0.74203253
0.0041551651 -0.02770108 0.74203253
0.0041551651 -0.028393596 0.74203253
0.0041551478 -0.029086024 0.74203146
0.0041551478 -0.02977854 0.74203146
0.0041551478 -0.030471087 0.74203146
0.0041551478 -0.031163573 0.74203146
0.0041551478 -0.03185612 0.74203146
0.0041551478 -0.032548666 0.74203146
0.0041551478 -0.033241153 0.74203146
0.0041551478 -0.033933669 0.74203146
0.0041551478 -0.034626216 0.74203146
0.0041551478 -0.035318732 0.74203146
0.0041551478 -0.036011249 0.74203146
0.0041551478 -0.036703795 0.74203146
0.0041551478 -0.037396312 0.74203146
0.0041551478 -0.038088828 0.74203146
0.0041551478 -0.038781375 0.7420314
0.0041551478 -0.039473921 0.74203146
0.0041551478 -0.040166378 0.74203146
0.0041551478 -0.040858924 0.74203146
0.0041551478 -0.041551471 0.74203146
0.0041551478 -0.042243987 0.74203146
0.0041551306 -0.042936355 0.74203044
0.0041551306 -0.043628871 0.74203044
0.0041551306 -0.044321388 0.74203044
0.0041551306 -0.045013875 0.74203044
0.0041551306 -0.045706421 0.74203044
0.0041551306 -0.046398938 0.74203044
0.0041551306 -0.047091484 0.74203044
0.0041551306 -0.047784001 0.74203044
0.0041551306 -0.048476547 0.74203044
0.0041551306 -0.049169034 0.74203044
0.0041551306 -0.049861521 0.74203044
0.0041551306 -0.050554067 0.74203038
0.0041551306 -0.051246583 0.74203038
0.0041551306 -0.0519391 0.74203044
0.0041551306 -0.052631646 0.74203044
0.0041551306 -0.053324193 0.74203044
0.0041551306 -0.05401668 0.74203044
0.0041551306 -0.054709196 0.74203044
0.0041551306 -0.055401713 0.74203044
0.0041551129 -0.056094021 0.74202943
0.0041551129 -0.056786537 0.74202943
0.0041551129 -0.057479054 0.74202937
0.0041551129 -0.05817157 0.74202937
0.0041551129 -0.058864087 0.74202937
0.0041551129 -0.059556633 0.74202937
0.0041551129 -0.06024915 0.74202937
0.0041551129 -0.060941637 0.74202937
0.0041551129 -0.061634153 0.74202937
0.0041551129 -0.062326699 0.74202937
0.0041551129 -0.063019216 0.74202937
0.0041551129 -0.063711733 0.74202937
0.0041551129 -0.064404249 0.74202937
0.0041551129 -0.065096766 0.74202937
0.0041551129 -0.065789253 0.74202931
0.0041551129 -0.066481799 0.74202943
0.0041551129 -0.067174286 0.74202943
0.0041551129 -0.067866802 0.74202931
0.0041551129 -0.068559349 0.74202931
0.0041551129 -0.069251865 0.74202943
0.0041550961 -0.069944084 0.7420283
0.0041550961 -0.07063663 0.74202836
0.0041550961 -0.071329117 0.74202836
0.0041550961 -0.072021663 0.74202836
0.0041550961 -0.07271418 0.7420283
0.0041550961 -0.073406696 0.74202836
0.0041550961 -0.074099213 0.74202836
0.0041550961 -0.0747917 0.7420283
0.0041550961 -0.075484216 0.7420283
0.0041550961 -0.076176733 0.74202836
0.0041550961 -0.076869249 0.74202836
0.0041550961 -0.077561766 0.7420283
0.0041551129 -0.07825464 0.74202937
0.0041551129 -0.078947157 0.74202937
0.0041551129 -0.079639643 0.74202937
0.0041551129 -0.08033219 0.74202937
0.0041551306 -0.081025064 0.74203044
0.0041551306 -0.081717551 0.7420305
0.0041551306 -0.082410097 0.74203038
0.0041551306 -0.083102584 0.74203038
0.0041551478 -0.083795458 0.74203146
0.0041551478 -0.084487945 0.74203146
0.0041551478 -0.085180521 0.74203146
0.0041551478 -0.085873038 0.74203146
0.0041551651 -0.086565912 0.74203253
0.0041551651 -0.087258458 0.74203253
0.0048747952 0.091924757 0.74343461
0.0048647001 0.091039389 0.74291241
0.004856464 0.090191483 0.7424863
0.004856444 0.089497328 0.74248523
0.004856444 0.08880353 0.74248528
0.004856444 0.088109791 0.74248528
0.004856444 0.087416023 0.74248517
0.004856444 0.086722225 0.74248523
0.004856444 0.086028457 0.74248528
0.0048564235 0.085334271 0.74248421
0.0048564235 0.084640533 0.74248421
0.0048564235 0.083946794 0.74248421
0.0048564235 0.083253026 0.74248427
0.0048564235 0.082559198 0.74248421
0.0048564235 0.08186546 0.74248421
0.0048564035 0.081171304 0.7424832
0.0048564035 0.080477595 0.7424832
0.0048564035 0.079783797 0.74248314
0.0048564035 0.079090029 0.74248314
0.0048564035 0.078396261 0.74248308
0.0048564035 0.077702492 0.74248314
0.0048564035 0.077008694 0.74248314
0.0048564235 0.076315284 0.74248421
0.0048564235 0.075621486 0.74248421
0.0048564235 0.074927717 0.74248421
0.0048564235 0.074233949 0.74248415
0.0048564235 0.073540121 0.74248421
0.004856444 0.072846651 0.74248517
0.004856444 0.072152883 0.74248523
0.004856444 0.071459115 0.74248528
0.004856444 0.070765376 0.74248528
0.004856444 0.070071578 0.74248523
0.004856464 0.069378078 0.7424863
0.004856464 0.06868428 0.7424863
0.004856464 0.067990512 0.7424863
0.004856464 0.067296743 0.74248624
0.004856464 0.066602916 0.7424863
0.0048564845 0.065909445 0.74248731
0.0048564845 0.065215677 0.74248737
0.0048564845 0.064521879 0.74248731
0.0048564845 0.063828081 0.74248737
0.0048564845 0.063134283 0.74248731
0.0048565045 0.062440813 0.74248838
0.0048565045 0.061747044 0.74248838
0.0048565045 0.061053216 0.74248838
0.0048565045 0.060359418 0.74248838
0.0048565045 0.05966562 0.74248838
0.004856525 0.05897209 0.7424894
0.004856525 0.058278322 0.74248946
0.004856525 0.057584554 0.74248946
0.004856525 0.056890726 0.74248946
0.004856525 0.056196958 0.74248946
0.004856545 0.055503398 0.74249047
0.004856545 0.0548096 0.74249047
0.004856545 0.054115802 0.74249047
0.004856545 0.053422004 0.74249047
0.004856545 0.052728206 0.74249047
0.004856565 0.052034676 0.74249148
0.004856565 0.051340818 0.74249148
0.004856565 0.05064708 0.74249148
0.004856565 0.049953222 0.74249148
0.004856565 0.049259484 0.74249148
0.0048565855 0.048565865 0.74249256
0.0048565855 0.047872096 0.74249256
0.0048565855 0.047178268 0.74249256
0.0048565855 0.0464845 0.74249256
0.0048565855 0.045790672 0.74249256
0.0048565855 0.045096874 0.74249256
0.0048566055 0.044403255 0.74249363
0.0048566055 0.043709457 0.74249363
0.0048566055 0.043015659 0.74249357
0.0048505724 0.042269289 0.74218148
0.0048505724 0.041576326 0.74218148
0.0048505724 0.040883422 0.74218148
0.0048505724 0.040190488 0.74218154
0.0048505724 0.039497524 0.74218154
0.0048505724 0.038804591 0.74218154
0.0048505724 0.038111687 0.74218154
0.0048505724 0.037418693 0.74218148
0.0048505724 0.03672576 0.74218148
0.0048505724 0.036032826 0.74218154
0.0048505724 0.035339892 0.74218154
0.0048505724 0.034646958 0.74218148
0.0048505724 0.033954024 0.74218154
0.0048505724 0.033261091 0.74218154
0.0048505724 0.032568157 0.74218148
0.0048505524 0.031875104 0.74218047
0.0048505524 0.03118214 0.74218041
0.0048505524 0.030489206 0.74218041
0.0048505524 0.029796273 0.74218047
0.0048505524 0.029103369 0.74218047
0.0048505524 0.028410405 0.74218047
0.0048505524 0.027717441 0.74218047
0.0048505524 0.027024537 0.74218047
0.0048505524 0.026331574 0.74218047
0.0048505524 0.02563867 0.74218047
0.0048505524 0.024945676 0.74218047
0.0048505524 0.024252802 0.74218047
0.0048505524 0.023559839 0.74218041
0.0048505524 0.022866905 0.74218041
0.0048505524 0.022173971 0.74218047
0.0048505524 0.021481067 0.74218047
0.0048505524 0.020788074 0.74218047
0.0048505524 0.02009517 0.74218047
0.0048505524 0.019402236 0.74218047
0.0048505524 0.018709302 0.74218047
0.0048505319 0.018016309 0.74217939
0.0048505319 0.017323345 0.74217939
0.0048505319 0.016630411 0.74217939
0.0048505319 0.015937448 0.74217939
0.0048505319 0.015244544 0.74217945
0.0048505319 0.01455161 0.74217945
0.0048505319 0.013858706 0.74217945
0.0048505319 0.013165742 0.74217933
0.0048505319 0.012472838 0.74217939
0.0048505319 0.011779904 0.74217939
0.0048505319 0.011086941 0.74217939
0.0048505319 0.010394007 0.74217939
0.0048505319 0.0097010434 0.74217939
0.0048505319 0.0090081394 0.74217939
0.0048505319 0.0083152056 0.74217945
0.0048505319 0.0076222718 0.74217945
0.0048505319 0.006929338 0.74217939
0.0048505319 0.006236434 0.74217939
0.0048505319 0.0055435002 0.74217939
0.0048505119 0.0048505068 0.74217832
0.0048505119 0.0041576028 0.74217832
0.0048505119 0.003464669 0.74217838
0.0048505119 0.0027717352 0.74217832
0.0048505119 0.0020788014 0.74217844
0.0048505119 0.0013858676 0.74217838
0.0048505119 0.0006929338 0.74217838
0.0048505119 -0 0.74217838
0.0048505119 -0.0006929338 0.74217832
0.0048505119 -0.0013858378 0.74217838
0.0048505119 -0.0020788014 0.74217838
0.0048505119 -0.0027717054 0.74217838
0.0048505119 -0.0034646094 0.74217832
0.0048505119 -0.0041575432 0.74217832
0.0048505119 -0.004850477 0.74217838
0.0048505119 -0.0055434108 0.74217838
0.0048505119 -0.0062363446 0.74217838
0.0048505119 -0.0069293082 0.74217838
0.0048505119 -0.0076222122 0.74217838
0.0048504919 -0.0083150864 0.74217731
0.0048504919 -0.0090079904 0.74217731
0.0048504919 -0.009700954 0.74217731
0.0048504919 -0.010393888 0.74217731
0.0048505119 -0.011086851 0.74217832
0.0048505119 -0.011779785 0.74217838
0.0048505119 -0.012472749 0.74217838
0.0048505119 -0.013165683 0.74217838
0.0048505319 -0.013858646 0.74217939
0.0048505319 -0.01455158 0.74217939
0.0048505319 -0.015244514 0.74217939
0.0048505319 -0.015937477 0.74217939
0.0048505524 -0.016630471 0.74218047
0.0048505524 -0.017323375 0.74218047
0.0048505524 -0.018016338 0.74218047
0.0048505524 -0.018709213 0.74218041
0.0048505724 -0.019402266 0.74218148
0.0048505724 -0.020095229 0.74218148
0.0048505724 -0.020788163 0.74218148
0.0048505724 -0.021481067 0.74218148
0.0048505929 -0.02217412 0.74218255
0.0048505929 -0.022867084 0.74218255
0.0048505929 -0.023559988 0.74218255
0.0048505929 -0.024252981 0.74218261
0.004850613 -0.024945974 0.74218357
0.004850613 -0.025638938 0.74218357
0.004850613 -0.026331842 0.74218357
0.004850613 -0.027024806 0.74218357
0.004850633 -0.027717888 0.74218464
0.004850633 -0.028410852 0.74218464
0.004850633 -0.029103786 0.74218464
0.004850633 -0.029796749 0.74218458
0.004850653 -0.030489802 0.74218565
0.004850653 -0.031182766 0.74218565
0.004850653 -0.0318757 0.74218571
0.004850653 -0.032568634 0.74218571
0.0048506735 -0.033261716 0.74218673
0.0048506735 -0.03395468 0.74218673
0.0048506735 -0.034647614 0.74218667
0.0048506735 -0.035340577 0.74218667
0.0048506935 -0.03603369 0.7421878
0.0048506935 -0.036726654 0.74218774
0.0048506935 -0.037419587 0.74218774
0.0048506935 -0.038112581 0.74218774
0.0048507135 -0.038805664 0.74218875
0.0048507135 -0.039498657 0.74218875
0.0048507135 -0.040191621 0.74218881
0.0048507135 -0.040884584 0.74218881
0.0048507336 -0.041577697 0.74218982
0.0048507336 -0.04227069 0.74218988
0.0048507336 -0.042963624 0.74218982
0.0048507336 -0.043656588 0.74218988
0.0048507536 -0.0443497 0.74219084
0.0048507536 -0.045042694 0.7421909
0.0048507536 -0.045735627 0.74219084
0.0048507536 -0.046428621 0.7421909
0.0048507741 -0.047121793 0.74219191
0.0048507741 -0.047814757 0.74219197
0.0048507741 -0.04850772 0.74219191
0.0048507741 -0.049200684 0.74219191
0.0048507941 -0.049893856 0.74219298
0.0048507941 -0.050586849 0.74219298
0.0048507941 -0.051279783 0.74219298
0.0048507941 -0.051972806 0.74219298
0.0048508146 -0.052665949 0.74219406
0.0048508146 -0.053358942 0.74219406
0.0048508146 -0.054051906 0.742194
0.0048508146 -0.054744869 0.742194
0.0048508346 -0.055438101 0.74219501
0.0048508346 -0.056131095 0.74219507
0.0048508346 -0.056824058 0.74219507
0.0048508346 -0.057517022 0.74219501
0.0048508546 -0.058210224 0.74219608
0.0048508546 -0.058903217 0.74219608
0.0048508546 -0.059596211 0.74219608
0.0048508546 -0.060289145 0.74219608
0.0048508747 -0.060982406 0.7421971
0.0048508747 -0.06167537 0.74219716
0.0048508747 -0.062368393 0.74219716
0.0048508747 -0.063061357 0.74219716
0.0048508947 -0.063754618 0.74219817
0.0048508947 -0.064447612 0.74219823
0.0048508947 -0.065140605 0.74219817
0.0048508947 -0.065833539 0.74219817
0.0048509152 -0.06652683 0.74219924
0.0048509152 -0.067219794 0.74219924
0.0048509152 -0.067912787 0.74219918
0.0048509152 -0.06860581 0.74219924
0.0048509352 -0.069299072 0.74220026
0.0048509352 -0.069992065 0.74220026
0.0048509352 -0.070685059 0.74220031
0.0048509352 -0.071378052 0.74220026
0.0048509557 -0.072071344 0.74220127
0.0048509557 -0.072764337 0.74220133
0.0048509557 -0.073457271 0.74220127
0.0048509557 -0.074150294 0.74220133
0.0048509757 -0.074843615 0.74220234
0.0048509757 -0.075536609 0.74220234
0.0048509757 -0.076229602 0.74220228
0.0048509757 -0.076922596 0.74220234
0.0048509957 -0.077615857 0.74220335
0.0048509957 -0.07830891 0.74220335
0.0048509957 -0.079001933 0.74220341
0.0048509957 -0.079694927 0.74220335
0.0048510158 -0.080388248 0.74220443
0.0048510158 -0.081081241 0.74220443
0.0048510158 -0.081774265 0.74220443
0.0048510158 -0.082467228 0.74220443
0.0048510362 -0.083160579 0.7422055
0.0048510362 -0.083853602 0.7422055
0.0048510362 -0.084546626 0.7422055
0.0048510362 -0.085239619 0.7422055
0.0048510563 -0.08593297 0.74220651
0.0048510563 -0.086626023 0.74220651
0.0048510563 -0.087319016 0.74220651
0.0055764564 0.092011541 0.74367285
0.0055646426 0.091121048 0.74313802
0.0055539873 0.09025231 0.74265569
0.0055539873 0.089558095 0.74265569
0.0055539641 0.088863462 0.74265468
0.0055539641 0.088169187 0.74265468
0.0055539641 0.087474972 0.74265462
0.0055539641 0.086780697 0.74265468
0.0055539641 0.086086482 0.74265462
0.0055539641 0.085392177 0.74265468
0.0055539412 0.084697634 0.74265361
0.0055539412 0.084003389 0.74265361
0.0055539412 0.083309144 0.74265361
0.0055539412 0.082614899 0.74265361
0.0055539412 0.081920624 0.74265361
0.005553918 0.081226081 0.74265254
0.005553918 0.080531806 0.74265254
0.005553918 0.07983762 0.74265254
0.005553918 0.079143345 0.74265254
0.0055538947 0.078448802 0.74265158
0.0055538947 0.077754527 0.74265158
