# .PCD v0.7 - Point Cloud Data file format
VERSION 0.7
FIELDS x y z
SIZE 4 4 4
TYPE F F F
COUNT 1 1 1
WIDTH 1341
HEIGHT 1
VIEWPOINT 0 0 0 1 0 0 0
POINTS 1341
DATA ascii
0.054255351 -0.064841747 0.73085099
0.053823821 -0.064982414 0.72894526
0.053648792 -0.065425336 0.72817224
0.054046944 -0.066570014 0.72993064
0.054451492 -0.067732334 0.73171717
0.055132873 -0.011956513 0.73179281
0.054495007 -0.012474746 0.72900981
0.054057065 -0.01302579 0.72709906
0.053703498 -0.013587654 0.72555649
0.053401034 -0.014154464 0.72423679
0.053126827 -0.01472187 0.7230404
0.052880857 -0.015290856 0.72196722
0.052656379 -0.015860349 0.72098786
0.052447505 -0.016429305 0.7200765
0.052253295 -0.016998023 0.71922916
0.052069135 -0.017565459 0.71842563
0.051897939 -0.018132985 0.71767873
0.051731735 -0.018698186 0.71695352
0.051579073 -0.01926446 0.71628749
0.051430184 -0.019828498 0.71563792
0.051290505 -0.020392627 0.71502841
0.05115499 -0.020955056 0.71443725
0.05102602 -0.021516979 0.71387452
0.050903872 -0.022078753 0.71334159
0.050784539 -0.022638887 0.71282095
0.050671704 -0.023199081 0.71232861
0.050562143 -0.023758054 0.71185058
0.050456174 -0.024316221 0.71138823
0.050356325 -0.024874777 0.71095258
0.05025797 -0.025431722 0.71052349
0.050162904 -0.025988013 0.71010876
0.050074179 -0.026545376 0.70972162
0.04998612 -0.027100891 0.70933741
0.049899455 -0.027655095 0.70895934
0.049820434 -0.028211564 0.70861453
0.049741853 -0.028766364 0.70827162
0.049663864 -0.029319644 0.7079314
0.049592342 -0.029874891 0.70761931
0.049522266 -0.030429304 0.7073136
0.049452741 -0.030982435 0.70701027
0.049387641 -0.031536639 0.70672619
0.049325697 -0.032091409 0.70645595
0.049264081 -0.032644868 0.70618713
0.049204718 -0.033198386 0.70592809
0.049150564 -0.033753991 0.70569181
0.049096353 -0.034308285 0.7054553
0.049042605 -0.034861624 0.70522082
0.048994873 -0.035417974 0.7050125
0.048948444 -0.035974115 0.70480996
0.04890193 -0.036529124 0.70460701
0.048858434 -0.037085325 0.70441729
0.048818979 -0.037643522 0.70424509
0.048779584 -0.038200855 0.70407319
0.048740257 -0.038757294 0.70390165
0.048707157 -0.039317816 0.70375717
0.048674788 -0.03987813 0.70361602
0.048642464 -0.040437728 0.70347494
0.048612744 -0.040998667 0.7033453
0.04858749 -0.041562766 0.70323515
0.048562095 -0.042126149 0.70312434
0.048536893 -0.042689085 0.70301437
0.048518009 -0.043256998 0.70293194
0.048499823 -0.04382512 0.70285261
0.048485555 -0.044396371 0.70279038
0.048509002 -0.045002311 0.70289272
0.048536044 -0.045612156 0.70301062
0.048563119 -0.046222717 0.70312876
0.048593458 -0.046837062 0.70326114
0.048628114 -0.047456354 0.70341235
0.048662812 -0.048076481 0.70356375
0.048702192 -0.04870221 0.70373553
0.048996434 -0.049586713 0.70501935
0.049324639 -0.050513178 0.70645136
0.057819732 -0.059909582 0.74351573
0.05769635 -0.060476869 0.74297738
0.057572294 -0.061040521 0.74243617
0.057437088 -0.061589181 0.7418462
0.05730205 -0.062134743 0.74125707
0.057161737 -0.062671274 0.74064493
0.057013892 -0.063196123 0.73999977
0.05686681 -0.0637182 0.73935807
0.056711655 -0.064227611 0.73868114
0.056550179 -0.064726084 0.73797661
0.056387555 -0.065219313 0.73726714
0.056209657 -0.065690786 0.73649091
0.056032646 -0.06615901 0.73571861
0.054733526 -0.06528452 0.73005044
0.054832164 -0.066062838 0.73048085
0.055243321 -0.067223787 0.73227477
0.055451725 -0.012542635 0.73030382
0.054914214 -0.013074785 0.72798657
0.054503396 -0.01362583 0.72621548
0.05415849 -0.014184386 0.72472852
0.053861167 -0.014747679 0.72344673
0.053596802 -0.015313387 0.72230709
0.053356349 -0.015879869 0.72127044
0.053132545 -0.016445786 0.72030562
0.052929208 -0.017012924 0.71942902
0.052734163 -0.017578036 0.71858811
0.052554745 -0.018143892 0.71781462
0.052382804 -0.01870814 0.71707344
0.052220158 -0.019271702 0.71637225
0.052066267 -0.019834757 0.71570879
0.051917698 -0.020396203 0.71506828
0.051779922 -0.020958483 0.71447432
0.051644977 -0.021518677 0.71389252
0.05151717 -0.022078753 0.71334159
0.051394142 -0.022637874 0.71281117
0.051275637 -0.023196101 0.7123003
0.051163472 -0.023754478 0.71181679
0.051053099 -0.024310976 0.7113409
0.050948203 -0.024867535 0.71088862
0.05084835 -0.025424153 0.71045822
0.05074944 -0.025978893 0.71003187
0.050655857 -0.026533991 0.70962834
0.050566636 -0.027089268 0.70924371
0.050477911 -0.027642637 0.70886117
0.050392937 -0.028196007 0.7084949
0.050313309 -0.028750449 0.70815158
0.05023393 -0.029303104 0.70780939
0.050156243 -0.029854894 0.70747447
0.050085418 -0.030409008 0.70716912
0.05001479 -0.030961514 0.70686471
0.04994525 -0.031513035 0.70656484
0.049881235 -0.032066494 0.70628887
0.049818799 -0.032619447 0.70601976
0.049756519 -0.033170998 0.70575118
0.049698625 -0.03372407 0.70550168
0.049643856 -0.034277886 0.70526552
0.049589384 -0.03483063 0.70503068
0.049536254 -0.035383016 0.70480168
0.049488839 -0.035938323 0.70459723
0.049441859 -0.036492765 0.7043947
0.04939514 -0.037046313 0.70419329
0.049352858 -0.037602127 0.70401096
0.049313076 -0.038158923 0.70383948
0.049273361 -0.038714796 0.7036683
0.049234573 -0.039270401 0.70350105
0.049201891 -0.039830089 0.7033602
0.049169254 -0.040389001 0.70321947
0.049136665 -0.040947169 0.70307893
0.049108416 -0.041508317 0.70295715
0.049082786 -0.042070955 0.70284665
0.049057346 -0.042633146 0.70273703
0.049032621 -0.043195397 0.70263046
0.049035542 -0.043781757 0.70264304
0.049055804 -0.044383794 0.70273036
0.04907608 -0.044986397 0.70281774
0.049102735 -0.045595378 0.70293272
0.049129944 -0.046205521 0.70305002
0.049157351 -0.046816498 0.70316815
0.049191527 -0.047434658 0.7033155
0.049359985 -0.048184723 0.70404172
0.049688932 -0.049097389 0.70545983
0.050022464 -0.050022453 0.7068978
0.058630962 -0.059328914 0.74400979
0.058516357 -0.059909582 0.74351573
0.058391482 -0.060476869 0.74297738
0.058266904 -0.061041474 0.74244034
0.058139719 -0.061600387 0.74189198
0.058002997 -0.062146068 0.74130261
0.057867158 -0.062689394 0.74071699
0.057723153 -0.06322059 0.74009615
0.057574183 -0.063742816 0.73945391
0.057426453 -0.064262927 0.7388171
0.057266597 -0.064765781 0.73812789
0.05710391 -0.065261573 0.73742652
0.056936819 -0.065748423 0.73670614
0.056757364 -0.066216916 0.73593253
0.056579266 -0.066682667 0.73516476
0.056340586 -0.067072093 0.73413575
0.056463201 -0.067890257 0.73466444
0.056670826 -0.012667567 0.73268521
0.05583166 -0.013136834 0.72911
0.055334359 -0.013670832 0.72699136
0.054946184 -0.01422134 0.72533762
0.054616388 -0.014778525 0.7239325
0.054322973 -0.015338212 0.72268248
0.054063603 -0.015901029 0.72157741
0.053829383 -0.016465485 0.72057962
0.05360711 -0.017028123 0.71963263
0.053408388 -0.017593324 0.71878594
0.053212531 -0.01815483 0.71795154
0.05303774 -0.018719167 0.71720684
0.052865081 -0.019280195 0.71647125
0.052705888 -0.019842178 0.71579301
0.052552126 -0.02040261 0.71513796
0.052405652 -0.020962238 0.7145139
0.052266926 -0.021521658 0.71392286
0.052132387 -0.022079587 0.7133497
0.052005976 -0.022637874 0.71281117
0.051882073 -0.023194343 0.71228337
0.051764432 -0.023750722 0.7117821
0.051652782 -0.024307191 0.71130645
0.051541608 -0.024861217 0.71083283
0.051438384 -0.025416613 0.71039301
0.051338352 -0.025971115 0.70996678
0.051238526 -0.026523471 0.7095415
0.051146649 -0.027077615 0.70915014
0.051056944 -0.027630806 0.70876789
0.050967552 -0.02818206 0.70838714
0.050884135 -0.028734535 0.70803171
0.050804082 -0.02928704 0.70769066
0.050724104 -0.029837668 0.70734996
0.050647993 -0.030388772 0.70702565
0.050576437 -0.030940861 0.70672077
0.050505269 -0.031491488 0.70641756
0.050435733 -0.03204152 0.70612133
0.050372649 -0.032594055 0.70585263
0.050309729 -0.033145189 0.70558453
0.050247319 -0.033695221 0.70531863
0.050190393 -0.034247547 0.7050761
0.05013537 -0.034799844 0.70484167
0.050080467 -0.035350889 0.70460773
0.050028335 -0.035902679 0.70438564
0.049980886 -0.036456615 0.70418358
0.049933527 -0.037009537 0.70398176
0.049886264 -0.037561446 0.70378035
0.049845397 -0.038117051 0.70360631
0.049805298 -0.038672358 0.70343542
0.049765259 -0.039226711 0.70326489
0.049727727 -0.039782166 0.70310497
0.049694784 -0.040340483 0.7029646
0.049661878 -0.040898025 0.70282447
0.049629021 -0.041454792 0.70268446
0.04960211 -0.042015851 0.70256978
0.049576435 -0.042577356 0.70246041
0.049588751 -0.043171376 0.70251286
0.049605232 -0.04376933 0.70258307
0.049625725 -0.044371217 0.7026704
0.049646232 -0.044973642 0.70275784
0.049668841 -0.04557842 0.7028541
0.049696524 -0.046188504 0.70297205
0.04972424 -0.046799272 0.70309013
0.050049879 -0.047694594 0.70447743
0.050384291 -0.048606038 0.70590222
0.059540745 -0.058139741 0.74491209
0.059433665 -0.058734417 0.74445593
0.05931877 -0.059318781 0.74396646
0.059204325 -0.05990082 0.74347889
0.059086621 -0.060476869 0.74297738
0.058960557 -0.061041474 0.74244034
0.058835033 -0.061603755 0.74190551
0.058704451 -0.062157631 0.74134922
0.058566697 -0.062700778 0.74076229
0.058429591 -0.063241422 0.74017817
0.058282346 -0.063767701 0.73955089
0.058132257 -0.064287424 0.73891139
0.057983659 -0.064805239 0.73827839
0.057819068 -0.065301538 0.73757708
0.05765494 -0.065794408 0.73687792
0.057483345 -0.066274881 0.73614687
0.057302814 -0.0667409 0.73537767
0.057269476 -0.067375839 0.73523569
0.056882091 -0.013228387 0.73076737
0.056212001 -0.013726175 0.72794569
0.055751864 -0.01426208 0.72600818
0.0553861 -0.014812559 0.72446799
0.055071168 -0.01536867 0.72314185
0.054787196 -0.01592648 0.72194612
0.054531828 -0.016486347 0.72087085
0.054301437 -0.01704815 0.71990067
0.054084402 -0.017608851 0.71898675
0.053885084 -0.018170536 0.7181474
0.053694054 -0.018730462 0.71734309
0.053517956 -0.019291341 0.71660155
0.053345986 -0.019849688 0.71587741
0.053189117 -0.020409763 0.71521682
0.053035323 -0.020967424 0.71456927
0.052891191 -0.021525472 0.71396232
0.052751333 -0.022081971 0.71337348
0.052617807 -0.022637874 0.71281117
0.052492451 -0.023194343 0.71228337
0.052368648 -0.023748577 0.71176201
0.052252464 -0.024303436 0.71127272
0.05214002 -0.024857432 0.71079922
0.052029569 -0.025409758 0.71033418
0.051926725 -0.025963366 0.70990115
0.05182597 -0.026515603 0.70947683
0.051726729 -0.02706629 0.709059
0.051635485 -0.027618974 0.70867479
0.051545117 -0.02816996 0.70829427
0.051455069 -0.028719127 0.70791507
0.05137343 -0.029270887 0.70757127
0.051292595 -0.029821247 0.70723087
0.051212195 -0.030370027 0.70689237
0.051137526 -0.030920357 0.70657796
0.051065609 -0.031470627 0.70627517
0.050993897 -0.032019436 0.70597315
0.050925646 -0.032568723 0.70568573
0.05086226 -0.033119619 0.70541883
0.050798852 -0.033668995 0.70515186
0.050736677 -0.034217745 0.70489001
0.050680391 -0.034769088 0.70465302
0.050624937 -0.035319746 0.70441949
0.050569434 -0.035869002 0.70418578
0.050518852 -0.036420554 0.70397282
0.050471034 -0.03697294 0.70377141
0.050423305 -0.037524313 0.70357043
0.050376549 -0.038075298 0.70337361
0.05033607 -0.038629979 0.70320308
0.050295647 -0.039183795 0.70303291
0.050255291 -0.039736718 0.70286298
0.050219223 -0.040292174 0.70271111
0.050186016 -0.04084909 0.70257127
0.050152674 -0.041405112 0.7024309
0.050134618 -0.041973144 0.70235485
0.050148465 -0.042567879 0.7024132
0.050162319 -0.043162942 0.70247149
0.050176006 -0.043758124 0.70252913
0.050195321 -0.044358641 0.70261049
0.05021606 -0.044960856 0.70269781
0.05023681 -0.045563608 0.70278513
0.050407533 -0.046304554 0.70350403
0.050742783 -0.047202587 0.70491576
0.051082522 -0.048112571 0.70634627
0.06032661 -0.057520688 0.74527168
0.060221501 -0.058120757 0.74482912
0.060116757 -0.058718681 0.74438798
0.060006347 -0.059308589 0.74392307
0.059890844 -0.059890866 0.74343669
0.059775531 -0.060470551 0.74295115
0.059654213 -0.061041474 0.74244034
0.059527211 -0.061603755 0.74190551
0.059400991 -0.0621638 0.74137402
0.059266735 -0.062712491 0.74080873
0.059127964 -0.063253164 0.74022436
0.058989845 -0.063791364 0.7396428
0.05883909 -0.064312458 0.73900795
0.058687899 -0.064829618 0.73837131
0.058535341 -0.065341741 0.73772895
0.058369078 -0.06583488 0.73702884
0.058203757 -0.066325217 0.73633265
0.058079552 -0.066859007 0.73580968
0.057187006 -0.01380372 0.72928345
0.05661403 -0.014316142 0.72689843
0.056186985 -0.014854014 0.7251209
0.055829208 -0.015401125 0.72363162
0.05552372 -0.015955031 0.72236007
0.055249725 -0.01651141 0.72121966
0.055000313 -0.017069101 0.72018147
0.054770496 -0.017627269 0.71922487
0.054559201 -0.01818639 0.71834534
0.054359104 -0.018744498 0.71751249
0.054172803 -0.019302964 0.71673703
0.053996213 -0.019860655 0.71600193
0.053827751 -0.020417392 0.71530074
0.053669874 -0.020974398 0.71464354
0.053516269 -0.021529526 0.71400428
0.053374141 -0.022085816 0.71341264
0.053234529 -0.02263993 0.7128315
0.053102832 -0.023194343 0.71228337
0.052976619 -0.0237481 0.7117579
0.052853696 -0.024300545 0.71124631
0.052738056 -0.024853528 0.71076488
0.052624825 -0.025405079 0.71029365
0.052515693 -0.025956035 0.7098394
0.052413069 -0.026507765 0.70941222
0.052311603 -0.027057707 0.70898986
0.052213717 -0.027607262 0.70858246
0.052122191 -0.028157949 0.70820141
0.052031171 -0.028706819 0.70782256
0.051942144 -0.029254735 0.707452
0.051860459 -0.029804856 0.70711201
0.051779222 -0.030353308 0.70677388
0.051698416 -0.03090018 0.70643753
0.051625025 -0.031449705 0.70613199
0.051552579 -0.031998128 0.70583045
0.051480331 -0.032545 0.70552981
0.051413752 -0.033093899 0.70525265
0.051349707 -0.033642858 0.7049861
0.051285822 -0.034190565 0.7047202
0.051224448 -0.034738421 0.70446467
0.051168457 -0.035288543 0.70423162
0.051112581 -0.035837561 0.70399898
0.051056646 -0.036385149 0.70376617
0.051007293 -0.036936343 0.70356077
0.050959282 -0.037487298 0.70336092
0.050911188 -0.038037062 0.70316076
0.050865676 -0.038587749 0.70297128
0.050824881 -0.039140999 0.70280147
0.050784145 -0.039693385 0.70263195
0.050743476 -0.040244818 0.70246261
0.050708719 -0.040800124 0.70231795
0.050704464 -0.041379511 0.70230031
0.050711729 -0.041968316 0.70233053
0.050721657 -0.042559534 0.70237184
0.050735489 -0.043154299 0.70242941
0.050749511 -0.043749571 0.70248771
0.050764602 -0.044346064 0.70255053
0.050785564 -0.044948131 0.70263785
0.051098 -0.045811981 0.70393825
0.051438361 -0.046708405 0.70535505
0.061195638 -0.056271851 0.74596906
0.061100554 -0.056886703 0.74557334
0.061005507 -0.057499439 0.74517769
0.060901806 -0.058101684 0.74474609
0.060795911 -0.058699489 0.74430531
0.060690384 -0.059295177 0.74386597
0.060576878 -0.059880584 0.74339354
0.060460266 -0.060460269 0.74290818
0.0603441 -0.061037689 0.74242461
0.060219388 -0.061603755 0.74190551
0.060091697 -0.0621638 0.74137402
0.05996431 -0.062721282 0.74084383
0.059826352 -0.063264638 0.74026954
0.059686817 -0.063803166 0.73968875
0.059546471 -0.064337522 0.73910457
0.059393406 -0.064854831 0.7384674
0.059241127 -0.065369487 0.7378335
0.059083853 -0.065875113 0.73717892
0.05891664 -0.066365898 0.73648298
0.058456227 -0.013949782 0.73180145
0.057543609 -0.014385909 0.72804594
0.057025146 -0.01490429 0.72591239
0.056621462 -0.015442193 0.72425115
0.056279071 -0.01598835 0.72284222
0.05597515 -0.016538084 0.72159147
0.05570915 -0.017092556 0.72049689
0.055465989 -0.01764822 0.71949625
0.055236787 -0.01820302 0.71855307
0.055031545 -0.018760741 0.71770847
0.054830685 -0.019315362 0.71688187
0.054649189 -0.019872397 0.71613503
0.054471921 -0.020426989 0.71540552
0.054307058 -0.020982265 0.7147271
0.054148372 -0.021536291 0.71407408
0.05399717 -0.02208975 0.71345186
0.053854913 -0.022643507 0.71286643
0.053715765 -0.023195446 0.71229386
0.053585544 -0.0237481 0.7117579
0.053458489 -0.024299294 0.71123505
0.053336486 -0.024849951 0.71073306
0.053221602 -0.025401175 0.71026027
0.053107597 -0.025950283 0.70979112
0.052999821 -0.026499897 0.70934767
0.052897245 -0.02704969 0.70892549
0.052794877 -0.027597308 0.70850426
0.052698772 -0.028145909 0.70810878
0.052606784 -0.0286946 0.70773023
0.052515116 -0.029241353 0.707353
0.052427888 -0.029788584 0.70699406
0.052345619 -0.030336678 0.7066555
0.052263603 -0.030883014 0.70631802
0.052183885 -0.031428933 0.7059899
0.052110698 -0.031976968 0.70568877
0.052037723 -0.032523572 0.70538843
0.051965311 -0.033068836 0.70509052
0.051899716 -0.033616841 0.70482057
0.051835194 -0.034164101 0.70455509
0.051771019 -0.034710079 0.70429087
0.051711008 -0.035257459 0.70404398
0.051654588 -0.035806 0.70381182
0.051598117 -0.03635323 0.70357943
0.051542666 -0.036899835 0.70335126
0.051494021 -0.037450194 0.70315099
0.051445473 -0.037999511 0.70295131
0.051397011 -0.038547724 0.70275187
0.051352955 -0.039098293 0.70257056
0.051311839 -0.039650053 0.70240128
0.051273119 -0.040202767 0.70224202
0.051274374 -0.040786386 0.70224714
0.05128172 -0.041375041 0.70227736
0.05128907 -0.041963756 0.70230758
0.051296417 -0.04255271 0.70233792
0.05130861 -0.043145865 0.70238811
0.051322784 -0.043740988 0.70244634
0.051449981 -0.044434071 0.70296979
0.061446317 -0.053765535 0.74410617
0.061610103 -0.054608941 0.74478012
0.061917312 -0.055584848 0.74604434
0.061869025 -0.056244552 0.74584562
0.061773203 -0.056859404 0.74545127
0.061677158 -0.057471901 0.74505609
0.061580893 -0.058081955 0.7446599
0.061474625 -0.058680296 0.74422258
0.061367951 -0.059275836 0.74378359
0.06126165 -0.059869319 0.74334621
0.061144765 -0.060449958 0.74286515
0.061027557 -0.061027586 0.74238288
0.060910549 -0.061602712 0.7419014
0.06078241 -0.0621638 0.74137402
0.060653552 -0.062721282 0.74084383
0.060524993 -0.063276082 0.74031472
0.0603838 -0.0638147 0.7397337
0.060243029 -0.064350486 0.7391544
0.06009946 -0.064880043 0.7385636
0.059945308 -0.065394878 0.73792928
0.059791945 -0.065907031 0.73729813
0.058616467 -0.014489442 0.72975057
0.057913464 -0.014966369 0.72689015
0.057433721 -0.015487731 0.72493815
0.057052933 -0.016026139 0.72338879
0.056726106 -0.016571641 0.72205895
0.056431953 -0.017119765 0.72086203
0.05616739 -0.017670631 0.71978557
0.055930998 -0.018224686 0.71882367
0.055705987 -0.018777281 0.71790814
0.05550145 -0.019331932 0.71707594
0.055303361 -0.019884318 0.71626991
0.055123046 -0.02043888 0.71553624
0.054945327 -0.020990342 0.71481311
0.054783907 -0.021544248 0.71415627
0.054625448 -0.02209568 0.71351153
0.0544765 -0.02264753 0.71290547
0.054333329 -0.023198456 0.71232295
0.054194868 -0.023748279 0.71175957
0.054065969 -0.024299294 0.71123505
0.053938072 -0.024847865 0.7107147
0.053817999 -0.025397241 0.71022618
0.053702734 -0.025946259 0.70975709
0.053587962 -0.026492894 0.70929015
0.053482354 -0.027041644 0.7088604
0.053379077 -0.027589172 0.70844018
0.053276192 -0.028134614 0.70802164
0.053181905 -0.028682351 0.70763791
0.053089276 -0.029228926 0.70726103
0.052996967 -0.029773563 0.7068854
0.052911393 -0.030319989 0.70653725
0.052828725 -0.030866206 0.70620084
0.052746125 -0.031410605 0.70586479
0.052667901 -0.031955808 0.7055465
0.052594189 -0.032501996 0.70524657
0.052520685 -0.033046722 0.70494747
0.052448865 -0.033590853 0.70465529
0.0523839 -0.034137815 0.70439094
0.052318908 -0.034683317 0.70412654
0.052254081 -0.035227478 0.70386267
0.05219565 -0.035774499 0.70362502
0.05213863 -0.036321253 0.70339298
0.052081924 -0.036866933 0.70316219
0.052027889 -0.037413299 0.70294237
0.051978886 -0.037962109 0.70274293
0.051929966 -0.038509846 0.70254397
0.051881146 -0.039056569 0.70234525
0.051854141 -0.03961888 0.7022354
0.051854864 -0.040202081 0.70223838
0.051855773 -0.040785432 0.70224202
0.05185885 -0.041370511 0.70225453
0.051866282 -0.041959196 0.70228481
0.051873893 -0.042548209 0.70231569
0.051881503 -0.043137461 0.7023468
0.062234975 -0.052445203 0.74447399
0.062093876 -0.053023964 0.74389982
0.06203445 -0.053670228 0.74365801
0.062051568 -0.054382265 0.74372768
0.062297404 -0.055297673 0.74472797
0.062514111 -0.056192458 0.74560976
0.062445208 -0.056832135 0.74532938
0.062348165 -0.057444364 0.74493456
0.06225168 -0.058054954 0.74454194
0.062152896 -0.058661163 0.74413997
0.062045082 -0.059256524 0.74370134
0.061937641 -0.059849858 0.74326408
0.061829288 -0.060439855 0.74282324
0.061710536 -0.061017126 0.74234009
0.06159224 -0.061592221 0.74185872
0.061473116 -0.0621638 0.74137402
0.061342798 -0.062721282 0.74084383
0.061213028 -0.06327635 0.74031579
0.061081041 -0.063826263 0.7397787
0.060938865 -0.064362377 0.73920017
0.060797092 -0.064895749 0.73862332
0.06064979 -0.065419972 0.738024
0.05890777 -0.015054196 0.72827262
0.058298294 -0.015546232 0.7258203
0.057854965 -0.016070843 0.72403651
0.057484083 -0.01660648 0.72254419
0.057170562 -0.017151147 0.72128272
0.056887172 -0.017698228 0.72014248
0.056628779 -0.018247008 0.71910274
0.056393053 -0.018797666 0.71815425
0.056173999 -0.0193488 0.71727282
0.055968951 -0.019900054 0.71644771
0.05577575 -0.020451099 0.71567035
0.055594381 -0.021002322 0.71494067
0.055420116 -0.021552205 0.71423948
0.055258535 -0.022103399 0.71358931
0.055100117 -0.022652268 0.7129519
0.054953471 -0.023202538 0.71236181
0.054809399 -0.023750722 0.7117821
0.054673452 -0.024299294 0.71123505
0.054544121 -0.024847865 0.7107147
0.054416582 -0.02539438 0.71020156
0.054297891 -0.025942326 0.70972395
0.054181863 -0.0264889 0.70925713
0.054068279 -0.027034104 0.70880008
0.053962931 -0.027581036 0.70837617
0.053858951 -0.028126329 0.7079578
0.053756922 -0.028670311 0.70754731
0.053662941 -0.029216498 0.70716912
0.053569682 -0.029760927 0.70679384
0.053476736 -0.030303448 0.70641989
0.053393044 -0.030849278 0.70608306
0.053309608 -0.031393439 0.70574743
0.053226627 -0.03193599 0.70541352
0.05314992 -0.032480478 0.70510489
0.05307569 -0.033024877 0.70480621
0.053001661 -0.033567697 0.7045083
0.052931573 -0.03411141 0.70422637
0.052865956 -0.034656554 0.70396227
0.052800685 -0.035200447 0.70369971
0.052735943 -0.035743237 0.70343918
0.052678388 -0.036289543 0.70320761
0.052620959 -0.036834657 0.70297647
0.052563839 -0.037378758 0.70274663
0.052511245 -0.037924796 0.70253503
0.052461874 -0.038471997 0.70233643
0.052441169 -0.039039522 0.7022531
0.052435853 -0.039618194 0.70223171
0.052436769 -0.040201485 0.70223534
0.052437685 -0.040784895 0.70223904
0.052438416 -0.041368097 0.70224202
0.052443363 -0.041954696 0.70226192
0.052487191 -0.042572945 0.70243824
0.063456237 -0.052175105 0.74657428
0.06317953 -0.052649587 0.74546093
0.062787354 -0.053020418 0.74388289
0.062667042 -0.053615123 0.74339879
0.062622339 -0.054272711 0.74321902
0.062661551 -0.055002898 0.74337667
0.063071758 -0.056063771 0.74502724
0.063101448 -0.056791306 0.74514675
0.063018531 -0.057416886 0.74481314
0.062921062 -0.058027178 0.74442089
0.062823616 -0.058635384 0.74402881
0.062721774 -0.059237212 0.74361902
0.062613197 -0.059830368 0.74318218
0.062504992 -0.060421497 0.74274683
0.062393274 -0.061006725 0.74229723
0.062273949 -0.061581999 0.74181712
0.062154822 -0.06215483 0.74133784
0.06203204 -0.062721282 0.74084383
0.061901066 -0.063276649 0.74031675
0.061770394 -0.063829392 0.73979098
0.061634704 -0.064374 0.739245
0.061491292 -0.064907461 0.73866796
0.060236968 -0.015224725 0.73095751
0.059240546 -0.015623868 0.72699231
0.058700293 -0.016126424 0.72484231
0.058281261 -0.016651779 0.72317481
0.057926472 -0.017186999 0.72176296
0.057612259 -0.017726839 0.72051257
0.057339322 -0.018272966 0.71942645
0.057087205 -0.018819928 0.71842307
0.056852411 -0.019367307 0.71748877
0.056639608 -0.01991719 0.7166419
0.056433644 -0.020464927 0.71582228
0.056245629 -0.021014869 0.71507406
0.056063633 -0.021562904 0.71434975
0.055893097 -0.022111535 0.71367115
0.055730548 -0.022659659 0.71302432
0.055573829 -0.023206621 0.71240062
0.05542811 -0.023754895 0.71182078
0.055284359 -0.024300814 0.7112487
0.055150166 -0.024847865 0.7107147
0.055020016 -0.025393814 0.71019679
0.054893453 -0.02593869 0.70969313
0.054775383 -0.026484787 0.70922327
0.054658797 -0.027029037 0.70875931
0.054546434 -0.0275729 0.70831215
0.054441173 -0.028117955 0.70789325
0.054336511 -0.028661013 0.70747679
0.054236125 -0.029204071 0.70707732
0.054141905 -0.029748261 0.70670235
0.054048009 -0.030290633 0.70632875
0.05395674 -0.03083241 0.70596552
0.053872477 -0.031376272 0.70563018
0.053788658 -0.031918526 0.70529664
0.053705107 -0.03245914 0.70496416
0.053630143 -0.033003151 0.70466584
0.053555395 -0.033545673 0.70436835
0.053480856 -0.034086704 0.70407176
0.053412162 -0.034629852 0.70379835
0.053346265 -0.035173327 0.70353609
0.053280346 -0.035715401 0.70327383
0.053217012 -0.036257714 0.70302176
0.053159047 -0.036802411 0.70279109
0.053101391 -0.037346035 0.70256168
0.053043675 -0.037888318 0.70233196
0.053033665 -0.03846395 0.70229214
0.053028107 -0.039042681 0.70227003
0.053022549 -0.039621204 0.70224786
0.053018659 -0.040200949 0.70223248
0.053019401 -0.04078415 0.7022354
0.053020328 -0.041367501 0.7022391
0.053178605 -0.042075366 0.70286894
0.064322278 -0.051599145 0.74721479
0.06418898 -0.052197635 0.74668443
0.064003296 -0.052749932 0.74594545
0.063647129 -0.05315581 0.74452806
0.063339017 -0.053594559 0.74330205
0.063238204 -0.054204166 0.74290085
0.063208438 -0.054873258 0.74278241
0.063289359 -0.055638969 0.7431044
0.06368959 -0.056690753 0.74469715
0.063682109 -0.057383895 0.74466729
0.063589789 -0.057999462 0.74430001
0.063491367 -0.058607399 0.74390835
0.063393511 -0.059213728 0.74351889
0.063288309 -0.059810907 0.74310023
0.063178971 -0.060401857 0.74266511
0.063070014 -0.06099081 0.74223155
0.062955171 -0.061571568 0.7417745
0.062834762 -0.062144279 0.74129534
0.062714808 -0.062714785 0.74081796
0.062588856 -0.063276649 0.74031675
0.062456731 -0.063829392 0.73979098
0.062325165 -0.064379811 0.73926741
0.060336173 -0.015739858 0.72874242
0.059600059 -0.016195655 0.72584486
0.059100091 -0.016702205 0.72387695
0.058704626 -0.017228514 0.72232032
0.058365665 -0.017763466 0.72098607
0.058061335 -0.018301934 0.71978813
0.057788655 -0.018844128 0.71871489
0.057545278 -0.019390225 0.71775681
0.057312071 -0.019934624 0.71683896
0.057102844 -0.02048251 0.71601534
0.056897666 -0.021027386 0.7152077
0.056713026 -0.02157557 0.71448088
0.056530412 -0.022120565 0.71376216
0.056363668 -0.022667944 0.7131058
0.056200378 -0.023213208 0.71246302
0.056047034 -0.023759037 0.71185941
0.055900428 -0.024304539 0.71128237
0.055757228 -0.024848342 0.71071869
0.05562463 -0.025393814 0.71019679
0.055493668 -0.025937259 0.70968127
0.055368919 -0.026480764 0.70919025
0.055250891 -0.027024865 0.70872569
0.055133365 -0.027566671 0.70826304
0.055023246 -0.02810967 0.70782959
0.054917492 -0.028652579 0.70741332
0.054812152 -0.029193401 0.70699865
0.054713644 -0.029735655 0.70661092
0.054618802 -0.030277789 0.70623761
0.05452428 -0.030818045 0.70586556
0.054434918 -0.031359226 0.70551378
0.054350082 -0.031901121 0.70517987
0.054265507 -0.032441348 0.70484698
0.054183688 -0.032981366 0.70452493
0.054108214 -0.03352353 0.70422781
0.054032952 -0.034064233 0.70393163
0.053958092 -0.034603566 0.70363694
0.053891003 -0.035146296 0.7033729
0.053824466 -0.035687953 0.70311093
0.053758085 -0.036228269 0.70284963
0.053696383 -0.036770374 0.7026068
0.05364532 -0.037318468 0.70240575
0.053633131 -0.037892938 0.70235783
0.053620949 -0.038467199 0.70230985
0.053615328 -0.03904593 0.70228767
0.05360971 -0.039624572 0.70226556
0.053603906 -0.040202886 0.70224273
0.053601284 -0.040783554 0.70223236
0.065144792 -0.05027476 0.74767017
0.065082349 -0.050934017 0.74742442
0.065005697 -0.051580578 0.74712265
0.064891331 -0.052195191 0.74667251
0.064744025 -0.052780449 0.74609274
0.064534083 -0.053310752 0.74526632
0.064110495 -0.053657681 0.743599
0.063899316 -0.054175496 0.74276769
0.063814543 -0.054797232 0.74243402
0.063800745 -0.055478901 0.74237972
0.063935526 -0.056291044 0.74291027
0.064291812 -0.057303578 0.74431264
0.064256817 -0.057970792 0.74417496
0.064158477 -0.058579445 0.74378788
0.064059637 -0.059185535 0.74339879
0.063960843 -0.059789449 0.74300992
0.063852511 -0.060382277 0.74258357
0.063742436 -0.060970992 0.74215019
0.063632995 -0.061557978 0.74171948
0.063514471 -0.062133729 0.7412529
0.063393503 -0.062704444 0.74077672
0.063272737 -0.063272715 0.74030131
0.063143067 -0.063829392 0.73979098
0.060613751 -0.016294032 0.72726953
0.059967447 -0.016765058 0.7247529
0.059507325 -0.017276317 0.72296125
0.059124891 -0.017801046 0.72147208
0.058802351 -0.018336207 0.72021616
0.058509339 -0.01887396 0.7190752
0.058241758 -0.019413888 0.71803325
0.058000457 -0.019957155 0.71709365
0.057773408 -0.020500213 0.71620953
0.057563502 -0.021044701 0.71539223
0.057363607 -0.021588445 0.71461391
0.057177946 -0.02213338 0.71389091
0.056997463 -0.022676378 0.71318811
0.056832064 -0.023221672 0.71254402
0.056668866 -0.023764372 0.71190864
0.056517929 -0.024308771 0.71132088
0.056370247 -0.024851382 0.71074581
0.056229249 -0.025393814 0.71019679
0.056096859 -0.025937259 0.70968127
0.055965099 -0.026478082 0.7091682
0.055842794 -0.027020723 0.70869201
0.05572423 -0.027562529 0.70823032
0.055606171 -0.02810201 0.70777059
0.055498134 -0.028644204 0.7073499
0.055391707 -0.029184848 0.70693547
0.055285491 -0.029723376 0.70652193
0.055189103 -0.030264974 0.7061466
0.055093639 -0.030805022 0.70577484
0.054998506 -0.031343222 0.70540434
0.054910887 -0.031883746 0.70506322
0.054825686 -0.032423735 0.7047314
0.054740552 -0.032962024 0.70439994
0.054660499 -0.033501565 0.70408821
0.054584518 -0.034041941 0.70379233
0.054508749 -0.034580797 0.70349729
0.054434907 -0.035119265 0.70320982
0.054367747 -0.035660535 0.70294827
0.054300942 -0.036200613 0.7026881
0.054252513 -0.036751658 0.70249951
0.054238476 -0.037325412 0.70244491
0.054226145 -0.037899971 0.70239693
0.054213829 -0.038474321 0.70234895
0.054202463 -0.039049059 0.70230472
0.054196775 -0.039627731 0.70228255
0.054210793 -0.040220916 0.70233715
0.065833323 -0.049551934 0.747594
0.065783344 -0.050221652 0.74739945
0.065728985 -0.050886989 0.74718773
0.065660819 -0.051540196 0.74692231
0.065579481 -0.052181512 0.74660563
0.065457992 -0.052788705 0.74613249
0.065296233 -0.053360343 0.74550271
0.065062061 -0.053868592 0.74459082
0.064622402 -0.054199398 0.74287879
0.064456977 -0.05475378 0.74223471
0.064388745 -0.055388153 0.74196899
0.064392224 -0.05608353 0.74198252
0.064590916 -0.056951106 0.74275625
0.064882711 -0.057906032 0.74389243
0.064824954 -0.05855155 0.74366754
0.064725138 -0.059157401 0.74327892
0.06462536 -0.059761077 0.74289036
0.064525619 -0.060362667 0.74250197
0.064414419 -0.060951263 0.74206901
0.064303599 -0.061537832 0.74163747
0.06419342 -0.062122643 0.74120837
0.064071707 -0.062693834 0.74073452
0.063949667 -0.063262016 0.74025929
0.062125903 -0.016522825 0.7305842
0.060922455 -0.016850889 0.72594798
0.060360461 -0.017337561 0.7237829
0.059925795 -0.01785019 0.7221083
0.059558362 -0.018374383 0.72069287
0.059236567 -0.018905252 0.7194531
0.058954343 -0.019442379 0.71836591
0.058693469 -0.019980758 0.71736085
0.058452971 -0.020520687 0.71643436
0.058232386 -0.021062762 0.71558452
0.058021616 -0.021603763 0.71477252
0.057827082 -0.022146523 0.71402317
0.057640415 -0.02268821 0.71330398
0.057464216 -0.023230225 0.71262521
0.057297889 -0.023772508 0.7119844
0.057135642 -0.024313003 0.71135938
0.056986317 -0.024855733 0.71078414
0.05683798 -0.025395691 0.71021265
0.056700055 -0.025937259 0.70968127
0.056566872 -0.026478082 0.7091682
0.056435943 -0.027017146 0.70866382
0.056314718 -0.027558267 0.70819676
0.056195222 -0.02809757 0.70773643
0.056078635 -0.028635889 0.70728725
0.055970732 -0.029176235 0.70687163
0.05586363 -0.029714674 0.70645899
0.055759124 -0.030252278 0.70605642
0.055662517 -0.030792028 0.70568419
0.055566441 -0.031330019 0.70531404
0.055471282 -0.031866461 0.70494747
0.055385061 -0.032406151 0.70461529
0.055299107 -0.032944143 0.70428419
0.055213414 -0.033480465 0.70395404
0.055135164 -0.03401956 0.70365262
0.055058684 -0.034558088 0.70335793
0.054982413 -0.035095125 0.70306408
0.054910388 -0.035633355 0.70278668
0.054870799 -0.036191374 0.7026341
0.054851793 -0.036762327 0.7025609
0.054832805 -0.037332982 0.70248777
0.054819383 -0.037907004 0.70243609
0.054806925 -0.038481444 0.70238805
0.054794475 -0.039055616 0.70234013
0.054905389 -0.039718777 0.70276737
0.066510715 -0.048821688 0.74747652
0.066466734 -0.049496472 0.74730706
0.066417456 -0.050166368 0.74711728
0.066365443 -0.050833076 0.74691695
0.066310987 -0.051496804 0.74670708
0.066236749 -0.052143812 0.7464211
0.066144526 -0.052774876 0.74606586
0.066022523 -0.053379893 0.74559581
0.065846168 -0.053937793 0.74491638
0.06558723 -0.054423422 0.74391884
0.06515494 -0.054757863 0.74225342
0.065020368 -0.055336475 0.74173504
0.064965941 -0.055981278 0.74152541
0.064993411 -0.056696385 0.74163121
0.065391913 -0.057739645 0.74316639
0.065466724 -0.058502138 0.74345464
0.065389998 -0.059129268 0.74315906
0.065289244 -0.059732705 0.74277085
0.065189071 -0.060334563 0.74238497
0.065085962 -0.060931534 0.74198771
0.064974025 -0.061517924 0.74155653
0.064862736 -0.062102616 0.74112773
0.064749688 -0.062683195 0.74069226
0.062067408 -0.016986847 0.72784191
0.061271753 -0.017414063 0.72480893
0.060751624 -0.017905742 0.72282618
0.06034096 -0.018419862 0.72126079
0.059990048 -0.018944234 0.7199232
0.059675768 -0.019473106 0.71872509
0.059396584 -0.020007253 0.7176609
0.059144493 -0.020544916 0.71669996
0.058903292 -0.021081179 0.71578056
0.058689043 -0.02162227 0.71496379
0.05847742 -0.022159845 0.71415722
0.058288116 -0.022701681 0.71343553
0.058100883 -0.023240328 0.71272182
0.057928823 -0.0237813 0.71206588
0.057761356 -0.024320543 0.71142751
0.057602607 -0.024860054 0.7108224
0.057452641 -0.025400132 0.71025074
0.057304904 -0.025938004 0.70968759
0.057168648 -0.026478082 0.7091682
0.057034682 -0.027016401 0.7086575
0.05690502 -0.027553976 0.70816326
0.056784492 -0.028093398 0.70770383
0.056664273 -0.028630376 0.70724559
0.056549605 -0.029167712 0.70680845
0.05644143 -0.029706031 0.70639616
0.056333676 -0.030242264 0.70598531
0.056230914 -0.030779004 0.70559365
0.0561339 -0.031316787 0.7052238
0.056037217 -0.031852722 0.70485526
0.055943828 -0.032388538 0.70449924
0.055857055 -0.032926232 0.7041685
0.05577074 -0.033462435 0.70383948
0.055685084 -0.033997178 0.70351303
0.055607893 -0.034535408 0.70321876
0.055530913 -0.035072148 0.70292526
0.055492599 -0.035632104 0.70277929
0.055470843 -0.036201984 0.70269632
0.055451427 -0.036772996 0.70262229
0.055432223 -0.0373438 0.7025491
0.05541303 -0.037914157 0.70247591
0.055400241 -0.038488567 0.70242715
0.055602431 -0.039214313 0.70319796
0.067158163 -0.048071086 0.74724746
0.067136258 -0.048762113 0.74716389
0.06709446 -0.04943803 0.74700463
0.067049034 -0.05011031 0.74683142
0.066999137 -0.05077827 0.74664116
0.066945635 -0.051442444 0.74643719
0.066889115 -0.052103072 0.74622178
0.066810422 -0.052745044 0.74592185
0.066707477 -0.053365976 0.74552941
0.066575184 -0.053960949 0.7450251
0.066393293 -0.054512411 0.74433184
0.066055886 -0.054930687 0.74304563
0.065696001 -0.055322915 0.74167377
0.065582886 -0.055918038 0.74124259
0.065543815 -0.056574613 0.74109364
0.065600529 -0.057314128 0.74130982
0.066026159 -0.058381021 0.74293232
0.06604322 -0.05909127 0.74299729
0.065952502 -0.059704334 0.74265146
0.065851361 -0.060305983 0.742266
0.065750256 -0.060905457 0.74188054
0.065644018 -0.061498076 0.74147558
0.065544896 -0.062095165 0.74109775
0.062305354 -0.017523378 0.72627491
0.061621238 -0.017972857 0.72369426
0.061144717 -0.018470764 0.72189677
0.060753554 -0.01898548 0.7204212
0.060419071 -0.019510299 0.71915948
0.060116459 -0.020038813 0.71801794
0.059839886 -0.020569921 0.71697462
0.059592891 -0.021105796 0.716043
0.059358049 -0.021640956 0.71515703
0.059143398 -0.022178769 0.7143473
0.058936577 -0.022715151 0.7135672
0.058746722 -0.023253888 0.71285099
0.058560006 -0.023790002 0.7121467
0.058390871 -0.024329543 0.71150869
0.058223132 -0.024866104 0.71087593
0.058067512 -0.025404543 0.71028888
0.057916701 -0.025941849 0.70972002
0.057770424 -0.026478082 0.7091682
0.057635047 -0.027016401 0.7086575
0.057500303 -0.027552217 0.70814925
0.057373386 -0.028089017 0.70767045
0.057251938 -0.028625935 0.70721233
0.057131 -0.029160589 0.70675611
0.057018902 -0.029697329 0.70633328
0.056910068 -0.030233443 0.70592272
0.056801453 -0.030767411 0.705513
0.056700878 -0.031303585 0.70513368
0.05660326 -0.031839311 0.70476544
0.056505974 -0.03237322 0.70439851
0.056414593 -0.032908469 0.7040537
0.056327272 -0.033444345 0.70372432
0.056240216 -0.033978432 0.70339596
0.056156579 -0.034512877 0.70308048
0.056125876 -0.035078675 0.70296466
0.056099527 -0.035646558 0.70286524
0.056073196 -0.036213905 0.70276588
0.056051604 -0.036783874 0.70268446
0.056032185 -0.037354767 0.70261121
0.056012582 -0.037925184 0.7025373
0.05630251 -0.038707942 0.70363098
0.067711838 -0.047257215 0.74666929
0.067746788 -0.047987252 0.74680114
0.067745648 -0.048692167 0.74679685
0.067720428 -0.049379438 0.74670166
0.06767635 -0.050052315 0.74653542
0.067628898 -0.050721645 0.74635643
0.067578658 -0.051387906 0.74616688
0.067523651 -0.052049458 0.7459594
0.067461066 -0.052703947 0.74572331
0.067382142 -0.05334419 0.74542564
0.067267776 -0.053954333 0.74499416
0.067121141 -0.054535925 0.74444103
0.066914685 -0.055065215 0.7436623
0.066508599 -0.055423826 0.7421304
0.066243067 -0.055892587 0.7411288
0.066147007 -0.056500584 0.74076641
0.066123523 -0.057169288 0.74067783
0.0662269 -0.05794853 0.74106777
0.066628717 -0.058994144 0.74258351
0.066610977 -0.059672326 0.74251664
0.066513017 -0.060277402 0.74214709
0.066410944 -0.060876667 0.74176204
0.066394143 -0.061552912 0.74169874
0.06258928 -0.018067002 0.72491193
0.062005643 -0.01853776 0.72273302
0.061555274 -0.019037664 0.72105157
0.061175171 -0.019550771 0.71963263
0.060845703 -0.020072788 0.71840256
0.060554422 -0.020601004 0.7173152
0.060284555 -0.021130651 0.71630764
0.060038682 -0.021663427 0.71538973
0.059810285 -0.022197634 0.71453702
0.059595034 -0.022732109 0.71373343
0.059393749 -0.023267686 0.712982
0.059202921 -0.023803204 0.71226954
0.059020635 -0.024338394 0.71158904
0.05885059 -0.024874985 0.71095419
0.058683023 -0.025409132 0.71032858
0.058530163 -0.025946349 0.70975792
0.058378518 -0.026480943 0.7091918
0.058235411 -0.027016401 0.7086575
0.058099266 -0.027552217 0.70814925
0.057963751 -0.02808553 0.70764333
0.057839625 -0.028621674 0.7071799
0.057717465 -0.029156238 0.70672393
0.057596438 -0.029688895 0.70627207
0.057485919 -0.030224532 0.70585948
0.057376444 -0.03075847 0.70545071
0.05726758 -0.031290561 0.70504433
0.057168826 -0.03182596 0.70467567
0.057070613 -0.03235963 0.70430899
0.056972735 -0.032891452 0.70394355
0.056883197 -0.033426195 0.70360935
0.056797925 -0.033961624 0.70329094
0.056764439 -0.034526795 0.70316595
0.05673359 -0.03509292 0.70305073
0.056706939 -0.035661042 0.70295125
0.056680519 -0.036228746 0.70285261
0.056653921 -0.036795825 0.70275331
0.056632303 -0.037365645 0.7026726
0.057005458 -0.038199514 0.70406574
0.057385396 -0.039045721 0.70548415
0.068240836 -0.047135413 0.74601102
0.068320379 -0.047894686 0.74630797
0.068343185 -0.048615247 0.74639308
0.068331055 -0.049311042 0.74634778
0.068300478 -0.049993098 0.74623358
0.068255812 -0.050664097 0.74606693
0.068206601 -0.051330745 0.74588317
0.068155169 -0.051994681 0.74569118
0.068099514 -0.052654266 0.7454834
0.068030789 -0.053302437 0.7452268
0.067950778 -0.053940296 0.74492812
0.06782572 -0.054540247 0.74446118
0.06766431 -0.055108041 0.74385864
0.067433037 -0.055614859 0.74299526
0.066980205 -0.055931926 0.74130464
0.066792443 -0.056463689 0.74060369
0.066713125 -0.057084441 0.74030757
0.066707067 -0.057766944 0.74028492
0.06687168 -0.058598906 0.74089944
0.067218706 -0.059595942 0.74219507
0.067174047 -0.060248911 0.74202836
0.06724748 -0.061008006 0.74230248
0.063789047 -0.018225461 0.72696102
0.062928751 -0.018621773 0.723782
0.062388308 -0.019098431 0.72178495
0.061962593 -0.019600391 0.7202118
0.061599705 -0.020114154 0.71887082
0.06127502 -0.020633429 0.71767116
0.060989905 -0.021159738 0.71661752
0.060728855 -0.021688879 0.71565288
0.060481895 -0.02221784 0.71474028
0.060260694 -0.022751451 0.71392292
0.060044192 -0.023282439 0.7131229
0.059848517 -0.023817241 0.71239984
0.059656736 -0.024349689 0.71169114
0.059479151 -0.024884105 0.71103495
0.059308011 -0.025417715 0.71040255
0.059143838 -0.025950879 0.70979589
0.058990575 -0.026485562 0.70922959
0.05883811 -0.027017474 0.70866609
0.058698226 -0.027552217 0.70814925
0.058561321 -0.02808553 0.70764333
0.058426928 -0.028617263 0.70714676
0.058303546 -0.029151738 0.70669079
0.05818069 -0.029684007 0.70623684
0.058061641 -0.03021571 0.70579696
0.057951096 -0.030749559 0.70538843
0.057840977 -0.031281322 0.70498157
0.057733919 -0.031812578 0.70458591
0.057634775 -0.03234601 0.70421958
0.057535972 -0.032877684 0.7038545
0.057447806 -0.0334135 0.7035287
0.057413902 -0.033979654 0.70340335
0.057379838 -0.034544975 0.70327759
0.057346221 -0.035109907 0.70315331
0.057315055 -0.035675734 0.70303816
0.057288136 -0.036243469 0.70293868
0.057330735 -0.036855489 0.70309609
0.057711087 -0.037688851 0.70450151
0.058096729 -0.038533539 0.7059266
0.068514042 -0.046142101 0.74442089
0.068699203 -0.046967804 0.74510515
0.068849102 -0.047772825 0.74565905
0.068914704 -0.048521549 0.74590141
0.068936795 -0.04924053 0.74598306
0.068914704 -0.04992801 0.74590147
0.068878114 -0.050604314 0.74576622
0.06883315 -0.051273644 0.7456001
0.068782464 -0.051937759 0.74541271
0.068729252 -0.052598923 0.74521613
0.068673231 -0.05325678 0.74500912
0.068598576 -0.053898871 0.74473321
0.068507142 -0.054526091 0.74439543
0.068381615 -0.055123925 0.74393153
0.068205267 -0.055677742 0.74327993
0.067948669 -0.056161642 0.74233174
0.067492448 -0.056473285 0.74064589
0.067342564 -0.057035059 0.74009204
0.067278259 -0.057667047 0.7398544
0.067293495 -0.058366776 0.73991072
0.067576163 -0.059301525 0.74095523
0.063983001 -0.018742502 0.72528946
0.063267618 -0.019171983 0.7226727
0.062767848 -0.019654542 0.72084457
0.062367182 -0.020159066 0.71937895
0.062021177 -0.020673722 0.71811336
0.061708726 -0.021192878 0.71697044
0.061422937 -0.021715164 0.71592504
0.061170578 -0.022243828 0.71500194
0.060927711 -0.022770941 0.71411353
0.060708404 -0.023302197 0.71331131
0.060494881 -0.023831308 0.71253031
0.060300909 -0.024363965 0.71182078
0.060108613 -0.024893433 0.71111739
0.05993516 -0.025427014 0.7104829
0.059763346 -0.025957793 0.70985442
0.059602845 -0.026490122 0.70926738
0.059448767 -0.027022153 0.70870376
0.059297189 -0.027552217 0.70814925
0.059158884 -0.02808553 0.70764333
0.059021223 -0.028616369 0.70713979
0.058889661 -0.029147387 0.7066586
0.058765583 -0.029679537 0.70620471
0.05864203 -0.030209482 0.70575273
0.058525421 -0.030740619 0.70532626
0.058414239 -0.031272262 0.70491946
0.05830327 -0.03180179 0.70451361
0.058198467 -0.03233248 0.70413023
0.05811305 -0.032872051 0.70381778
0.058071561 -0.033435136 0.70366609
0.058030333 -0.033997566 0.70351523
0.057996094 -0.034563333 0.70339
0.057961889 -0.035128415 0.70326489
0.057927728 -0.035692841 0.7031399
0.05803401 -0.036344498 0.70352864
0.068892613 -0.043840706 0.74324834
0.068906128 -0.044545352 0.74329776
0.06893605 -0.045261025 0.74340725
0.069016725 -0.04601115 0.74370229
0.069144182 -0.046794534 0.74416852
0.069329984 -0.047620565 0.74484825
0.069455974 -0.048408717 0.74530905
0.069507144 -0.049146444 0.74549621
0.069518261 -0.049856514 0.74553692
0.069496021 -0.050542533 0.74545556
0.069453925 -0.051213473 0.74530154
0.069407217 -0.051880151 0.74513072
0.069355913 -0.052542329 0.74494302
0.069301181 -0.053200871 0.74474287
0.069244511 -0.05385685 0.74453557
0.069163881 -0.054492772 0.74424064
0.069061182 -0.055109441 0.74386495
0.068930581 -0.055701464 0.74338728
0.068743758 -0.05624485 0.74270386
0.068436332 -0.056684643 0.74157929
0.068024687 -0.057030767 0.74007356
0.067901328 -0.057613224 0.73962235
0.068430088 -0.058753073 0.74155647
0.064244427 -0.019273341 0.72389579
0.063635789 -0.019727081 0.72169173
0.063169904 -0.020214349 0.72000462
0.062777109 -0.020716459 0.71858215
0.062440325 -0.021229684 0.71736252
0.062139764 -0.0217489 0.71627408
0.061861113 -0.022269964 0.71526504
0.061609752 -0.022795588 0.71435475
0.061373744 -0.023322016 0.71350014
0.061153665 -0.023849934 0.71270311
0.060945842 -0.02437833 0.71195054
0.060750712 -0.024907798 0.71124387
0.060562763 -0.025436372 0.7105633
0.060388878 -0.025967211 0.70993358
0.060216852 -0.026495397 0.70931059
0.060059641 -0.027026802 0.70874137
0.059904754 -0.027556181 0.70818043
0.05975645 -0.02808553 0.70764333
0.059617393 -0.028616369 0.70713979
0.059478991 -0.029144675 0.70663863
0.059350088 -0.029675037 0.70617181
0.059225328 -0.030204892 0.70571995
0.059101291 -0.030732661 0.70527083
0.058986962 -0.031263053 0.70485675
0.058875144 -0.031792581 0.70445192
0.058783431 -0.0323309 0.70411968
0.058739126 -0.032893866 0.70395935
0.058696955 -0.033457249 0.70380658
0.05865505 -0.034019947 0.70365483
0.058613207 -0.03458178 0.70350325
0.058578413 -0.035147041 0.70337737
0.058739949 -0.035831362 0.70396233
0.069502093 -0.043091267 0.74293542
0.069482394 -0.04377389 0.74286419
0.069468796 -0.044460028 0.74281484
0.069493689 -0.045170903 0.74290502
0.06953048 -0.045890093 0.74303824
0.069619879 -0.046645284 0.74336195
0.06977278 -0.047445446 0.74391568
0.069959499 -0.048272043 0.74459189
0.070060886 -0.049042583 0.744959
0.070097692 -0.049769342 0.74509233
0.070097983 -0.050470531 0.74509341
0.070072658 -0.051153034 0.74500167
0.070027351 -0.051820219 0.74483758
0.06997887 -0.052484155 0.74466205
0.069927238 -0.053144634 0.74447501
0.069870986 -0.053800642 0.74427134
0.069808111 -0.054450303 0.74404365
0.069726981 -0.055084288 0.74374986
0.069613189 -0.055690527 0.74333775
0.069467641 -0.056268781 0.74281067
0.069265693 -0.056797862 0.74207938
0.068878092 -0.057168782 0.74067575
0.069288135 -0.058202028 0.74216062
0.065497912 -0.019454837 0.72608662
0.064571239 -0.019818902 0.72276407
0.064010091 -0.020280391 0.72075212
0.063569501 -0.020770192 0.71917236
0.063194379 -0.021273315 0.71782738
0.062859751 -0.021783054 0.7166276
0.062568374 -0.022301555 0.71558285
0.06229857 -0.022822231 0.71461552
0.06204639 -0.023344159 0.71371132
0.06181756 -0.02387014 0.71289086
0.061596494 -0.024394631 0.71209818
0.061394222 -0.024922401 0.71137297
0.061198395 -0.025448829 0.71067089
0.061015077 -0.025976688 0.71001351
0.060840324 -0.026504695 0.70938706
0.060670722 -0.027031511 0.70877892
0.060514238 -0.02756092 0.70821786
0.060358338 -0.028087527 0.70765889
0.060213566 -0.028616369 0.70713979
0.060073774 -0.029144675 0.70663863
0.059934847 -0.029670715 0.70614046
0.05980866 -0.030200392 0.705688
0.059683215 -0.030727983 0.70523822
0.059559558 -0.031254023 0.70479488
0.059469357 -0.031795502 0.70447147
0.059419218 -0.032356977 0.7042917
0.059369169 -0.032917529 0.70411223
0.059323378 -0.033479512 0.70394802
0.059280999 -0.034042537 0.70379609
0.05923868 -0.034604758 0.70364439
0.070258588 -0.041737735 0.7431559
0.07017196 -0.042381078 0.7428453
0.07011909 -0.043043405 0.74265569
0.070070677 -0.04370746 0.74248213
0.070056684 -0.044392347 0.74243188
0.070049107 -0.045081079 0.74240482
0.070079416 -0.045794457 0.74251348
0.070131354 -0.046522737 0.74269962
0.070221685 -0.047277957 0.74302357
0.070400409 -0.048095316 0.74366438
0.070580341 -0.048917085 0.74430954
0.070662953 -0.049673945 0.74460566
0.070686668 -0.050390452 0.74469078
0.070675403 -0.051082224 0.7446503
0.07064458 -0.051759362 0.7445398
0.070598684 -0.052424759 0.74437529
0.070548423 -0.053085923 0.74419504
0.070495866 -0.053744346 0.74400663
0.070438676 -0.054398179 0.74380159
0.070369825 -0.05504173 0.74355471
0.070287906 -0.05567354 0.74326104
0.070162602 -0.05626902 0.74281174
0.070002243 -0.056833506 0.74223679
0.070150338 -0.057648271 0.74276775
0.065646388 -0.019951344 0.72431141
0.06490083 -0.020361006 0.72166443
0.064381361 -0.02082926 0.7198202
0.063966446 -0.021322131 0.71834707
0.063608877 -0.021826595 0.71707761
0.063286357 -0.022336334 0.71593255
0.06299413 -0.022850782 0.71489507
0.062733725 -0.023371398 0.71397054
0.062482812 -0.023890465 0.71307969
0.062258944 -0.024415255 0.71228492
0.062038489 -0.024937034 0.71150225
0.06184049 -0.0254637 0.71079928
0.061643969 -0.025987118 0.71010154
