# .PCD v0.7 - Point Cloud Data file format
VERSION 0.7
FIELDS x y z
SIZE 4 4 4
TYPE F F F
COUNT 1 1 1
WIDTH 807
HEIGHT 1
VIEWPOINT 0 0 0 1 0 0 0
POINTS 807
DATA ascii
0.011537023 -0.074211597 0.71708143
0.018311469 -0.0726211 0.71730757
0.030055184 -0.070754856 0.71799493
0.028154958 -0.068823218 0.71781975
0.0084653655 -0.072426766 0.71832919
0.02338773 -0.072251402 0.71810663
0.008587705 -0.070587769 0.71880233
0.016595729 -0.070140347 0.71803242
0.024447553 -0.069581509 0.71825236
0.027335949 -0.065668732 0.71881366
0.0053616818 -0.071596324 0.71968108
0.021393094 -0.069212943 0.71910274
0.023291443 -0.068300471 0.71920764
0.020408412 -0.066695385 0.71981943
0.014498272 -0.06555739 0.7195195
0.023551151 -0.065396987 0.71969384
0.023962859 -0.064636558 0.71960711
0.030441577 -0.066590905 0.72091007
0.010430405 -0.064479187 0.72016752
0.014565518 -0.062378258 0.72057831
0.012365974 -0.061512902 0.7208935
0.0025415721 -0.070528626 0.72134227
0.0044524502 -0.065514594 0.72158533
0.007615143 -0.063459516 0.72105342
0.0095169013 -0.062177062 0.72100443
0.013649518 -0.06062907 0.72114968
0.027936872 -0.060635492 0.72117424
0.0044710962 -0.061637148 0.72255003
0.0063727698 -0.061178535 0.7220245
0.0086229313 -0.057486713 0.72255486
0.020477209 -0.057592154 0.72297907
0.021408524 -0.057516038 0.72267282
0.0076763914 -0.056933224 0.7229017
0.01245285 -0.056516603 0.72250628
0.022576546 -0.054737717 0.72263527
0.0025619613 -0.062447697 0.72318816
0.011520021 -0.055040061 0.72301102
0.011563152 -0.052355215 0.72387874
0.021846723 -0.050761491 0.72393429
-0.0032271254 -0.075514734 0.72497517
-0.0025814157 -0.071311533 0.72494948
-0.00064393372 -0.06535916 0.72443515
0.0006450158 -0.059663847 0.72482705
0.0006450158 -0.059663847 0.72482705
0.0025781491 -0.056396872 0.72465366
0.020573588 -0.053362727 0.72406977
0.0073999651 -0.052443661 0.72427166
0.015454558 -0.051515192 0.72443742
0.020607907 -0.051519752 0.72445816
0.025156107 -0.048699439 0.72483158
-0.0025881103 -0.067614287 0.72555554
-0.0012945925 -0.061493129 0.72565281
0.0038871416 -0.049884975 0.72585583
0.013559489 -0.049072385 0.72507113
0.013559489 -0.049072385 0.72507113
0.018449992 -0.049523495 0.7256788
0.017497439 -0.048603982 0.725927
0.022596523 -0.046484262 0.72504395
-0.0090991566 -0.078317657 0.72661012
-0.007568344 -0.075466506 0.7261647
-0.0045420825 -0.073646486 0.7262224
0.03251639 -0.067308664 0.72675067
-0.0019455357 -0.061608613 0.72609305
0.00065011333 -0.051683888 0.72667301
0.026621254 -0.048372447 0.72637808
0.0056395186 -0.044682395 0.72689116
0.0084576868 -0.043589592 0.72684604
0.011383433 -0.043582201 0.7268061
0.023358326 -0.043472409 0.72621274
0.022432014 -0.041612834 0.7267046
0.034544695 -0.070718572 0.72727895
-0.006533144 -0.069577858 0.7278322
0.03463142 -0.069916219 0.72787148
0.032031659 -0.064063311 0.72797447
0.030028246 -0.06038259 0.72764158
-0.0026063356 -0.058316648 0.72720551
0 -0.051442057 0.72705394
0.0045596976 -0.044619739 0.72713363
0.018602358 -0.042426974 0.72761798
0.019552823 -0.041386709 0.72726959
0.022785803 -0.041014433 0.72700232
0.019608146 -0.038562685 0.72793734
-0.010496921 -0.075446576 0.72882557
0.034074649 -0.067493975 0.72854459
-0.0052451799 -0.063597769 0.72867709
-0.0052451799 -0.063597769 0.72867709
0.030789729 -0.060596541 0.72847903
-0.0037141093 -0.055487923 0.72857732
0.018320609 -0.04056704 0.72819179
0.0124356 -0.039597377 0.72826344
-0.0095301224 -0.066381142 0.72925347
-0.0046074642 -0.053643957 0.72960472
0.0016438765 -0.039456576 0.72938764
0.0016438765 -0.039456576 0.72938764
0.016438883 -0.038466841 0.72936797
0.016438883 -0.038466841 0.72936797
0.0036169426 -0.03748557 0.72939932
0.0075652758 -0.035524011 0.72947544
0.0075748367 -0.034580737 0.72977656
0.019273629 -0.034385912 0.72918749
0.019273629 -0.034385912 0.72918749
-0.0086010154 -0.06053777 0.73083866
-0.0059361109 -0.058371663 0.7300967
0.03109437 -0.056896061 0.73082626
-0.0033053551 -0.04363063 0.73064107
0.017154193 -0.034638152 0.73017234
0.0019850384 -0.033745646 0.73086143
0.0019850384 -0.033745646 0.73086143
0.013556426 -0.033394679 0.73071837
0.0086000264 -0.031423017 0.73081112
0.019505028 -0.029422693 0.73068333
0.020508042 -0.029438794 0.73081446
0.034531415 -0.063417941 0.73172557
0.031216234 -0.055458337 0.73176527
-0.0046412023 -0.044422925 0.73135006
-0.0046412023 -0.044422925 0.73135006
-0.0026504667 -0.039425611 0.73120081
-0.00066276809 -0.035457954 0.73125565
0.0076174182 -0.030469626 0.73111641
0.0026582344 -0.02957271 0.73190409
0.013294401 -0.029912382 0.73196256
0.015949784 -0.029905796 0.73190975
0.0059833154 -0.027922094 0.73199606
0.0059833154 -0.027922094 0.73199606
-0.011347047 -0.0547328 0.73295963
0.029282108 -0.050578147 0.73224586
-0.0066498639 -0.049541384 0.732059
0.028680481 -0.048356369 0.73278379
0.028033094 -0.046721786 0.73295283
-0.0060064425 -0.041377693 0.73292667
-0.0046653589 -0.038322479 0.73259979
-0.0026655518 -0.03365247 0.73256654
0.010448838 -0.026233148 0.73276925
0.01863526 -0.024625123 0.73226124
-0.012362648 -0.055463582 0.73323572
-0.0093637016 -0.052503437 0.73345304
-0.0083691757 -0.049543262 0.73369491
-0.00066789845 -0.028385535 0.73311353
0.0013372854 -0.025408387 0.733383
0.012372673 -0.025413916 0.73343551
0.022096923 -0.025444925 0.73373103
0.00044654775 -0.024562916 0.73383826
0.010380387 -0.023439407 0.73376513
0.016039323 -0.023390651 0.73326081
0.0026804705 -0.022783995 0.73391718
-0.013460707 -0.050477654 0.73497379
-0.010412324 -0.049374305 0.73451245
0.03093067 -0.049758017 0.7347458
0.02755427 -0.042675227 0.7346189
-0.0063766567 -0.035573274 0.73430705
-0.0053783795 -0.030589402 0.73470652
0.022859404 -0.026221067 0.73472029
0.014419843 -0.023474395 0.73412704
0.014419843 -0.023474395 0.73412704
0.00033607963 -0.021515712 0.73473167
0.0047111716 -0.018844664 0.73496985
0.017473254 -0.017473251 0.73461628
0.031677019 -0.050548375 0.7353155
-0.010462174 -0.045560472 0.7356751
0.028338041 -0.042507052 0.73558211
-0.0053928355 -0.027638286 0.73536092
0.012464883 -0.020549946 0.73524147
0.0094245868 -0.019522339 0.73502791
0.019571729 -0.016872168 0.73564434
0.016511001 -0.015500113 0.73529387
-0.014894771 -0.051454663 0.73642224
-0.01423623 -0.044403374 0.73674107
-0.0084644025 -0.032501861 0.73645389
-0.0033808528 -0.020623073 0.73610914
-0.001352193 -0.018254578 0.73608232
0.011497602 -0.017584532 0.73616672
0.0074398965 -0.015556127 0.7361756
0.018630672 -0.013549373 0.73657918
0.018630672 -0.013549373 0.73657918
0.015584206 -0.011518747 0.73661739
-0.012563314 -0.041424915 0.73716891
-0.012579409 -0.040457882 0.73748398
-0.011578452 -0.038821876 0.73788899
0.026493322 -0.035663798 0.73724818
0.026493322 -0.035663798 0.73724818
-0.0088251354 -0.030548573 0.73708183
-0.0074673472 -0.025456756 0.73707938
-0.0064626075 -0.020407453 0.73758578
-0.0033990559 -0.015635639 0.73742753
0.012450329 -0.014487645 0.73717427
-0.0013593896 -0.013593853 0.73738539
0.011564285 -0.013605028 0.73758715
0.025933895 -0.032417089 0.73839068
0.023913935 -0.027671531 0.73867476
-0.00068174675 -0.01056692 0.73812842
0.0034074031 -0.0095407367 0.7380321
0.0034074031 -0.0095407367 0.7380321
0.0095675457 -0.009567529 0.73872578
0.012621122 -0.0095513165 0.73830628
0.012621122 -0.0095513165 0.73830628
-0.00068338646 -0.0085421652 0.73872221
0.016358675 -0.0074976981 0.73807949
0.015386124 -0.0047867596 0.73888052
-0.016426176 -0.041407585 0.73909795
-0.01647475 -0.036381692 0.73983085
0.028802384 -0.036688417 0.73958576
-0.014392897 -0.034611359 0.73944271
-0.011647133 -0.032543346 0.73935199
-0.006842148 -0.015052736 0.7390222
-0.0034215932 -0.0095804632 0.73905981
0.0085609062 -0.0075334758 0.73925722
-0.0013724609 -0.0054898262 0.73975211
0.030929999 -0.041239977 0.74015152
-0.013095113 -0.029636323 0.74083352
-0.0096299686 -0.01650852 0.74034041
-0.0027478838 -0.0054957569 0.74002028
0.011361347 -0.002409935 0.74060434
0.0044800946 -0.0013784617 0.74084175
0.015390998 0.00022978584 0.74080706
0.03862948 -0.068291396 0.74104923
-0.017298393 -0.029407158 0.74181819
0.026936732 -0.029353812 0.74136543
0.026936732 -0.029353812 0.74136543
0.026208527 -0.028277606 0.74100792
0.024204593 -0.022821486 0.74168205
-0.0076063694 -0.0055319071 0.74165606
-0.0055320202 -0.0024201125 0.74166131
-0.0034506454 -0.0020703673 0.74116397
0.007604667 -0.00069129467 0.7416001
-0.00069086521 0.00034560263 0.74143058
-0.014548454 -0.026325762 0.74212515
0.010387136 0.0013849437 0.74201375
-0.0034688604 0.0024283677 0.74248314
0.0045107747 0.0034697801 0.742549
0.013519526 0.0055464357 0.7423135
0.037572935 -0.061577752 0.74321586
0.029982729 -0.033469081 0.74375093
-0.018780394 -0.031648442 0.74313432
0.026492378 -0.02440086 0.7437129
-0.015644437 -0.023640454 0.74303931
-0.018136749 -0.022322148 0.74385756
-0.0104432 -0.0045252591 0.74336731
-0.0104432 -0.0045252591 0.74336731
-0.0083482871 -0.00069564581 0.74317795
-0.0065095811 0.0044172406 0.74381363
0.0066130501 0.0045248345 0.74332577
0.0024339829 0.0055633038 0.7430771
0.012560151 0.010466784 0.74393678
0.035713498 -0.057421684 0.74483442
-0.019583238 -0.026577204 0.74452174
0.026566584 -0.02342017 0.74442011
-0.013302154 -0.0073510706 0.74477959
-0.0083924662 0.0045460761 0.74451113
0.016072348 0.0062891841 0.74430311
-0.0034932129 0.0083837211 0.74424696
0.0090844082 0.0083856285 0.74430418
0.0034973084 0.0094429404 0.74454355
0.0094419718 0.010491416 0.74453098
0.013626172 0.010481477 0.74429119
0.035868768 -0.053451508 0.74593687
0.026020901 -0.019691497 0.74592185
-0.017523982 -0.017523944 0.74508595
-0.016491171 -0.016490966 0.74537247
0.022483706 -0.011944443 0.74568582
-0.010541013 0.0056218803 0.74572867
-0.007362511 0.0084141344 0.74516439
-0.0049076844 0.010516495 0.74513602
0.011588467 0.015451148 0.74558032
0.026128652 -0.018360645 0.74697644
-0.020431634 -0.017613471 0.74638224
-0.019295603 -0.012471428 0.74688739
-0.019295603 -0.012471428 0.74688739
-0.016564561 -0.012687624 0.74650151
-0.013368736 -0.00070360303 0.74604863
0.0073953103 0.013382316 0.7463069
-0.0056443717 0.015522033 0.74674702
-0.0056443717 0.015522033 0.74674702
-0.0014086675 0.01549536 0.74630791
0.0014093758 0.015503198 0.74643612
0.0077576637 0.015515327 0.74663687
0.010570989 0.018323064 0.74645233
-0.021217104 -0.016620025 0.74735922
-0.0134704 0.0085076392 0.74798632
-0.011312527 0.010605514 0.74728537
0.0024753441 0.017680496 0.74735272
0.0003536439 0.018387303 0.7473473
0.024861345 -0.012785822 0.74847728
0.024861345 -0.012785822 0.74847728
-0.018436706 -0.0085092187 0.74803543
0.021997189 -0.0063862503 0.74821019
0.0063949875 0.020606101 0.74856049
-0.00070974079 0.021292269 0.74826598
0.01208365 0.022390559 0.74865061
-0.019929647 -0.0056942105 0.74900198
-0.021432953 -0.0035721362 0.74996477
0.018559564 0.0035691261 0.74974662
0.01782858 0.0046357363 0.74949813
-0.015666297 0.0064089596 0.74912196
-0.014623078 0.012482949 0.74955648
-0.013555624 0.015695989 0.7496106
-0.0099688657 0.019937724 0.74910653
-0.0099688657 0.019937724 0.74910653
0.0057110018 0.024271756 0.74976325
0.0057144752 0.02500084 0.74992043
-0.02288883 -0.0075103045 0.75027043
-0.022546746 -0.0042945445 0.75044471
-0.02223501 -0.00071725249 0.75098836
-0.0085922461 0.026492774 0.75054014
0.0014310459 0.026474357 0.75035989
-0.0093221543 0.027249396 0.75092697
-0.0064431075 0.02756235 0.75049675
0.0093129873 0.030446529 0.75067163
0.0093129873 0.030446529 0.75067163
0.03264863 -0.038030386 0.75109565
0.024431545 -0.0071857572 0.75146508
0.022243716 -0.0021526515 0.75109005
0.023028921 -0.0028786063 0.75185579
-0.02045041 0.00071758032 0.75109673
0.016550396 0.011513293 0.75182998
0.016550396 0.011513293 0.75182998
-0.012921209 0.023688883 0.7512008
0.0021525992 0.027983785 0.75108784
-0.0086321235 0.030572295 0.75174344
-0.0025135637 0.030522473 0.75131893
0.032443497 -0.03388539 0.75233126
0.020938171 0.0036100149 0.75270754
-0.020541847 0.0043246299 0.75225842
0.016591603 0.012624353 0.75247872
-0.01586641 0.022357225 0.7524159
0.0026449428 0.031499308 0.75247163
0.0014450315 0.033235729 0.7528922
0.0050429627 0.033499792 0.75213444
-0.0014449001 0.034677595 0.75286841
-0.0014449001 0.034677595 0.75286841
0.031471834 -0.031471804 0.75324607
-0.015453133 0.028491359 0.75355899
-0.015453133 0.028491359 0.75355899
-0.013405623 0.032607809 0.75365329
-0.010613634 0.034494244 0.75330436
0.002533894 0.034389205 0.75342238
-0.00144641 0.035437047 0.75314182
-0.0065131811 0.036546364 0.75331628
-0.0065131811 0.036546364 0.75331628
-0.004341518 0.036541298 0.75327986
0.0043403688 0.036531538 0.75321054
0.0086759012 0.036872625 0.75306457
-0.009432422 0.037729681 0.75399864
0.0036264977 0.037715584 0.75390029
0.029830031 -0.027647346 0.7547195
-0.024716396 0.0087234676 0.75449908
-0.023283295 0.011641651 0.75473452
-0.01344638 0.035614252 0.75445151
-0.0054555167 0.040734604 0.7546621
-0.025554173 0.011681914 0.75564569
-0.020394415 0.016752571 0.75501293
-0.019672571 0.021858454 0.75510049
-0.018962806 0.026620999 0.75536305
-0.014614797 0.039459974 0.7558704
-0.012428295 0.042402416 0.75599217
-0.0072886534 0.042274237 0.75519156
-0.0025534229 0.042315274 0.75544792
-0.0094954176 0.043459967 0.75575346
-0.0094954176 0.043459967 0.75575346
0.0026772504 0.043326657 0.75568408
0.0065551186 0.043700814 0.75500375
0.007310858 0.045327336 0.75599563
0.029340016 -0.020537972 0.75687009
0.019767737 0.012446374 0.75637686
-0.025634635 0.01538083 0.75647813
-0.02123164 0.020499527 0.75637221
0.014655442 0.024181485 0.75660634
-0.018287163 0.032916903 0.75614083
-0.018287163 0.032916903 0.75614083
-0.017582359 0.036629915 0.75654346
-0.013902574 0.041707724 0.75622332
-0.0036569356 0.044614643 0.75610483
0.0025626528 0.046499729 0.75642717
0.0025626528 0.046499729 0.75642717
-0.0073373592 0.047692865 0.75695539
0.0054875845 0.047557995 0.75620425
0.0065950351 0.047630817 0.75660992
-0.022406926 0.020570025 0.75728446
-0.020617487 0.033503518 0.75789797
-0.016650621 0.041626208 0.75726092
-0.013602981 0.046322614 0.75751436
-0.00073583215 0.047461376 0.75771451
-0.025789449 0.021368414 0.75808001
-0.024334369 0.022491038 0.75828409
-0.024334369 0.022491038 0.75828409
-0.022143491 0.029524654 0.7585417
-0.016608495 0.045764759 0.75855076
-0.016608495 0.045764759 0.75855076
-0.013295862 0.050228864 0.75873822
-0.0044270828 0.050542742 0.75844419
0.013322946 0.031827062 0.75928307
-0.020755714 0.042252749 0.75968575
0.0081390915 0.049574465 0.7591939
-0.017067771 0.050461233 0.75997591
-0.0024662255 0.051544689 0.7591781
-0.012593401 0.053336769 0.75950927
-0.004448385 0.054122061 0.75972986
-0.029034918 0.023451298 0.76084805
0.017087918 0.025260389 0.76029319
0.015610357 0.028990686 0.76043707
-0.025297137 0.029761374 0.76068449
0.014137392 0.032739252 0.76069885
-0.02227331 0.038607061 0.76010877
-0.019351777 0.04949604 0.76078069
-0.012649584 0.057295173 0.76070613
-0.012649584 0.057295173 0.76070613
-0.0055804271 0.057293251 0.76069713
0.026522163 -0.0056031272 0.76179731
-0.021678317 0.048589349 0.76195002
-0.020161845 0.051524758 0.76166272
-0.01863309 0.052545473 0.76115167
-0.0014903673 0.055888832 0.76110095
-0.0014903673 0.055888832 0.76110095
-0.0074578342 0.0596627 0.76131821
-0.0029893224 0.059039176 0.76187849
0.019440351 0.021683484 0.76201439
0.015702667 0.03140536 0.76202893
-0.026564822 0.03442201 0.76223123
0.013484942 0.037458181 0.76254219
0.011984032 0.040446162 0.76248372
-0.024009358 0.044267237 0.76295102
0.0052526379 0.052526385 0.76298165
0.0014956263 0.055338144 0.76205319
-0.0074848952 0.062499091 0.76229817
-0.026280923 0.037544191 0.76316512
-0.026280923 0.037544191 0.76316512
-0.028603112 0.039141119 0.7638278
-0.02407575 0.048527792 0.76370239
0.0003757666 0.059331611 0.76321912
-0.01842534 0.062419906 0.76358634
-0.01842534 0.062419906 0.76358634
-0.017270945 0.062325567 0.76317489
0.024524391 0.0022638291 0.76451099
-0.026382597 0.041458398 0.76421702
0.01206787 0.043746054 0.76438129
-0.022611 0.056527495 0.76418501
0.0045313938 0.057397664 0.76473993
0 0.063444108 0.76475978
-0.020396536 0.064211339 0.76481056
-0.01659764 0.067522392 0.76445234
-0.0082871784 0.067804188 0.76406914
-0.008305111 0.069460958 0.76465946
-0.011327869 0.070232779 0.76472503
0.011352131 0.046922117 0.76531076
-0.025707001 0.047633559 0.76504987
-0.014377803 0.071510836 0.76528102
-0.0083277132 0.071542859 0.76540357
-0.02735272 0.043308496 0.76639324
0.010652893 0.050220788 0.76679993
0.0091278451 0.053245753 0.76670325
-0.025473274 0.058549464 0.76660502
-0.022778578 0.065298617 0.76620787
-0.018251028 0.073764592 0.76663285
-0.0045663379 0.073061407 0.76684898
-0.01252291 0.074378535 0.76609147
-0.01750933 0.075366259 0.76692826
-0.015601372 0.076103926 0.76684272
0.0083959857 0.056482106 0.76765114
-0.025561405 0.063330173 0.76755792
-0.024384513 0.065533429 0.76719654
0.0030560647 0.066469431 0.76792085
-0.024424689 0.067549676 0.7676512
-0.022622695 0.070663542 0.76739216
-0.0022855781 0.071614772 0.76713979
-0.0053413846 0.07554245 0.76757282
-0.009524202 0.076956257 0.76717007
-0.012573631 0.077727973 0.76720476
-0.02834768 0.054396868 0.76869488
0.0084250569 0.058209509 0.76860821
0.0076590376 0.059740514 0.7686044
-0.025253721 0.068491265 0.76837277
0.0023003838 0.069778323 0.76892698
-0.0076472731 0.078766912 0.7681784
-0.012612204 0.080259576 0.76805139
-0.0095767612 0.081211731 0.76869297
-0.015335681 0.082812726 0.76892316
0.022295984 0.01845184 0.76966298
0.013071988 0.049212188 0.7697041
0.012315084 0.051569462 0.76997656
-0.028440045 0.060723335 0.76959884
0.0046070372 0.066802084 0.76930541
-0.02689283 0.068384647 0.76949626
-0.026130363 0.071474224 0.76955903
-0.023413301 0.076764047 0.76923323
-0.023413301 0.076764047 0.76923323
-0.0038480728 0.080039918 0.76994818
-0.01995712 0.081363648 0.76921195
-0.019608894 0.08343412 0.76971757
-0.012308495 0.08539021 0.76982737
-0.012308495 0.08539021 0.76982737
-0.029263586 0.05775708 0.77012193
0.0092442045 0.059316963 0.77021474
-0.029353987 0.064115316 0.77098346
0 0.077190846 0.77077889
-0.015418798 0.087501898 0.77042818
-0.029427245 0.068534613 0.77168167
-0.02862905 0.071572751 0.77144873
0.0046445848 0.071216971 0.77157164
-0.027093157 0.078183144 0.77156901
-0.00077256991 0.078802168 0.77101845
-0.023958769 0.083469272 0.77112472
-0.023467204 0.085358262 0.7714057
-0.023467204 0.085358262 0.7714057
-0.022470728 0.088333219 0.7718451
-0.0077476269 0.088322937 0.77181244
-0.031092187 0.061407059 0.77273303
0.0062078387 0.069450557 0.77225327
0.0038778665 0.073679447 0.77210605
0.0031082626 0.076152444 0.77264649
-0.0015542335 0.083540335 0.77266496
-0.0054284828 0.086855769 0.77207863
-0.010082547 0.090742946 0.77210867
-0.0093251355 0.091697156 0.77265704
-0.017455082 0.092317075 0.77217865
-0.011645621 0.09238866 0.77239621
-0.0093364017 0.092586011 0.77299696
-0.032000884 0.055416197 0.77389354
0.0093367938 0.063801438 0.77300882
-0.031167721 0.067789823 0.77341682
-0.031178646 0.068593025 0.7735157
0.0033786397 0.077439666 0.77356195
-0.027277235 0.086507857 0.7734735
-0.027277235 0.086507857 0.7734735
0.009376687 0.065636843 0.77421272
0.0086053358 0.068060398 0.77454317
-0.030512117 0.080583274 0.77456445
0.002347328 0.081374049 0.77459359
-0.029775005 0.08619082 0.77499568
-0.0015620787 0.086695403 0.77408552
-0.0023451496 0.088333964 0.77433074
-0.0035222508 0.090805173 0.77472425
-0.033009086 0.055408061 0.77585673
-0.032988563 0.065584466 0.77567983
0.018095931 0.037765414 0.77616423
-0.031465247 0.084956169 0.77611047
-0.00078759325 0.090573251 0.77645886
-0.00078759325 0.090573251 0.77645886
-0.00078759325 0.090573251 0.77645886
0.014239077 0.053001016 0.77771419
-0.033969335 0.068728656 0.7773248
0.0031621847 0.085379004 0.77752823
-0.034065012 0.057039142 0.77813059
-0.034055956 0.07919991 0.77805436
-0.034055956 0.07919991 0.77805436
0.0047642556 0.084168524 0.77879441
0.0055740615 0.083610922 0.7796098
0.0039840974 0.08765015 0.77979994
-0.035999626 0.071999252 0.7809487
0.0087930337 0.076739192 0.7807225
0.0040000542 0.089601219 0.78095567
0.0031921277 0.090177625 0.78023899
-0.036030736 0.085673064 0.7811991
-0.037058603 0.07492283 0.78298759
0.010469644 0.074092865 0.78289181
0.0072395112 0.083656609 0.78254157
0.0056379633 0.088596553 0.78291571
0.0071983971 -0.075584233 0.71792495
0.023785383 -0.072607964 0.71791589
0.012981388 -0.071163289 0.71780103
0.002996125 -0.076810867 0.7197113
0.0046102311 -0.076280586 0.71891356
0.021169418 -0.066351756 0.72008514
0.030445334 -0.0667032 0.72093838
0.021055311 -0.064906232 0.72056204
0.01297237 -0.062963188 0.72040415
0.01297237 -0.062963188 0.72040415
0.01847334 -0.059879094 0.72192848
0.00015941093 -0.072928831 0.72240466
0.0046764007 -0.062813319 0.72217786
0.018988568 -0.058959194 0.72238243
0.011012102 -0.056975715 0.72242671
0.028205035 -0.057050269 0.72338122
-0.002987576 -0.072973534 0.72510606
0.031611905 -0.068707243 0.72487229
0.0088417707 -0.052247047 0.72411197
0.0088788588 -0.049076103 0.72509027
0.014926872 -0.049044225 0.72524679
0.018940762 -0.04905181 0.72574592
0.0089298738 -0.04705007 0.725721
-0.0091107888 -0.076942116 0.72687817
-0.0071347146 -0.072883725 0.726834
-0.0037893513 -0.068962783 0.72647619
0.032347322 -0.064857818 0.72789335
-0.0011415622 -0.053047989 0.72732043
-0.0011415622 -0.053047989 0.72732043
0.0033755577 -0.043230057 0.72784609
0.019153332 -0.042933226 0.72717369
0.010935972 -0.04096844 0.72767848
0.021043675 -0.038987707 0.72754467
-0.0029634153 -0.047080696 0.72970116
0.017074963 -0.038900655 0.7290737
0.0070594009 -0.036938734 0.7290566
-0.0075881793 -0.062354617 0.73019487
-0.0075881793 -0.062354617 0.73019487
-0.0091186892 -0.058856286 0.73140264
0.030715784 -0.055242997 0.73131126
-0.0051367232 -0.047049135 0.7312206
-0.0028787889 -0.037312295 0.73181605
-0.0010786061 -0.035002671 0.73154342
0.015066447 -0.033112619 0.73107195
0.021766944 -0.032320589 0.73010993
0.0034330392 -0.029236138 0.73186958
0.0086423596 -0.027921438 0.73199034
0.019074231 -0.027035125 0.73150229
-0.0068190466 -0.042848084 0.73331559
0.026745569 -0.043126926 0.73338175
-0.004875435 -0.036729749 0.73308355
0.02332784 -0.030325845 0.73261064
-0.0070539219 -0.037114937 0.73451495
-0.0081012137 -0.034936249 0.73572183
-0.0062976647 -0.02906945 0.73558676
0.01407988 -0.024136931 0.73404491
0.012992727 -0.019151445 0.73566699
0.014840459 -0.019046485 0.73492324
0.014840459 -0.019046485 0.73492324
0.032724638 -0.050950699 0.73685086
0.032724638 -0.050950699 0.73685086
-0.011155391 -0.044621453 0.73607737
-0.011155391 -0.044621453 0.73607737
-0.0029614638 -0.019120634 0.73635405
-0.0028265817 -0.0169797 0.73687953
0.0069364458 -0.015056485 0.73630679
0.013264927 -0.011054058 0.73759258
-0.013181517 -0.038464949 0.73814917
-0.011369549 -0.036723118 0.7382797
0.026988273 -0.03301518 0.73929542
0.023849385 -0.02861923 0.73800683
0.018743522 -0.0090291677 0.73896343
0.018743522 -0.0090291677 0.73896343
0.0029141356 -0.0049707387 0.7395525
0.0029141356 -0.0049707387 0.7395525
0.031667184 -0.042681843 0.74054396
0.025323179 -0.026786622 0.74077588
0.023253003 -0.022563465 0.74074429
-0.011031521 -0.019073132 0.74090093
0.017291445 -0.0028932213 0.74070948
-0.004843507 -0.0011531115 0.74180186
0.023567576 -0.020448044 0.74226302
-0.013005305 -0.016971825 0.74296331
-0.011500066 -0.012944393 0.74236715
-0.0096981227 -0.0083126724 0.74210334
0.0029462343 0.0031196363 0.7422803
-0.0027888741 0.0069724768 0.74372923
-0.01536087 -0.020248413 0.74409449
-0.011533266 -0.0029703081 0.74436426
-0.011122241 -0.00097904203 0.7445429
-0.0089123193 0.0030581355 0.74436283
0.0071947281 0.0071950369 0.74440247
0.011073921 0.016347282 0.7458626
0.028221481 -0.0243406 0.74674368
-0.020539787 -0.010978043 0.74773288
-0.01891453 -0.010959551 0.7473017
-0.015509739 -0.0089883879 0.74654484
0.021030666 -0.0069157332 0.74680007
-0.012040718 0.010978445 0.7477361
0.015059525 0.012705475 0.74687159
-0.0051104254 0.014978597 0.74649686
0.0042539192 0.01843369 0.74799281
0.026386989 -0.015332565 0.74950492
-0.021286203 -0.010997742 0.74819332
-0.020830756 -0.0033328335 0.74987906
-0.013483126 0.0095802546 0.74822879
-0.0072129644 0.019274231 0.74816889
-0.0056728809 0.019855112 0.74803764
0.0052354829 0.018990172 0.74832261
-0.018940598 -0.0021441877 0.7500751
0.020219911 0.0027524135 0.75120562
-0.017628636 0.0050939107 0.75062913
0.0014295678 0.025732249 0.75009227
-0.0090323742 0.027168801 0.7508381
-0.0030402485 0.027541433 0.75029993
-0.010079372 0.030238092 0.75196493
-0.0030541806 0.031081902 0.75149065
0.022879673 -0.00096340978 0.75288391
-0.017287804 0.015847206 0.75209892
-0.0181152 0.020832762 0.75364989
0.0093653193 0.033859223 0.75212938
-0.0048958492 0.038441658 0.75390542
0.019616356 0.0094449222 0.75434649
-0.021069311 0.011261168 0.75434101
-0.021069311 0.011261168 0.75434101
0.017416278 0.013787895 0.75403738
0.015988503 0.017442018 0.75442564
-0.016074657 0.036898777 0.75584376
-0.016074657 0.036898777 0.75584376
0.0011297173 0.03708031 0.75425005
-0.012842219 0.0410523 0.75573033
-0.012842219 0.0410523 0.75573033
0.00091261155 0.041062288 0.75559789
0.004993354 0.046645723 0.75587082
-0.025375411 0.015127609 0.75631917
0.015363711 0.021948159 0.75618386
-0.012961679 0.04679038 0.75755841
0.019459633 0.016995609 0.75884598
0.0086154174 0.04725831 0.7586503
-0.016565287 0.050684523 0.75984812
-0.0090382509 0.05109391 0.75843108
-0.012962064 0.052959025 0.75947124
-0.0070439652 0.055055022 0.75975788
-0.022879522 0.040945038 0.76104295
-0.0091013499 0.056837242 0.76029861
-0.030015584 0.032829776 0.76298618
-0.028841374 0.036878116 0.76323336
0.011608951 0.041192979 0.76246977
-0.022909809 0.05088925 0.76325369
0.0048660948 0.051651627 0.76232874
0.0002508343 0.060421318 0.76361692
0.0002508343 0.060421318 0.76361692
0.015849818 0.035096467 0.76456642
0.010594168 0.048430473 0.76528096
-0.023093404 0.060950667 0.76543427
-0.010934018 0.068997674 0.76431924
0.015588073 0.038778692 0.76660359
-0.027348485 0.042922005 0.76635063
0.006706588 0.058827806 0.76719779
-0.023171075 0.064954206 0.76635647
0.00086297124 0.067144088 0.76682127
-0.022339061 0.072935723 0.76781511
-0.017085627 0.073278062 0.76623333
-0.017085627 0.073278062 0.76623333
-0.0048694084 0.073119536 0.76677907
-0.0029980454 0.072782673 0.76733005
-0.0070582228 0.076785892 0.76758391
0.014618495 0.046163648 0.76986849
0.0049797771 0.064827524 0.76865768
0.0010217769 0.070906848 0.76859164
-0.022761233 0.078846768 0.76947153
-0.018853281 0.08464691 0.76991284
-0.030143039 0.057001412 0.77113736
-0.030167539 0.059174865 0.77136493
-0.030215183 0.063142061 0.77180731
-0.027713927 0.067745149 0.77002674
0.0049028089 0.070697874 0.77155948
-0.029159365 0.076979645 0.77282959
-0.029236978 0.08079046 0.77357912
0.00084410235 0.081031464 0.7731747
-0.0023284957 0.083825886 0.77232039
-0.0028158913 0.085077085 0.77260745
-0.019049857 0.092526689 0.77281648
-0.006827184 0.092463441 0.77381164
-0.032530185 0.067018203 0.77509892
-0.0046909149 0.091472834 0.77436793
-0.023455786 0.092259437 0.77438247
0.017320346 0.037789851 0.77634847
-0.034009524 0.07493972 0.77766323
0.0073638964 0.074949943 0.77695
-0.032784283 0.084921643 0.77731872
-0.035011552 0.064850897 0.77940071
0.0092746764 0.073132098 0.77911204
0.0092746764 0.073132098 0.77911204
0.0052970191 0.083152831 0.77894342
0.0028012842 0.092425734 0.78103393
-0.037010245 0.079049036 0.78260684
-0.038129441 0.07909821 0.78503096
0.02398821 -0.063442409 0.71984875
0.02938352 -0.06242758 0.72205609
-0.0089921895 -0.07828711 0.72660393
-0.0028233293 -0.070008509 0.72542226
0.020582162 -0.052902326 0.72416675
0.017906921 -0.049352065 0.72562981
-0.0063320659 -0.065938011 0.72876501
-0.0026397852 -0.049682494 0.72897875
-0.0026397852 -0.049682494 0.72897875
0.017385609 -0.041450944 0.72820944
-0.0020978926 -0.038064912 0.73126978
0.0024267223 -0.034343075 0.73061383
0.020810155 -0.027340641 0.73175758
0.03484806 -0.061541971 0.73353487
0.0018779443 -0.018141106 0.73546404
0.029132852 -0.038753077 0.73886037
-0.0062397574 -0.021726249 0.73719543
0.012764344 -0.017666755 0.73614073
0.0015666754 -0.010099608 0.7379846
0.025962517 -0.026001928 0.74207675
-0.011258583 -0.021964479 0.74059582
-0.012876753 -0.014049901 0.74329603
-0.010507274 -0.014063916 0.74146295
0.021654435 -0.014558112 0.74329901
0.010010578 -0.0019683731 0.74113965
-0.0019148388 0.0018481549 0.74206817
-0.00069790293 0.0083748698 0.7439791
-0.010389065 0.0058623655 0.74574441
-0.012392872 0.0099143451 0.74768949
0.0018748683 0.017936984 0.7473774
-0.013525142 0.021563981 0.75099277
0.0059920107 0.02197204 0.74892527
0.0059920107 0.02197204 0.74892527
0.0063855834 0.029638026 0.75069112
-0.023768576 -0.00072023273 0.75207525
0.016591076 0.017867714 0.75533867
0.0084766969 0.041973092 0.75529903
-0.0062129581 0.044587441 0.75594342
0.014684638 0.026117187 0.75769395
-0.02146945 0.037662346 0.75933021
-0.02146945 0.037662346 0.75933021
0.01228232 0.041797515 0.76355886
-0.021551142 0.053532958 0.76293725
-0.021551142 0.053532958 0.76293725
-0.014020829 0.061638564 0.7622484
-0.006049009 0.082119972 0.76996684
-0.0077476269 0.088322937 0.77181244
0.019431623 0.026815817 0.77271867
-0.030777873 0.066170909 0.77281469
-0.033647381 0.08203084 0.77791643
0.0038109892 0.082656845 0.77677041
0.0070793405 0.08254493 0.78145474
0.0060899085 0.085900389 0.78197068
-0.037506811 0.067675382 0.78651607
