# .PCD v0.7 - Point Cloud Data file format
VERSION 0.7
FIELDS x y z
SIZE 4 4 4
TYPE F F F
COUNT 1 1 1
WIDTH 1287
HEIGHT 1
VIEWPOINT 0 0 0 1 0 0 0
POINTS 1287
DATA ascii
-0.0090577183 0.021350324 0.72553825
-0.0090565942 0.020700812 0.72550917
-0.0090596164 0.020060599 0.72558731
-0.0090649612 0.019424915 0.72572565
-0.0090719704 0.018791944 0.72590697
-0.0090831928 0.018166393 0.72619718
-0.0090944776 0.017539352 0.72648913
-0.0091114054 0.016921192 0.72692692
-0.0091290027 0.016301781 0.72738218
-0.0091520818 0.015689284 0.72797918
-0.0091776215 0.015077561 0.72863978
-0.0092035588 0.014462709 0.72931069
-0.0092252661 0.013837904 0.72987217
-0.0092416247 0.013202339 0.7302953
-0.0092534907 0.012558341 0.73060215
-0.0092625208 0.011908978 0.73083574
-0.0092692859 0.011255592 0.73101074
-0.009276025 0.010601223 0.73118508
-0.0092828097 0.0099458694 0.73136061
-0.0092906766 0.0092906654 0.73156416
-0.0092990017 0.0086348355 0.73177946
-0.0093073417 0.0079777241 0.73199511
-0.0093164025 0.0073200166 0.73222947
-0.0093263378 0.0066616833 0.73248649
-0.0093362946 0.0060019195 0.7327441
-0.0093466463 0.0053409636 0.73301184
-0.0093582217 0.0046791434 0.73331124
-0.0093698632 0.0040156841 0.73361242
-0.0093816463 0.0033505857 0.73391712
-0.0093949325 0.0026842654 0.73426086
-0.0094082579 0.0020160675 0.73460555
-0.0094216205 0.0013459921 0.73495114
-0.0094366604 0.00067406893 0.73534024
-0.0094518252 2.9802322e-08 0.73573244
-0.0094670393 -0.00067621469 0.73612601
-0.0094839586 -0.0013548434 0.73656356
-0.009501053 -0.0020359159 0.73700577
-0.009518249 -0.0027194917 0.73745066
-0.0095373774 -0.0034061968 0.73794544
-0.0095565422 -0.0040956438 0.73844117
-0.0095762173 -0.0047881305 0.73895007
-0.0095976293 -0.0054843128 0.73950386
-0.0096191382 -0.0061836839 0.74006027
-0.0096418979 -0.0068870485 0.74064904
-0.009665926 -0.007594645 0.74127054
-0.0096900333 -0.0083057284 0.74189407
-0.0097166067 -0.0090225637 0.74258149
-0.0097435694 -0.0097435117 0.74327886
-0.0097721135 -0.010470092 0.74401718
-0.0098022241 -0.011202544 0.7447961
-0.0098333899 -0.011940539 0.74560219
-0.0098671317 -0.012686282 0.74647498
-0.0099019036 -0.013438284 0.74737442
-0.0099400086 -0.014200002 0.7483601
-0.0099798162 -0.014969707 0.74938971
-0.010023125 -0.015750587 0.75050998
-0.010070156 -0.016543806 0.75172657
-0.010119999 -0.017348558 0.75301576
-0.010159539 -0.018142015 0.75403857
-0.010185331 -0.018915594 0.75470573
-0.01020291 -0.019677013 0.75516045
-0.010217063 -0.020434082 0.75552648
-0.010231747 -0.021194309 0.75590634
-0.010250342 -0.021964997 0.75638735
-0.010273569 -0.022748619 0.75698817
-0.010306126 -0.023556828 0.75783026
-0.010350623 -0.02439788 0.75898129
-0.0095189689 0.04173705 0.75640947
-0.0090932092 0.039170742 0.74454933
-0.0091028297 0.038511992 0.74481738
-0.009121594 0.037889719 0.74534011
-0.0091404365 0.037264884 0.74586499
-0.0091593564 0.036637425 0.74639201
-0.008798385 0.034516752 0.73633671
-0.0087725408 0.03374058 0.73561668
-0.0087503782 0.0329822 0.73499936
-0.0087283617 0.032227814 0.73438609
-0.008709359 0.031487674 0.73385674
-0.0086944811 0.030765146 0.73344231
-0.0086799329 0.030045927 0.73303699
-0.0086657433 0.029330224 0.73264182
-0.0086539844 0.028624743 0.73231423
-0.0086444272 0.027928174 0.73204792
-0.0086352685 0.027234316 0.73179281
-0.0086261304 0.026541978 0.7315383
-0.0086179711 0.025853932 0.73131102
-0.0086059645 0.025155902 0.73097652
-0.0085718399 0.024396807 0.73002589
-0.0084719965 0.023460954 0.72724473
-0.0084495451 0.022748768 0.7266193
-0.0084372489 0.022066653 0.72627676
-0.008428229 0.02139473 0.72602546
-0.0084270174 0.020743459 0.72599173
-0.0084259696 0.020092726 0.72596252
-0.0084299333 0.019453704 0.72607297
-0.0084349178 0.018816352 0.72621185
-0.0084425379 0.018183947 0.72642404
-0.0084530376 0.01755634 0.72671652
-0.0084642237 0.016928464 0.72702813
-0.0084805451 0.016308755 0.72748286
-0.008496929 0.015686661 0.72793925
-0.0085200006 0.015073866 0.72858191
-0.0085438713 0.014458865 0.72924685
-0.0085679442 0.013840526 0.72991741
-0.0085864021 0.013209879 0.73043162
-0.0086015603 0.012571514 0.7308538
-0.0086113298 0.011923403 0.73112595
-0.0086191697 0.011271238 0.7313444
-0.008625444 0.010615945 0.7315191
-0.008631763 0.0099597573 0.73169518
-0.008638056 0.0093025267 0.73187047
-0.0086457022 0.0086457133 0.7320835
-0.008653501 0.0079878867 0.73230064
-0.0086612785 0.0073288083 0.73251736
-0.0086700758 0.0066693127 0.7327624
-0.0086793415 0.0060088038 0.73302054
-0.0086886277 0.0053468645 0.73327923
-0.008698632 0.004683882 0.73355794
-0.0087094298 0.004019767 0.73385864
-0.0087202881 0.0033539832 0.73416114
-0.0087316306 0.0026866198 0.73447716
-0.008744061 0.0020178854 0.73482335
-0.0087564914 0.0013471842 0.73516965
-0.0087692766 0.00067457557 0.73552579
-0.0087833796 2.9802322e-08 0.73591864
-0.0087975282 -0.00067669153 0.73631275
-0.0088120438 -0.0013557076 0.73671716
-0.0088279378 -0.0020371974 0.73715991
-0.0088438895 -0.0027211905 0.73760426
-0.0088603701 -0.003407836 0.73806334
-0.0088782199 -0.0040976107 0.73856056
-0.0088961422 -0.0047902167 0.73905981
-0.0089150164 -0.0054861605 0.73958564
-0.0089350017 -0.00618577 0.74014229
-0.0089550773 -0.006888479 0.74070156
-0.0089769149 -0.0075958371 0.74130982
-0.0089993067 -0.0083070397 0.74193358
-0.0090223383 -0.0090223253 0.74257517
-0.009047335 -0.0097432733 0.74327147
-0.0090724723 -0.010468185 0.74397171
-0.0090998877 -0.011199832 0.74473536
-0.0091280071 -0.011936605 0.74551868
-0.0091580031 -0.012680292 0.74635428
-0.0091895191 -0.013430804 0.74723226
-0.0092230588 -0.014189333 0.7481665
-0.0092587015 -0.014956325 0.74915934
-0.0092971316 -0.01573357 0.7502299
-0.0093376106 -0.016520351 0.75135744
-0.0093831923 -0.017322809 0.75262725
-0.0094281966 -0.018131107 0.75388086
-0.0094599118 -0.018919826 0.75476444
-0.009481879 -0.019693077 0.75537628
-0.0094967466 -0.020454526 0.75579047
-0.0095101176 -0.021214873 0.75616288
-0.0095238192 -0.02197805 0.75654459
-0.0095436471 -0.022757888 0.75709689
-0.0095665539 -0.023548454 0.75773501
-0.0095992088 -0.024367213 0.75864464
-0.0096469577 -0.025230467 0.75997478
-0.0088456133 0.042016685 0.7581861
-0.00880065 0.041069746 0.7568292
-0.0084043406 0.038519889 0.74486953
-0.0084216697 0.037897497 0.74539244
-0.0084390687 0.037272573 0.74591756
-0.0084565412 0.036645025 0.74644482
-0.0084740855 0.036014885 0.74697429
-0.0081334673 0.033889502 0.73669523
-0.0081103304 0.033117205 0.73599702
-0.0080898087 0.032359242 0.73537767
-0.0080694556 0.031605393 0.7347635
-0.008052703 0.030868709 0.73425794
-0.0080391504 0.030146807 0.73384893
-0.0080256751 0.029427528 0.73344231
-0.0080126626 0.028712094 0.73304957
-0.0080022505 0.028007865 0.7327354
-0.0079936208 0.027311534 0.73247498
-0.0079851374 0.02661714 0.73221898
-0.0079768635 0.025924802 0.73196924
-0.0079690497 0.025235355 0.7317335
-0.0079565048 0.024532616 0.73135483
-0.0078965146 0.023689568 0.72954452
-0.0078317793 0.022842705 0.72759092
-0.0078109954 0.022131175 0.72696376
-0.007801922 0.021455288 0.72668993
-0.0077948114 0.020786166 0.72647536
-0.00779384 0.020134121 0.72644603
-0.0077930209 0.019482553 0.72642136
-0.0077976659 0.018844366 0.72656155
-0.0078022559 0.018205285 0.72669995
-0.0078103556 0.017573297 0.72694445
-0.0078200595 0.016943485 0.72723728
-0.0078315651 0.016315788 0.72758448
-0.0078466712 0.015693396 0.72804034
-0.0078627011 0.01507023 0.72852409
-0.0078846933 0.014455259 0.72918779
-0.0079070898 0.013837457 0.72986364
-0.0079288613 0.013214767 0.73052073
-0.0079445662 0.012578905 0.73099458
-0.0079578646 0.011936814 0.73139596
-0.0079663219 0.011285633 0.73165119
-0.0079730498 0.010630757 0.7318542
-0.0079788985 0.0099736154 0.73203069
-0.007984723 0.0093155205 0.73220646
-0.0079907803 0.0086567104 0.73238927
-0.0079979654 0.0079979599 0.73260605
-0.0080051953 0.0073381066 0.73282427
-0.0080124056 0.0066770017 0.73304188
-0.0080208825 0.0060156882 0.73329765
-0.0080294423 0.0053529739 0.73355603
-0.008038085 0.0046888888 0.73381674
-0.0080476841 0.0040239096 0.73410648
-0.0080576958 0.0033573806 0.73440862
-0.0080677643 0.0026892722 0.73471248
-0.0080786413 0.0020197034 0.73504066
-0.0080901356 0.0013483763 0.73538756
-0.0081016626 0.00067511201 0.73573542
-0.0081139142 -0 0.73610514
-0.0081269946 -0.00067725778 0.73649985
-0.008140116 -0.0013566613 0.7368958
-0.0081539787 -0.002038449 0.73731422
-0.0081687216 -0.0027228594 0.73775911
-0.0081835175 -0.0034097731 0.73820567
-0.0081992419 -0.0040996373 0.73868012
-0.0082158009 -0.0047925115 0.73917985
-0.0082324278 -0.0054882765 0.7396816
-0.0082504135 -0.0061877966 0.74022436
-0.008268957 -0.0068908036 0.74078393
-0.0082876869 -0.007597059 0.74134922
-0.0083083631 -0.008308351 0.74197316
-0.0083291782 -0.0090232491 0.74260128
-0.0083511434 -0.0097429752 0.74326408
-0.0083743455 -0.010467887 0.74396431
-0.0083979229 -0.011197209 0.74467587
-0.0084238667 -0.011933804 0.74545884
-0.0084499354 -0.012674898 0.7462455
-0.0084786089 -0.013424426 0.74711072
-0.0085078748 -0.014179766 0.74799395
-0.0085400026 -0.014945 0.74896348
-0.0085731084 -0.015717357 0.74996257
-0.0086099887 -0.01650244 0.75107551
-0.0086484961 -0.017297 0.75223756
-0.0086914608 -0.018107235 0.7535342
-0.0087305885 -0.018916219 0.75471491
-0.0087562175 -0.019701481 0.7554884
-0.0087746447 -0.020474166 0.75604445
-0.0087870881 -0.021235436 0.7564199
-0.0087997606 -0.021999419 0.75680238
-0.0088131279 -0.022767246 0.75720578
-0.0088331597 -0.02355507 0.75781024
-0.0088575929 -0.024358362 0.7585476
-0.0088896165 -0.025187254 0.75951409
-0.0089462809 -0.026093274 0.76122403
-0.0081156529 0.041316062 0.75842226
-0.0080800531 0.040400267 0.75725037
-0.0077214553 0.037905306 0.74544489
-0.0077374121 0.037280291 0.74597019
-0.0077534346 0.036652595 0.74649769
-0.0077695237 0.036022335 0.74702734
-0.007924227 0.036019206 0.75212032
-0.0074666324 0.033260494 0.73705584
-0.0074460558 0.032491893 0.73637843
-0.0074271858 0.031734318 0.73575717
-0.0074085011 0.030981004 0.73514211
-0.0073940796 0.030248493 0.7346673
-0.0073816143 0.029526472 0.73425698
-0.0073692207 0.028806984 0.73384893
-0.0073574297 0.028092027 0.73346072
-0.0073483237 0.027389228 0.73316097
-0.0073405029 0.026692748 0.73290348
-0.0073326989 0.025997788 0.73264658
-0.0073252628 0.02530548 0.73240179
-0.0073178113 0.024614483 0.73215646
-0.0073040314 0.023904115 0.7317028
-0.0072252732 0.022989541 0.72911
-0.0071896818 0.022222668 0.72793829
-0.0071720588 0.021516204 0.7273581
-0.0071643568 0.020841807 0.72710454
-0.0071591013 0.020175666 0.72693151
-0.0071582356 0.019522488 0.72690308
-0.0071584871 0.01887238 0.72691137
-0.0071627349 0.018232405 0.72705126
-0.0071669598 0.017591655 0.72719026
-0.0071753687 0.016959995 0.72746712
-0.0071843038 0.016327977 0.72776127
-0.0071958858 0.015700161 0.7281425
-0.0072098272 0.015075088 0.72860152
-0.0072258706 0.014451742 0.72912967
-0.0072461334 0.013833553 0.72979677
-0.0072669131 0.013212562 0.73048091
-0.0072859898 0.012584865 0.73110884
-0.0072996723 0.01194495 0.73155928
-0.0073109008 0.011298686 0.73192888
-0.0073184832 0.010645062 0.73217857
-0.0073241806 0.0099875331 0.73236614
-0.0073295641 0.0093285143 0.73254341
-0.0073349266 0.0086685419 0.7327199
-0.0073407968 0.008008182 0.73291314
-0.007347411 0.0073474348 0.73313093
-0.0073540378 0.0066854954 0.73334908
-0.0073608831 0.0060226023 0.73357445
-0.0073687769 0.005359143 0.73383433
-0.0073766881 0.0046943128 0.73409474
-0.007384615 0.0040279627 0.73435569
-0.0073937816 0.0033608377 0.73465747
-0.0074030003 0.0026919842 0.73496097
-0.0074122427 0.0020215213 0.73526525
-0.0074225888 0.0013495684 0.73560584
-0.007433204 0.00067576766 0.73595536
-0.0074437903 5.9604645e-08 0.73630381
-0.0074554365 -0.00067773461 0.73668718
-0.0074674836 -0.0013577044 0.73708379
-0.0074795391 -0.0020398498 0.73748076
-0.007492674 -0.0027245879 0.73791313
-0.0075062541 -0.0034119189 0.73836023
-0.0075198836 -0.0041017234 0.73880893
-0.007534801 -0.0047948658 0.73930001
-0.0075500566 -0.0054909587 0.73980224
-0.007565374 -0.0061898232 0.74030656
-0.0075823525 -0.0068930089 0.74086535
-0.0075994688 -0.0075994432 0.74142897
-0.0076172017 -0.0083096325 0.74201274
-0.0076362877 -0.0090246797 0.74264103
-0.007655438 -0.0097432733 0.74327147
-0.0076762578 -0.010467619 0.74395692
-0.0076976437 -0.011196554 0.74466097
-0.0077200253 -0.011930913 0.74539775
-0.0077439439 -0.012671888 0.74618518
-0.0077683725 -0.013418078 0.74698937
-0.0077951737 -0.014173001 0.74787176
-0.0078224279 -0.014933705 0.74876899
-0.007852695 -0.015705347 0.74976546
-0.0078839092 -0.016484499 0.75079298
-0.0079183448 -0.017276376 0.75192666
-0.007955255 -0.018080086 0.75314176
-0.0079949135 -0.018897057 0.75444746
-0.0080274465 -0.019703746 0.75551844
-0.0080485409 -0.020487159 0.75621295
-0.0080630081 -0.021256983 0.75668913
-0.0080742566 -0.022020698 0.75705945
-0.0080859642 -0.02278772 0.75744498
-0.0081003886 -0.023564756 0.75791979
-0.0081188492 -0.024356544 0.75852752
-0.0081442939 -0.025173247 0.7593652
-0.0081790769 -0.026024312 0.76051027
-0.0073844315 0.040614367 0.75866002
-0.007357622 0.039731145 0.75768918
-0.0070354645 0.03728798 0.74602282
-0.0070500365 0.036660194 0.74655056
-0.0070646694 0.036029816 0.74708045
-0.0070793331 0.035396665 0.7476114
-0.0072403695 0.035477817 0.75344306
-0.0067978352 0.032629609 0.73741746
-0.0067797354 0.031864792 0.73676205
-0.0067625269 0.031107664 0.73613888
-0.0067460337 0.030357182 0.73554158
-0.0067332336 0.02962622 0.7350781
-0.0067218905 0.02890414 0.7346673
-0.0067105857 0.028184503 0.73425788
-0.0067003146 0.027471304 0.733886
-0.0066921958 0.026768804 0.73359191
-0.0066850604 0.026071727 0.73333359
-0.0066779405 0.025376201 0.73307574
-0.006671289 0.024683774 0.73283488
-0.0066643055 0.023991525 0.73258197
-0.0066492409 0.023272336 0.73203641
-0.0065703709 0.022339284 0.72918028
-0.006545668 0.021600723 0.72828567
-0.0065315696 0.020901024 0.72777516
-0.0065245428 0.020226061 0.7275207
-0.006520946 0.01956287 0.72739041
-0.0065201297 0.018908381 0.72736096
-0.0065212771 0.018259585 0.72740245
-0.0065251556 0.017617941 0.72754288
-0.0065293955 0.016976476 0.72769642
-0.0065375604 0.016343921 0.72799206
-0.0065457197 0.015709758 0.72828758
-0.0065572229 0.015081644 0.72870415
-0.0065699564 0.014453918 0.72916532
-0.0065857815 0.013830185 0.72973835
-0.0066042971 0.013208598 0.73040885
-0.0066231797 0.01258406 0.73109269
-0.0066397907 0.011951655 0.73169422
-0.006651707 0.011307925 0.73212576
-0.0066609252 0.010657519 0.73245955
-0.0066675823 0.010001361 0.73270059
-0.0066725705 0.0093415976 0.73288131
-0.006677459 0.0086807311 0.73305827
-0.006682382 0.0080188811 0.73323655
-0.006687982 0.0073567927 0.73343933
-0.0066940216 0.0066940188 0.73365808
-0.006700072 0.0060300827 0.73387718
-0.0067065922 0.0053652525 0.73411328
-0.0067138001 0.0046996772 0.73437428
-0.0067210239 0.0040326416 0.73463595
-0.0067285071 0.003364265 0.73490697
-0.0067368778 0.0026947856 0.73521006
-0.006745324 0.0020236075 0.73551595
-0.0067538461 0.0013507903 0.73582453
-0.0067635141 0.00067639351 0.73617464
-0.0067731827 -0 0.73652476
-0.0067828782 -0.00067830086 0.73687595
-0.0067938198 -0.0013587773 0.73727208
-0.0068047959 -0.0020413995 0.73766959
-0.0068158358 -0.0027263463 0.73806942
-0.0068281693 -0.0034140646 0.73851603
-0.006840576 -0.004104346 0.73896533
-0.0068531404 -0.0047971904 0.73942029
-0.0068670227 -0.0054936111 0.739923
-0.0068809325 -0.0061928332 0.74042678
-0.0068953275 -0.0068953037 0.74094796
-0.0069108699 -0.0076019466 0.74151087
-0.0069265114 -0.0083118081 0.74207729
-0.0069431779 -0.0090260804 0.74268079
-0.0069606216 -0.0097448528 0.74331254
-0.0069782115 -0.010467321 0.74394953
-0.0069976817 -0.011196315 0.7446546
-0.0070172311 -0.011929274 0.74536252
-0.0070382557 -0.012668848 0.74612391
-0.0070601236 -0.013414234 0.74691582
-0.007083151 -0.014166266 0.74774969
-0.0071076611 -0.014926076 0.74863732
-0.0071334094 -0.015693486 0.74956971
-0.0071610971 -0.016470492 0.75057238
-0.0071906433 -0.017257512 0.75164235
-0.0072221537 -0.018055379 0.75278348
-0.0072571924 -0.018868655 0.75405228
-0.0072928281 -0.019690633 0.75534272
-0.007318364 -0.020491391 0.75626749
-0.0073357783 -0.021273762 0.75689811
-0.0073476383 -0.022042871 0.75732762
-0.0073580109 -0.022809833 0.7577033
-0.0073687062 -0.023579866 0.75809056
-0.0073837778 -0.024366438 0.75863636
-0.0074012424 -0.025164217 0.75926876
-0.0074266517 -0.025993288 0.760189
-0.0074632401 -0.026867658 0.76151395
-0.006652026 0.039912164 0.75890297
-0.0066331252 0.039061755 0.75814247
-0.0063463477 0.036667824 0.74660343
-0.0063595227 0.036037326 0.74713355
-0.0063727251 0.035404086 0.74766475
-0.0063860095 0.034768283 0.74819922
-0.0061469134 0.032783538 0.73857874
-0.0061270669 0.031996906 0.73778021
-0.0061113015 0.031235546 0.73714584
-0.0060957656 0.030478835 0.73652077
-0.0060813921 0.029731274 0.73594242
-0.0060701538 0.029001862 0.7354902
-0.0060599102 0.028279573 0.7350781
-0.0060497993 0.027560204 0.73467124
-0.0060408642 0.026848286 0.7343117
-0.0060337493 0.026146293 0.73402536
-0.0060272808 0.025448531 0.73376513
-0.00602085 0.024752349 0.73350638
-0.0060149874 0.024059951 0.73327047
-0.0060081496 0.023365051 0.73299533
-0.0059912913 0.022633791 0.73231709
-0.0059191398 0.021703511 0.72941387
-0.0058997837 0.02097702 0.72863507
-0.0058888127 0.020283699 0.7281937
-0.0058824667 0.019608259 0.72793829
-0.0058802776 0.018947572 0.7278502
-0.0058795633 0.01829198 0.72782147
-0.0058814296 0.017644316 0.72789657
-0.0058849347 0.017000943 0.7280376
-0.0058895289 0.016359836 0.72822243
-0.0058968873 0.015725046 0.72851849
-0.0059042857 0.015088707 0.72881621
-0.0059155007 0.014460146 0.72926742
-0.0059270165 0.013829708 0.72973084
-0.005942408 0.013205349 0.73035014
-0.0059591578 0.012580454 0.73102415
-0.0059761684 0.01195237 0.73170859
-0.0059899525 0.011314362 0.73226315
-0.0060006324 0.010667801 0.73269296
-0.0060080299 0.010013402 0.73299056
-0.0060137101 0.0093546808 0.73321909
-0.0060181464 0.0086928904 0.73339766
-0.0060225646 0.0080301166 0.7335754
-0.0060270145 0.0073663592 0.7337544
-0.0060322941 0.0067025721 0.73396689
-0.0060377782 0.0060378015 0.7341876
-0.0060432469 0.0053717792 0.7344076
-0.0060493848 0.0047051013 0.73465455
-0.0060558761 0.0040372312 0.73491573
-0.0060624308 0.0033680201 0.73517954
-0.0060694176 0.0026975572 0.73546058
-0.0060770102 0.0020256937 0.73576605
-0.0060846466 0.0013521612 0.73607337
-0.0060926233 0.00067695975 0.73639429
-0.0061013405 -0 0.73674512
-0.0061100824 -0.0006788671 0.73709685
-0.0061191241 -0.0013597906 0.73746061
-0.006129018 -0.002042979 0.73785877
-0.0061389692 -0.0027284324 0.7382592
-0.0061492301 -0.0034162104 0.73867202
-0.0061604092 -0.004106909 0.73912179
-0.0061716298 -0.0048001409 0.7395733
-0.0061832988 -0.0054962337 0.74004287
-0.0061958553 -0.0061958134 0.74054807
-0.006208464 -0.006898284 0.74105543
-0.0062218453 -0.0076044798 0.74159384
-0.0062359064 -0.0083145201 0.74215955
-0.0062500569 -0.0090278387 0.74272895
-0.0062655532 -0.0097464323 0.74335253
-0.0062813368 -0.01046887 0.74398762
-0.0062977285 -0.011195928 0.74464715
-0.0063153217 -0.011928916 0.74535501
-0.0063330135 -0.012665987 0.74606693
-0.0063525783 -0.013410985 0.74685419
-0.0063723731 -0.014160842 0.74765062
-0.0063938433 -0.014918983 0.74851453
-0.0064160349 -0.015683621 0.74940741
-0.0064400933 -0.016458005 0.75037539
-0.0064651957 -0.017240494 0.75138551
-0.0064928248 -0.018035591 0.75249726
-0.0065216827 -0.018840402 0.75365841
-0.0065542595 -0.019662797 0.75496918
-0.0065845633 -0.020485282 0.75618845
-0.0066047567 -0.021281987 0.75700104
-0.0066191442 -0.022063822 0.75757992
-0.0066287317 -0.022832245 0.75796562
-0.006638288 -0.023602784 0.75835019
-0.0066481377 -0.024376482 0.7587465
-0.0066633355 -0.025172591 0.75935805
-0.0066815466 -0.025983751 0.76009077
-0.0067053344 -0.026821315 0.76104796
-0.0067471378 -0.027738243 0.76273
-0.0059213876 0.039229184 0.7592867
-0.0059061595 0.03839004 0.75859731
-0.0056540826 0.036044776 0.74718666
-0.0056658229 0.035411447 0.7477181
-0.0056776367 0.034775525 0.74825287
-0.0056894994 0.034137011 0.74878985
-0.0054718098 0.032146901 0.73893583
-0.0054546972 0.03136453 0.73816121
-0.0054407739 0.030604392 0.73753089
-0.0054269428 0.029848218 0.73690486
-0.005414566 0.029103339 0.73634458
-0.0054048281 0.028375357 0.73590374
-0.0053956923 0.027652949 0.7354902
-0.0053867609 0.026933819 0.73508596
-0.0053791166 0.026223212 0.7347399
-0.0053729219 0.025521398 0.73445952
-0.0053671729 0.024823189 0.73419929
-0.0053614364 0.02412647 0.73393959
-0.0053563137 0.023433894 0.73370767
-0.0053493129 0.022734582 0.73339087
-0.0053308476 0.021989763 0.73255491
-0.0052666287 0.021066546 0.72964799
-0.005251993 0.020351499 0.72898543
-0.0052437782 0.019664168 0.72861362
-0.0052381172 0.018988222 0.72835732
-0.0052371304 0.018329948 0.72831267
-0.0052364725 0.017673075 0.72828293
-0.0052388781 0.017026395 0.72839177
-0.0052420064 0.016381294 0.72853345
-0.0052468092 0.015740424 0.72875082
-0.0052533783 0.015103519 0.72904819
-0.0052605034 0.014466405 0.72937071
-0.0052707479 0.013835728 0.72983444
-0.0052810325 0.013202578 0.73030001
-0.005295726 0.012577385 0.73096508
-0.0053107548 0.011949241 0.73164535
-0.0053258264 0.011317402 0.7323277
-0.0053370101 0.010674 0.73283392
-0.0053462698 0.010024279 0.733253
-0.0053522531 0.0093664527 0.73352391
-0.0053569805 0.0087051094 0.73373789
-0.0053609195 0.0080414116 0.73391616
-0.0053648851 0.0073767006 0.73409569
-0.0053689005 0.0067111552 0.73427749
-0.0053737657 0.0060455203 0.73449767
-0.0053786612 0.0053786635 0.73471934
-0.0053835441 0.0047106445 0.73494029
-0.0053892196 0.00404194 0.73519719
-0.0053950376 0.0033718646 0.73546064
-0.0054008681 0.0027004778 0.73572457
-0.0054073469 0.0020277798 0.73601776
-0.0054141269 0.0013535619 0.73632473
-0.0054209456 0.00067764521 0.73663342
-0.0054282895 2.9802322e-08 0.73696578
-0.0054360968 -0.00067949295 0.73731923
-0.0054439036 -0.0013610125 0.73767263
-0.0054522236 -0.0020445883 0.73804927
-0.0054610604 -0.0027305186 0.73844922
-0.0054699481 -0.003418684 0.73885155
-0.0054793824 -0.0041095316 0.73927861
-0.0054893689 -0.0048031807 0.7397306
-0.0054993918 -0.0054993927 0.74018437
-0.0055101113 -0.0061988533 0.74066949
-0.0055213291 -0.0069016516 0.74117732
-0.005532593 -0.0076072812 0.74168724
-0.0055448706 -0.0083172917 0.74224299
-0.0055574342 -0.0090308189 0.74281174
-0.0055702641 -0.0097479522 0.74339247
-0.0055842982 -0.010470539 0.74402773
-0.0055983802 -0.011196733 0.74466521
-0.0056134542 -0.011928558 0.74534756
-0.0056291791 -0.012665629 0.74605942
-0.0056453985 -0.013407797 0.74679357
-0.0056629856 -0.014157444 0.74758971
-0.0056806821 -0.014911771 0.74839079
-0.0057004131 -0.015676081 0.74928385
-0.0057202568 -0.016445756 0.75018215
-0.0057424381 -0.017227322 0.75118625
-0.0057651163 -0.018015981 0.75221276
-0.0057904101 -0.018818825 0.75335771
-0.0058172457 -0.019633204 0.75457251
-0.0058463798 -0.020462304 0.75589132
-0.0058711786 -0.021283031 0.75701392
-0.0058870842 -0.022076547 0.75773382
-0.0058981706 -0.022855401 0.75823569
-0.0059064734 -0.02362588 0.75861144
-0.0059150616 -0.024399608 0.7590003
-0.0059254109 -0.025182992 0.75946879
-0.0059389938 -0.025983095 0.76008362
-0.0059574232 -0.026808381 0.76091784
-0.0059825587 -0.027669311 0.76205564
-0.0060310983 -0.028647691 0.76425284
-0.0051886751 0.038544446 0.75967264
-0.0049788002 0.036274165 0.74881506
-0.0049586478 0.035418898 0.74777257
-0.0049689678 0.034782797 0.74830645
-0.0049793525 0.034144133 0.74884367
-0.00498978 0.033502817 0.74938315
-0.0047948733 0.031509161 0.73929995
-0.0047803647 0.030730933 0.73854935
-0.0047681429 0.029971212 0.73791713
-0.0047560222 0.029215574 0.73729008
-0.0047455644 0.028473407 0.73674911
-0.0047372459 0.027746737 0.73631877
-0.0047292244 0.02702418 0.73590374
-0.0047214595 0.026305288 0.73550206
-0.0047150338 0.025595903 0.73516965
-0.0047097271 0.024894297 0.73489511
-0.0047046784 0.024195492 0.73463398
-0.0046997354 0.023498714 0.73437828
-0.0046951808 0.022805184 0.7341426
-0.0046882425 0.0221017 0.73378366
-0.0046654427 0.021327734 0.73260415
-0.0046146568 0.020436347 0.72997683
-0.0046022874 0.019724101 0.72933698
-0.0045964527 0.019042432 0.72903508
-0.0045920233 0.018368125 0.7288059
-0.0045914459 0.017709881 0.72877604
-0.0045909039 0.017051995 0.72874802
-0.0045936494 0.01640591 0.72889006
-0.0045963805 0.015759051 0.72903138
-0.0046011992 0.015118241 0.72928059
-0.0046069911 0.014479131 0.72958028
-0.0046138912 0.013841689 0.72993726
-0.0046228981 0.0132083 0.73040318
-0.0046326201 0.012574285 0.73090613
-0.004645708 0.011946142 0.73158324
-0.0046590939 0.011314958 0.73227572
-0.0046717902 0.010678381 0.73293251
-0.0046809684 0.010030657 0.73340738
-0.0046886378 0.0093773305 0.73380411
-0.0046935761 0.0087166727 0.73405957
-0.0046974099 0.0080527067 0.73425794
-0.0047008712 0.0073871017 0.73443699
-0.0047043562 0.0067205131 0.73461729
-0.0047080745 0.0060532391 0.73480964
-0.0047123502 0.0053855777 0.73503083
-0.0047166529 0.0047166944 0.73525345
-0.0047210208 0.0040466487 0.73547935
-0.0047261231 0.0033758283 0.73574334
-0.004731237 0.0027035475 0.73600793
-0.0047363616 0.002029866 0.73627305
-0.0047422484 0.0013549626 0.73657757
-0.004748208 0.00067836046 0.73688585
-0.0047541829 2.9802322e-08 0.7371949
-0.0047608712 -0.0006801188 0.73754102
-0.0047677145 -0.0013622046 0.73789501
-0.0047745779 -0.0020462275 0.73825008
-0.0047821072 -0.0027326047 0.73863959
-0.0047898963 -0.0034213662 0.73904252
-0.0047977106 -0.0041123033 0.73944676
-0.0048062229 -0.0048061907 0.73988718
-0.0048150043 -0.0055028498 0.74034142
-0.0048238374 -0.0062020421 0.74079841
-0.0048335232 -0.0069050193 0.74129945
-0.0048433887 -0.0076110363 0.7418099
-0.0048533753 -0.0083200634 0.7423265
-0.0048643756 -0.009033829 0.74289554
-0.0048754262 -0.0097508132 0.74346721
-0.0048870384 -0.010472238 0.74406803
-0.0048993845 -0.01119855 0.74470663
-0.0049117724 -0.011928558 0.74534756
-0.004925386 -0.012665272 0.74605191
-0.0049392432 -0.013406515 0.74676871
-0.0049539139 -0.014154047 0.74752766
-0.004969391 -0.014908135 0.74832833
-0.0049854545 -0.015668571 0.74915934
-0.0050028227 -0.016437829 0.75005788
-0.0050208089 -0.017214179 0.75098836
-0.0050404039 -0.018001407 0.75200206
-0.0050610742 -0.018798232 0.75307137
-0.0050833528 -0.019607186 0.75422394
-0.0051078829 -0.020431519 0.75549299
-0.0051333737 -0.021266818 0.75681174
-0.0051522218 -0.022080958 0.75778675
-0.0051648258 -0.022872776 0.75843883
-0.0051734312 -0.023649961 0.75888407
-0.0051807547 -0.02442354 0.75926286
-0.0051883059 -0.025200337 0.75965351
-0.0051987716 -0.025993824 0.76019496
-0.0052108606 -0.026798695 0.76082039
-0.0052288305 -0.027638108 0.76174998
-0.0052543869 -0.028523803 0.76307213
-0.0044542849 0.037861437 0.760086
-0.0042527081 0.035439223 0.74791974
-0.0042600222 0.034790188 0.74836117
-0.0042689079 0.034151286 0.74889755
-0.00427785 0.033509851 0.74943715
-0.0042868298 0.032865703 0.74997914
-0.0041159936 0.030869991 0.73966825
-0.0041039246 0.030095458 0.73893988
-0.004093416 0.029336154 0.73830563
-0.0040829945 0.028580964 0.73767662
-0.0040743337 0.0278413 0.73715389
-0.0040674116 0.02711609 0.73673612
-0.0040604961 0.026393265 0.73631877
-0.0040538837 0.025674582 0.73591965
-0.0040486031 0.024966419 0.73560095
-0.0040441523 0.024264932 0.73533231
-0.0040398096 0.023565561 0.73507023
-0.0040356554 0.022868752 0.73481941
-0.0040316069 0.022173882 0.73457515
-0.0040246672 0.021464914 0.73415631
-0.0039834781 0.020581305 0.73167026
-0.0039612921 0.019806474 0.73033118
-0.0039511099 0.01909706 0.72971666
-0.0039468249 0.018418521 0.72945809
-0.003943745 0.017746866 0.72927213
-0.0039432477 0.0170874 0.72924215
-0.0039433255 0.016430557 0.72924685
-0.0039456887 0.015782744 0.72938955
-0.0039480547 0.015134215 0.7295323
-0.0039527174 0.014493346 0.72981369
-0.0039577042 0.013851941 0.7301147
-0.0039642104 0.013214022 0.73050737
-0.0039719678 0.012577921 0.73097557
-0.0039810534 0.011943161 0.73152393
-0.0039923298 0.01131162 0.73220456
-0.004003895 0.010677069 0.73290253
-0.0040143346 0.010035872 0.73353261
-0.0040218043 0.0093842447 0.73398352
-0.0040277774 0.0087268651 0.73434401
-0.0040319483 0.0080639124 0.73459572
-0.0040350044 0.0073975325 0.73478019
-0.0040380005 0.0067299902 0.73496103
-0.0040409844 0.0060615242 0.7351411
-0.0040443484 0.0053924918 0.73534417
-0.0040480294 0.0047227442 0.73556632
-0.0040517175 0.0040517449 0.73578882
-0.0040556579 0.0033797026 0.7360267
-0.0040600351 0.0027066767 0.73629093
-0.0040644379 0.0020322204 0.73655665
-0.0040689828 0.0013563633 0.73683095
-0.0040741013 0.00067901611 0.73713988
-0.0040792329 2.9802322e-08 0.73744953
-0.0040844274 -0.00068068504 0.73776311
-0.004090304 -0.0013634264 0.73811781
-0.0040962147 -0.0020480752 0.73847449
-0.0041021248 -0.0027347207 0.73883128
-0.0041087945 -0.0034239888 0.73923379
-0.0041155028 -0.0041154623 0.73963869
-0.004122233 -0.0048092306 0.74004483
-0.0041297693 -0.0055063367 0.74049973
-0.004137333 -0.006205976 0.74095619
-0.0041450448 -0.0069083869 0.7414217
-0.0041535092 -0.0076147616 0.74193257
-0.0041620084 -0.0083240271 0.74244553
-0.0041708555 -0.009036839 0.74297941
-0.0041803331 -0.0097540915 0.74355155
-0.004189855 -0.010474622 0.7441262
-0.0042001419 -0.011200368 0.7447471
-0.0042107636 -0.011930496 0.74538821
-0.0042216526 -0.012664914 0.74604535
-0.0042335116 -0.013406098 0.74676114
-0.0042454372 -0.014151424 0.74748087
-0.004258445 -0.014904559 0.74826598
-0.0042717876 -0.015663177 0.74907124
-0.0042860587 -0.016429871 0.74993259
-0.0043010348 -0.017204106 0.75083649
-0.0043170475 -0.017987669 0.75180298
-0.0043339678 -0.018780529 0.75282419
-0.0043523838 -0.019585729 0.75393575
-0.0043716254 -0.020400912 0.75509703
-0.004393544 -0.021235436 0.7564199
-0.0044143978 -0.022071958 0.75767863
-0.0044284826 -0.022880465 0.75852871
-0.0044384212 -0.023671567 0.75912851
-0.0044450653 -0.024447858 0.75952953
-0.0044514914 -0.025225103 0.75991738
-0.0044579958 -0.02600497 0.76030993
-0.0044681872 -0.026809096 0.76092505
-0.0044802297 -0.027628064 0.76165187
-0.00449595 -0.028474301 0.76260072
-0.0045233238 -0.0294016 0.7642529
-0.0037370047 0.038117468 0.76190394
-0.0037178616 0.037178636 0.76051748
-0.0035507588 0.03479746 0.74841481
-0.0035581673 0.034158409 0.74895138
-0.0035656218 0.033516824 0.74949133
-0.003573108 0.032872587 0.7500335
-0.0036369518 0.032732606 0.75465751
-0.0034350951 0.030228853 0.74003774
-0.0034253316 0.029457867 0.73933059
-0.0034165466 0.028698981 0.73869437
-0.0034078485 0.027944386 0.73806429
-0.0034010659 0.027208537 0.73757315
-0.003395278 0.026483178 0.73715383
-0.0033894957 0.025760174 0.73673511
-0.0033840903 0.025042266 0.73634362
-0.0033798246 0.024334759 0.73603469
-0.0033761847 0.023633301 0.735771
-0.003372553 0.022933364 0.73550802
-0.0033691605 0.022236496 0.73526233
-0.0033656522 0.021540195 0.73500818
-0.003358617 0.020823419 0.73449874
-0.003319684 0.019918114 0.73167884
-0.0033059709 0.019174665 0.73068571
-0.0032984652 0.01847142 0.73014212
-0.0032948814 0.017792404 0.72988248
-0.0032929038 0.017123133 0.72973937
-0.0032924877 0.016462445 0.72970921
-0.0032930337 0.015806586 0.72974873
-0.0032950114 0.015157074 0.72989196
-0.0032971743 0.014507592 0.73004866
-0.003301325 0.01386556 0.73034918
-0.0033054992 0.013221979 0.73065156
-0.0033114057 0.012583375 0.73107934
-0.0033179012 0.011944473 0.73154974
-0.0033261189 0.011308819 0.73214495
-0.0033355649 0.010673821 0.73282903
-0.0033452117 0.010035634 0.73352778
-0.0033534176 0.0093896091 0.73412216
-0.0033594696 0.0087346435 0.73456043
-0.0033639416 0.0080734491 0.73488432
-0.0033672419 0.0074079633 0.73512334
-0.0033697593 0.006739527 0.73530567
-0.0033722529 0.0060701072 0.73548627
-0.0033747505 0.0053996146 0.73566711
-0.0033776893 0.0047287643 0.73588002
-0.0033807838 0.0040569603 0.73610413
-0.0033838702 0.0033839047 0.73632765
-0.0033872928 0.0027098656 0.73657554
-0.0033909704 0.0020346344 0.73684192
-0.0033946561 0.0013578534 0.73710883
-0.0033985991 0.00067973137 0.73739445
-0.0034028701 -0 0.7377038
-0.0034071801 -0.0006814301 0.73801595
-0.0034116684 -0.0013646483 0.73834103
-0.0034166027 -0.0020499527 0.73869836
-0.0034215369 -0.0027371943 0.73905575
-0.0034266405 -0.0034266412 0.73942536
-0.0034322392 -0.004118681 0.73983085
-0.0034378564 -0.0048130155 0.74023771
-0.0034436632 -0.0055098534 0.74065828
-0.0034499741 -0.0062099099 0.74111539
-0.0034563085 -0.0069126189 0.74157411
-0.0034629395 -0.0076184273 0.7420544
-0.003470029 -0.0083280802 0.74256784
-0.0034771475 -0.0090405643 0.74308336
-0.0034847758 -0.00975734 0.74363589
-0.0034927153 -0.010478139 0.74421096
-0.0035006916 -0.011202216 0.74478865
-0.0035095308 -0.011932403 0.7454288
-0.0035184447 -0.012666404 0.74607444
-0.0035278217 -0.01340571 0.74675357
-0.0035377594 -0.014151007 0.7474733
-0.0035478587 -0.014900982 0.74820477
-0.0035589719 -0.015659481 0.74900967
-0.0035701403 -0.016422629 0.74981856
-0.0035824557 -0.017195761 0.75071049
-0.0035950115 -0.017975062 0.75161988
-0.0036088577 -0.018766075 0.75262272
-0.0036230474 -0.01956445 0.75365043
-0.0036389991 -0.020378351 0.75480574
-0.0036557494 -0.021203309 0.75601894
-0.0036741591 -0.022044957 0.75735229
-0.0036903697 -0.022880286 0.75852633
-0.0037006703 -0.023684263 0.7592724
-0.0037079595 -0.024472535 0.75980031
-0.0037132101 -0.025249809 0.76018059
-0.0037186577 -0.02603057 0.76057506
-0.003725036 -0.026820272 0.76103711
-0.0037336249 -0.027628809 0.76165915
-0.0037450772 -0.028462529 0.76248854
-0.0037606992 -0.029333442 0.76362002
-0.0037907001 -0.030325562 0.76579285
-0.0029922856 0.037403584 0.76214677
-0.0029790576 0.03649345 0.76094913
-0.0028471411 0.03416571 0.74900639
-0.0028530953 0.033523887 0.74954545
-0.0028590867 0.032879531 0.7500878
-0.0028651033 0.032232404 0.75063252
-0.0029274612 0.032202095 0.75627804
-0.0027521686 0.029585809 0.74040824
-0.0027445941 0.02881825 0.73972243
-0.002737544 0.02805984 0.73908424
-0.0027308096 0.027308077 0.73847449
-0.0027254992 0.026573628 0.73799372
-0.0027208528 0.02584812 0.73757315
-0.0027162556 0.025125384 0.73715693
-0.0027120817 0.024408728 0.73677897
-0.002708745 0.023701549 0.73647702
-0.0027058118 0.022999406 0.73621142
-0.0027028958 0.022298902 0.73594743
-0.0027002373 0.021601886 0.73570669
-0.0026973335 0.020904362 0.73544383
-0.0026905562 0.020179182 0.73483026
-0.0026580116 0.019270599 0.73188388
-0.0026487145 0.018541008 0.73104215
-0.0026434876 0.017843604 0.73056901
-0.0026406103 0.017163962 0.73030853
-0.0026395135 0.016496986 0.73020911
-0.0026391794 0.015835077 0.73017895
-0.0026399835 0.015179902 0.73025179
-0.0026415724 0.014528662 0.73039562
-0.0026436553 0.01387918 0.7305842
-0.0026470015 0.013235033 0.73088712
-0.0026503452 0.012589157 0.73118985
-0.0026554829 0.011949718 0.731655
-0.0026607041 0.011308014 0.73212767
-0.00266779 0.010671169 0.73276913
-0.0026753859 0.010032713 0.73345685
-0.0026831008 0.0093908906 0.7341553
-0.0026891355 0.0087397099 0.73470163
-0.0026939677 0.008081913 0.73513913
-0.0026971372 0.0074171424 0.73542607
-0.0026996147 0.0067490637 0.73565036
-0.0027016262 0.0060786903 0.73583251
-0.0027036297 0.0054073036 0.73601389
-0.0027056471 0.0047348738 0.73619652
-0.0027081075 0.0040621758 0.73641926
-0.0027105941 0.0033882558 0.73664433
-0.0027130742 0.0027130842 0.73686886
-0.002715935 0.0020369589 0.73712778
-0.0027188901 0.0013594627 0.73739547
-0.0027218519 0.00068047643 0.73766357
-0.0027251206 2.9802322e-08 0.7379595
-0.0027285647 -0.00068211555 0.73827124
-0.0027320285 -0.0013659894 0.73858488
-0.0027357591 -0.0020517707 0.7389226
-0.0027397252 -0.0027396977 0.73928165
-0.002743691 -0.0034296215 0.73964071
-0.0027479178 -0.00412184 0.74002337
-0.0027524184 -0.0048166811 0.74043083
-0.0027569227 -0.0055138171 0.74083865
-0.0027617388 -0.0062138736 0.7412746
-0.0027668129 -0.0069170296 0.74173397
-0.0027719054 -0.0076227188 0.74219501
-0.0027773869 -0.0083321631 0.74269128
-0.0027830871 -0.0090450346 0.7432074
-0.0027888112 -0.009760797 0.74372554
-0.0027950972 -0.010481566 0.74429464
-0.002801494 -0.011205971 0.74487382
-0.0028080738 -0.01193434 0.74546945
-0.0028152072 -0.012668431 0.74611533
-0.002822377 -0.013406277 0.7467643
-0.0028301233 -0.01415062 0.74746567
-0.0028381299 -0.014900148 0.74819052
-0.0028464855 -0.015655667 0.74894702
-0.0028554278 -0.016418695 0.74975657
-0.0028645862 -0.017187476 0.75058568
-0.0028746214 -0.01796633 0.75149423
-0.0028848764 -0.018751681 0.75242263
-0.0028961981 -0.01954934 0.75344759
-0.0029079888 -0.02035591 0.75451505
-0.0029208735 -0.021176338 0.75568157
-0.0029348661 -0.022011459 0.75694841
-0.002949659 -0.022859842 0.75828761
-0.0029611145 -0.023688912 0.75932473
-0.0029685325 -0.024490386 0.75999629
-0.0029736399 -0.025275886 0.76045871
-0.0029778474 -0.026056141 0.76083958
-0.0029822269 -0.026840031 0.76123607
-0.0029881308 -0.027640194 0.76177061
-0.0029950396 -0.028452873 0.76239604
-0.0030053607 -0.029302269 0.76333052
-0.0030199036 -0.030199051 0.76464713
-0.0022462292 0.036688447 0.76238996
-0.0022380608 0.03580901 0.76140392
-0.0021402698 0.033530921 0.74959958
-0.0021447653 0.032886416 0.75014216
-0.0021492797 0.032239199 0.75068712
-0.0021538129 0.03158927 0.75123435
-0.0020740086 0.029727459 0.74160111
-0.002067205 0.028940856 0.74077988
-0.0020617025 0.028176636 0.74011558
-0.0020564068 0.027418762 0.73947638
-0.0020515081 0.026669651 0.73888505
-0.0020476212 0.025936574 0.73841584
-0.0020441243 0.025210887 0.73799378
-0.002040698 0.024488389 0.73758012
-0.0020376812 0.023772955 0.737216
-0.0020352278 0.023065925 0.73691988
-0.0020330283 0.022363305 0.7366544
-0.0020308332 0.021662265 0.7363894
-0.0020288732 0.02096504 0.73615283
-0.0020263919 0.02026394 0.73585325
-0.0020199374 0.019526094 0.7350741
-0.0019954883 0.018624544 0.7321229
-0.0019894978 0.017905504 0.73139971
-0.0019861651 0.017213434 0.73099744
-0.0019839995 0.016533345 0.73073596
-0.0019835355 0.015868276 0.73068005
-0.0019832838 0.015205204 0.73064965
-0.0019841804 0.014550656 0.73075789
-0.0019853693 0.013897598 0.73090136
-0.0019872065 0.013248086 0.73112315
-0.0019897274 0.012601644 0.73142743
-0.0019924846 0.011954933 0.73176026
-0.0019963959 0.011312932 0.73223245
-0.0020003386 0.010668516 0.73270833
-0.0020060407 0.01003021 0.73339665
-0.0020118158 0.0093884766 0.73409379
-0.0020175348 0.0087426603 0.73478407
-0.0020216841 0.008086741 0.73528492
-0.0020251288 0.0074255168 0.73570073
-0.0020273689 0.006757915 0.73597115
-0.0020290955 0.006087333 0.73617959
-0.0020306024 0.0054149628 0.7363615
-0.00203212 0.0047416091 0.73654473
-0.0020337058 0.004067421 0.73673606
-0.0020355673 0.0033926368 0.73696077
-0.0020374407 0.0027166009 0.73718697
-0.0020393254 0.0020393133 0.73741448
-0.0020415389 0.0013610125 0.73768169
-0.0020437655 0.00068125129 0.73795038
-0.0020459967 -0 0.7382198
-0.0020485516 -0.00068283081 0.73852813
-0.0020511465 -0.00136742 0.73884135
-0.0020537565 -0.0020537376 0.73915642
-0.002056652 -0.0027421713 0.73950595
-0.0020596404 -0.0034327209 0.73986667
-0.002062629 -0.0041252673 0.74022746
-0.0020659163 -0.004820466 0.74062431
-0.0020692998 -0.0055181384 0.74103266
-0.0020727029 -0.0062180459 0.74144346
-0.0020764356 -0.0069214702 0.74189407
-0.0020802603 -0.0076276064 0.7423557
-0.0020840985 -0.0083363652 0.74281907
-0.0020883435 -0.0090494752 0.74333149
-0.0020926406 -0.0097656548 0.74385017
-0.0020970257 -0.010485113 0.74437946
-0.0021018179 -0.011209667 0.74495792
-0.0021066405 -0.011937618 0.74554008
-0.0021117439 -0.012670457 0.74615616
-0.002117123 -0.013408422 0.74680549
-0.0021225386 -0.014150232 0.74745917
-0.002128534 -0.014899701 0.74818283
-0.0021345634 -0.015653431 0.74891067
-0.0021410484 -0.016414702 0.74969351
-0.0021477942 -0.01718235 0.75050783
-0.0021549168 -0.017957628 0.75136757
-0.0021624884 -0.018741548 0.75228155
-0.0021704806 -0.01953432 0.75324631
-0.002179035 -0.020337671 0.75427896
-0.0021882311 -0.021152854 0.75538898
-0.002197959 -0.021979541 0.75656325
-0.0022089139 -0.02282542 0.75788558
-0.0022196635 -0.023676395 0.75918317
-0.0022270533 -0.024497569 0.76007521
-0.00223218 -0.025298029 0.76069409
-0.0022356408 -0.026082456 0.7611118
-0.002238872 -0.026866436 0.76150185
-0.0022421726 -0.027653426 0.76190031
-0.0022472178 -0.028464735 0.76250929
-0.0022531985 -0.02929157 0.76323122
-0.0022610486 -0.030147314 0.76417887
-0.0022744096 -0.031083554 0.76579165
-0.0014988991 0.035973579 0.76264584
-0.0014946143 0.035123438 0.76187003
-0.0014301441 0.03289336 0.75019652
-0.0014331548 0.032245994 0.75074172
-0.0014361781 0.031595945 0.75128913
-0.0014392145 0.030943125 0.75183892
-0.0013846812 0.029078364 0.74196482
-0.0013802181 0.028294444 0.7411567
-0.0013766523 0.027533084 0.740511
-0.0013731106 0.026775688 0.73986977
-0.0013699469 0.026029021 0.73929691
-0.0013674198 0.025297284 0.73883933
-0.0013650807 0.024571478 0.73841584
-0.0013628108 0.023849189 0.7380048
-0.001360876 0.023134917 0.73765451
-0.0013592733 0.022428036 0.73736435
-0.0013578016 0.02172482 0.73709786
-0.0013563606 0.021023631 0.73683691
-0.0013550548 0.02032584 0.73660052
-0.0013531419 0.019620568 0.73625416
-0.0013474844 0.01886481 0.73522973
-0.0013319191 0.017980933 0.73241138
-0.0013283126 0.017268062 0.73175836
-0.0013264848 0.016581088 0.73142743
-0.0013251358 0.015901655 0.73118317
-0.0013249674 0.015237153 0.73115271
-0.0013248043 0.014572859 0.73112315
-0.0013255888 0.013918728 0.73126519
-0.0013263898 0.013263911 0.73141021
-0.0013277944 0.012614071 0.73166454
-0.0013294772 0.011965305 0.73196924
-0.001331515 0.011317909 0.73233819
-0.0013341404 0.010673136 0.7328136
-0.0013370228 0.010027647 0.73333549
-0.001340844 0.0093859136 0.73402745
-0.0013447575 0.0087409317 0.73473603
-0.0013483887 0.0080903471 0.73539346
-0.001351021 0.0074306428 0.73587006
-0.0013531639 0.0067658126 0.73625809
-0.001354598 0.0060957372 0.73651779
-0.0013556606 0.0054226518 0.73671019
-0.0013566695 0.0047483444 0.73689282
-0.0013576855 0.0040730536 0.73707682
-0.0013588027 0.0033969879 0.73727912
-0.0013600492 0.0027201474 0.73750484
-0.0013613036 0.0020419657 0.73773193
-0.001362616 0.0013626218 0.73796952
-0.0013641038 0.00068208575 0.73823893
-0.0013655948 -0 0.73850894
-0.0013671227 -0.00068354607 0.73878556
-0.0013688563 -0.0013688207 0.7390995
-0.0013705941 -0.0020558536 0.73941416
-0.0013723478 -0.0027446747 0.73973167
-0.0013743439 -0.0034358203 0.74009305
-0.0013763399 -0.0041289926 0.74045444
-0.0013783474 -0.0048241913 0.74081802
-0.0013806066 -0.0055224299 0.74122703
-0.0013828787 -0.0062229037 0.74163848
-0.00138517 -0.0069258511 0.74205327
-0.0013877228 -0.0076324344 0.7425155
-0.0013902851 -0.00834167 0.74297953
-0.0013929149 -0.0090539455 0.74345565
-0.0013957826 -0.009770453 0.74397486
-0.001398662 -0.01048997 0.74449623
-0.0014016828 -0.011213452 0.74504328
-0.0014048943 -0.011941612 0.74562478
-0.0014081264 -0.01267314 0.74621004
-0.0014116423 -0.013410598 0.74684656
-0.0014152479 -0.014152467 0.74749941
-0.0014189803 -0.014899284 0.7481752
-0.0014229998 -0.015652984 0.74890304
-0.0014270421 -0.016410977 0.74963498
-0.0014315188 -0.017178178 0.75044549
-0.001436036 -0.017950445 0.7512635
-0.0014409553 -0.018732429 0.75215417
-0.0014460337 -0.019521415 0.75307363
-0.0014515648 -0.020321906 0.75407523
-0.0014573039 -0.021130919 0.75511432
-0.0014636791 -0.021955162 0.75626868
-0.0014703698 -0.02279073 0.75748008
-0.001477822 -0.023645133 0.75882947
-0.0014845503 -0.024495065 0.76004773
-0.001488864 -0.025310695 0.76082879
-0.0014919337 -0.026108801 0.76138461
-0.0014940588 -0.02689302 0.76176941
-0.0014962568 -0.027680755 0.76216739
-0.0014987711 -0.028476626 0.76262265
-0.0015022473 -0.029293805 0.76325208
-0.0015068074 -0.030136168 0.76407772
-0.0015130133 -0.031016737 0.76520139
-0.001524882 -0.032022506 0.76735044
-0.00075053883 0.03527537 0.7630403
-0.00074859854 0.03443557 0.76233757
-0.00071672827 0.032252789 0.75079632
-0.00071824063 0.031602591 0.75134408
-0.00071975944 0.030949682 0.75189406
-0.0007212846 0.030293971 0.75244641
-0.00069336814 0.028428108 0.74233699
-0.00069120724 0.0276483 0.74155438
-0.0006894187 0.026887327 0.74090672
-0.00068764505 0.026130527 0.74026442
-0.00068611745 0.025386363 0.73971117
-0.00068488624 0.024655908 0.73926532
-0.00068370992 0.023929864 0.73883939
-0.00068258226 0.023207784 0.73843098
-0.00068165327 0.022494584 0.73809463
-0.00068086857 0.021787792 0.73781037
-0.00068012998 0.021084011 0.73754299
-0.00067942071 0.020382643 0.73728609
-0.00067874609 0.019683659 0.73704183
-0.00067765679 0.018974423 0.73664731
-0.0006718181 0.018139064 0.73453301
-0.00066695554 0.017340809 0.73277211
-0.00066516013 0.01662904 0.73212188
-0.00066443137 0.015946358 0.73185802
-0.00066388131 0.015269279 0.73165876
-0.00066379673 0.014603555 0.73162818
-0.00066379941 0.013939828 0.73162913
-0.00066420384 0.013284117 0.73177558
-0.00066460349 0.012627453 0.7319203
-0.0006653989 0.011977196 0.73220837
-0.00066624419 0.011326134 0.7325145
-0.00066736387 0.010677814 0.73291999
-0.00066868291 0.010030299 0.7333976
-0.00067025225 0.0093835592 0.73396593
-0.00067217281 0.0087382793 0.73466146
-0.00067413982 0.0080896914 0.73537368
-0.00067588553 0.0074347556 0.7360059
-0.00067712856 0.0067712963 0.73645604
-0.00067810033 0.0061029196 0.73680794
-0.00067878747 0.005430311 0.73705685
-0.00067930174 0.0047551394 0.73724306
-0.00067981117 0.0040788949 0.73742753
-0.00068031868 0.0034016073 0.73761129
-0.00068090745 0.002723664 0.73782456
-0.00068153348 0.0020446181 0.73805124
-0.00068216067 0.0013643503 0.73827833
-0.00068285048 0.00068289042 0.73852813
-0.00068359781 -0 0.73879886
-0.00068434671 -0.00068435073 0.73906994
-0.00068514229 -0.001370281 0.73935807
-0.00068601308 -0.0020580292 0.73967338
-0.00068688608 -0.0027475357 0.73998952
-0.00068779819 -0.0034389794 0.74031985
-0.00068880088 -0.0041327775 0.74068296
-0.00068980362 -0.0048286021 0.74104613
-0.00069084368 -0.0055267215 0.74142271
-0.00069197867 -0.0062277615 0.74183375
-0.00069312035 -0.0069311857 0.74224722
-0.00069430622 -0.0076373219 0.74267662
-0.000695589 -0.0083470345 0.74314117
-0.00069687655 -0.0090593696 0.7436074
-0.00069823308 -0.0097752512 0.74409866
-0.00069967424 -0.010495096 0.74462056
-0.00070112135 -0.011217922 0.74514461
-0.00070268393 -0.011945605 0.74571049
-0.00070429809 -0.012677342 0.74629498
-0.00070593465 -0.013412744 0.74688768
-0.00070773799 -0.014154762 0.74754071
-0.0007095476 -0.014900476 0.74819601
-0.00071147858 -0.015652508 0.74889529
-0.00071349967 -0.01641047 0.74962717
-0.00071558432 -0.017174006 0.75038213
-0.00071784493 -0.017946124 0.75120074
-0.00072012923 -0.018723339 0.75202799
-0.00072266284 -0.019511908 0.75294554
-0.00072522386 -0.020306289 0.75387287
-0.00072808575 -0.021114498 0.75490934
-0.00073103129 -0.021930963 0.75597596
-0.0007342851 -0.022762835 0.75715429
-0.00073778338 -0.023609042 0.75842106
-0.00074153586 -0.024470657 0.75978005
-0.00074454496 -0.02531454 0.76086968
-0.0007464877 -0.02612707 0.76157326
-0.00074780977 -0.026921153 0.762052
-0.00074887078 -0.027708203 0.76243627
-0.00074997527 -0.028499037 0.76283616
-0.00075143838 -0.029306084 0.76336604
-0.00075318594 -0.030127406 0.76399887
-0.00075575593 -0.030985981 0.76492953
-0.00075937924 -0.031893909 0.76624167
0 0.034575224 0.76343709
0 0.032426387 0.75219363
0 0.031609267 0.75139892
0 0.030956209 0.75194919
0 0.030300409 0.75250173
0 0.029641777 0.75305665
0 0.02777642 0.74271435
0 0.02700007 0.74195337
0 0.026239574 0.74130362
0 0.02548334 0.74066031
0 0.024741471 0.74012589
0 0.024012238 0.73969185
0 0.023286045 0.73926437
0 0.022564203 0.7388587
0 0.021851987 0.73853624
0 0.021145284 0.73825818
0 0.020440906 0.73798972
0 0.019739389 0.73773795
0 0.019039094 0.73748374
0 0.018323988 0.73701286
0 0.017450154 0.73429406
0 0.016698956 0.73313481
0 0.015992612 0.73255587
0 0.015309423 0.7322911
0 0.014634371 0.7321353
0 0.013967425 0.73210555
0 0.013304293 0.73214108
0 0.012646735 0.73228729
0 0.011989087 0.73244703
0 0.011337429 0.73275375
