# .PCD v0.7 - Point Cloud Data file format
VERSION 0.7
FIELDS x y z
SIZE 4 4 4
TYPE F F F
COUNT 1 1 1
WIDTH 1344
HEIGHT 1
VIEWPOINT 0 0 0 1 0 0 0
POINTS 1344
DATA ascii
0.015821835 -0.027123123 0.76408392
0.015869508 -0.027960539 0.76490593
0.015998755 -0.028950125 0.76713479
0.016626328 0.027962446 0.76492459
0.016578177 0.027127951 0.76413196
0.016549539 0.026328832 0.76366061
0.016519662 0.025530428 0.76316881
0.016449159 0.02467373 0.76200831
0.016258636 0.023648947 0.75887215
0.016126867 0.022724271 0.75670314
0.016028453 0.021856993 0.7550832
0.015946534 0.021020442 0.75373483
0.015877049 0.020207137 0.75259101
0.01581662 0.019411355 0.75159627
0.015761994 0.018627882 0.75069708
0.015711846 0.017854393 0.74987173
0.015668638 0.017093092 0.74916047
0.015627665 0.016338021 0.74848604
0.015590679 0.015590698 0.74787718
0.01555677 0.014849693 0.74731904
0.015525109 0.014113754 0.74679792
0.015496586 0.013383448 0.74632841
0.015469605 0.012656957 0.74588424
0.015445447 0.011935115 0.74548662
0.01542266 0.011216521 0.74511153
0.015402008 0.010501385 0.7447716
0.01538296 0.0097891688 0.74445808
0.01536531 0.0090794861 0.74416757
0.015349754 0.0083726048 0.74391145
0.015334615 0.0076673329 0.7436623
0.015322321 0.0069647133 0.74345988
0.015310109 0.0062632263 0.74325883
0.015294601 0.0055616796 0.74300367
0.015265903 0.0048573613 0.74253124
0.015210217 0.0041482747 0.74161452
0.015138427 0.0034405589 0.74043292
0.015098062 0.0027451515 0.73976851
0.015071334 0.0020552278 0.7393285
0.015051675 0.0013683438 0.73900491
0.01504211 0.00068372488 0.73884749
0.015038288 2.9802322e-08 0.73878455
0.015040138 -0.00068363547 0.73881495
0.015050502 -0.0013681948 0.7389856
0.0150649 -0.0020543039 0.73922265
0.015092474 -0.0027440488 0.73967648
0.015129313 -0.0034384429 0.74028289
0.015195792 -0.004144311 0.74137717
0.01526 -0.004855454 0.74243402
0.015291669 -0.0055606067 0.74295539
0.015308064 -0.0062623918 0.74322522
0.015320337 -0.0069637895 0.74342728
0.01533359 -0.0076668262 0.74364543
0.015347186 -0.0083712041 0.74386925
0.015362543 -0.0090778172 0.74412197
0.015380251 -0.0097874105 0.7444135
0.015399681 -0.010499746 0.74473327
0.015419678 -0.011214286 0.74506241
0.015441546 -0.011932105 0.74542236
0.015466409 -0.012654305 0.74583173
0.015493773 -0.013380975 0.7462821
0.015521235 -0.014110208 0.74673408
0.015551824 -0.014844894 0.74723762
0.017393582 -0.017393559 0.77755398
0.017378999 -0.018168956 0.77731395
0.017387729 -0.018968403 0.77745765
0.017391851 -0.01976347 0.77752554
0.016841374 -0.019903451 0.76846433
0.016070362 -0.01972267 0.75577307
0.016023554 -0.02039358 0.75500256
0.015976947 -0.021060497 0.75423539
0.016021803 -0.021847904 0.75497377
0.016117729 -0.022711307 0.7565527
0.016247189 -0.023632258 0.75868368
0.016440906 -0.024661332 0.76187241
0.016517505 -0.02552706 0.76313329
0.016547821 -0.02632606 0.7636323
0.016575256 -0.027123123 0.76408392
0.016625198 -0.027960539 0.76490593
0.016760601 -0.028950125 0.76713479
0.01738207 0.027962446 0.76492459
0.017331731 0.027127951 0.76413196
0.01730179 0.026328832 0.76366061
0.017270556 0.025530428 0.76316881
0.017196773 0.024673641 0.76200706
0.016997663 0.023648947 0.75887215
0.016859906 0.022724271 0.75670314
0.016757019 0.021856993 0.7550832
0.016671376 0.021020442 0.75373483
0.016598735 0.020207137 0.75259101
0.016535556 0.019411355 0.75159627
0.016478447 0.018627882 0.75069708
0.016426021 0.017854393 0.74987173
0.016380848 0.017093092 0.74916047
0.016338013 0.016338021 0.74848604
0.016299346 0.015590698 0.74787718
0.016263895 0.014849693 0.74731904
0.016230796 0.014113754 0.74679792
0.016200978 0.013383448 0.74632841
0.016172769 0.012656957 0.74588424
0.016147511 0.011935115 0.74548662
0.016123688 0.011216521 0.74511153
0.0161021 0.010501385 0.7447716
0.016082184 0.0097891688 0.74445808
0.016063733 0.0090794861 0.74416757
0.01604747 0.0083726048 0.74391145
0.016031643 0.0076673329 0.7436623
0.016018789 0.0069647133 0.74345988
0.016006025 0.0062632263 0.74325883
0.015989812 0.0055616796 0.74300367
0.015959809 0.0048573613 0.74253124
0.01590159 0.0041482747 0.74161452
0.015826536 0.0034405589 0.74043292
0.015784338 0.0027451515 0.73976851
0.015756395 0.0020552278 0.7393285
0.015735842 0.0013683438 0.73900491
0.015725844 0.00068372488 0.73884749
0.015721846 2.9802322e-08 0.73878455
0.01572378 -0.00068363547 0.73881495
0.015734615 -0.0013681948 0.7389856
0.015749667 -0.0020543039 0.73922265
0.015778495 -0.0027440488 0.73967648
0.015817011 -0.0034384429 0.74028289
0.015886508 -0.004144311 0.74137717
0.015953636 -0.004855454 0.74243402
0.015986746 -0.0055606067 0.74295539
0.016003886 -0.0062623918 0.74322522
0.016016716 -0.0069637895 0.74342728
0.016030572 -0.0076668262 0.74364543
0.016044786 -0.0083712041 0.74386925
0.01606084 -0.0090778172 0.74412197
0.016079355 -0.0097874105 0.7444135
0.016099667 -0.010499746 0.74473327
0.016120641 -0.011214346 0.74506354
0.016143436 -0.011932105 0.74542236
0.016169429 -0.012654305 0.74583173
0.016198035 -0.013380975 0.7462821
0.016226746 -0.014110208 0.74673408
0.016258726 -0.014844894 0.74723762
0.0181842 -0.017393559 0.77755398
0.018168954 -0.018168956 0.77731395
0.018178081 -0.018968403 0.77745765
0.018182389 -0.01976347 0.77752554
0.017606892 -0.019903451 0.76846433
0.016800832 -0.01972267 0.75577307
0.016751897 -0.02039358 0.75500256
0.016703172 -0.021060497 0.75423539
0.016750067 -0.021847904 0.75497377
0.016850352 -0.022711307 0.7565527
0.016985772 -0.023632348 0.75868487
0.017188217 -0.024661332 0.76187241
0.017268302 -0.02552706 0.76313329
0.017299997 -0.02632606 0.7636323
0.017328678 -0.027123123 0.76408392
0.01738089 -0.027960539 0.76490593
0.017522445 -0.028950125 0.76713479
0.018137813 0.027962446 0.76492459
0.018085284 0.027127951 0.76413196
0.018054042 0.026328832 0.76366061
0.018021449 0.025530428 0.76316881
0.017944457 0.024673641 0.76200706
0.017736692 0.023648947 0.75887215
0.017592944 0.022724271 0.75670314
0.017485583 0.021856993 0.7550832
0.017396219 0.021020442 0.75373483
0.017320419 0.020207137 0.75259101
0.017254492 0.019411355 0.75159627
0.017194901 0.018627882 0.75069708
0.017140197 0.017854393 0.74987173
0.017093061 0.017093092 0.74916047
0.017048361 0.016338021 0.74848604
0.017008012 0.015590698 0.74787718
0.016971022 0.014849693 0.74731904
0.016936483 0.014113754 0.74679792
0.016905367 0.013383448 0.74632841
0.016875932 0.012656957 0.74588424
0.016849577 0.011935115 0.74548662
0.016824719 0.011216521 0.74511153
0.01680219 0.010501385 0.7447716
0.01678141 0.0097891688 0.74445808
0.016762156 0.0090794861 0.74416757
0.016745185 0.0083726048 0.74391145
0.016728671 0.0076673329 0.7436623
0.016715258 0.0069647133 0.74345988
0.016701939 0.0062632263 0.74325883
0.01668502 0.0055616796 0.74300367
0.016653713 0.0048573613 0.74253124
0.016592963 0.0041482747 0.74161452
0.016514648 0.0034405589 0.74043292
0.016470613 0.0027451515 0.73976851
0.016441457 0.0020552278 0.7393285
0.016420009 0.0013683438 0.73900491
0.016409576 0.00068372488 0.73884749
0.016405405 2.9802322e-08 0.73878455
0.016407423 -0.00068363547 0.73881495
0.016418729 -0.0013681948 0.7389856
0.016434437 -0.0020543039 0.73922265
0.016464517 -0.0027440488 0.73967648
0.016504705 -0.0034384429 0.74028289
0.016577227 -0.004144311 0.74137717
0.016647272 -0.004855454 0.74243402
0.016681822 -0.0055606067 0.74295539
0.016699707 -0.0062623918 0.74322522
0.016713094 -0.0069637895 0.74342728
0.016727554 -0.0076668262 0.74364543
0.016742455 -0.0083712339 0.74387026
0.016759139 -0.0090778172 0.74412197
0.016778456 -0.0097874105 0.7444135
0.016799722 -0.010499805 0.74473441
0.016821537 -0.011214346 0.74506354
0.016845323 -0.011932105 0.74542236
0.016872447 -0.012654305 0.74583173
0.0169023 -0.013380975 0.7462821
0.016932327 -0.014110267 0.74673522
0.016965626 -0.014844894 0.74723762
0.018974816 -0.017393559 0.77755398
0.018958909 -0.018168956 0.77731395
0.018968433 -0.018968403 0.77745765
0.018972928 -0.01976347 0.77752554
0.018372409 -0.019903451 0.76846433
0.017531304 -0.01972267 0.75577307
0.017480239 -0.02039358 0.75500256
0.017429397 -0.021060497 0.75423539
0.017478256 -0.021847814 0.7549727
0.017582977 -0.022711307 0.7565527
0.017724285 -0.023632348 0.75868487
0.017935533 -0.024661332 0.76187241
0.018019095 -0.02552706 0.76313329
0.01805217 -0.02632606 0.7636323
0.018082097 -0.027123123 0.76408392
0.01813658 -0.027960539 0.76490593
0.018284291 -0.028950125 0.76713479
0.018893555 0.027962446 0.76492459
0.018838838 0.027127951 0.76413196
0.018806294 0.026328832 0.76366061
0.018772341 0.025530428 0.76316881
0.018692059 0.024673551 0.76200587
0.018475723 0.023648947 0.75887215
0.018325984 0.022724271 0.75670314
0.018214151 0.021856993 0.7550832
0.018121062 0.021020442 0.75373483
0.018042102 0.020207137 0.75259101
0.01797343 0.019411355 0.75159627
0.017911356 0.018627882 0.75069708
0.01785437 0.017854393 0.74987173
0.017805271 0.017093092 0.74916047
0.01775871 0.016338021 0.74848604
0.01771668 0.015590698 0.74787718
0.017678147 0.014849693 0.74731904
0.017642168 0.014113754 0.74679792
0.017609758 0.013383448 0.74632841
0.017579097 0.012656957 0.74588424
0.017551644 0.011935115 0.74548662
0.017525749 0.011216521 0.74511153
0.017502282 0.010501385 0.7447716
0.017480636 0.0097891688 0.74445808
0.017460579 0.0090794861 0.74416757
0.017442903 0.0083726048 0.74391145
0.017425699 0.0076673329 0.7436623
0.017411727 0.0069647133 0.74345988
0.017397853 0.0062632263 0.74325883
0.01738023 0.0055616796 0.74300367
0.017347617 0.0048573613 0.74253124
0.017284337 0.0041482747 0.74161452
0.017202757 0.0034405589 0.74043292
0.01715689 0.0027451515 0.73976851
0.017126517 0.0020552278 0.7393285
0.017104175 0.0013683438 0.73900491
0.017093306 0.00068372488 0.73884749
0.017088965 2.9802322e-08 0.73878455
0.017091066 -0.00068363547 0.73881495
0.017102843 -0.0013681948 0.7389856
0.017119205 -0.0020543039 0.73922265
0.017150538 -0.0027440488 0.73967648
0.017192401 -0.0034384429 0.74028289
0.017267944 -0.004144311 0.74137717
0.017340908 -0.004855454 0.74243402
0.017376898 -0.0055606067 0.74295539
0.017395528 -0.0062623918 0.74322522
0.017409474 -0.0069637895 0.74342728
0.017424608 -0.0076668262 0.74364638
0.017440058 -0.0083712339 0.74387026
0.017457435 -0.0090778172 0.74412197
0.017477559 -0.0097874105 0.7444135
0.017499711 -0.010499805 0.74473441
0.017522436 -0.011214346 0.74506354
0.017547213 -0.011932105 0.74542236
0.017575465 -0.012654305 0.74583173
0.017606562 -0.013380975 0.7462821
0.017637841 -0.014110267 0.74673522
0.017672528 -0.014844894 0.74723762
0.019765433 -0.017393559 0.77755398
0.019748865 -0.018168956 0.77731395
0.019758783 -0.018968403 0.77745765
0.019763466 -0.01976347 0.77752554
0.019137926 -0.019903451 0.76846433
0.018261775 -0.01972267 0.75577307
0.018208584 -0.02039358 0.75500256
0.018155621 -0.021060497 0.75423539
0.018206516 -0.021847814 0.7549727
0.01831568 -0.022711396 0.75655389
0.018462796 -0.023632348 0.75868487
0.018682763 -0.024661243 0.76187122
0.018769892 -0.02552706 0.76313329
0.018804343 -0.02632606 0.7636323
0.018835519 -0.027123123 0.76408392
0.018892271 -0.027960539 0.76490593
0.019046137 -0.028950125 0.76713479
0.019649297 0.027962446 0.76492459
0.019592391 0.027127951 0.76413196
0.019558547 0.026328832 0.76366061
0.019523324 0.025530487 0.76317
0.019439742 0.024673551 0.76200587
0.019214751 0.023648947 0.75887215
0.019059025 0.022724271 0.75670314
0.018942717 0.021856993 0.7550832
0.018845905 0.021020442 0.75373483
0.018763786 0.020207137 0.75259101
0.018692367 0.019411355 0.75159627
0.018627809 0.018627882 0.75069708
0.018568546 0.017854393 0.74987173
0.018517483 0.017093092 0.74916047
0.018469058 0.016338021 0.74848604
0.018425347 0.015590698 0.74787718
0.018385274 0.014849693 0.74731904
0.018347856 0.014113754 0.74679792
0.018314147 0.013383448 0.74632841
0.018282259 0.012656957 0.74588424
0.018253708 0.011935115 0.74548662
0.01822678 0.011216521 0.74511153
0.018202374 0.010501385 0.7447716
0.018179862 0.0097891688 0.74445808
0.018159002 0.0090794861 0.74416757
0.018140618 0.0083726048 0.74391145
0.018122727 0.0076673329 0.7436623
0.018108197 0.0069647133 0.74345988
0.018093765 0.0062632263 0.74325883
0.018075364 0.0055616498 0.74300259
0.018041523 0.0048573613 0.74253124
0.01797571 0.0041482747 0.74161452
0.017890869 0.0034405589 0.74043292
0.017843166 0.0027451515 0.73976851
0.017811578 0.0020552278 0.7393285
0.017788343 0.0013683438 0.73900491
0.017777039 0.00068372488 0.73884749
0.017772524 2.9802322e-08 0.73878455
0.017774709 -0.00068363547 0.73881495
0.017786957 -0.0013681948 0.7389856
0.017803973 -0.0020543039 0.73922265
0.01783656 -0.0027440488 0.73967648
0.017880099 -0.0034384429 0.74028289
0.017958663 -0.004144311 0.74137717
0.018034546 -0.004855454 0.74243402
0.018071974 -0.0055606067 0.74295539
0.018091351 -0.0062623918 0.74322522
0.018105853 -0.0069637895 0.74342728
0.018121591 -0.0076668262 0.74364638
0.01813766 -0.0083712339 0.74387026
0.018155733 -0.0090778172 0.74412197
0.01817666 -0.0097874105 0.7444135
0.018199699 -0.010499805 0.74473441
0.018223332 -0.011214346 0.74506354
0.0182491 -0.011932105 0.74542236
0.018278483 -0.012654305 0.74583173
0.018310901 -0.013381034 0.74628317
0.018343356 -0.014110267 0.74673522
0.018379429 -0.014844894 0.74723762
0.020556051 -0.017393559 0.77755398
0.020538818 -0.018168956 0.77731395
0.020549135 -0.018968403 0.77745765
0.020554004 -0.01976347 0.77752554
0.019903442 -0.019903451 0.76846433
0.018992245 -0.01972267 0.75577307
0.018936926 -0.02039358 0.75500256
0.018881846 -0.021060497 0.75423539
0.018934693 -0.021847695 0.75497144
0.019048307 -0.022711396 0.75655389
0.019201307 -0.023632348 0.75868487
0.019430073 -0.024661243 0.76187122
0.019520776 -0.02552712 0.76313448
0.019556519 -0.02632606 0.7636323
0.01958894 -0.027123123 0.76408392
0.019647961 -0.027960539 0.76490593
0.019807981 -0.028950125 0.76713479
0.020405039 0.027962446 0.76492459
0.020345945 0.027127951 0.76413196
0.020310799 0.026328832 0.76366061
0.02027422 0.025530487 0.76317
0.020187333 0.024673402 0.76200461
0.01995378 0.023648947 0.75887215
0.019792063 0.022724271 0.75670314
0.019671284 0.021856993 0.7550832
0.019570747 0.021020442 0.75373483
0.019485472 0.020207137 0.75259101
0.019411305 0.019411355 0.75159627
0.019344265 0.018627882 0.75069708
0.019282721 0.017854393 0.74987173
0.019229693 0.017093092 0.74916047
0.019179406 0.016338021 0.74848604
0.019134015 0.015590698 0.74787718
0.0190924 0.014849693 0.74731904
0.019053543 0.014113754 0.74679792
0.019018538 0.013383448 0.74632841
0.018985422 0.012656957 0.74588424
0.018955775 0.011935115 0.74548662
0.018927809 0.011216521 0.74511153
0.018902464 0.010501385 0.7447716
0.018879088 0.0097891688 0.74445808
0.018857425 0.0090794861 0.74416757
0.018838335 0.0083726048 0.74391145
0.018819755 0.0076673329 0.7436623
0.018804666 0.0069647133 0.74345988
0.018789679 0.0062632263 0.74325883
0.018770568 0.0055616498 0.74300259
0.018735349 0.0048573017 0.74253023
0.018667083 0.0041482747 0.74161452
0.018578978 0.0034405589 0.74043292
0.018529441 0.0027451515 0.73976851
0.018496638 0.0020552278 0.7393285
0.018472509 0.0013683438 0.73900491
0.018460773 0.00068372488 0.73884749
0.018456081 2.9802322e-08 0.73878455
0.01845835 -0.00068363547 0.73881495
0.018471071 -0.0013681948 0.7389856
0.018488741 -0.0020543039 0.73922265
0.018522581 -0.0027440488 0.73967648
0.018567793 -0.0034384429 0.74028289
0.018649381 -0.004144311 0.74137717
0.01872818 -0.004855454 0.74243402
0.01876705 -0.0055606067 0.74295539
0.018787172 -0.0062623918 0.74322522
0.018802233 -0.0069637895 0.74342728
0.018818576 -0.0076668262 0.74364638
0.018835261 -0.0083712339 0.74387026
0.018854029 -0.0090778172 0.74412197
0.018875763 -0.0097874105 0.7444135
0.018899688 -0.010499805 0.74473441
0.018924309 -0.011214405 0.74506462
0.018950989 -0.011932105 0.74542236
0.018981582 -0.012654334 0.74583268
0.019015167 -0.013381034 0.74628317
0.019048868 -0.014110267 0.74673522
0.019086329 -0.014844894 0.74723762
0.021346668 -0.017393559 0.77755398
0.021328773 -0.018168956 0.77731395
0.021339487 -0.018968403 0.77745765
0.021344544 -0.01976347 0.77752554
0.020668959 -0.019903451 0.76846433
0.019722717 -0.01972267 0.75577307
0.019665269 -0.02039358 0.75500256
0.019608071 -0.021060497 0.75423539
0.019662952 -0.021847695 0.75497144
0.019780936 -0.022711396 0.75655389
0.019939907 -0.023632437 0.75868613
0.020177294 -0.024661124 0.76186997
0.020271575 -0.02552712 0.76313448
0.02030869 -0.02632606 0.7636323
0.020342359 -0.027123123 0.76408392
0.020403652 -0.027960539 0.76490593
0.020569827 -0.028950125 0.76713479
0.021160781 0.027962446 0.76492459
0.021099497 0.027127951 0.76413196
0.02106305 0.026328832 0.76366061
0.021025119 0.025530487 0.76317
0.020935012 0.024673402 0.76200461
0.020692809 0.023648947 0.75887215
0.020525102 0.022724271 0.75670314
0.020399848 0.021856993 0.7550832
0.020295588 0.021020442 0.75373483
0.020207155 0.020207137 0.75259101
0.020130243 0.019411355 0.75159627
0.020060718 0.018627882 0.75069708
0.019996895 0.017854393 0.74987173
0.019941904 0.017093092 0.74916047
0.019889753 0.016338021 0.74848604
0.019842681 0.015590698 0.74787718
0.019799525 0.014849693 0.74731904
0.01975923 0.014113754 0.74679792
0.019722929 0.013383448 0.74632841
0.019688588 0.012656957 0.74588424
0.019657841 0.011935115 0.74548662
0.01962884 0.011216521 0.74511153
0.019602556 0.010501385 0.7447716
0.019578312 0.0097891688 0.74445808
0.019555848 0.0090794861 0.74416757
0.019536052 0.0083726048 0.74391145
0.019516783 0.0076673329 0.7436623
0.019501135 0.0069647133 0.74345988
0.019485593 0.0062632263 0.74325883
0.019465776 0.0055616498 0.74300259
0.019429252 0.0048573017 0.74253023
0.019358456 0.0041482747 0.74161452
0.019267088 0.0034405589 0.74043292
0.019215716 0.0027451515 0.73976851
0.019181699 0.0020552278 0.7393285
0.019156678 0.0013683438 0.73900491
0.019144505 0.00068372488 0.73884749
0.01913964 2.9802322e-08 0.73878455
0.019141993 -0.00068363547 0.73881495
0.019155184 -0.0013681948 0.7389856
0.019173509 -0.0020543039 0.73922265
0.019208603 -0.0027440488 0.73967648
0.019255489 -0.0034384429 0.74028289
0.019340098 -0.004144311 0.74137717
0.019421818 -0.004855454 0.74243402
0.019462125 -0.0055606067 0.74295539
0.019482993 -0.0062623918 0.74322522
0.019498611 -0.0069637895 0.74342728
0.019515641 -0.0076668262 0.74364746
0.019532945 -0.0083712339 0.74387127
0.019552328 -0.0090778172 0.74412197
0.019574866 -0.0097874105 0.7444135
0.019599758 -0.010499835 0.74473542
0.019625209 -0.011214405 0.74506462
0.019652877 -0.011932105 0.74542236
0.019684603 -0.012654334 0.74583268
0.019719431 -0.013381034 0.74628317
0.019754382 -0.014110267 0.74673522
0.019793147 -0.014844835 0.74723661
0.022137286 -0.017393559 0.77755398
0.022118727 -0.018168956 0.77731395
0.022129837 -0.018968403 0.77745765
0.022135083 -0.01976347 0.77752554
0.021434477 -0.019903451 0.76846433
0.020453189 -0.01972267 0.75577307
0.020393612 -0.02039358 0.75500256
0.020334296 -0.021060497 0.75423539
0.02039112 -0.021847606 0.75497031
0.020513652 -0.022711545 0.75655508
0.020678423 -0.023632437 0.75868613
0.0209246 -0.024661124 0.76186997
0.021022374 -0.02552712 0.76313448
0.021060865 -0.02632606 0.7636323
0.021095781 -0.027123123 0.76408392
0.021159343 -0.027960539 0.76490593
0.021331673 -0.028950125 0.76713479
0.021916524 0.027962446 0.76492459
0.02185305 0.027127951 0.76413196
0.021815302 0.026328832 0.76366061
0.021776015 0.025530487 0.76317
0.021682596 0.024673313 0.76200342
0.021431837 0.023648947 0.75887215
0.021258142 0.022724271 0.75670314
0.021128414 0.021856993 0.7550832
0.021020431 0.021020442 0.75373483
0.020928839 0.020207137 0.75259101
0.020849179 0.019411355 0.75159627
0.020777171 0.018627882 0.75069708
0.02071107 0.017854393 0.74987173
0.020654114 0.017093092 0.74916047
0.020600103 0.016338021 0.74848604
0.02055135 0.015590698 0.74787718
0.02050665 0.014849693 0.74731904
0.020464916 0.014113754 0.74679792
0.02042732 0.013383448 0.74632841
0.020391751 0.012656957 0.74588424
0.020359907 0.011935115 0.74548662
0.020329868 0.011216521 0.74511153
0.020302646 0.010501385 0.7447716
0.020277537 0.0097891688 0.74445808
0.020254271 0.0090794861 0.74416757
0.020233767 0.0083726048 0.74391145
0.020213811 0.0076673329 0.7436623
0.020197604 0.0069647133 0.74345988
0.020181507 0.0062632263 0.74325883
0.020160982 0.0055616498 0.74300259
0.020123154 0.0048573017 0.74253023
0.020049829 0.0041482747 0.74161452
0.019955199 0.0034405589 0.74043292
0.019901991 0.0027451515 0.73976851
0.019866759 0.0020552278 0.7393285
0.019840844 0.0013683438 0.73900491
0.019828236 0.00068372488 0.73884749
0.019823199 2.9802322e-08 0.73878455
0.019825635 -0.00068363547 0.73881495
0.019839298 -0.0013681948 0.7389856
0.019858276 -0.0020543039 0.73922265
0.019894624 -0.0027440488 0.73967648
0.019943187 -0.0034384429 0.74028289
0.020030815 -0.004144311 0.74137717
0.020115454 -0.004855454 0.74243402
0.020157201 -0.0055606067 0.74295539
0.020178813 -0.0062623918 0.74322522
0.020194989 -0.0069637895 0.74342728
0.020212628 -0.0076668262 0.74364746
0.020230552 -0.0083712339 0.74387127
0.020250626 -0.0090778172 0.74412197
0.020273969 -0.0097874105 0.7444135
0.020299749 -0.010499835 0.74473542
0.02032611 -0.011214405 0.74506462
0.020354681 -0.011932015 0.74542135
0.020387625 -0.012654334 0.74583268
0.020423695 -0.013381034 0.74628317
0.020459982 -0.014110327 0.74673629
0.020500045 -0.014844835 0.74723661
0.022927905 -0.017393559 0.77755398
0.02290868 -0.018168956 0.77731395
0.022920191 -0.018968403 0.77745765
0.022925623 -0.01976347 0.77752554
0.022199994 -0.019903451 0.76846433
0.021183658 -0.01972267 0.75577307
0.021121956 -0.02039358 0.75500256
0.021060521 -0.021060497 0.75423539
0.021119375 -0.021847606 0.75497031
0.021246282 -0.022711545 0.75655508
0.021416938 -0.023632437 0.75868613
0.021671811 -0.024661034 0.76186877
0.021773173 -0.02552712 0.76313448
0.021813039 -0.02632606 0.7636323
0.021849202 -0.027123123 0.76408392
0.021915033 -0.027960539 0.76490593
0.02209352 -0.028950125 0.76713479
0.022672266 0.027962446 0.76492459
0.022606606 0.027127951 0.76413196
0.022567552 0.026328832 0.76366061
0.022526912 0.025530487 0.76317
0.022430271 0.024673313 0.76200342
0.022170866 0.023648947 0.75887215
0.021991182 0.022724271 0.75670314
0.021856982 0.021856993 0.7550832
0.021745274 0.021020442 0.75373483
0.021650523 0.020207137 0.75259101
0.021568118 0.019411355 0.75159627
0.021493627 0.018627882 0.75069708
0.021425245 0.017854393 0.74987173
0.021366324 0.017093092 0.74916047
0.021310451 0.016338021 0.74848604
0.021260018 0.015590698 0.74787718
0.021213777 0.014849693 0.74731904
0.021170603 0.014113754 0.74679792
0.021131709 0.013383448 0.74632841
0.021094915 0.012656957 0.74588424
0.021061972 0.011935115 0.74548662
0.021030899 0.011216521 0.74511153
0.021002738 0.010501385 0.7447716
0.020976763 0.0097891688 0.74445808
0.020952694 0.0090794861 0.74416757
0.020931482 0.0083726048 0.74391145
0.020910839 0.0076673329 0.7436623
0.020894073 0.0069647133 0.74345988
0.020877421 0.0062632263 0.74325883
0.020856189 0.0055616498 0.74300259
0.020817054 0.0048573017 0.74253023
0.020741204 0.0041482747 0.74161452
0.020643309 0.0034405589 0.74043292
0.020588268 0.0027451515 0.73976851
0.020551819 0.0020552278 0.7393285
0.02052501 0.0013683438 0.73900491
0.020511968 0.00068372488 0.73884749
0.020506758 2.9802322e-08 0.73878455
0.020509278 -0.00068363547 0.73881495
0.020523412 -0.0013681948 0.7389856
0.020543044 -0.0020543039 0.73922265
0.020580646 -0.0027440488 0.73967648
0.020630881 -0.0034384429 0.74028289
0.020721534 -0.004144311 0.74137717
0.02080909 -0.004855454 0.74243402
0.020852277 -0.0055606067 0.74295539
0.020874634 -0.0062623918 0.74322522
0.020891368 -0.0069637895 0.74342728
0.020909617 -0.0076668262 0.74364746
0.020928157 -0.0083712339 0.74387127
0.020948835 -0.009077847 0.7441209
0.02097307 -0.0097874105 0.7444135
0.020999741 -0.010499835 0.74473542
0.02102701 -0.011214405 0.74506462
0.021056565 -0.011932015 0.74542135
0.021090647 -0.012654334 0.74583268
0.021127962 -0.013381034 0.74628317
0.021165499 -0.014110327 0.74673629
0.021206943 -0.014844835 0.74723661
0.023718521 -0.017393559 0.77755398
0.023698637 -0.018168956 0.77731395
0.023710541 -0.018968403 0.77745765
0.023716161 -0.01976347 0.77752554
0.022965511 -0.019903451 0.76846433
0.02191413 -0.01972267 0.75577307
0.021850301 -0.02039358 0.75500256
0.021786746 -0.021060497 0.75423539
0.021847628 -0.021847606 0.75497031
0.021978913 -0.022711545 0.75655508
0.022155454 -0.023632437 0.75868613
0.022419116 -0.024661034 0.76186877
0.022523971 -0.02552712 0.76313448
0.022565214 -0.02632606 0.7636323
0.022602621 -0.027123123 0.76408392
0.022670725 -0.027960539 0.76490593
0.022855364 -0.028950125 0.76713479
0.023428008 0.027962446 0.76492459
0.023360159 0.027127951 0.76413196
0.023319805 0.026328832 0.76366061
0.02327781 0.025530487 0.76317
0.02317784 0.024673223 0.76200223
0.022909896 0.023648947 0.75887215
0.022724221 0.022724271 0.75670314
0.022585547 0.021856993 0.7550832
0.022470117 0.021020442 0.75373483
0.022372207 0.020207137 0.75259101
0.022287054 0.019411355 0.75159627
0.02221008 0.018627882 0.75069708
0.022139419 0.017854393 0.74987173
0.022078536 0.017093092 0.74916047
0.0220208 0.016338021 0.74848604
0.021968683 0.015590698 0.74787718
0.021920903 0.014849693 0.74731904
0.021876289 0.014113754 0.74679792
0.0218361 0.013383448 0.74632841
0.021798078 0.012656957 0.74588424
0.021764038 0.011935115 0.74548662
0.021731928 0.011216521 0.74511153
0.02170283 0.010501385 0.7447716
0.021675989 0.0097891688 0.74445808
0.021651117 0.0090794861 0.74416757
0.021629199 0.0083726048 0.74391145
0.021607867 0.0076673329 0.7436623
0.021590542 0.0069647133 0.74345988
0.021573335 0.0062632263 0.74325883
0.021551305 0.0055616498 0.74300152
0.021510957 0.0048573017 0.74253023
0.021432577 0.0041482747 0.74161452
0.02133142 0.0034405589 0.74043292
0.021274542 0.0027451515 0.73976851
0.02123688 0.0020552278 0.7393285
0.021209178 0.0013683438 0.73900491
0.021195702 0.00068372488 0.73884749
0.021190315 2.9802322e-08 0.73878455
0.021192921 -0.00068363547 0.73881495
0.021207524 -0.0013681948 0.7389856
0.021227812 -0.0020543039 0.73922265
0.021266667 -0.0027440488 0.73967648
0.021318577 -0.0034384429 0.74028289
0.021412252 -0.004144311 0.74137717
0.021502726 -0.004855454 0.74243402
0.021547353 -0.0055606067 0.74295539
0.021570455 -0.0062623918 0.74322522
0.021587748 -0.0069637895 0.74342728
0.021606602 -0.0076668262 0.74364746
0.021625761 -0.0083712339 0.74387127
0.021647129 -0.009077847 0.7441209
0.021672172 -0.0097874105 0.7444135
0.021699732 -0.010499835 0.74473542
0.021728002 -0.011214405 0.74506563
0.02175845 -0.011932015 0.74542135
0.021793669 -0.012654334 0.74583268
0.021832321 -0.013381094 0.74628425
0.021871015 -0.014110327 0.74673629
0.021913841 -0.014844835 0.74723661
0.024509139 -0.017393559 0.77755398
0.024488591 -0.018168956 0.77731395
0.024500892 -0.018968403 0.77745765
0.024506697 -0.01976347 0.77752554
0.023731027 -0.019903451 0.76846433
0.022644602 -0.01972267 0.75577307
0.022578644 -0.02039358 0.75500256
0.022512969 -0.021060497 0.75423539
0.022575784 -0.021847546 0.75496912
0.022711644 -0.022711635 0.75655627
0.022893969 -0.023632437 0.75868613
0.023166316 -0.024660885 0.76186752
0.02327477 -0.02552712 0.76313448
0.023317385 -0.02632606 0.7636323
0.023356045 -0.027123123 0.76408392
0.023426414 -0.027960539 0.76490593
0.02361721 -0.028950125 0.76713479
0.02418375 0.027962446 0.76492459
0.024113711 0.027127951 0.76413196
0.024072057 0.026328832 0.76366061
0.024028707 0.025530487 0.76317
0.023925515 0.024673223 0.76200223
0.023648925 0.023648947 0.75887215
0.023457261 0.022724271 0.75670314
0.023314113 0.021856993 0.7550832
0.023194959 0.021020442 0.75373483
0.02309389 0.020207137 0.75259101
0.023005992 0.019411355 0.75159627
0.022926537 0.018627882 0.75069708
0.022853594 0.017854393 0.74987173
0.022790747 0.017093092 0.74916047
0.022731148 0.016338021 0.74848604
0.022677351 0.015590698 0.74787718
0.022628028 0.014849693 0.74731904
0.022581978 0.014113754 0.74679792
0.022540491 0.013383448 0.74632841
0.022501243 0.012656957 0.74588424
0.022466103 0.011935115 0.74548662
0.022432959 0.011216521 0.74511153
0.022402922 0.010501385 0.7447716
0.022375213 0.0097891688 0.74445808
0.02234954 0.0090794861 0.74416757
0.022326915 0.0083726048 0.74391145
0.022304894 0.0076673329 0.7436623
0.022287011 0.0069647133 0.74345988
0.022269251 0.0062632263 0.74325883
0.022246508 0.0055616498 0.74300152
0.022204766 0.0048573017 0.74252915
0.022123951 0.0041482747 0.74161452
0.02201953 0.0034405589 0.74043292
0.021960819 0.0027451515 0.73976851
0.021921942 0.0020552278 0.7393285
0.021893345 0.0013683438 0.73900491
0.021879435 0.00068372488 0.73884749
0.021873875 2.9802322e-08 0.73878455
0.021876564 -0.00068363547 0.73881495
0.021891639 -0.0013681948 0.7389856
0.02191258 -0.0020543039 0.73922265
0.021952689 -0.0027440488 0.73967648
0.022006275 -0.0034384429 0.74028289
0.022102969 -0.004144311 0.74137717
0.022196364 -0.004855454 0.74243402
0.022242429 -0.0055606067 0.74295539
0.022266278 -0.0062623918 0.74322522
0.022284128 -0.0069637895 0.74342728
0.022303684 -0.0076668859 0.74364859
0.022323461 -0.0083712935 0.7438724
0.022345424 -0.009077847 0.7441209
0.022371275 -0.0097874105 0.7444135
0.022399819 -0.010499895 0.74473643
0.022428906 -0.011214405 0.74506563
0.022460336 -0.011932015 0.74542135
0.022496784 -0.012654424 0.74583381
0.022536589 -0.013381094 0.74628425
0.022576533 -0.014110327 0.74673629
0.022620741 -0.014844835 0.74723661
0.025299756 -0.017393559 0.77755398
0.025278548 -0.018168956 0.77731395
0.025291242 -0.018968403 0.77745765
0.025297236 -0.01976347 0.77752554
0.024496546 -0.019903451 0.76846433
0.023375072 -0.01972267 0.75577307
0.023306986 -0.02039358 0.75500256
0.023239195 -0.021060497 0.75423539
0.023304036 -0.021847546 0.75496912
0.023444278 -0.022711635 0.75655627
0.023632588 -0.023632586 0.75868726
0.023913614 -0.024660885 0.76186752
0.024025569 -0.02552712 0.76313448
0.024069561 -0.02632606 0.7636323
0.024109462 -0.027123123 0.76408392
0.024182105 -0.027960539 0.76490593
0.024379054 -0.028950125 0.76713479
0.024939492 0.027962446 0.76492459
0.024867265 0.027127951 0.76413196
0.02482431 0.026328832 0.76366061
0.024779603 0.025530487 0.76317
0.024673076 0.024673104 0.76200098
0.024387952 0.023648947 0.75887215
0.024190299 0.022724271 0.75670314
0.024042679 0.021856993 0.7550832
0.023919802 0.021020442 0.75373483
0.023815576 0.020207137 0.75259101
0.023724928 0.019411355 0.75159627
0.023642989 0.018627882 0.75069708
0.02356777 0.017854393 0.74987173
0.023502957 0.017093092 0.74916047
0.023441497 0.016338021 0.74848604
0.023386018 0.015590698 0.74787718
0.023335155 0.014849693 0.74731904
0.023287663 0.014113754 0.74679792
0.02324488 0.013383448 0.74632841
0.023204409 0.012656957 0.74588424
0.023168169 0.011935115 0.74548662
0.023133989 0.011216521 0.74511153
0.023103012 0.010501385 0.7447716
0.023074439 0.0097891688 0.74445808
0.023047965 0.0090794861 0.74416757
0.02302463 0.0083726048 0.74391145
0.023001922 0.0076673329 0.7436623
0.02298348 0.0069647133 0.74345988
0.022965163 0.0062632263 0.74325883
0.022941712 0.0055616498 0.74300152
0.022898667 0.0048573017 0.74252915
0.022815324 0.0041482747 0.74161452
0.022707641 0.0034405589 0.74043292
0.022647094 0.0027451515 0.73976851
0.022607002 0.0020552278 0.7393285
0.022577511 0.0013683438 0.73900491
0.022563167 0.00068372488 0.73884749
0.022557432 2.9802322e-08 0.73878455
0.022560205 -0.00068363547 0.73881495
0.022575751 -0.0013681948 0.7389856
0.022597348 -0.0020543039 0.73922265
0.022638712 -0.0027440488 0.73967648
0.022693969 -0.0034384429 0.74028289
0.022793686 -0.004144311 0.74137717
0.02289 -0.004855454 0.74243402
0.022937505 -0.0055606067 0.74295539
0.022962097 -0.0062623918 0.74322522
0.022980506 -0.0069637895 0.74342728
0.023000672 -0.0076668859 0.74364859
0.023021068 -0.0083712935 0.7438724
0.02304372 -0.009077847 0.7441209
0.023070475 -0.0097874403 0.74441451
0.023099812 -0.010499895 0.74473643
0.023129808 -0.011214405 0.74506563
0.023162222 -0.011932015 0.74542135
0.023199812 -0.012654424 0.74583381
0.023240857 -0.013381094 0.74628425
0.023282047 -0.014110327 0.74673629
0.023327637 -0.014844835 0.74723661
0.026090374 -0.017393559 0.77755398
0.026068501 -0.018168956 0.77731395
0.026081596 -0.018968403 0.77745765
0.026087774 -0.01976347 0.77752554
0.025262062 -0.019903451 0.76846433
0.024105541 -0.01972267 0.75577307
0.024035329 -0.02039358 0.75500256
0.02396542 -0.021060497 0.75423539
0.024032181 -0.021847397 0.75496799
0.024176911 -0.022711635 0.75655627
0.024371108 -0.023632586 0.75868726
0.024660805 -0.024660796 0.76186633
0.024776367 -0.02552712 0.76313448
0.024821734 -0.02632606 0.7636323
0.024862885 -0.027123123 0.76408392
0.024937795 -0.027960539 0.76490593
0.025140902 -0.028950125 0.76713479
0.025695233 0.027962446 0.76492459
0.025620818 0.027127951 0.76413196
0.025576562 0.026328832 0.76366061
0.0255305 0.025530487 0.76317
0.025420744 0.024673104 0.76200098
0.025126981 0.023648947 0.75887215
0.024923339 0.022724271 0.75670314
0.024771245 0.021856993 0.7550832
0.024644645 0.021020442 0.75373483
0.02453726 0.020207137 0.75259101
0.024443865 0.019411355 0.75159627
0.024359444 0.018627882 0.75069708
0.024281945 0.017854393 0.74987173
0.024215169 0.017093092 0.74916047
0.024151845 0.016338021 0.74848604
0.024094684 0.015590698 0.74787718
0.024042279 0.014849693 0.74731904
0.023993351 0.014113754 0.74679792
0.023949271 0.013383448 0.74632841
0.02390757 0.012656957 0.74588424
0.023870233 0.011935115 0.74548662
0.02383502 0.011216521 0.74511153
0.023803104 0.010501385 0.7447716
0.023773665 0.0097891688 0.74445808
0.023746388 0.0090794861 0.74416757
0.023722349 0.0083726048 0.74391145
0.02369895 0.0076673329 0.7436623
0.023679951 0.0069647133 0.74345988
0.023661079 0.0062632263 0.74325883
0.023636915 0.0055616498 0.74300152
0.023592563 0.0048573017 0.74252915
0.023506699 0.0041482747 0.74161452
0.023395751 0.0034405589 0.74043292
0.023333369 0.0027451515 0.73976851
0.023292063 0.0020552278 0.7393285
0.023261679 0.0013683438 0.73900491
0.023246899 0.00068372488 0.73884749
0.023240991 2.9802322e-08 0.73878455
0.02324385 -0.00068363547 0.73881495
0.023259865 -0.0013681948 0.7389856
0.023282116 -0.0020543039 0.73922265
0.023324732 -0.0027440488 0.73967648
0.023381667 -0.0034384429 0.74028289
0.023484403 -0.004144311 0.74137717
0.023583636 -0.004855454 0.74243402
0.02363258 -0.0055606067 0.74295539
0.023657918 -0.0062623918 0.74322522
0.023676885 -0.0069637895 0.74342728
0.023697663 -0.0076668859 0.74364859
0.023718676 -0.0083712935 0.7438724
0.023742015 -0.009077847 0.7441209
0.02376958 -0.0097874403 0.74441451
0.023799807 -0.010499895 0.74473643
0.023830712 -0.011214405 0.74506563
0.023864107 -0.011932015 0.74542135
0.023902833 -0.012654424 0.74583381
0.023945125 -0.013381094 0.74628425
0.023987668 -0.014110357 0.7467373
0.024034536 -0.014844835 0.74723661
0.026880991 -0.017393559 0.77755398
0.026858455 -0.018168956 0.77731395
0.026871946 -0.018968403 0.77745765
0.026878312 -0.01976347 0.77752554
0.026027579 -0.019903451 0.76846433
0.024836015 -0.01972267 0.75577307
0.024763674 -0.02039358 0.75500256
0.024691645 -0.021060497 0.75423539
0.024760431 -0.021847397 0.75496799
0.024909545 -0.022711635 0.75655627
0.025109624 -0.023632586 0.75868726
0.025408102 -0.024660796 0.76186633
0.025527168 -0.02552712 0.76313448
0.025573906 -0.02632606 0.7636323
0.025616305 -0.027123123 0.76408392
0.025693487 -0.027960539 0.76490593
0.025902744 -0.028950125 0.76713479
0.026450979 0.027962446 0.76492459
0.026374372 0.027127951 0.76413196
0.026328811 0.026328832 0.76366061
0.026281398 0.025530487 0.76317
0.026168298 0.024672985 0.76199973
0.025866009 0.023648947 0.75887215
0.02565638 0.022724271 0.75670314
0.02549981 0.021856993 0.7550832
0.025369488 0.021020442 0.75373483
0.025258943 0.020207137 0.75259101
0.025162805 0.019411355 0.75159627
0.025075898 0.018627882 0.75069708
0.024996119 0.017854393 0.74987173
0.02492738 0.017093092 0.74916047
0.024862193 0.016338021 0.74848604
0.024803353 0.015590698 0.74787718
0.024749406 0.014849693 0.74731904
0.024699036 0.014113754 0.74679792
0.024653662 0.013383448 0.74632841
0.024610734 0.012656957 0.74588424
0.0245723 0.011935115 0.74548662
0.024536049 0.011216521 0.74511153
0.024503196 0.010501385 0.7447716
0.024472889 0.0097891688 0.74445808
0.024444811 0.0090794861 0.74416757
0.024420062 0.0083726048 0.74391145
0.02439598 0.0076673329 0.7436623
0.024376418 0.0069647133 0.74345988
0.024356991 0.0062632263 0.74325883
0.024332119 0.0055616498 0.74300152
0.024286462 0.0048573017 0.74252915
0.02419807 0.0041482747 0.74161452
0.024083862 0.0034405589 0.74043292
0.024019644 0.0027451515 0.73976851
0.023977123 0.0020552278 0.7393285
0.023945846 0.0013683438 0.73900491
0.02393063 0.00068372488 0.73884749
0.023924548 2.9802322e-08 0.73878455
0.023927491 -0.00068363547 0.73881495
0.023943979 -0.0013681948 0.7389856
0.023966884 -0.0020543039 0.73922265
0.024010753 -0.0027440488 0.73967648
0.024069361 -0.0034384429 0.74028289
0.024175124 -0.004144311 0.74137717
0.02427727 -0.004855454 0.74243402
0.024327656 -0.0055606067 0.74295539
0.024353741 -0.0062623918 0.74322522
0.024373263 -0.0069637895 0.74342728
0.024394652 -0.0076668859 0.74364859
0.024416285 -0.0083712935 0.7438724
0.024440309 -0.009077847 0.7441209
0.024468683 -0.0097874403 0.74441451
0.0244998 -0.010499895 0.74473643
0.024531718 -0.011214495 0.74506676
0.024565991 -0.011932015 0.74542135
0.024605859 -0.012654424 0.74583381
0.024649391 -0.013381094 0.74628425
0.024693187 -0.014110357 0.7467373
0.024741435 -0.014844835 0.74723661
0.027671609 -0.017393559 0.77755398
0.02764841 -0.018168956 0.77731395
0.027662296 -0.018968403 0.77745765
0.027668854 -0.01976347 0.77752554
0.026793096 -0.019903451 0.76846433
0.025566485 -0.01972267 0.75577307
0.025492016 -0.02039358 0.75500256
0.025417868 -0.021060497 0.75423539
0.025488677 -0.021847397 0.75496799
0.025642293 -0.022711724 0.7565574
0.025848143 -0.023632586 0.75868726
0.02615528 -0.024660677 0.76186508
0.026277967 -0.02552712 0.76313448
0.026326081 -0.02632606 0.7636323
0.026369726 -0.027123123 0.76408392
0.026449177 -0.027960539 0.76490593
0.026664592 -0.028950125 0.76713479
0.027206721 0.027962446 0.76492459
0.027127925 0.027127951 0.76413196
0.027081063 0.026328832 0.76366061
0.027032295 0.025530487 0.76317
0.026915964 0.024672985 0.76199973
0.026605038 0.023648947 0.75887215
0.026389418 0.022724271 0.75670314
0.026228376 0.021856993 0.7550832
0.026094327 0.021020442 0.75373483
0.025980629 0.020207137 0.75259101
0.025881741 0.019411355 0.75159627
0.025792353 0.018627882 0.75069708
0.025710294 0.017854393 0.74987173
0.025639592 0.017093092 0.74916047
0.025572542 0.016338021 0.74848604
0.025512019 0.015590698 0.74787718
0.025456533 0.014849693 0.74731904
0.025404723 0.014113754 0.74679792
0.025358051 0.013383448 0.74632841
0.025313899 0.012656957 0.74588424
0.025274366 0.011935115 0.74548662
0.025237078 0.011216521 0.74511153
0.025203288 0.010501385 0.7447716
0.025172116 0.0097891688 0.74445808
0.025143234 0.0090794861 0.74416757
0.025117781 0.0083726048 0.74391145
0.025093006 0.0076673329 0.7436623
0.025072889 0.0069647133 0.74345988
0.025052907 0.0062632263 0.74325883
0.02502732 0.0055616498 0.74300152
0.024980363 0.0048573017 0.74252915
0.024889445 0.0041482747 0.74161452
0.024771972 0.0034405589 0.74043292
0.024705922 0.0027451515 0.73976851
0.024662184 0.0020552278 0.7393285
0.024630012 0.0013683438 0.73900491
0.024614362 0.00068372488 0.73884749
0.024608107 2.9802322e-08 0.73878455
0.024611136 -0.00068363547 0.73881495
0.024628095 -0.0013681948 0.7389856
0.024651652 -0.0020543039 0.73922265
0.024696777 -0.0027440488 0.73967648
0.024757059 -0.0034384429 0.74028289
0.024865841 -0.004144311 0.74137717
0.024970908 -0.004855454 0.74243402
0.025022732 -0.0055606067 0.74295539
0.025049562 -0.0062623918 0.74322522
0.025069643 -0.0069637895 0.74342728
0.025091747 -0.0076669157 0.7436496
0.025113998 -0.0083712935 0.74387348
0.025138604 -0.009077847 0.7441209
0.025167791 -0.0097874403 0.74441451
0.025199901 -0.010499954 0.74473757
0.025232624 -0.011214495 0.74506676
0.025267877 -0.011932015 0.74542135
0.025308883 -0.012654424 0.74583381
0.025353769 -0.013381124 0.74628532
0.025398705 -0.014110357 0.7467373
0.025448332 -0.014844835 0.74723661
0.028462224 -0.017393559 0.77755398
0.028438363 -0.018168956 0.77731395
0.02845265 -0.018968403 0.77745765
0.028459392 -0.01976347 0.77752554
0.027558612 -0.019903451 0.76846433
0.026296955 -0.01972267 0.75577307
0.026220359 -0.02039358 0.75500256
0.026144093 -0.021060497 0.75423539
0.026216811 -0.021847278 0.75496686
0.026374927 -0.022711724 0.7565574
0.026586778 -0.023632705 0.75868845
0.026902577 -0.024660677 0.76186508
0.027028887 -0.025527269 0.76313579
0.027078256 -0.02632606 0.7636323
0.027123148 -0.027123123 0.76408392
0.027204869 -0.027960539 0.76490593
0.027426437 -0.028950125 0.76713479
0.027962461 0.027962446 0.76492459
0.027881481 0.027127951 0.76413196
0.027833316 0.026328832 0.76366061
0.027783191 0.025530487 0.76317
0.027663503 0.024672866 0.76199853
0.027344069 0.023648947 0.75887215
0.027122458 0.022724271 0.75670314
0.026956942 0.021856993 0.7550832
0.02681917 0.021020442 0.75373483
0.026702311 0.020207137 0.75259101
0.026600678 0.019411355 0.75159627
0.026508806 0.018627882 0.75069708
0.026424469 0.017854393 0.74987173
0.0263518 0.017093092 0.74916047
0.02628289 0.016338021 0.74848604
0.026220687 0.015590698 0.74787718
0.026163656 0.014849693 0.74731904
0.026110411 0.014113754 0.74679792
0.026062442 0.013383448 0.74632841
0.026017061 0.012656957 0.74588424
0.025976431 0.011935115 0.74548662
0.025938107 0.011216521 0.74511153
0.025903378 0.010501385 0.7447716
0.025871342 0.0097891688 0.74445808
0.025841657 0.0090794861 0.74416757
0.025815496 0.0083726048 0.74391145
0.025790034 0.0076673329 0.7436623
0.025769357 0.0069647133 0.74345988
0.025748821 0.0062632263 0.74325883
0.025722418 0.00556162 0.74300045
0.025674261 0.0048573017 0.74252915
0.025580818 0.0041482747 0.74161452
0.025460081 0.0034405589 0.74043292
0.025392197 0.0027451515 0.73976851
0.025347244 0.0020552278 0.7393285
0.02531418 0.0013683438 0.73900491
0.025298094 0.00068372488 0.73884749
0.025291668 2.9802322e-08 0.73878455
0.025294777 -0.00068363547 0.73881495
0.02531221 -0.0013681948 0.7389856
0.02533642 -0.0020543039 0.73922265
0.025382796 -0.0027440488 0.73967648
0.025444755 -0.0034384429 0.74028289
0.025556559 -0.004144311 0.74137717
0.025664544 -0.004855454 0.74243402
0.02571781 -0.0055606067 0.74295539
0.025745383 -0.0062623918 0.74322522
0.025766023 -0.0069637895 0.74342728
0.025788741 -0.0076669157 0.7436496
0.025811609 -0.0083712935 0.74387348
0.025836896 -0.009077847 0.7441209
0.025866894 -0.0097874403 0.74441451
0.025899896 -0.010499954 0.74473757
0.025933532 -0.011214495 0.74506676
0.025969762 -0.011932015 0.74542135
0.026012018 -0.012654483 0.74583489
0.026058041 -0.013381124 0.74628532
0.026104225 -0.014110357 0.7467373
0.02615523 -0.014844835 0.74723661
0.029252844 -0.017393559 0.77755398
0.029228317 -0.018168956 0.77731395
0.029243 -0.018968403 0.77745765
0.029249931 -0.01976347 0.77752554
0.028324131 -0.019903451 0.76846433
0.027027428 -0.01972267 0.75577307
0.026948702 -0.02039358 0.75500256
0.02687032 -0.021060497 0.75423539
0.026945055 -0.021847278 0.75496686
0.027107565 -0.022711724 0.7565574
0.0273253 -0.023632705 0.75868845
0.027649745 -0.024660558 0.76186389
0.027779691 -0.025527269 0.76313579
0.027830428 -0.02632606 0.7636323
0.027876567 -0.027123123 0.76408392
0.027960559 -0.027960539 0.76490593
0.028188283 -0.028950125 0.76713479
0.028718203 0.027962446 0.76492459
0.028635034 0.027127951 0.76413196
0.028585568 0.026328832 0.76366061
0.028534217 0.025530636 0.76317126
0.028411167 0.024672866 0.76199853
0.028083097 0.023648947 0.75887215
0.027855495 0.022724271 0.75670314
0.02768551 0.021856993 0.7550832
0.027544012 0.021020442 0.75373483
0.027423995 0.020207137 0.75259101
0.027319614 0.019411355 0.75159627
0.027225262 0.018627882 0.75069708
0.027138643 0.017854393 0.74987173
0.027064012 0.017093092 0.74916047
0.026993237 0.016338021 0.74848604
0.026929352 0.015590698 0.74787718
0.026870783 0.014849693 0.74731904
0.026816096 0.014113754 0.74679792
0.026766833 0.013383448 0.74632841
0.026720226 0.012656957 0.74588424
0.026678497 0.011935115 0.74548662
0.026639137 0.011216521 0.74511153
0.026603468 0.010501385 0.7447716
0.026570568 0.0097891688 0.74445808
0.026540082 0.0090794861 0.74416757
0.026513211 0.0083726048 0.74391145
0.026487062 0.0076673329 0.7436623
0.026465828 0.0069647133 0.74345988
0.026444733 0.0062632263 0.74325883
0.026417619 0.00556162 0.74300045
0.02636805 0.0048572719 0.74252808
0.026272193 0.0041482747 0.74161452
0.026148191 0.0034405589 0.74043292
0.026078474 0.0027451515 0.73976851
0.026032306 0.0020552278 0.7393285
0.025998347 0.0013683438 0.73900491
0.025981827 0.00068372488 0.73884749
0.025975227 2.9802322e-08 0.73878455
0.025978418 -0.00068363547 0.73881495
0.025996322 -0.0013681948 0.7389856
0.026021188 -0.0020543039 0.73922265
0.026068818 -0.0027440488 0.73967648
0.02613245 -0.0034384429 0.74028289
0.026247274 -0.004144311 0.74137717
0.026358182 -0.004855454 0.74243402
0.026412886 -0.0055606067 0.74295539
0.026441203 -0.0062623918 0.74322522
0.026462402 -0.0069637895 0.74342728
0.026485734 -0.0076669157 0.7436496
0.02650922 -0.0083712935 0.74387348
0.026535191 -0.009077847 0.7441209
0.026565999 -0.0097874403 0.74441451
0.026599895 -0.010499954 0.74473757
0.026634436 -0.011214495 0.74506676
0.026671648 -0.011932015 0.74542135
0.026715044 -0.012654483 0.74583489
0.02676231 -0.013381124 0.74628532
0.026809745 -0.014110357 0.7467373
0.026862014 -0.014844805 0.74723548
0.030043459 -0.017393559 0.77755398
0.030018274 -0.018168956 0.77731395
0.03003335 -0.018968403 0.77745765
0.030040469 -0.01976347 0.77752554
0.029089646 -0.019903451 0.76846433
0.027757898 -0.01972267 0.75577307
0.027677046 -0.02039358 0.75500256
0.027596544 -0.021060497 0.75423539
0.027673181 -0.021847248 0.75496572
0.027840326 -0.022711843 0.75655854
0.028063823 -0.023632705 0.75868845
0.028397037 -0.024660558 0.76186389
0.028530492 -0.025527269 0.76313579
0.028582603 -0.02632606 0.7636323
0.028629988 -0.027123123 0.76408392
0.028716251 -0.027960539 0.76490593
0.028950129 -0.028950125 0.76713479
0.029473945 0.027962446 0.76492459
0.029388588 0.027127951 0.76413196
0.029337818 0.026328832 0.76366061
0.029285118 0.025530636 0.76317126
0.029158698 0.024672776 0.7619974
0.028822126 0.023648947 0.75887215
0.028588535 0.022724271 0.75670314
0.028414076 0.021856993 0.7550832
0.028268857 0.021020442 0.75373483
0.02814568 0.020207137 0.75259101
0.02803855 0.019411355 0.75159627
0.027941715 0.018627882 0.75069708
0.027852818 0.017854393 0.74987173
0.027776223 0.017093092 0.74916047
0.027703585 0.016338021 0.74848604
0.027638022 0.015590698 0.74787718
0.027577909 0.014849693 0.74731904
0.027521783 0.014113754 0.74679792
0.027471224 0.013383448 0.74632841
0.027423389 0.012656957 0.74588424
0.027380561 0.011935115 0.74548662
0.027340168 0.011216521 0.74511153
0.027303558 0.010501385 0.7447716
0.027269792 0.0097891688 0.74445808
0.027238505 0.0090794861 0.74416757
0.027210928 0.0083726048 0.74391145
0.02718409 0.0076673329 0.7436623
0.027162295 0.0069647133 0.74345988
0.027140649 0.0062632263 0.74325883
0.027112819 0.00556162 0.74300045
0.027061945 0.0048572719 0.74252808
0.026963564 0.0041482747 0.74161452
0.026836302 0.0034405589 0.74043292
0.026764749 0.0027451515 0.73976851
0.026717367 0.0020552278 0.7393285
0.026682515 0.0013683438 0.73900491
0.026665561 0.00068372488 0.73884749
0.026658785 2.9802322e-08 0.73878455
0.026662063 -0.00068363547 0.73881495
0.026680436 -0.0013681948 0.7389856
0.026705956 -0.0020543039 0.73922265
0.026754839 -0.0027440488 0.73967648
0.026820147 -0.0034384429 0.74028289
0.026937995 -0.004144311 0.74137717
0.027051818 -0.004855454 0.74243402
0.027107961 -0.0055606067 0.74295539
0.027137026 -0.0062623918 0.74322522
0.027158778 -0.0069637895 0.74342728
0.027182728 -0.0076669157 0.7436496
