# .PCD v0.7 - Point Cloud Data file format
VERSION 0.7
FIELDS x y z
SIZE 4 4 4
TYPE F F F
COUNT 1 1 1
WIDTH 1306
HEIGHT 1
VIEWPOINT 0 0 0 1 0 0 0
POINTS 1306
DATA ascii
-0.013189951 0.0020826459 0.74264103
-0.013166551 0.0013859868 0.74219501
-0.013143232 0.00069177151 0.7417506
-0.013119943 2.9802322e-08 0.74130678
-0.01309679 -0.00068929791 0.74086547
-0.013073664 -0.0013761818 0.74042469
-0.013050674 -0.002060622 0.73998648
-0.013027765 -0.0027427077 0.73954988
-0.013004881 -0.0034223199 0.73911369
-0.012982132 -0.0040996373 0.73868012
-0.01295941 -0.0047745407 0.73824704
-0.012936819 -0.0054470599 0.73781645
-0.012914307 -0.0061172843 0.73738742
-0.012891821 -0.0067851841 0.73695886
-0.012869464 -0.0074507296 0.73653275
-0.012847188 -0.0081139803 0.73610806
-0.012824933 -0.008774966 0.73568392
-0.012802809 -0.0094336569 0.73526227
-0.012780709 -0.010090023 0.73484111
-0.012758736 -0.010744184 0.73442227
-0.01273684 -0.01139608 0.73400491
-0.012714967 -0.012045771 0.7335881
-0.01269322 -0.012693197 0.73317361
-0.012671496 -0.013338387 0.73275954
-0.012649897 -0.013981432 0.73234785
-0.012628372 -0.014622301 0.73193765
-0.012606869 -0.015260935 0.73152781
-0.012585491 -0.015897453 0.73112029
-0.012564134 -0.016531736 0.73071325
-0.012542899 -0.017163962 0.73030853
-0.012521736 -0.017794013 0.72990513
-0.012500595 -0.018421888 0.7295022
-0.012479574 -0.019047767 0.72910154
-0.012458625 -0.01967153 0.72870231
-0.012437696 -0.020293057 0.72830343
-0.012416886 -0.020912617 0.72790676
-0.012396098 -0.021530032 0.72751051
-0.012375427 -0.02214548 0.72711658
-0.012354826 -0.022758842 0.72672385
-0.012334387 -0.023370385 0.72633439
-0.012314017 -0.023979902 0.72594607
-0.012293714 -0.024587423 0.72555918
-0.012273431 -0.025192827 0.72517258
-0.01225326 -0.025796294 0.72478813
-0.012233158 -0.026397824 0.72440493
-0.01221312 -0.026997387 0.72402298
-0.012193148 -0.027595013 0.72364235
-0.012173242 -0.028190643 0.72326303
-0.012153354 -0.028784245 0.72288394
-0.012133577 -0.029376 0.722507
-0.012113864 -0.029965848 0.72213125
-0.012094215 -0.030553788 0.72175682
-0.01207463 -0.031139791 0.72138351
-0.012055108 -0.031723946 0.7210114
-0.012035604 -0.032306045 0.72063971
-0.012016208 -0.032886446 0.72027004
-0.011996874 -0.033464938 0.71990156
-0.011977604 -0.034041554 0.71953422
-0.011958393 -0.034616381 0.71916807
-0.011939245 -0.035189331 0.71880311
-0.011920113 -0.035760373 0.71843851
-0.011901088 -0.036329657 0.71807587
-0.011882122 -0.036897093 0.71771437
-0.011863218 -0.037462741 0.71735406
-0.011844372 -0.038026661 0.71699488
-0.011825588 -0.038588732 0.71663684
-0.011806819 -0.039148897 0.71627909
-0.011788152 -0.039707452 0.71592337
-0.011769545 -0.040264189 0.71556872
-0.011750997 -0.040819257 0.71521515
-0.011732507 -0.041372508 0.71486282
-0.011714075 -0.04192403 0.71451151
-0.011695701 -0.042473853 0.71416128
-0.011677341 -0.043021768 0.71381134
-0.011659082 -0.043568134 0.71346331
-0.011640878 -0.044112772 0.71311635
-0.011622733 -0.04465577 0.71277058
-0.011604644 -0.04519701 0.71242577
-0.011586569 -0.045736432 0.71208125
-0.011568592 -0.046274334 0.71173859
-0.01155067 -0.046810597 0.71139705
-0.011532806 -0.047345191 0.71105659
-0.011514994 -0.047878116 0.71071708
-0.01149724 -0.048409432 0.71037871
-0.011479497 -0.0489389 0.71004051
-0.01146185 -0.049466938 0.70970416
-0.011444259 -0.049993336 0.70936888
-0.011426721 -0.050518125 0.70903456
-0.011409236 -0.051041335 0.70870143
-0.011391805 -0.051562876 0.7083692
-0.011374387 -0.052082688 0.70803714
-0.011357062 -0.052601099 0.70770687
-0.01133979 -0.053117931 0.70737773
-0.01132257 -0.053633213 0.70704955
-0.011305403 -0.054146916 0.70672238
-0.011288286 -0.054659069 0.7063961
-0.011271223 -0.055169642 0.7060709
-0.011254171 -0.055678546 0.70574588
-0.01123721 -0.05618605 0.70542264
-0.011220301 -0.056692004 0.7051003
-0.011203442 -0.057196498 0.70477903
-0.011186632 -0.057699472 0.70445859
-0.011169875 -0.058200926 0.70413923
-0.011153128 -0.058700651 0.70381999
-0.01113647 -0.059199125 0.70350254
-0.011119862 -0.059696078 0.70318604
-0.011103303 -0.060191572 0.70287037
-0.011086794 -0.060685605 0.70255578
-0.011070332 -0.061178148 0.70224202
-0.011053883 -0.061668992 0.7019285
-0.01103752 -0.062158644 0.70161653
-0.011080824 -0.062985688 0.70244193
-0.011177912 -0.064125896 0.70429242
-0.011276718 -0.065286219 0.70617563
-0.013019094 -0.076058865 0.73938453
-0.013002107 -0.076643974 0.73906082
-0.012985537 -0.077229738 0.73874497
-0.012968956 -0.077813715 0.73842895
-0.012952471 -0.078396529 0.73811477
-0.012936028 -0.078977853 0.73780143
-0.012919572 -0.079557329 0.73748779
-0.012903213 -0.080135703 0.73717588
-0.012886894 -0.080712616 0.73686486
-0.012870563 -0.081287742 0.73655361
-0.012856673 -0.081876695 0.73628891
-0.012842813 -0.082464337 0.73602474
-0.012829036 -0.083051115 0.73576212
-0.012869414 -0.083989829 0.73653167
-0.01300056 -0.085529983 0.73903131
-0.015198312 0.086968124 0.79701257
-0.015165146 0.085935831 0.79634523
-0.015132047 0.084907651 0.79567939
-0.015099247 0.083884716 0.79501951
-0.015066737 0.082867056 0.79436541
-0.015034293 0.08185339 0.79371274
-0.015002063 0.080844492 0.7930643
-0.014969971 0.079839855 0.79241866
-0.014937943 0.078839153 0.79177427
-0.014906123 0.0778431 0.79113418
-0.014874366 0.076850921 0.79049528
-0.014842818 0.075863302 0.78986055
-0.014811403 0.074879885 0.78922856
-0.014780048 0.073900253 0.7885977
-0.014748898 0.072925091 0.78797102
-0.014717806 0.071953744 0.78734553
-0.014686918 0.070986778 0.78672409
-0.014656086 0.070023537 0.78610384
-0.014625456 0.069064677 0.78548759
-0.014594883 0.068109483 0.78487253
-0.014564509 0.06715861 0.78426135
-0.014534188 0.066211313 0.78365135
-0.014504065 0.065268308 0.78304541
-0.014474065 0.064329207 0.78244179
-0.014444191 0.06339395 0.7818408
-0.014414369 0.0624623 0.78124082
-0.01438474 0.061534762 0.78064471
-0.014355233 0.06061101 0.78005105
-0.014325777 0.059690744 0.77945852
-0.01429651 0.058774531 0.77886969
-0.014267363 0.057862133 0.7782833
-0.014238267 0.056953102 0.77769792
-0.014209355 0.056048036 0.77711624
-0.014180563 0.055146694 0.776537
-0.014151819 0.054248661 0.77595872
-0.014123258 0.053354532 0.77538413
-0.014094812 0.052464038 0.77481186
-0.014066415 0.051576853 0.77424055
-0.014038197 0.050693482 0.77367282
-0.014010093 0.049813688 0.77310741
-0.0139821 0.04893738 0.77254421
-0.013954155 0.048064351 0.77198207
-0.013901366 0.04711017 0.77091998
-0.013873741 0.046245813 0.77036417
-0.013846418 0.04538554 0.76981449
-0.013819139 0.044528395 0.76926565
-0.013792031 0.043674797 0.76872033
-0.013765029 0.042824566 0.76817703
-0.013738069 0.041977495 0.76763475
-0.013711277 0.041133821 0.76709574
-0.013684589 0.040293545 0.76655877
-0.013657944 0.039456308 0.76602274
-0.013631463 0.038622499 0.76548994
-0.013605025 0.037791729 0.76495802
-0.013578748 0.036964387 0.76442945
-0.013552574 0.036140203 0.76390284
-0.01352644 0.03531903 0.76337707
-0.013500466 0.034501195 0.76285452
-0.013474593 0.033686519 0.76233399
-0.013448757 0.032874763 0.76181424
-0.013423081 0.032066286 0.7612977
-0.013397443 0.031260729 0.76078188
-0.013371962 0.030458361 0.76026917
-0.013346577 0.029659063 0.75975853
-0.01332123 0.028862685 0.75924855
-0.013296039 0.028069437 0.75874174
-0.013270884 0.027279079 0.75823563
-0.013245882 0.026491791 0.75773269
-0.013220973 0.025707483 0.75723159
-0.013196101 0.024925977 0.75673115
-0.013171379 0.02414757 0.75623381
-0.013146693 0.023371935 0.75573713
-0.013122155 0.02259928 0.75524354
-0.013097711 0.021829575 0.75475168
-0.013073299 0.021062583 0.75426054
-0.013049036 0.020298511 0.75377244
-0.013024861 0.01953733 0.75328606
-0.013000721 0.018778801 0.75280041
-0.012976725 0.018023223 0.75231767
-0.012952762 0.017270356 0.75183558
-0.012928944 0.016520321 0.75135636
-0.012905212 0.015773028 0.75087893
-0.012881513 0.015028447 0.75040215
-0.012857955 0.014286637 0.74992824
-0.012834428 0.01354748 0.74945492
-0.012811042 0.012811035 0.74898434
-0.012787742 0.012077302 0.74851561
-0.012764471 0.011346191 0.74804741
-0.012741338 0.010617822 0.74758202
-0.012718236 0.009891957 0.74711728
-0.012695272 0.0091688037 0.74665523
-0.012672389 0.0084483027 0.7461949
-0.012649537 0.0077303052 0.74573505
-0.012626818 0.0070149004 0.74527812
-0.01260413 0.0063020885 0.74482155
-0.012581574 0.0055918097 0.74436784
-0.012559099 0.0048841238 0.74391568
-0.012536653 0.0041788816 0.74346411
-0.012514339 0.0034762323 0.74301517
-0.012492104 0.0027760565 0.74256784
-0.012469896 0.0020783246 0.74212104
-0.012447819 0.001383096 0.74167687
-0.012425767 0.000690341 0.74123323
-0.012403845 2.9802322e-08 0.74079227
-0.012382002 -0.0006878674 0.74035275
-0.012360283 -0.0013733804 0.73991585
-0.012338694 -0.0020564198 0.73948151
-0.012317179 -0.0027371645 0.7390486
-0.012295739 -0.0034154654 0.7386173
-0.012274373 -0.0040914416 0.73818743
-0.012253033 -0.0047650337 0.7377581
-0.012231815 -0.0054363608 0.73733127
-0.012210671 -0.0061053038 0.73690587
-0.0121896 -0.0067719519 0.7364819
-0.012168602 -0.0074363351 0.73605943
-0.012147675 -0.0080984533 0.7356385
-0.012126821 -0.0087582469 0.73521894
-0.01210599 -0.0094157457 0.73479986
-0.012085278 -0.010071009 0.73438317
-0.012064637 -0.010724097 0.73396784
-0.012044067 -0.011374921 0.73355401
-0.012023567 -0.012023568 0.7331416
-0.012003087 -0.012669921 0.73272961
-0.011982726 -0.013314128 0.73231995
-0.011962434 -0.013956159 0.73191166
-0.011942211 -0.014596015 0.73150486
-0.011922055 -0.015233755 0.73109937
-0.011901968 -0.01586929 0.73069519
-0.011881901 -0.016502619 0.73029143
-0.011861947 -0.017133921 0.72989005
-0.011842062 -0.017763048 0.72948992
-0.011822243 -0.018390149 0.72909129
-0.01180249 -0.019015133 0.7286939
-0.011782803 -0.019638002 0.72829783
-0.011763135 -0.020258725 0.72790217
-0.011743579 -0.020877451 0.72750872
-0.011724089 -0.02149415 0.72711653
-0.011704662 -0.022108793 0.72672582
-0.011685301 -0.02272144 0.72633624
-0.011666002 -0.023332 0.72594792
-0.011646767 -0.023940563 0.7255609
-0.011627551 -0.024547011 0.72517431
-0.011608443 -0.025151581 0.72478992
-0.011589397 -0.025754184 0.72440678
-0.011570415 -0.02635479 0.72402483
-0.011551493 -0.026953459 0.72364426
-0.011532634 -0.027550161 0.72326475
-0.011513792 -0.028144807 0.72288573
-0.011495055 -0.028737575 0.72250879
-0.01147638 -0.029328525 0.72213304
-0.011457765 -0.029917479 0.72175848
-0.01143921 -0.030504555 0.72138524
-0.011420717 -0.031089723 0.72101319
-0.011402237 -0.031672865 0.72064137
-0.011383861 -0.032254279 0.72027171
-0.011365546 -0.032833785 0.71990323
-0.011347288 -0.033411473 0.71953595
-0.011329089 -0.033987284 0.71916986
-0.01131095 -0.034561187 0.71880484
-0.011292825 -0.035133213 0.71844018
-0.011274799 -0.03570354 0.71807754
-0.011256832 -0.036271989 0.7177161
-0.011238922 -0.036838681 0.71735573
-0.011221069 -0.037403554 0.71699661
-0.011203272 -0.037966609 0.71663857
-0.011185491 -0.038527787 0.71628082
-0.011167807 -0.039087325 0.7159251
-0.011150178 -0.039645076 0.71557039
-0.011132605 -0.040201068 0.71521682
-0.011115089 -0.040755302 0.71486437
-0.011097626 -0.041307837 0.71451312
-0.011080178 -0.041858464 0.71416211
-0.011062825 -0.042407483 0.71381295
-0.011045527 -0.042954832 0.71346498
-0.011028282 -0.043500394 0.71311796
-0.011011091 -0.044044346 0.71277213
-0.010993954 -0.044586569 0.71242738
-0.01097683 -0.045126945 0.71208286
-0.010959798 -0.045665801 0.71174026
-0.010942821 -0.046203017 0.71139866
-0.010925896 -0.046738535 0.71105814
-0.010909022 -0.047272384 0.71071875
-0.010892201 -0.047804654 0.71038032
-0.010875393 -0.048335075 0.71004212
-0.010858675 -0.048864037 0.70970583
-0.010842008 -0.049391359 0.70937049
-0.010825393 -0.049917072 0.70903623
-0.010808866 -0.050441355 0.7087037
-0.01079243 -0.050964236 0.70837307
-0.010776005 -0.05148536 0.70804262
-0.010759668 -0.052005053 0.70771396
-0.010743381 -0.052523166 0.70738626
-0.010727105 -0.053039551 0.70705879
-0.010710916 -0.053554565 0.70673311
-0.010694776 -0.054068029 0.70640844
-0.010678646 -0.054579705 0.70608389
-0.010662603 -0.0550901 0.70576108
-0.01064657 -0.055598766 0.70543861
-0.010630624 -0.056106031 0.7051177
-0.010614725 -0.056611836 0.70479786
-0.010598836 -0.057115912 0.70447826
-0.010583031 -0.057618678 0.70416021
-0.010567274 -0.058120012 0.7038433
-0.010551526 -0.058619589 0.70352644
-0.010535863 -0.059117883 0.70321131
-0.010520209 -0.059614509 0.70289636
-0.010504637 -0.060109854 0.70258307
-0.010489113 -0.060603738 0.70227075
-0.010473598 -0.061095953 0.7019586
-0.010458164 -0.061586976 0.70164812
-0.010442777 -0.062076479 0.70133853
-0.010497622 -0.062985688 0.70244193
-0.010589601 -0.064125896 0.70429242
-0.010683207 -0.065286219 0.70617563
-0.012433951 -0.076676011 0.74139786
-0.012417288 -0.077263087 0.74106258
-0.012400669 -0.077848643 0.74072832
-0.012384095 -0.07843259 0.74039489
-0.012367616 -0.079015344 0.74006331
-0.01235113 -0.079596192 0.73973167
-0.012334689 -0.080175489 0.73940092
-0.012318291 -0.080753237 0.73907101
-0.012301987 -0.081329823 0.73874295
-0.012285677 -0.081904471 0.73841482
-0.012269408 -0.082477659 0.73808753
-0.012253232 -0.083049685 0.73776209
-0.012237051 -0.083619863 0.73743653
-0.012220911 -0.084188461 0.73711181
-0.012316321 -0.085529983 0.73903131
-0.014342417 0.087741882 0.79676658
-0.01431136 0.086710036 0.79610503
-0.014280366 0.085682243 0.79544479
-0.014249578 0.084659249 0.79478896
-0.014218922 0.083640724 0.79413593
-0.014188326 0.082626134 0.79348421
-0.014157932 0.081616372 0.79283673
-0.014127599 0.080610454 0.79219055
-0.014097464 0.079609245 0.79154873
-0.014067389 0.07861191 0.79090804
-0.01403751 0.077619195 0.79027152
-0.014007759 0.076630682 0.7896378
-0.013978065 0.075646043 0.78900528
-0.013948564 0.074665844 0.78837681
-0.013919189 0.073689848 0.78775108
-0.013889868 0.072717547 0.78712648
-0.01386074 0.071749747 0.786506
-0.013831731 0.07078591 0.78588802
-0.013802845 0.069826186 0.78527272
-0.013774011 0.068870068 0.78465849
-0.013745433 0.067918628 0.78404975
-0.013717038 0.066971451 0.78344488
-0.01368876 0.066028148 0.78284252
-0.013660599 0.065088749 0.7822426
-0.013632554 0.064153194 0.78164518
-0.013604688 0.063221782 0.78105164
-0.013576871 0.062293887 0.78045905
-0.013549168 0.061369807 0.77986896
-0.013521576 0.060449421 0.7792812
-0.013494163 0.059533089 0.77869725
-0.013466795 0.058620185 0.77811426
-0.013439539 0.057710975 0.77753365
-0.013412394 0.056805462 0.77695537
-0.01338542 0.055903852 0.77638078
-0.013358491 0.05500558 0.77580714
-0.013331734 0.054111212 0.7752372
-0.013305021 0.053220063 0.77466816
-0.013278414 0.05233258 0.77410138
-0.013251977 0.051448882 0.77353817
-0.013225581 0.050568402 0.77297598
-0.013199354 0.049691707 0.77241725
-0.013173169 0.04881826 0.77185941
-0.013147147 0.04794842 0.77130514
-0.01309874 0.047001392 0.77027398
-0.013072891 0.046139628 0.76972336
-0.013047205 0.0452815 0.76917613
-0.013021559 0.044426501 0.76862991
-0.012996075 0.043575108 0.76808697
-0.012970687 0.042726994 0.76754618
-0.012945342 0.041882008 0.76700628
-0.012920153 0.04104051 0.76646972
-0.012895003 0.040202111 0.76593399
-0.012870011 0.03936711 0.7654016
-0.012845114 0.038535357 0.76487124
-0.012820257 0.037706643 0.76434171
-0.012795553 0.036881298 0.76381546
-0.012770886 0.036058992 0.76329005
-0.01274637 0.035239965 0.76276785
-0.01272195 0.034424096 0.76224768
-0.012697566 0.033611238 0.76172817
-0.01267333 0.032801598 0.76121193
-0.01264919 0.031994998 0.76069766
-0.012625083 0.031191409 0.76018417
-0.012601124 0.030390978 0.75967383
-0.0125772 0.029593438 0.75916415
-0.012553423 0.028799057 0.75865769
-0.012529735 0.028007656 0.75815308
-0.012506082 0.027219087 0.75764924
-0.012482572 0.026433706 0.75714844
-0.012459151 0.025651217 0.75664949
-0.012435762 0.024871558 0.75615126
-0.012412516 0.024094909 0.75565612
-0.012389411 0.023321241 0.75516391
-0.012366391 0.022550493 0.75467354
-0.012343512 0.021782666 0.75418621
-0.012320716 0.02101773 0.75370049
-0.012298004 0.020255595 0.75321674
-0.012275375 0.019496202 0.75273472
-0.01225283 0.018739671 0.75225449
-0.012230315 0.017985761 0.75177485
-0.012207936 0.017234743 0.75129807
-0.012185637 0.016486466 0.75082314
-0.01216342 0.015740901 0.75034988
-0.012141284 0.014998078 0.74987829
-0.012119228 0.014257908 0.74940854
-0.012097253 0.013520509 0.74894035
-0.012075306 0.012785643 0.74847281
-0.012053489 0.01205349 0.74800813
-0.012031751 0.011324018 0.74754506
-0.01201009 0.01059714 0.74708366
-0.011988508 0.0098728836 0.74662393
-0.011967003 0.0091512501 0.74616581
-0.011945525 0.0084321797 0.74570835
-0.011924175 0.0077156723 0.74525356
-0.011902901 0.007001698 0.74480033
-0.011881703 0.0062903166 0.74434876
-0.011860578 0.0055814683 0.74389875
-0.011839529 0.0048750937 0.74345046
-0.011818507 0.0041712821 0.74300253
-0.011797607 0.0034698844 0.74255735
-0.011776781 0.0027710199 0.74211371
-0.011756029 0.0020746291 0.74167168
-0.01173535 0.0013806522 0.7412312
-0.011714743 0.0006891489 0.74079221
-0.011694161 2.9802322e-08 0.7403537
-0.011673698 -0.00068670511 0.73991793
-0.011653307 -0.0013709664 0.73948348
-0.011632986 -0.0020528734 0.73905063
-0.011612738 -0.0027324259 0.73861933
-0.011592559 -0.0034095645 0.73818946
-0.011572403 -0.0040843487 0.73776007
-0.011552365 -0.0047568381 0.7373333
-0.011532394 -0.0054270029 0.73690784
-0.011512494 -0.006094873 0.73648399
-0.011492661 -0.0067603588 0.73606145
-0.011472898 -0.0074236095 0.73564047
-0.011453155 -0.0080845654 0.73521996
-0.011433527 -0.0087432265 0.73480177
-0.011413965 -0.0093997121 0.73438513
-0.011394471 -0.010053933 0.73396981
-0.011375044 -0.010705918 0.73355597
-0.01135568 -0.011355639 0.73314351
-0.011336385 -0.012003213 0.73273253
-0.01131711 -0.012648553 0.73232186
-0.011297945 -0.013291687 0.73191363
-0.011278844 -0.013932675 0.73150676
-0.011259808 -0.014571518 0.73110121
-0.011240836 -0.015208185 0.7306971
-0.011221928 -0.015842706 0.73029435
-0.011203039 -0.016475052 0.7298919
-0.011184258 -0.017105311 0.72949189
-0.01116554 -0.017733485 0.72909313
-0.011146883 -0.018359542 0.72869575
-0.011128291 -0.018983543 0.72829974
-0.011109758 -0.019605428 0.72790492
-0.011091245 -0.020225197 0.72751051
-0.011072837 -0.020842969 0.72711837
-0.01105449 -0.021458715 0.7267276
-0.011036202 -0.022072345 0.72633803
-0.011017976 -0.022684038 0.72594976
-0.010999809 -0.023293674 0.72556275
-0.010981661 -0.023901254 0.72517616
-0.010963613 -0.024506897 0.72479177
-0.010945626 -0.025110543 0.72440857
-0.010927698 -0.025712222 0.72402668
-0.010909827 -0.026311934 0.72364599
-0.010892015 -0.026909649 0.72326654
-0.010874262 -0.027505487 0.72288841
-0.010856524 -0.028099239 0.72251058
-0.010838886 -0.028691173 0.72213483
-0.010821387 -0.029281378 0.72176206
-0.010803945 -0.029869705 0.72139049
-0.010786518 -0.030456036 0.72101927
-0.010769189 -0.031040609 0.72065014
-0.010751914 -0.031623274 0.7202822
-0.010734655 -0.032203943 0.7199145
-0.010717492 -0.032782912 0.71954882
-0.010700342 -0.033359885 0.71918356
-0.010683287 -0.03393513 0.71882027
-0.010666288 -0.034508586 0.71845812
-0.010649302 -0.035080045 0.71809638
-0.010632409 -0.035649836 0.71773648
-0.01061557 -0.036217809 0.71737778
-0.010598746 -0.036783874 0.71701938
-0.010582014 -0.03734827 0.71666294
-0.010565295 -0.037910759 0.71630681
-0.010548668 -0.038471609 0.71595258
-0.010532093 -0.039030671 0.71559954
-0.010515532 -0.039587855 0.71524668
-0.01049906 -0.04014346 0.7148959
-0.010482641 -0.040697306 0.71454608
-0.010466235 -0.041249275 0.71419668
-0.010449918 -0.041799635 0.71384907
-0.010433613 -0.042348176 0.71350175
-0.010417398 -0.042895138 0.71315634
-0.010401233 -0.043440431 0.71281207
-0.01038508 -0.043983877 0.71246791
-0.010369016 -0.044525772 0.71212572
-0.010353 -0.045065999 0.71178448
-0.010336997 -0.045604408 0.71144366
-0.01032108 -0.046141267 0.71110451
-0.010305175 -0.046676338 0.71076572
-0.010289356 -0.047209978 0.71042883
-0.010273586 -0.04774195 0.7100929
-0.010257826 -0.048272103 0.70975715
-0.010242152 -0.048800826 0.70942318
-0.010226526 -0.04932794 0.70909035
-0.010210912 -0.049853235 0.7087577
-0.01019538 -0.050377131 0.70842689
-0.01017986 -0.050899267 0.70809627
-0.010164423 -0.051419973 0.70776743
-0.010149033 -0.05193916 0.70743966
-0.010133653 -0.052456558 0.70711201
-0.010118356 -0.052972585 0.70678622
-0.010103106 -0.053487003 0.70646125
-0.010087864 -0.053999752 0.70613664
-0.010072705 -0.05451113 0.70581377
-0.010057556 -0.05502075 0.70549101
-0.010042488 -0.055529058 0.70517004
-0.010027464 -0.056035787 0.70484996
-0.01001245 -0.056540877 0.70453018
-0.0099975169 -0.057044625 0.70421201
-0.0099826278 -0.057546884 0.70389485
-0.0099677471 -0.058047444 0.70357794
-0.0099529475 -0.058546722 0.70326269
-0.0099381907 -0.05904451 0.70294827
-0.0099234432 -0.059540629 0.7026341
-0.009908773 -0.060035527 0.70232165
-0.0098941121 -0.060528666 0.70200932
-0.0098795295 -0.061020583 0.70169872
-0.0098649897 -0.06151107 0.70138901
-0.0098504582 -0.061999947 0.70107937
-0.0099143861 -0.06298548 0.70244122
-0.01000129 -0.064125896 0.70429242
-0.010089695 -0.065286219 0.70617563
-0.011780402 -0.076919109 0.7421909
-0.011764174 -0.077505141 0.74184519
-0.011747943 -0.078089237 0.74149942
-0.011731756 -0.078671724 0.74115467
-0.011715614 -0.07925266 0.74081075
-0.011699564 -0.079832315 0.74046886
-0.011683512 -0.080410063 0.74012691
-0.011667501 -0.080986202 0.73978591
-0.011651536 -0.081560761 0.73944581
-0.01163566 -0.082134068 0.73910761
-0.011619782 -0.082705498 0.73876935
-0.011603946 -0.083275348 0.73843199
-0.011588153 -0.083843678 0.73809564
-0.011572308 -0.084409773 0.73775816
-0.01163208 -0.085529983 0.73903131
-0.01353716 0.088837624 0.79763603
-0.013461226 0.087498009 0.79591739
-0.013432361 0.086470813 0.79526412
-0.013403553 0.085447669 0.79461211
-0.013374868 0.084428906 0.79396284
-0.013346305 0.083414406 0.79331642
-0.013317864 0.082404286 0.79267269
-0.01328961 0.081398875 0.7920332
-0.01326141 0.080397278 0.79139495
-0.01323333 0.079400003 0.79075938
-0.013205368 0.07840687 0.79012656
-0.013177524 0.07741797 0.7894963
-0.013149861 0.076433569 0.78887022
-0.013122251 0.075452954 0.78824532
-0.013094756 0.07447648 0.78762305
-0.013067376 0.073504031 0.78700334
-0.01304011 0.072535604 0.78638619
-0.013013022 0.071571648 0.78577316
-0.012985981 0.070611298 0.78516108
-0.012959055 0.069654942 0.78455162
-0.012932301 0.068702877 0.7839461
-0.012905596 0.067754388 0.78334171
-0.012879062 0.066810101 0.78274119
-0.012852577 0.06586948 0.78214175
-0.012826259 0.064932942 0.78154612
-0.01279999 0.063999951 0.7809515
-0.012773828 0.063070804 0.78035939
-0.012747832 0.06214571 0.77977097
-0.012721883 0.061224073 0.77918369
-0.012696099 0.060306519 0.7786001
-0.012670359 0.059392333 0.77801758
-0.012644783 0.05848217 0.77743864
-0.01261925 0.057575405 0.77686077
-0.012593879 0.056672484 0.77628654
-0.012568553 0.05577296 0.77571332
-0.012543386 0.054877311 0.77514374
-0.012518261 0.053985029 0.774575
-0.012493237 0.053096294 0.77400869
-0.01246837 0.052211314 0.77344584
-0.012443543 0.051329643 0.77288401
-0.012418875 0.050451696 0.77232558
-0.012394246 0.049576998 0.77176821
-0.012369771 0.048705995 0.77121425
-0.012324695 0.047758222 0.77019405
-0.012300552 0.046895891 0.7696476
-0.012276502 0.046036959 0.76910329
-0.012252547 0.045181274 0.76856107
-0.012228684 0.044328988 0.76802099
-0.012204913 0.043480039 0.767483
-0.012181181 0.042634159 0.7669459
-0.012157596 0.041791737 0.76641208
-0.012134101 0.040952623 0.76588029
-0.012110697 0.040116668 0.76535064
-0.012087383 0.039283991 0.76482296
-0.01206416 0.038454562 0.76429725
-0.012040971 0.037628055 0.76377243
-0.012017923 0.036804885 0.76325083
-0.011994966 0.035984933 0.76273119
-0.011972096 0.035168052 0.76221359
-0.011949311 0.034354329 0.76169789
-0.011926615 0.033543617 0.76118422
-0.011904003 0.032736033 0.76067245
-0.011881426 0.03193137 0.7601614
-0.011858986 0.031129837 0.75965345
-0.01183663 0.030331403 0.75914752
-0.011814359 0.029535919 0.75864351
-0.01179217 0.028743416 0.75814134
-0.011770066 0.027953923 0.75764096
-0.011747993 0.027167261 0.75714141
-0.011726053 0.026383638 0.75664485
-0.011704195 0.025602967 0.75615013
-0.011682419 0.024825156 0.75565726
-0.011660725 0.024050266 0.75516623
-0.011639109 0.023278236 0.754677
-0.011617524 0.022508979 0.75418848
-0.011596069 0.021742642 0.75370282
-0.011574693 0.020979136 0.75321901
-0.011553395 0.020218462 0.75273705
-0.011532175 0.019460529 0.75225675
-0.011511034 0.018705457 0.75177824
-0.01148992 0.017953008 0.75130045
-0.011468933 0.01720342 0.75082535
-0.011448023 0.016456544 0.75035214
-0.011427188 0.01571241 0.74988055
-0.011406429 0.014970958 0.74941075
-0.011385747 0.014232218 0.74894261
-0.011365138 0.013496101 0.74847615
-0.011344557 0.012762666 0.74801034
-0.011324096 0.012031853 0.74754721
-0.011303711 0.011303753 0.74708581
-0.011283398 0.010578215 0.74662608
-0.011263158 0.0098553002 0.74616802
-0.011242989 0.0091349483 0.74571151
-0.011222848 0.0084171593 0.74525565
-0.011202823 0.0077019632 0.74480247
-0.011182873 0.0069893003 0.74435091
-0.011162991 0.0062792003 0.7439009
-0.011143181 0.0055716336 0.74345249
-0.011123439 0.0048665106 0.74300569
-0.011103723 0.0041638911 0.74255949
-0.011084122 0.0034638345 0.7421158
-0.011064589 0.0027661324 0.74167383
-0.011045126 0.0020709336 0.74123329
-0.011025731 0.0013782382 0.7407943
-0.011006405 0.00068792701 0.74035686
-0.0109871 -0 0.7399199
-0.010967908 -0.00068551302 0.73948556
-0.010948784 -0.0013685822 0.73905265
-0.010929725 -0.0020492971 0.73862135
-0.010910734 -0.0027276576 0.73819149
-0.010891807 -0.0034036338 0.73776305
-0.010872946 -0.0040773451 0.73733622
-0.010854151 -0.0047486424 0.73691082
-0.010835509 -0.0054177642 0.73648888
-0.01081693 -0.0060845017 0.73606837
-0.01079837 -0.0067489743 0.73564833
-0.010779919 -0.0074111819 0.73523074
-0.010761487 -0.0080710948 0.73481357
-0.010743162 -0.0087288022 0.73439878
-0.010724897 -0.0093843043 0.73398542
-0.010706653 -0.010037482 0.73357254
-0.010688514 -0.010688514 0.73316193
-0.010670436 -0.01133731 0.7327528
-0.010652375 -0.011983931 0.73234403
-0.010634419 -0.012628376 0.73193759
-0.01061648 -0.013270557 0.73153162
-0.010598645 -0.013910711 0.73112792
-0.010580869 -0.014548659 0.73072559
-0.010563111 -0.015184462 0.73032367
-0.010545454 -0.015818149 0.72992402
-0.010527855 -0.01644972 0.72952569
-0.010510274 -0.017079175 0.72912776
-0.010492793 -0.017706573 0.72873211
-0.01047537 -0.018331885 0.72833782
-0.010457965 -0.018955052 0.7279439
-0.010440657 -0.019576192 0.72755206
-0.010423366 -0.020195276 0.72716081
-0.010406173 -0.020812362 0.72677171
-0.010389036 -0.021427363 0.72638375
-0.010371916 -0.022040308 0.72599632
-0.01035489 -0.022651315 0.72561103
-0.010337923 -0.023260295 0.72522688
-0.010320971 -0.02386722 0.72484326
-0.010304113 -0.024472266 0.72446173
-0.010287271 -0.025075197 0.7240805
-0.010270523 -0.02567631 0.72370148
-0.01025383 -0.026275396 0.72332358
-0.010237152 -0.026872516 0.72294617
-0.010220567 -0.027467728 0.72257072
-0.010204036 -0.028061092 0.72219658
-0.010187519 -0.02865237 0.72182274
-0.010171094 -0.02924186 0.72145098
-0.010154683 -0.029829353 0.72107965
-0.010138365 -0.030415088 0.72071028
-0.010122097 -0.030998915 0.7203421
-0.010105845 -0.031580746 0.71997428
-0.010089682 -0.032160848 0.71960843
-0.010073571 -0.032739103 0.71924382
-0.010057474 -0.03331539 0.71887946
-0.010041465 -0.03388992 0.71851707
-0.010025471 -0.034462512 0.71815509
-0.010009564 -0.035033435 0.71779507
-0.0099937078 -0.035602599 0.71743619
-0.0099778632 -0.036169738 0.71707761
-0.009962108 -0.036735266 0.71672106
-0.0099464012 -0.037298977 0.71636552
-0.0099307066 -0.037860781 0.71601033
-0.0099150995 -0.038421005 0.71565706
-0.0098995045 -0.038979292 0.71530414
-0.0098839942 -0.039535969 0.71495306
-0.0098685324 -0.040090919 0.71460313
-0.0098530836 -0.04064396 0.71425349
-0.0098377187 -0.041195422 0.71390563
-0.0098224021 -0.041745186 0.71355903
-0.0098070968 -0.042293102 0.71321261
-0.0097918743 -0.042839438 0.71286809
-0.009776664 -0.043383926 0.71252382
-0.0097615365 -0.043926895 0.71218145
-0.0097464556 -0.044468164 0.71184009
-0.0097313859 -0.045007676 0.71149909
-0.0097163981 -0.045545608 0.71115977
-0.0097014569 -0.046081901 0.71082157
-0.009686525 -0.046616405 0.71048373
-0.009671675 -0.04714939 0.71014756
-0.0096568353 -0.047680616 0.70981169
-0.0096420757 -0.048210382 0.70947766
-0.0096273618 -0.048738509 0.70914459
-0.0096126581 -0.049264848 0.70881182
-0.0095980335 -0.049789757 0.70848078
-0.0095834527 -0.050313115 0.70815074
-0.0095688822 -0.050834656 0.70782101
-0.0095543899 -0.051354855 0.70749307
-0.0095399087 -0.051873237 0.7071653
-0.009525504 -0.052390277 0.70683932
-0.009511143 -0.052905709 0.70651418
-0.0094967922 -0.053419411 0.70618933
-0.0094825169 -0.053931773 0.70586634
-0.0094682854 -0.054442644 0.70554423
-0.0094540631 -0.054951727 0.70522231
-0.0094399173 -0.05545947 0.70490211
-0.0094257789 -0.055965543 0.70458215
-0.0094117178 -0.056470305 0.70426387
-0.0093976967 -0.056973517 0.70394659
-0.0093836859 -0.05747506 0.70362943
-0.0093697486 -0.057975292 0.70331395
-0.0093558542 -0.058474094 0.70299953
-0.0093419664 -0.058971137 0.70268524
-0.009328153 -0.059466988 0.70237261
-0.0093143489 -0.05996111 0.7020601
-0.0093006166 -0.060454011 0.70174932
-0.0092869261 -0.060945451 0.70143944
-0.0092732422 -0.061435193 0.70112973
-0.0092596319 -0.061923772 0.70082164
-0.0093311872 -0.06298548 0.70244122
-0.0094486736 -0.064369053 0.7051003
-0.011122373 -0.076466262 0.74298155
-0.011106772 -0.077053189 0.74262846
-0.011091216 -0.077638477 0.74227643
-0.011075657 -0.078221798 0.74192429
-0.011060188 -0.078803837 0.74157411
-0.01104476 -0.079384238 0.741225
-0.011029378 -0.079962999 0.74087679
-0.011014037 -0.080540121 0.7405296
-0.010998739 -0.081115663 0.74018329
-0.010983483 -0.081689656 0.739838
-0.010968269 -0.082262009 0.73949367
-0.010953098 -0.082832783 0.73915029
-0.010937968 -0.083401978 0.73880786
-0.01092288 -0.083969653 0.73846638
-0.010907834 -0.084535688 0.73812586
-0.01094784 -0.085529983 0.73903131
-0.012615254 0.088306785 0.79580522
-0.012588151 0.087277889 0.795151
-0.012561162 0.086253345 0.7944994
-0.012534352 0.085233629 0.79385209
-0.012507594 0.084217817 0.7932061
-0.012481013 0.083206773 0.79256445
-0.012454483 0.082199603 0.79192388
-0.012428064 0.081196696 0.79128617
-0.012401819 0.080198407 0.79065251
-0.012375623 0.079203993 0.79002011
-0.01234966 0.078214496 0.78939331
-0.012323805 0.077229232 0.78876907
-0.012298119 0.076248378 0.788149
-0.01227248 0.075271249 0.78752995
-0.012246947 0.074298173 0.78691357
-0.012221579 0.073329508 0.78630114
-0.012196259 0.07236445 0.78568983
-0.012171041 0.071403474 0.78508103
-0.012145987 0.070446759 0.78447616
-0.012120978 0.069493651 0.78387237
-0.012096128 0.068544775 0.7832725
-0.012071324 0.067599416 0.78267372
-0.01204662 0.06665799 0.78207731
-0.012022075 0.065720707 0.78148466
-0.011997574 0.064786941 0.78089315
-0.011973171 0.06385693 0.78030407
-0.011948924 0.062931061 0.77971864
-0.011924719 0.06200853 0.77913433
-0.01190061 0.061089784 0.77855229
-0.011876657 0.060175061 0.77797401
-0.011852742 0.059263766 0.77739662
-0.01182898 0.058356345 0.77682292
-0.011805315 0.057452559 0.77625161
-0.011781687 0.056552082 0.7756812
-0.011758208 0.055655539 0.77511436
-0.011734768 0.054762274 0.77454853
-0.011711477 0.053872824 0.77398616
-0.011688222 0.052986622 0.7734248
-0.011665115 0.052104205 0.7728669
-0.011642044 0.051225007 0.77230996
-0.011619119 0.050349563 0.77175641
-0.011596285 0.049477518 0.77120513
-0.011573484 0.048608631 0.7706548
-0.011531874 0.047665089 0.76965016
-0.011509327 0.046804607 0.76910591
-0.011486867 0.045947492 0.76856357
-0.011464497 0.045093685 0.76802355
-0.011442211 0.044243217 0.76748556
-0.011420013 0.043396056 0.76694965
-0.011397902 0.042552203 0.76641583
-0.011375823 0.04171139 0.76588273
-0.011353882 0.040873975 0.76535308
-0.011332025 0.040039837 0.7648254
-0.011310252 0.039208889 0.76429981
-0.011288563 0.03838113 0.76377612
-0.011266956 0.037556559 0.76325446
-0.011245382 0.036734939 0.76273364
-0.01122394 0.035916626 0.76221597
-0.01120258 0.035101414 0.76170027
-0.011181301 0.03428936 0.7611866
-0.011160103 0.033480316 0.76067483
-0.011138985 0.032674372 0.76016504
-0.011117898 0.031871319 0.75965589
-0.011096939 0.031071454 0.75914991
-0.011076059 0.03027457 0.75864589
-0.011055258 0.029480696 0.75814366
-0.011034534 0.028689802 0.75764334
-0.011013888 0.027901888 0.75714487
-0.010993271 0.027116746 0.75664723
-0.010972779 0.026334703 0.75615239
-0.010952364 0.025555521 0.75565958
-0.010932025 0.02477929 0.7551685
-0.01091176 0.02400589 0.75467932
-0.010891571 0.023235351 0.75419188
-0.010871504 0.022467792 0.75370741
-0.010851556 0.021703124 0.75322586
-0.010831682 0.020941287 0.75274605
-0.010811835 0.020182103 0.75226688
-0.010792106 0.019425809 0.75179064
-0.010772403 0.018672198 0.75131494
-0.010752819 0.017921358 0.75084209
-0.010733305 0.01717329 0.75037104
-0.010713816 0.016427845 0.74990046
-0.010694442 0.015685201 0.7494328
-0.01067514 0.014945239 0.74896681
-0.010655861 0.01420784 0.74850136
-0.010636698 0.013473123 0.74803865
-0.010617557 0.012741089 0.74757659
-0.01059853 0.012011707 0.74711722
-0.010579571 0.011284888 0.74665952
-0.010560636 0.010560662 0.74620247
-0.010541813 0.0098390281 0.74574798
-0.010523057 0.0091199875 0.74529517
-0.010504323 0.0084034503 0.74484295
-0.0104857 0.0076895356 0.74439335
-0.010467099 0.0069780946 0.74394423
-0.010448608 0.0062691569 0.74349779
-0.010430181 0.0055627525 0.74305296
-0.010411776 0.0048588216 0.74260867
-0.010393479 0.0041573942 0.74216688
-0.010375247 0.0034584105 0.74172676
-0.010357035 0.0027619004 0.74128699
-0.010338929 0.0020678043 0.74084997
-0.010320846 0.0013761222 0.74041331
-0.010302867 0.00068688393 0.73997927
-0.01028495 5.9604645e-08 0.73954672
-0.010267054 -0.00068446994 0.7391147
-0.010249262 -0.0013665557 0.73868519
-0.010231531 -0.0020462871 0.73825717
-0.01021382 -0.0027236938 0.73782957
-0.010196212 -0.0033987463 0.73740441
-0.010178623 -0.0040714145 0.73697978
-0.010161135 -0.0047418475 0.7365576
-0.010143708 -0.005409956 0.73613691
-0.0101263 -0.0060757399 0.73571658
-0.010108992 -0.0067393184 0.73529881
-0.010091743 -0.0074006021 0.73488235
-0.010074512 -0.0080595911 0.73446637
-0.010057381 -0.0087164044 0.73405278
-0.010040267 -0.0093708932 0.7336396
-0.010023251 -0.010023266 0.73322886
-0.010006294 -0.010673374 0.73281938
-0.0099893538 -0.011321247 0.73241043
-0.0099725099 -0.011967003 0.73200381
-0.0099557228 -0.012610555 0.73159856
-0.0099389534 -0.01325193 0.73119372
-0.009922279 -0.01389116 0.73079115
-0.0099056214 -0.014528245 0.73038894
-0.0098890588 -0.015163213 0.72998911
-0.009872552 -0.015796065 0.72959065
-0.0098560611 -0.016426742 0.7291925
-0.0098396633 -0.017055422 0.7287966
-0.0098233204 -0.017681956 0.72840202
-0.0098069934 -0.018306375 0.72800785
-0.0097907595 -0.018928796 0.72761595
-0.0097745396 -0.019549072 0.72722441
-0.0097584128 -0.020167381 0.72683507
-0.0097423382 -0.020783633 0.72644693
-0.0097262794 -0.021397769 0.72605932
-0.00971031 -0.022010028 0.72567374
-0.0096943947 -0.022620231 0.72528946
-0.0096784923 -0.023228347 0.72490555
-0.0096626794 -0.023834586 0.72452378
-0.0096468823 -0.024438739 0.72414243
-0.0096311728 -0.025041044 0.72376317
-0.0096155144 -0.025641352 0.72338516
-0.0095998701 -0.026239663 0.72300744
-0.0095843133 -0.026836097 0.72263193
-0.0095687713 -0.027430475 0.72225666
-0.0095533151 -0.028023005 0.72188354
-0.0095379092 -0.028613716 0.72151154
-0.0095225153 -0.029202372 0.72114003
-0.0095072091 -0.029789239 0.72077048
-0.0094919503 -0.030374229 0.72040206
-0.0094767055 -0.030957192 0.720034
-0.0094615454 -0.031538457 0.71966803
-0.0094463974 -0.032117754 0.7193023
-0.0094313342 -0.032695293 0.71893871
-0.0094163185 -0.033271015 0.71857619
-0.0094013149 -0.033844739 0.71821392
-0.0093863951 -0.034416795 0.71785372
-0.0093715219 -0.034987003 0.71749473
-0.0093566608 -0.035555303 0.71713591
-0.0093418825 -0.036121935 0.71677911
-0.0093271146 -0.036686659 0.71642262
-0.0093124285 -0.037249714 0.71606803
-0.0092977891 -0.037811011 0.71571463
-0.0092831617 -0.03837043 0.71536142
-0.0092686126 -0.038928181 0.71501017
-0.0092541454 -0.039484322 0.71466094
-0.009239722 -0.040038794 0.71431273
-0.0092253443 -0.040591508 0.71396565
-0.0092110103 -0.041142464 0.71361959
-0.0091967219 -0.04169178 0.7132746
-0.0091824764 -0.042239338 0.71293074
-0.0091682766 -0.042785257 0.71258783
-0.0091541195 -0.043329477 0.71224612
-0.0091400063 -0.043871999 0.71190536
-0.0091259694 -0.044413 0.71156651
-0.0091119427 -0.044952214 0.71122789
-0.0090979598 -0.045489788 0.71089029
-0.0090840189 -0.046025664 0.71055377
-0.0090701208 -0.04655993 0.71021819
-0.0090562655 -0.047092527 0.70988369
-0.0090424521 -0.047623605 0.7095502
-0.0090286806 -0.048152953 0.70921779
-0.009014952 -0.048680723 0.70888633
-0.0090012634 -0.049206913 0.70855582
-0.0089876177 -0.049731463 0.70822638
-0.0089740129 -0.050254434 0.70789796
-0.0089604491 -0.050775856 0.70757049
-0.0089469273 -0.051295698 0.70724404
-0.0089334445 -0.05181396 0.7069186
-0.0089200027 -0.052330673 0.70659405
-0.0089066019 -0.052845806 0.70627058
-0.0088932412 -0.053359449 0.705948
-0.0088799205 -0.053871512 0.70562637
-0.0088666715 -0.054382235 0.70530653
-0.0088534299 -0.054891258 0.70498681
-0.0088402284 -0.055398732 0.70466805
-0.0088270651 -0.055904716 0.70435029
-0.0088139419 -0.05640921 0.70403349
-0.0088008568 -0.056912214 0.70371759
-0.0087878117 -0.057413667 0.70340264
-0.008774804 -0.057913721 0.70308864
-0.0087618353 -0.058412224 0.70277554
-0.0087489057 -0.058909267 0.70246339
-0.0087360134 -0.05940488 0.70215213
-0.0087231593 -0.059899002 0.70184183
-0.0087103425 -0.060391694 0.70153236
-0.0086975629 -0.060882926 0.70122385
-0.0086848224 -0.061372757 0.70091629
-0.0086726891 -0.061865151 0.70062333
-0.0087479874 -0.06298548 0.70244122
-0.01045638 -0.075983047 0.74368548
-0.01044163 -0.076571971 0.74332935
-0.010426964 -0.077159554 0.74297535
-0.010412339 -0.077745438 0.7426222
-0.010397756 -0.078329772 0.74227017
-0.010383213 -0.078912377 0.74191904
-0.010368711 -0.079493433 0.74156892
-0.010354249 -0.08007282 0.74121982
-0.010339827 -0.080650657 0.74087167
-0.010325447 -0.081226796 0.74052441
-0.010311104 -0.081801385 0.74017817
-0.010296803 -0.082374394 0.73983294
-0.010282541 -0.082945824 0.7394886
-0.010268318 -0.083515644 0.73914522
-0.010254135 -0.084083915 0.73880285
-0.010239991 -0.084650576 0.73846138
-0.0102636 -0.085529983 0.73903131
-0.011819772 0.089492559 0.79698312
-0.011747876 0.088109106 0.79512334
-0.01172281 0.087083727 0.79447508
-0.011697909 0.086063206 0.79383087
-0.011673055 0.085046589 0.79318804
-0.011648306 0.084034234 0.79254788
-0.011623721 0.083026588 0.79191196
-0.011599179 0.082022756 0.79127717
-0.011574743 0.081023246 0.790645
-0.011550467 0.080028236 0.79001713
-0.011526235 0.07903704 0.78939033
-0.011502162 0.078050405 0.78876758
-0.011478132 0.077067494 0.78814602
-0.011454202 0.076088637 0.78752708
-0.011430427 0.07511428 0.78691208
-0.011406696 0.074143559 0.78629827
-0.011383118 0.073177189 0.7856884
-0.011359584 0.072214514 0.7850796
-0.0113362 0.071256101 0.78447473
-0.011312858 0.070301354 0.78387094
-0.011289666 0.069350839 0.78327113
-0.01126657 0.068404198 0.7826736
-0.011243513 0.067461133 0.78207725
-0.011220604 0.066522181 0.78148472
-0.011197735 0.065586746 0.78089315
-0.011175012 0.064655423 0.78030539
-0.011152329 0.063727587 0.77971864
-0.01112979 0.062803835 0.77913564
-0.011107342 0.061883777 0.77855498
-0.011084932 0.060967147 0.77797532
-0.011062665 0.060054481 0.77739936
-0.011040434 0.059145212 0.77682436
-0.011018345 0.058239847 0.77625299
-0.010996292 0.057337821 0.77568251
-0.010974379 0.056439698 0.77511567
-0.010952502 0.055544823 0.77454984
-0.010930763 0.054653823 0.77398753
-0.010909109 0.05376637 0.77342737
-0.010887492 0.052882105 0.77286816
-0.01086601 0.052001625 0.77231258
-0.010844562 0.051124364 0.77175778
-0.010823248 0.050250798 0.77120644
-0.010801969 0.049380451 0.77065611
-0.010778633 0.048503876 0.77005249
-0.010742928 0.047575831 0.76912886
-0.010722012 0.046717346 0.76858783
-0.010701226 0.045862406 0.76805019
-0.010680472 0.045010567 0.76751339
-0.010659847 0.044162244 0.76697981
-0.010639302 0.043317169 0.76644838
-0.010618787 0.042475164 0.76591778
-0.0105984 0.041636586 0.7653904
-0.01057809 0.040801227 0.76486504
-0.01055781 0.039968848 0.76434052
-0.010537656 0.039139897 0.76381922
-0.010517531 0.038313866 0.76329863
-0.01049753 0.037491202 0.76278126
-0.010477604 0.036671638 0.76226586
-0.010457709 0.035855025 0.76175117
-0.010437934 0.03504166 0.76123971
-0.010418234 0.034231365 0.76073015
-0.010398562 0.03342399 0.76022124
-0.010379011 0.032619774 0.75971556
-0.010359487 0.03181842 0.75921059
-0.010340082 0.031020284 0.7587086
-0.010320749 0.030225068 0.75820845
-0.010301443 0.029432714 0.75770915
-0.010282255 0.028643429 0.75721276
-0.010263138 0.027857125 0.75671828
-0.010244046 0.027073622 0.75622451
-0.010225072 0.026293039 0.75573367
-0.010206122 0.025515318 0.75524348
-0.010187286 0.024740547 0.75475633
-0.010168521 0.023968667 0.75427091
-0.010149779 0.023199499 0.75378621
-0.010131151 0.022433251 0.7533043
-0.010112592 0.021669894 0.75282419
-0.010094056 0.020909131 0.75234479
-0.010075632 0.020151287 0.75186819
-0.010057231 0.019396096 0.75139225
-0.010038941 0.018643767 0.7509191
-0.010020717 0.017894149 0.75044775
-0.010002516 0.017147183 0.74997693
-0.0099844253 0.01640299 0.74950898
-0.0099663977 0.015661538 0.74904263
-0.0099483943 0.014922589 0.748577
-0.009930497 0.014186472 0.74811399
-0.0099126222 0.013452858 0.7476517
-0.0098948535 0.012721956 0.74719208
-0.009877149 0.011993676 0.74673408
-0.009859466 0.01126799 0.74627668
-0.0098418873 0.010544866 0.74582201
-0.009824371 0.0098243654 0.74536896
-0.0098068761 0.0091063976 0.74491638
-0.0097894846 0.0083909929 0.74446654
-0.0097721135 0.0076780915 0.74401718
-0.0097548449 0.0069677532 0.74357057
-0.0097376369 0.0062599182 0.74312544
-0.0097204493 0.005554527 0.74268085
-0.0097033624 0.0048516989 0.74223882
-0.0096862949 0.0041512847 0.74179745
-0.0096693281 0.0034533441 0.74135852
-0.0096524199 0.0027578473 0.74092114
-0.0096355323 0.0020647645 0.74048436
-0.0096187415 0.0013741553 0.74005002
-0.0096020112 0.00068587065 0.73961723
-0.0095852977 2.9802322e-08 0.73918498
-0.0095686829 -0.00068342686 0.73875511
-0.0095520858 -0.0013645589 0.73832583
-0.0095355855 -0.0020433366 0.73789907
-0.0095191412 -0.0027197003 0.73747367
-0.0095027154 -0.0033937991 0.7370488
-0.0094863856 -0.0040655732 0.73662639
-0.0094701108 -0.0047350526 0.73620546
-0.0094538536 -0.0054021776 0.73578489
-0.0094376905 -0.0060670972 0.73536682
-0.0094215441 -0.0067296922 0.73494923
-0.0094054919 -0.0073900223 0.73453397
-0.0093894927 -0.008048147 0.73412013
-0.0093735112 -0.0087039769 0.73370671
-0.0093576219 -0.0093576312 0.73329574
-0.0093417857 -0.010009021 0.73288608
-0.0093259653 -0.010658234 0.73247683
-0.0093102362 -0.011305302 0.73207003
-0.0092945602 -0.011950135 0.73166454
-0.0092789736 -0.012592852 0.73126137
-0.0092634391 -0.013233483 0.73085958
-0.0092479568 -0.013871938 0.73045909
-0.0092325257 -0.014508247 0.73005992
-0.0092171459 -0.015142441 0.72966212
-0.0092018181 -0.015774518 0.72926557
-0.0091865398 -0.016404539 0.72887045
-0.0091713136 -0.017032415 0.72847658
-0.0091561377 -0.017658234 0.72808397
-0.0091410112 -0.018281996 0.72769272
-0.0091259349 -0.018903732 0.72730279
-0.009110908 -0.019523352 0.72691405
-0.0090959305 -0.020140976 0.72652668
-0.0090810023 -0.020756543 0.72614056
-0.0090661226 -0.021370143 0.72575563
-0.0090512931 -0.021981686 0.72537202
-0.0090365112 -0.022591263 0.72498965
-0.0090218112 -0.023198932 0.72460949
-0.0090071261 -0.023804516 0.72422957
-0.0089924866 -0.024408162 0.72385097
-0.0089778965 -0.025009841 0.72347355
-0.008963353 -0.025609583 0.72309738
-0.008948856 -0.026207358 0.72272235
-0.0089344075 -0.026803225 0.72234857
-0.0089200037 -0.027397156 0.72197604
-0.0089056473 -0.027989149 0.7216047
-0.0088913357 -0.028579265 0.7212345
-0.0088770716 -0.029167533 0.72086561
-0.0088628531 -0.029753864 0.72049773
-0.0088486793 -0.030338317 0.72013116
-0.0088345511 -0.030920923 0.71976566
-0.0088204686 -0.031501681 0.71940142
-0.0088064298 -0.032080531 0.71903825
-0.0087924358 -0.032657623 0.71867633
-0.0087784864 -0.033232838 0.71831548
-0.0087645818 -0.033806205 0.71795583
-0.0087507199 -0.034377813 0.71759725
-0.0087369028 -0.034947544 0.71723986
-0.0087231612 -0.035515696 0.71688443
-0.0087094307 -0.03608188 0.71652925
-0.008695743 -0.036646336 0.7161752
-0.0086820992 -0.037209004 0.71582228
-0.0086684972 -0.037769884 0.71547043
-0.0086549381 -0.038328975 0.71511972
-0.0086414209 -0.038886368 0.71477008
-0.0086279465 -0.039442033 0.71442151
-0.008614514 -0.039995939 0.71407408
-0.0086011235 -0.040548146 0.71372771
-0.0085877739 -0.041098565 0.71338236
-0.0085744662 -0.041647404 0.71303821
-0.0085611995 -0.042194456 0.712695
-0.0085479729 -0.042739838 0.71235287
-0.0085347882 -0.043283552 0.71201181
-0.0085216435 -0.043825597 0.71167183
-0.0085085398 -0.044365942 0.71133292
-0.0084954761 -0.044904679 0.71099502
-0.0084824525 -0.045441687 0.71065807
-0.0084694987 -0.045977265 0.71032304
-0.0084565552 -0.046511054 0.70998824
-0.0084436508 -0.047043204 0.70965439
-0.0084307846 -0.047573715 0.70932162
-0.0084179593 -0.048102647 0.70898992
-0.0084051713 -0.04862991 0.70865905
-0.0083924234 -0.049155623 0.70832938
-0.0083797136 -0.049679726 0.7080006
-0.0083670421 -0.05020225 0.70767283
-0.0083544087 -0.050723195 0.70734602
-0.0083418135 -0.05124253 0.70702022
-0.0083292564 -0.051760375 0.70669544
-0.0083167376 -0.052276611 0.70637161
-0.0083042551 -0.052791327 0.70604873
-0.0082918108 -0.053304493 0.70572686
-0.0082794037 -0.05381611 0.70540589
-0.0082670329 -0.054326177 0.70508593
-0.0082547003 -0.054834783 0.70476693
-0.0082424041 -0.05534181 0.70444888
-0.0082301442 -0.055847377 0.70413172
-0.0082179494 -0.056351662 0.70381629
-0.0082057621 -0.056854218 0.70350111
-0.0081936112 -0.057355285 0.70318675
-0.0081814956 -0.057854861 0.70287341
-0.0081694163 -0.058352977 0.70256096
-0.0081573725 -0.058849603 0.70224941
-0.008145364 -0.059344798 0.70193875
-0.0081333909 -0.059838504 0.70162904
-0.0081214532 -0.060330778 0.70132029
-0.00810955 -0.060821623 0.70101237
-0.0080976821 -0.061311007 0.70070541
-0.0080945091 -0.061865151 0.70062333
-0.0081648165 -0.062985688 0.70244193
-0.0097728493 -0.076088607 0.7440362
-0.0097590443 -0.076678216 0.74367917
-0.0097453184 -0.077266455 0.7433241
-0.0097316308 -0.077853024 0.74297005
-0.0097179813 -0.078437954 0.74261701
-0.009704371 -0.079021305 0.74226493
-0.009690797 -0.079602957 0.7419138
-0.009677263 -0.080183029 0.74156374
-0.0096637653 -0.080761433 0.74121463
-0.0096503058 -0.081338286 0.74086642
-0.0096368846 -0.081913501 0.74051929
-0.0096234595 -0.082486778 0.74017203
-0.0096100727 -0.083058476 0.73982573
-0.0095967222 -0.083628595 0.7394805
-0.0095834099 -0.084197104 0.7391361
-0.0095700948 -0.084763706 0.7387917
-0.0095793605 -0.085529983 0.73903131
-0.010908797 0.088948667 0.79512495
-0.010885631 0.087922424 0.79447961
-0.010862561 0.086900502 0.79383695
-0.01083959 0.085882932 0.79319715
-0.010816717 0.084869683 0.79255992
-0.010793938 0.083860636 0.79192543
-0.010771256 0.08285585 0.79129356
-0.01074867 0.081855237 0.79066437
-0.010726176 0.080858856 0.79003775
-0.010703778 0.079866707 0.78941387
-0.010681473 0.078878582 0.78879255
-0.010659261 0.077894598 0.78817379
-0.010637141 0.076914757 0.7875576
-0.010615112 0.07593891 0.78694391
-0.010593174 0.074967086 0.78633285
-0.010571327 0.073999316 0.78572428
-0.01054957 0.073035508 0.78511816
-0.010527902 0.072075695 0.78451455
-0.010506324 0.071119756 0.78391349
-0.010484782 0.070167392 0.78331345
-0.010463379 0.069219321 0.78271729
-0.010442064 0.068275064 0.78212351
-0.010420835 0.067334682 0.78153205
-0.010399693 0.066398054 0.78094316
