# .PCD v0.7 - Point Cloud Data file format
VERSION 0.7
FIELDS x y z
SIZE 4 4 4
TYPE F F F
COUNT 1 1 1
WIDTH 508
HEIGHT 1
VIEWPOINT 0 0 0 1 0 0 0
POINTS 508
DATA ascii
-0.00052195066 -0.025575578 0.68026114
-0.0041715321 -0.024507701 0.68007678
-0.0041715321 -0.024507701 0.68007678
0.0044322526 -0.023725584 0.68007684
-0.0086037582 -0.022421896 0.68007618
-0.0023464868 -0.022682697 0.68007684
0.012514558 -0.020596877 0.68007624
-0.013296759 -0.019554049 0.68007678
0.0099073742 -0.019554004 0.68007648
-0.013296728 -0.018511094 0.6800763
0.011732398 -0.018511087 0.68007618
0.015469432 -0.016512295 0.68007684
-0.02059694 -0.011732429 0.68007684
-0.02059694 -0.011732429 0.68007684
-0.022682704 -0.0065180063 0.68007684
0.022682706 -0.0054751337 0.68007684
0.023725592 -0.0054751337 0.68007684
-0.023725592 -0.0044322312 0.68007684
0.02372559 -0.0044322312 0.68007684
-0.027375679 -0.0013035834 0.68007684
-0.025303304 -0.0013041571 0.68017781
-0.025303304 -0.0013041571 0.68017781
-0.023638709 -0.0013905069 0.68007702
0.027375638 -0.0013035983 0.68007654
-0.02163979 -0.00052143633 0.68007648
-0.020597005 0.0013036281 0.68007737
0.022421986 0.0013035983 0.68007684
0.026419705 0.0024334192 0.68007678
0.026419705 0.0024334192 0.68007678
-0.022682704 0.0044322461 0.68007684
-0.021947199 0.0054873824 0.68047905
0.025203008 0.0053882403 0.68007684
0.024507752 0.0065180361 0.68007678
0.022682706 0.0096466839 0.68007684
-0.02059694 0.013296783 0.68007684
-0.014600363 0.018771917 0.68007684
-0.012514596 0.020596966 0.68007672
-0.011732433 0.020596966 0.68007672
-0.0020857661 0.020857692 0.68007672
-0.013296759 0.021639839 0.68007684
0.0086037852 0.023725614 0.68007678
-0.0015643296 0.026593626 0.68007737
0.0033893622 0.026332751 0.68007636
-0.0073630488 0.022615075 0.68170297
0.0021000463 0.026250601 0.6813696
0.0084366482 -0.020564318 0.68219489
0.0084366482 -0.020564318 0.68219489
0.025397547 -0.0010581911 0.68285578
-0.01738333 0.015276283 0.68200552
-0.0010616191 0.027071297 0.68346924
-0.0047948351 -0.021310329 0.68417531
-0.011746486 -0.018687546 0.6845997
0.022398058 0.0066656768 0.68436646
-0.021308269 0.0090560019 0.68415624
-0.0095936535 0.020253301 0.68425548
-0.018735573 -0.0096354187 0.68509614
0.0048294524 0.023074061 0.68556827
-0.016208414 -0.010265321 0.68689901
-0.025381837 0.0027002394 0.68681157
0.017842319 -0.0086508095 0.6870423
0.022188589 0.0075766146 0.68722653
0.0086872345 0.022261053 0.68786645
0.021809459 0.0087237954 0.6886937
-0.016456837 -0.0098740757 0.68989772
-0.017564762 -0.01372245 0.69001997
-0.013279421 -0.015492648 0.69161713
0.0083407005 -0.020573735 0.69260848
0.0083407005 -0.020573735 0.69260848
0.01663183 -0.010533452 0.69201005
-0.021721959 -0.0061267018 0.69294405
-0.011408594 0.017252132 0.69277978
0.00027872866 -0.025656566 0.69322598
0.022364672 -0.00391379 0.69372016
-0.026278049 0.0016773343 0.69371682
-0.017425912 -0.0095561445 0.69481003
0.017366853 -0.0089635253 0.69412005
-0.021920633 0.0073068738 0.69478875
-0.010777308 -0.019285709 0.69665706
0.026603922 0.0016981363 0.69622767
-0.0073617795 0.022651643 0.69631815
0.021597585 -0.0073886216 0.69706655
0.022228435 0.007409513 0.6976468
0.014317101 -0.017180502 0.69863337
0.017198296 0.011465549 0.69884789
-0.010331016 -0.019514143 0.69909012
-0.024762047 0.001727581 0.69978404
-0.02555665 0.0022972524 0.69922221
-0.0028793677 0.021307379 0.69978839
0.010909241 0.021244317 0.69917166
-0.01097848 0.017334461 0.70049137
-0.0023094746 0.020785302 0.70032978
0.010447537 0.021475524 0.70143431
-0.020387875 -0.0011650026 0.70219183
0.020990619 0.0034984648 0.70239544
0.021568038 0.0093267262 0.70234007
-0.021828726 0.0076695383 0.70489156
-0.016459534 0.011756837 0.70412201
-0.021271039 -0.0023634434 0.70521623
-0.021271039 -0.0023634434 0.70521623
0.020703794 -0.0011830628 0.70546061
-0.0094544319 0.02127251 0.70523065
0.0053616175 -0.021446466 0.70698094
-0.020374788 0.0029962957 0.70825684
-0.020374788 0.0029962957 0.70825684
-0.010826291 -0.019246757 0.70905429
-0.010826291 -0.019246757 0.70905429
-0.0060557048 -0.021194965 0.71054262
0.02184098 -0.0066736042 0.71094942
0.022370005 0.0063482225 0.71018922
0.020787062 -0.0091707408 0.71264791
0.0073677232 -0.020875216 0.71358681
0.020245587 2.9802322e-08 0.71341509
-0.0086284894 0.022187531 0.71443558
0.011157015 -0.015495837 0.7157079
-0.021715987 -0.0062045455 0.71593344
-0.02105183 0.009906739 0.71546793
0.022384074 0.0062178075 0.71641248
-0.016809488 0.011206329 0.71669996
-0.0081003811 0.02243188 0.71689284
-0.0081003811 0.02243188 0.71689284
0.020712549 0.003138274 0.71853936
0.015163993 -0.016427636 0.72005308
0.0164719 -0.015204817 0.72066933
-0.020899815 -0.0082332492 0.72059441
0.022132685 -0.0056912601 0.72024477
0.021493152 0.0094822645 0.72016841
0.00063690956 0.021018058 0.72189146
-0.0031911405 0.021699756 0.72236896
-0.0031911405 0.021699756 0.72236896
-0.022124331 -0.004554987 0.7268911
0.017603731 -0.013691753 0.72735256
-0.021532003 -0.0026099086 0.72753179
-0.02022632 0.0026098788 0.72752351
0.022257717 -0.0052370727 0.72831172
-0.015704241 0.017667294 0.72820479
0.011214782 0.021110177 0.73014206
-0.0046355817 -0.02119121 0.73105931
-0.007952489 -0.020543903 0.73123372
-0.0093201213 -0.019971639 0.73232573
-0.015973015 -0.015307456 0.73226029
-0.015973015 -0.015307456 0.73226029
-0.0073596137 -0.020740718 0.73353267
0.017421167 -0.014070898 0.73389083
-0.022111615 -0.0043553412 0.73389232
-0.0020058719 0.020727366 0.73337626
0.00067545299 -0.018912673 0.73584932
-0.012126871 0.017516583 0.7352199
-0.021631492 -0.0027039647 0.73604155
0.021101154 0.010210246 0.73774296
-0.010944517 -0.01915288 0.73895615
-0.01567905 0.017724127 0.73811072
0.0047716899 0.023176819 0.73810065
-0.020600135 -0.001373291 0.73991168
-0.02122947 0.0095874965 0.73924196
-0.0075621619 0.022686511 0.74020076
0.022126243 0.0076059103 0.74164051
0.020847585 0.003474623 0.7428987
0.0098178033 -0.018934309 0.74519902
0.01764762 -0.013412178 0.7468769
0.021869536 -0.006349206 0.74671894
0.0028392773 0.022004396 0.74829447
-0.010703364 -0.019266039 0.74964821
-0.021413876 -0.0071379542 0.74973452
-0.02207882 0.0071222186 0.74916375
-0.003620452 0.022446781 0.75346243
-0.020324826 -0.00072586536 0.7541129
0.021106195 0.010189235 0.7548058
0 -0.018948734 0.75516737
-0.011016653 -0.01909551 0.75721169
-0.0095539084 -0.019842714 0.75738275
-0.020072784 -0 0.76046824
0.02011187 0.00074490905 0.76099247
-0.0014862303 0.020807236 0.7603519
-0.006720555 -0.020908386 0.76166034
-0.01716722 -0.014181614 0.76154178
-0.01716722 -0.014181614 0.76154178
0.002243238 -0.018693656 0.76202893
0 0.021024346 0.76316023
-0.020360755 -0.00075408816 0.76433063
-0.020430589 0.0030267537 0.76526725
-0.020430589 0.0030267537 0.76526725
0.022085145 0.00533095 0.76703018
-0.0092163226 -0.019968659 0.7693733
-0.0092163226 -0.019968659 0.7693733
0.02227832 -0.0046092868 0.76944244
0.02227832 -0.0046092868 0.76944244
0.01695366 -0.0092474222 0.77031261
0.006954547 -0.020863652 0.77107549
0.0132508 0.021824867 0.77351308
-0.021149764 -0.0078332424 0.77491307
0.012577971 -0.015722454 0.77592659
0.0078954315 -0.020528108 0.77716494
-0.02216313 -0.0047492087 0.77788818
-0.02064845 0.011118412 0.77884096
-0.016024739 -0.015223503 0.78139961
-0.020034291 0.0016027689 0.78144842
0.021760512 -0.0064475536 0.78310466
-0.0080736503 0.022606194 0.78361881
-0.017161015 0.016343802 0.78717721
-0.022152513 -0.0049227476 0.78836221
-0.0074300049 -0.020638883 0.79020643
0.018209012 0.0148983 0.79097641
0.0066078831 0.023127645 0.79036188
0.018350435 0.011677593 0.79330432
0.018350435 0.011677593 0.79330432
0.017564727 -0.013382643 0.79413897
-0.0050448808 0.023542792 0.7957316
0.0084484247 -0.020276159 0.79719067
0.02144455 0.0094356239 0.80187649
0.0060415743 0.023303241 0.80379581
0.015677612 -0.015677601 0.80665529
-0.021775031 -0.002613008 0.80666351
0.021765029 -0.0026117861 0.80651867
0.0087402286 -0.020102531 0.80775779
0.0061317198 -0.021023035 0.80845922
0.00088619947 0.021268785 0.81216735
-0.021326009 0.0097744465 0.81303078
0.0098610017 -0.016136169 0.81588113
0.017943464 0.016149133 0.81614125
0.017943464 0.016149133 0.81614125
0.018845705 0.017050892 0.81622863
-0.020856334 0.010881603 0.81962633
0.015446962 0.01817289 0.82029551
-0.01651095 0.01284188 0.82342076
-0.0027677778 0.021219611 0.82534647
-0.01131509 -0.018858463 0.83270913
0.015371656 0.018253833 0.83915663
-0.021358961 -0.0019416809 0.84282631
0.021313677 0.0096880496 0.84208095
-0.021412058 0.009732753 0.84370029
0.014798176 0.018744379 0.84850574
0.0089384932 -0.019863307 0.85090327
0.0026361726 -0.02662242 0.68007648
-0.0049536945 -0.023138959 0.68007684
-0.0028679282 -0.02320414 0.68007684
0.019032616 -0.011210985 0.68007684
-0.018833254 0.011415761 0.68010944
0.02291446 0.010921322 0.68007684
-0.018800814 0.016715068 0.6800763
-0.00091252266 0.021248765 0.68007678
0.0010625457 -0.025501072 0.68363702
0.01115202 -0.01566571 0.6835537
0.017539099 -0.012224197 0.68371487
-0.026011489 0.0021234155 0.68348271
-0.025441371 0.0026501417 0.68318641
0.025863647 0.0026391745 0.68239009
0.02170999 0.0090017021 0.68299937
-0.01738767 0.015016586 0.68205315
0.01056974 0.021403685 0.6826278
-0.021427488 -0.0069639385 0.68523562
0.0070150564 -0.021045178 0.68665969
0.0027141068 0.021712869 0.68781912
0.021868223 -0.0027335286 0.68922573
-0.00081901706 0.020762444 0.68910789
-0.0081716282 0.022335798 0.68852669
-0.0081716282 0.022335798 0.68852669
-0.0065419823 0.022896945 0.68866789
0.0011070701 -0.025462598 0.69169891
0.0099312644 -0.016552091 0.69104767
0.020991627 -0.008838594 0.69129193
0.020991627 -0.008838594 0.69129193
0.020616077 0.0027482063 0.69033575
-0.022053339 0.0063400865 0.69090164
-0.0011150461 -0.025054246 0.69287908
-0.0094325738 -0.019974828 0.69217765
0.013932754 -0.017276585 0.69306594
-0.021419954 -0.0069535077 0.69271994
0.021785907 0.0044689178 0.69353783
0.0072268485 0.022792369 0.69255948
-0.0028112847 -0.020241231 0.69485736
-0.012990812 -0.015814871 0.69578481
-0.022011127 -0.005079478 0.69562906
0.021686295 0.0090144277 0.69523549
-0.016284645 0.012353897 0.69459754
-0.0033914342 0.022044301 0.69593728
-0.0033914342 0.022044301 0.69593728
0.0049228976 0.02305866 0.69491124
-0.0014054361 0.026716888 0.69492584
0.00028027152 0.027482033 0.69435036
-0.013575583 -0.015272528 0.69608581
-0.013575583 -0.015272528 0.69608581
0.017673103 -0.013112277 0.69769764
-0.025181383 0.0010073092 0.69968444
0.022388015 0.0066011101 0.69912863
-0.021286154 0.0092048347 0.69958115
-0.0086889537 -0.020274252 0.70101607
0.0075292247 -0.020850152 0.70098257
-0.022043373 0.0066706389 0.70131481
-0.0064412053 -0.021080315 0.70329762
-0.0053161923 -0.021265736 0.70516294
0.020661732 0.0029516816 0.70502537
-0.017169978 0.015985876 0.70565301
-0.014828183 0.01838696 0.70603657
0 0.020910263 0.70759678
-0.010826291 -0.019246757 0.70905429
-0.010826291 -0.019246757 0.70905429
-0.021666411 0.0048147738 0.70919329
0.006992531 -0.020975649 0.71142077
0.0097161504 -0.017003268 0.71115416
-0.016317639 -0.015108913 0.71010321
0.016996766 -0.011533469 0.71107012
0.016996766 -0.011533469 0.71107012
-0.0018236905 0.020668507 0.71138501
0.021587176 0.0092516243 0.71460062
0.0071048057 0.022862911 0.71501338
0.0018762653 -0.018762618 0.71773136
0.0031213383 -0.019352287 0.71731347
-0.021767976 0.0049755573 0.71647131
-0.017108137 0.01088737 0.71653652
0.0062511005 0.023129106 0.71761847
0.0012577294 -0.018865913 0.71897817
0.016979283 -0.0094329119 0.71897733
-0.021464597 -0.006944418 0.71986425
-0.015727546 0.017614901 0.71906406
-0.0094462549 0.018892497 0.7192989
-0.0094462549 0.018892497 0.7192989
-0.012040817 -0.018378049 0.72073901
-0.0025416303 0.020968467 0.72134757
0.022381576 -0.0044763088 0.72282004
-0.020485697 -0.0012803376 0.72307509
0.020828638 -0.0012831539 0.72332168
0.022311259 0.0057372153 0.72209245
0.0083380286 0.02244854 0.72351277
-0.021532003 -0.0026099086 0.72753179
-0.00097503152 0.02081804 0.72683609
-0.0085176919 -0.020311415 0.72851759
-0.015159628 -0.015159607 0.72993249
0.017702691 -0.013113081 0.7286799
0.0095943939 -0.019193307 0.73089087
0.0026409449 0.021787792 0.73033887
0.0079784216 0.022605538 0.73201627
-0.019445833 -0.0093876421 0.73407227
0.021509616 -0.0073938966 0.73466241
0.021509616 -0.0073938966 0.73466241
0.021509616 -0.0073938966 0.73466241
0.020173196 0.00067146623 0.73475808
0.021509269 0.0094103217 0.73465848
0.021934735 0.0082255602 0.73947328
0.0048521045 -0.021487862 0.74226075
0.0048521045 -0.021487862 0.74226075
0.016721683 -0.011147767 0.74355686
0.0020816014 0.021509886 0.74251765
0.011104865 0.021169364 0.74259198
-0.019815067 -0.0091998279 0.74752009
-0.020666823 -0.0085517764 0.7493192
0.021315625 -0.0078157187 0.74854851
0.015774123 -0.015774101 0.75089681
-0.022154789 0.0064320564 0.75005126
0.022241227 0.0071746111 0.75106102
-0.0086285491 0.022290438 0.75163555
0.0071551069 0.022896379 0.75035548
-0.013346752 -0.01551123 0.75250626
-0.00072115369 0.020913482 0.75239897
-0.020324826 -0.00072586536 0.7541129
-0.017458543 0.01491344 0.75467521
-0.005816333 0.023265332 0.75453115
0.020791383 -0.0089105666 0.76014704
-0.020478638 0.0029791892 0.76091439
0.022296734 0.0066890121 0.76039147
0.0044779843 0.023136258 0.76151639
0.015753377 -0.015753359 0.76290339
-0.0059964587 0.023236275 0.76268488
0.021885978 0.0083015859 0.76454318
0.005329486 -0.021317899 0.76695716
0.010701178 0.021402389 0.76804894
0.0023369021 -0.018695235 0.77333516
0.010861864 -0.015516937 0.77220535
-0.016750939 0.016751841 0.77339554
0.017264685 -0.014125615 0.77543223
-0.0087586958 0.022294849 0.77959192
-0.0016037989 -0.019245565 0.78163958
0.0081625534 -0.020406395 0.78683835
-0.01511902 0.018386498 0.78718317
-0.0073537841 0.022878468 0.78713953
0.017304644 -0.014008492 0.78965402
0.0090596378 0.022237301 0.78949928
0.0066078831 0.023127645 0.79036188
-0.0041769454 -0.020884693 0.79376721
0.0066850884 -0.020890892 0.79385674
-0.012577139 -0.017607957 0.79488516
0.018425535 -0.0083752275 0.79454052
0.021297775 0.0042596161 0.79975033
-0.0086286766 0.022434533 0.80371815
-0.012155992 -0.018233955 0.80567992
-0.00951315 0.02162084 0.80442941
-0.006045735 0.023319274 0.80401099
0.0017696909 -0.018581778 0.81167704
0.016562615 -0.014772549 0.81545949
0.016562615 -0.014772549 0.81545949
0.0187902 0.01610586 0.8152715
-0.01260436 0.018006265 0.81727773
0.018001564 0.018001586 0.81719327
0.018001564 0.018001586 0.81719327
0.0054034144 0.02341482 0.81737107
-0.010905283 -0.019084215 0.82034212
-0.021908691 0.0082158148 0.82182264
-0.021908691 0.0082158148 0.82182264
0.011092342 0.021260321 0.8259871
0.021294665 -0.007406801 0.82652783
0.021294665 -0.007406801 0.82652783
0.0092515657 0.022203773 0.82627493
-0.017688751 -0.0093098581 0.82838631
0.016757201 -0.0093095303 0.82837498
0.016757201 -0.0093095303 0.82837498
0.020042071 0.0019087791 0.83685929
-0.0019243833 -0.019243836 0.83968657
0.016505901 -0.0097093284 0.84285295
-0.016516093 0.012629956 0.84307003
0.0068992861 -0.020697862 0.8481679
-0.0049352073 0.023689032 0.84868538
-0.0049352073 0.023689032 0.84868538
-0.021807963 0.0049563348 0.85021716
-0.021076873 -0.0080292523 0.85470378
-0.022094093 -0.0030128658 0.85492706
-0.017967869 -0.010258818 0.68112957
-0.017967869 -0.010258818 0.68112957
-0.0086149033 -0.020323567 0.68621802
-0.0035111308 -0.02080214 0.68692189
0.01124795 -0.015532881 0.68521005
0.0123271 -0.015542835 0.68533474
-0.010365919 0.017831288 0.68620199
-0.010365919 0.017831288 0.68620199
0.018268716 0.011517659 0.69472921
-0.016991394 0.014281745 0.69410723
0.0008382462 0.027276576 0.69386613
-0.0063636815 -0.021021046 0.69823456
-0.014142409 -0.015380065 0.69752824
-0.01991066 0.00085305423 0.6972543
-0.010294697 0.017867498 0.6983158
-0.017440684 0.010610394 0.70178568
0.021389192 0.0094986968 0.70130408
0.014892491 -0.016676366 0.70694613
0.021368161 -0.0020802021 0.70617342
0.021368161 -0.0020802021 0.70617342
0.02202349 -0.0059578605 0.70975292
-0.0018236905 0.020668507 0.71138501
-0.0012243119 -0.019334316 0.71353829
-0.014396205 -0.015470892 0.71312004
-0.018147625 -0.0095304996 0.71394086
0.0068471767 0.022890955 0.71329451
0.011511143 -0.015348166 0.72283244
-0.017187599 0.014962271 0.7217713
-0.014698487 0.018529465 0.72264808
-0.020422798 -0.0087522864 0.72602922
0.020470403 0.0021091849 0.72658908
-0.0036190618 -0.020736217 0.7296567
-0.0068249749 0.02289338 0.73040003
0.01246887 0.021000206 0.72889757
0.010098261 -0.01615718 0.73503971
-0.017039347 0.011026785 0.73323745
-0.01355984 0.017920017 0.73388195
0.0095010139 -0.019680679 0.73700482
0.022000298 -0.0057867817 0.73766339
-0.017381838 -0.013908615 0.74305236
0.016703192 0.011831462 0.74327779
-0.0084140217 -0.020333856 0.74516165
0.0015841664 -0.01897721 0.74577457
0.010696866 -0.015688747 0.74949133
-0.020231383 0.00143186 0.75059116
-0.016669493 0.011596233 0.75370508
0.0018708161 -0.01871179 0.76229167
-0.014613549 -0.014987662 0.762622
0.021238517 -0.0018970221 0.7659229
-0.0099883135 -0.019591734 0.76947582
-0.010748021 0.017657518 0.76926053
-0.0031135865 -0.02023831 0.77312851
0.017264685 -0.014125615 0.77543223
-0.021179382 -0.0019607991 0.77531266
-0.0007928611 -0.019028634 0.77836657
-0.020506669 -0.0086759031 0.7768662
-0.018537331 -0.009466067 0.77691042
-0.016593132 0.011852264 0.7773844
-0.0071174456 0.02293402 0.77762997
-0.010478904 -0.019345671 0.78314972
0.014868893 -0.016474485 0.78228331
0.021806983 0.0048460364 0.78372782
-0.00082646013 -0.019008577 0.79053378
-0.017418759 0.010783046 0.79162186
-0.0066052009 0.023118228 0.79024041
-0.0066052009 0.023118228 0.79024041
0.0098851975 0.021829426 0.78955382
-0.003396973 -0.020381838 0.79878432
0.0093766721 -0.019605756 0.79993641
0.014797609 -0.01648666 0.79743659
-0.017560462 -0.0097095026 0.80146903
-0.021904888 -0.0055884272 0.8023442
-0.020487722 -0.00085362792 0.8003819
0.020467399 -0.00085276365 0.80007529
0.0057218997 0.023177385 0.80210781
-0.014465494 -0.014904529 0.80874103
0.021593632 -0.0066083968 0.81041098
-0.00355714 0.022232115 0.81328464
-0.0071925516 -0.02067855 0.81682777
-0.0017990293 -0.019363254 0.81740844
-0.01946543 -0.0092692077 0.82691538
-0.021733288 -0.0027760118 0.8261404
-0.0084679332 0.02258116 0.8319695
-0.0056358464 0.02348271 0.83139956
-0.001889272 -0.019379258 0.83359349
-0.017035041 0.011356682 0.83396465
0.01328143 0.019922167 0.83479124
0.0095623387 -0.019124627 0.837529
-0.021596434 -0.0068715811 0.84673524
-0.021596434 -0.0068715811 0.84673524
-0.0019890592 -0.019397065 0.85147071
0.009945753 -0.015913188 0.85141373
0.021791631 0.0064464658 0.84994829
0.0079231048 0.022778958 0.84989738
