# .PCD v0.7 - Point Cloud Data file format
VERSION 0.7
FIELDS x y z
SIZE 4 4 4
TYPE F F F
COUNT 1 1 1
WIDTH 939
HEIGHT 1
VIEWPOINT 0 0 0 1 0 0 0
POINTS 939
DATA ascii
-0.035467174 0.00022874276 0.73983598
-0.035467174 0.00022874276 0.73983598
-0.020592293 0.00034311414 0.73981702
-0.0085801221 0.00034311414 0.73981702
-0.0054912781 0.00034311414 0.73981702
0.00034320488 0.00034311414 0.73981702
0.020592293 0.00034311414 0.73981702
0.020592293 0.00034311414 0.73981702
0.027456392 0.00034311414 0.73981702
0.080532581 0.00045748553 0.73979807
-0.025391361 0.0013724864 0.73976028
0.025391361 0.0013724864 0.73976028
0.045635819 0.0013724864 0.73976028
0.061419643 0.0013724864 0.73976028
0.065537155 0.0013724864 0.73976028
-0.038449466 0.0020597875 0.73988509
0.053554617 0.0020597875 0.73988509
0.061450489 0.0020597875 0.73988509
-0.023448279 -0.0020689666 0.74099237
0.023448279 -0.0020689666 0.74099237
0.030344835 -0.0020689666 0.74099237
0.030344835 -0.0020689666 0.74099237
0.086551741 -0.0020689666 0.74099237
-0.038536247 -0.0013763309 0.74044627
-0.021332564 -0.0013763309 0.74044627
0.01238665 -0.0013763309 0.74044627
0.026493669 -0.0013763309 0.74044627
0.035439581 -0.0013763309 0.74044627
0.064685836 -0.0013763309 0.74044627
0.064685836 -0.0013763309 0.74044627
0.0044659548 -0.00068709254 0.74005616
0.0085883746 -0.00068709254 0.74005616
0.016489679 -0.00068709254 0.74005616
0.033666428 -0.00068709254 0.74005616
0.03847592 -0.00068709254 0.74005616
0.03847592 -0.00068709254 0.74005616
0.039506525 -0.00068709254 0.74005616
0.045346618 -0.00068709254 0.74005616
0.050499644 -0.00068709254 0.74005616
0.061492763 -0.00068709254 0.74005616
-0.034356471 0.0027484894 0.74007767
-0.010650506 0.0027484894 0.74007767
-0.0034356471 0.0027484894 0.74007767
-0.0034356471 0.0027484894 0.74007767
0.040540636 0.0027484894 0.74007767
0.042602025 0.0027484894 0.74007767
0.064590164 0.0027484894 0.74007767
0.070430771 0.0027484894 0.74007767
0.076614931 0.0027484894 0.74007767
0.085547611 0.0027484894 0.74007767
0.085547611 0.0027484894 0.74007767
-0.018581968 0.0034410655 0.74047297
-0.015484974 0.0034410655 0.74047297
0.0044734366 0.0034410655 0.74047297
0.016517306 0.0034410655 0.74047297
-0.0086502358 -0.0027680993 0.74184835
0.0055361511 -0.0027680993 0.74184835
0.046365269 -0.0027680993 0.74184835
0.055361509 -0.0027680993 0.74184835
0.064357758 -0.0027680993 0.74184835
0.067471847 -0.0027680993 0.74184835
0.071623951 -0.0027680993 0.74184835
0.080620199 -0.0027680993 0.74184835
-0.042152863 0.0044923425 0.74149042
-0.034551524 0.0044923425 0.74149042
-0.028545219 0.0043744845 0.74134064
-0.023495037 0.0044923425 0.74149042
-0.018657824 0.0044923425 0.74149042
0.0096744271 0.0044923425 0.74149042
0.018657824 0.0044923425 0.74149042
-0.033468392 -0.0041835904 0.74374563
-0.029633472 -0.0041835904 0.74374563
-0.026495699 -0.0041835308 0.74374461
-0.017431308 -0.0041835308 0.74374348
0.0013944871 -0.0041834712 0.74374038
0.026494814 -0.0041834116 0.74373615
0.061355125 -0.0041832924 0.7437309
-0.03754865 -0.0034767687 0.74305296
-0.019469915 -0.0034767687 0.74305606
-0.015645467 -0.0034767687 0.74305606
0.035461582 -0.0034766495 0.74304563
0.035461582 -0.0034766495 0.74304563
-0.086519331 -0.0020932555 0.7439189
-0.074658431 -0.0020932555 0.74392092
-0.057564229 -0.0020932555 0.74392307
-0.053377964 -0.0020932853 0.74392414
-0.046400644 -0.0020932853 0.74392515
-0.063476764 -0.0013951361 0.74385017
-0.06068683 -0.0013951063 0.74385118
-0.088560671 -0.00034870207 0.74377096
-0.082638219 -0.00069740415 0.74378574
-0.079500064 -0.00069740415 0.74378574
-0.073572114 -0.00069740415 0.74378467
-0.072526067 -0.00069740415 0.74378467
-0.064502507 -0.00034870952 0.74376965
-0.064502507 -0.00034870952 0.74376965
-0.08541055 0.00069722533 0.74373507
-0.08541055 0.00069722533 0.74373507
-0.072514392 0.00034858286 0.74374402
-0.067630932 0.00069716573 0.743734
-0.052640349 0.00069725513 0.74373293
-0.077392094 0.0013944507 0.743734
-0.070419833 0.0013944507 0.743734
-0.06135615 0.0013944507 0.74373507
-0.047411572 0.0013944507 0.74373507
-0.088616617 0.0041865706 0.74393052
-0.077452317 0.0041865706 0.74393052
-0.060357243 0.0041865706 0.74393153
-0.052332867 0.0041865706 0.74393153
-0.037559457 0.005564332 0.74312544
0.046603683 0.00556463 0.743137
0.05842704 0.0055644214 0.74313062
0.071640886 0.0055643618 0.74312443
-0.030684492 0.0062763393 0.74378788
-0.015342308 0.0062763989 0.74378884
-0.010460665 0.0062763989 0.74378884
-0.0045329547 0.0062763989 0.74378884
0.0083685676 0.0062764287 0.74378991
0.020572642 0.0062763989 0.74378884
0.030684492 0.0062763393 0.74378788
0.052651137 0.0062762499 0.74378473
0.059624545 0.0062762499 0.74378371
0.087168567 0.0062761009 0.74377835
-0.02347365 -0.0077077746 0.74499422
-0.0084084719 -0.0077077746 0.74499422
0.020320473 -0.0077077746 0.74499422
0.026626827 -0.0077077746 0.74499422
0.085486129 -0.0077077746 0.74499422
-0.060572639 -0.0063023865 0.74483329
-0.042716686 -0.0063024759 0.74483758
-0.040581793 -0.0066471845 0.74462485
-0.040581793 -0.0066471845 0.74462485
-0.028687131 -0.0066471845 0.74462485
0.014693407 -0.0066471845 0.74462485
0.059473321 -0.0066471845 0.74462485
0.068569236 -0.0066471845 0.74462485
-0.080462873 -0.0055974126 0.74462163
-0.077664495 -0.0055974722 0.74462271
-0.073466718 -0.0055974722 0.74462378
-0.07066828 -0.0055975318 0.74462473
-0.050378233 -0.0055976212 0.74462903
-0.016422503 -0.0055906475 0.74431485
0.0094342036 -0.0055906475 0.74431485
0.019567236 -0.0055906475 0.74431485
0.023410803 -0.0055906475 0.74431485
0.030399103 -0.0055906475 0.74431485
0.046472188 -0.0055906475 0.74431485
0.07337714 -0.0055906475 0.74431485
0.074425384 -0.0055906475 0.74431485
-0.076535508 -0.0045433044 0.74435991
-0.076535508 -0.0045433044 0.74435991
-0.030373648 -0.0048877001 0.74410295
-0.0055859117 -0.0048876703 0.74410081
0.0013964662 -0.0048876703 0.74409872
0.012568038 -0.0048875809 0.7440955
0.02339022 -0.0048875511 0.74409235
0.051666439 -0.0048873723 0.74408495
0.055506282 -0.0048873723 0.74408388
0.056553569 -0.0048873723 0.74408388
0.056553569 -0.0048873723 0.74408388
0.06353496 -0.0048873425 0.74408174
0.06632743 -0.0048873127 0.74408072
0.06632743 -0.0048873127 0.74408072
0.073308647 -0.0048872828 0.74407858
-0.08869008 -0.0034917593 0.74413997
-0.074373975 -0.0034917593 0.74413997
-0.049583681 -0.0034917891 0.74414533
-0.069453843 -0.00279212 0.74402463
-0.090764038 0.0024436563 0.74408126
-0.089393675 0.0055870712 0.74415481
-0.06041082 0.0055871308 0.74415588
-0.05556909 0.0066404492 0.74436998
-0.027582865 0.0069829822 0.74412298
0.010474506 0.0069829822 0.74412298
0.042594895 0.0069827437 0.74411458
0.055512086 0.0069826543 0.74411035
-0.079417691 0.0076968372 0.74463546
-0.041582994 0.0076876283 0.74433076
-0.021665089 0.0076876283 0.74433076
-0.0066393018 0.0076876283 0.74433076
-0.00069887383 0.0076876283 0.74433076
0.00034943692 0.0076876283 0.74433076
0.017471846 0.0076876283 0.74433076
0.03634144 0.0076876283 0.74433076
0.03634144 0.0076876283 0.74433076
0.063597523 0.0076876283 0.74433076
-0.055323236 0.0084035099 0.74484497
-0.044469051 0.0084035993 0.74484718
-0.033572815 0.0083931983 0.74453342
-0.033572815 0.0083931983 0.74453342
-0.012589806 0.0083931983 0.74453342
0.027627628 0.0083931983 0.74453342
0.043364882 0.0083931983 0.74453342
0.056654125 0.0083931983 0.74453342
0.070642792 0.0083931983 0.74453342
0.070642792 0.0083931983 0.74453342
0.075538829 0.0083931983 0.74453342
0.075538829 0.0083931983 0.74453342
-0.031502388 0.0091006756 0.74475777
-0.018551406 0.0091006756 0.74475777
0.014351089 0.0091006756 0.74475777
0.02730207 0.0091006756 0.74475777
0.04340329 0.0091006756 0.74475777
0.066505045 0.0091006756 0.74475777
-0.071372941 -0.0091413856 0.74589068
-0.058363583 -0.0091412961 0.74588853
-0.042407356 -0.0093718674 0.74578249
-0.030568697 -0.0094870776 0.7457267
-0.024595503 -0.0094870776 0.7457267
-0.0063245576 -0.0094870776 0.7457267
-0.0056218291 -0.0094870776 0.7457267
0.0056218291 -0.0094870776 0.7457267
0.0063245576 -0.0094870776 0.7457267
0.030568697 -0.0094870776 0.7457267
0.045453098 -0.009606312 0.74578321
0.051521897 -0.0093678441 0.7456702
0.069570132 -0.0094870776 0.7457267
-0.085682675 -0.0084278286 0.74557763
-0.085682675 -0.0084278286 0.74557763
-0.065316856 -0.0084280074 0.745583
-0.052675553 -0.008428067 0.74558616
-0.049515225 -0.0084281266 0.74558729
-0.049515225 -0.0084281266 0.74558729
-0.036475483 -0.0084174275 0.74526417
-0.035423301 -0.0084174275 0.74526417
-0.011573951 -0.0084174275 0.74526417
-0.011573951 -0.0084174275 0.74526417
0.011573951 -0.0084174275 0.74526417
0.02735661 -0.0084174275 0.74526417
0.041385643 -0.0084174275 0.74526417
0.045594353 -0.0084174275 0.74526417
0.051556688 -0.0084174275 0.74526417
0.056466855 -0.0084174275 0.74526417
0.063481361 -0.0084174275 0.74526417
0.078562573 -0.0084174275 0.74526417
-0.063460708 -0.0073630363 0.7451815
-0.046506606 -0.0072449446 0.745139
-0.045579888 -0.0073631108 0.74518365
-0.091373928 0.009137392 0.74578017
-0.080647454 0.0094674677 0.74520284
-0.074556895 0.0093489885 0.74515963
-0.040644191 0.0098106563 0.74501449
-0.023475524 0.0098106563 0.74501449
-0.010511429 0.0098106563 0.74501449
-0.0094602853 0.0098106563 0.74501449
0.0056060953 0.0098106563 0.74501449
0.023475524 0.0098106563 0.74501449
0.023475524 0.0098106563 0.74501449
0.031534288 0.0098106563 0.74501449
0.033636574 0.0098106563 0.74501449
0.039593048 0.0098106563 0.74501449
0.062367812 0.0098106563 0.74501449
-0.068483546 0.010535926 0.74560601
-0.037529871 0.010522366 0.74527919
-0.014380604 0.010522366 0.74527919
0.0045597036 0.010522366 0.74527919
0.014380604 0.010522366 0.74527919
0.027358223 0.010522366 0.74527919
0.061380628 0.010522366 0.74527919
0.066641822 0.010522366 0.74527919
0.069447793 0.010522366 0.74527919
-0.089316495 0.011252433 0.74592614
-0.086503007 0.011252433 0.74592501
-0.079469912 0.011252373 0.745924
-0.043603513 0.011252493 0.74592721
-0.023543691 0.011596367 0.74575126
-0.018624112 0.011596367 0.74575132
0.081524417 0.011596367 0.74575132
-0.07556124 -0.011298865 0.74697644
-0.0024683475 -0.011283904 0.74663687
0.013399601 -0.011283904 0.74663687
0.028562307 -0.011283904 0.74663687
0.047603846 -0.011283904 0.74663687
0.060650826 -0.011283904 0.74663687
0.064529657 -0.011283904 0.74663687
-0.083555296 -0.010576636 0.74658829
-0.063458115 -0.010576367 0.74658185
-0.060637496 -0.010576308 0.74658072
-0.055701409 -0.010576218 0.74657857
-0.053586166 -0.010576218 0.74657857
-0.019363619 -0.010562003 0.74623477
-0.00070413161 -0.010562003 0.74623477
-0.00070413161 -0.010562003 0.74623477
0.020419816 -0.010562003 0.74623477
0.032390054 -0.010562003 0.74623477
0.042599961 -0.010562003 0.74623477
-0.090487838 -0.0095064491 0.74625409
-0.0883618 -0.0098570883 0.74621534
-0.079561494 -0.0098571479 0.74621749
-0.072530456 0.011971027 0.74625194
-0.065488108 0.011970907 0.74624979
-0.082510538 0.012693882 0.74662822
-0.077573687 0.012693882 0.74662709
-0.050423324 0.012693942 0.7466293
-0.038382627 0.012676805 0.74628425
-0.030635674 0.012676805 0.74628425
0.018310977 0.012676805 0.74628425
0.053524394 0.012676805 0.74628425
0.07148324 0.012676805 0.74628425
0.081695132 0.012676805 0.74628425
0.081695132 0.012676805 0.74628425
-0.014458931 0.013400942 0.74666286
0.0045845392 0.013400942 0.74666286
0.012695647 0.013400942 0.74666286
0.031386457 0.013400942 0.74666286
0.0514879 0.013400942 0.74666286
0.077584513 0.013400942 0.74666286
-0.088500932 -0.012390435 0.74763829
-0.085457847 -0.012512108 0.74771357
-0.049561154 -0.012390643 0.74764156
0.04348173 -0.012373209 0.74728072
0.063631803 -0.012373209 0.74728072
0.064555243 -0.012251705 0.74720496
0.070487052 -0.012494713 0.74735653
0.07445059 -0.012251705 0.74720496
-0.058422271 0.014517337 0.74768949
-0.058422271 0.014517337 0.74768949
-0.029472625 0.014618765 0.74739885
-0.026517747 0.014496669 0.74732411
-0.0084856786 0.014496669 0.74732411
0.0084856786 0.014496669 0.74732411
0.026517747 0.014496669 0.74732411
0.029472625 0.014618765 0.74739885
0.049499795 0.014496669 0.74732411
-0.078627445 -0.014231235 0.74892503
-0.073291369 -0.014231354 0.74892718
-0.069378048 -0.014231384 0.74892825
-0.036589798 -0.014209658 0.7485342
-0.031616427 -0.014209658 0.7485342
-0.022380166 -0.014209658 0.7485342
-0.018472519 -0.014209658 0.7485342
-0.0074600559 -0.014209658 0.7485342
0.0074600559 -0.014209658 0.7485342
0.018472519 -0.014209658 0.7485342
0.022380166 -0.014209658 0.7485342
0.031616427 -0.014209658 0.7485342
0.036589798 -0.014209658 0.7485342
0.046536539 -0.014209658 0.7485342
0.046536539 -0.014209658 0.7485342
0.081705377 -0.014209658 0.7485342
0.084547296 -0.014209658 0.7485342
-0.087338254 -0.013491273 0.74838418
-0.043314096 -0.013491273 0.74838418
-0.035451438 -0.013471574 0.74800813
-0.025525033 -0.013471574 0.74800813
-0.012408003 -0.013471574 0.74800813
-0.004608687 -0.013471574 0.74800813
-0.00070902874 -0.013471574 0.74800813
0.004608687 -0.013471574 0.74800813
0.012408003 -0.013471574 0.74800813
0.025525033 -0.013471574 0.74800813
0.043605268 -0.013471574 0.74800813
0.052468125 -0.013471574 0.74800813
-0.07670521 0.015625149 0.74844438
-0.075639538 0.015625089 0.74844331
-0.074574187 0.015625089 0.74844331
-0.021629974 0.015601933 0.74806273
-0.017374897 0.015601933 0.74806273
-0.0063826148 0.015601933 0.74806273
-0.00070917944 0.015601933 0.74806273
0.021629974 0.015601933 0.74806273
0.033331435 0.015601933 0.74806273
0.077300563 0.015601933 0.74806273
-0.078291371 0.016370028 0.74898988
-0.064412996 0.016370118 0.74899209
-0.046619952 0.016370356 0.74899536
-0.0063956687 0.016344458 0.74858797
0.07639271 0.016344458 0.74858797
0.07745865 0.016344458 0.74858797
0.054609351 -0.015704662 0.74975324
0.086375579 -0.015704662 0.74975324
-0.068470776 -0.014978021 0.74953222
-0.043508217 -0.01497823 0.74953657
-0.0096138194 -0.014954835 0.74913299
0.0046288762 -0.014954835 0.74913299
0.0096138194 -0.014954835 0.74913299
0.069433145 -0.014954835 0.74913299
0.080471233 -0.014954835 0.74913299
-0.069560856 0.017122686 0.74960732
-0.068490691 0.017122686 0.74960732
-0.060642537 0.017122597 0.74960619
-0.034590211 0.017473817 0.74951875
-0.033520408 0.017473817 0.74951875
-0.0046358015 0.017473817 0.74951875
0.0014264004 0.017473817 0.74951875
0.0064188018 0.017473817 0.74951875
0.033520408 0.017473817 0.74951875
0.034590211 0.017473817 0.74951875
0.051566742 0.017347764 0.74941254
0.067543857 0.017599871 0.74962497
-0.079587273 -0.016491055 0.75089568
-0.07062535 -0.016491205 0.75089794
-0.062380288 -0.016491354 0.75090015
-0.048399128 -0.016491562 0.75090349
-0.048399128 -0.016491562 0.75090349
-0.039369974 -0.016463846 0.75046664
0.065497324 -0.016463846 0.75046664
0.070508048 -0.016463846 0.75046664
0.071581773 -0.016463846 0.75046664
0.076592498 -0.016463846 0.75046664
-0.076509744 -0.015731007 0.75018656
-0.067571692 -0.015731007 0.75018656
-0.05756107 -0.015731007 0.75018656
-0.072600663 0.01788196 0.75027096
-0.054361548 0.017882079 0.75027323
-0.084638678 0.018649191 0.75099504
-0.047339462 0.018648833 0.75099057
-0.037592694 0.018617302 0.75055122
-0.0264939 0.018617302 0.75055122
-0.02541982 0.018617302 0.75055122
-0.01145682 0.018617302 0.75055122
-0.0075185383 0.018617302 0.75055122
0.0042963079 0.018617302 0.75055122
0.0075185383 0.018617302 0.75055122
0.01145682 0.018617302 0.75055122
0.0264939 0.018617302 0.75055122
0.03866677 0.018617302 0.75055122
0.056568053 0.018617302 0.75055122
0.072321184 0.018617302 0.75055122
0.084494047 0.018617302 0.75055122
-0.05142507 -0.017261595 0.75170296
-0.02369123 -0.017230034 0.75122648
-0.018665817 -0.017230034 0.75122648
-0.015435195 -0.017230034 0.75122648
0.0035895801 -0.017230034 0.75122648
0.015435195 -0.017230034 0.75122648
0.018665817 -0.017230034 0.75122648
0.02369123 -0.017230034 0.75122648
0.050613079 -0.017230034 0.75122648
0.079688683 -0.017230034 0.75122648
-0.086344674 0.019427568 0.75181425
-0.063318878 0.019427359 0.75181198
-0.060440749 0.019427359 0.75181198
-0.050367508 0.019427449 0.75181305
0.051711988 0.019391984 0.75133735
0.064639986 0.019391984 0.75133735
0.078286208 0.019391984 0.75133735
0.081518203 0.019391984 0.75133735
-0.067471921 -0.018040657 0.75256956
-0.06566757 -0.018040597 0.75256836
-0.039614461 -0.018006593 0.75207639
-0.030611176 -0.018006593 0.75207639
-0.0075627612 -0.018006593 0.75207639
0.0075627612 -0.018006593 0.75207639
0.030611176 -0.018006593 0.75207639
0.040334724 -0.018006593 0.75207639
0.044656303 -0.018006593 0.75207639
0.065543927 -0.018006593 0.75207639
0.067704715 -0.018006593 0.75207639
-0.090254642 0.020217031 0.75271893
-0.090254642 0.020217031 0.75271893
-0.071479201 0.020216316 0.75270987
-0.059565999 0.020216316 0.75270987
-0.0036028549 0.020175964 0.75218797
-0.00072057103 0.020175964 0.75218797
0.039631404 0.020175964 0.75218797
0.063410252 0.020175964 0.75218797
0.064491108 0.020175964 0.75218797
0.070615955 0.020175964 0.75218797
0.081424527 0.020175964 0.75218797
-0.087645374 -0.018832922 0.75355351
-0.049620654 -0.018834144 0.75357062
-0.049620654 -0.018834144 0.75357062
-0.011566715 -0.018795937 0.75303841
-0.0036145984 -0.018795937 0.75303841
-0.0014458394 -0.018795937 0.75303841
-0.0014458394 -0.018795937 0.75303841
0.0036145984 -0.018795937 0.75303841
0.011566715 -0.018795937 0.75303841
0.07229197 -0.018795937 0.75303841
-0.032547187 0.020974874 0.75316566
-0.030377373 0.020974874 0.75316566
-0.024591208 0.020974874 0.75316566
-0.011572334 0.020974874 0.75316566
0.0025314479 0.020974874 0.75316566
0.011572334 0.020974874 0.75316566
0.024591208 0.020974874 0.75316566
0.030377373 0.020974874 0.75316566
0.032547187 0.020974874 0.75316566
0.058584936 0.020974874 0.75316566
0.070518903 0.020974874 0.75316566
-0.057619214 0.021018296 0.7537086
-0.04747244 0.021018296 0.7537086
-0.084382065 -0.019640714 0.75467241
-0.065472558 -0.019641787 0.75468731
-0.064381629 -0.019641876 0.7546885
0.0025404375 -0.019597679 0.75409579
0.052623346 -0.019597679 0.75409579
0.056615464 -0.019597679 0.75409579
0.086374871 -0.019597679 0.75409579
-0.077527262 0.021838665 0.75486207
-0.071339637 0.021838665 0.75486207
-0.057508484 0.021838665 0.75486207
-0.052412797 0.021838665 0.75486207
-0.028327333 0.021790206 0.75427777
-0.026511477 0.021790206 0.75427777
-0.011621471 0.021790206 0.75427777
-0.010531957 0.021790206 0.75427777
-0.0065370766 0.021790206 0.75427777
0.010531957 0.021790206 0.75427777
0.011621471 0.021790206 0.75427777
0.026511477 0.021790206 0.75427777
0.028327333 0.021790206 0.75427777
0.053386126 0.021790206 0.75427777
0.075539552 0.021790206 0.75427777
-0.076394446 -0.020469338 0.7559818
-0.073470742 -0.020469487 0.75598347
-0.060679585 -0.020470202 0.75599343
-0.060679585 -0.020470202 0.75599343
-0.028440537 -0.020418853 0.75532889
-0.0094801793 -0.020418853 0.75532889
0.0094801793 -0.020418853 0.75532889
0.028440537 -0.020418853 0.75532889
0.057610322 -0.020418853 0.75532889
0.064538144 -0.020418853 0.75532889
-0.026275666 0.022626281 0.75555891
-0.014597592 0.022626281 0.75555891
0.014597592 0.022626281 0.75555891
0.026275666 0.022626281 0.75555891
0.047442175 0.022626281 0.75555891
-0.04033383 -0.021266937 0.75681293
-0.03446709 -0.021266937 0.75681293
-0.016500203 -0.021266937 0.75681293
-0.016500203 -0.021266937 0.75681293
-0.014666847 -0.021266937 0.75681293
-0.011366807 -0.021266937 0.75681293
-0.005500068 -0.021266937 0.75681293
-0.005500068 -0.021266937 0.75681293
0.005500068 -0.021266937 0.75681293
0.005500068 -0.021266937 0.75681293
0.014666847 -0.021266937 0.75681293
0.016500203 -0.021266937 0.75681293
0.016500203 -0.021266937 0.75681293
0.03446709 -0.021266937 0.75681293
-0.07536526 0.022682726 0.75621867
-0.065487579 0.022682846 0.75621986
-0.080527589 -0.021326959 0.75756228
-0.080527589 -0.021326959 0.75756228
-0.070601091 -0.021327436 0.75756818
-0.068471193 0.023559988 0.75786561
-0.064421535 0.023559868 0.75786448
-0.060372181 0.023559868 0.75786448
-0.059635673 0.023559749 0.75786322
-0.0066069663 0.023491412 0.75708997
0.0066069663 0.023491412 0.75708997
0.065335549 0.023491412 0.75708997
0.076347165 0.023491412 0.75708997
-0.033597231 -0.022152007 0.7586447
-0.026582425 -0.022152007 0.7586447
-0.02067522 -0.022152007 0.7586447
0.02067522 -0.022152007 0.7586447
0.02252122 -0.022152007 0.7586447
0.026582425 -0.022152007 0.7586447
0.028428426 -0.022152007 0.7586447
0.033597231 -0.022152007 0.7586447
0.059441254 -0.022152007 0.7586447
0.060548853 -0.022152007 0.7586447
0.083439276 -0.022152007 0.7586447
0.083439276 -0.022152007 0.7586447
-0.086716518 -0.022235036 0.7596463
-0.074487597 -0.022235125 0.75964755
-0.050401133 -0.022235811 0.75965583
-0.033275027 0.024401665 0.75902283
-0.011461398 0.024401665 0.75902283
-0.01035223 0.024401665 0.75902283
0.01035223 0.024401665 0.75902283
0.011461398 0.024401665 0.75902283
0.033275027 0.024401665 0.75902283
0.054718927 0.024401665 0.75902283
0.058416154 0.024401665 0.75902283
0.066550054 0.024401665 0.75902283
0.085405894 0.024401665 0.75902283
-0.047515973 0.02450037 0.76010633
-0.010439614 -0.023116291 0.76128316
-0.010439614 -0.023116291 0.76128316
-0.0055926507 -0.023116291 0.76128316
0.0026099035 -0.023116291 0.76128316
0.060400624 -0.023116291 0.76128316
-0.019436954 0.025417507 0.76196694
0.019436954 0.025417507 0.76196694
0.047471017 0.025417507 0.76196694
-0.051383592 -0.023253903 0.76289058
-0.043506589 -0.02325356 0.76288623
-0.0022573255 -0.024078161 0.76372945
0.0022573255 -0.024078161 0.76372945
0.013543892 -0.024078041 0.76372814
0.03348336 -0.024077952 0.76372695
0.050412696 -0.024077684 0.76372451
0.082389221 -0.024077237 0.76371896
-0.013552757 0.026352584 0.76390654
-0.013552757 0.026352584 0.76390654
-0.011293964 0.026352584 0.76390654
-0.004517545 0.026352316 0.76390409
-0.004517545 0.026352316 0.76390409
0.034632791 0.026351035 0.76389056
0.034632791 0.026351035 0.76389056
0.060605332 0.026350141 0.76388133
0.060605332 0.026350141 0.76388133
0.071520694 0.026349694 0.76387697
-0.024556391 -0.025689781 0.76486629
-0.021534067 -0.025689781 0.76486629
-0.019645113 -0.025689781 0.76486629
-0.015489416 -0.025689781 0.76486629
-0.011333719 -0.025689781 0.76486629
0.0015111625 -0.025689781 0.76486629
0.019645113 -0.025689781 0.76486629
0.019645113 -0.025689781 0.76486629
0.041556969 -0.025689781 0.76486629
0.054401852 -0.025689781 0.76486629
0.076313712 -0.025689781 0.76486629
-0.037717722 -0.024893701 0.76442206
-0.037717722 -0.024893701 0.76442206
0.0094294306 -0.024893701 0.76442206
0.0094294306 -0.024893701 0.76442206
0.028665468 -0.024893701 0.76442206
0.037717722 -0.024893701 0.76442206
0.070532136 -0.024893701 0.76442206
0.082601808 -0.024893701 0.76442206
0.085619226 -0.024893701 0.76442206
0.085619226 -0.024893701 0.76442206
-0.045596268 0.025624335 0.76416957
-0.026432134 0.027565226 0.76472956
-0.026432134 0.027565226 0.76472956
-0.023411315 0.027565226 0.76472956
0.023411315 0.027565226 0.76472956
0.030585755 0.027565226 0.76472962
0.043424219 0.027565226 0.76472962
0.065468788 0.027698657 0.76480454
-0.032561835 -0.026503831 0.76547128
-0.0022717558 -0.026503831 0.76547128
0.00037862596 -0.026503831 0.76547128
0.0022717558 -0.026503831 0.76547128
0.028396947 -0.026503831 0.76547128
-0.037507813 0.028793901 0.76564574
-0.03447688 0.028793901 0.76564574
-0.030309344 0.028793901 0.76564574
-0.015533539 0.028793901 0.76564574
0.015533539 0.028793901 0.76564574
0.037507813 0.028793901 0.76564574
0.051525887 0.028793901 0.76564574
0.064407356 0.028793901 0.76564574
0.072742425 0.028793901 0.76564574
0.075394496 0.028793901 0.76564574
0.0064634345 -0.027374595 0.76661277
0.057410505 -0.027374595 0.76661277
0.066535354 -0.027374595 0.76661277
0.078321613 -0.027374595 0.76661277
0.083644442 -0.027374595 0.76661277
-0.038446501 0.029691339 0.76694334
-0.00076131691 0.029691339 0.76694334
0.00038065846 0.029691339 0.76694334
0.046440333 0.029691339 0.76694334
0.072325103 0.029691339 0.76694334
0.083744854 0.029691339 0.76694334
-0.036890313 0.00085780025 0.73978865
-0.033115491 0.00085780025 0.73978865
-0.028997503 0.00085780025 0.73978865
-0.016986702 0.00085780025 0.73978865
0.019045696 0.00085780025 0.73978865
0.08682093 0.00085780025 0.73978865
-0.004977833 0.0020597875 0.73988509
0.012873705 0.0020597875 0.73988509
0.033128336 0.0020597875 0.73988509
0.034844831 0.0020597875 0.73988509
0.075010791 0.0020597875 0.73988509
-0.022970334 -0.002418533 0.74142039
-0.017098218 -0.002418533 0.74142039
-0.005008569 -0.002418533 0.74142039
0.0070810807 -0.002418533 0.74142033
0.025042845 -0.002418533 0.74142033
0.050949238 -0.002418533 0.74142033
0.072969526 -0.002418533 0.74142039
-0.011001603 -0.0010317117 0.74025118
0.012892662 -0.0010317117 0.74025118
0.048992112 -0.0010317117 0.74025118
0.057009395 0.0044923425 0.74149048
0.082923666 0.0044923425 0.74149048
0.082923666 0.0044923425 0.74149048
0.044971082 -0.0041833818 0.743734
0.044971082 -0.0041833818 0.743734
-0.057040915 -0.0020932555 0.74392307
-0.043609716 -0.0020932853 0.74392569
-0.034941107 -0.0034767687 0.74305296
-0.0071274387 -0.0034767985 0.7430582
0.058926102 -0.0034764707 0.74303406
0.065009102 -0.0034764409 0.74303091
-0.068873823 -0.0010462701 0.74381745
-0.061025649 -0.00087191164 0.74381
-0.058961697 0.0041865706 0.74393153
-0.058961697 0.0041865706 0.74393153
-0.033038478 0.0055643469 0.74312592
-0.024865959 0.0055643916 0.74312752
-0.00504281 0.0055644214 0.74313062
0.024866786 0.0055645704 0.74313587
0.039126392 0.00556463 0.74313802
0.058948711 0.0055644214 0.74313062
0.071119308 0.0055643544 0.74312472
-0.01691141 0.0062763989 0.74378884
-0.013075832 0.0062763989 0.74378884
0.013075886 0.0062764287 0.74378991
0.048990168 0.0062763095 0.74378574
0.05108206 0.0062762499 0.74378473
0.074965909 0.0062761903 0.74378151
-0.066937365 -0.0087846443 0.74573606
-0.044977039 -0.0087847933 0.74574089
-0.028961217 -0.0089522526 0.74549544
-0.028961217 -0.0089522526 0.74549544
0.032998078 -0.0089522526 0.74549544
0.043003019 -0.0089522526 0.74549544
0.043003019 -0.0089522526 0.74549544
-0.039035931 -0.0071774796 0.74480951
0.050939262 -0.0071774796 0.74480957
0.075096026 -0.0071774796 0.74480951
-0.083044015 -0.005070392 0.74449158
0.057015866 -0.005238995 0.7441991
0.082946971 -0.0052389354 0.7441957
-0.052888032 -0.0031419694 0.74408376
-0.046953626 -0.0031419545 0.74408501
-0.046955589 0.0052367598 0.74409556
-0.078939639 0.0071686907 0.74450493
-0.069061436 0.0071687195 0.74450547
0.013098481 0.0073352903 0.74422646
0.035103522 0.0073352158 0.74422342
-0.056939218 0.0089355186 0.74502468
-0.050982792 0.0089355707 0.74502623
-0.036929376 0.00910151 0.74476856
-0.028963473 0.011059366 0.74551523
-0.025071051 0.011029486 0.74550211
0.06898573 0.011059366 0.74551523
-0.084960774 -0.012390445 0.74763793
-0.084960774 -0.012390445 0.74763793
-0.084960774 -0.012390445 0.74763793
-0.06701456 -0.012329618 0.74760002
-0.049030218 -0.012390666 0.74764198
-0.090814658 -0.010954611 0.74717402
-0.020964434 -0.010922953 0.74643588
-0.011098818 -0.010922953 0.74643582
-0.011098818 -0.010922953 0.74643582
0.032944113 -0.010922953 0.74643588
0.079101101 -0.010922953 0.74643582
-0.081145689 -0.0098571479 0.74621749
-0.07692159 -0.0098572448 0.74621892
-0.058969028 -0.0098575056 0.74622613
-0.043303728 -0.0098578036 0.74623263
-0.068833224 0.011970967 0.74625087
-0.063023508 0.011970907 0.74624979
-0.049116291 0.011970967 0.74625087
-0.086985052 0.01305683 0.74682474
-0.047020815 0.013056695 0.74682236
0.0089860857 0.013038874 0.74647355
0.056911878 0.013038874 0.74647355
0.074972086 0.013038874 0.74647355
-0.070991769 0.014517307 0.74768889
-0.036948062 0.014496669 0.74732411
0.030937372 0.014496669 0.74732411
0.039069481 0.014496669 0.74732411
0.073012196 0.014496669 0.74732411
-0.08904928 -0.014604568 0.74922752
-0.045060411 -0.014604978 0.74923533
-0.038990472 -0.014956385 0.74914014
-0.038990472 -0.014956385 0.74914014
0.005163122 -0.014956385 0.7491402
0.01905014 -0.014956385 0.74914014
-0.05911158 -0.013490945 0.74837762
-0.056981489 -0.013490967 0.74837792
0.018966518 -0.013471574 0.74800813
0.027120348 -0.013471574 0.74800813
0.059026636 -0.013471574 0.74800813
0.067003213 -0.013471574 0.74800813
0.083133616 -0.013471574 0.74800813
-0.05504309 0.015625149 0.74844438
-0.042968128 0.015624747 0.74843836
-0.016843013 0.015601933 0.74806273
0.0310266 0.015601933 0.74806273
-0.065024287 0.016746391 0.74929953
-0.038977347 0.016909137 0.74905336
-0.0051613837 0.016909137 0.74905336
0.0069411714 0.016909137 0.74905336
0.038977347 0.016909137 0.74905336
-0.04497296 -0.016876705 0.75130516
-0.031004494 -0.01684694 0.75084656
-0.0089608356 -0.01684694 0.75084656
0.0089608356 -0.01684694 0.75084656
-0.080978781 -0.015731007 0.75018656
-0.074900895 -0.015731007 0.75018656
-0.044869613 -0.015731186 0.75018996
-0.073137119 0.01788196 0.75027096
-0.067057475 0.017881982 0.7502718
-0.067057475 0.017881982 0.7502718
-0.082975656 0.01903832 0.75140405
-0.082975656 0.01903832 0.75140405
-0.055047393 0.0190382 0.75140238
-0.055047393 0.0190382 0.75140238
-0.044989765 0.0190382 0.75140238
-0.038994171 0.019004643 0.75094426
-0.028954258 0.019004643 0.75094426
0.049034081 0.019004643 0.75094426
0.062928744 0.019004643 0.75094426
0.062928744 0.019004643 0.75094426
0.082918793 0.019004643 0.75094426
-0.071123779 -0.018436864 0.75306326
-0.053049657 -0.018437088 0.75306612
-0.018941771 -0.018401265 0.7525574
-0.018941771 -0.018401265 0.7525574
-0.0010823869 -0.018401265 0.7525574
0.018941771 -0.018401265 0.7525574
0.018941771 -0.018401265 0.7525574
0.045009091 -0.018401265 0.7525574
0.063048877 -0.018401265 0.7525574
0.081088655 -0.018401265 0.7525574
-0.021116186 0.020575419 0.75267678
0.021116186 0.020575419 0.75267678
0.043044366 0.020575419 0.75267684
0.0710188 0.020575419 0.75267684
0.072913677 0.020575419 0.75267684
-0.0010938668 -0.020418853 0.75532889
0.039014585 -0.020418853 0.75532889
0.049041696 -0.020418853 0.75532889
0.063079655 -0.020418853 0.75532889
0.073106766 -0.020418853 0.75532889
-0.070927516 -0.019641489 0.75468332
-0.064927094 -0.019641832 0.75468791
-0.0010887588 -0.019597679 0.75409579
0.028852111 -0.019597679 0.75409579
0.039013859 -0.019597679 0.75409579
0.066958673 -0.019597679 0.75409579
0.080931082 -0.019597679 0.75409579
-0.072977543 0.021838665 0.75486207
-0.025058793 0.021790206 0.75427777
-0.003086953 0.021790206 0.75427777
0.0049028075 0.021790206 0.75427777
0.031019885 0.022626281 0.75555891
0.077002302 0.022626281 0.75555891
-0.091015287 -0.02055186 0.7570489
-0.035017096 -0.021266937 0.75681293
-0.032817069 -0.021266937 0.75681293
-0.025116976 -0.021266937 0.75681293
0.044917218 -0.021266937 0.75681293
0.083051026 -0.021266937 0.75681293
-0.043225557 0.023267409 0.7573151
-0.043225557 0.023267409 0.7573151
-0.080972478 -0.022235036 0.7596463
0.024921022 -0.022152007 0.7586447
-0.010906814 0.024401665 0.75902283
-0.010906814 0.024401665 0.75902283
0.0090582017 0.024401665 0.75902283
0.010906814 0.024401665 0.75902283
0.064886294 0.024401665 0.75902283
0.07893575 0.024401665 0.75902283
0.0031691685 -0.023116291 0.76128316
0.034860857 -0.023116291 0.76128316
0.05313018 -0.023116291 0.76128316
-0.022987934 0.025417507 0.76196694
0.022987934 0.025417507 0.76196694
0.031024367 0.025417507 0.76196694
0.055115372 -0.024077684 0.76372451
0.059065349 -0.024077624 0.76372325
0.061134517 -0.024077624 0.76372325
0.073172659 -0.024077415 0.76372075
0.077122509 -0.024077296 0.76371956
-0.025035352 0.026352987 0.76391083
0.051006928 0.026350409 0.76388437
-0.035022903 -0.026503831 0.76547128
0.00094656489 -0.026503831 0.76547128
0.013062596 -0.026503831 0.76547128
0.026990103 -0.025291741 0.76464415
0.08304631 -0.025291741 0.76464415
0.085028172 -0.025291741 0.76464415
-0.042255696 0.02716434 0.76449859
-0.006985635 0.027565226 0.76472962
-0.0011328056 0.027565226 0.76472956
-0.0011328056 0.027565226 0.76472956
0.014915274 0.027565226 0.76472962
0.060982153 0.027565002 0.76472712
0.077029392 0.027564749 0.76472461
0.045085147 0.028793901 0.76564574
0.0028515151 -0.027374595 0.76661277
0.067105651 -0.027374595 0.76661277
-0.0089454735 0.029691339 0.76694334
0.059002057 0.029691339 0.76694334
-0.041016255 0.0014587939 0.73983687
0.078085341 0.0014587939 0.73983687
-0.053932764 -0.0014826041 0.74386746
-0.013925424 0.0030947775 0.74027532
0.010057182 0.0030947775 0.74027532
0.010057182 0.0030947775 0.74027532
0.050028373 0.0030947775 0.74027532
0.085974514 0.0054343864 0.74278307
-0.074075386 -0.012390492 0.74763864
0.082014322 -0.012373209 0.74728072
-0.078014821 -0.009859845 0.74624491
-0.010023286 -0.009937603 0.74596566
-0.086016014 -0.0059515387 0.74474919
-0.041995276 -0.0061237058 0.74462879
0.0019232496 -0.0062083174 0.74450815
0.021986045 -0.0062082894 0.74450672
0.042026803 -0.0062082577 0.74450535
-0.070024006 0.006195398 0.74429852
-0.050050855 0.0062027592 0.74430078
-0.026022371 0.0073353052 0.74422693
-0.006112637 0.0073353052 0.74422687
0.026022144 0.0073352437 0.74422479
0.061997887 0.0073351115 0.7442199
0.061997887 0.0073351115 0.7442199
-0.069957644 0.010605138 0.74568194
-0.069957644 0.010605138 0.74568194
-0.033989243 0.010080438 0.74514192
-0.045960292 -0.016876668 0.75130463
0.069983996 -0.01684694 0.75084656
-0.038045868 -0.014213979 0.74857414
0.038045868 -0.014213979 0.74857414
0.038045868 -0.014213979 0.74857414
0.054019507 -0.014213979 0.74857414
0.062028307 -0.014213979 0.74857414
-0.06196744 0.015625034 0.74844259
-0.06196744 0.015625034 0.74844259
-0.01001716 0.015601933 0.74806273
0.046008017 0.015601933 0.74806273
-0.092116877 0.017991573 0.75185919
-0.034014352 -0.018999472 0.75332659
-0.037995752 0.021663969 0.75417125
0.0059594801 0.021663969 0.75417113
-0.081948519 -0.021780957 0.75860381
-0.013981242 -0.021709472 0.75772882
-0.013981242 -0.021709472 0.75772882
-0.0021156305 -0.021709472 0.75772882
0.041944355 -0.021709472 0.75772882
-0.058029488 0.023121336 0.75704205
-0.026060812 0.023491412 0.75708997
0.0099104494 0.023491412 0.75708997
0.041935883 0.023491412 0.75708997
0.017964467 -0.024078041 0.76372814
-0.029920679 -0.023116291 0.76128316
-0.029920679 -0.023116291 0.76128316
0.042012375 0.025884129 0.76292729
-0.014014514 -0.026390057 0.76557606
0.065948829 0.027531477 0.76470679
-0.0019937539 0.02924262 0.7662946
0.066078469 0.02924262 0.76629454
