# .PCD v0.7 - Point Cloud Data file format
VERSION 0.7
FIELDS x y z
SIZE 4 4 4
TYPE F F F
COUNT 1 1 1
WIDTH 771
HEIGHT 1
VIEWPOINT 0 0 0 1 0 0 0
POINTS 771
DATA ascii
-0.013554392 -0.037535176 0.74296272
-0.00069512805 -0.03649421 0.74297428
-0.013554392 -0.029541574 0.74296272
-0.0013903894 -0.025374591 0.74299836
0 -0.019464552 0.7429868
-0.013554392 -0.012511715 0.74296272
-0.00069513096 -0.0076464415 0.74297529
-0.013554392 0.01842007 0.74296272
-0.013554392 0.021547988 0.74296272
-0.0013903894 0.023636639 0.74299836
-0.0013903894 0.042406917 0.74299836
-0.01355442 0.046571568 0.74296319
-0.0013903894 0.048663646 0.74299836
0 0.051442057 0.74298686
-0.0013903894 0.052487209 0.74299836
0 0.059436426 0.7429868
-0.00069513096 0.066385046 0.74297529
-0.0013903894 0.067433923 0.74299836
-0.01355442 0.071595088 0.74296319
0 0.071602106 0.74298787
-0.0013903894 0.074385881 0.74299836
0 0.07959649 0.74298787
-0.01355442 0.08132644 0.74296325
-0.0013903894 0.085508972 0.74299836
-0.01355442 0.086539663 0.74296319
-0.0013903894 0.088289738 0.74299836
-0.0055788583 -0.087518349 0.74378151
-0.0034821129 -0.086356401 0.74344301
0.002437735 -0.086363256 0.74346304
0.002437735 -0.086363256 0.74346304
-0.00069596636 -0.083515942 0.74327779
0.0044167745 -0.082522295 0.74378681
-0.0062797074 -0.08163619 0.743922
0.002437735 -0.080443174 0.74346304
0.0024377394 -0.079398617 0.74346358
-0.0055788583 -0.078452691 0.74378157
0.0024377417 -0.075568065 0.74346387
0.0034843097 -0.069686145 0.74360216
0.00034802675 -0.067512944 0.74329364
0.00034802817 -0.063337162 0.74329466
-0.0062797074 -0.062448174 0.743922
-0.0062797074 -0.062448174 0.743922
-0.0013920023 -0.060552061 0.74329042
-0.0024365343 -0.057431705 0.74334145
-0.0055789049 -0.055440336 0.74378359
0.0024377729 -0.055370882 0.74346727
0.0024377729 -0.055370882 0.74346727
-0.0034821858 -0.052580982 0.74344826
-0.0013920198 -0.052548751 0.74329364
0.0013923277 -0.052560344 0.74334931
0.0013923277 -0.051516116 0.74334937
-0.0013920314 -0.047329068 0.74329567
0.0013923219 -0.045598522 0.7433483
-0.00069595617 -0.043497249 0.74327415
0.0024378034 -0.04248637 0.74347043
-0.011376637 -0.039470594 0.74348634
-0.0076774145 -0.039433971 0.74399501
0.0062800753 -0.039424911 0.74393678
-0.01531388 -0.038632706 0.74332094
-0.0055721947 -0.038308829 0.74347991
-0.016038144 -0.036608785 0.74376464
0.0013906733 -0.036505163 0.7430498
0.0062800753 -0.03663376 0.7439369
-0.0034780756 -0.035476387 0.74315071
0.0034800929 -0.03549692 0.74329674
-0.012516844 -0.034421295 0.74306554
0.0045280163 -0.034481831 0.74350834
0.005577879 -0.033467263 0.74373722
-0.010468632 -0.032452747 0.74398124
-0.0066230861 -0.031371877 0.74370766
-0.0066230861 -0.031371877 0.74370766
0.0013906733 -0.031637818 0.7430498
-0.012516844 -0.029553637 0.7430656
-0.0076774145 -0.027568892 0.74399495
-0.011489989 -0.026462317 0.7434268
-0.011489989 -0.026462317 0.7434268
-0.016038144 -0.025451824 0.74376464
-0.0066230861 -0.025446087 0.74370766
-0.0024336828 -0.025379464 0.74304664
0.00069524971 -0.025376603 0.74301827
-0.014605358 -0.023646742 0.74310648
0.005577879 -0.023357347 0.74373722
0.005577879 -0.023357347 0.74373722
-0.012516844 -0.022599831 0.74306554
0.0013906733 -0.020512417 0.74304986
0.0013906733 -0.020512417 0.74304986
0.0013906733 -0.020512417 0.74304986
-0.010468632 -0.019541383 0.74398124
-0.014605358 -0.015648589 0.74310648
-0.0045240312 -0.015311837 0.74328732
-0.0066230861 -0.014640197 0.74370766
-0.0055721947 -0.01462701 0.74347991
0.0024348851 -0.01460892 0.74316847
0.0045280168 -0.014628634 0.74350834
0.0013906733 -0.013559058 0.7430498
-0.0066230861 -0.011503004 0.74370766
0.005577879 -0.011504352 0.74373722
-0.01531388 -0.010441303 0.74332088
0.0024348851 -0.010434955 0.74316853
-0.0066230861 -0.0083658248 0.74370766
0.0024348851 -0.0083479434 0.74316847
-0.016038144 -0.0076704025 0.74376464
0.0024348851 -0.0076522827 0.74316847
-0.0045240312 -0.0055679232 0.74328732
-0.010468456 -0.0045363158 0.74397695
0.0013906733 -0.0045196563 0.7430498
-0.0076774145 -0.0034897327 0.74399495
-0.0076774145 -0.0034897327 0.74399495
-0.011489989 0.00034821779 0.7434268
-0.0045240312 0.00034801662 0.74328732
-0.0045240312 0.00034801662 0.74328732
-0.0076774145 0.0024428368 0.74399495
-0.01531388 0.0034804642 0.74332094
0.0034800929 0.0034801066 0.74329674
-0.011489989 0.0055710375 0.74342686
-0.0076774145 0.0066305399 0.74399495
0.0034800929 0.0066122413 0.74329674
-0.014605358 0.0076504648 0.74310648
-0.01531388 0.0083529949 0.74332094
0.0024348851 0.0083479881 0.74316853
0.0024348851 0.0083479881 0.74316853
-0.0055721947 0.0094031096 0.74347991
-0.016038144 0.011505648 0.74376464
0.0024348851 0.011478499 0.74316847
0.0062800753 0.011513501 0.74393678
-0.01531388 0.012529522 0.74332094
-0.011489989 0.012534812 0.74342686
-0.011489988 0.013579376 0.74342686
0.002550968 0.01646499 0.74318284
0.005577879 0.016385019 0.74373722
-0.016038144 0.017432779 0.74376464
-0.016038144 0.019524723 0.74376464
-0.011489989 0.020543166 0.7434268
0.00069524971 0.020509869 0.74301839
0.0034800929 0.020532578 0.74329674
-0.014605358 0.021560311 0.74310648
-0.0055721947 0.021592289 0.74347997
0.0034800929 0.022620618 0.74329674
-0.01531388 0.024363011 0.74332094
-0.010468107 0.028612852 0.74396849
-0.0024336886 0.031637512 0.74304724
0.0023188023 0.031534962 0.74315417
-0.014605358 0.0326882 0.74310648
-0.011489989 0.032381587 0.7434268
-0.011489989 0.032381587 0.7434268
-0.0055721947 0.033433199 0.74347997
-0.010467974 0.037684739 0.74396539
-0.0055721947 0.037612349 0.74347991
-0.0024336886 0.037547827 0.74304712
0.0013906733 0.037548184 0.7430498
0.0024348851 0.037565902 0.74316847
-0.014605358 0.039643139 0.74310648
-0.014605358 0.039643139 0.74310648
-0.0024336886 0.039633781 0.74304724
0.0034800929 0.03967306 0.74329674
-0.0066230996 0.041480727 0.74370819
-0.0045240312 0.041411571 0.74328732
0.0013906733 0.044501543 0.7430498
0.00069524971 0.045538887 0.74301827
0.0062800753 0.04744947 0.74393684
-0.0024336886 0.048673093 0.74304718
-0.014605358 0.051466495 0.74310648
-0.014605358 0.05250977 0.74310648
-0.00347809 0.053562611 0.74315172
-0.0076774145 0.056533724 0.74399495
0.0024348851 0.056348875 0.74316847
0.004528027 0.056425005 0.74350888
-0.014605358 0.058421433 0.74310654
-0.0066230991 0.059606768 0.74370825
-0.0066230996 0.06065248 0.74370819
-0.0066230996 0.062395386 0.74370819
-0.00347809 0.062605649 0.74315166
0.0034800929 0.06264168 0.74329674
0.0062800753 0.062451884 0.74393684
-0.010467712 0.06350413 0.74395895
0.00069524971 0.063615367 0.74301833
-0.014605358 0.064680934 0.74310648
-0.014605358 0.064680934 0.74310648
-0.010467689 0.064550757 0.74395853
-0.0045240312 0.064379327 0.74328732
-0.01531388 0.065432042 0.74332094
-0.0076774145 0.066304952 0.74399501
-0.014605358 0.068506122 0.74310648
-0.014605358 0.068506122 0.74310648
0.0013906733 0.068490684 0.7430498
0.00069524971 0.070567876 0.74301827
0.0055779018 0.071466893 0.74373817
0.0013906733 0.073358029 0.74304986
-0.016038144 0.075309545 0.74376464
0.0013906733 0.075444043 0.7430498
0.0034800929 0.075518042 0.74329674
-0.0076774145 0.077472121 0.74399501
-0.01531388 0.078657687 0.74332094
-0.01531388 0.078657687 0.74332094
0.0023188023 0.079533115 0.74315417
-0.0076774145 0.084451586 0.74399501
0.0044115009 0.084513366 0.74348515
-0.0055721947 0.085672528 0.74347991
0.0013906733 0.085526437 0.7430498
0.0013906733 0.085526437 0.7430498
-0.011603342 0.086562477 0.74336737
-0.010467449 0.087577686 0.74395263
0.0013906733 0.08761245 0.7430498
-0.0083928863 -0.083579153 0.74452388
-0.0069826231 -0.08344233 0.74410927
0.0076985476 -0.079434991 0.74469072
0.005584836 -0.074697137 0.74405211
-0.0083928518 -0.073437393 0.74452281
0.0076984833 -0.07138592 0.74468863
0.0084069176 -0.071458787 0.74494725
-0.0091008814 -0.068606615 0.74476302
-0.0091008814 -0.065456331 0.74476308
0.0066398345 -0.063601255 0.74434566
0.0076985154 -0.063687712 0.7446897
-0.008392781 -0.059448868 0.74452066
-0.009100805 -0.056354955 0.74476099
-0.009100805 -0.056354955 0.74476099
-0.0091007669 -0.053554505 0.74475992
0.0084071476 -0.053595558 0.74495423
-0.0083927112 -0.050356239 0.74451858
0.0055847424 -0.04956457 0.74404788
0.0076987091 -0.046542183 0.74469614
-0.0076869358 -0.043326348 0.74430841
-0.0069827838 -0.043642402 0.74411511
0.0069833542 -0.038408428 0.74413574
0.0069833542 -0.038408428 0.74413574
0.0069833542 -0.030377582 0.74413574
-0.0094318651 -0.026549086 0.74425334
0.0091058882 -0.023465157 0.74490261
0.0091058882 -0.023465157 0.74490261
0.0083965836 -0.022390872 0.7446354
-0.008381675 -0.020604938 0.74418557
0.0083965836 -0.016443282 0.74463546
0.0083965836 -0.016443282 0.74463546
-0.016779229 -0.015380949 0.74442518
-0.016779229 -0.012584418 0.74442518
0.0083965836 -0.012594849 0.74463546
-0.016779229 -0.0094382912 0.74442518
0.0083965836 -0.0083965361 0.74463546
0.0069833542 0.00034920871 0.74413574
-0.0094318008 0.0034932792 0.74425173
-0.008381675 0.006635502 0.74418551
-0.008381675 0.0094293803 0.74418557
0.0083965836 0.009446159 0.74463546
-0.008381675 0.010477096 0.74418551
-0.008381675 0.014667958 0.74418551
0.0069833542 0.014665037 0.74413574
0.0091058882 0.016460687 0.74490249
0.0091058882 0.016460687 0.74490249
-0.008381675 0.018509552 0.74418551
0.0069833542 0.019553423 0.7441358
-0.008381675 0.020604968 0.74418551
-0.0094317188 0.025500745 0.74424958
-0.008381675 0.028637379 0.74418551
-0.008381675 0.028637379 0.74418551
0.0076889656 0.028658926 0.74437523
-0.0094316965 0.032487169 0.74424911
-0.016779229 0.037403718 0.74442518
-0.008381675 0.037368312 0.74418545
-0.008381675 0.037368312 0.74418545
0.0091058882 0.040626287 0.74490261
0.0076889656 0.042638838 0.74437523
0.0091058882 0.043428063 0.74490261
0.0091058882 0.043428063 0.74490261
-0.009431636 0.048555791 0.7442475
0.0083965836 0.048630252 0.74463546
0.0076889656 0.06046325 0.74437523
0.0076889656 0.068501711 0.74437523
0.0083965836 0.068572104 0.7446354
-0.0083813937 0.071591079 0.74417698
0.0091059264 0.075649202 0.74490368
0.0083965836 0.078368127 0.74463546
-0.0083813239 0.0813687 0.74417496
0.0076889656 0.082481652 0.74437529
-0.0094313985 0.08453384 0.74424112
-0.016779229 0.085643992 0.74442518
0.0084156133 -0.089766562 0.74520969
0.0084156133 -0.089766562 0.74520969
-0.010524606 -0.079636171 0.7453326
-0.010524606 -0.07647875 0.7453326
-0.010524518 -0.067356884 0.74533045
0.01054788 -0.063638866 0.74589443
-0.0098116146 -0.061672986 0.74503905
-0.0098116146 -0.061672986 0.74503905
0.0094747441 -0.058601655 0.74539638
0.010547725 -0.051332206 0.74589068
0.010547725 -0.049574316 0.74589074
0.009593864 -0.047500215 0.74545383
-0.0098117385 -0.046605736 0.7450422
0.0094749257 -0.042460673 0.74540108
0.010533824 -0.037570626 0.74555504
0.0098189181 -0.031560779 0.74522781
0.011252566 -0.01160422 0.74592829
0.010533824 -0.0073736608 0.74555516
0.010533868 -0.001404494 0.74555612
0.009818959 0.0035067797 0.74522901
0.009818959 0.0094682723 0.74522901
0.011252615 0.015472353 0.74592936
0.009818959 0.019637883 0.74522895
0.009818959 0.022443354 0.74522901
0.010533868 0.022472262 0.74555618
0.011252615 0.027428299 0.74592936
0.011252615 0.03164798 0.74592936
0.010533868 0.037570804 0.74555612
0.011252615 0.037625954 0.74592936
0.009818959 0.04769209 0.74522895
0.009818959 0.04769209 0.74522895
0.010533868 0.05056259 0.74555624
0.011252615 0.054504871 0.74592936
0.009819 0.059615374 0.74523002
-0.017558886 0.061456144 0.74559152
0.011252615 0.065405846 0.74592936
0.009819 0.072590485 0.74523002
-0.017558886 0.076556802 0.74559152
-0.017558886 0.076556802 0.74559152
0.011252661 0.07736209 0.74593043
0.009819 0.086617619 0.74522996
0.009819 0.086617619 0.74522996
-0.011959734 -0.087587446 0.74601102
-0.011959685 -0.084421277 0.74600995
0.011629313 -0.077526867 0.74647307
-0.011959634 -0.073516577 0.74600887
-0.011959634 -0.073516577 0.74600887
-0.011959634 -0.070350796 0.74600887
-0.011959634 -0.069647253 0.74600881
-0.012682186 -0.067638338 0.74639201
-0.011959584 -0.064370707 0.7460078
-0.011959533 -0.056631908 0.74600673
-0.011959533 -0.047486365 0.74600673
0.011974584 -0.029584259 0.74632734
0.012700105 -0.024694651 0.7467525
0.012700105 -0.020461231 0.7467525
0.011974584 -0.0035219193 0.74632728
0.011974584 -0.0035219193 0.74632728
0.011974584 0.0014087558 0.74632734
0.012700105 0.018344641 0.7467525
0.012700105 0.018344641 0.7467525
0.011974584 0.025357962 0.74632734
0.011974636 0.040502444 0.74632847
0.011974636 0.05459027 0.74632847
0.012700158 0.064559162 0.74675357
0.011974636 0.08347027 0.74632835
0.012700158 0.084667742 0.74675363
0.011974636 0.088048786 0.74632841
0.012718074 -0.088319987 0.74711406
0.012718074 -0.085493743 0.74711406
-0.014507105 -0.083502337 0.74750775
0.013450218 -0.081409186 0.74760163
0.013450218 -0.070436642 0.74760163
-0.014507135 -0.061565399 0.74750835
-0.014507135 -0.061565399 0.74750835
0.013450275 -0.053447127 0.7476027
0.012718506 -0.049460828 0.7471227
0.013430892 -0.037465125 0.74723333
0.013430892 -0.03145656 0.74723327
0.013430892 -0.015551567 0.74723333
0.014165039 -0.0056659877 0.7477268
0.014165039 0.027621835 0.7477268
0.013430892 0.033577248 0.74723333
0.013430892 0.033577248 0.74723333
0.013430892 0.035344452 0.74723327
0.014165039 0.036474973 0.7477268
0.013430892 0.045594379 0.74723327
0.013430892 0.049482256 0.74723327
0.013430892 0.055490822 0.74723333
0.014165039 0.056660175 0.7477268
0.014165039 0.067638084 0.7477268
0.013430892 0.070688933 0.74723339
0.014165039 0.082511351 0.7477268
-0.016362194 -0.073629871 0.7488668
-0.016362265 -0.059402108 0.74886787
-0.016362334 -0.046597078 0.74886894
0.014434385 -0.043538522 0.74831295
0.014906396 -0.039395466 0.74829769
0.015651595 -0.03343749 0.74887991
0.015651595 -0.010671556 0.74887991
0.014906459 -0.0014196634 0.74829876
0.014906459 0.0056786537 0.74829876
0.015651595 0.0074701011 0.74887991
0.014906459 0.010647506 0.74829888
0.014906459 0.027683437 0.74829876
0.015651662 0.080392629 0.74888104
0.015651662 0.080392629 0.74888104
0.015651662 0.084661275 0.74888098
-0.016381478 -0.089741975 0.74917042
0.016432425 -0.084305465 0.74997252
0.015677609 -0.079456955 0.74930811
0.015677609 -0.079456955 0.74930811
0.016432706 -0.072518244 0.74997699
-0.01711645 -0.067396015 0.74951339
-0.017116522 -0.058481455 0.74951452
-0.017116522 -0.057411656 0.74951446
-0.017116595 -0.053489327 0.74951559
0.01640621 -0.027462557 0.74955976
0.01640621 -0.016406178 0.74955976
0.01640621 -0.0064198375 0.74955976
0.01640621 0.00071331859 0.74955976
0.016406281 0.012483031 0.74956089
0.016406281 0.033525854 0.74956089
0.016406281 0.038519114 0.74956083
0.016406281 0.038519114 0.74956083
0.016406281 0.075611591 0.74956083
0.016406281 0.084528044 0.74956089
-0.017877106 -0.086525202 0.75020099
-0.017877106 -0.086525202 0.75020099
0.017197045 -0.084552109 0.75072944
-0.018647436 -0.079610169 0.75097042
-0.018647436 -0.07853438 0.75097048
-0.018647235 -0.071361512 0.75096768
-0.017876875 -0.071507514 0.75019771
-0.018647034 -0.063471615 0.75096488
-0.017876798 -0.061496168 0.75019664
-0.017876798 -0.05863589 0.75019658
0.017196452 -0.052305847 0.7507205
0.017196452 -0.052305847 0.7507205
-0.017876798 -0.04933995 0.75019658
0.01719638 -0.04657349 0.75071943
0.01719638 -0.04370749 0.75071943
0.01719638 -0.04370749 0.75071943
0.020437032 -0.036571518 0.75092697
0.020437032 -0.036571518 0.75092697
0.01936348 -0.035499692 0.75095487
-0.018611981 -0.032570973 0.75047666
0.018644709 -0.032628223 0.75093251
0.018644709 -0.032628223 0.75093251
0.017538592 -0.0314973 0.75047743
0.017538592 -0.02362296 0.75047743
0.017538631 -0.019327894 0.75047797
0.020437032 -0.018644288 0.75092691
0.01936348 -0.013626099 0.75095487
-0.018611981 -0.0053688139 0.75047672
0.020437077 0.0035854876 0.75092745
0.01936348 0.0064545274 0.75095487
0.01936348 0.0064545274 0.75095487
0.018644709 0.0075296015 0.75093257
0.019363562 0.01541914 0.75095594
0.019363562 0.01541914 0.75095594
0.017538477 0.01932779 0.75047576
0.019363562 0.021515071 0.75095594
0.018644709 0.022588789 0.75093257
0.020437077 0.022588365 0.75092745
0.019363562 0.038368568 0.75095594
0.018644709 0.041592062 0.75093251
-0.018610781 0.044379562 0.75046003
0.019363562 0.044464499 0.750956
0.018644709 0.04732886 0.75093257
-0.018610541 0.052610591 0.75045663
-0.018610463 0.053684026 0.7504555
0.018644709 0.070634797 0.75093251
0.020437077 0.081389785 0.75092751
0.017970331 -0.078350663 0.75155139
0.017970331 -0.076553598 0.75155145
-0.019428222 -0.05828464 0.75182319
0.017970487 -0.057505548 0.75155365
-0.019428514 -0.043534264 0.75182712
-0.019392414 -0.030525088 0.75134295
0.021527566 -0.02547428 0.75110686
0.022271311 -0.024426609 0.75141239
0.021527566 -0.019374788 0.7511068
0.022271311 -0.012572497 0.75141239
0.021527659 0.003587991 0.75110793
-0.01939233 0.0064641237 0.75134182
0.022271311 0.0064659119 0.75141239
0.023031805 0.011515886 0.75188839
0.021527659 0.017580971 0.75110793
0.022271406 0.018679291 0.75141346
-0.01939233 0.02046968 0.75134182
0.021527659 0.0265508 0.75110793
0.021527659 0.0265508 0.75110793
0.023031905 0.031668872 0.75188953
0.021527659 0.035520643 0.75110793
0.021527659 0.036597043 0.75110793
0.021527659 0.039467394 0.75110793
0.023031905 0.039586067 0.75188953
0.023031905 0.042465091 0.75188959
0.021527659 0.059559882 0.75110793
0.022271406 0.065377384 0.75141352
0.021527659 0.069606125 0.75110793
0.021527659 0.073552877 0.75110793
0.022271406 0.077590704 0.75141358
0.021527659 0.083599076 0.75110793
0.021527659 0.085393041 0.75110793
-0.019493653 -0.090248376 0.75270081
0.018753968 -0.071409315 0.75245434
0.018754048 -0.066360444 0.75245535
0.018754048 -0.066360444 0.75245535
-0.020181218 -0.0036037564 0.75225562
0.023826504 0.0086642206 0.75271094
-0.020181218 0.012613267 0.75225562
-0.020181218 0.01837936 0.75225562
-0.020181218 0.024505794 0.75225562
-0.020181218 0.040362477 0.75225562
-0.020181218 0.053336084 0.75225562
-0.020181218 0.057660639 0.75225562
-0.020181218 0.062705964 0.75225562
-0.020181218 0.083607942 0.75225562
-0.020249125 -0.089674681 0.75313383
0.019552816 -0.070607379 0.75349426
0.019552901 -0.050692707 0.75349545
-0.021030942 -0.04460007 0.75386608
-0.020983316 -0.037625253 0.75327128
-0.020983316 -0.035454571 0.75327134
-0.020983316 -0.020621508 0.75327134
-0.020983316 0.0086827576 0.75327128
-0.020983316 0.036539927 0.75327134
-0.020983316 0.046308011 0.75327128
-0.020983316 0.070547372 0.75327134
0.020369241 -0.087296724 0.75468743
0.020369418 -0.060380787 0.75468969
0.020369684 -0.044376791 0.75469309
-0.021805735 -0.0065416694 0.75446463
-0.021805735 0.048699498 0.75446463
-0.02185851 -0.066304147 0.75510168
-0.021859176 -0.047361553 0.75510973
-0.022652041 -0.027401641 0.75585997
-0.022652041 -0.027401641 0.75585997
-0.022652041 0.00036537647 0.75585997
-0.022652041 0.00036537647 0.75585997
-0.022652041 0.024478853 0.75585997
-0.022652041 0.028497756 0.75585997
-0.022652041 0.030689895 0.75585997
-0.022652041 0.049688339 0.75585997
-0.022652041 0.06357187 0.75585997
-0.022714736 -0.072540611 0.75659239
-0.022715436 -0.053491175 0.7566005
0.022081535 -0.087590098 0.75779384
0.022081925 -0.071398199 0.75779855
-0.023532659 0.0025739223 0.75755644
-0.023532659 0.014707923 0.75755644
-0.023532659 0.057360858 0.75755638
-0.023532659 0.066553339 0.75755638
-0.023532659 0.082364351 0.75755644
-0.023532659 0.082364351 0.75755644
-0.023615751 -0.084500089 0.75849676
-0.023615647 -0.062729061 0.75849557
0.023018723 -0.050492704 0.7601434
-0.024602382 -0.076416463 0.76122522
-0.025708398 0.086576834 0.76506484
-0.0062797074 -0.087043695 0.743922
0.0029610223 -0.083077863 0.74353266
0.0029610288 -0.069144681 0.74353337
0.0029610288 -0.067054667 0.74353337
-0.0029593278 -0.064928412 0.74339259
-0.0010439891 -0.04889271 0.74328345
0.0045335079 -0.0489957 0.74381435
0.0045335079 -0.046903349 0.74381423
-0.0050496403 -0.040917795 0.74345982
0.0029574889 -0.039141078 0.74323261
-0.01097931 -0.037122861 0.74370402
-0.01097931 -0.037122861 0.74370402
-0.014959618 -0.029049188 0.74321371
0.00069530768 -0.029026661 0.74301833
0.00069530768 -0.023117036 0.74301833
-0.01097931 -0.021088576 0.74370408
-0.0050481129 -0.018973026 0.74338359
0.0029574889 -0.018961679 0.74323261
0.0062800753 -0.019014671 0.7439369
-0.0029558821 -0.017039064 0.74309891
-0.0050481129 -0.013054825 0.74338359
0.0029574889 -0.013047008 0.74323261
0.00069530768 -0.01095017 0.74301833
-0.0029558821 -0.0071285777 0.74309886
-0.0010427602 -0.0050399229 0.7429868
-0.0010427602 -0.0050399229 0.7429868
-0.013035619 0.0029547736 0.7430141
-0.0010427602 0.0050399564 0.7429868
0.00069530768 0.0071263141 0.74301827
-0.010979157 0.0088884626 0.74370039
0.0062800753 0.0088967904 0.74393678
-0.013035619 0.010950003 0.74301416
-0.007150257 0.016915632 0.74385154
0.0029574889 0.018961702 0.74323261
-0.013035633 0.024854816 0.74301445
0.0029574889 0.024876351 0.74323261
-0.0029558893 0.03112247 0.74309945
0.00069530768 0.03111244 0.74301833
-0.014959618 0.037050791 0.74321377
0.0029574889 0.037053585 0.74323261
0.0062800753 0.037157126 0.74393684
-0.0029558893 0.040859107 0.74309945
0.00069530768 0.040845945 0.74301833
-0.010978937 0.046968278 0.74369502
-0.0050481129 0.046997473 0.74338359
-0.0050481129 0.046997473 0.74338359
-0.010978916 0.051063836 0.74369448
0.0062800753 0.051112853 0.74393684
-0.0050481129 0.055004358 0.74338359
0.00069530768 0.056836687 0.74301827
-0.013035657 0.061007358 0.74301487
-0.0110072 0.060964603 0.74367833
-0.0029558893 0.063114271 0.74309939
-0.010978828 0.067096964 0.7436924
-0.0050481129 0.067014895 0.74338359
0.0062800753 0.075012043 0.74393678
-0.0029558893 0.07702373 0.74309945
0.0029865096 0.080921724 0.74323618
-0.010978742 0.082955375 0.74369037
-0.007150257 0.083008468 0.74385154
0.0029574889 0.085066646 0.74323261
-0.0010427602 0.087069161 0.7429868
-0.0010427602 0.087069161 0.7429868
-0.0052828975 -0.090584904 0.74444699
0.0055848826 -0.087089248 0.7440542
-0.010882565 -0.084952369 0.74549425
0.007169209 -0.080954731 0.74451876
0.0089705326 -0.081021197 0.7451843
-0.0091017764 -0.078936309 0.74477482
0.0089407889 -0.075027525 0.74517071
0.0055848127 -0.073126152 0.74405104
-0.0091017429 -0.06901788 0.74477386
-0.010882547 -0.063012138 0.74549365
-0.0091017354 -0.055015869 0.74477357
0.0071692267 -0.055077329 0.74451941
0.0071692867 -0.049132891 0.7445215
0.0091071306 -0.030997399 0.74492204
0.0073361602 -0.0249773 0.74425548
-0.017169058 -0.0070070326 0.74500835
0.0073361602 -0.0010479838 0.74425554
0.0073361602 0.0050653368 0.74425548
-0.017169058 0.013051171 0.74500835
-0.0089066969 0.024973579 0.74421751
0.0073361602 0.027073331 0.74425548
-0.017169058 0.031007979 0.74500829
0.010893242 0.037071299 0.7457428
-0.017169058 0.04099321 0.74500829
0.0073361602 0.04305527 0.74425554
0.010893242 0.051038846 0.7457428
0.0073361602 0.064975902 0.74425548
0.0073361602 0.074931949 0.74425548
-0.0089063523 0.082950965 0.7442078
0.0091071706 0.083010271 0.74492306
-0.017169058 0.086979374 0.74500829
-0.017169058 0.088293895 0.74500835
0.013084147 -0.086989492 0.74735785
0.013084168 -0.081066616 0.74735832
-0.014507105 -0.0769566 0.74750781
0.011629334 -0.066955149 0.74647355
-0.0130454 -0.062933832 0.74660033
0.011629367 -0.059026428 0.74647439
0.013084308 -0.057021298 0.74736106
0.013084419 -0.046943486 0.74736321
0.013074603 -0.041166618 0.74717104
0.013065499 -0.029131759 0.74699295
0.013065498 -0.02498262 0.74699289
0.011974584 -0.020955503 0.74632734
0.014165039 -0.0010623634 0.7477268
0.011974584 0.00088048726 0.7463274
0.013065498 0.0090043843 0.74699289
0.011974584 0.026942834 0.74632734
0.013065525 0.042903285 0.74699342
0.013065525 0.045021977 0.74699342
0.014165039 0.057014287 0.7477268
0.011974636 0.063042954 0.74632835
0.011974636 0.076954648 0.74632841
0.013065525 0.078920849 0.74699342
0.016432706 -0.073054083 0.74997699
-0.015615959 -0.050929293 0.74829328
-0.016739503 -0.043094143 0.74919283
0.015279027 -0.011014797 0.74858928
0.01640621 -0.0069548115 0.74955976
0.015279027 -0.0010659397 0.7485894
0.015279027 0.012969077 0.7485894
0.015279027 0.049033545 0.7485894
0.016406281 0.060988575 0.74956089
0.016406281 0.080961436 0.74956083
0.01527906 0.086963907 0.74858987
-0.019037556 -0.0550454 0.75139308
0.017538592 -0.037045088 0.75047743
0.020982299 -0.031024819 0.75101686
-0.019002197 -0.026978515 0.75090981
0.020982299 -0.02492745 0.75101691
0.017538592 -0.017001368 0.75047743
0.020982299 -0.0048420075 0.75101691
0.022651557 0.0008988753 0.75165033
0.022651605 0.014921106 0.75165099
-0.019001916 0.024916831 0.75090587
-0.019001916 0.024916831 0.75090587
0.019004136 0.024920516 0.75094426
0.019004136 0.024920516 0.75094426
0.022651657 0.031100653 0.75165153
-0.019001706 0.037016146 0.75090301
0.019004136 0.041056078 0.7509442
0.022651656 0.053032886 0.75165164
0.020982368 0.061153226 0.75101769
0.019004136 0.072968662 0.75094426
0.019004136 0.074940793 0.75094426
-0.019000927 0.081019878 0.75089216
-0.019000927 0.081019878 0.75089216
0.019004134 0.083008572 0.75094426
-0.020625934 -0.067031667 0.75331777
0.019153433 -0.060981333 0.75297487
0.019153517 -0.053031381 0.752976
0.019153517 -0.053031381 0.752976
-0.02062664 -0.045051288 0.75332677
-0.020582266 -0.038996272 0.75276351
-0.020582266 -0.0070410408 0.75276351
-0.020582266 -0.0070410408 0.75276351
-0.020582266 0.0048745908 0.75276345
-0.020582266 0.066889927 0.75276345
-0.020733267 -0.090569258 0.7546854
0.020369241 -0.075111553 0.75468731
0.020369241 -0.075111553 0.75468731
0.020369597 -0.051105849 0.75469196
0.020369597 -0.051105849 0.75469196
-0.022652041 0.023017421 0.75585997
-0.021805735 0.033072054 0.75446463
-0.021805735 0.033072054 0.75446463
-0.021805735 0.04306633 0.75446463
-0.022652041 0.05900494 0.75585997
-0.021805735 0.059057213 0.75446463
-0.021805735 0.06087435 0.75446463
-0.021805735 0.076865241 0.75446463
-0.022652041 0.079099484 0.75585997
-0.021805735 0.079045817 0.75446463
-0.022652041 0.08841604 0.75585997
-0.022652041 0.08841604 0.75585997
0.02208156 -0.081149727 0.75779414
0.02120883 -0.068928681 0.75608742
-0.023532659 -0.020958766 0.75755644
-0.023532659 -0.0031254143 0.75755644
-0.023532659 0.013053298 0.75755644
-0.023532659 0.040998332 0.75755644
-0.023615336 -0.07103049 0.75849199
-0.024482112 0.020958193 0.75990546
-0.024602987 -0.065048799 0.76123184
-0.025708282 -0.027031481 0.76506352
-0.0020016376 -0.073963419 0.74333578
0.0018263983 -0.022083554 0.7431255
0.0018263983 -0.022083554 0.7431255
-0.016038144 -0.014033366 0.74376464
-0.016038144 -0.014033366 0.74376464
-0.0060991822 -0.0099308686 0.74361742
0.0018263983 -0.0060860044 0.74312544
0.0018336534 0.017961079 0.74312639
-0.0019993247 0.022076368 0.74304312
-0.016038144 0.042012963 0.74376464
-0.010978784 0.074024156 0.74369133
-0.0060991915 0.088506997 0.74361783
-0.013791574 -0.081959315 0.74706429
0.0063770106 -0.07801944 0.74428505
0.0063770106 -0.07801944 0.74428505
-0.010647953 -0.065977871 0.74542499
0.010372702 -0.058002271 0.74584723
-0.010647936 -0.053996857 0.74542451
0.0064047817 -0.04227392 0.74423933
0.0073361602 -0.034059953 0.74425554
0.010658309 -0.018032078 0.74566382
0.010658316 0.0059911758 0.74566406
0.0073361602 0.034059986 0.74425554
0.0073361602 0.04598096 0.74425548
0.0073361602 0.062006637 0.74425554
-0.017169058 0.065913536 0.74500835
-0.0089064855 0.066012502 0.74421155
0.010658363 0.069972411 0.74566507
0.010658363 0.069972411 0.74566507
0.017008251 -0.0619848 0.75055957
-0.019002154 0.0059155952 0.75090921
-0.019001955 0.022048751 0.75090647
0.017649574 0.03797717 0.7503261
0.021817014 0.037975617 0.75133461
0.015279027 0.050010767 0.7485894
-0.019001402 0.05399967 0.75089872
0.01527906 0.061958488 0.74858987
0.020369241 -0.082022548 0.75468731
0.020369241 -0.082022548 0.75468731
-0.021242518 -0.057933424 0.75421339
0.020369597 -0.050014615 0.75469196
-0.021680016 -0.022008656 0.7543627
-0.021680016 0.0059638219 0.7543627
-0.021680016 0.018043146 0.75436276
-0.023532659 0.018017214 0.75755644
