# .PCD v0.7 - Point Cloud Data file format
VERSION 0.7
FIELDS x y z
SIZE 4 4 4
TYPE F F F
COUNT 1 1 1
WIDTH 456
HEIGHT 1
VIEWPOINT 0 0 0 1 0 0 0
POINTS 456
DATA ascii
-0.0085020065 0.038562492 0.68663663
-0.0046475753 0.039610438 0.68639582
0.0091900798 0.040436357 0.68793684
-0.0018507559 0.039482832 0.6889621
-0.00061441399 0.040551335 0.68835741
-0.0024560103 0.04144524 0.68825805
0.0033832069 0.042443514 0.68852866
0.005548859 0.042541236 0.68887067
0.0003084637 0.045647532 0.68894756
0.0015382757 0.047684066 0.68856657
-0.002453184 0.049370244 0.68808752
-0.002453184 0.049370244 0.68808752
0.00040879691 0.04926154 0.68806791
0.0046247374 0.050561413 0.68888581
-0.006483864 0.028404757 0.6891011
-0.006483864 0.028404757 0.6891011
-0.0049522305 0.028475314 0.68947154
-0.0043264963 0.031521648 0.68924028
-0.0030879595 0.036437958 0.68912458
0.00959865 0.036534235 0.68951857
0.00959865 0.036534235 0.68951857
-0.0046406081 0.045476578 0.68939948
0.0055887033 0.046572536 0.6899395
-0.0074468148 0.047473311 0.68984312
-0.008086781 0.026437402 0.69020331
-0.008086781 0.026437402 0.69020331
-0.0024910362 0.03456296 0.69037211
-0.00062410708 0.038382351 0.69069749
-0.014655113 0.043029889 0.69058037
-0.0084038936 0.04762011 0.69030643
0.0074632629 0.049443975 0.69017398
-0.0037703076 0.02544941 0.69173026
-0.00062640215 0.036644354 0.69125164
-0.012522804 0.04163821 0.69118834
0.0085856263 0.044391841 0.69168299
-0.010641332 0.051328808 0.691145
0.01006622 0.05158937 0.69191229
0.01006622 0.05158937 0.69191229
-0.0050399541 0.019529849 0.69211882
-0.0050399541 0.019529849 0.69211882
0.0084006153 0.027302384 0.69213378
-0.014541654 0.030663744 0.69266242
0.01074339 0.030650064 0.69259441
-0.0012647723 0.031302959 0.69269633
-0.0012647723 0.031302959 0.69269633
0.015603298 0.038374435 0.69273603
0.01355018 0.040649921 0.6921767
-0.0057326974 0.012420654 0.69380206
-0.0067661107 0.015434911 0.6931619
0.0087056523 0.02144587 0.69381213
-0.0019110353 0.025480479 0.69381303
-0.013782283 0.029686114 0.69359964
0.0070143817 0.032521248 0.69397217
0.0054028854 0.033369169 0.6934737
-0.012717851 0.047056079 0.69354284
-0.012717851 0.047056079 0.69354284
0.011427496 0.049519151 0.69329375
-0.0031990637 0.018554598 0.69448924
0.0086497497 0.018581435 0.69471288
-0.0025521079 0.02233097 0.69405812
-0.0019225109 0.022429317 0.69473648
-0.015390739 0.025330395 0.69484365
-0.014261669 0.026395103 0.69419432
0.012802154 0.031685144 0.69456041
0.014750295 0.031424552 0.69485247
0.0133996 0.034456134 0.69406998
-0.014044666 0.051390707 0.69414669
-0.0074069658 0.0083728582 0.69551629
0.0083958842 0.014854282 0.69594365
0.0090191243 0.015461385 0.69555402
-0.014496494 0.021583676 0.69557118
-0.00064535893 0.023555413 0.6958282
0.012448607 0.027471762 0.69546765
0.015494312 0.027437657 0.69588548
-0.012446455 0.02854231 0.69545382
0.001290643 0.029684782 0.69581914
0.016704097 0.034371704 0.69512963
0.016704097 0.034371704 0.69512963
0.012839899 0.052643567 0.69501609
0.013533153 0.052199334 0.69560534
-0.0084301056 0.0064847171 0.69657922
-0.003235942 0.012620002 0.69626987
-0.012982529 0.022394687 0.69673777
-0.00064692448 0.022318721 0.69620609
0.0145735 0.026556671 0.69639891
0.013611387 0.047639742 0.69650471
0.013594066 0.048550218 0.69630563
0.019592056 -0.011428937 0.69768941
0.019547554 -0.010425359 0.69733131
-0.0055504162 0.00032632798 0.69767964
-0.0084865848 0.0026112795 0.69762808
-0.0039179907 0.0055503249 0.69767255
0.0094539318 0.010431215 0.69741958
0.010440266 0.013376385 0.6975562
0.010440266 0.013376385 0.6975562
0.01307697 0.021577001 0.69787776
-0.020560335 0.040468246 0.69760382
-0.016352797 0.051674873 0.6979413
0.020307517 -0.0098262131 0.69817531
-0.0046052947 -0.00065788627 0.69885564
0.0085295634 0.0065612495 0.69842625
0.010503438 0.010503441 0.6985094
-0.013099726 0.017356962 0.69815242
-0.013099726 0.017356962 0.69815242
0.015424188 0.019361742 0.69847846
0.016397255 0.022628009 0.69837064
-0.010505423 0.02560696 0.69853938
0.0045875926 0.030147046 0.69824517
-0.018654957 0.045164779 0.6980499
0.017132305 -0.016473353 0.69910568
-0.0026495669 0.0026495755 0.69994026
-0.0026495669 0.0026495755 0.69994026
-0.0026495669 0.0026495755 0.69994026
-0.001649337 0.0056078881 0.69930446
0.0074692494 0.0054920716 0.69913572
-0.00066259125 0.0099388659 0.69998842
0.011673145 0.011452466 0.69953394
0.015237972 0.013912916 0.69997138
0.013548041 0.016521841 0.69957352
-0.01713354 0.017133564 0.69911718
0.0033067781 0.025462002 0.6996901
-0.020417606 0.035566151 0.69903272
0.020594129 -0.016608149 0.70040745
-0.0086593479 -0.0076604187 0.70083642
0.007292008 0.0026516318 0.70006537
0.007292008 0.0026516318 0.70006537
0.013650601 0.012651697 0.70078182
0.0035456473 0.023707777 0.70049739
-0.019935597 0.032561511 0.700454
-0.021896577 0.038484901 0.7002157
-0.018573806 0.038474321 0.70017165
0.020770459 -0.020435706 0.70178068
0.022745023 -0.012376204 0.70152867
-0.014749645 0.00067046285 0.7018829
-0.014749645 0.00067046285 0.7018829
-0.013355892 0.0063438863 0.70124465
-0.012017944 0.011350304 0.701213
-0.012004151 0.012004167 0.70102799
0.0053572562 0.026451275 0.70169425
-0.020383149 0.028403126 0.70136988
-0.018732013 0.033450007 0.70153576
0.02022115 -0.025613427 0.70275199
0.015489961 -0.016163409 0.70261639
0.0042698467 -0.008315037 0.70278704
-0.0033634061 -0.0073994994 0.70242435
-0.0033589713 -0.0067178905 0.70221025
-0.0024659946 -0.0042602918 0.70243043
-0.0020128377 -0.0013418794 0.70200545
0.010763899 -0.0013454556 0.70243943
-0.013426384 0.0033566058 0.70209551
0.01347591 0.0064008534 0.7026934
0.013450083 0.0073975623 0.70238161
-0.011437972 0.0094195306 0.70245838
0.0022432797 0.012559196 0.70245409
0.0022432797 0.012559196 0.70245409
-0.020489022 0.025527656 0.70220685
-0.019511759 0.027585655 0.70245767
0.0067139184 0.027527094 0.70211303
0.022348177 -0.020316511 0.70351952
-0.00067816913 -0.0094943643 0.7037493
0.015580967 -0.0084675401 0.70357162
0.0074307965 -0.0074307919 0.70311141
-0.0094826333 0.0074506402 0.70354694
-0.021028578 0.020350277 0.70379084
-0.021028578 0.020350277 0.70379084
0.017267976 -0.0084069278 0.70458794
-0.016350925 -0.0034064353 0.70450234
0 -0.001360774 0.70428532
-0.012254669 0.00034022331 0.70438802
-0.018413277 0.021482155 0.70466769
-0.013249448 -0.0066248579 0.70548153
0.0041003376 -0.0061505139 0.70500958
0.012989 -0.0020508766 0.70506805
-0.020521512 0.015390947 0.70516914
-0.0034744302 -0.013202816 0.70778507
-0.0034633568 -0.011429295 0.70725042
-0.00069804827 -0.016404346 0.70854855
0.0041862456 0.00034862757 0.70846629
-0.021571664 0.010437906 0.70802027
-0.018154316 0.012568384 0.70859551
0.0003513142 -0.019668743 0.70961237
0.0021058635 -0.01439029 0.70949155
0.0021058635 -0.01439029 0.70949155
0.0042091506 -0.0024555475 0.7093879
-0.021078937 0.0014052689 0.70965493
-0.021032462 0.0024535507 0.70928097
0.00035321552 -0.022598714 0.71051896
0.00035616115 -0.027054951 0.71191001
-0.010649273 -0.014554098 0.7114222
-0.0025017899 -0.02930595 0.71258783
-0.00071454886 -0.029296488 0.71253204
-0.019243553 -0.002494663 0.71209162
-0.0035865512 -0.030844331 0.71319878
-0.0086049875 -0.024380773 0.71314371
0.0028757236 -0.024443656 0.71359003
0.0028716477 -0.023691118 0.71334404
-0.011516334 -0.020153552 0.7137928
-0.0064486037 -0.017912775 0.71300596
0.0057520424 -0.014380097 0.71360803
-0.0072145965 -0.030301303 0.7142005
-0.0072145965 -0.030301303 0.7142005
0.0021675292 -0.029622883 0.71445405
-0.0050529027 -0.027430028 0.71429312
0.0064942962 -0.013710171 0.71423167
-0.013005121 0.054188043 0.71445328
-0.0014524307 -0.038489401 0.71534866
-0.0014504663 -0.037712097 0.71511149
0.0050973357 -0.036409527 0.71582562
0.0029025457 -0.029388502 0.71520889
-0.010532368 -0.027601093 0.71538001
-0.012341431 -0.022504926 0.71528858
0.0072776414 -0.016374931 0.71572256
-0.0025530602 -0.0408476 0.71612275
0.0036496585 -0.039416313 0.71624589
-0.0058368049 -0.038668811 0.7161659
-0.0085235294 -0.035554044 0.71639824
-0.0085235294 -0.035554044 0.71639824
-0.0036535654 -0.024478972 0.71643448
-0.0065656221 -0.021520406 0.71614492
-0.0055139409 -0.04337433 0.7175076
-0.0014662949 -0.043988854 0.71702218
0.0073313504 -0.036656737 0.7170192
-0.009532284 -0.029330075 0.71704757
0.009531077 -0.026393771 0.71702522
0.009531077 -0.026393771 0.71702522
0.0073421323 -0.02129218 0.71727955
0.0036952402 -0.046560019 0.71844673
0.0073930593 -0.041401118 0.71850896
0.0073826918 -0.04060483 0.71825874
0.0088517824 -0.03688243 0.71810889
0.0051726019 -0.03140536 0.71842146
-0.0085011674 -0.03031154 0.7185092
0.011852348 -0.02963084 0.71886283
0.0066654398 -0.027402371 0.71882248
0.019936658 0.032489359 0.71828896
-0.0044706115 -0.052157104 0.71990824
-0.0044706115 -0.052157104 0.71990824
0.0052117128 -0.049138993 0.71977031
-0.0074453037 -0.048394471 0.71977031
0.0089086369 -0.040460333 0.71925271
0.0089381561 -0.032773226 0.71984661
0.0074325311 -0.028243572 0.71946198
-0.014887991 -0.026053965 0.71973872
0.020056166 0.026741564 0.71935761
0.020107577 0.02755484 0.71981728
0.020048622 0.02970168 0.71929014
0.0014920789 -0.053714812 0.72013462
0.002614876 -0.053787813 0.72037935
0.006711415 -0.047725618 0.72005576
-0.011951617 -0.040336728 0.7203607
0.011194533 -0.036568791 0.72019804
-0.0022491575 -0.056978643 0.72102296
-0.0075089214 -0.053313315 0.72130615
-0.013547678 -0.039137721 0.72173029
-0.014288256 -0.035344601 0.72157687
-0.016507784 -0.015757442 0.72117621
-0.003280658 -0.062332641 0.72279876
-0.006061736 -0.060617357 0.72295386
0.0052933767 -0.058227092 0.72258681
0.0045228289 -0.057289153 0.72200936
0.010563259 -0.045271099 0.72218162
-0.014376371 -0.03858918 0.72269648
0.019659488 0.013610423 0.72257173
0.00038043808 -0.065421894 0.72367871
-0.0045600645 -0.063840896 0.72350752
-0.0045600645 -0.063840896 0.72350752
0.001517552 -0.063737184 0.7232095
0.0063420525 -0.060373586 0.72374916
-0.0095091993 -0.057433397 0.7236768
-0.010663709 -0.055603594 0.72391385
0.0083456244 -0.054625899 0.72318947
0.0083456244 -0.054625899 0.72318947
-0.010624796 -0.053503722 0.72324282
-0.012146675 -0.049345881 0.72330391
0.013653414 -0.034513086 0.72314841
-0.015975041 -0.024342895 0.72367793
-0.00762854 -0.062554032 0.72419399
-0.00762854 -0.062554032 0.72419399
0.007628507 -0.059502363 0.72419322
-0.011446057 -0.054559812 0.72424632
-0.013734328 -0.046544135 0.72423369
0.0045987302 -0.065915108 0.72506338
-0.0092318347 -0.06462279 0.72575492
0.019254474 0.0046210885 0.7259624
0.009290209 -0.064257264 0.72692931
0.010050291 -0.061461672 0.72666746
-0.013131462 -0.056388021 0.72650802
0.014639046 -0.018491417 0.72603416
0.019335818 0.0023203194 0.72674799
0.011665322 -0.059493423 0.72777522
0.012498277 -0.058585674 0.7286092
0.013262782 -0.053831309 0.72837293
0.013241317 -0.052965283 0.72806811
0.014029526 -0.048323959 0.72819299
0.014837816 -0.042561457 0.72855979
-0.014887287 -0.057198524 0.72918844
-0.015008789 -0.06161502 0.73073226
-0.0072660809 0.038649384 0.68619907
-0.0010758068 0.040945075 0.68839425
-0.0028409662 0.045019586 0.68911564
-0.0070323888 0.022970881 0.69092959
0.0075471252 0.029244944 0.69186121
-0.0027031652 0.032860305 0.69065607
-0.013597289 0.037079982 0.69153798
0.0070284461 0.044976361 0.69083452
-0.010368107 0.046497434 0.69172031
-0.0091085974 0.048887178 0.69037461
-0.010901474 0.050808787 0.69127327
-0.0038186579 0.018933676 0.69367564
-0.0027861828 0.025143713 0.69293141
0.0066639967 0.035065178 0.69324839
0.0066639967 0.035065178 0.69324839
0.010791693 0.045011424 0.69325829
0.011067748 0.050908338 0.69270104
0.010316191 0.019019432 0.69568408
0.010831348 0.023008419 0.69503921
-0.014902054 0.024995187 0.6947571
0 0.02581948 0.69585907
0.016681289 0.03496547 0.69491786
0.016681289 0.03496547 0.69491786
-0.014355665 0.045314427 0.69519973
-0.013419144 0.046966866 0.69429469
-0.0055433311 0.00097727031 0.69747841
-0.0087814629 0.0049592033 0.69705737
-0.0033835918 0.0091136759 0.69718003
0.0090590809 0.012992153 0.6966027
0.013268655 0.026941035 0.69628209
-0.020743381 0.043112263 0.69712847
0.0052978406 0.0019867122 0.69990128
0.0072316676 0.0069029704 0.69875515
-0.0014501548 0.0092376294 0.69931734
-0.013317578 0.01312117 0.69920725
-0.010982644 0.018932389 0.69831693
0.0016801381 0.022816554 0.69867176
0.0026457012 0.022983998 0.69970691
-0.020516131 0.03292457 0.69980001
0.015100518 0.045958132 0.69852853
0.015138992 0.047062501 0.69893241
0.0173789 -0.024733156 0.70140558
0.016759746 -0.020934874 0.70081663
0.019248191 -0.021074161 0.7002635
0.021002881 -0.017001949 0.70098811
-0.014838827 0.0031404779 0.70139074
-0.0092849918 0.024870366 0.70013869
0.022904886 -0.016957005 0.70313233
0.014971973 -0.0088017695 0.70307529
0.014971973 -0.0088017695 0.70307529
0.010899703 -0.002994593 0.70309836
-0.00084181892 0.0005893968 0.7027083
0.012361966 0.00084664673 0.70355028
-0.011521365 0.0033886433 0.70364267
0.004074438 0.0074698031 0.70396751
-0.020744354 0.020819075 0.70362937
0.00085429946 -0.0061434284 0.70482039
0.013618135 -0.0061281323 0.7044102
0.012929286 -0.00506126 0.70516878
-0.012750493 -0.0082708746 0.70642203
0.0024199774 -0.00095100328 0.70688802
-0.0010547887 -0.020392254 0.70978779
-0.0010547887 -0.020392254 0.70978779
-0.0024386868 -0.014979891 0.7082293
-0.021571664 0.010437906 0.70802027
-0.0071978727 -0.017290536 0.71097946
-0.010992366 -0.012942713 0.7112298
-0.010992366 -0.012942713 0.7112298
-0.020827817 -0.0010592714 0.71047235
-0.018706797 0.0044121593 0.71045291
0.0021613543 -0.0280976 0.71395713
-0.010614394 -0.02056879 0.71324533
0.0045904634 -0.017068172 0.71315879
-0.0079294043 -0.028834194 0.71405452
0.0033715088 -0.025282323 0.7144196
-0.0070465729 -0.022995196 0.71503234
-0.0086719599 -0.021318331 0.71449107
0.01079618 -0.020593248 0.71523589
0.0065550674 -0.018572941 0.7158618
0.0067833755 -0.016836371 0.71547878
0.0075727627 -0.011539534 0.7141434
-0.00697577 -0.040935423 0.71728969
0.0066270195 -0.040498435 0.71779191
0.0082815029 -0.036990143 0.71774054
0.0050693629 -0.027046729 0.71690476
-0.013038068 -0.02497288 0.71683425
0.0058349669 -0.021881104 0.71611047
0.019301966 0.024921995 0.71697855
0.019301966 0.024921995 0.71697855
0.019301966 0.024921995 0.71697855
0.0009250791 -0.049115237 0.71866667
-0.0083147762 -0.047034442 0.71978748
-0.0083147762 -0.047034442 0.71978748
-0.010426961 -0.042825267 0.71983123
0.0088849552 -0.029128656 0.71880978
-0.016398571 -0.011926234 0.71997774
0.0030137748 -0.058385 0.7219013
-0.0085294321 -0.052930646 0.7217108
0.001118859 -0.053700417 0.72008634
-0.011934223 -0.039532095 0.72009826
-0.014277357 -0.03494221 0.72143841
0.0072167031 -0.031105816 0.72025502
-0.0011362333 -0.063249387 0.72289526
-0.0083745522 -0.060144484 0.72382438
-0.0083745522 -0.060144484 0.72382438
-0.015919816 -0.025014877 0.72304296
-0.015919816 -0.025014877 0.72304296
0.020432997 0.013056234 0.72272706
0.011120683 -0.053010836 0.72516727
0.013774097 -0.039027445 0.72476709
-0.012777603 -0.059140552 0.7269671
-0.012777603 -0.059140552 0.7269671
0.020147098 0.0011631548 0.72709942
0.013045335 -0.062846318 0.73087752
-0.016566407 -0.049108587 0.73047638
0.0020654351 0.041188441 0.6877957
0.012582228 0.039634019 0.69190568
-0.009456642 0.049980134 0.69052637
-0.010364988 0.052136257 0.69167304
-0.0057989527 0.013864905 0.69386458
-0.0044127787 0.021511503 0.69221604
-0.010299704 0.037862577 0.69347143
0.016434925 0.041797381 0.69263017
0.016434925 0.041797381 0.69263017
-0.0026499431 0.0060745934 0.69857347
-0.0017190718 0.013972375 0.69742942
0.014098467 0.025900558 0.69653863
0.009877637 -0.0085608065 0.70351398
0.00011302926 0.0016610598 0.70333183
0.01063618 0.0017402315 0.70139188
0.0049894666 0.0069592549 0.70257115
-0.010374133 0.013838915 0.70229328
-0.0092849918 0.024870366 0.70013869
-0.01790783 0.040789887 0.70014817
-0.01790783 0.040789887 0.70014817
0.022907555 -0.022098135 0.70469606
-0.0015624017 -0.013516965 0.70771593
-0.010921401 -0.0016268872 0.70652437
-0.010921401 -0.0016268872 0.70652437
-0.00067992078 -0.0033995807 0.70417213
-0.010388097 0.0015729116 0.70606935
-0.012059089 -0.01028692 0.71127892
-0.020755239 -0.0056340522 0.71182132
-0.020755239 -0.0056340522 0.71182132
-0.0053566317 -0.03749308 0.71568537
-0.0085793855 -0.011439174 0.71262866
0.0099661164 -0.011290669 0.71255004
0.0016139465 -0.05250746 0.71983159
0.0046997918 -0.049744412 0.71976805
-0.0020564517 -0.042163115 0.71652615
-0.012623131 -0.034250602 0.71928906
-0.0057058893 -0.021668663 0.71619314
0.0082137669 -0.019166276 0.71629512
0.013160199 -0.034108996 0.72242641
0.0065375492 -0.062514395 0.72453588
-0.013061606 -0.057579309 0.72684652
-0.013061606 -0.057579309 0.72684652
-0.015226404 -0.042608097 0.72535914
0.019386312 -0.0017844886 0.72476268
