# .PCD v0.7 - Point Cloud Data file format
VERSION 0.7
FIELDS x y z
SIZE 4 4 4
TYPE F F F
COUNT 1 1 1
WIDTH 398
HEIGHT 1
VIEWPOINT 0 0 0 1 0 0 0
POINTS 398
DATA ascii
-0.018632647 -0.0022971183 0.66326416
-0.019320136 -0.0085011572 0.66440654
-0.019320136 -0.0085011572 0.66440654
-0.016670555 -0.0054996908 0.66450107
-0.015460279 0.0033498704 0.6644395
-0.015980324 0.0054129511 0.6644761
-0.017525187 0.0085050464 0.66446936
-0.015324328 0.0054548979 0.6654411
-0.022503756 -0.012299232 0.66637349
-0.020680556 0.013350844 0.66642123
-0.020680556 0.013350844 0.66642123
-0.024149161 0.014174551 0.66676652
-0.024149161 0.014174551 0.66676652
-0.01631392 -0.0078937709 0.66707408
-0.013189789 -0.00052759051 0.66739661
-0.0087321782 0.0055567175 0.66779268
-0.016635679 0.010298237 0.66752422
-0.024679787 -0.014330208 0.66815913
-0.01452719 -0.0067322454 0.66833806
-0.012516681 -0.0034623221 0.66861594
-0.012217602 0.0013280362 0.66826785
-0.010379657 0.0023953095 0.66853201
-0.011464006 0.0055986047 0.66874951
-0.011464006 0.0055986047 0.66874951
-0.0077991067 0.0056724153 0.66840982
-0.01062306 0.0084984601 0.66825646
-0.010111847 0.010111868 0.66850978
-0.012615304 0.0093945116 0.66962373
-0.029634893 -0.014548033 0.67010647
-0.014327861 -0.011624165 0.67055178
-0.014296085 -0.0094410256 0.67026567
-0.007014052 0.0097117722 0.67028189
-0.021440824 0.015315056 0.67052072
-0.010874365 -0.011961758 0.67128992
-0.012504972 0.012504995 0.6712842
-0.021197382 0.01576215 0.67124271
-0.013312115 0.017658845 0.67119896
-0.031261671 -0.015905052 0.67243242
-0.026812112 -0.015868396 0.67212713
-0.016961005 -0.013404787 0.67211342
-0.011007545 -0.011007547 0.67289758
-0.0062992638 0.010681659 0.67227465
-0.032548591 0.015317082 0.67209136
-0.033534236 0.016492248 0.67274415
-0.011014942 0.016522437 0.67298681
-0.016317017 -0.017423227 0.67355841
-0.016317017 -0.017423227 0.67355841
-0.019516163 -0.01472941 0.67337024
-0.009927704 -0.014340013 0.67317808
-0.033528317 -0.013300613 0.67381883
-0.010518412 -0.01107204 0.67367578
-0.0071674599 0.0060647726 0.67313075
-0.013889719 -0.015556484 0.67415577
-0.03259502 -0.013372466 0.67454147
-0.037436105 -0.011733681 0.67491841
-0.0044473265 0.0094505847 0.67423469
-0.032585688 0.015039742 0.67450279
-0.018637238 0.017803133 0.6743387
-0.0092559177 -0.0056101531 0.67546636
-0.0078778286 -0.0022507906 0.67587304
-0.0078590196 0.0025262237 0.67554867
-0.003671925 0.0076264441 0.67640799
-0.003671925 0.0076264441 0.67640799
-0.003671925 0.0076264441 0.67640799
-0.034731507 0.014118701 0.67636687
-0.011310138 0.014419749 0.67655015
-0.040735453 -0.0079762638 0.677571
-0.0068255551 -0.0014220923 0.67734432
-0.0085568195 0.01654318 0.67774469
-0.041435502 -0.0064921081 0.67832202
-0.042785458 -0.0034458488 0.67867547
-0.041948829 0.006895721 0.67875552
-0.041252203 0.010313034 0.67834646
-0.0097414535 0.014898688 0.67836565
-0.027630497 0.019571602 0.67899543
-0.008379505 -0.0083794892 0.67954683
-0.0017389363 0.011013269 0.67996359
-0.0017389363 0.011013269 0.67996359
-0.0080690011 0.016137987 0.67916971
-0.028717373 -0.018564805 0.68008554
-0.0063953456 -0.011046469 0.68038595
-0.0063953456 -0.011046469 0.68038595
-0.042225957 -0.00058241189 0.68063712
-0.04220859 0.0026198551 0.6805793
-0.039619055 0.0087395012 0.6806848
-0.028399467 -0.019616127 0.68139005
-0.010518403 -0.016361952 0.68110073
-0.0035198319 -0.012906075 0.68165189
-0.032875184 -0.011741132 0.68175286
-0.038702339 -0.0096755624 0.68159401
-0.0005858395 0.0076159239 0.68145895
-0.038285062 0.011328995 0.68149757
-0.032878187 0.013503581 0.68176574
-0.0088190846 0.013522625 0.68196583
-0.0058736652 0.017033666 0.68182755
-0.031952426 -0.011834204 0.68287659
-0.031952426 -0.011834204 0.68287659
-0.0023551434 0.0052991211 0.68217021
-0.016510624 0.020342797 0.68238252
-0.016510624 0.020342797 0.68238252
-0.0041617965 -0.014863521 0.68355995
-0.0071330438 -0.0089162886 0.68353051
-0.038638033 -0.0056467503 0.68353313
-0.038638033 -0.0056467503 0.68353313
-0.039209336 0.0065349042 0.68344855
-0.028073957 -0.020906091 0.68423009
-0.00179774 -0.01258418 0.68469572
-0.0014992626 0.0044980049 0.68481076
-0.036247633 0.011383757 0.68467116
-0.0015082412 -0.013574183 0.68567383
-0.0015079128 -0.012363285 0.68562508
-0.0036109239 -0.010832757 0.68531716
-0.039192401 0.00030145049 0.68559217
0.0016054827 0.0074229143 0.68533349
-0.013564225 0.021401525 0.68556744
-0.03364893 -0.0093971044 0.68639439
-0.038535856 0.0015171692 0.68653738
-0.0033356769 0.0015163124 0.68644559
-0.0067214244 -0.016498029 0.6875425
-0.0033794777 -0.0095230937 0.68835616
-0.0055186599 -0.007971406 0.68806058
-0.037412308 -0.0012266338 0.68809247
-0.036968663 0.0033885837 0.68877518
0.0024534911 0.006133765 0.68810606
0.0049177213 0.0076840818 0.68843013
-0.034439094 0.0092247725 0.68849498
-0.034439094 0.0092247725 0.68849498
0.00061775878 -0.013590664 0.68916488
-0.029382871 -0.011134788 0.68936825
-0.0030920592 -0.0092761815 0.68932259
-0.033344865 -0.0080274642 0.68910182
-0.036594089 0.00031010807 0.68976367
0.00031025507 0.0024809539 0.68976152
0.0049575921 0.0096059293 0.68963337
-0.0015468666 0.016397312 0.68940771
0.00031156928 -0.0046794936 0.69065601
-0.035558689 -0.0024953187 0.69063228
-0.035558689 -0.0024953187 0.69063228
0.0012431114 -0.0024862289 0.6900816
-0.0015583455 0.00031127036 0.69054067
-0.0035340886 0.013513654 0.69060487
-0.0015603891 0.014981613 0.69072807
-0.026312506 -0.011589736 0.69127238
0.00062594045 -0.011266917 0.69114012
-0.0006253749 -0.0081298351 0.69100362
-0.0025172294 -0.0025172234 0.691953
0.0031604918 -0.012641966 0.69262683
0.0031604918 -0.012641966 0.69262683
-0.029038914 -0.010100484 0.69242942
-0.027219247 -0.0075960457 0.69284588
-0.027219247 -0.0075960457 0.69284588
-0.032898799 -0.0056940019 0.69276458
0.0069484566 0.0085270554 0.69252527
-0.032213695 0.010421649 0.69251645
-0.027430575 0.011665583 0.69226086
0.00062977499 0.013225287 0.69206589
0.00031484413 0.017338499 0.69223493
0.00031484413 0.017338499 0.69223493
-0.0094550559 0.021431476 0.69220155
-0.033064596 -0.0044509768 0.69353437
-0.026526546 0.0055175424 0.69372368
-0.028352093 0.0063712448 0.69383955
-0.029318079 0.0073293746 0.69389451
-0.024737699 0.0076116323 0.69315827
-0.031539842 -0.0055406294 0.6943714
-0.029385503 -0.0035133958 0.69424844
-0.030428689 -0.0016014129 0.6946795
-0.030446362 0.0016024411 0.69476938
-0.026945567 0.002566278 0.69491136
-0.029422881 0.0035179257 0.6944446
-0.028407443 0.0044685602 0.69413996
0.0070976666 0.0064524114 0.69580007
0.0039012148 -0.011053443 0.69699752
0.0039012148 -0.011053443 0.69699752
-0.025441878 0.0016308278 0.6975174
-0.025441878 0.0016308278 0.6975174
0.01047423 0.0085103512 0.69806868
0.0059421095 -0.014525115 0.69941938
0.010586182 0.0056237578 0.69975793
0.0053407135 -0.010013819 0.701195
0.0060378602 -0.0093922317 0.70198792
0.0080361022 -0.0063621402 0.70169866
0.010036485 -0.0023421794 0.70155954
0.0083499979 0.0013360679 0.70130086
0.0083499979 0.0013360679 0.70130086
0.0043489346 0.014716715 0.70152152
0.0043489346 0.014716715 0.70152152
-0.003348019 0.022096932 0.70168144
0.010745426 -0.00067156553 0.70216072
0.0080866097 0.014825463 0.7027148
0.0033883061 -0.016263902 0.70362669
0.012862669 0.010831743 0.70346284
0.00410116 -0.016404629 0.70504272
0.0068423739 0.01847446 0.70521426
0.0089666685 -0.010346115 0.70654362
-0.00068845635 0.020653725 0.70623279
0.00034378679 0.020639107 0.70611537
-0.002069494 0.022764444 0.70656478
0.013942501 0.005576998 0.70832568
0.01130469 0.016250491 0.71059936
0.019539971 -0.016342789 0.71156812
0.013518604 0.0028460324 0.71179742
0.016346127 0.0046192706 0.71160316
0.017362405 0.0056694001 0.71111381
0.019211434 0.0064038336 0.71180439
0.017640909 -0.020263463 0.71268642
0.014296799 -0.0142968 0.71260238
0.016405243 -0.0024966002 0.71222371
0.016387444 -0.00071245432 0.71203691
0.02230024 -0.021580875 0.71369427
0.016486734 -0.015411481 0.71307909
0.012898324 -0.010031998 0.71302092
0.013646413 -0.010413885 0.71342134
0.013667775 -0.00251773 0.71369278
0.011497423 0.014371783 0.71350753
0.013658671 0.017253071 0.71357715
0.0123039 -0.017370164 0.71475554
0.012257687 0.01369977 0.71409935
0.0043381075 0.022413582 0.71457666
0.018848196 -0.015948504 0.71503848
0.0043564732 0.021056354 0.7153157
0.01904849 -0.013920069 0.71689832
0.028058521 -0.018459558 0.71828604
0.030210521 -0.018881559 0.72236139
0.030330773 -0.01744017 0.72308719
0.019730555 -0.010259837 0.73055983
0.019839607 -0.007142216 0.73161292
0.022380553 0.0087923706 0.73299414
0.022380553 0.0087923706 0.73299414
0.020020492 -0.0064065158 0.73335975
0.0232387 0.0084134936 0.73348403
0.025024386 -0.0008072257 0.7349093
0.024569444 0.0064445585 0.73450553
0.025395246 -0.009011209 0.7377975
0.022955609 -0.0049190223 0.73795241
0.028696544 0.0057393014 0.73796642
0.025737721 -0.0074722171 0.74046463
0.024957566 -0.0066553354 0.74086779
0.031004135 0.0067035854 0.7423237
0.025593365 -0.01279667 0.74598426
0.035365202 -0.002587676 0.74826658
0.034471661 0.0068943202 0.74807966
0.034471661 0.0068943202 0.74807966
0.025925117 0.015555084 0.74865401
0.032311179 0.012225866 0.75085199
0.036895089 0.0070276558 0.75210238
0.037388116 -0.007121563 0.75493646
0.040148593 0.0026765466 0.75541878
0.035796277 -0.0098439157 0.75607443
0.040604621 -0.0045116246 0.75786525
0.033491082 -0.012672305 0.75855076
0.044125859 -0.00091928244 0.76196063
0.044125859 -0.00091928244 0.76196063
0.041490935 0.010142237 0.76262033
-0.019065497 -0.0049263984 0.6635865
-0.017237673 -0.0047793603 0.66364074
-0.019751811 -0.010395676 0.66551185
-0.019751811 -0.010395676 0.66551185
-0.0092655681 0.0052941642 0.66784704
-0.013778428 0.0063592792 0.66796345
-0.018263435 0.010958046 0.66600144
-0.028677542 -0.013936535 0.66943169
-0.011320028 -0.013052742 0.66982305
-0.014867052 -0.0073894779 0.66846824
-0.012868811 -0.0049957284 0.66877383
-0.010111847 0.010111868 0.66850978
-0.017084122 -0.012729682 0.67149448
-0.011649278 0.014900837 0.67084074
-0.018743787 -0.016810121 0.67332745
-0.034329809 -0.014476523 0.67316329
-0.013771079 -0.01487273 0.67300999
-0.029376961 -0.013727546 0.67258978
-0.033176146 0.01530309 0.67277569
-0.017252751 0.01519933 0.6722514
-0.0095532769 -0.0064629763 0.67569327
-0.031279527 0.015149362 0.67548323
-0.0047137425 0.0064109168 0.67659605
-0.04102613 0.011110246 0.67758685
-0.0095267911 0.015783519 0.67734194
-0.0081823878 -0.010479078 0.67865521
-0.039876197 -0.0075128675 0.679546
-0.039876197 -0.0075128675 0.679546
-0.042899024 -0.0031093806 0.67904824
-0.0055455319 0.0028219158 0.67934579
-0.0017355526 0.010703161 0.67969126
-0.03689725 0.012267416 0.67885399
-0.0082057212 0.016989715 0.67905259
-0.029073462 0.01923684 0.67970037
-0.040655494 0.0068243295 0.68084848
-0.0012848562 0.0071276128 0.68107694
-0.029188013 0.014883101 0.68094361
-0.031760313 -0.020585328 0.68201768
-0.027173877 -0.019199595 0.68264556
-0.040833935 0.00088757032 0.68290329
-0.039146043 0.0071217623 0.68298119
-0.028073957 -0.020906091 0.68423009
-0.036700033 0.010799933 0.68488216
-0.028602792 -0.012172083 0.68695509
-0.00085093529 -0.012888354 0.68679714
-0.032430228 -0.010305136 0.68637073
-0.035511941 0.0089800777 0.68717051
-0.027564213 0.014088392 0.68790454
-0.027564213 0.014088392 0.68790454
-0.036935352 -0.0011096746 0.68889731
-0.004611576 -0.0011280726 0.68847072
0.0017569524 0.00098217279 0.68974322
-0.036491528 0.0048605669 0.68878543
-0.012292106 0.020896584 0.68840361
-0.0068599768 -0.018296074 0.6906082
-0.032803334 0.010704887 0.69116592
-0.033600233 -0.0030736129 0.69356173
-0.034000948 0.0062964857 0.69203502
0.0072987387 0.0090428516 0.6932236
-0.032733615 -0.0028824003 0.6946789
-0.026924333 0.00304467 0.69480032
-0.029666711 0.0070177913 0.69405049
-0.0068891235 0.020987766 0.69474125
0 -0.015595049 0.69689888
0.0039312579 -0.010483354 0.69820637
0.010980984 0.010980412 0.70068979
0.0071908599 -0.010335843 0.70276153
0.0033553774 -0.0080528557 0.70203668
0.0033553774 -0.0080528557 0.70203668
0.010602387 -0.011523118 0.70695204
0.014741759 0.0073700948 0.70684516
0.020879211 -0.020879678 0.71089369
0.010636862 0.018437207 0.71122247
0.0092714801 -0.015690178 0.71220422
0.012923504 -0.0091878865 0.7133413
0.013312412 -0.0073162368 0.71375418
0.025344217 -0.019190818 0.71484292
0.026155053 -0.018527627 0.71542442
0.016656723 -0.017380923 0.71486342
0.016656723 -0.017380923 0.71486342
0.020424398 -0.008641094 0.72967422
0.020593682 -0.007920593 0.73124611
0.023192128 -0.001599431 0.7330963
0.026063655 -0.00081446767 0.73665988
0.018757876 0.015495658 0.73691833
0.023611812 -0.0049430234 0.73887509
0.023611812 -0.0049430234 0.73887509
0.029573405 0.0028755367 0.73834842
0.029573405 0.0028755367 0.73834842
0.030513156 -0.0050155967 0.74184668
0.032068525 -0.004219532 0.74376231
0.028539967 -0.010649711 0.74570358
0.032210357 0.0072059184 0.74466342
0.031393636 0.0089102983 0.74486518
0.02202131 0.016092539 0.74450225
0.033230983 -0.0073358864 0.74840164
0.036384977 0.001082845 0.74917024
0.036582727 0.0047911406 0.75030696
0.031668555 -0.011435807 0.75239873
0.033236533 0.014372587 0.75688982
0.041694473 -0.003173098 0.75884944
0.042721629 0.0011361763 0.75946975
0.042792119 0.0031870008 0.75983185
0.034537867 0.014542282 0.75945044
0.038381651 -0.010052353 0.76064736
0.038381651 -0.010052353 0.76064736
0.042263802 0.0082690418 0.76183748
0.044382781 -0.0032369941 0.76325291
0.045768041 -0.0032699257 0.76552236
-0.018299446 -0.0057077236 0.66374648
-0.0079404041 0.0071463361 0.66782367
-0.026214162 -0.014759451 0.66950047
-0.026002211 0.015606645 0.66829222
-0.013737768 0.014169029 0.67050648
-0.018202394 0.015526384 0.67250758
-0.038487025 -0.010038002 0.67755789
-0.010311316 0.014291648 0.67818236
-0.040285632 -0.0053129322 0.68112248
-0.0033676529 0.003367732 0.68351805
-0.00071412872 0.010299956 0.68116987
-0.027898906 0.014839858 0.68333095
-0.0087197591 0.018602163 0.68036717
-0.035751343 0.0079448968 0.68756843
-0.034188814 -0.0060957083 0.6900894
-0.0057404898 -0.006376171 0.6901195
-0.0016916152 -0.0063876412 0.69149989
-0.036527578 -0.0016916026 0.68934268
0.0062787505 -0.0058333855 0.70253587
0.0082539842 0.01434736 0.70352113
0.0082539842 0.01434736 0.70352113
0.021177247 -0.021178473 0.71139908
0.0058076419 -0.017554997 0.70988643
0.010616782 -0.014716968 0.70917308
0.013960722 -0.0061230143 0.71387666
0.026318863 -0.024772977 0.72596735
0.02475277 0.0024564085 0.73073363
0.02475277 0.0024564085 0.73073363
0.023481991 0.004696399 0.7289933
0.025573179 -0.0090499399 0.73862517
0.025573179 -0.0090499399 0.73862517
0.035415914 -0.0030239224 0.7485652
0.040146366 0.0021198094 0.75540674
0.029676078 0.016186982 0.75712901
0.033906359 -0.013288036 0.76126361
