# .PCD v0.7 - Point Cloud Data file format
VERSION 0.7
FIELDS x y z
SIZE 4 4 4
TYPE F F F
COUNT 1 1 1
WIDTH 425
HEIGHT 1
VIEWPOINT 0 0 0 1 0 0 0
POINTS 425
DATA ascii
-0.015448717 -0.025502279 0.65842479
-0.0095004747 -0.023408163 0.65825385
-0.016465057 -0.020396613 0.65868199
-0.0054240138 -0.029339001 0.65906775
-0.0057844683 -0.025618127 0.6597302
-0.0057844683 -0.025618127 0.6597302
-0.024035813 -0.025037289 0.66091561
-0.024622243 -0.023623824 0.6605171
-0.024698807 -0.022702605 0.66048431
-0.0082272114 -0.0221899 0.66041386
-0.0076511665 -0.022621125 0.66049397
-0.0097352993 -0.020968989 0.66055721
-0.01961014 -0.019277385 0.66038984
-0.019361936 -0.018607467 0.66143668
-0.0032908055 -0.035692498 0.66225076
-0.0032908055 -0.035692498 0.66225076
-0.004576975 -0.023901969 0.66280025
-0.004576975 -0.023901969 0.66280025
-0.0074559031 -0.020673275 0.66275519
-0.0074559031 -0.020673275 0.66275519
-0.013471223 -0.017792329 0.66275197
-0.028441172 -0.026397467 0.66337097
-0.026275573 -0.020663247 0.66320044
-0.0025765367 -0.038132757 0.66443098
-0.0025765367 -0.038132757 0.66443098
-0.029850353 -0.026505277 0.66427499
-0.029811123 -0.025442287 0.66411173
-0.030021217 -0.02380991 0.66498619
-0.007291059 -0.040360808 0.66575456
-0.0015632447 -0.026575148 0.66582501
-0.0015632447 -0.026575148 0.66582501
-0.010745512 -0.016464323 0.66554952
-0.014316294 -0.015617818 0.66570741
-0.014316294 -0.015617818 0.66570741
-0.006533497 -0.041813493 0.66620821
-0.0055927965 -0.018701365 0.66661251
-0.0033473379 -0.020262202 0.6676358
-0.0056339754 -0.017782509 0.66754377
-0.021390066 -0.015844181 0.66752893
-0.021390066 -0.015844181 0.66752893
-0.0093210954 -0.044207633 0.66861111
-0.029745478 -0.03293249 0.66826034
-0.0010604386 -0.024390101 0.66803104
-0.0084880162 -0.015384495 0.66809899
-0.014622889 -0.013825268 0.6683985
-0.011879009 -0.044276297 0.67038143
-0.032857701 -0.032857686 0.6700666
-0.0071980199 -0.014215748 0.67035687
-0.0091637978 -0.013476163 0.6701622
-0.0091637978 -0.013476163 0.6701622
-0.028479122 -0.038455866 0.67140383
-0.032125726 -0.03593722 0.67147958
0.0010924658 -0.027584687 0.67189705
-0.023351163 -0.015205383 0.67112875
-0.0046372088 -0.014731348 0.6717456
-0.020433841 -0.013349906 0.67157954
-0.013355179 -0.011719078 0.67162591
-0.013355179 -0.011719078 0.67162591
-0.025646165 -0.041583609 0.67270154
-0.025646165 -0.041583609 0.67270154
-0.018512506 -0.044484794 0.67343748
-0.027008783 -0.039135188 0.67309612
0.00055206835 -0.020702213 0.67330587
-0.018510336 -0.011603236 0.67341888
-0.01571057 -0.011024803 0.67310631
-0.01571057 -0.011024803 0.67310631
-0.014668349 -0.010516822 0.67365575
-0.021668376 -0.046114743 0.67415833
-0.021389231 -0.043334395 0.67415106
-0.022618685 -0.042641424 0.67430258
-0.00055518391 -0.017210722 0.67405802
-0.02285647 -0.013379395 0.67461109
-0.0050039794 -0.012231946 0.67425454
-0.0044514053 -0.012518987 0.67435783
-0.0036260057 -0.01283209 0.67471796
-0.012371832 -0.0089976788 0.67578954
-0.010192102 -0.041617617 0.67672431
-0.00056509848 -0.014409542 0.67645156
-0.00056509848 -0.014409542 0.67645156
-0.0093518728 -0.0085018128 0.67685962
-0.018455412 -0.044293135 0.67711854
-0.020505933 -0.043574572 0.6775406
-0.027644608 -0.034484737 0.67763394
0.0017022644 -0.018157452 0.67701244
-0.0025577797 -0.011370093 0.67727393
-0.015643772 -0.008532837 0.67735875
-0.014758791 -0.0085146725 0.67706656
-0.0076783956 -0.0085317492 0.67734194
-0.01750496 -0.043331526 0.67858499
-0.015481517 -0.043290585 0.67845321
-0.014654774 -0.041665331 0.67876875
-0.00057313067 -0.012321755 0.67839074
-0.020101016 -0.0097633004 0.67867661
-0.01937747 -0.040490463 0.67967141
-0.025737211 -0.03759411 0.67965603
-0.0034673337 -0.0086683333 0.6795395
-0.0092954161 -0.038343579 0.68028176
-0.025598761 -0.032288998 0.68048126
0 -0.010497868 0.68082559
-0.00058300467 -0.0099110603 0.68077451
-0.0066947909 -0.0064039081 0.68057442
-0.022888334 -0.035799712 0.68171024
-0.018450184 -0.038470369 0.68218243
0.004126356 -0.017389372 0.6823377
0.004126356 -0.017389372 0.6823377
0.0023559977 -0.012368977 0.68222177
-0.0065101129 -0.0047346056 0.68290478
-0.014868698 -0.039848119 0.6836096
-0.014255309 -0.038608104 0.68342203
-0.0035645948 -0.0053468943 0.68345296
-0.0047566644 -0.0047566593 0.68356979
0.0095366649 0.0101327 0.68392193
-0.021349892 -0.037312739 0.68454194
-0.018505223 -0.037010431 0.68413949
0.0015963604 -0.0085782809 0.68451542
-0.016175531 -0.0047927499 0.68465877
-0.013204195 -0.003601104 0.68492359
0.010145515 0.0083551109 0.68410385
-0.013564488 -0.0033151358 0.68557799
0.010427961 0.0062165163 0.68526763
0.012643971 0.0084293485 0.68538308
-0.013999236 -0.037737042 0.6869688
-0.022472642 -0.032797903 0.68665653
0.0054616211 -0.014564306 0.68653053
0.0054616211 -0.014564306 0.68653053
-0.0097115505 -0.0024278462 0.68656075
-0.016467519 -0.03659448 0.68726963
-0.015383144 -0.0024613142 0.68857753
0.013515722 0.010443956 0.68834221
0.0030883986 -0.0055591166 0.6891458
0.0015497825 -0.0037199259 0.68970275
-0.014561229 -0.0015483797 0.68962348
-0.0096178818 1.4901161e-08 0.68982548
0.012412065 0.013032675 0.68985164
0.0099289073 0.015513927 0.68984038
-0.014972725 -0.0012477338 0.69063872
-0.0093668671 0.00062447786 0.69078219
0.00062584347 -0.0037550628 0.69111675
-0.0044023604 -0.002515614 0.69185674
0.010658306 0.016300946 0.69138604
0.0044186031 -0.011677131 0.69241691
0.0025336107 -0.0088676214 0.69294173
-0.0031573789 -0.0031573474 0.69247651
0.015129847 0.01260823 0.69221926
0.003806036 -0.010149419 0.69316787
-0.0044375723 -0.0012678504 0.69307113
0.014574798 0.013941139 0.69301033
0.014574798 0.013941139 0.69301033
0.0076751807 -0.013431549 0.6944375
-0.010230636 0.0025576651 0.69439316
0.01344716 0.016648889 0.69461673
0.011524651 0.018567502 0.69459683
-0.017361002 -0.0019289851 0.69525868
-0.017361002 -0.0019289851 0.69525868
0.0032150359 -2.9802322e-08 0.69526041
0.014485279 0.016416669 0.69544935
0.0045372248 0.00032478571 0.69650805
0.012943305 0.018767804 0.69626427
0.0071808351 -0.0094649941 0.6976254
0.0039171502 -0.005548656 0.69763875
-0.001310113 0.00065508485 0.69816941
0 -0 0.69884187
0.0093237842 -0.0086578131 0.70080769
0.0073087965 -0.0066443384 0.70043385
0.0056487736 -0.0046512485 0.70044184
0.0033164346 0.0019899011 0.70015639
0.0033164346 0.0019899011 0.70015639
-0.0037680971 0.0055420995 0.70057338
0.0020117811 0.0013411939 0.70192039
-0.0080430573 0.0073728263 0.70183861
-0.014097976 0.0026853383 0.70209867
-0.015436167 0.0033557117 0.70205176
-0.00067748944 0.00541991 0.70358521
-0.0054113483 0.0087934732 0.70332664
0.0064720912 -0.0013623536 0.70447755
0.0034015065 0.012585148 0.70426404
0.008233808 0.0054892302 0.7056762
-0.0034307262 0.010292172 0.70567489
0.0025169028 0.010753751 0.70574319
0.0043362118 0.010497938 0.70531762
0.00034321359 0.011676788 0.70584983
0.0023945705 0.011631876 0.7052114
-0.0034323528 0.013729423 0.70575345
0.0054842019 0.015425175 0.70552516
0.010368302 -0.0034560859 0.70690006
0.010368302 -0.0034560859 0.70690006
-0.0024141776 0.010348305 0.70657796
-0.00069151999 0.010372818 0.70697248
-0.0020702337 0.01518175 0.70662433
0.0013867492 0.0076271296 0.70742023
0.0013867492 0.0076271296 0.70742023
-0.0083340323 0.010417551 0.70769256
-0.0076202732 0.01350829 0.70726985
0.013586112 0.001393497 0.70823151
-0.0094184671 0.012557656 0.70845175
0.0076723155 0.016042143 0.70841205
-0.010485528 0.017475933 0.70878685
-0.0094129909 0.0174326 0.70836866
0.011198983 0.0013999045 0.70900434
-0.012665342 0.011961728 0.70989609
0.016207648 0.00070470572 0.71014965
-0.0056637693 0.016283363 0.71094406
-0.012802904 0.0078240335 0.71174109
-0.0085445046 0.019937187 0.71192694
0.0074747931 0.019577429 0.71189284
0.017112786 -0.0064173043 0.71216607
-0.016443714 0.0096512735 0.71262753
-0.019329309 0.010738522 0.71285844
-0.0064282957 0.018570662 0.71246117
0.016510064 -0.0078960657 0.71332395
-0.016510064 0.0086139739 0.71332401
0.0093455995 0.019410104 0.71358073
-0.01739173 0.0065219104 0.71497202
-0.015885239 0.013719052 0.71434462
-0.018190514 0.0058209896 0.71568787
-0.018141054 0.0065307915 0.7152102
-0.0029097388 0.018185884 0.71564305
0.010168715 0.020337462 0.71537799
0.0025394694 0.021044135 0.71521449
0.0014635465 0.019757897 0.71669042
0.0036519598 0.02191174 0.71635699
0.013618554 -0.013250709 0.71774751
-0.0025738268 0.020590141 0.71755672
-0.0014677318 0.020548224 0.71719569
0.016260995 -0.013304412 0.71846795
-0.019698758 0.0024620097 0.71836352
-0.0025908332 0.021468535 0.7187475
0.016310817 -0.012603819 0.71901476
0.012685503 -0.01641655 0.72017485
-0.014940163 0.018675238 0.7203685
0.020377839 0.0015094876 0.72223383
-0.0045313025 0.026432604 0.72235024
-0.012317129 0.021555007 0.72587591
0.017641228 0.025311351 0.72519732
-0.0022992129 0.026824176 0.72505116
-0.0022992129 0.026824176 0.72505116
0.012321169 0.028492719 0.72593689
-0.01165165 0.022526562 0.72755527
0.0023358653 0.025694549 0.7280007
0.0023363261 0.02647835 0.72803777
0.01644206 0.027403444 0.72904688
0.01187031 0.031654149 0.73107451
-0.0015873135 0.032539934 0.73163044
-0.0015873135 0.032539934 0.73163044
0.021531221 0.0095694065 0.73254687
0.019141676 0.029510111 0.73257512
0.015528062 0.03145428 0.73227113
0.024544436 0.0074699027 0.73324871
0.024544436 0.0074699027 0.73324871
0.017620306 0.030435085 0.73338473
-0.0097158868 0.028338045 0.7354933
0.017012157 0.033214211 0.73560083
0.017012157 0.033214211 0.73560083
-0.0081738615 0.028608561 0.73735923
0.021426335 0.033787698 0.73897761
0.00082298508 0.037034333 0.73871094
0.020654857 0.033874005 0.73948574
0.023350304 0.024184287 0.74135554
0.0016724386 0.039302349 0.74190593
0.016693853 0.039230585 0.74153739
0.012559007 0.03516522 0.74215895
0.027998991 0.013575256 0.74485976
0.02550008 0.023800075 0.74523354
0.0093429442 0.037371784 0.74507809
0.016162783 0.040832311 0.7453953
0.024857555 0.029143363 0.74696076
0.011561064 0.041106984 0.7467767
0.011176513 0.039547682 0.74758232
0.028436581 0.016372561 0.74806106
-0.0060506989 0.037168622 0.74870592
0.02786576 0.027429968 0.7502557
-0.0085029518 -0.030794144 0.65960789
-0.012222318 -0.022000164 0.65805393
-0.0034046674 -0.03493046 0.66179854
-0.0051735677 -0.033101521 0.66042072
-0.028677672 -0.025155241 0.66321367
-0.010669196 -0.018734358 0.66268647
-0.03057627 -0.025133125 0.66513944
-0.0088918805 -0.018171061 0.66447651
-0.014959975 -0.016229792 0.66474777
-0.013185487 -0.016351705 0.66486049
-0.030888675 -0.0309937 0.66713285
-0.029582048 -0.036036283 0.66987455
-0.024767499 -0.017105028 0.66907406
-0.024767499 -0.017105028 0.66907406
-0.011221955 -0.043649778 0.67075175
-0.027848352 -0.039178513 0.67185199
0.00072377489 -0.028795108 0.67078614
0.00081658614 -0.027032737 0.67120767
-0.027439695 -0.018745959 0.67120242
-0.003637373 -0.01564151 0.67175424
-0.014874281 -0.012440041 0.67060268
-0.020917162 -0.04377462 0.67379856
9.2351518e-05 -0.019422174 0.67336434
-0.0036928691 -0.013663977 0.67376184
-0.021244114 -0.043230109 0.67440337
-0.025375668 -0.014541224 0.67769128
-0.014561803 -0.007994622 0.67788684
-0.011095998 -0.0079664513 0.67740154
-0.025108751 -0.037494406 0.67964435
0.0032655799 -0.020835241 0.67910123
0.0017176841 -0.016317606 0.67825329
-0.01648543 -0.0075194836 0.67966819
-0.01908464 -0.039143607 0.68119264
-0.0092954161 -0.038343579 0.68028176
-0.020849163 -0.0093302652 0.68082017
-0.020849163 -0.0093302652 0.68082017
-0.024943415 -0.035059627 0.68284386
-0.02301758 -0.034997702 0.68312341
-0.016606871 -0.0057330132 0.68321341
-0.012677796 -0.037171993 0.68508667
0.01107132 0.0067251264 0.68473172
-0.020853486 -0.035277255 0.68695146
-0.0089724632 -0.0028383485 0.68689907
-0.0089724632 -0.0028383485 0.68689907
0.0076246094 0.012504622 0.6872921
-0.014750794 -0.0017530422 0.68943018
-0.0054426538 -0.0016744634 0.69164491
0.013195873 0.013195861 0.69082659
0.0065844795 -0.013404727 0.69323123
0.0065844795 -0.013404727 0.69323123
-0.004852898 -0.0010544162 0.69286394
-0.0090209749 0.0018990487 0.69284689
0.0047149006 -0.0011774849 0.69522631
0.0047149006 -0.0011774849 0.69522631
-0.0090628127 0.0031295195 0.6949386
-0.0010537625 -0.0010537691 0.69671738
0.0051767435 -0.00064706802 0.69624674
0.012361712 0.020169109 0.69709742
-0.0011398856 0.0011639338 0.698852
0.0060313619 0.0040209293 0.70181358
-0.0033438818 0.0060189962 0.7014817
-0.011481594 0.0030393749 0.70307779
-0.0084687965 0.0081293285 0.70357358
0.0033892051 0.013556838 0.70367008
0.008053964 0.01476562 0.70205796
0.008053964 0.01476562 0.70205796
0.002897684 0.014324009 0.70469701
0.0029952172 0.005068948 0.70686358
0.0029725246 0.0090138074 0.70672554
-0.0069187721 0.010724945 0.70705056
-0.0010325607 0.015141428 0.70618188
-0.01120992 0.017282169 0.70916748
0.0071286769 0.016912533 0.70874143
0.01849778 -0.0064030588 0.71178472
0.011974175 -0.0014086962 0.71007305
0.0088514956 0.017348081 0.71096265
-0.016554592 0.0079174042 0.71379137
-0.017043438 0.013249236 0.7129097
0.016948575 -0.0093759149 0.71414423
-0.018190514 0.0058209896 0.71568787
-0.0047902712 0.019076388 0.71462858
-0.0033890761 0.018400233 0.71537179
0.018422363 -0.0029475689 0.71792686
0.010274643 0.022017092 0.71720469
0.0088619515 0.023634166 0.7183305
0.017030952 0.0031307291 0.72141933
-0.020159598 0.0074665248 0.7202825
0.015991637 -0.011422575 0.72386861
0.021917777 -0.0022673309 0.72248751
0.021158597 -0.0010076116 0.72245038
0.014633206 0.026185751 0.7259599
0.0089045195 0.028648615 0.72695398
0.0029204076 0.026478693 0.7280401
0.019646928 0.028291583 0.7297523
-0.0023740185 0.032444954 0.731071
0.02295281 0.0091809407 0.73276478
0.025104001 0.0088138981 0.73345041
0.025104001 0.0088138981 0.73345041
0.0146541 0.033037692 0.73298967
0.0091029592 0.033103228 0.73981893
0.026955858 0.011115938 0.74128962
0.018593011 0.036907971 0.74100751
0.024449592 0.019391119 0.74356455
0.0048349029 0.037207551 0.74302346
0.028875651 0.012739271 0.74506009
0.02535741 0.021131188 0.74408543
0.014915708 0.040911421 0.74579334
0.024971887 0.032721788 0.74791265
-0.0054165325 0.034783434 0.7465167
0.0070963698 0.041191615 0.74893779
0.0070963698 0.041191615 0.74893779
0.029636381 0.017433167 0.7504617
0.02911783 0.026640227 0.75090694
0.028751051 0.020829668 0.75250494
-0.0095307864 -0.029378533 0.65903544
-0.02253826 -0.024778415 0.66026711
-0.02225831 -0.017185068 0.66574323
-0.009797249 -0.04290048 0.66940957
-0.009797249 -0.04290048 0.66940957
-0.009797249 -0.04290048 0.66940957
9.0854068e-05 -0.022407394 0.67144746
-0.026725074 -0.017144043 0.67409384
-0.020638069 -0.011671941 0.67528504
-0.018299455 -0.042904627 0.67861974
-0.027473547 -0.029598489 0.67678821
-0.014034657 -0.0057365708 0.6816318
0.0014481975 -0.00643805 0.68660283
0.0033891816 -0.0093910303 0.6934135
0.0049067074 -0.0023106784 0.69809228
-0.0051512932 0.0032286241 0.69685292
0.0065711294 0.011828005 0.69866592
0.0058415844 0.0060782875 0.70595896
0.013877173 -0.0021123639 0.70994174
-0.016062235 0.0048885345 0.70862329
-0.016062235 0.0048885345 0.70862329
-0.010088382 0.012891665 0.70845246
0.014558882 -0.0067457925 0.7129032
-0.015176792 0.016840655 0.71822691
-0.0016066836 0.018506827 0.71686971
0.019444115 0.0082263947 0.72057188
0.019444115 0.0082263947 0.72057188
0.017455077 -0.011036178 0.72592664
0.020158757 0.025199518 0.7272076
0.005850235 0.024863165 0.72834277
-0.0019806661 0.032492444 0.73135072
0.01405422 0.033873275 0.73420286
0.016644042 0.036369599 0.7384485
0.022710009 0.025868595 0.74172622
-0.0083539905 0.032580614 0.74170792
0.018111996 0.038171872 0.74181074
0.02539606 0.026035942 0.74610436
0.024971887 0.032721788 0.74791265
0.018455362 0.041022815 0.74564093
0.0059243636 0.041981366 0.74878287
