# .PCD v0.7 - Point Cloud Data file format
VERSION 0.7
FIELDS x y z
SIZE 4 4 4
TYPE F F F
COUNT 1 1 1
WIDTH 391
HEIGHT 1
VIEWPOINT 0 0 0 1 0 0 0
POINTS 391
DATA ascii
0.028079942 0.0084769726 0.66793227
0.028079942 0.0084769726 0.66793227
0.028371075 0.0021412075 0.66925836
0.023650337 0.0075250864 0.66979063
0.021695057 0.011661112 0.67096603
0.023168243 0.01535584 0.67010176
0.022570482 -0.0045506954 0.67185563
0.034627631 -0.0013634861 0.67167461
0.019548651 0.0059732199 0.67112094
0.019548651 0.0059732199 0.67112094
0.019358721 0.0084523931 0.67167324
0.017999765 0.009272635 0.67170739
0.020544862 0.011636129 0.67170775
0.022258285 0.015472397 0.67108881
0.032565016 -0.0021892488 0.67215824
0.023103546 -0.00055006146 0.67282689
0.016416043 2.9802322e-08 0.67213088
0.016458707 0.0076807737 0.67247415
0.018342394 0.012319669 0.67221105
0.021337643 0.015593097 0.67211097
0.022554392 0.01925379 0.67283237
0.025645822 -0.00055152178 0.67317593
0.020351052 -0.0061332732 0.67463493
0.03577102 -0.0039124191 0.67496049
0.013541094 0.0025973222 0.6743753
0.013541094 0.0025973222 0.6743753
0.024461783 0.022793949 0.67424285
0.025330301 0.023660198 0.67442572
0.029433401 0.024990618 0.67409742
0.020243503 -0.0044985414 0.67578065
0.03522649 -0.0039140284 0.67501569
0.019146504 0.02252537 0.67597693
0.030069312 -0.0079428256 0.67699409
0.028553311 -0.0053714812 0.67652613
0.019801611 0.00056579709 0.67661136
0.015848413 0.0093392432 0.67667282
0.02230398 0.022586778 0.67634779
0.016362345 0.024825662 0.67623925
0.01156915 0.0026556454 0.67739189
0.015355084 0.0076774806 0.67732275
0.016509574 0.022202522 0.67746496
0.021135274 0.024562627 0.6779303
0.019486312 -0.003438741 0.67838985
0.0097713266 -0.0014372915 0.67878985
0.014523713 0.02254967 0.67843294
0.031471107 0.028037906 0.67816651
0.026637828 -0.011002541 0.67982781
0.015612973 -0.0075173378 0.67962867
0.043293945 -0.0014429539 0.6793859
0.012116524 0.0046158135 0.67931944
0.012752581 0.0095644593 0.67996776
0.013278086 0.0095255971 0.67939925
0.015612609 0.017347366 0.67962539
0.016464353 0.0184872 0.67949975
0.019117901 0.026649207 0.67988753
0.012844895 0.014012635 0.6809808
0.015877146 -0.0047042966 0.68199074
0.0096634682 0.0035143048 0.68142915
0.01056599 0.0046960115 0.68173897
0.01056599 0.0046960115 0.68173897
0.011422343 0.0073223487 0.68144786
0.03660151 0.026938483 0.68140566
0.034782924 -0.0076640248 0.68235254
0.0057112332 0.00019731125 0.68267077
0.032547019 0.026037633 0.68288922
0.034755677 0.02650857 0.68224108
0.019416112 0.028241634 0.68206918
0.019416112 0.028241634 0.68206918
0.025584817 -0.0086268187 0.68366945
0.013672322 -0.0059444904 0.68353742
0.014552357 -0.0043854318 0.68440855
0.044212494 0.00059747696 0.68426585
0.0077714161 0.0035867989 0.6843468
0.010656392 -0.007640372 0.68565333
0.002411434 -0.0015071929 0.68556768
0.010561753 0.0075441152 0.68573022
0.0094410703 0.019685289 0.68551099
0.0094410703 0.019685289 0.68551099
0.041603319 0.025625676 0.68558896
0.021655064 -0.010726204 0.68660635
0.039345622 -0.0063556284 0.68616128
0.039345622 -0.0063556284 0.68616128
0.0045426572 0.0015142113 0.68625242
0.007283994 0.020031005 0.68656743
0.0060989317 0.020126492 0.68726599
0.044438682 0.022219241 0.68766516
0.037774123 0.024979681 0.68711317
0.031530038 0.025101602 0.68783104
0.0073641264 -0.009512037 0.68817955
0.01042708 -0.0061335862 0.68810236
0.01042708 -0.0061335862 0.68810236
0.045717582 0.0045109391 0.68850935
0.045717582 0.0045109391 0.68850935
0.048084483 0.016028136 0.68885326
0.04686651 0.017883301 0.68890071
0.035422921 0.024642169 0.68875325
0.035422921 0.024642169 0.68875325
0.014441049 0.027345777 0.68838048
0.019211797 -0.011155218 0.68964207
0.0065029091 -0.0074316114 0.68953741
0.0086540086 0.0080358982 0.6892578
0.0055743577 0.018581212 0.68955463
0.016614255 -0.01349931 0.69044197
0.012441352 -0.0024882257 0.6902051
0.012501063 -0.0018751621 0.69092596
0.0096868724 0.010311857 0.69090426
0.04647797 0.013413168 0.69064069
0.046383701 0.015565172 0.69033515
0.0037434099 0.018717051 0.69064796
0.03985288 0.023351565 0.69035816
0.0075167012 -0.0050111115 0.69124907
0.045102321 0.0075170696 0.69125617
0 0.0084569305 0.69125676
0.0025106869 0.011612147 0.69155812
0.044459388 0.017533302 0.69120008
0.033525333 0.023812547 0.69131023
0.034409121 0.023773581 0.69106287
0.017057596 -0.011371762 0.69254577
0.0053569172 0.0075627267 0.69217479
0.0052712383 0.0084343757 0.69273776
0.0034808549 0.016455755 0.69282365
0.0044245436 0.016434044 0.69262183
0.0044245436 0.016434044 0.69262183
0.040566437 0.020388097 0.69225729
0.040566437 0.020388097 0.69225729
0.042637732 0.0063638389 0.69366145
0.0063406616 0.0088769495 0.69310182
0.0066760392 0.0095374882 0.69352794
0.043582305 0.0095436871 0.69362819
0.043167956 0.015552953 0.69328451
0.036579773 0.021629959 0.69361097
0.013469202 -0.015393347 0.69487011
0.0035233404 -0.012813821 0.69470119
0.0035233404 -0.012813821 0.69470119
-0.0053334991 -0.0053331852 0.69452828
0.042599428 0.012491636 0.69467944
0.0063797077 0.014035344 0.69404453
0.0095701236 0.026158363 0.69405353
0.0032236979 -0.0083816051 0.69567871
-0.0058105267 -0.0025824308 0.69588983
-0.0058105267 -0.0025824308 0.69588983
0.00064435939 0.015464634 0.69558692
0.038450856 0.018473547 0.69560426
0.038450856 0.018473547 0.69560426
0.038450856 0.018473547 0.69560426
-0.00064947084 -0.011690438 0.69682086
-0.00064947084 -0.011690438 0.69682086
0.039842028 0.0094707161 0.69770861
0.039842028 0.0094707161 0.69770861
0.038009614 0.015072793 0.69823742
0.034574162 0.018599659 0.69851375
-0.0006602807 -0.0095734298 0.69943058
0.0026350594 -0.0065876245 0.69906467
-0.0066129239 0.0046290457 0.69967484
0.037722602 0.007610783 0.69979739
-0.0046368479 0.015897781 0.6999439
-0.001999947 -0.014666289 0.70096815
0.0013255314 -0.0072903931 0.70003051
-0.0039765635 0.0026510656 0.70002937
-0.008621512 0.0046423674 0.70013368
-0.0019924471 0.0046490431 0.70036453
-0.0060018678 0.0073356032 0.70102245
-0.0013388207 0.012718827 0.70163465
-0.0023414874 0.013377443 0.70150465
-0.0053832438 0.010430232 0.70247853
-0.0053889612 0.011451542 0.70265108
-0.0063956832 0.014473058 0.70254505
-0.0080914423 0.015508592 0.70281202
0.0054186056 -0.015578508 0.70354569
0.0060776393 -0.015531689 0.70305496
-0.013556319 -0.0084731877 0.703664
-0.0033940254 0.0095032752 0.70390278
-0.00067828828 0.009496063 0.70377803
-0.0013595702 0.0088371933 0.70413941
-0.0068400307 -0.012312025 0.7051577
-0.017180026 -0.0061847866 0.70592976
-0.014403078 -0.0048010051 0.70560616
-0.013712399 -0.004113704 0.70554805
-0.0089529483 0.013085067 0.70628887
-0.0093496116 -0.013504952 0.70722336
-0.012525911 -0.013569683 0.70802593
-0.017460506 -0.0024438649 0.70863831
-0.015388344 0.00034993887 0.70889181
-0.011850317 0.01324448 0.70831412
-0.012643681 -0.011238843 0.70960557
-0.014207592 0.0056830645 0.71152556
-0.01494186 0.0092497468 0.71180016
-0.014228653 0.011382937 0.71177983
-0.0028518967 -0.018537343 0.71215194
-0.00071595341 -0.015750945 0.71287119
-0.013583244 0.0085789263 0.71261871
-0.005025689 -0.017589599 0.71335459
-0.011506805 0.0075511038 0.71364903
-0.016514568 0.011488408 0.71337128
-0.0028878171 -0.01660493 0.71431994
-0.019891428 -0.00073671341 0.7178846
-0.022238513 -0.0044476688 0.71898645
-0.021387905 -0.0022125244 0.71807641
-0.023071641 -0.0037212372 0.71970177
-0.015689801 -0.014195532 0.72039872
-0.023247112 -0.0067491829 0.72106826
-0.021332281 -0.013713539 0.72395575
-0.025871603 -0.0030437112 0.72372937
-0.022028362 0.0075959861 0.7234081
-0.027504651 -0.005348146 0.72447509
-0.022303944 -0.011536509 0.72570229
-0.022303944 -0.011536509 0.72570229
-0.027067736 -0.011600465 0.7267313
-0.024389202 0.0054198354 0.72694767
-0.024848966 -0.014754057 0.72749579
-0.022548098 -0.0085527003 0.72773486
-0.024072221 0.0015530884 0.72749406
-0.031311862 -0.0086107254 0.72900856
-0.027499853 0.0047142506 0.72971195
0.011841184 -0.023682386 0.73060578
0.011444844 -0.022495329 0.73058021
-0.030830223 -0.012648284 0.73087287
-0.028531369 0.0039626956 0.73136038
0.012749294 -0.025498569 0.73239678
0.015152821 -0.023526549 0.7325623
-0.031148264 -0.015174776 0.73284155
0.01041344 -0.023229957 0.73341143
-0.016434722 -0.019239902 0.7335636
-0.015201421 -0.018401712 0.73317987
-0.035245974 -0.010413557 0.73341417
-0.034501087 -0 0.73372936
-0.034501087 -0 0.73372936
0.010458623 -0.025744289 0.73425061
0.0084508471 -0.022535473 0.73433018
-0.037052907 -0.0064439476 0.73448914
-0.037052907 -0.0064439476 0.73448914
-0.031353511 -0.0016078949 0.73411214
-0.029966673 0.0016198158 0.73555434
-0.024389511 -0.020324588 0.73629642
-0.035876881 -0.01549226 0.73687577
-0.039233062 -0.010625631 0.73735183
0.0073823165 -0.027068496 0.73805243
-0.036209628 -0.01728183 0.73870152
-0.037011713 -0.01644963 0.73858958
-0.040259331 -0.010681033 0.73838115
0.0049542915 -0.024771452 0.73936999
-0.030638102 0.0082806051 0.73993534
-0.042401671 -0.011639655 0.74074376
-0.042252649 -0.0082848072 0.74003828
-0.038148981 0.0024879873 0.74024171
0.00083899766 -0.025169909 0.74257672
-0.044463657 -0.0067114532 0.742562
0.00084291352 -0.024444461 0.74352205
-0.040379915 -0.018507451 0.74312007
-0.041198425 -0.017656475 0.74300802
-0.044684175 -0.013489544 0.74356651
-0.044585943 -0.0050474405 0.74311906
-0.047957022 -0.013702005 0.74677205
-0.047151547 -0.0034292042 0.74699545
-0.047355548 -0.017220169 0.74789095
-0.050089005 -0.0086360574 0.7485171
-0.0501411 -0.0077804923 0.74873394
-0.041835401 -0.023532391 0.75044054
-0.052399661 -0.011353225 0.75086468
-0.04633458 -0.02185595 0.75108439
-0.053604964 -0.010545194 0.75217855
-0.051108249 -0.0026435256 0.75275964
-0.051523495 -0.021320015 0.75448811
-0.054984905 -0.015076488 0.75413007
-0.051437229 -0.0017736852 0.75412905
0.028079942 0.0084769726 0.66793227
0.018526254 0.002953466 0.66966516
0.030441944 0.0042725801 0.66896045
0.020971954 0.0068391301 0.67168128
0.022673625 0.0086382832 0.67036104
0.022992855 0.00071446749 0.67282104
0.018923013 0.012890073 0.67244035
0.014337214 0.0038181297 0.67489862
0.030588133 -0.0090400521 0.67727971
0.030588133 -0.0090400521 0.67727971
0.034966782 -0.0045300797 0.67673236
0.017562017 0.019545332 0.67679399
0.03159656 0.025954336 0.67624056
0.009105782 -0.0010957301 0.67918575
0.010496294 -0.0015268922 0.67824715
0.020069569 -0.0017202199 0.6784597
0.013489364 -0.0076244175 0.68161696
0.015133837 0.019036759 0.68131542
0.01238451 0.023251146 0.68054622
0.016507905 -0.0032426715 0.6823591
0.0066508073 0.001257997 0.6827563
0.01723152 0.027037919 0.6834923
0.025032088 -0.0077948645 0.68478251
0.0088066263 -0.0090913577 0.68700331
0.0027253735 -0.0034828708 0.68625897
0.04084263 2.9802322e-08 0.68886709
0.0063712802 0.0053443909 0.68888968
0.047199909 0.0086830193 0.68930894
0.033051997 0.024711825 0.68917364
0.003425153 0.0052933171 0.69035804
0.0086182971 0.0091201514 0.69082755
0.045494758 0.0087030204 0.69129026
0.0075427811 0.015714139 0.69177377
0.044721108 0.018573347 0.69032753
0.0018770435 0.020021826 0.69107753
0.011457683 -0.014003813 0.69369864
0.01147572 -0.011475712 0.69394052
0.044145159 0.0072526783 0.692276
0.044563007 0.012957774 0.6926288
-0.0027883681 0.00021488468 0.69534528
-0.0071882759 2.9802322e-08 0.69778872
0.00021670821 0.015194833 0.69724387
0 0.016167343 0.6961503
0.0079417666 -0.015883505 0.69980073
-0.010600126 -0.0066250861 0.69996834
-0.006302435 -0.013278862 0.70303607
-0.0047357487 0.012816116 0.70259684
-0.008624725 0.015387826 0.70332158
-0.010178139 0.016285062 0.70383942
-0.0084407767 -0.014600019 0.70524377
-0.011372916 0.014474034 0.70642173
-0.015228508 0.0026942641 0.70971268
-0.013041943 0.013303909 0.70908213
-0.009522628 -0.010580644 0.71031821
-0.009522628 -0.010580644 0.71031821
-0.0099234851 0.0099234879 0.71114916
-0.0099234851 0.0099234879 0.71114916
-0.017142123 0.0078568161 0.71246117
-0.020919424 -0.01369229 0.72367036
-0.023181399 -0.0010072788 0.72251338
-0.024513729 -0.0093384683 0.72790092
-0.027433524 -0.0027047843 0.72658855
-0.032255691 -0.008653909 0.72995675
-0.028973192 0.0039688647 0.73165762
0.010391257 -0.023579285 0.73299944
-0.030871589 -0.014786679 0.73298836
-0.030871589 -0.014786679 0.73298836
-0.034797728 -0.010799408 0.73314393
-0.033491168 -0.004784435 0.73253626
-0.030389858 0.0035977215 0.73309743
-0.028887123 -0.019528881 0.73647022
-0.039520703 -0.0012343377 0.7387985
-0.042900093 -0.011141416 0.74112666
-0.037291352 0.0033147633 0.74008983
-0.034234572 0.0066799223 0.7416091
0.0041831904 -0.028445661 0.74200708
-0.04079891 -0.017325779 0.74241436
-0.04079891 -0.017325779 0.74241436
-0.045041248 -0.011155382 0.7432704
-0.046831876 -0.0055342466 0.7455923
-0.031210318 -0.024107352 0.7478832
-0.041044608 -0.021092415 0.74646187
-0.046448499 -0.018063307 0.74768507
-0.04017064 0.0042734742 0.74636626
-0.049323842 -0.0047586411 0.74893403
-0.048628673 -0.020590723 0.75155699
-0.052664042 -0.019029438 0.75370806
-0.048636675 -0.02409479 0.75546932
-0.05435957 -0.0049002767 0.7551651
-0.053281728 -0.00090304017 0.75804758
0.033207502 0.00048391358 0.67056692
0.022160087 -0.0019393069 0.6727072
0.015354066 0.004631754 0.67452329
0.026957825 -0.0062215263 0.67688316
0.037257917 -0.0047789947 0.67842174
0.032948799 0.028199434 0.67896241
0.015474923 -0.0020735143 0.68240309
0.0097427908 0.0065210364 0.68551779
0.0058987644 -0.010102278 0.6899997
-0.0015478587 -0.0023167056 0.69011986
0.042438399 0.0012676963 0.69045198
0.0095107043 0.016557096 0.68936509
0.030748468 0.030266969 0.69059289
0.0047465367 -0.012025759 0.69282901
-0.0046328427 -0.010505974 0.69980574
0.0028860399 -0.016936693 0.70335114
-0.0050336709 0.0030982792 0.70028347
0 0.012954429 0.70041788
-0.0099386973 0.014001243 0.70584458
-0.017141618 0.0024011098 0.70949697
-0.017141618 0.0024011098 0.70949697
-0.0060961917 0.02086252 0.7098006
-0.015695738 0.012128532 0.71226507
-0.018199764 0.0085413605 0.71935457
-0.026255542 -0.0017972231 0.72607851
-0.019840041 0.0038154125 0.72424817
-0.030658772 -0.010667168 0.72929108
0.01016524 -0.025388723 0.73418403
-0.033950839 -0.013893858 0.73413754
-0.022387218 -0.021162093 0.73778081
-0.044640243 -0.013055563 0.74336642
-0.029841479 0.0074603856 0.74014616
-0.04563503 -0.017792577 0.74684995
-0.047316909 -0.010429025 0.74553633
-0.041329738 0.0047880113 0.75009656
-0.055596493 -0.0053802729 0.75651151
