# .PCD v0.7 - Point Cloud Data file format
VERSION 0.7
FIELDS x y z
SIZE 4 4 4
TYPE F F F
COUNT 1 1 1
WIDTH 458
HEIGHT 1
VIEWPOINT 0 0 0 1 0 0 0
POINTS 458
DATA ascii
0.0053706458 0.050597161 0.67650795
0.0025482371 0.051533297 0.6767416
0.0076478398 0.052117944 0.67678976
0.0076759122 0.048613489 0.67729247
0.010462664 0.048697434 0.67779827
0.00057086139 0.049664944 0.67784286
-0.00057089649 0.053379059 0.67785132
-0.00057089649 0.053379059 0.67785132
0.0074708024 0.045686588 0.67876405
0.0082397182 0.045797538 0.67880988
0.011454575 0.048395306 0.6782937
0.013487879 0.04964564 0.67858624
0.002601058 0.044512577 0.67958879
-0.0026024291 0.049439207 0.67962396
0.014436132 0.053124994 0.67943239
-0.0040816236 0.049270809 0.68079495
0.016864773 0.051466614 0.68042189
-0.005237666 0.054413691 0.68052304
0.0011685424 0.042067528 0.68108034
0.014092699 0.044626892 0.68178636
0.01435985 0.045422502 0.68152195
0.01435985 0.045422502 0.68152195
-0.0041116374 0.046696246 0.68183005
-0.0041116374 0.046696246 0.68183005
-0.0058425264 0.054627791 0.68107581
-0.001379156 0.040582687 0.68270767
0.017672857 0.054196775 0.6822449
0.0026719638 0.036517613 0.6833775
0.010423752 0.037524715 0.68382263
-0.0035573468 0.042391524 0.68316138
-0.0044523785 0.043628737 0.68333042
0.018370776 0.04918626 0.68309242
0.018370776 0.04918626 0.68309242
-0.0071220691 0.051338047 0.68330979
-0.0077165891 0.055500284 0.68332857
-0.0065751038 0.046324387 0.68433118
-0.0083896294 0.053633541 0.6846987
0.0045238347 0.03166645 0.68564421
0.0076184422 0.033280402 0.68522918
-0.0024147411 0.034711674 0.68576723
0.010818381 0.035460293 0.6851241
-0.0054322798 0.039534688 0.68574345
-0.0063257795 0.042468928 0.68545675
-0.0075325118 0.046395347 0.68549001
0.020464737 0.054773271 0.68533731
-0.0084452061 0.057910025 0.68565714
-0.0084452061 0.057910025 0.68565714
-0.0048196907 0.059041202 0.68547177
0.0054509165 0.030585408 0.68624341
0.0012095196 0.0314475 0.68602669
0.011564262 0.032866865 0.68696475
-0.0036310889 0.035402909 0.6861285
0.017572347 0.042718604 0.68631232
-0.007869482 0.045703337 0.6861679
0.0042902017 0.026966989 0.68798852
0.00020319002 0.029461831 0.68718541
0.013464348 0.033660918 0.68777847
-0.0073166797 0.040546417 0.68722498
-0.007953912 0.041298971 0.68773586
0.021374024 0.051297665 0.6874575
0.0015347549 0.026705854 0.68824142
0.0015347549 0.026705854 0.68824142
-0.0024659846 0.027742356 0.68886006
0.0075759622 0.027437102 0.68832207
-0.00245337 0.029440492 0.68809873
0.019057753 0.04303363 0.68844247
0.019687308 0.044603556 0.68855405
0.0055856085 0.02358368 0.68985641
0.0080674961 0.02482307 0.6898452
-0.0093122795 0.040663436 0.68990362
0.019245163 0.041594386 0.68990195
-0.0049762679 0.027680278 0.69019693
-0.0099670552 0.043294251 0.69041604
0.012526182 0.026617795 0.69122916
0.017538661 0.035390034 0.69124645
0.017538661 0.035390034 0.69124645
0.0044108708 0.019533843 0.69215024
0.0044108708 0.019533843 0.69215024
0.0025245815 0.022090107 0.69239676
-0.0084168669 0.029457223 0.6924156
0.0044461056 0.016514122 0.69336545
-0.0076100994 0.025366992 0.69312811
0.017151188 0.031443372 0.69338262
-0.010827634 0.036622718 0.69379079
0.0038501346 0.013475507 0.69494224
0.0025557089 0.017570257 0.6942755
0.0014911389 0.019388676 0.69433808
-0.00063970202 0.023029327 0.69446248
-0.010254527 0.029481798 0.69475359
0.00021565669 0.016413083 0.69643819
-0.0077588153 0.018103927 0.69612002
-0.0017268466 0.020286879 0.69633383
-0.0017268466 0.020286879 0.69633383
-0.0058751069 0.015666962 0.69762212
0.012412565 0.015679091 0.69774359
0.012412565 0.015679091 0.69774359
0.015696499 0.021582693 0.69791937
0.00032808987 0.010514334 0.69867402
-0.007539094 0.012455374 0.69828713
-0.0036044568 0.018349573 0.69823825
0.014460422 0.018404186 0.69870901
0.015100753 0.019367889 0.69853103
-0.0013111908 0.063592762 0.69829947
0.0035298034 0.0037502151 0.69980812
0.012585586 0.017884791 0.69994211
0.012585586 0.017884791 0.69994211
-0.0055274218 -0.0077388389 0.70016336
-0.0036559897 -0.0066473186 0.70050591
0.0086407745 -0.0066467226 0.70049149
0.009944275 -0.0056352019 0.70007539
-0.0086246068 -0.0039806068 0.70019126
-0.0086246068 -0.0039806068 0.70019126
-0.013654431 -0.0019981563 0.70082593
-0.0093185399 0.0096511096 0.70071721
-0.0059961369 0.010659814 0.70086873
-0.0057595945 0.011742055 0.70048374
-0.0057595945 0.011742055 0.70048374
-0.0080491127 -0.0093906522 0.70196038
0.0073666922 -0.0073666573 0.70170444
0.006352901 -0.0043466464 0.7014755
0.00044627645 0.0024563174 0.70175397
-0.0073685367 0.0063633174 0.70174491
0.010009491 0.063393444 0.70112509
0.0053393738 0.064405918 0.70115459
-0.012324208 -0.006498456 0.70232028
-0.012324208 -0.006498456 0.70232028
0.0053876624 -0.006398201 0.7026118
0.0053852862 -0.0033657849 0.70254016
0.0023553092 -0.0023550764 0.70247805
0 0.0020159185 0.70225292
0.010419327 0.0053774714 0.70230472
0.010419327 0.0053774714 0.70230472
0.011471246 0.011471272 0.70293087
0.016145656 0.016481429 0.70243752
-0.0094128419 0.020506307 0.70234346
-0.011441568 0.024565458 0.7025094
-0.0060805227 -0.013512224 0.70313233
0.0084750364 -0.013559684 0.70370489
-0.011529271 -0.0084777325 0.7037549
0.0047426112 -0.007452637 0.70359147
-0.0054300162 -0.0013574958 0.70388997
0.0054025142 -0.0013505816 0.70306009
-0.010181638 0.0033939183 0.70389575
-0.0067633954 0.0054107308 0.70330763
-0.0040723528 0.0054298341 0.70388359
-0.0040723528 0.0054298341 0.70388359
-0.011532191 0.02136822 0.70379639
-0.01252703 0.024375781 0.70349228
-0.012857016 0.025375426 0.70339102
-0.0054419618 -0.014625669 0.70425045
0.0047792932 -0.010582969 0.70485675
-0.014966399 -0.0088437796 0.70426154
-0.0013591767 -0.0013591647 0.70409191
-0.0074995267 -0.00068175793 0.70461982
-0.0022737198 -0.00045486292 0.70467734
-0.0027250901 0.0013625622 0.70449853
-0.0027250901 0.0013625622 0.70449853
-0.0068168691 0.003408432 0.70459855
-0.0013737065 -0.017171323 0.70584583
-0.0095984591 -0.015426397 0.70554423
-0.0095984591 -0.015426397 0.70554423
0.0048067942 -0.01304698 0.70580518
0.012355709 0.004461363 0.70574319
-0.011642819 0.017463967 0.70536745
-0.0089567471 -0.018602461 0.70635933
0.0020731902 -0.015894443 0.70686221
0.0020683114 -0.009652108 0.70646966
0.014516835 -0.0034563541 0.70691395
0.012440378 -0.0020734072 0.70687878
-0.013442575 0.018611968 0.70644403
-0.013517073 -0.016637087 0.70738125
0.016345764 -0.0083467811 0.70794928
0.0093648098 -0.0013873577 0.70749307
0.013841143 0.0041523576 0.70710212
-0.011186598 -0.020625576 0.70881748
0.00489261 -0.020619139 0.70876479
0.00489261 -0.020619139 0.70876479
0.010486204 0.00034940243 0.70879769
-0.016384097 0.0020915568 0.70833927
-0.013631064 0.0020971298 0.70878756
-0.01119578 0.0069973767 0.708956
-0.011159284 0.0083694756 0.70840538
-0.015416736 -0.020322055 0.70920336
-0.012617053 -0.019626528 0.70924842
-0.012617053 -0.019626528 0.70924842
-0.0014060051 -0.011599764 0.70974457
-0.0014060051 -0.011599764 0.70974457
-0.0014003353 -0.0098023117 0.70906019
-0.0063603362 -0.026501358 0.71063823
0.0049568079 -0.026200265 0.71097898
0.0063440786 -0.026786089 0.7102021
-0.01132357 -0.025478035 0.71088421
-0.01132357 -0.025478035 0.71088421
-0.015562618 -0.024051309 0.71080422
0.004475574 -0.024499863 0.71064365
-0.013437597 -0.022631735 0.7107681
0.0035320977 -0.022605419 0.7105695
0.01660895 -0.00070673227 0.71065074
-0.0074574547 -0.029477239 0.71150255
-0.002489157 -0.027737856 0.71173024
0.0014213753 -0.021320641 0.71159995
0.015659278 -0.016371071 0.71186495
0.012805368 -0.012093931 0.71177417
0.012805368 -0.012093931 0.71177417
0.014167217 -0.012750477 0.71103817
-0.013480236 0.0035474598 0.71130985
-0.013485578 0.0056781471 0.71137774
-0.01143123 -0.029292524 0.71250868
-0.01143123 -0.029292524 0.71250868
-0.012164542 -0.028622419 0.71277654
0.0085604684 -0.028534889 0.71224809
-0.014260888 -0.025669634 0.71216893
0.017184654 -0.014320523 0.71288896
-0.0093446719 -0.035222203 0.71356344
0.0093673831 -0.030263841 0.71398526
0.00035900788 -0.024451941 0.71364903
0.015104363 -0.020139158 0.71366835
0.015104363 -0.020139158 0.71366835
-0.0086750956 -0.036146194 0.71455419
-0.010823557 -0.034635365 0.71422732
-0.015939362 -0.032603204 0.71493846
-0.013734368 -0.030360132 0.71453893
0.015889995 -0.019501328 0.71439672
0.014448272 0.0014448464 0.71443081
0.015546173 0.0014461875 0.71458942
-0.0079980986 -0.037082046 0.71556216
-0.015981549 -0.033415943 0.71540147
-0.010467933 -0.040409736 0.71633363
-0.0080468962 -0.038771451 0.7166332
0.0054736095 -0.038677305 0.71620464
0.0065950709 -0.038837612 0.7169348
-0.013176581 -0.036601603 0.71675295
-0.013176581 -0.036601603 0.71675295
-0.0043889205 -0.023407578 0.71662128
0.01973553 -0.0054823607 0.71649063
-0.020445904 0.0036510527 0.7163133
-0.01764386 -0.036758006 0.71750832
-0.019524198 0.0073677152 0.7178967
-0.016948503 0.0073689222 0.71792614
-0.011469334 -0.044394836 0.71865594
0.0014757921 -0.037632674 0.71816862
0.012570912 -0.028469712 0.71854752
0.010328615 -0.026559293 0.71813536
-0.017387994 -0.007399112 0.71865535
-0.016967718 -0.0014754534 0.71812773
-0.014151656 -0.042454958 0.71984118
0.0022307136 -0.042383522 0.71953869
-0.018558305 -0.039343596 0.71923959
-0.0014900633 -0.036506504 0.71989131
-0.0014900633 -0.036506504 0.71989131
-0.018618446 -0.0022341907 0.71982038
0.017490551 0.0037213415 0.71970654
-0.011954084 -0.047816336 0.72039795
0.0022410119 -0.044447064 0.72036743
-0.017553352 -0.043323219 0.72035491
-0.0074953157 -0.041224241 0.72097766
-0.0074645611 -0.039562166 0.72023523
0.013491044 -0.034477085 0.72097063
0.003766981 -0.050477535 0.72191072
0.0007513403 -0.044329047 0.72141433
-0.004507063 -0.042441919 0.72137499
-0.0063750762 -0.038250759 0.72109449
-0.0033796723 -0.038302436 0.72133905
0.012795682 -0.036505729 0.72173953
-0.0060255229 -0.033140332 0.721861
0.010530468 -0.032343566 0.72161615
-0.020269182 -0.022521287 0.72126228
-0.020269182 -0.022521287 0.72126228
-0.021833625 -0.0075288117 0.72178698
-0.020264365 -0.0022515953 0.72121924
-0.014350808 -0.048339546 0.7223717
-0.015130848 -0.047662169 0.72267026
-0.0053007598 -0.045435041 0.72284138
-0.018514577 -0.020403981 0.72246766
0.0045594862 -0.052434087 0.72348434
-0.0038065983 -0.051769733 0.72382361
-0.0197514 -0.047479689 0.72342515
-0.0075793853 -0.045476317 0.72300732
0.011404651 -0.038775802 0.72357982
0.009894901 -0.036535025 0.7237817
-0.023517126 2.9802322e-08 0.72317111
0.017597876 -0.022188604 0.72474229
0.017597876 -0.022188604 0.72474229
-0.02063602 -0.019107431 0.72454238
0.011546286 -0.044645637 0.7258594
-0.020768868 -0.018461227 0.72573024
0.010017611 -0.042382181 0.72606051
-0.020826684 -0.013884425 0.72624725
-0.0077583664 -0.05353272 0.7273283
0 -0.052919239 0.72790474
0.0093349125 -0.045508042 0.72782874
-0.02092283 -0.01627332 0.72710693
-0.023290699 -0.011645317 0.72745383
-0.024164347 -0.011692435 0.72821152
-0.0093989791 -0.056393862 0.72911763
-0.0093989791 -0.056393862 0.72911763
-0.0023563204 -0.056551665 0.7296468
0.012542999 -0.048604131 0.72928399
-0.013386918 -0.055910081 0.7301358
-0.013386918 -0.055910081 0.7301358
-0.021258397 -0.033462256 0.73010743
-0.021367822 -0.043527037 0.73108578
-0.021421101 -0.02618134 0.7315622
-0.020582234 -0.026915193 0.73113978
0.015915595 -0.037401646 0.73214304
-0.025572833 -0.020777911 0.73295683
-0.024107598 -0.043393672 0.73402774
-0.022556767 -0.041085511 0.73451352
-0.023377866 -0.029826909 0.73464251
-0.023468684 -0.031561315 0.73539859
-0.02447564 -0.033450037 0.7369895
-0.025459351 -0.039420933 0.73829669
-0.024620043 -0.036109358 0.73815155
-0.027413024 -0.036550701 0.74057299
0.0089135505 0.049345396 0.67713439
0.0031318511 0.039686933 0.68179524
0.00095266371 0.040991023 0.68165302
0.0069349008 0.041169893 0.68101209
-0.0064599877 0.053294525 0.68180472
0.013927428 0.053968787 0.68012387
-0.003029132 0.041141719 0.68335581
0.012907981 0.041041959 0.68311024
0.001610152 0.031799667 0.68579376
0.0010823974 0.033039514 0.68532008
0.01465855 0.03917928 0.68545377
0.017150877 0.044770837 0.68446243
-0.0075958557 0.048867896 0.68478453
0.0047959415 0.027347799 0.68783945
0.012924816 0.034780253 0.68673992
-0.0090896804 0.053022414 0.6863209
-0.0088443477 0.058856398 0.6872716
-0.0088443477 0.058856398 0.6872716
0.0029472765 0.023267835 0.68982267
0.012609555 0.029249385 0.68974018
-0.0064862464 0.027041925 0.69155824
-0.0089326045 0.034951568 0.69115657
0.013874636 0.026802883 0.69228083
0.018369131 0.035152048 0.69294548
0.019643217 0.038966306 0.69300193
0.0045193993 0.011621296 0.69589329
0.0030797457 0.014825078 0.69497198
-0.0069393883 0.019144315 0.69512951
0.00085357187 0.019137926 0.69490182
0 0.022360027 0.69425863
0.015189089 0.024920925 0.69495773
0.015189089 0.024920925 0.69495773
0.016117712 0.025788337 0.69567114
0.016281832 0.026885614 0.69518185
0.017595338 0.031031333 0.69449079
-0.0084953848 0.015356779 0.69779146
0.016590143 0.024916187 0.69708467
-0.011700533 0.031038471 0.6969558
0 0.012444973 0.69815505
-0.0085164737 0.014412522 0.69818312
0.013024064 0.014995778 0.69881177
-0.0048118844 0.016733631 0.69845331
0.012928145 0.020927062 0.69873846
0.018471472 0.027707219 0.69928932
0.019689037 0.033471376 0.69846988
0.013216997 0.063115045 0.69957817
0.00083365338 -0.0066640079 0.70090854
-0.0011604496 -0.0059685633 0.70012933
0.0048257173 0.00094783929 0.70163167
0.0011539799 0.0028897782 0.70106709
-0.006747839 0.0089995489 0.70096922
0.0099710021 0.013959438 0.70050561
0.0029978359 0.063949525 0.7008453
0 0.0020159185 0.70225292
-0.0091778897 0.0046302713 0.70263702
-0.0048844186 0.0070571518 0.70359266
0.0089709423 0.0089723375 0.70349491
0.014416121 0.011148989 0.70315802
0.0043729078 -0.0090877041 0.70456576
-0.0041156216 0.00085705519 0.70562458
-0.010207588 0.0023814887 0.7043134
0.014408196 0.0075471401 0.70566511
0.014408196 0.0075471401 0.70566511
0.0050180443 -0.016962361 0.7071678
-0.0027705417 -0.014769107 0.70717287
-0.011237896 0.012802325 0.70679313
-0.014774377 -0.0225133 0.70987475
-0.011570683 -0.019071041 0.70846546
0.00034823973 -0.014630914 0.70822573
0.00065832993 -0.013055988 0.7086314
-0.012666316 0.0077405274 0.7099092
0.005102267 -0.026863316 0.71114069
0.005102267 -0.026863316 0.71114069
-0.011805797 0.005109936 0.71018255
0.0051466711 -0.032563098 0.71343803
0.0051466711 -0.032563098 0.71343803
-0.0070269885 -0.030967524 0.71255243
0.013100543 -0.016960353 0.71333534
0.0149865 -0.017310621 0.7126503
0.016463943 0.0064424276 0.7128399
0.020602208 -0.0031424265 0.71505791
-0.017008195 0.005789727 0.71474475
-0.0095700901 -0.04269734 0.71774971
-0.0095700901 -0.04269734 0.71774971
-0.017208815 -0.0084200352 0.7168169
-0.016196772 -0.0022086203 0.71776319
-0.022061011 0.0049626455 0.71755809
-0.01478758 -0.040933147 0.71951842
-0.015128331 -0.037636295 0.71818566
-0.001231379 -0.033244759 0.71837986
-0.001231379 -0.033244759 0.71837986
0.0060298364 -0.048238695 0.72199118
0 -0.039513737 0.72001481
-0.020558827 -0.0026326976 0.72160643
-0.018824082 -0.019775227 0.7236464
0.018558163 -0.019127633 0.72289914
-0.0022880095 -0.051098853 0.72414958
-0.0069893673 -0.048162162 0.72409964
-0.010111704 -0.05366978 0.72780794
0.011141196 -0.046893865 0.7271508
0.0090688784 -0.044698611 0.7276963
0.010215606 -0.042982958 0.72615868
0.013131054 -0.04325524 0.72650224
-0.021121634 -0.016925756 0.72695297
-0.021365261 -0.013256848 0.72645712
-0.0031404318 -0.056794807 0.72958326
-0.021410346 -0.039054714 0.73146605
-0.021502895 -0.027874112 0.73229355
-0.023423325 -0.035235927 0.73671097
-0.023423325 -0.035235927 0.73671097
-0.024968265 -0.031345747 0.73658192
-0.027107785 -0.031215012 0.73833984
-0.0069633871 0.045495659 0.68512768
-0.0069633871 0.045495659 0.68512768
0.019741522 0.04929664 0.68518043
0.012746389 0.026432265 0.69151884
0.0030345889 0.014798926 0.6950165
0.0092670182 -0.0056264102 0.69982874
0.0025659944 0.0064238207 0.69884521
0.0059428676 0.0097441431 0.6973049
0.0059428676 0.0097441431 0.6973049
-0.0084387772 0.018010776 0.69674021
0.009031768 -0.013063009 0.7037257
-0.013648453 -0.0056535527 0.70216727
0.0055419384 -0.013949094 0.7056188
0.016345764 -0.0083467811 0.70794928
0.017581195 -0.002990169 0.70672321
-0.0025171672 0.0011633809 0.70441335
-0.010733485 0.010023386 0.70742196
-0.00226614 -0.028626122 0.71172547
0.0023745808 -0.021615595 0.71101898
-0.017325344 -0.02996528 0.71458656
-0.0021305331 -0.02602951 0.71433944
0.0045594862 -0.052434087 0.72348434
0.0014332955 -0.04593756 0.72156495
-0.005943324 -0.037673339 0.72159874
0.010709818 -0.037453439 0.72355497
0.013548263 -0.034085568 0.72145969
-0.020875229 -0.019736603 0.72328794
0.011272404 -0.048199907 0.72771013
-0.016540755 -0.051985204 0.73018146
0.016761201 -0.033875801 0.73020458
-0.019806374 -0.030006301 0.73129201
-0.026261719 -0.030551506 0.73736501
