# .PCD v0.7 - Point Cloud Data file format
VERSION 0.7
FIELDS x y z
SIZE 4 4 4
TYPE F F F
COUNT 1 1 1
WIDTH 1375
HEIGHT 1
VIEWPOINT 0 0 0 1 0 0 0
POINTS 1375
DATA ascii
0.018608022 -0 0.69493419
0.019854067 -0.00068461895 0.70530736
0.019896483 -0.0013721585 0.70566046
0.016544072 0.041911662 0.67316115
0.016364552 0.040911406 0.67171651
0.016259035 0.040105611 0.67086738
0.016182406 0.039377183 0.67025071
0.016119994 0.038688004 0.66974843
0.016076041 0.038046628 0.66939473
0.016036076 0.037417531 0.6690731
0.016006527 0.036815017 0.66883534
0.015979292 0.036219746 0.66861618
0.015960794 0.035645753 0.66846734
0.015942292 0.035073042 0.66831839
0.015930986 0.034517139 0.66822743
0.015921205 0.03396526 0.66814876
0.015912991 0.033417314 0.66808259
0.015910415 0.032881558 0.66806191
0.015907843 0.032345951 0.66804123
0.015908133 0.031816274 0.66804349
0.015911825 0.031293243 0.66807324
0.015915517 0.030770034 0.66810298
0.015921643 0.030251086 0.66815221
0.015930889 0.029737711 0.66822666
0.015940147 0.029223591 0.66830117
0.015950732 0.028711319 0.66838634
0.01596495 0.028204739 0.66850072
0.015979292 0.027697414 0.66861618
0.015993658 0.027189255 0.66873175
0.016012378 0.026687324 0.66888243
0.016031489 0.026184767 0.66903627
0.016050594 0.025680959 0.66918999
0.016072074 0.025179595 0.66936284
0.0160957 0.024680108 0.66955292
0.016119445 0.02417919 0.66974401
0.016143261 0.023676783 0.6699357
0.016171359 0.023178965 0.67016178
0.016199607 0.022679448 0.67038912
0.016228003 0.022178292 0.6706177
0.016258325 0.021677762 0.67086166
0.01629105 0.021178395 0.67112505
0.016324012 0.02067709 0.67139024
0.01635726 0.020173967 0.6716578
0.016393531 0.019672245 0.67194968
0.016431 0.019169539 0.67225122
0.016468693 0.018664539 0.67255461
0.016508648 0.018159509 0.67287606
0.016550902 0.0176543 0.6732161
0.016593741 0.017146885 0.67356086
0.016638769 0.016638786 0.67392325
0.016683988 0.016127884 0.67428708
0.016731225 0.015615821 0.67466724
0.01677938 0.015101463 0.67505479
0.016830312 0.01458627 0.67546469
0.016883412 0.014069557 0.675892
0.01693707 0.013549685 0.67632377
0.016994227 0.01302889 0.67678374
0.017053111 0.012505621 0.6772576
0.017112572 0.011978775 0.67773616
0.017174883 0.011449933 0.67823756
0.017240556 0.010919034 0.67876601
0.017306849 0.010384113 0.67929953
0.017376319 0.0098465979 0.67985857
0.017449737 0.0093065798 0.68044937
0.017523834 0.0087619126 0.68104565
0.017602606 0.0082145631 0.68167961
0.01768497 0.0076634884 0.68234241
0.017768107 0.0071072578 0.68301147
0.017859617 0.0065485537 0.68374783
0.017952692 0.0059842467 0.68449688
0.018051367 0.0054154396 0.68529093
0.018155938 0.0048415959 0.68613249
0.018263776 0.0042615533 0.68700027
0.018524859 0.0037049949 0.68910128
0.01858126 0.0030968487 0.68955523
0.018646471 0.0024861991 0.69007999
0.018802872 0.0018802881 0.6913386
0.018971164 0.001264751 0.69269294
0.019142145 0.00063806772 0.69406885
0.02017583 -0 0.70238733
0.020416319 -0.00068053603 0.70432264
0.016940782 0.042078704 0.67195594
0.016789375 0.04116109 0.67077678
0.016693415 0.040387273 0.67002952
0.016623238 0.039681315 0.66948295
0.016564852 0.039007545 0.66902828
0.016519936 0.038368881 0.66867852
0.016482826 0.037750989 0.66838944
0.016452564 0.037150979 0.66815376
0.016427422 0.036564261 0.66795802
0.016408455 0.035992771 0.66781026
0.016390279 0.035424143 0.66766876
0.016380109 0.034873784 0.66758955
0.016370101 0.034324437 0.66751158
0.016363436 0.033782601 0.66745973
0.016360803 0.033249408 0.66743922
0.016358219 0.032716483 0.66741908
0.016359808 0.032191932 0.66743141
0.016363585 0.031671464 0.66746092
0.016367365 0.031150818 0.6674903
0.01637473 0.030636609 0.66754764
0.016384196 0.030125767 0.66762137
0.016393671 0.029614389 0.66769511
0.016405355 0.029106259 0.66778618
0.01642001 0.02860263 0.66790026
0.016434692 0.028098017 0.66801459
0.0164499 0.027593404 0.66813308
0.016469369 0.027094781 0.66828471
0.016488882 0.026594996 0.66843665
0.016508492 0.026094079 0.66858935
0.016531091 0.025596529 0.66876543
0.01655533 0.025100023 0.66895413
0.016579589 0.024601996 0.66914302
0.016604533 0.024103373 0.66933727
0.016633352 0.023608655 0.66956174
0.016662221 0.023112118 0.66978657
0.016691346 0.022614121 0.67001343
0.016722908 0.022117406 0.67025918
0.016756414 0.021621168 0.67052013
0.016790109 0.021123052 0.67078251
0.016824147 0.020623118 0.67104763
0.016861755 0.020125329 0.67134053
0.016900117 0.019625932 0.67163926
0.016938757 0.019124448 0.67194015
0.016979931 0.018623173 0.67226088
0.017023189 0.018121481 0.67259765
0.017067101 0.017617673 0.67293972
0.017113142 0.017113119 0.67329824
0.017159486 0.016606003 0.67365915
0.017208118 0.016097933 0.67403787
0.017257467 0.015587389 0.6744222
0.017309772 0.01507625 0.67482954
0.017364128 0.014563501 0.67525285
0.017419109 0.014047682 0.67568099
0.017477673 0.013531089 0.67613709
0.017537942 0.013012022 0.67660654
0.01759886 0.012489527 0.67708087
0.017662693 0.011965066 0.67757803
0.017729908 0.011438668 0.67810142
0.017797697 0.010908276 0.6786294
0.01786885 0.01037547 0.67918354
0.017943982 0.0098402798 0.67976868
0.01801981 0.0093005598 0.68035918
0.018100355 0.0087582469 0.6809864
0.018184632 0.0082124472 0.68164277
0.018269697 0.0076615214 0.68230522
0.018363133 0.0071083307 0.68303287
0.01845829 0.0065497756 0.68377393
0.018558916 0.0059867203 0.68455762
0.01866588 0.0054191351 0.68539059
0.018775919 0.0048454106 0.68624759
0.018895477 0.0042667389 0.68717873
0.019041244 0.0036854148 0.68831384
0.019170357 0.0030919909 0.68931937
0.019324226 0.0024934411 0.69051766
0.019495886 0.0018866956 0.69185454
0.019670624 0.0012690723 0.69321537
0.019888543 0.0006415844 0.69491243
0.020665644 -0 0.70096433
0.021042792 -0.00067874789 0.70390153
0.017654182 0.04358381 0.67321527
0.017392943 0.042395324 0.67124438
0.017259195 0.041529953 0.67023534
0.017163234 0.040762693 0.66951138
0.017090056 0.040054798 0.66895926
0.017027976 0.039377242 0.66849089
0.016977847 0.038730741 0.66811275
0.016935904 0.038105816 0.66779631
0.016899711 0.037496269 0.66752321
0.01687094 0.036905199 0.66730618
0.016851559 0.036336184 0.66715991
0.016835077 0.035774559 0.66703558
0.016824836 0.035227031 0.66695833
0.016814558 0.034680009 0.66688085
0.016809525 0.034144372 0.66684282
0.016806832 0.033613682 0.66682255
0.01680419 0.03308326 0.66680259
0.016807137 0.032563865 0.66682482
0.016811049 0.03204608 0.66685432
0.016814914 0.031527996 0.66688347
0.016823564 0.031018436 0.66694874
0.016833242 0.030510277 0.66702175
0.016842932 0.030001462 0.66709483
0.016855851 0.029497772 0.66719234
0.016870787 0.028996676 0.66730499
0.0168858 0.028494805 0.66741824
0.016902177 0.027994215 0.66754186
0.016922086 0.027498394 0.66769207
0.016942045 0.027001411 0.66784263
0.0169621 0.026503295 0.6679939
0.01698594 0.026009738 0.66817379
0.017010678 0.025516003 0.66836047
0.017035542 0.025020987 0.66854799
0.017061628 0.024526089 0.6687448
0.017091107 0.024034411 0.66896725
0.017120633 0.023540854 0.66918999
0.017150369 0.023045838 0.66941428
0.017183181 0.022552937 0.66966182
0.01721745 0.022059858 0.66992038
0.017251913 0.021564901 0.67018032
0.017286941 0.021068424 0.67044467
0.017325675 0.020574212 0.67073691
0.01736491 0.020078182 0.67103285
0.017404485 0.019580066 0.67133147
0.017446924 0.019082606 0.6716516
0.017491166 0.018584371 0.67198539
0.01753602 0.018084049 0.67232382
0.017583162 0.017583191 0.67267942
0.017630724 0.017079771 0.6730383
0.01768057 0.016575545 0.67341435
0.017731039 0.016068757 0.6737951
0.017784754 0.01556167 0.67420036
0.017840341 0.015052795 0.67461973
0.017896565 0.01454097 0.67504394
0.017956564 0.014028609 0.67549652
0.018018195 0.013513654 0.67596155
0.018080484 0.012995362 0.67643148
0.018145813 0.012475252 0.67692435
0.018214596 0.011953354 0.67744327
0.018283905 0.011427462 0.67796618
0.018356651 0.010899276 0.67851496
0.018433524 0.010368884 0.67909491
0.018510981 0.0098339915 0.67967927
0.018593255 0.0092966557 0.6803
0.018679405 0.0087559819 0.68094999
0.018766355 0.0082103014 0.68160594
0.018861666 0.0076625645 0.68232501
0.018958919 0.0071096122 0.68305874
0.019061362 0.0065523684 0.68383163
0.019170668 0.0059908628 0.68465626
0.01928284 0.0054233372 0.68550253
0.019404525 0.0048511624 0.68642056
0.019535098 0.004273355 0.68740571
0.019675374 0.0036891699 0.68846393
0.019839531 0.0030999482 0.68970245
0.020014806 0.0025018454 0.69102484
0.020193204 0.0018931329 0.69237071
0.020411542 0.001275748 0.69401795
0.020691406 0.00064662099 0.69612932
0.021228909 -0 0.70018452
0.018125011 0.043939412 0.67262363
0.01791187 0.042879969 0.67106438
0.01777895 0.042023003 0.67009199
0.017678736 0.041250408 0.66935885
0.017594643 0.040520996 0.66874361
0.017522104 0.039822996 0.66821295
0.017463768 0.039161146 0.66778618
0.017411051 0.038515359 0.66740048
0.017366538 0.037890643 0.66707486
0.017331941 0.037289917 0.66682178
0.017306983 0.036711782 0.66663921
0.0172846 0.036140531 0.66647542
0.017268306 0.035583168 0.66635621
0.01725469 0.035032243 0.66625661
0.017251315 0.034502625 0.66623193
0.017248616 0.033974528 0.66621214
0.017246332 0.033447415 0.66619545
0.017250277 0.032932341 0.6662243
0.017254274 0.032417119 0.66625357
0.017258378 0.031901866 0.66628361
0.017268201 0.031396747 0.66635543
0.017278088 0.03089112 0.66642779
0.017287988 0.030384928 0.66650021
0.017302128 0.02988553 0.66660362
0.017317438 0.029387146 0.66671568
0.017332779 0.028887987 0.66682786
0.017350299 0.028391451 0.66695607
0.017370643 0.027898341 0.66710484
0.017391033 0.02740407 0.66725403
0.017411526 0.026908726 0.667404
0.017436573 0.026419073 0.66758722
0.017461853 0.025928229 0.66777211
0.017487258 0.025436014 0.66795802
0.017514557 0.024944991 0.66815776
0.017544625 0.024456143 0.66837776
0.01757485 0.023965716 0.66859877
0.017605232 0.02347368 0.66882104
0.017639248 0.022984475 0.66906995
0.017674267 0.022494555 0.66932613
0.017709535 0.022002786 0.66958416
0.017745603 0.021509826 0.66984802
0.017785404 0.021019101 0.67013919
0.017825494 0.02052632 0.67043251
0.017865933 0.020031512 0.67072833
0.017909575 0.019537747 0.67104757
0.017954782 0.019042969 0.67137831
0.01800067 0.018546164 0.67171401
0.01804878 0.018048793 0.67206597
0.018097721 0.017549306 0.67242402
0.018148649 0.017048746 0.67279661
0.018200271 0.016545713 0.67317432
0.018255325 0.01604259 0.67357707
0.018312117 0.01553756 0.67399251
0.018369557 0.015029639 0.67441273
0.018430972 0.01452139 0.67486203
0.018493934 0.014010578 0.67532265
0.018557627 0.013496488 0.67578864
0.018624423 0.01298067 0.67627728
0.018694626 0.012463093 0.67679083
0.018765545 0.011941731 0.67730969
0.018839788 0.011418045 0.67785287
0.018918302 0.010892391 0.67842722
0.018997476 0.010362297 0.67900646
0.019081378 0.0098297894 0.67962033
0.019169359 0.0092942715 0.68026388
0.019258153 0.0087537169 0.68091357
0.019355219 0.0082113445 0.68162364
0.019454524 0.0076639056 0.68235016
0.019558789 0.0071122944 0.68311292
0.019670384 0.0065568089 0.68392932
0.019784557 0.0059953034 0.68476456
0.0199087 0.0054296851 0.68567276
0.020041415 0.0048585236 0.68664372
0.020184079 0.004281491 0.6876874
0.020349354 0.0036998987 0.68889654
0.020528156 0.0031103492 0.69020462
0.020710129 0.0025103092 0.69153589
0.020928461 0.0019025803 0.69313323
0.021207778 0.0012853146 0.6951766
0.021645511 0.00065597892 0.69837892
0.018735856 0.044635415 0.67306113
0.01847844 0.043478668 0.6712333
0.01833044 0.042591333 0.67018241
0.018220749 0.041800559 0.66940355
0.018125478 0.041048884 0.66872704
0.018045686 0.040337414 0.6681605
0.017975669 0.039652258 0.66766334
0.017915154 0.038991809 0.66723365
0.017869413 0.038366705 0.6669088
0.017823959 0.03774488 0.6665861
0.017786926 0.03714329 0.66632313
0.017752821 0.036549956 0.66608089
0.017725065 0.035971493 0.66588384
0.017709495 0.035419017 0.66577327
0.017698778 0.034877032 0.66569716
0.017689925 0.034339309 0.66563433
0.017685212 0.03380996 0.6656009
0.017689237 0.03329742 0.66562945
0.017693317 0.0327847 0.66565841
0.017698618 0.032273948 0.66569602
0.017708698 0.031771511 0.66576767
0.017718792 0.031268477 0.66583931
0.017728897 0.030764848 0.66591108
0.01774434 0.030269772 0.66602075
0.017759971 0.0297741 0.66613173
0.017775631 0.029277533 0.66624296
0.01779432 0.028784961 0.66637558
0.017815089 0.028294593 0.6665231
0.01783596 0.027803153 0.66667128
0.017857365 0.027311265 0.66682327
0.0178831 0.026824683 0.66700596
0.017908962 0.0263367 0.66718966
0.017934844 0.025847256 0.66737342
0.017963368 0.025360048 0.66757596
0.017994067 0.024874151 0.66779393
0.018024925 0.024386674 0.6680131
0.018055946 0.023897588 0.66823334
0.018091226 0.023412168 0.66848379
0.018126979 0.022925317 0.66873771
0.01816293 0.022436589 0.668993
0.018200144 0.021947235 0.66925722
0.018240891 0.021459907 0.66954654
0.018281821 0.020970315 0.66983718
0.018323163 0.020478845 0.67013073
0.01836806 0.019988805 0.6704495
0.018414211 0.019497424 0.6707772
0.018461056 0.019004047 0.67110986
0.01851017 0.018510222 0.6714586
0.018560363 0.018014491 0.67181504
0.018612413 0.017517596 0.67218459
0.018665168 0.017018259 0.67255914
0.018721545 0.01651901 0.67295951
0.018779576 0.016017854 0.67337155
0.018838149 0.015513808 0.67378742
0.018900895 0.015009552 0.67423302
0.01896522 0.014502823 0.67468977
0.01903023 0.013992846 0.67515135
0.019098528 0.013481349 0.67563635
0.019170178 0.012968093 0.67614508
0.019242555 0.012451082 0.67665899
0.019318325 0.011931926 0.67719698
0.019398451 0.011410862 0.67776591
0.019479245 0.010885477 0.6783396
0.019564794 0.010357827 0.67894709
0.019654566 0.009827286 0.6795845
0.019745165 0.0092918575 0.68022782
0.019843999 0.0087547004 0.68092966
0.01994531 0.008212775 0.68164897
0.020051336 0.0076666772 0.68240184
0.02016517 0.0071170926 0.68321013
0.020281276 0.0065616071 0.68403459
0.020407751 0.0060022771 0.68493259
0.020542525 0.0054377317 0.6858896
0.020687493 0.0048676431 0.68691897
0.020853717 0.0042934418 0.68809927
0.021035962 0.0037122071 0.68939328
0.02122142 0.0031208098 0.69071019
0.021440562 0.002522409 0.69226623
0.02171932 0.0019164085 0.69424558
0.022131816 0.0013018847 0.69717455
0.019464528 0.04560262 0.67428631
0.019105716 0.044216126 0.67181128
0.018936383 0.043283165 0.67064327
0.018803926 0.042443156 0.66972959
0.018698169 0.041670233 0.66900009
0.018605771 0.040932715 0.66836274
0.018524546 0.040224731 0.66780251
0.018457016 0.039550751 0.6673367
0.01839504 0.038892418 0.66690922
0.018340169 0.038252383 0.66653067
0.018289309 0.037623733 0.66617984
0.018246448 0.037014246 0.66588426
0.018215401 0.036430806 0.6656701
0.018188212 0.035856754 0.66548258
0.018164523 0.035291106 0.66531914
0.01814317 0.034731239 0.66517186
0.018136838 0.034200937 0.66512817
0.018134026 0.033677518 0.66510874
0.018131159 0.03315416 0.66508901
0.018134836 0.032642722 0.66511434
0.01814512 0.032142788 0.66518533
0.018155413 0.031642318 0.66525632
0.018166531 0.031142652 0.66533297
0.018182447 0.030650407 0.66544282
0.018198391 0.030157357 0.66555274
0.018214364 0.029663414 0.66566294
0.018234299 0.029174864 0.66580045
0.018255485 0.028687179 0.6659466
0.018276775 0.02819851 0.66609341
0.018299326 0.027710438 0.66624898
0.018325632 0.027226686 0.66643047
0.018351959 0.026741445 0.66661203
0.018378416 0.026254892 0.66679454
0.018408071 0.02577129 0.6669991
0.018439442 0.025288433 0.66721547
0.018470865 0.024803758 0.66743219
0.018502733 0.02431789 0.66765207
0.018539062 0.023835957 0.66790259
0.018575534 0.023352116 0.66815424
0.018612264 0.022866517 0.66840756
0.018650683 0.022380829 0.66867256
0.018692249 0.021896631 0.66895926
0.018734001 0.021410286 0.66924727
0.018776288 0.020922154 0.66953892
0.018822318 0.020435661 0.66985649
0.018869454 0.019947708 0.67018163
0.018917179 0.019457698 0.67051077
0.018967275 0.018967301 0.67085636
0.019018829 0.018475473 0.67121196
0.019071918 0.017982125 0.67157817
0.019125788 0.017486453 0.67194974
0.01918353 0.016991138 0.67234802
0.019242659 0.016493708 0.67275584
0.019302459 0.015993476 0.67316836
0.019366518 0.015493214 0.67361021
0.01943212 0.014990509 0.67406273
0.019498419 0.014484555 0.67452002
0.019568132 0.013977259 0.67500091
0.019641262 0.013468325 0.67550534
0.019715069 0.012955606 0.67601442
0.019792395 0.01244095 0.67654783
0.019874033 0.011924416 0.67711091
0.019956412 0.01140365 0.67767918
0.020043638 0.010880828 0.67828083
0.020135095 0.010355234 0.67891163
0.020227458 0.0098247826 0.67954874
0.020327942 0.0092927814 0.68024188
0.020431215 0.0087562501 0.68095422
0.020539079 0.008215636 0.68169826
0.020654963 0.007671833 0.68249756
0.020773012 0.0071222186 0.68331188
0.020901754 0.0065691471 0.68419987
0.021038506 0.0060110092 0.68514323
0.021185767 0.0054478049 0.68615896
0.021352634 0.0048806369 0.68730992
0.021538232 0.0043076873 0.68859017
0.021727089 0.0037246346 0.68989289
0.021946896 0.0031352937 0.69140905
0.02222476 0.0025399923 0.69332564
0.02262146 0.0019389987 0.69606203
0.019791823 0.045081407 0.67275167
0.019566264 0.04402411 0.67123902
0.019421719 0.043159395 0.67026967
0.019300297 0.042353421 0.66945541
0.019196395 0.041592211 0.66875863
0.019103227 0.040859699 0.6681338
0.019019285 0.040151834 0.66757095
0.018944051 0.039466798 0.6670664
0.018876985 0.038802743 0.66661662
0.018820805 0.038164437 0.66623986
0.018772393 0.037544817 0.66591519
0.018727651 0.036935091 0.66561514
0.0186882 0.03633818 0.66535062
0.018651975 0.035749644 0.66510767
0.018628975 0.035188109 0.66495347
0.018609742 0.034634829 0.66482443
0.018594692 0.034090281 0.66472352
0.018581875 0.03355062 0.66463757
0.018581655 0.033034086 0.66463608
0.018584913 0.032523602 0.66465789
0.01858817 0.032012969 0.66467977
0.018600387 0.031517327 0.66476172
0.018616609 0.031027675 0.6648705
0.018632859 0.030537188 0.66497946
0.018649139 0.030045837 0.66508865
0.018670293 0.029561341 0.66523051
0.018691886 0.029076278 0.66537535
0.018713586 0.028590232 0.66552085
0.018737357 0.028106034 0.66568029
0.018764114 0.027624965 0.6658597
0.018791005 0.027142555 0.66604006
0.018817917 0.026658714 0.66622055
0.018848825 0.026178926 0.66642779
0.018880801 0.02569887 0.66664225
0.018912829 0.025217116 0.666857
0.018945888 0.024734944 0.66707873
0.018982919 0.024255961 0.66732705
0.019020095 0.023775131 0.66757637
0.019057477 0.023292452 0.66782701
0.019097161 0.022810519 0.66809314
0.01913953 0.022329479 0.66837728
0.019182088 0.021846265 0.66866273
0.019225307 0.0213615 0.66895252
0.019272523 0.020878613 0.66926914
0.019320507 0.020393878 0.66959095
0.019369211 0.019907236 0.66991758
0.019420272 0.019420296 0.67026001
0.019473119 0.018932223 0.67061436
0.019527229 0.018442392 0.67097729
0.01958213 0.017950326 0.67134535
0.019641226 0.017458856 0.67174172
0.019701486 0.016965151 0.67214584
0.019762432 0.016468704 0.67255455
0.019827839 0.015972465 0.67299318
0.019894693 0.015473664 0.67344153
0.019962318 0.014971763 0.673895
0.020033419 0.01446858 0.67437184
0.020107938 0.013963819 0.67487156
0.020183142 0.013455451 0.67537594
0.020261932 0.012945086 0.67590433
0.02034511 0.012433112 0.67646205
0.020429041 0.011916965 0.67702496
0.020517839 0.011398822 0.67762047
0.020611012 0.010878056 0.67824525
0.020705104 0.010352582 0.67887622
0.020807255 0.0098256171 0.67956138
0.020912448 0.0092944205 0.68026674
0.021021958 0.008759141 0.68100113
0.021139907 0.00822106 0.68179214
0.021259837 0.0076771677 0.68259639
0.021390861 0.007130295 0.68347508
0.021529436 0.0065784454 0.68440437
0.021679059 0.0060219765 0.68540776
0.021846332 0.0054616034 0.68652952
0.022035209 0.0048967302 0.68779618
0.022227382 0.0043219924 0.68908489
0.022447722 0.0037412941 0.69056255
0.022725528 0.0031563044 0.69242555
0.023111477 0.0025679469 0.69501376
0.02059043 0.046189368 0.6743753
0.020266624 0.044915259 0.67226249
0.020086333 0.04397279 0.67108607
0.019939665 0.043112785 0.67012912
0.019815626 0.042309076 0.66931975
0.019709485 0.041549712 0.6686272
0.019614883 0.040820181 0.66800988
0.019530021 0.040115714 0.66745627
0.019452835 0.039431393 0.66695261
0.019385371 0.038770765 0.66651243
0.019320175 0.038118213 0.66608697
0.019262223 0.037483275 0.66570884
0.019210128 0.036862671 0.66536897
0.019171055 0.036269575 0.66511405
0.019136015 0.035686135 0.6648854
0.019103656 0.03510946 0.66467422
0.01907667 0.034544289 0.66449815
0.019061284 0.034001231 0.66439772
0.019047616 0.033462048 0.66430855
0.019038251 0.03293103 0.66424745
0.019035827 0.03241238 0.66423166
0.019041466 0.03190729 0.66426849
0.019050494 0.031407595 0.66432732
0.019063376 0.030913591 0.66441143
0.019080408 0.030425519 0.66452253
0.01910235 0.029944271 0.6646657
0.019124402 0.02946192 0.66480958
0.019146446 0.028978407 0.66495341
0.019171398 0.028498024 0.66511625
0.019198654 0.028019696 0.66529405
0.019226044 0.027539998 0.66547281
0.019253453 0.027058929 0.66565162
0.019285629 0.026582956 0.66586161
0.019318143 0.026105583 0.66607374
0.019350825 0.025626779 0.666287
0.019385021 0.025148124 0.66651011
0.019422742 0.024672121 0.66675627
0.019460607 0.0241943 0.66700333
0.019498741 0.023714691 0.66725212
0.019539637 0.023236334 0.66751897
0.019582793 0.022758365 0.66780055
0.019626141 0.022278368 0.66808337
0.019670282 0.021796823 0.66837138
0.019718673 0.021317482 0.66868711
0.019767547 0.020836115 0.66900605
0.019817092 0.020352691 0.66932935
0.019869158 0.019869179 0.66966903
0.019923288 0.019384801 0.67002225
0.019978397 0.018898487 0.67038184
0.020034436 0.018409997 0.67074746
0.020094747 0.017922342 0.67114097
0.02015618 0.017432362 0.67154181
0.02021818 0.016939551 0.67194641
0.020284915 0.016447246 0.67238188
0.02035306 0.015952408 0.67282647
0.020421859 0.015454412 0.67327535
0.02049439 0.014955372 0.67374861
0.020570202 0.014454782 0.67424333
0.020646844 0.013950586 0.67474341
0.020727064 0.013444602 0.6752668
0.020811819 0.012937099 0.67581987
0.020897269 0.012425423 0.67637736
0.020987535 0.011911839 0.67696637
0.021082316 0.011395842 0.67758477
0.021178167 0.010875285 0.6782102
0.021281937 0.010353386 0.67888731
0.021388935 0.0098274052 0.67958546
0.021500176 0.0092973709 0.68031132
0.021620071 0.0087648928 0.68109357
0.021741822 0.0082266629 0.68188798
0.021875 0.0076858103 0.68275702
0.022015471 0.0071401596 0.6836735
0.022167308 0.006590277 0.68466425
0.022334829 0.0060364306 0.68575728
0.022526903 0.0054795444 0.68701053
0.022722309 0.0049129426 0.68828559
0.022943141 0.0043406188 0.68972647
0.023220951 0.003765583 0.69153917
0.023599459 0.0031890869 0.69400895
0.021028046 0.0459297 0.67361999
0.020792674 0.044868439 0.67212462
0.020621667 0.043956757 0.67103821
0.020487089 0.043130726 0.67018324
0.020365935 0.042339742 0.66941345
0.020257264 0.041580737 0.66872311
0.020156762 0.040843964 0.66808456
0.020063955 0.040127903 0.66749495
0.019977439 0.039429188 0.66694528
0.01989886 0.03875044 0.66644603
0.019827861 0.038090378 0.665995
0.019768666 0.037456423 0.6656189
0.019715006 0.036835939 0.66527802
0.019664971 0.036224961 0.66496015
0.019618981 0.035623938 0.6646679
0.019588245 0.035052687 0.66447264
0.019560736 0.034488648 0.66429794
0.019533303 0.033926278 0.66412365
0.019516211 0.033382982 0.66401505
0.019506639 0.032853335 0.6639542
0.01949886 0.032327056 0.66390485
0.019495925 0.031809151 0.66388619
0.019505141 0.031310886 0.66394472
0.019514712 0.030812711 0.66400552
0.019530529 0.030323714 0.66410601
0.019552972 0.029844016 0.66424859
0.01957541 0.029363126 0.6643911
0.019601565 0.028886557 0.66455728
0.019629365 0.028410912 0.66473389
0.019657185 0.027933896 0.66491067
0.019685494 0.027456105 0.6650905
0.019718539 0.026983231 0.66530049
0.019751634 0.026508808 0.66551065
0.019784899 0.026032776 0.66572201
0.019820241 0.025557697 0.6659466
0.019858636 0.025084615 0.66619051
0.01989718 0.024609655 0.66643542
0.019935995 0.024133086 0.666682
0.019978164 0.023658365 0.66694987
0.020022091 0.023183465 0.667229
0.020066213 0.022706538 0.66750926
0.020111386 0.02222839 0.66779625
0.020160763 0.021752447 0.66811001
0.020210506 0.021274239 0.66842604
0.020260995 0.020794183 0.66874677
0.020313924 0.020313919 0.66908306
0.020369392 0.019833356 0.66943544
0.02042548 0.019350439 0.66979182
0.020482639 0.018865585 0.67015493
0.020544212 0.018381685 0.67054611
0.020606669 0.017895311 0.6709429
0.020669766 0.017406136 0.6713438
0.02073781 0.016917735 0.67177606
0.020807156 0.016426742 0.67221659
0.020877231 0.015932649 0.67266184
0.020951038 0.015437633 0.67313075
0.021028247 0.014941126 0.6736213
0.02110623 0.014441133 0.67411673
0.021187853 0.01393941 0.67463529
0.021274086 0.013436288 0.67518318
0.021361023 0.012929052 0.67573547
0.021452786 0.012420058 0.67631847
0.021549206 0.01190877 0.67693102
0.021646641 0.011392981 0.67755008
0.021752054 0.01087606 0.6782198
0.021860888 0.010355175 0.67891121
0.021973668 0.0098303556 0.67962772
0.022095526 0.009303391 0.68040192
0.022219194 0.0087707341 0.68118763
0.022354316 0.0082357824 0.68204606
0.022496533 0.0076961517 0.6829496
0.022650668 0.0071528554 0.68392885
0.022818595 0.0066054165 0.68499571
0.023013314 0.0060561895 0.68623281
0.023211874 0.005497545 0.68749428
0.023433089 0.0049332976 0.6888997
0.023710903 0.0043677986 0.69066471
0.024085548 0.003802985 0.6930449
0.021565409 0.045895606 0.67352092
0.021355186 0.044900686 0.67221957
0.021194531 0.044019431 0.67122507
0.02105229 0.043184191 0.67034459
0.020930873 0.042398453 0.66959298
0.020820249 0.04164052 0.66890818
0.020713763 0.040896416 0.66824901
0.020611435 0.040165901 0.66761553
0.02052154 0.039464504 0.66705906
0.020440195 0.038783967 0.66655552
0.020362243 0.038113922 0.66607296
0.020289684 0.037457883 0.66562378
0.020221803 0.036814094 0.66520363
0.020170815 0.03620404 0.66488796
0.020123968 0.03560397 0.66459799
0.02008168 0.035014242 0.6643362
0.020044195 0.034434915 0.66410416
0.02001944 0.033879071 0.66395092
0.019997284 0.033328861 0.66381371
0.019975647 0.032780558 0.66367984
0.01996976 0.032258868 0.66364336
0.019965993 0.031740814 0.66362005
0.019962229 0.031222969 0.66359675
0.019971585 0.030725539 0.66365469
0.019986784 0.030236423 0.66374874
0.020002065 0.029746652 0.66384339
0.020027962 0.029271692 0.66400367
0.020056181 0.02879861 0.66417837
0.020084538 0.028324366 0.66435391
0.020113992 0.027850151 0.66453618
0.020147543 0.02737999 0.6647439
0.02018127 0.026908398 0.6649527
0.020215046 0.026435047 0.66516179
0.02025166 0.025963694 0.66538841
0.020290717 0.025493473 0.66563022
0.020329924 0.025021464 0.66587293
0.020369345 0.024547666 0.66611695
0.020412792 0.024076641 0.66638589
0.020457475 0.02360481 0.66666245
0.020502353 0.023130864 0.66694033
0.02054855 0.022656113 0.66722625
0.020598965 0.022183508 0.66753829
0.020649564 0.021708518 0.66785157
0.020700853 0.021231681 0.66816908
0.020754753 0.020754784 0.66850269
0.020811489 0.020277888 0.66885394
0.020868536 0.019798368 0.6692071
0.020926736 0.019317001 0.66956735
0.020989552 0.018836796 0.66995621
0.021053076 0.018353969 0.67034942
0.021117313 0.017868519 0.67074704
0.021186512 0.017383784 0.67117542
0.021257168 0.016896725 0.6716128
0.021328364 0.016406476 0.67205352
0.021403553 0.015915483 0.67251897
0.021482065 0.01542303 0.67300498
0.021561293 0.014927059 0.67349541
0.021644358 0.014429569 0.67400968
0.021732036 0.013930798 0.67455244
0.021820428 0.013427973 0.67509955
0.021913653 0.012923449 0.67567664
0.022011681 0.01241684 0.67628348
0.022110734 0.011905789 0.67689663
0.022217674 0.011393666 0.67755866
0.022328302 0.010877907 0.67824352
0.022442641 0.010358155 0.6789512
0.022566343 0.0098366141 0.679717
0.022692027 0.0093095601 0.68049502
0.022828955 0.0087803602 0.68134266
0.022972845 0.0082466602 0.68223333
0.023129214 0.0077097416 0.68320131
0.023298375 0.00716874 0.68424851
0.023494689 0.0066267252 0.68546373
0.023696326 0.0060760081 0.68671191
0.023917908 0.0055195093 0.68808353
0.024195313 0.0049631596 0.6898008
0.024565497 0.0044092238 0.69209236
0.02251056 0.047272205 0.675888
0.022141274 0.045943111 0.67365921
0.021942725 0.044982582 0.67246085
0.021792583 0.044129997 0.67155463
0.021664925 0.043329865 0.67078418
0.021543229 0.042547911 0.67004961
0.021426789 0.04178223 0.66934687
0.021315066 0.04103151 0.66867256
0.021208189 0.040295601 0.66802746
0.021105777 0.039573342 0.66740942
0.02100708 0.038863093 0.66681367
0.02091125 0.038163036 0.66623527
0.020827834 0.0374901 0.66573185
0.020758277 0.036845952 0.66531205
0.020692451 0.036211818 0.66491473
0.020629857 0.035586506 0.66453695
0.020587198 0.034998238 0.66427946
0.020545384 0.034413546 0.66402709
0.020509005 0.033839881 0.66380751
0.020481683 0.033282727 0.66364264
0.020463167 0.03274107 0.66353095
0.02044631 0.032202959 0.66342914
0.020434827 0.031673998 0.66335988
0.020434527 0.031162649 0.66335803
0.020435909 0.030653864 0.66336644
0.0204421 0.030152112 0.66340375
0.020461058 0.02966854 0.66351819
0.020482287 0.029187292 0.66364628
0.020508036 0.028711259 0.66380173
0.020538704 0.02824074 0.6639868
0.020572815 0.027773321 0.66419268
0.020607099 0.027304471 0.66439956
0.020641437 0.026833892 0.66460681
0.020679211 0.026365995 0.66483486
0.020718917 0.025898665 0.66507447
0.020758774 0.025429487 0.66531503
0.020798909 0.02495873 0.66555727
0.020843638 0.024491251 0.66582727
0.020889061 0.02402243 0.6661014
0.020934684 0.023551524 0.66637671
0.020982025 0.02308023 0.66666251
0.021033211 0.022610724 0.66697145
0.021084646 0.022138894 0.66728187
0.021136846 0.021665305 0.66759694
0.021192022 0.021192014 0.66792995
0.02124963 0.020718396 0.66827756
0.021307616 0.020242274 0.66862762
0.021366905 0.019764394 0.66898549
0.021430887 0.019287795 0.6693716
0.02149545 0.018808573 0.6697613
0.02156074 0.01832664 0.67015529
0.021631207 0.01784575 0.67058063
0.021703018 0.017362446 0.67101401
0.021775443 0.016875982 0.67145121
0.021851925 0.016388983 0.67191279
0.021931715 0.015900522 0.67239434
0.02201223 0.015408605 0.67288029
0.022096708 0.014915287 0.67339021
0.022185734 0.014420748 0.67392749
0.022275552 0.013922244 0.67446959
0.022370202 0.013422132 0.67504084
0.022469802 0.012920141 0.67564201
0.022570439 0.01241374 0.67624938
0.022678936 0.011906445 0.6769042
0.02279117 0.011395603 0.67758161
0.022907013 0.010880828 0.67828083
0.023032663 0.010364711 0.67903918
0.023160316 0.0098431706 0.67980963
0.023298919 0.0093196034 0.68064618
0.023444647 0.0087917447 0.68152571
0.023602866 0.0082609951 0.68248069
0.023773234 0.0077262819 0.68350887
0.023971025 0.0071913302 0.68470269
0.024175663 0.0066483319 0.68593776
0.024397524 0.0060994029 0.68727684
0.024674555 0.005551815 0.68894887
0.025039602 0.0050079525 0.6911521
0.023085512 0.04729715 0.67595977
0.022748295 0.046051443 0.6739741
0.022564538 0.045129091 0.67289209
0.022423467 0.04430002 0.67206138
0.022290563 0.043493807 0.67127883
0.0221733 0.042724192 0.67058837
0.022057399 0.041962862 0.6699059
0.021942569 0.041209221 0.66922975
0.021828994 0.040463507 0.66856098
0.021716589 0.039725512 0.66789913
0.021605337 0.038994998 0.66724402
0.021500213 0.038280904 0.66662502
0.021404726 0.037588775 0.66606277
0.021311929 0.036906034 0.66551638
0.021228282 0.036243439 0.6650238
0.021164829 0.035618901 0.66465014
0.02110488 0.035003215 0.66429716
0.021051675 0.034401566 0.66398388
0.021014411 0.03382808 0.66376448
0.020978577 0.033258736 0.66355348
0.020949394 0.032701492 0.66338158
0.020932157 0.032164067 0.66328013
0.020917097 0.031630725 0.66319144
0.020905923 0.031103939 0.66312563
0.020907335 0.030596107 0.66313398
0.02091114 0.030091643 0.66315633
0.020919247 0.02959311 0.66320407
0.020940956 0.029113084 0.66333193
0.020964006 0.028633773 0.66346765
0.020994345 0.028163195 0.66364628
0.021029115 0.027696908 0.66385102
0.021064064 0.02722916 0.66405678
0.021103004 0.02676481 0.66428608
0.021143407 0.026300371 0.66452396
0.021183901 0.025834054 0.66476244
0.021224741 0.025366187 0.66500294
0.021270627 0.024902225 0.66527307
0.021316778 0.024436325 0.66554487
0.021363128 0.023968399 0.6658178
0.021411674 0.023500621 0.66610366
0.021463677 0.023034185 0.66640985
0.02151593 0.022565484 0.66671753
0.021568963 0.022095054 0.66702986
0.021625342 0.02162534 0.6673618
0.021683866 0.021155 0.66770643
0.021742774 0.020682156 0.66805333
0.021803202 0.020207882 0.66840911
0.021868266 0.0197348 0.66879219
0.021933921 0.019259065 0.66917884
0.022000173 0.018780649 0.6695689
0.022071889 0.018303543 0.66999125
0.022144899 0.017823935 0.67042118
0.022218393 0.017341197 0.67085391
0.022296216 0.016858131 0.67131209
0.022377256 0.016373634 0.67178929
0.022459099 0.015885711 0.67227125
0.022544825 0.015396476 0.67277604
0.022635236 0.014906138 0.67330843
0.022726448 0.014411896 0.67384547
0.022822563 0.013916254 0.67441142
0.022923626 0.013418734 0.67500651
0.023025813 0.012916923 0.67560828
0.02313575 0.012414306 0.67625558
0.023249701 0.011908412 0.67692655
0.023366926 0.011398524 0.67761683
0.023494404 0.010887682 0.67836744
0.023623982 0.010371536 0.67913043
0.023764273 0.009853512 0.6799565
0.023911696 0.0093314052 0.68082458
0.024071855 0.0088067949 0.6817677
0.024243247 0.0082781613 0.68277687
0.024442315 0.0077500045 0.68394905
0.024649883 0.0072146058 0.68517131
0.024872206 0.0066730678 0.6864804
0.025149439 0.0061340332 0.68811285
0.025507784 0.0055992901 0.69022292
0.023674892 0.047349781 0.67611104
0.023367757 0.046179146 0.67434555
0.023211138 0.045316994 0.67344534
0.023068633 0.044489533 0.6726262
0.022946253 0.043707192 0.67192274
0.022824878 0.04293254 0.67122507
0.022704994 0.042166442 0.67053592
0.024567315 0.045040071 0.6812408
0.024717528 0.044726968 0.68210423
0.024865096 0.044401944 0.68295252
0.022237517 0.039180398 0.66784889
0.02212364 0.038453013 0.66719425
0.022010924 0.037733048 0.66654634
0.02189935 0.037020326 0.665905
0.021805115 0.036341876 0.66536331
0.021714982 0.035674602 0.66484523
0.021639379 0.035035193 0.66441071
0.021581011 0.034426868 0.66407514
0.021524671 0.033824474 0.6637513
0.02148525 0.033251017 0.66352475
0.021452658 0.03268978 0.66333735
0.021420667 0.032131016 0.66315347
0.021405019 0.031597912 0.66306353
0.021392532 0.031070113 0.66299176
0.021381876 0.030545563 0.66293049
0.02138551 0.030041575 0.66295141
0.021392532 0.029542059 0.66299176
0.021400813 0.029043972 0.66303933
0.021425383 0.028567195 0.66318059
0.021452848 0.02809307 0.66333842
0.021482974 0.027621001 0.66351163
0.021523148 0.027160197 0.6637426
0.021564109 0.02669844 0.66397804
0.021605229 0.026234955 0.66421437
0.021647211 0.025770515 0.66445565
0.02169387 0.025309533 0.66472387
0.021740731 0.024846554 0.66499329
0.021787796 0.024381578 0.66526377
0.021837482 0.023917258 0.6655494
0.021890284 0.023453891 0.6658529
0.021943342 0.02298826 0.6661579
0.021997189 0.022520959 0.66646743
0.022054765 0.022054762 0.66679835
0.022114255 0.021587759 0.66714031
0.022174064 0.021118134 0.6674841
0.022235621 0.020647377 0.66783792
0.022301814 0.020177811 0.66821843
0.022368401 0.019705504 0.66860116
0.022435665 0.019230574 0.66898781
0.022508608 0.018757164 0.66940713
0.022582728 0.018281251 0.66983318
0.022657407 0.017802268 0.67026246
0.022736406 0.017323017 0.67071652
0.02281874 0.016842425 0.67118979
0.022901818 0.016358465 0.67166734
0.022988833 0.015873253 0.67216754
0.023080673 0.015387118 0.6726954
0.02317325 0.014897078 0.67322755
0.023270654 0.014405638 0.67378747
0.02337322 0.013912648 0.67437696
0.023476923 0.013415396 0.67497307
0.023588333 0.012917429 0.67561352
0.02370381 0.012416303 0.67627728
0.023822522 0.011911273 0.67695963
0.023951702 0.011405557 0.67770219
0.024083165 0.010894775 0.67845786
0.024225002 0.010382146 0.67927319
0.024374221 0.0098657906 0.68013084
0.024536172 0.009347111 0.6810618
0.024708489 0.0088244975 0.68205231
0.024908809 0.008302927 0.68320376
0.025119234 0.0077750385 0.68441331
0.025342043 0.0072405934 0.68569404
0.02561911 0.0067097545 0.68728667
0.02597034 0.0061834455 0.6893056
0.026573366 0.0056943297 0.69277185
0.024315657 0.047500372 0.67654383
0.024032032 0.046387434 0.67495137
0.023865664 0.045511276 0.67401731
0.02373502 0.044710159 0.67328382
0.023608334 0.043922484 0.67257261
0.024015963 0.044122338 0.67486119
0.025079299 0.045492709 0.68083119
0.025227763 0.045175314 0.68166476
0.025373599 0.044846386 0.68248355
0.025513023 0.044499457 0.68326634
0.025633041 0.044112682 0.68394017
0.02569228 0.043617159 0.68427277
0.025720321 0.043066591 0.68443018
0.022526229 0.037194461 0.66649711
0.022412088 0.036484808 0.6658563
0.022299096 0.035782278 0.66522193
0.022208147 0.035119861 0.6647113
0.022120491 0.034466833 0.66421914
0.022058312 0.033856958 0.6638701
0.022005226 0.033263773 0.66357201
0.0219584 0.03268227 0.6633091
0.021928171 0.032127291 0.6631394
0.021899758 0.031576425 0.66297984
0.021880323 0.031039566 0.66287076
0.02187174 0.03051874 0.66282254
0.021864185 0.029999733 0.66278017
0.021866873 0.029494882 0.66279519
0.021876862 0.028999567 0.66285133
0.021888914 0.028506517 0.66291898
0.021914275 0.028029919 0.66306138
0.021945691 0.027559727 0.66323775
0.021981141 0.027093053 0.66343683
0.022022871 0.026632339 0.66367102
0.022066064 0.026171386 0.66391361
0.02211342 0.025713265 0.66417944
0.022160977 0.025253206 0.66444641
0.022208741 0.024791151 0.66471463
0.022259628 0.024330318 0.66500032
0.022313217 0.023869991 0.66530114
0.022367062 0.0234074 0.66560352
0.022421706 0.022943169 0.6659103
0.022480473 0.022480488 0.66624022
0.022540841 0.022016644 0.66657919
0.022601536 0.021550328 0.66691995
0.022664275 0.021083057 0.66727221
0.022731446 0.020616889 0.66764933
0.022799011 0.020147979 0.66802871
0.022867333 0.019676536 0.66841227
0.022941418 0.019206792 0.66882819
0.023016695 0.018734545 0.66925085
0.023092395 0.018259138 0.66967583
0.023172691 0.017783731 0.67012668
0.023256227 0.017306954 0.67059571
0.023340512 0.016826898 0.67106891
0.02342879 0.01634571 0.67156452
0.023521958 0.015863657 0.67208761
0.023615871 0.01537776 0.67261487
0.023714602 0.014890581 0.6731692
0.02381864 0.014401972 0.67375332
0.023923825 0.01390925 0.67434388
0.024036594 0.013415784 0.674977
0.024153708 0.012919456 0.6756345
0.024273705 0.012419134 0.67630827
0.024404623 0.011918575 0.67704332
0.024537928 0.011413008 0.67779171
0.024681337 0.010905713 0.67859685
0.024832128 0.010394841 0.67944348
0.024995806 0.0098820627 0.68036246
0.025169201 0.0093652904 0.68133599
0.025370497 0.0088501871 0.68246615
0.025583707 0.0083295703 0.68366319
0.025808465 0.0078025758 0.68492508
0.026084572 0.0072794259 0.68647528
0.026432235 0.0067617595 0.68842721
0.026990313 0.0062768161 0.69156051
0.025005419 0.047737628 0.67722571
0.024706796 0.046606004 0.67558718
0.024540313 0.045734227 0.6746738
0.02440797 0.044932842 0.67394757
0.024535272 0.044609576 0.67464614
0.02481515 0.044554472 0.67618173
0.025731903 0.045615673 0.68121183
0.025879912 0.045289844 0.68202394
0.026016966 0.044938415 0.68277597
0.026152793 0.044578671 0.68352115
0.026282454 0.044202328 0.68423259
0.026382869 0.043771595 0.68478358
0.026519978 0.043396354 0.68553585
0.026649319 0.043002337 0.68624556
0.026761927 0.042575777 0.68686342
0.022924425 0.035949677 0.6658076
0.022808827 0.035250038 0.66517329
0.022702413 0.034569621 0.66458946
0.022613762 0.033920676 0.66410303
0.02253975 0.03329736 0.66369694
0.022485981 0.032706887 0.66340196
0.022436021 0.032124341 0.66312778
0.022406625 0.031572998 0.66296649
0.022380713 0.031027794 0.66282439
0.022361269 0.030492663 0.66271764
0.022354206 0.029974997 0.6626789
0.022349238 0.029460371 0.66265166
0.022353422 0.028957874 0.66267461
0.02236611 0.028465986 0.66274422
0.022381499 0.0279769 0.66282868
0.022409646 0.027502775 0.66298306
0.022443464 0.027034223 0.66316867
0.022481285 0.02656883 0.66337621
0.022529321 0.02611354 0.66363978
0.022577563 0.025656343 0.66390443
0.022626011 0.025197178 0.66417027
0.022678033 0.024739653 0.66445571
0.022732388 0.024282336 0.66475391
0.02278707 0.023822844 0.66505396
0.02284243 0.023361593 0.66535771
0.022902448 0.022902459 0.66568702
0.022963678 0.022441775 0.66602302
0.023025239 0.021978676 0.6663608
0.02308915 0.021514922 0.66671145
0.023157276 0.021052092 0.66708523
0.023225877 0.02058661 0.66746163
0.023295097 0.020118505 0.66784143
0.023370447 0.019652426 0.66825485
0.023446716 0.019183695 0.6686734
0.023523485 0.018711865 0.66909456
0.023605058 0.018240273 0.66954213
0.023689767 0.01776731 0.67000693
0.023775237 0.017291099 0.67047584
0.02386475 0.016813815 0.67096698
0.023959219 0.016335845 0.67148542
0.02405444 0.01585409 0.6720078
0.024154464 0.015371054 0.67255664
0.024259942 0.014886796 0.6731354
0.02436658 0.014398426 0.67372048
0.024480741 0.013909519 0.67434692
0.024599303 0.01341781 0.67499745
0.024720697 0.012922198 0.67566347
0.024853311 0.012426674 0.67639112
0.024988336 0.011926264 0.67713195
0.025133261 0.011424214 0.67792714
0.025285648 0.010918856 0.67876327
0.025450986 0.010411739 0.67967045
0.025625976 0.0099009573 0.68063062
0.025827361 0.0093917847 0.68173558
0.02604329 0.0088783801 0.6829204
0.026270442 0.0083587766 0.68416673
0.026545303 0.0078429282 0.68567479
0.026888819 0.0073333085 0.68755966
0.027415246 0.0068538487 0.69044805
0.025392566 0.046835214 0.6762538
0.025224291 0.045964271 0.67535102
0.025087578 0.045157671 0.67461759
0.02532028 0.045013875 0.67586601
0.025540221 0.044837296 0.677046
0.026379054 0.045723706 0.68154621
0.02651774 0.045374811 0.68229026
0.026655253 0.045017779 0.68302804
0.026784929 0.044641584 0.68372375
0.026911333 0.044254184 0.68440187
0.027032113 0.043852091 0.68504989
0.027151527 0.043442488 0.68569052
0.027268102 0.04302299 0.68631589
0.027383862 0.042597145 0.68693697
0.027500123 0.042166859 0.68756074
0.027592327 0.041695088 0.6880554
0.023318237 0.034718245 0.66512525
0.023201356 0.034028679 0.66449815
0.02310816 0.033378482 0.66399813
0.02302181 0.032742113 0.66353494
0.022970604 0.032158852 0.66326022
0.022920905 0.031579912 0.66299355
0.022889834 0.03102845 0.6628269
0.022865064 0.030486763 0.66269398
0.022845019 0.029952377 0.66258645
0.022841414 0.029440075 0.66256714
0.022838546 0.028928846 0.6625517
0.022844618 0.028428882 0.6625843
0.022860384 0.027940512 0.66266888
0.022877844 0.027453423 0.66276252
0.022909822 0.026982695 0.66293406
0.022948692 0.026518494 0.66314268
0.022990532 0.026055932 0.66336709
0.023039652 0.025599629 0.66363066
0.02309287 0.02514559 0.66391611
0.02314798 0.024691194 0.66421181
0.023203352 0.024234653 0.66450888
0.023259545 0.023776472 0.6648103
0.02332074 0.023320764 0.6651386
0.023382816 0.022863179 0.66547173
0.023445224 0.02240324 0.66580653
0.0235103 0.021942943 0.66615558
0.023579435 0.021483481 0.6665265
0.023648905 0.021021277 0.6668992
0.023719074 0.020556539 0.66727567
0.023795599 0.020094097 0.66768622
0.023872985 0.019628912 0.66810137
0.0239508 0.019160658 0.66851884
0.024033483 0.018692732 0.66896248
0.024119416 0.018223554 0.66942346
0.024206042 0.017751098 0.66988826
0.024296764 0.017277747 0.67037493
0.024392508 0.016803741 0.6708886
0.02448901 0.01632598 0.67140627
0.024590299 0.015847087 0.67194968
0.024697186 0.015367121 0.67252314
0.024805244 0.014883161 0.67310286
0.024920683 0.014398605 0.67372221
0.025040813 0.013911575 0.67436671
0.025163399 0.013420463 0.67502439
0.02529775 0.012929946 0.67574513
0.025434449 0.012434661 0.67647851
0.025580836 0.011937767 0.67726386
0.025734678 0.011437654 0.6780892
0.025901701 0.01093629 0.6789853
0.026078301 0.010431349 0.67993271
0.026279654 0.0099278688 0.68101299
0.026498236 0.0094216168 0.68218565
0.026727514 0.0089091957 0.68341565
0.027001956 0.0084005892 0.68488806
0.027342871 0.0078991055 0.68671703
0.027847268 0.0074259341 0.68942314
0.026090566 0.047076464 0.67695564
0.025915265 0.046196759 0.67603558
0.02582182 0.045468867 0.67554516
0.026036337 0.045280606 0.67667103
0.026229372 0.045046091 0.67768413
0.027015114 0.045808256 0.68180794
0.027152887 0.045451552 0.682531
0.027283683 0.045077413 0.68321747
0.027411517 0.044692695 0.68388832
0.027535429 0.044296145 0.68453866
0.027647644 0.043875635 0.68512762
0.027766082 0.043459952 0.68574923
0.027887387 0.043043584 0.68638587
0.028006321 0.042618304 0.68701005
0.028092559 0.042138875 0.68746269
0.028137563 0.041594654 0.6876989
0.028126175 0.040966421 0.68763912
0.023827251 0.034186929 0.66507709
0.023707796 0.033500165 0.66445017
0.023603117 0.032839119 0.66390079
0.023515679 0.032206267 0.66344184
0.023457216 0.031616241 0.66313505
0.023409188 0.031042635 0.66288298
0.023375502 0.030489773 0.6627062
0.023353506 0.02995345 0.66259074
0.023333391 0.029420376 0.66248518
0.023332711 0.028912276 0.66248161
0.023332438 0.028404742 0.66248018
0.02333973 0.027906239 0.66251844
0.023359718 0.027422309 0.66262341
0.02338152 0.026939601 0.66273773
0.023416802 0.026471168 0.66292298
0.023456529 0.026006162 0.66313148
0.02350406 0.025547892 0.66338086
0.023559907 0.025096416 0.663674
0.02361609 0.024642855 0.66396886
0.023672964 0.024187624 0.6642673
0.023735397 0.023735404 0.66459501
0.023798304 0.023280948 0.66492516
0.023861542 0.022824079 0.6652571
0.023927769 0.022367299 0.66560465
0.023997823 0.021911085 0.66597229
0.024068216 0.021452129 0.66634172
0.024139386 0.020990759 0.66671526
0.024217069 0.020531863 0.66712296
0.024295403 0.020070136 0.66753411
0.024374243 0.019605368 0.66794789
0.024458162 0.019141167 0.66838831
0.024545224 0.018675715 0.66884524
0.024632985 0.018207014 0.6693058
0.02472497 0.017737478 0.6697886
0.024821959 0.017267466 0.67029762
0.024919637 0.016793698 0.67081022
0.025022158 0.016318828 0.67134833
0.025130505 0.015843153 0.67191696
0.025239874 0.015363395 0.67249095
0.025356634 0.01488328 0.67310369
0.02547813 0.014400721 0.6737414
0.02560203 0.013914198 0.67439163
0.025738077 0.013428569 0.67510569
0.025876416 0.012938231 0.67583168
0.026024127 0.012446314 0.67660689
0.026179451 0.011951476 0.67742211
0.026348017 0.011455685 0.67830676
0.026526159 0.010956436 0.67924178
0.026727358 0.010458529 0.68029773
0.026948525 0.0099592805 0.68145841
0.027179852 0.0094538927 0.6826725
0.027454175 0.0089524686 0.68411219
0.027792055 0.0084584653 0.68588555
0.028274242 0.0079905391 0.68841618
0.02680107 0.047329575 0.67769182
0.026613181 0.046431541 0.6767267
0.026529742 0.045721501 0.67629808
0.02671881 0.045478821 0.67726928
0.026898185 0.045211852 0.67819065
0.027086452 0.044952005 0.67915767
0.027778938 0.045510173 0.6827147
0.027908156 0.045128077 0.68337846
0.028032513 0.044732779 0.6840173
0.028149057 0.044319779 0.68461591
0.028263833 0.043899179 0.68520546
0.02837955 0.043475121 0.68579984
0.028505968 0.04306221 0.68644923
0.02859251 0.042584628 0.68689376
0.028626692 0.04202643 0.6870693
0.028607134 0.041389048 0.68696886
0.028606031 0.040778816 0.6869632
0.028657334 0.040242225 0.68722677
0.028746618 0.03975597 0.68768537
0.024213988 0.032972246 0.66440296
0.024099004 0.032302946 0.66381228
0.024011487 0.031674743 0.66336274
0.023946423 0.031079382 0.66302854
0.023899743 0.030510336 0.66278875
0.023865167 0.029958427 0.66261119
0.023845514 0.029426426 0.66251016
0.023826728 0.028896272 0.66241372
0.023827631 0.028390408 0.66241837
0.023830829 0.027887136 0.66243482
0.023842381 0.027393401 0.66249412
0.023864608 0.026911169 0.66260827
0.023886878 0.026428074 0.66272271
0.023928247 0.025964677 0.6629352
0.023974193 0.02550447 0.66317117
0.024025192 0.025047541 0.66343313
0.024083156 0.024595559 0.66373092
0.024146466 0.024146497 0.66405606
0.024210183 0.023695081 0.66438335
0.024274237 0.023241341 0.66471237
0.024341678 0.022787988 0.66505885
0.024412561 0.022334903 0.66542292
0.02448393 0.021879286 0.66578948
0.024556087 0.021421254 0.66616023
0.024634765 0.020965755 0.66656429
0.024714097 0.020507455 0.6669718
0.024794018 0.020046234 0.66738236
0.024879079 0.019585669 0.66781926
0.024967246 0.019123852 0.66827208
0.025056116 0.018658847 0.66872859
0.025149262 0.018193066 0.6692071
0.025247471 0.017726958 0.66971153
0.025346454 0.017257154 0.67021996
0.025450177 0.016786307 0.67075276
0.025559796 0.016314805 0.67131585
0.025670443 0.015839219 0.67188424
0.025788484 0.015363365 0.67249048
0.02591148 0.014885336 0.67312229
0.026036486 0.014403194 0.67376441
0.026174191 0.013922453 0.67447174
0.026314126 0.013437003 0.67519057
0.026463196 0.012950063 0.67595625
