# .PCD v0.7 - Point Cloud Data file format
VERSION 0.7
FIELDS x y z
SIZE 4 4 4
TYPE F F F
COUNT 1 1 1
WIDTH 513
HEIGHT 1
VIEWPOINT 0 0 0 1 0 0 0
POINTS 513
DATA ascii
0.0026954445 0.035641149 0.68463939
0.0013930525 0.038410358 0.68416607
0.00060025702 0.041417718 0.68493962
0.012084973 0.03262946 0.68590331
0.012084973 0.03262946 0.68590331
0.011444965 0.033431143 0.68544894
0.0012014065 0.035441518 0.68504733
0.0084510157 0.038633227 0.68575734
0.0084510157 0.038633227 0.68575734
0.0015125915 0.031464651 0.68610632
0.0012093595 0.032048017 0.68600738
0.004853013 0.038520366 0.68647742
0.011540933 0.048593432 0.68666828
0.010380574 0.02747798 0.68744195
0.0030524721 0.031439766 0.68741113
-0.0054979362 0.038485616 0.68750465
-0.0048725768 0.040198803 0.68706775
0.012255902 0.04350847 0.68796659
0.0024419003 0.048532695 0.68740648
0.009252104 0.022821873 0.68893516
0.0094419857 0.023604136 0.68868399
0.00020472141 0.024385493 0.68844223
0.0085868258 0.025453731 0.68809927
-0.0064468272 0.037450343 0.68824297
-0.0024649962 0.042521209 0.68880045
-0.0024649962 0.042521209 0.68880045
0.0024520974 0.045363843 0.6880219
0.015363827 0.045476913 0.68839097
0.015363827 0.045476913 0.68839097
-0.0006177458 0.022547543 0.68916178
0.0024777977 0.027564794 0.68957305
0.0049437755 0.03646034 0.68921638
0.016384702 0.039569944 0.68929082
0 0.045682818 0.6890626
0.018630343 0.046575874 0.68995017
0 0.018361971 0.69029671
0.0024955617 0.026827306 0.69064528
-0.0062388149 0.031817973 0.69064307
0.0037411721 0.031487823 0.69055796
0.0056083398 0.033338264 0.69046617
0.0083953403 0.034513704 0.69015789
0 0.036542654 0.69083184
0.019644331 0.038352393 0.69057977
0.016805187 0.041390419 0.69028884
0.01747597 0.041505218 0.6907059
0.018396858 0.044587597 0.69057661
-0.0031229961 0.050592542 0.69081634
-0.0075293705 0.026666239 0.691504
0.0084906444 0.029560179 0.69186413
0.0084528048 0.031619288 0.69118553
-0.0016703364 0.038412254 0.69122362
0.020709315 0.047380224 0.69152987
-0.0018901471 0.013231069 0.69213206
0.0044169105 0.013881743 0.69235855
-0.0044167018 0.016404927 0.69235134
-0.0094680246 0.027457178 0.69241035
0.0066118352 0.028966337 0.69204819
0.0066118352 0.028966337 0.69204819
-0.0025333152 0.032933116 0.69292384
-0.0018891126 0.035263479 0.69204879
-0.0034632534 0.038411051 0.69204521
0.022082226 0.038486153 0.69234252
0.022082226 0.038486153 0.69234252
-0.004414089 0.048554987 0.69226122
-0.0044188364 0.05302605 0.69242495
-0.0034980653 0.0095397979 0.69356501
-0.0034980653 0.0095397979 0.69356501
0.0082758423 0.0095490515 0.69371438
0.0054056179 0.017170683 0.6935569
0.0038255209 0.028691411 0.69395185
0.013346612 0.028599888 0.69346082
0.015282006 0.031837523 0.6937499
0.017561728 0.036392253 0.69326681
0.020292895 0.041536942 0.69312286
0.021608153 0.045440346 0.69345623
-0.010258824 0.017632246 0.6948185
-0.0083017591 0.021073699 0.69419569
-0.0070199212 0.026165217 0.6940937
0.016634811 0.032309622 0.69448626
-0.0012880117 0.008372128 0.69550157
0.0019370654 0.020662069 0.69590771
0.022591876 0.042601824 0.69585794
-0.0035618709 0.00032353401 0.69638014
-0.011664422 0.014580399 0.69647145
-0.011650624 0.015534163 0.69628638
-0.0084282178 0.017504752 0.69654417
0.016829243 0.029127538 0.69629163
-0.0012960396 0.03045693 0.69647062
0.02138561 0.030458301 0.69647759
0.023330713 0.030459583 0.69648397
0.018785212 0.032711774 0.69640929
0.018785212 0.032711774 0.69640929
-0.009093646 0.047416866 0.69683909
-0.0071395645 0.051599786 0.69671959
-0.00065339851 0.0091475844 0.69776911
-0.011710659 0.011385247 0.69709158
0.022548754 0.026469916 0.69781387
0.0026313143 -0.007565245 0.69883859
-0.0072403606 -0.0055947155 0.69893181
0.0026237974 -0.0055756122 0.69838494
0.0056766262 -0.0037117205 0.69815087
0.0056766262 -0.0037117205 0.69815087
-0.013162573 0.0075683594 0.69891101
-0.013146734 0.0085453987 0.69871986
-0.0085532088 0.016448498 0.69886529
0.013746236 0.017019182 0.69805497
0.0046091522 0.019095063 0.69898874
0.0026250228 0.021327794 0.69845891
0.022608131 0.025556728 0.69822824
0.0055636717 0.027490884 0.69804573
-0.009195338 0.044663072 0.69859266
0.0026497487 -0.010598987 0.69995123
-0.0066040508 -0.0085852444 0.69946063
-0.011926097 0.0026502311 0.69998109
-0.011926097 0.0026502311 0.69998109
0.0086137848 0.0046382248 0.69999027
0.017875101 0.017213076 0.69985557
0.017875101 0.017213076 0.69985557
0.0036313827 0.022445709 0.69940341
0.0039563803 0.023408324 0.6992172
0.0065892478 0.025039166 0.6991033
-0.004647444 -0.007967025 0.7003094
-0.0039788405 -0.0053050816 0.70012093
-0.011974961 0.0019958317 0.70063651
0.0086379452 0.0036541075 0.70043892
-0.0095144492 0.0075233281 0.70028305
-0.0095144492 0.0075233281 0.70028305
-0.0099442927 0.0086184144 0.70007575
0.018638425 0.015975833 0.70072877
-0.0053069806 0.027529612 0.70017707
-0.0053069806 0.027529612 0.70017707
0.028581571 0.038551897 0.70049453
0.027838813 0.041095436 0.70004576
-0.0046935221 -0.0093870461 0.70189852
-0.014365846 -0.00066815317 0.70133102
-0.0020036683 0.0013357997 0.70126754
0.0093587693 0.0023394227 0.70141101
0.0023382977 0.0060116351 0.70128357
-0.0060192426 0.023408145 0.70148849
-0.003353253 0.023472786 0.70193416
-0.003353253 0.023472786 0.70193416
-0.0060119755 0.024047911 0.70129359
0.023460727 0.024801373 0.70185107
-0.013439938 -0.0047039688 0.70225918
-0.012123894 2.9802322e-08 0.70263404
0.013480191 0.0026960671 0.70274508
0.010738328 0.0046980381 0.70205367
0.0013459845 0.012449995 0.70249951
0.027601928 0.032650694 0.70255387
0.02818506 0.034895837 0.70203608
-0.01009061 0.043725967 0.70243067
-0.00067895092 -0.0067895055 0.70393801
-0.016252493 -0.0044018179 0.70351219
-0.012879236 -0.0044062585 0.70367336
0.013506915 0.0020260513 0.7030676
0.0013582044 0.0095074475 0.70397455
0.0013582044 0.0095074475 0.70397455
0.0044081975 0.011528999 0.70375085
0.01699709 0.0067988336 0.70416319
-0.0088513587 0.010553807 0.70440221
0.017461535 0.0034238249 0.70534092
0.017434649 0.0041022748 0.70508623
0.01098431 0.0061787069 0.70576519
-0.0065221121 0.01338733 0.70577031
-0.0065221121 0.01338733 0.70577031
0.020523969 0.023944616 0.70518893
0.020523969 0.023944616 0.70518893
0.015758066 0.027405351 0.70543057
-0.0048288228 -0.011382505 0.7065649
0.011748265 -0.0076017976 0.70686483
0.023502044 0.018663406 0.70690405
0.025487933 0.021354795 0.70633101
-0.015191249 0.022786885 0.70672894
0.015521594 0.024488673 0.70656449
0.019505618 0.024325024 0.70622969
0.017572118 0.025496989 0.70639014
0.0158187 0.026135236 0.70606703
-0.0034756397 -0.015987933 0.70784348
0 -0.005559653 0.70780259
-0.011076179 -0.0034613013 0.70715141
0.019389184 0.0048472881 0.70720202
-0.013503877 0.048474833 0.7072084
-0.0076936278 -0.017485499 0.70887989
0.00069681747 -0.015329957 0.70825136
0.013983067 -0.0083898306 0.70881534
0.013950057 -0.0076725185 0.70841682
0.00209036 -0.0055743158 0.70824397
0.014623054 -0.0045259744 0.70813513
-0.0097956369 0.0027987659 0.70894444
-0.016737582 0.0097636282 0.70839185
0.022389937 0.012594342 0.70894372
-0.0056111333 -0.020340383 0.70935565
-0.0014005951 -0.013305634 0.70909154
-0.0007008512 -0.012615293 0.70922524
0.0098155998 -0.0070111156 0.70928872
-0.0094909575 0.0014061332 0.70975733
0.021431547 0.0094863027 0.70966262
0.018216841 0.011911005 0.70917606
-0.014408447 0.040413246 0.70970583
-0.013332823 0.040349156 0.70943677
-0.015461326 0.041464478 0.70969272
-0.0073086014 -0.024283519 0.71077788
0.022587057 0.0084701478 0.71043098
0.014445621 0.014445372 0.71014541
-0.012702153 0.036342099 0.71038979
-0.012702153 0.036342099 0.71038979
0.02452524 -0.019549437 0.71164668
-0.014577845 -0.011377439 0.71169752
0.02635074 -0.010682702 0.71196073
0.02635074 -0.010682702 0.71196073
-0.0099646272 -0.0099646151 0.71185863
0.013467751 0.011341274 0.71115124
-0.012418989 0.032643721 0.71134841
-0.017094545 0.034901381 0.71198261
-0.011418645 -0.025691926 0.71231878
0.025032993 -0.023602515 0.71269614
0.022870548 -0.021441162 0.71256977
0.022544419 -0.016461119 0.71281034
0.020407408 -0.015037149 0.71289587
-0.015041717 -0.01432544 0.7129482
-0.015039299 0.02936247 0.71292031
-0.017112153 0.034224331 0.71215969
-0.0035986307 -0.0331074 0.71378207
-0.002160924 -0.028091967 0.7139225
0.0025138236 -0.026570022 0.7133916
-0.01656523 -0.011523604 0.71390295
-0.011594197 -0.035507232 0.71496767
-0.014423323 -0.026683122 0.71412969
0.020285275 -0.005071342 0.71492827
0.015144615 -0 0.71413112
-0.014475901 0.013752103 0.71476436
-0.016635364 0.024591416 0.71463919
-0.011652617 -0.038599283 0.71584916
-0.0076220818 -0.038473323 0.71527541
0.00072644011 -0.033416241 0.71540296
-0.0029096901 -0.024368554 0.71564013
0.012370274 -0.0043659806 0.71569824
0.010895827 -0.001452744 0.71539044
-0.018214084 0.021856904 0.7159155
-0.018214084 0.021856904 0.7159155
-0.013192646 -0.041043758 0.71696842
-0.010601133 -0.041672856 0.71652877
-0.0025528409 -0.038661361 0.71613204
-0.016332012 -0.032419156 0.71656716
-0.01244523 -0.032943279 0.71676266
0 -0.02711466 0.71694529
-0.015359863 -0.024868339 0.71660572
0.00072931574 -0.021879464 0.71609718
-0.014628442 -0.016091287 0.71660566
-0.015338359 0.017529577 0.71635842
0.0043783947 0.055459678 0.71619773
-0.0073598926 -0.045631349 0.71770829
-0.0044157859 -0.044157833 0.71770227
-0.010999857 -0.043266088 0.7170648
-0.014676574 -0.039626747 0.71718669
0.00024506194 -0.038434099 0.71732652
0.00024506194 -0.038434099 0.71732652
-0.01947365 0.017636344 0.7174325
-0.018340683 0.017607063 0.71713805
-0.01329184 -0.045782983 0.71829891
-0.0051638251 -0.0457367 0.71811867
-0.014396077 -0.044294655 0.71825278
-0.0044235433 -0.044972688 0.71801442
-0.016604889 -0.039481565 0.71818888
0.003703227 -0.036291629 0.71883237
-0.019245377 -0.027387619 0.71872652
-0.015556737 -0.021483094 0.71886897
-0.019245869 0.012583852 0.71873105
-0.0067054573 -0.05140847 0.7198959
-0.008156905 -0.049682975 0.71904761
-0.013360152 -0.04898721 0.7192151
-0.01561767 -0.047596693 0.71956944
-0.01561767 -0.047596693 0.71956944
0.0014841633 -0.040814489 0.71917909
0.012632007 -0.013375074 0.71941519
-0.0097106462 -0.053782046 0.72035998
-0.015730593 -0.052435279 0.72086763
-0.01455673 -0.051507577 0.72024262
-0.002615911 -0.049337164 0.72049522
-0.0022407547 -0.048549682 0.72034681
-0.00074861356 -0.047537327 0.72075605
0 -0.046407074 0.72072899
0.0037313988 -0.038806558 0.72019267
-0.017904561 0.0067142248 0.72013068
-0.021731539 0.007493645 0.72093713
-0.020881752 0.0096951127 0.7200712
-0.016527485 -0.053338677 0.72139233
0.0052718758 -0.038409352 0.72184521
0.009759278 -0.018767834 0.72126311
-0.021094825 0.0033900738 0.72190833
-0.011359612 -0.061341882 0.72285491
-0.008299835 -0.058476433 0.72218454
-0.0064151948 -0.057361841 0.72224033
-0.0030166195 -0.053544968 0.72209382
-0.020423621 -0.048411518 0.72264326
-0.02119768 -0.044666529 0.72279525
0.006800856 -0.035515547 0.72245497
0.0094382241 -0.022651285 0.72230834
0.0067952401 -0.021895796 0.72230434
-0.0083507663 -0.061492026 0.72330236
0.0030324021 -0.045486033 0.72304648
-0.022033952 -0.041408688 0.72345465
-0.02202018 -0.040243775 0.72334003
0.0076061501 -0.025480807 0.72365344
-0.0045766416 -0.060259134 0.72417462
-0.0030547827 -0.058804572 0.72439718
-0.0015307962 -0.057404846 0.72480816
-0.021389121 -0.05423668 0.72444588
-0.021389121 -0.05423668 0.72444588
0.0022924677 -0.0496701 0.72450829
-0.022975709 -0.044419706 0.72491896
0.0076301484 -0.027468562 0.72423291
-0.021485763 -0.058318466 0.72527915
0.00038505532 -0.055307731 0.72547567
-0.022247611 -0.054468304 0.72523332
0.0065182606 -0.029908031 0.72516429
-0.00077431521 -0.060396582 0.72696096
-0.022355406 -0.059357435 0.72613072
-0.023930393 -0.044386983 0.72638953
0.0053936914 -0.032362133 0.7260465
-0.0023253604 -0.06355983 0.72715527
-0.025054004 -0.060286194 0.72904265
-0.025952671 -0.05544436 0.72988927
-0.021184186 -0.023537964 0.72944379
-0.021184186 -0.023537964 0.72944379
0.0015797433 -0.061609983 0.73071671
0.012205631 0.029140107 0.68735981
0.0096896254 0.031036869 0.68622983
-0.00060469873 0.039305419 0.68601197
0.0070022652 0.040946994 0.6870175
0.0090085184 0.043056682 0.68746954
0.014289234 0.04572513 0.68786901
0.0024777977 0.027564794 0.68957305
0.012293279 0.028274566 0.68841773
-0.0043023853 0.040717758 0.68840873
-0.00098999683 0.048885908 0.6892308
0.00057916035 0.048755839 0.68829155
0.00057916035 0.048755839 0.68829155
-0.0011460034 0.016975632 0.69088554
-0.00062877801 0.033639476 0.69182515
0.0051449975 0.032895148 0.69057894
0.01459571 0.035028111 0.69103092
-0.0018647339 0.045996815 0.69008696
0 0.015214702 0.693093
0.0018997671 0.022795171 0.69290626
0.0018997671 0.022795171 0.69290626
0.015588969 0.034757067 0.6925959
0.022816341 0.038921777 0.69302362
0.022816341 0.038921777 0.69302362
-0.0049083894 0.048980463 0.69285393
-0.0064583365 0.0054895729 0.69594276
-0.00064214476 0.011236772 0.69505221
-0.0038343014 0.019171506 0.69430518
-0.0058052628 0.029671341 0.69574857
-0.0058052628 0.029671341 0.69574857
0.021727787 0.044094652 0.69430566
-0.0064255791 0.050923012 0.69515193
-0.0045771636 -0.0045771301 0.69788551
-0.011547221 0.0076253517 0.6978206
-0.0065313079 0.006531328 0.69770455
-0.012427472 0.0098111928 0.69793302
0.012791156 0.016530616 0.69704038
-0.0071537634 0.023301944 0.6970312
0.0091913072 0.0085348189 0.69852316
0.013150143 0.017534992 0.69876516
0.013150143 0.017534992 0.69876516
-0.0065743369 0.021695316 0.69874328
-0.003272112 0.020287097 0.69801629
0.019809246 0.020964406 0.69943726
0.019809246 0.020964406 0.69943726
0.019453371 0.030709445 0.69833034
0.020625768 0.032411791 0.6981045
-0.0092490911 0.043107636 0.69951963
-0.010499736 0.045607537 0.69845355
0.00099808304 -0.0078188255 0.70068002
0.00099808304 -0.0078188255 0.70068002
0.0093299113 0.0049985498 0.70091331
-0.0093483683 0.011684835 0.7012316
0.0039765863 0.020877108 0.70003027
0.014025623 0.025379688 0.70126694
0.024747871 0.030098766 0.7015022
0.025936017 0.035246402 0.70057625
0.028104836 0.035465658 0.70157492
-0.011535359 0.0013571084 0.70384139
-0.011535359 0.0013571084 0.70384139
-0.0063918214 0.0080744773 0.7024703
0.0049179262 0.011107881 0.70379573
0.020167824 0.01294031 0.70232284
-0.011000189 -0.0067355558 0.70470232
0.015099996 0.00096835446 0.70508873
0.012692056 0.0054882616 0.70564735
0.021129061 0.013631672 0.70457333
0.017679946 0.018359959 0.70419085
0.025083244 0.025082005 0.7048009
0.019036956 0.027012097 0.70564675
-0.0010414252 -0.015014723 0.70764381
-0.0020750698 -0.0044953525 0.70701349
0.015525344 -0.0044028759 0.7078523
0.015525344 -0.0044028759 0.7078523
0.0031255835 -0.00092615187 0.70773166
0.018635733 0.019325972 0.70665675
0.017077301 0.02501208 0.70660645
0.023571296 -0.012665242 0.70989501
-0.012877718 -0.0087797847 0.70959759
0.016151421 -0.0087782443 0.70955944
-0.0010451612 -0.0043557584 0.70827883
0.016123677 0.0063092411 0.70926821
-0.014899444 0.044812471 0.70863169
0.026204864 -0.018414199 0.71100891
-0.0042401724 -0.0141339 0.71063614
0.01847478 -0.0078162551 0.71157116
-0.0090091685 -0.0010600016 0.71061283
0.019200269 0.00071114302 0.71170461
-0.011326671 0.033094585 0.71093106
-0.011326671 0.033094585 0.71093106
-0.010991104 0.035029709 0.71029961
-0.011170452 -0.025430223 0.71215725
-0.0042862003 -0.024288446 0.71248817
0.00018010911 -0.016925126 0.71389902
0.020885363 -0.013247341 0.71289039
-0.016858347 0.01363042 0.71321821
-0.016858347 0.01363042 0.71321821
-0.010203782 -0.040086299 0.71598274
-0.0036400543 -0.03858459 0.71578217
-0.0090229735 -0.035009034 0.71429038
-0.0010842892 -0.028192401 0.71454406
0.0036085839 -0.02706477 0.7142626
-0.010348234 -0.020877562 0.71535301
-0.017030388 -0.017029375 0.71497101
-0.0032183626 -0.043040898 0.71764761
-0.0012249294 -0.040675484 0.71749294
0.00072931574 -0.021879464 0.71609718
0.023352122 -0.008757025 0.71620291
-0.020635499 0.017318994 0.71794802
-0.004672918 -0.045500122 0.71815437
-0.013019387 -0.031059679 0.71963388
-0.013019387 -0.031059679 0.71963388
-0.018245375 -0.050973654 0.72166455
-0.0011255591 -0.049173176 0.72126698
0.0047568576 -0.038675319 0.7213248
-0.020135369 -0.029830188 0.72006577
0.0045078467 -0.029300988 0.72140646
0.0045078467 -0.029300988 0.72140646
0.0075182552 -0.019171908 0.72153151
-0.017904561 0.0067142248 0.72013068
-0.018912036 -0.056884784 0.72337866
-0.017011512 -0.057082184 0.722552
0.0060843895 -0.039168909 0.72363746
-0.021221347 -0.02917777 0.72299922
-0.0015361276 -0.05875732 0.72545177
0.0010543918 -0.052942637 0.72492826
0.002302239 -0.051033512 0.72529459
-0.02258629 -0.04899827 0.72485733
-0.02303363 -0.032822333 0.72538507
-0.021270992 -0.06304051 0.72676426
0.0047932081 -0.054322988 0.73288858
0.0047932081 -0.054322988 0.73288858
0.0098822303 0.042159516 0.68757904
0.012255902 0.04350847 0.68796659
0.0056727044 0.049527407 0.68680501
-0.0082742991 0.026262064 0.69173849
-0.0084947199 0.030092085 0.69117302
0.0059595201 0.030369781 0.69146919
0.0059595201 0.030369781 0.69146919
-0.0070952075 0.025913958 0.69403625
0.014234343 0.029815571 0.69382441
0.022128843 0.037510287 0.6936636
0.019547556 0.042168137 0.69225693
-0.0086075254 -0.0071179941 0.69987404
0.010430788 0.013490174 0.69729763
-0.0093143983 0.016982503 0.69699013
0.0214167 0.022403006 0.6991179
0.0214167 0.022403006 0.6991179
0.0085292524 0.02616052 0.69842041
0.004904476 -0.0099139363 0.701424
-0.016272537 -0.0055094846 0.70371383
-0.0027170412 -0.0059157396 0.70224583
0.0016147158 0.0065766661 0.7019825
0.0016147158 0.0065766661 0.7019825
-0.0091612171 0.0099939145 0.70189768
0.020256672 0.011478841 0.70303786
-0.016857311 -0.0057040788 0.70445609
0.017284874 -0.0015020098 0.70730895
0.018264499 0.025976606 0.70605594
-0.011005263 0.046160452 0.70674324
-0.0096933469 -0.021954169 0.71082085
-0.0055227838 -0.014107209 0.70965922
-0.0022131524 -0.01098294 0.71108544
0.026004396 -0.011406465 0.71018887
0.009844536 -0.0063836868 0.71040362
0.009844536 -0.0063836868 0.71040362
-0.0096611725 0.0014894822 0.70935357
0.014020311 0.01008137 0.71132779
0.017305391 0.013548683 0.7097038
-0.014311085 0.041670915 0.70932835
-0.0095626432 -0.040070705 0.71591425
-0.016025614 -0.030048452 0.71588498
0.017734243 -0.010740506 0.71224463
0.010395132 0.0010361961 0.7133975
-0.010054796 -0.052136082 0.7198357
-0.010525405 -0.032843757 0.71722311
-0.0064383368 -0.030674342 0.71770567
-0.00072996231 -0.023358792 0.71625328
-0.00072996231 -0.023358792 0.71625328
0 -0.052483916 0.72365868
-0.015217878 -0.051067475 0.72033501
-0.019125897 -0.042113598 0.72050428
0.012747481 -0.014247119 0.72105503
-0.018262722 0.0059536891 0.72043639
-0.019738287 -0.058547366 0.72418797
-0.019738287 -0.058547366 0.72418797
0.0051761386 -0.045473441 0.72641993
-0.00078052469 -0.063222498 0.72846013
