# .PCD v0.7 - Point Cloud Data file format
VERSION 0.7
FIELDS x y z
SIZE 4 4 4
TYPE F F F
COUNT 1 1 1
WIDTH 449
HEIGHT 1
VIEWPOINT 0 0 0 1 0 0 0
POINTS 449
DATA ascii
0.013405118 0.055407241 0.68385804
0.0059990054 0.052791268 0.68485355
0.0074703554 0.053488314 0.68430698
0.011641164 0.053131282 0.68414867
0.016193345 0.053977817 0.68481803
0.0035999066 0.056698501 0.68487382
0.011465456 0.04857716 0.68570924
0.0054298919 0.050377205 0.68567944
0.016508445 0.051739477 0.68583441
0.016508445 0.051739477 0.68583441
0.0033128876 0.054516792 0.68545616
0.016816724 0.055855572 0.68502176
0.015630065 0.057109863 0.6851567
0.001514371 0.055439919 0.68630236
0.0067417929 0.041676551 0.68798959
0.0094972793 0.041665301 0.68794966
0.0094542839 0.04361137 0.68728006
0.0034707994 0.044509362 0.68789881
0.01435732 0.045514911 0.68751907
0.01435732 0.045514911 0.68751907
-0.00061147736 0.057478875 0.68764848
0.00061211071 0.060598969 0.68780136
0.013516279 0.042698935 0.68834829
0.020496449 0.051445179 0.6884706
0.022168059 0.056035966 0.68868703
0.0095732342 0.038292676 0.68913233
0.012386872 0.038708746 0.68954754
0.012386872 0.038708746 0.68954754
-0.00061868283 0.047329143 0.68938798
0.019785114 0.048535094 0.68929189
0.020477733 0.048711881 0.68983579
-0.0018521107 0.056489319 0.68907112
-0.0024805611 0.057362929 0.68973982
-0.0024790347 0.058567181 0.68964779
0.0056167608 0.033388332 0.69069207
0.0065513239 0.033380397 0.69065624
0.0084046964 0.034552269 0.69032562
0.0096593229 0.034586057 0.69047272
0.00062458799 0.037475288 0.69081366
0 0.041370645 0.69021702
0.020006306 0.045639426 0.69096065
-0.0016612438 0.046296239 0.69038618
-0.0025002037 0.047503889 0.69092536
-0.002485974 0.054069936 0.69006658
0.0034447182 0.032569274 0.69123471
0.011519857 0.032464713 0.69172227
0.011519857 0.032464713 0.69172227
0.00063310622 0.029439285 0.69287014
0.0034667195 0.029310271 0.69220036
0.0094439881 0.030220747 0.69202352
0.014502447 0.034364223 0.69225085
-0.0014727339 0.035546016 0.69236147
0.020247355 0.042708933 0.69277924
0.020835433 0.044511721 0.69245255
-0.00063407078 0.030435413 0.69310302
-0.0019014491 0.033592284 0.69304156
-0.0035996675 0.038321346 0.69336545
0.02290467 0.047399491 0.69362688
0.013476616 0.02695325 0.69495535
0.015362252 0.03040415 0.69455713
-0.0044906712 0.033679947 0.69490248
-0.0044681998 0.038617924 0.69412744
0.020437684 0.040555656 0.69421518
0.0083899591 0.025169879 0.69583362
0.012641683 0.02528288 0.69520712
0.00064941013 -0.0025976002 0.69680625
0 0.020414606 0.69648969
0.014863042 0.02649501 0.69603586
0.018157378 0.031450808 0.69658113
-0.006500395 0.033476979 0.69695818
0.0095827123 0.016769936 0.69776344
0.0084886122 0.018609494 0.69766569
0.00065192254 0.021513462 0.69741279
0.014982131 0.024101704 0.69728589
0.0019568617 0.025439203 0.69750082
0.017628821 0.028401643 0.69765341
-0.0026334519 -0.006583631 0.6989677
-0.0036169523 -0.004603073 0.6987797
-0.0091789588 -0.0026225448 0.69831026
-0.0065608807 2.9802322e-08 0.69841844
0.012482135 0.017408982 0.69862759
0.0054599531 0.020529848 0.69820619
-0.002650466 0.0079514384 0.69999456
0.0026371493 0.020437926 0.6991908
0.015173743 0.020451605 0.69929719
-0.0086125042 0.032462507 0.69996649
-0.0086125042 0.032462507 0.69996649
0.020467032 0.032351166 0.69941759
0.022437653 0.038276017 0.69934618
-0.0079117343 0.042525724 0.69919658
-0.0086548468 -0.013315111 0.70075279
-0.0037595106 -0.0097302003 0.70018852
-0.004640847 0.0092816949 0.70008183
0.0066505554 0.0096431524 0.7005834
0.0072943736 0.010610014 0.70011723
0.00066522468 0.01663062 0.70062423
-0.0086203935 0.03647089 0.700113
-0.0093432534 -0.014348745 0.70114338
-0.0026692387 -0.014680833 0.70112759
-0.0026692387 -0.014680833 0.70112759
0 -0.013403565 0.70182043
-0.0073790653 0.0013416708 0.70197606
0.0093466071 0.0073437989 0.70120126
0.0053378008 0.0093411803 0.70110708
0.010676011 0.009341538 0.70111334
0.0023422965 0.01137802 0.70160645
0.0023422965 0.01137802 0.70160645
-0.0066692028 0.028010666 0.70103359
-0.0033720362 -0.020232201 0.7028411
-0.0033566738 -0.017454684 0.70209932
0.0073976032 -0.0013450086 0.70238292
0.0073976032 -0.0013450086 0.70238292
-0.0093935328 0.0013419688 0.70201045
-0.0033692906 0.0023580194 0.70270848
0.0073957909 0.0023529232 0.70234311
0.0084092086 0.0033635497 0.70243049
0.010116736 0.0047211349 0.70285118
0.0023569264 0.0074082315 0.7026158
0.00067440723 0.0087673068 0.7028411
-0.00067319401 0.01043421 0.70254815
-0.00067319401 0.01043421 0.70254815
-0.0043773297 0.017508194 0.70259571
-0.006392695 0.021532327 0.70247352
-0.006392695 0.021532327 0.70247352
-0.0094374893 0.02561608 0.70276845
-0.010124833 0.030374527 0.70298147
-0.002368541 -0.02132082 0.70343518
-0.010478951 -0.02061972 0.70323747
-0.0064315801 -0.018617168 0.7034626
0.0013543091 -0.016590551 0.70350432
0.0022609122 -0.016503921 0.70376581
0.011539415 -0.0061091185 0.70389897
0.011539415 -0.0061091185 0.70389897
0.0033894 0.00033926964 0.70367944
0.0033779368 0.0040535629 0.70312601
0.00033897077 0.0054273307 0.70380878
-0.0061045703 0.015600592 0.70377737
-0.0045315735 -0.023563504 0.70412254
-0.011551376 -0.022423238 0.70406872
-0.0074979849 -0.021471694 0.70458603
0.00034057759 0.0023854077 0.70457327
0.012292167 0.0044386834 0.70489097
-0.007475839 0.016650558 0.70409995
0.016980477 0.016301274 0.70400274
-0.0095547717 0.01740317 0.70479089
-0.0084484164 -0.023518732 0.70540041
0.0095779877 -0.0085519254 0.7051912
0.015740313 -0.0075279474 0.70524424
0.01230997 -0.0013677478 0.70512974
0.01096611 -0.00068536401 0.70549059
0.013359036 0.0065082908 0.7054165
-0.0075619328 0.0089368522 0.70598948
-0.005517656 -0.03138186 0.70653474
-0.0055079781 -0.030293882 0.70624274
-0.0113755 -0.029301465 0.70647538
-0.0086092008 -0.026515789 0.70629573
0.011386476 -0.016562507 0.70663071
0.010356665 -0.015535146 0.70671272
0.0055139656 -0.013784915 0.7064234
0.010323677 -0.013420954 0.70618182
-0.0086421696 0.0034568906 0.70693755
-0.0096749645 0.0089839101 0.70686352
0.016584236 0.011401519 0.70684934
-0.012438992 0.013821125 0.70686018
0.014447507 0.015135497 0.70611697
-0.0076528983 -0.034090161 0.70798594
-0.0076528983 -0.034090161 0.70798594
-0.013620593 -0.031627141 0.70722455
-0.013620593 -0.031627141 0.70722455
-0.009269312 -0.031515233 0.70785785
-0.010398365 -0.029462308 0.70738393
0.00034715637 -0.027399532 0.7074877
0.0062299538 -0.011767715 0.70714074
0.014547978 0.012469709 0.70727205
-0.013603303 -0.036274746 0.70843828
-0.0076800855 -0.036305845 0.70858264
-0.01464201 -0.034513488 0.70835304
-0.0041769007 -0.033415198 0.70809031
0.0076724105 -0.018483698 0.7084142
0.0083578732 -0.01845713 0.7081722
0.0066139931 -0.017405465 0.70810711
-0.016088426 -0.011191934 0.70889819
-0.016076323 -0.010484576 0.70877117
-0.012539948 0.0083599687 0.70821428
-0.012539948 0.0083599687 0.70821428
0.01741932 0.011845142 0.70824057
-0.0084311655 -0.039345443 0.7096467
-0.0084311655 -0.039345443 0.7096467
-0.014374394 -0.038564622 0.7093035
-0.010550093 -0.037276983 0.70982587
0.010502093 -0.02450487 0.7090534
0.016144652 -0.0007019341 0.70948839
-0.014617834 -0.043382268 0.71078646
0.0014104533 -0.026093394 0.71028161
-0.014123624 -0.025422543 0.71051204
0.0049569495 -0.025492877 0.71098387
0.015547299 0.0035335124 0.71063608
-0.014846159 0.0063626468 0.71070004
-0.014089434 0.011976033 0.71009928
-0.0095991408 -0.045505702 0.71168184
-0.016311917 -0.043262035 0.71124417
0.0074659651 -0.030575946 0.71169204
0.018423541 -0.0035429895 0.71109539
-0.013496329 2.9802322e-08 0.71151435
-0.020575687 0.0046116561 0.7113148
-0.0078809438 -0.050151438 0.712991
-0.016418524 -0.047471181 0.71236312
-0.0064368169 -0.046488136 0.71268976
-0.012635168 -0.045534067 0.71268773
-0.010690445 -0.045612544 0.71208489
0.018537709 -0.0078428686 0.71215552
0.01861226 2.9802322e-08 0.71284771
0.0071729543 -0.03586477 0.7131952
0.017622706 -0.012588002 0.71368021
0.02007002 -0.0071678758 0.71307236
-0.017268961 -0.0025185794 0.71373713
0.016517913 0.00071817636 0.71340638
0.016517913 0.00071817636 0.71340638
-0.011530808 -0.051167965 0.71401125
-0.011530808 -0.051167965 0.71401125
-0.0072238357 -0.051289231 0.71442354
-0.0043461202 -0.042012483 0.71489912
-0.0036184927 -0.041250795 0.71474099
0.0043444536 -0.038375974 0.71483207
0.001445943 -0.033618346 0.71456552
0.001445943 -0.033618346 0.71456552
0.017378321 -0.016654193 0.71483719
0.017378321 -0.016654193 0.71483719
-0.018449124 -0.0043408722 0.71468878
-0.019566922 -0.0036235154 0.71498299
-0.021002043 -0.00072419643 0.71486408
-0.021002043 -0.00072419643 0.71486408
-0.021002043 -0.00072419643 0.71486408
-0.020587601 0.00036100298 0.71441799
0.0065289 -0.04243803 0.71515989
0.0065289 -0.04243803 0.71515989
-0.00072831602 -0.041514009 0.71585584
0.0036384382 -0.040750474 0.71570408
0.0086991312 -0.039871007 0.71503776
0.00036349666 -0.036376998 0.7156685
-0.0036524974 -0.049673975 0.71638292
-0.0036599021 -0.046481073 0.71674049
0.0014653921 -0.042496324 0.71691322
-0.016451143 -0.035826832 0.71654248
-0.0014588642 -0.035742164 0.71612525
0.014659299 -0.02125594 0.71697807
-0.015344811 -0.020459741 0.71643263
0.0044107409 -0.048518121 0.71749926
0 -0.045697331 0.71796536
0.015464 -0.025405332 0.71780288
0.016134692 -0.023468643 0.71708196
0.014683587 -0.022392645 0.71727133
-0.022022303 -0.020554155 0.71724659
-0.017603189 -0.015402794 0.71709919
-0.022429079 -0.0095597506 0.71755743
-0.0081349965 -0.053247243 0.71856678
0.005169576 -0.052434295 0.71831703
0.0036986072 -0.051780492 0.71860933
0.0014782569 -0.048413083 0.71846616
0.0014782569 -0.048413083 0.71846616
0.0014782569 -0.048413083 0.71846616
0.00036906562 -0.046512023 0.71826285
-0.019247016 -0.04145506 0.71874166
-0.019581139 -0.037312835 0.71840692
-0.020703033 -0.018484831 0.7185303
-0.01991516 -0.015489548 0.71809673
-0.022570232 -0.013319924 0.71867561
-0.010435768 -0.056651294 0.71998316
-0.01639843 -0.033542246 0.71997619
0.013371266 -0.028599858 0.71936417
0.013371266 -0.028599858 0.71936417
-0.023528866 -0.014612546 0.71940321
0.020410165 0.0014843643 0.71920288
-0.019333927 0.0089233816 0.7195487
-0.016362978 0.0089252591 0.71958709
-0.0067259651 -0.056797028 0.72044599
-0.013420237 -0.05591768 0.72002101
-0.0055977385 -0.055602983 0.72020888
-0.0055977385 -0.055602983 0.72020888
-0.020923674 -0.044462398 0.72043264
0.012718145 -0.032543689 0.72063839
0.014424665 -0.032331012 0.72014892
0.014424665 -0.032331012 0.72014892
-0.017238036 -0.031478167 0.72096521
-0.0045091789 -0.057492435 0.7214601
-0.021047814 -0.048860967 0.72150302
-0.021756783 -0.040512592 0.72114718
-0.021762798 -0.024764538 0.72119737
-0.023299912 -0.023299873 0.72147948
-0.0030162397 -0.057308555 0.72207093
-0.023418957 -0.043816119 0.72240657
0.012457995 -0.038507372 0.72230917
0.012457995 -0.038507372 0.72230917
-0.023472957 -0.028394923 0.72282714
-0.00075929996 -0.0569475 0.72333598
0.011428759 -0.043429315 0.72396785
-0.024276916 -0.028449699 0.72317994
-0.027350817 -0.024311811 0.72344339
-0.022915509 -0.051560074 0.72443455
0.009934376 -0.043558389 0.72451472
-0.025272278 -0.033696353 0.72491169
-0.026738407 -0.029412448 0.72445965
0.0023025039 -0.055260062 0.72531593
0.010744353 -0.04758212 0.72530448
-0.024608091 -0.041526139 0.7256785
0.0092469845 -0.048546672 0.72605973
-0.026225621 -0.037410274 0.72624314
0.012407846 -0.048080415 0.72724468
-0.027533077 -0.040329799 0.72726482
-0.029491141 -0.036475867 0.72738773
0.016863003 0.053173151 0.68541014
0.007015741 0.057767659 0.68417263
0.0087346369 0.059029385 0.68544257
0.016827136 0.047574364 0.68774784
0.00076866883 0.055139907 0.68690318
0.00076866883 0.055139907 0.68690318
0.010909602 0.040870473 0.68840456
0.011645942 0.042293161 0.68800259
0.013227674 0.042921197 0.68817377
0.021240544 0.057155482 0.68866062
0.0018874708 0.031457871 0.6919167
0.0051331739 0.034999862 0.69024396
0.0051331739 0.034999862 0.69024396
0.011212131 0.034964763 0.69067508
-0.0012843767 0.04298117 0.69071549
-0.0018676004 0.061630815 0.69031763
0.0048105568 0.026838256 0.69284391
0.013088495 0.031114617 0.69291276
0.017082438 0.036955971 0.69275761
-0.0018887704 0.038405031 0.69202125
0.019548889 0.042250842 0.6922673
0.00021480734 0.023129871 0.69513786
0.00064309238 0.025213141 0.69478071
-0.003308421 0.030645415 0.69456446
0.018033992 0.033169314 0.6955173
-0.0008719879 -0.0047952733 0.69788897
-0.0008719879 -0.0047952733 0.69788897
0 0.019245669 0.6975314
0.012638055 0.019392481 0.69783735
0.0088798497 0.022969432 0.69641876
0.018435197 0.031121274 0.69710296
-0.0068249605 0.04094208 0.69692057
0.0077777198 0.011087183 0.69983053
0.0051641725 0.017032227 0.69920075
0.017618734 0.026809921 0.69853961
-0.0013394348 -0.016073197 0.70170879
-0.01051528 -0.012852229 0.70120549
-0.0051233447 -0.0091108922 0.700472
-0.0037595106 -0.0097302003 0.70018852
0.0029440434 0.012946108 0.70100087
0.0029440434 0.012946108 0.70100087
-0.0088744499 0.029048707 0.70170832
0.012944085 -0.004750568 0.70307368
0.014935679 -0.0050012963 0.70316839
-0.0093990732 0.00083886087 0.702106
-0.0093990732 0.00083886087 0.702106
0.00084318395 2.2351742e-08 0.70266211
0.00084318395 2.2351742e-08 0.70266211
0.0047900924 0.0029685141 0.70292217
0.0048757344 0.0048758946 0.70240557
-0.0069118193 0.021069774 0.70280218
-0.01118899 -0.023173526 0.70429862
-0.0051390622 -0.023162758 0.70422482
0.012932975 -0.012847304 0.70544064
0.01119038 0.0028675683 0.70457631
-0.0054695462 0.0090584904 0.70508289
-0.0088202152 -0.031028194 0.70757222
0.010947074 -0.017193777 0.70694947
0.010947074 -0.017193777 0.70694947
-0.013133234 -0.01088621 0.70689106
0.017930176 0.015515804 0.70651424
0.019316506 0.020006388 0.70657533
-0.013121628 -0.036919359 0.70898986
0.0094982367 -0.026384085 0.70988333
0.0050877421 -0.019126117 0.70946765
-0.010974413 0.0052255765 0.70823371
-0.013230499 0.013056621 0.70813662
-0.015000978 -0.043214798 0.7108981
-0.010997528 -0.038961802 0.71039867
-0.010997528 -0.038961802 0.71039867
0.010954143 -0.027118973 0.71062905
0.0049551418 -0.024954792 0.71093482
-0.010901414 -0.0049769431 0.7116636
-0.012270411 -0.0030233786 0.71175319
-0.012270411 -0.0030233786 0.71175319
-0.010857359 -0.050612312 0.71347892
0.0069367085 -0.033079103 0.71253753
-0.019023836 -0.02153571 0.71333092
0.017206965 -0.010794572 0.71336335
-0.020152897 -0.0070170239 0.71378684
-0.018011732 -0.0021614134 0.71396142
-0.019129116 0.0071515515 0.71267807
-0.019129116 0.0071515515 0.71267807
-0.013363928 -0.050564691 0.71441615
-0.005002616 -0.051119745 0.71507895
-0.005002616 -0.051119745 0.71507895
-0.00097400218 -0.043106183 0.71640778
-0.018392984 -0.039177477 0.71764314
0.016399581 -0.023006817 0.7172932
-0.016919993 -0.019073095 0.71736163
-0.014337206 -0.054742113 0.71983254
0.0037122953 -0.052714586 0.71927023
0.0051807421 -0.052541785 0.71868265
-0.020716272 -0.045334015 0.71944851
-0.003570846 -0.056759588 0.72152048
-0.003570846 -0.056759588 0.72152048
-0.020640619 -0.049160212 0.72122276
-0.021145193 -0.025193447 0.72104359
0.011328168 -0.037194699 0.72234881
-0.024360526 -0.030831501 0.72381073
-0.023095526 -0.029058654 0.72283393
0.010781692 -0.050057858 0.72594839
-0.025955265 -0.04465887 0.72432345
-0.024626952 -0.038864508 0.72582078
-0.026179934 -0.036189884 0.72591877
0.012929284 0.055041403 0.68381059
0.0024185521 0.050425019 0.68690044
0.0061989352 0.034278121 0.69040364
0.016561482 0.038575459 0.69161642
-0.0020065797 0.061340772 0.69045633
0.023370011 0.049323075 0.69319856
0.023370011 0.049323075 0.69319856
-0.0078562433 -0.0098422281 0.69974482
0.0015041367 0.018360328 0.6990636
0.02053461 0.031795532 0.6999439
0.0013853315 -0.013906742 0.70254999
0.0095854551 0.0059147086 0.70200986
-0.0014162472 0.009747115 0.70156914
-0.009320626 0.022320811 0.70351684
-0.0035671345 0.025921863 0.70023507
-0.0055653658 -0.036174864 0.70797449
-0.0055653658 -0.036174864 0.70797449
-0.0062369741 -0.02618812 0.70540488
-0.0063801329 -0.022425469 0.70445526
-0.011710929 -0.012744337 0.70633459
-0.0097744148 0.010192763 0.70661479
-0.016228318 -0.039159521 0.71036661
0.0019959942 -0.021974616 0.71128726
-0.0179362 -0.0078139007 0.71151972
-0.020835256 0.0059785522 0.71149969
-0.0036437644 -0.044453889 0.71596128
0.0018812914 -0.040670138 0.71588117
0.0056564589 -0.034260135 0.71329039
0.011252303 -0.030007072 0.71250379
-0.018284544 -0.022009803 0.71375352
-0.013676763 -0.017075274 0.71586001
-0.018690156 -0.045826312 0.71836352
-0.014242365 -0.056901276 0.72071064
-0.022352546 -0.045310192 0.72070348
