# .PCD v0.7 - Point Cloud Data file format
VERSION 0.7
FIELDS x y z
SIZE 4 4 4
TYPE F F F
COUNT 1 1 1
WIDTH 1297
HEIGHT 1
VIEWPOINT 0 0 0 1 0 0 0
POINTS 1297
DATA ascii
-0.026194427 -0.011703849 0.67457569
-0.02614578 -0.012238413 0.67432582
-0.02603549 -0.012740731 0.67375922
-0.02596578 -0.013259113 0.67340124
-0.025890859 -0.013771713 0.67301637
-0.025796305 -0.014270246 0.67253065
-0.025697505 -0.014762372 0.67202318
-0.025599461 -0.015250742 0.67151958
-0.02550224 -0.015735418 0.67102021
-0.025405597 -0.016216338 0.67052376
-0.025638605 -0.016910583 0.67172062
-0.025233975 -0.017180592 0.66964221
-0.025153134 -0.017660677 0.66922694
-0.025083901 -0.0181458 0.66887134
-0.02504044 -0.018647105 0.66864812
-0.025014512 -0.019160032 0.66851491
-0.025007082 -0.019686401 0.6684767
-0.025024632 -0.020232677 0.66856694
-0.025090916 -0.020820081 0.6689074
-0.031200094 -0.026553273 0.70028794
-0.031152362 -0.027175456 0.70004272
-0.031104777 -0.027795762 0.69979835
-0.031057335 -0.02841413 0.69955462
-0.031010039 -0.029030651 0.69931173
-0.030948101 -0.029631138 0.69899356
-0.030879285 -0.030222267 0.69864011
-0.030810773 -0.030810773 0.69828814
-0.03074245 -0.031396538 0.69793719
-0.030674543 -0.031979829 0.69758838
-0.030606821 -0.032560438 0.69724059
-0.030539514 -0.033138633 0.69689476
-0.030465793 -0.033706814 0.6965161
-0.03037818 -0.03425625 0.69606608
-0.030291183 -0.034802616 0.69561923
-0.03020457 -0.035345763 0.69517434
-0.03011856 -0.03588593 0.69473249
-0.030032931 -0.036422908 0.69429266
-0.029952841 -0.036963075 0.69388121
-0.029860612 -0.037484586 0.69340754
-0.029872738 -0.03813538 0.69346976
-0.030020343 -0.038962573 0.69422799
-0.029465484 -0.039496273 0.69137788
-0.029358801 -0.039977938 0.69082987
-0.029253937 -0.040457577 0.69029129
-0.029146384 -0.04092893 0.68973875
-0.029035488 -0.041391015 0.68916917
-0.028918879 -0.041840076 0.6885702
-0.028981593 -0.042547405 0.68889225
-0.02972332 0.0012923181 0.69602144
-0.029560715 0.00064262748 0.69516802
-0.02940334 5.9604645e-08 0.69434202
-0.029248491 -0.00063583255 0.69352931
-0.029212354 -0.0012700558 0.69333971
-0.029374484 -0.0019156933 0.69419056
-0.029570887 -0.0025713444 0.6952213
-0.029770045 -0.0032358468 0.69626653
-0.029971791 -0.0039093494 0.69732541
-0.030115001 -0.0045827031 0.69807708
-0.025952378 -0.0045134425 0.67623037
-0.0257944 -0.0050466955 0.67540127
-0.025645407 -0.0055750906 0.67461932
-0.025505207 -0.0060990453 0.6738835
-0.025368143 -0.0066177547 0.67316413
-0.025250241 -0.0071359277 0.67254531
-0.025183326 -0.0076644719 0.67219412
-0.025159858 -0.0082042813 0.67207098
-0.025171982 -0.0087554455 0.67213464
-0.025229435 -0.0093239248 0.67243618
-0.025323691 -0.0099092424 0.67293084
-0.02542698 -0.010502428 0.67347294
-0.025531117 -0.011100471 0.67401952
-0.025586046 -0.011680573 0.67430776
-0.025564602 -0.012226522 0.67419523
-0.025480242 -0.012740105 0.67375243
-0.025383452 -0.013243556 0.67324448
-0.025333885 -0.013768405 0.67298436
-0.025249843 -0.014271617 0.67254323
-0.025158037 -0.014766634 0.67206144
-0.025062729 -0.01525557 0.67156124
-0.024970168 -0.015742034 0.67107546
-0.025206517 -0.016438991 0.67231584
-0.030879609 -0.020810157 0.70208991
-0.024716558 -0.017194122 0.66974443
-0.024638452 -0.0176754 0.66933453
-0.024566578 -0.01815787 0.66895729
-0.024508266 -0.018647611 0.66865122
-0.024473067 -0.01915285 0.66846651
-0.024455095 -0.019670367 0.66837221
-0.024458686 -0.020204991 0.66839105
-0.024487615 -0.020761251 0.66854286
-0.024567107 -0.021362692 0.66896003
-0.030577272 -0.027253628 0.70050317
-0.03053043 -0.027875602 0.7002573
-0.030483732 -0.02849564 0.70001221
-0.030421419 -0.029098749 0.69968522
-0.030353481 -0.029693604 0.6993286
-0.030285729 -0.030285716 0.69897306
-0.030218394 -0.030875266 0.6986196
-0.030151244 -0.031462133 0.69826722
-0.030084506 -0.032046527 0.69791698
-0.030018061 -0.032628328 0.6975683
-0.029943381 -0.033198088 0.69717634
-0.029856907 -0.033751279 0.69672251
-0.029771043 -0.0343014 0.69627184
-0.029685561 -0.034848243 0.69582325
-0.029600678 -0.035392106 0.69537771
-0.029516172 -0.03593272 0.69493425
-0.029432254 -0.036470383 0.69449377
-0.029348703 -0.037004828 0.69405526
-0.029251488 -0.037518233 0.69354504
-0.029154913 -0.038028151 0.69303823
-0.029248169 -0.038785607 0.69352764
-0.028952857 -0.039023399 0.69197774
-0.028846784 -0.039507538 0.69142103
-0.028742 -0.039988846 0.69087112
-0.028637873 -0.040466577 0.69032466
-0.028526044 -0.040928632 0.68973768
-0.028411044 -0.041381299 0.68913418
-0.028296467 -0.041829586 0.68853283
-0.028216941 -0.042325407 0.68811548
-0.029249698 0.0019500256 0.69694698
-0.02907154 0.0012921095 0.69599122
-0.02891713 0.00064262748 0.69516277
-0.028755993 -0 0.69429833
-0.028704785 -0.00063785911 0.69402355
-0.028842878 -0.0012818873 0.69476449
-0.029036449 -0.0019357502 0.69580293
-0.029232746 -0.0025984645 0.69685602
-0.029431712 -0.003270179 0.69792354
-0.029587539 -0.003944993 0.6987595
-0.025531547 -0.0039715767 0.67699945
-0.025362831 -0.0045089424 0.67609429
-0.025215261 -0.0050430298 0.67530257
-0.025076795 -0.0055726171 0.67455971
-0.024939762 -0.0060963631 0.67382455
-0.024811227 -0.0066162944 0.67313498
-0.024694456 -0.0071339309 0.67250848
-0.02462779 -0.0076619685 0.67215085
-0.024604693 -0.0082015395 0.67202693
-0.024610346 -0.0087503195 0.67205727
-0.024648443 -0.0093116462 0.67226166
-0.02472765 -0.0098910332 0.67268658
-0.024803592 -0.010472596 0.67309403
-0.024886414 -0.011060625 0.67353833
-0.024967959 -0.011651695 0.67397583
-0.024973301 -0.012209147 0.67400455
-0.024923941 -0.012738883 0.67373967
-0.024825487 -0.013240248 0.67321151
-0.024767995 -0.013759971 0.67290306
-0.024703195 -0.014272928 0.67255539
-0.024616236 -0.014769733 0.67208886
-0.024526192 -0.015260726 0.67160583
-0.024623368 -0.015868396 0.67212713
-0.024728354 -0.016485572 0.67269039
-0.024834003 -0.017107874 0.67325717
-0.030255428 -0.021514952 0.70234269
-0.024126934 -0.017693073 0.66946381
-0.024056185 -0.018175781 0.66908425
-0.023991812 -0.018660247 0.66873884
-0.023942512 -0.019153982 0.66847438
-0.02391373 -0.01966238 0.66832
-0.023905395 -0.020186782 0.6682753
-0.023914827 -0.020726204 0.6683259
-0.023952121 -0.021290779 0.66852593
-0.024049822 -0.021912038 0.66905004
-0.029952887 -0.027955979 0.70071959
-0.029890133 -0.028561652 0.70038289
-0.029822975 -0.029160231 0.70002258
-0.029756231 -0.029756248 0.69966453
-0.029689675 -0.030349433 0.69930744
-0.029623525 -0.030940115 0.69895262
-0.02955756 -0.031528026 0.69859862
-0.029491998 -0.032113492 0.6982469
-0.029416429 -0.032684863 0.69784153
-0.02933123 -0.033242077 0.69738448
-0.029246524 -0.033795983 0.69692999
-0.029162196 -0.034346551 0.69647753
-0.029078351 -0.03489399 0.69602776
-0.028995097 -0.035438448 0.69558108
-0.028912317 -0.035979748 0.69513696
-0.028827989 -0.036515474 0.69468462
-0.028725246 -0.037023634 0.6941334
-0.028627951 -0.037534386 0.69361138
-0.02853433 -0.038045734 0.69310915
-0.028436046 -0.038546622 0.69258189
-0.028331453 -0.039034426 0.69202077
-0.028227728 -0.039518803 0.69146425
-0.028124759 -0.039999634 0.69091177
-0.028011093 -0.040460438 0.69030201
-0.027894961 -0.040912598 0.68967891
-0.027779885 -0.041361123 0.68906152
-0.027665654 -0.041805863 0.68844879
-0.027546924 -0.042238623 0.68781173
-0.027641788 -0.042998314 0.68832076
-0.028577143 0.0019484758 0.69682324
-0.028424554 0.0012920499 0.69598597
-0.02826125 0.00064229965 0.69509006
-0.028194748 2.9802322e-08 0.69472504
-0.028307296 -0.00064331293 0.69534266
-0.028498095 -0.0012953877 0.6963895
-0.028691374 -0.0019561946 0.69744992
-0.028887402 -0.002626121 0.69852561
-0.029054509 -0.0033016205 0.69944245
-0.029100189 -0.0039681792 0.69969314
-0.024926817 -0.0039655864 0.67679441
-0.02478072 -0.0045056045 0.67599285
-0.024643395 -0.0050406456 0.67523932
-0.024507977 -0.0055699646 0.67449629
-0.024380023 -0.0060949922 0.67379427
-0.024262251 -0.0066169798 0.6731481
-0.024167215 -0.0071402788 0.67262661
-0.024107464 -0.0076705217 0.67229879
-0.024074592 -0.008207202 0.67211837
-0.02408392 -0.0087577701 0.67216963
-0.024117503 -0.0093181431 0.67235386
-0.024183806 -0.0098933578 0.67271769
-0.024244783 -0.010469317 0.67305225
-0.024294097 -0.011042744 0.6733228
-0.0243471 -0.011620194 0.67361361
-0.024379635 -0.012189806 0.67379218
-0.024354856 -0.012730926 0.67365617
-0.024281982 -0.013244689 0.67325634
-0.024197204 -0.013748378 0.67279112
-0.024155226 -0.014273524 0.67256081
-0.024082404 -0.014777809 0.67216128
-0.023997502 -0.015271097 0.67169541
-0.023982672 -0.015806794 0.67161405
-0.0240843 -0.016421109 0.67217165
-0.024186714 -0.01704064 0.67273366
-0.029549578 -0.021490604 0.70215881
-0.023617163 -0.017712861 0.66960859
-0.023547687 -0.018195927 0.66922736
-0.023480998 -0.018678039 0.66886139
-0.023427242 -0.019167721 0.66856647
-0.023387678 -0.01966691 0.66834939
-0.023363018 -0.020177126 0.66821408
-0.023358949 -0.020704508 0.66819179
-0.023376022 -0.021250904 0.66828543
-0.02341985 -0.021823019 0.66852593
-0.029354069 -0.028019786 0.70108604
-0.029287942 -0.028622299 0.70072323
-0.029221999 -0.029221982 0.70036143
-0.029156461 -0.029819071 0.70000178
-0.029091109 -0.030413419 0.69964325
-0.029026156 -0.031005174 0.69928694
-0.028961495 -0.031594336 0.69893211
-0.028885109 -0.032167524 0.69851297
-0.028801095 -0.032728523 0.69805205
-0.028717566 -0.033286244 0.69759369
-0.028634414 -0.033840626 0.69713742
-0.028551741 -0.03439182 0.69668382
-0.02846965 -0.034940004 0.69623339
-0.028387925 -0.03548491 0.69578505
-0.028302161 -0.036020935 0.69531441
-0.028200883 -0.036532938 0.69475877
-0.028100329 -0.037041336 0.69420707
-0.028000692 -0.037546337 0.69366038
-0.027909096 -0.038057834 0.69315773
-0.027812025 -0.038557589 0.69262516
-0.027709799 -0.039045602 0.69206423
-0.027608221 -0.039529949 0.69150692
-0.027488887 -0.039983809 0.69085211
-0.027372934 -0.040437311 0.69021595
-0.02725951 -0.040889263 0.68959355
-0.027147118 -0.041337609 0.68897688
-0.027032876 -0.041778088 0.68835014
-0.026914096 -0.042206198 0.68769836
-0.026872372 -0.042751491 0.68746936
-0.028077444 0.0026119053 0.69766414
-0.027926829 0.0019483864 0.69681859
-0.027765224 0.001291424 0.69591123
-0.027683325 0.00064381957 0.69545138
-0.027767701 -0 0.69592512
-0.027955567 -0.00065013766 0.69697988
-0.028145887 -0.0013090968 0.69804847
-0.028338924 -0.0019771159 0.6991322
-0.028510561 -0.0026521683 0.70009589
-0.028568126 -0.0033218563 0.70041913
-0.024486374 -0.0034166873 0.67750233
-0.024341723 -0.0039625466 0.6766901
-0.024205593 -0.0045033693 0.67592585
-0.02407261 -0.0050384104 0.67517924
-0.023949519 -0.0055696368 0.67448813
-0.023832241 -0.0060966015 0.67382973
-0.023733588 -0.0066232979 0.67327577
-0.023661798 -0.0071535408 0.67287272
-0.023610946 -0.0076872706 0.67258728
-0.023585228 -0.0082274079 0.67244291
-0.023580613 -0.0087741613 0.67241693
-0.023625432 -0.0093402863 0.67266858
-0.0236813 -0.0099130869 0.67298228
-0.023718065 -0.010480046 0.67318863
-0.023742715 -0.011043102 0.67332709
-0.023756985 -0.011602223 0.6734072
-0.023775583 -0.012164235 0.67351156
-0.023778308 -0.012718618 0.67352688
-0.023735547 -0.013247728 0.6732868
-0.023651386 -0.013750792 0.67281425
-0.023597745 -0.014268398 0.67251313
-0.023545014 -0.014784068 0.67221707
-0.023470819 -0.015283316 0.67180055
-0.023392182 -0.015776098 0.671359
-0.023445187 -0.016357124 0.67165661
-0.023544494 -0.016973943 0.67221415
-0.023644648 -0.017596006 0.67277646
-0.028911076 -0.022187561 0.70234454
-0.023041399 -0.018218786 0.66938955
-0.022978324 -0.018703222 0.66903538
-0.022916999 -0.019186318 0.6686911
-0.022867333 -0.019676566 0.66841227
-0.022838043 -0.020182431 0.66824782
-0.022821508 -0.020698547 0.66815495
-0.022818441 -0.021226436 0.66813779
-0.022839438 -0.021777093 0.66825563
-0.022889333 -0.022356987 0.66853583
-0.028683297 -0.028683275 0.70106572
-0.028618578 -0.02928412 0.70070231
-0.028554259 -0.029882371 0.70034122
-0.028490119 -0.030477792 0.69998109
-0.028426375 -0.03107065 0.69962323
-0.028349141 -0.031645536 0.6991896
-0.028266333 -0.032210469 0.69872463
-0.028184006 -0.032772064 0.69826245
-0.02810216 -0.033330441 0.69780296
-0.028020682 -0.033885419 0.6973455
-0.02793978 -0.034437388 0.69689125
-0.027859239 -0.034986019 0.69643909
-0.027772035 -0.035522342 0.69594944
-0.027672352 -0.036038399 0.69538987
-0.027573282 -0.036550611 0.69483358
-0.027474916 -0.037059158 0.69428128
-0.02737725 -0.037564158 0.69373298
-0.027283465 -0.038069904 0.69320637
-0.027187647 -0.038568527 0.69266844
-0.027084742 -0.039052427 0.69209069
-0.026967028 -0.039509833 0.69142973
-0.026850428 -0.039963424 0.69077516
-0.026735503 -0.040414125 0.69012994
-0.026624786 -0.040865958 0.68950832
-0.026514979 -0.041314036 0.68889177
-0.026399357 -0.041747808 0.68824267
-0.026273182 -0.042159259 0.68753421
-0.026148574 -0.042567432 0.68683463
-0.027572462 0.0032824278 0.69851482
-0.027423657 0.0026118159 0.69765937
-0.027266257 0.0019476116 0.69675463
-0.027167784 0.0012937188 0.69618869
-0.027224142 0.00064823031 0.69651258
-0.027408928 2.9802322e-08 0.69757473
-0.027596341 -0.0006570816 0.69865209
-0.027786233 -0.0013231635 0.69974363
-0.027962135 -0.0019972622 0.70075464
-0.028030558 -0.002669543 0.70114797
-0.024041271 -0.0028620362 0.67821705
-0.023898203 -0.003414005 0.67739463
-0.023763405 -0.0039605796 0.67661983
-0.023632107 -0.0045013428 0.67586517
-0.023524607 -0.0050409734 0.67524719
-0.023489317 -0.005592674 0.67504436
-0.023623997 -0.0061872303 0.67581844
-0.023806278 -0.006801784 0.67686629
-0.023169938 -0.0071716607 0.67320853
-0.023135044 -0.0077116787 0.67300797
-0.023119358 -0.0082569122 0.67291778
-0.023133211 -0.0088126361 0.67299742
-0.023177592 -0.0093813837 0.67325246
-0.023205677 -0.0099452734 0.67341393
-0.023210917 -0.010500163 0.67344403
-0.023206415 -0.011050642 0.67341816
-0.023193801 -0.011596859 0.67334569
-0.023186283 -0.012145221 0.67330247
-0.02319417 -0.012701541 0.67334783
-0.023177814 -0.01324445 0.67325377
-0.023116941 -0.01376006 0.6729039
-0.023034479 -0.014259428 0.67242986
-0.023001878 -0.014786929 0.67224246
-0.022944521 -0.01529631 0.67191279
-0.022869876 -0.015791088 0.6714837
-0.022810964 -0.016293526 0.67114508
-0.022907281 -0.016907722 0.67169875
-0.023004415 -0.017527163 0.67225707
-0.028201727 -0.022158474 0.70213187
-0.02826673 -0.022882581 0.70250553
-0.022474362 -0.018728614 0.66921026
-0.022415539 -0.019213319 0.66887212
-0.022362437 -0.019700259 0.66856694
-0.022319276 -0.020193636 0.66831881
-0.022294182 -0.020701736 0.66817456
-0.022282677 -0.021221608 0.6681084
-0.022285806 -0.021755159 0.66812634
-0.022308495 -0.022308469 0.66825682
-0.022360381 -0.022892743 0.66855508
-0.028012587 -0.029346496 0.70104468
-0.027949391 -0.029945761 0.70068139
-0.027886583 -0.030542403 0.70032036
-0.027808683 -0.031119227 0.69987261
-0.027727 -0.031688005 0.69940311
-0.027645901 -0.032253534 0.69893694
-0.027565276 -0.032815784 0.69847345
-0.027485119 -0.033374757 0.69801271
-0.027405426 -0.03393051 0.69755459
-0.027326094 -0.034482896 0.69709861
-0.027237657 -0.035019815 0.6965903
-0.02713939 -0.035539657 0.69602543
-0.02704183 -0.036055773 0.69546461
-0.026944971 -0.036568165 0.6949079
-0.0268488 -0.03707689 0.69435513
-0.026753314 -0.03758204 0.69380629
-0.026658507 -0.038083583 0.69326127
-0.026557021 -0.038570911 0.69267792
-0.026441252 -0.03903231 0.69201249
-0.026326394 -0.039489597 0.69135225
-0.026212623 -0.039943039 0.69069827
-0.026099738 -0.040392429 0.69004941
-0.025990782 -0.040842623 0.68942308
-0.025880715 -0.041285872 0.68879044
-0.025756564 -0.041701078 0.68807679
-0.025625858 -0.042099595 0.68732548
-0.025495669 -0.042492747 0.68657708
-0.025552273 -0.043195486 0.68690246
-0.027061896 0.0039603114 0.69937402
-0.026915058 0.0032823384 0.6985094
-0.026762566 0.0026110113 0.69761145
-0.026650222 0.0019500256 0.69694996
-0.026676372 0.0013013184 0.69710392
-0.026858127 0.00065508485 0.69817418
-0.027042478 2.9802322e-08 0.6992597
-0.027229276 -0.00066408515 0.70035958
-0.027401479 -0.001336664 0.70137358
-0.027484581 -0.0020110905 0.70186293
-0.023591513 -0.0023016036 0.67893928
-0.023450084 -0.0028597414 0.67810649
-0.023316598 -0.0034121573 0.67732048
-0.023187112 -0.0039587915 0.67655802
-0.023076912 -0.0045028031 0.67590916
-0.023043467 -0.0050583184 0.67571223
-0.023163812 -0.0056496859 0.67642081
-0.02333577 -0.0062607825 0.67743337
-0.0235103 -0.006881088 0.67846107
-0.023601988 -0.007483542 0.67900097
-0.023594795 -0.00805673 0.67895859
-0.022688661 -0.0083007216 0.67362297
-0.022726739 -0.0088689327 0.67384714
-0.022751346 -0.0094334781 0.6739921
-0.02274292 -0.0099846721 0.67394245
-0.02271717 -0.010527462 0.67379087
-0.02268021 -0.011063486 0.6735732
-0.02264452 -0.011598408 0.67336309
-0.022613607 -0.012134105 0.67318106
-0.02260435 -0.012680441 0.67312652
-0.022607077 -0.013233393 0.67314255
-0.022574477 -0.013764888 0.67295063
-0.022505863 -0.014272004 0.67254663
-0.022448411 -0.014783084 0.67220831
-0.022410696 -0.015304863 0.67198622
-0.022349732 -0.015808344 0.67162728
-0.02228122 -0.016303301 0.67122382
-0.022275019 -0.016842067 0.67118728
-0.022369104 -0.017458797 0.67174137
-0.022463987 -0.018080771 0.67230004
-0.027557524 -0.02285257 0.70229244
-0.027619926 -0.023577958 0.70265985
-0.021916172 -0.019243449 0.6690743
-0.021863164 -0.019730181 0.66876221
-0.02181422 -0.020218045 0.66847402
-0.021775275 -0.020713031 0.66824466
-0.021757051 -0.021226406 0.66813743
-0.021750143 -0.021750152 0.66809672
-0.02175539 -0.022285998 0.6681276
-0.021779072 -0.022841424 0.66826701
-0.021833744 -0.023431331 0.668589
-0.027342051 -0.030009538 0.70102358
-0.027263565 -0.030588359 0.70056152
-0.02718314 -0.031161129 0.7000879
-0.02710329 -0.031730682 0.6996178
-0.02702391 -0.032296836 0.69915032
-0.026944993 -0.032859772 0.69868565
-0.026866535 -0.033419311 0.69822365
-0.026788432 -0.033975542 0.69776374
-0.026698768 -0.034512997 0.69723582
-0.026602052 -0.035036832 0.69666624
-0.026506031 -0.035556853 0.69610089
-0.026410703 -0.036073178 0.69553959
-0.026316155 -0.036585808 0.69498283
-0.026222184 -0.037094772 0.69442952
-0.026128883 -0.03760007 0.69388014
-0.026025303 -0.038085759 0.69327021
-0.025911318 -0.038551003 0.69259906
-0.025798423 -0.039012253 0.69193429
-0.025686415 -0.039469391 0.69127476
-0.025575466 -0.039922655 0.6906215
-0.02546538 -0.040371954 0.68997324
-0.025357325 -0.040819079 0.68933696
-0.025230413 -0.041230172 0.68858969
-0.025100697 -0.041630447 0.68782592
-0.024972046 -0.042026103 0.68706828
-0.024844706 -0.042417765 0.68631846
-0.024814153 -0.042970806 0.68613851
-0.02654607 0.004645586 0.70024449
-0.026401049 0.0039601624 0.69936919
-0.026253238 0.0032816529 0.69847709
-0.026121892 0.0026122034 0.69768435
-0.026126802 0.0019595325 0.69771397
-0.026289389 0.0013144612 0.6986953
-0.026447367 0.00066122413 0.6996488
-0.026596157 2.9802322e-08 0.7005468
-0.026742613 -0.0006685555 0.70143074
-0.026858268 -0.0013429224 0.70212877
-0.023137029 -0.00173527 0.67966914
-0.022997448 -0.002299726 0.67882663
-0.022865409 -0.0028581619 0.67802966
-0.02273763 -0.0034106374 0.67725849
-0.022624815 -0.0039593279 0.67657757
-0.022586137 -0.0045171976 0.67634416
-0.02269219 -0.0051057041 0.67698425
-0.022861347 -0.0057153404 0.67800522
-0.023033045 -0.0063340962 0.6790415
-0.023131408 -0.0069394112 0.67963517
-0.023127867 -0.0075165629 0.67961377
-0.023087375 -0.0080805719 0.67936939
-0.023012908 -0.0086298287 0.67891991
-0.022908069 -0.0091632009 0.67828727
-0.022799544 -0.0096898079 0.67763215
-0.022262992 -0.010018319 0.67439377
-0.022223122 -0.010555983 0.67415315
-0.022165 -0.01108247 0.67380238
-0.02209699 -0.011600882 0.67339188
-0.022045957 -0.012125254 0.67308384
-0.022020459 -0.012661725 0.67293
-0.022025555 -0.013215333 0.67296076
-0.022018855 -0.013761759 0.67292029
-0.021974921 -0.014283717 0.67265517
-0.021902753 -0.014784336 0.67221951
-0.021869322 -0.015308499 0.67201781
-0.021825708 -0.015823632 0.6717546
-0.021763235 -0.016322404 0.67137754
-0.021701323 -0.016818523 0.67100382
-0.021738729 -0.017390966 0.6712296
-0.021830577 -0.018010199 0.67178392
-0.021923136 -0.018634647 0.6723426
-0.026909124 -0.023545474 0.70243567
-0.02696101 -0.024264902 0.70274889
-0.021365525 -0.019763112 0.66897708
-0.021315916 -0.020250112 0.66867769
-0.021274284 -0.020742416 0.66842639
-0.021240471 -0.021240473 0.66822237
-0.021222698 -0.021753281 0.66811508
-0.021219848 -0.022280812 0.66809785
-0.021229312 -0.022821486 0.66815495
-0.021254048 -0.023379415 0.66830426
-0.021308661 -0.023972213 0.66863388
-0.026634585 -0.030629754 0.70077872
-0.026556011 -0.0312033 0.70030445
-0.026477799 -0.031773359 0.69983244
-0.026400147 -0.032340169 0.69936371
-0.026322948 -0.032903641 0.69889778
-0.026246199 -0.033463895 0.69843459
-0.026155418 -0.034002006 0.69788659
-0.026060374 -0.034529984 0.69731301
-0.025965923 -0.035053968 0.69674289
-0.025872154 -0.035574198 0.69617701
-0.025779059 -0.036090642 0.69561511
-0.025686633 -0.036603421 0.69505727
-0.025594866 -0.037112534 0.69450343
-0.02548944 -0.037596941 0.69386715
-0.025377372 -0.03806603 0.69319075
-0.025266286 -0.038531065 0.69252026
-0.025156256 -0.038992167 0.69185615
-0.025047092 -0.039449155 0.69119728
-0.02493896 -0.039902329 0.69054472
-0.024830604 -0.040349692 0.68989074
-0.024696739 -0.040749609 0.6890828
-0.024569001 -0.041153044 0.68831182
-0.024442662 -0.041552484 0.68754929
-0.024317617 -0.041947901 0.68679452
-0.02418315 -0.04232052 0.68598294
-0.024098869 -0.042775482 0.68547428
-0.026028875 0.0053392947 0.70115107
-0.02588133 0.0046453476 0.70023775
-0.025738284 0.003959775 0.69935226
-0.025547396 0.0032753348 0.6981706
-0.025517089 0.0026171803 0.69798297
-0.025623914 0.0019710958 0.69864422
-0.025756482 0.0013208389 0.69946492
-0.025885977 0.00066375732 0.70026648
-0.026015483 2.9802322e-08 0.70106816
-0.026142055 -0.00067031384 0.70185173
-0.022677824 -0.001162976 0.68040711
-0.022540219 -0.0017338693 0.6795553
-0.022409832 -0.0022984445 0.67874813
-0.022283437 -0.0028568208 0.6779657
-0.022168173 -0.0034104884 0.67725223
-0.022124523 -0.0039710402 0.67698199
-0.022216655 -0.0045572817 0.67755234
-0.02238296 -0.0051652789 0.67858183
-0.022551773 -0.005782485 0.67962682
-0.022656439 -0.0063902438 0.68027472
-0.022656515 -0.0069712102 0.68027514
-0.022617869 -0.0075392425 0.68003595
-0.022546669 -0.0080936551 0.67959523
-0.022443755 -0.0086322129 0.67895812
-0.022336915 -0.0091638565 0.67829674
-0.02223116 -0.0096904933 0.67764211
-0.022130739 -0.01021418 0.67702043
-0.021712398 -0.010577798 0.67443079
-0.021639863 -0.011097342 0.67398179
-0.021549772 -0.011603713 0.67342412
-0.02147376 -0.012113392 0.67295361
-0.021436801 -0.012642205 0.67272478
-0.021437479 -0.013192296 0.67272902
-0.021451529 -0.01375097 0.67281598
-0.021433953 -0.01428932 0.6727072
-0.021383153 -0.014803708 0.67239273
-0.021317091 -0.015304536 0.67198372
-0.021290364 -0.015831292 0.67181832
-0.021246769 -0.016343653 0.67154849
-0.021188235 -0.016841888 0.67118609
-0.021129627 -0.017337084 0.67082328
-0.021202091 -0.017940223 0.67127186
-0.021291703 -0.018561989 0.6718266
-0.021382073 -0.01918903 0.67238599
-0.026247781 -0.024228692 0.70250618
-0.020868085 -0.019797921 0.66920429
-0.020822296 -0.020288348 0.66892081
-0.020776708 -0.020776689 0.66863865
-0.020737093 -0.021268785 0.66839337
-0.020708509 -0.021770447 0.66821641
-0.020695353 -0.022287309 0.66813505
-0.0206951 -0.022817671 0.66813344
-0.020705726 -0.023360282 0.66819924
-0.020731574 -0.023921043 0.66835922
-0.020785313 -0.024516016 0.66869187
-0.025927085 -0.03124544 0.70052099
-0.025850721 -0.031816274 0.70004827
-0.025774805 -0.03238371 0.69957829
-0.025699332 -0.032947838 0.6991111
-0.025607646 -0.033486903 0.69854355
-0.025514111 -0.034018815 0.69796455
-0.025421258 -0.034546852 0.69738978
-0.025329079 -0.035071045 0.69681919
-0.025237566 -0.035591424 0.69625264
-0.02514671 -0.036108077 0.69569027
-0.025056601 -0.036621153 0.69513237
-0.02494939 -0.037104219 0.69446874
-0.024839269 -0.037577331 0.6937871
-0.024730114 -0.03804633 0.69311142
-0.024621915 -0.038511187 0.69244158
-0.024514748 -0.038972169 0.69177818
-0.024408421 -0.039428979 0.69111997
-0.024296565 -0.039871246 0.69042754
-0.024165113 -0.040275216 0.68961388
-0.024035078 -0.040674746 0.68880892
-0.023909805 -0.041075826 0.6880334
-0.023787087 -0.041474909 0.68727374
-0.023658596 -0.041857511 0.68647838
-0.023516215 -0.042208582 0.685597
-0.023391435 -0.042584419 0.68482459
-0.023562994 -0.0435009 0.68588656
-0.025522951 0.0060449243 0.70217705
-0.025355916 0.0053381026 0.70111579
-0.02521684 0.0046452284 0.70023215
-0.025036482 0.0039531291 0.69908637
-0.024848115 0.0032695234 0.69788963
-0.024905764 0.0026216507 0.6982559
-0.025023956 0.001975596 0.6990068
-0.02513935 0.0013231635 0.69973987
-0.02525446 0.00066459179 0.70047122
-0.025368486 2.9802322e-08 0.70119566
-0.022213662 -0.00058454275 0.68115246
-0.022078237 -0.0011620224 0.68029207
-0.021949485 -0.0017328262 0.67947406
-0.021824537 -0.002297312 0.6786803
-0.021707639 -0.0028562248 0.67793763
-0.021658571 -0.0034197569 0.67762583
-0.021737158 -0.0040042102 0.67812514
-0.021900555 -0.0046106279 0.67916322
-0.022066429 -0.0052262247 0.68021703
-0.022177173 -0.0058360696 0.6809206
-0.022180675 -0.0064207017 0.68094289
-0.022143774 -0.0069927573 0.68070841
-0.022075873 -0.0075522363 0.68027705
-0.021975057 -0.0080960691 0.67963654
-0.021869795 -0.0086327791 0.67896777
-0.021765752 -0.0091645122 0.67830682
-0.02166703 -0.0096931159 0.6776796
-0.021572584 -0.01021859 0.67707956
-0.021475187 -0.010737568 0.67646074
-0.02109308 -0.011101604 0.67403316
-0.020975733 -0.011591882 0.67328769
-0.020874063 -0.012084991 0.67264175
-0.020833157 -0.012609512 0.67238182
-0.020833092 -0.013157755 0.6723814
-0.020870961 -0.013730884 0.67262203
-0.020879345 -0.014285862 0.67267525
-0.020852899 -0.014816523 0.67250729
-0.020793591 -0.015321583 0.67213047
-0.020747978 -0.015833974 0.67184067
-0.020721799 -0.016359329 0.67167437
-0.02067475 -0.016866207 0.67137539
-0.020619476 -0.017363757 0.67102432
-0.020578535 -0.017870814 0.67076415
-0.020665172 -0.018489897 0.6713146
-0.020752478 -0.019114107 0.67186928
-0.020840524 -0.019743621 0.67242861
-0.020373918 -0.019837737 0.66946417
-0.020331753 -0.02033174 0.66919637
-0.020288516 -0.020822406 0.66892165
-0.020244654 -0.021310121 0.668643
-0.020208651 -0.021804035 0.66841424
-0.02018295 -0.022307456 0.66825092
-0.020171667 -0.022825837 0.66817927
-0.020173268 -0.023358524 0.66818941
-0.020185232 -0.023903549 0.66826546
-0.020212177 -0.024467349 0.66843665
-0.02026342 -0.025062621 0.66876221
-0.025221851 -0.03185913 0.70026404
-0.025147682 -0.032427251 0.6997928
-0.025055202 -0.032967329 0.69920528
-0.024963304 -0.033503354 0.69862139
-0.024872079 -0.034035474 0.69804192
-0.024781518 -0.034563661 0.69746649
-0.024691707 -0.035088211 0.69689596
-0.024602452 -0.035608828 0.69632888
-0.024513841 -0.03612563 0.69576591
-0.024405006 -0.036607474 0.69507444
-0.024296956 -0.037084818 0.69438809
-0.02418977 -0.037557811 0.69370711
-0.024083527 -0.038026631 0.69303209
-0.023978213 -0.038491309 0.69236302
-0.023873899 -0.038952142 0.69170028
-0.023758687 -0.039389372 0.69096828
-0.023629684 -0.039797336 0.69014871
-0.023502076 -0.040200949 0.68933803
-0.023375923 -0.0406003 0.68853652
-0.02325308 -0.040998816 0.68775606
-0.023130387 -0.041391224 0.68697667
-0.022987593 -0.041740626 0.68606937
-0.02283833 -0.042070568 0.68512112
-0.022690371 -0.042395145 0.68418109
-0.022824354 -0.04324612 0.68503231
-0.024824807 0.006038487 0.70200419
-0.024687802 0.005337894 0.70111024
-0.024524761 0.0046398342 0.70004636
-0.024147319 0.0039158165 0.69758368
-0.02416175 0.0032651126 0.69767785
-0.024262888 0.0026230216 0.69833773
-0.024369311 0.0019759238 0.69903213
-0.024472103 0.0013228059 0.69970286
-0.024573324 0.00066417456 0.70036328
-0.021745868 2.9802322e-08 0.68191439
-0.021611275 -0.00058409572 0.68103623
-0.021484299 -0.0011612773 0.68020773
-0.021360932 -0.0017319322 0.67940271
-0.021244098 -0.0022966266 0.67864043
-0.021189686 -0.0028634667 0.67828536
-0.021253651 -0.0034465194 0.67870271
-0.021414088 -0.0040513277 0.67974955
-0.021576963 -0.0046652555 0.68081236
-0.021693397 -0.0052767396 0.68157208
-0.02170028 -0.0058648884 0.6816169
-0.021665102 -0.0064409673 0.68138742
-0.021600455 -0.0070055425 0.6809656
-0.021501759 -0.0075546503 0.68032157
-0.021398192 -0.0080966353 0.67964584
-0.021295827 -0.0086334348 0.67897791
-0.021198841 -0.0091670454 0.67834514
-0.021105852 -0.0096972585 0.67773837
-0.021016765 -0.010224372 0.6771571
-0.020930747 -0.010748208 0.67659581
-0.020516956 -0.011090249 0.6738959
-0.020325387 -0.011536032 0.67264593
-0.020180415 -0.01199916 0.6717
-0.020166172 -0.012535721 0.67160702
-0.020196455 -0.013100415 0.67180467
-0.020261131 -0.013689935 0.67222661
-0.020309269 -0.014271349 0.67254072
-0.020305676 -0.014817655 0.6725173
-0.020273719 -0.015342265 0.6723088
-0.02021748 -0.015846103 0.67194188
-0.020184025 -0.016365439 0.6717236
-0.020155612 -0.016887099 0.67153811
-0.020110337 -0.017392725 0.67124271
-0.020059193 -0.017890632 0.67090905
-0.020043431 -0.018418282 0.67080617
-0.020127781 -0.01903978 0.67135656
-0.019920694 -0.019382298 0.67000532
-0.019879235 -0.019879222 0.66973478
-0.019838007 -0.020374149 0.66946584
-0.019796953 -0.02086705 0.66919792
-0.019756004 -0.021357834 0.66893077
-0.019715287 -0.021846682 0.66866505
-0.019683352 -0.022343278 0.66845667
-0.019660776 -0.022849023 0.66830939
-0.019652722 -0.023370773 0.66825688
-0.019655246 -0.023905009 0.66827333
-0.019667093 -0.024450958 0.66835064
-0.019695172 -0.025018156 0.6685338
-0.019742837 -0.025612324 0.66884482
-0.019822225 -0.026251048 0.66936284
-0.024407895 -0.032983631 0.69928384
-0.024318328 -0.033519834 0.69869941
-0.024229508 -0.034052253 0.69811988
-0.024141243 -0.034580678 0.69754404
-0.02405362 -0.035105258 0.69697225
-0.023963504 -0.035621405 0.69638431
-0.023856428 -0.036107004 0.69568557
-0.023750303 -0.036588281 0.69499314
-0.02364512 -0.037065327 0.69430685
-0.023540949 -0.03753823 0.69362712
-0.023437608 -0.038006932 0.69295287
-0.02333517 -0.03847149 0.69228446
-0.023216926 -0.038904011 0.69151288
-0.023090413 -0.039316118 0.69068742
-0.022965355 -0.039723873 0.68987143
-0.022841562 -0.040127069 0.68906367
-0.022719098 -0.040525943 0.68826461
-0.022598574 -0.040921748 0.68747824
-0.022449177 -0.041257948 0.68650341
-0.022298802 -0.041584253 0.6855222
-0.022148825 -0.041903168 0.68454373
-0.021992648 -0.042202085 0.68352461
-0.022115678 -0.043035895 0.68432736
-0.024287712 0.0067466199 0.70290172
-0.024153026 0.0060382485 0.70199853
-0.024001667 0.0053337216 0.70098352
-0.023599297 0.0045887828 0.69828516
-0.023417016 0.0039028525 0.69706273
-0.023487544 0.0032621622 0.69753569
-0.023579545 0.002619952 0.69815272
-0.023668867 0.0019724667 0.69875169
-0.023758778 0.0013199747 0.69935465
-0.02127495 0.00059098005 0.68269777
-0.021139335 2.9802322e-08 0.68178833
-0.021014187 -0.00058370829 0.68094897
-0.020892398 -0.0011606514 0.68013227
-0.020775877 -0.0017313063 0.67935085
-0.020716762 -0.0023018718 0.67895442
-0.020766081 -0.0028841496 0.67928517
-0.020923501 -0.0034872293 0.68034089
-0.021083325 -0.0040995479 0.6814127
-0.0212052 -0.004712224 0.68223
-0.021215271 -0.0053038001 0.68229753
-0.021181788 -0.0058837831 0.682073
-0.021120418 -0.0064534545 0.68166143
-0.021023866 -0.0070079267 0.68101394
-0.020921892 -0.0075551271 0.6803301
-0.020821316 -0.008097142 0.67965561
-0.0207261 -0.0086358488 0.67901707
-0.020634608 -0.0091709197 0.67840356
-0.020547025 -0.0097027421 0.67781615
-0.020464268 -0.010232151 0.67726117
-0.020381043 -0.010756642 0.6767031
-0.019408219 -0.010782361 0.67017919
-0.019402077 -0.011317849 0.67013794
-0.019436749 -0.011877984 0.67037046
-0.019494908 -0.012455046 0.67076051
-0.019563509 -0.013042331 0.67122054
-0.0196403 -0.013639092 0.67173553
-0.019717574 -0.014240474 0.67225373
-0.019746896 -0.014810145 0.67245036
-0.019737922 -0.015351713 0.67239022
-0.01970093 -0.015870154 0.67214209
-0.019646162 -0.016371787 0.67177486
-0.019626003 -0.016900182 0.67163968
-0.019595934 -0.017418623 0.67143798
-0.019550851 -0.017921597 0.67113566
-0.019505365 -0.01842171 0.67083067
-0.019463604 -0.018922955 0.67055058
-0.019422926 -0.019422948 0.67027783
-0.019382477 -0.019920856 0.67000657
-0.019342138 -0.020416707 0.66973603
-0.019302024 -0.020910472 0.66946697
-0.019262075 -0.021402299 0.66919911
-0.019225899 -0.021896154 0.66895646
-0.019192683 -0.022391438 0.66873372
-0.019164044 -0.022890359 0.66854167
-0.01914287 -0.02339682 0.66839969
-0.019137422 -0.023921728 0.66836315
-0.019140409 -0.024457186 0.66838324
-0.019151721 -0.025003642 0.66845906
-0.019180853 -0.025574446 0.66865444
-0.019223239 -0.026164949 0.66893864
-0.019291189 -0.026793301 0.66939437
-0.023672808 -0.033536464 0.69877815
-0.023586214 -0.034068972 0.69819742
-0.023500251 -0.034597576 0.69762093
-0.023408428 -0.035112619 0.69700515
-0.023303505 -0.03560257 0.69630152
-0.023199432 -0.03608796 0.69560361
-0.023096286 -0.036569118 0.69491184
-0.022994051 -0.037045985 0.69422626
-0.022892803 -0.03751877 0.69354737
-0.022792358 -0.037987262 0.69287372
-0.022671325 -0.038415283 0.69206202
-0.02254734 -0.038831502 0.6912306
-0.022424703 -0.039243251 0.69040817
-0.022303395 -0.03965044 0.68959463
-0.02218339 -0.040053368 0.6887899
-0.022058368 -0.040440321 0.68795145
-0.021903483 -0.040764779 0.68691278
-0.021756357 -0.041095346 0.68592614
-0.021611044 -0.041421145 0.68495166
-0.021453155 -0.04171446 0.68389279
-0.021298135 -0.042004645 0.68285322
-0.021418845 -0.042837679 0.68366277
-0.023744633 0.0074626207 0.70380938
-0.023612229 0.0067463815 0.70289606
-0.023470961 0.0060354173 0.7019217
-0.023124373 0.0052855909 0.69953096
-0.022762965 0.0045526028 0.69703805
-0.0226961 0.0038908124 0.69657683
-0.022774475 0.0032535195 0.69711745
-0.022856312 0.0026122034 0.6976819
-0.022938654 0.0019661784 0.69824994
-0.020807274 0.0011890233 0.68354815
-0.020662403 0.0005903542 0.68254888
-0.020539079 2.9802322e-08 0.6816982
-0.020418935 -0.00058341026 0.68086952
-0.020302761 -0.0011601448 0.68006819
-0.020239173 -0.0017347634 0.67962956
-0.020274399 -0.002317071 0.67987257
-0.020428743 -0.0029183924 0.68093717
-0.020585457 -0.0035289228 0.68201816
-0.020712443 -0.0041424632 0.68289405
-0.020725574 -0.004737258 0.68298465
-0.020693764 -0.0053212643 0.68276525
-0.020634705 -0.0058955848 0.68235785
-0.02054123 -0.0064558089 0.6817131
-0.020440968 -0.0070083141 0.68102151
-0.020342156 -0.0075556338 0.68033993
-0.02024881 -0.0080995262 0.67969602
-0.020158926 -0.0086395442 0.67907608
-0.020072684 -0.0091760457 0.67848116
-0.019991513 -0.0097101331 0.67792124
-0.018959114 -0.0097504258 0.67080009
-0.018882696 -0.010250598 0.67027295
-0.018852606 -0.010772884 0.67006534
-0.018841332 -0.011304826 0.66998762
-0.018844368 -0.011845022 0.67000854
-0.018879062 -0.01240623 0.67024785
-0.018948127 -0.012992978 0.67072421
-0.019024124 -0.013588667 0.6712485
-0.019100673 -0.014189065 0.67177647
-0.019168776 -0.014787316 0.67224622
-0.019186435 -0.01534915 0.67236805
-0.019172642 -0.01588589 0.67227292
-0.019136259 -0.016402543 0.67202199
-0.019084129 -0.016903073 0.67166233
-0.019068807 -0.017434329 0.67155671
-0.019041341 -0.017953277 0.67136723
-0.01900088 -0.018458009 0.67108816
-0.018962011 -0.018962026 0.67082
-0.018923065 -0.019463718 0.67055142
-0.018883575 -0.019962609 0.67027897
-0.018844193 -0.020459384 0.67000735
-0.018805031 -0.020954192 0.66973722
-0.018770143 -0.021451592 0.6694966
-0.018737523 -0.021949649 0.66927159
-0.018705072 -0.022446066 0.66904771
-0.01867279 -0.022940844 0.66882503
-0.018648854 -0.023444265 0.66865999
-0.018628685 -0.023951143 0.66852081
-0.01862549 -0.02447921 0.66849881
-0.018628856 -0.025015891 0.668522
-0.018641936 -0.025566071 0.66861224
-0.018667918 -0.026135087 0.66879141
-0.01870513 -0.026721597 0.66904813
-0.018760126 -0.02733615 0.66942739
-0.022942288 -0.034085691 0.69827503
-0.02284901 -0.0345999 0.6976316
-0.022746105 -0.035093963 0.69692177
-0.022644121 -0.035583615 0.69621825
-0.02254313 -0.036069006 0.69552171
-0.022442954 -0.036549926 0.69483078
-0.022343663 -0.037026644 0.6941458
-0.022244435 -0.037497729 0.69346142
-0.022121672 -0.037922829 0.69261456
-0.022000255 -0.038343281 0.69177711
-0.021880165 -0.038759112 0.69094872
-0.021761378 -0.039170474 0.69012934
-0.021643952 -0.039577514 0.68931937
-0.021512859 -0.039952457 0.68841517
-0.021360509 -0.040279806 0.68736428
-0.021210819 -0.040603548 0.68633175
-0.021068905 -0.040933847 0.6853528
-0.020915415 -0.041233242 0.6842941
-0.020727977 -0.041455954 0.68300128
-0.020608202 -0.041805178 0.68217504
-0.020734126 -0.042653054 0.6830436
-0.023195466 0.0081866384 0.70472717
-0.023065403 0.0074623525 0.7038036
-0.022929668 0.0067440271 0.70283985
-0.022835705 0.0060447752 0.70217264
-0.022253128 0.0052360594 0.69803596
-0.0220215 0.0045338571 0.69639122
-0.021974232 0.0038778484 0.69605559
-0.022050932 0.0032427907 0.6966002
-0.022129908 0.0026035011 0.69716102
-0.022209369 0.0019596815 0.69772518
-0.020180257 0.0011870563 0.68331724
-0.020058895 0.00058999658 0.68245554
-0.019940866 -0 0.68161744
-0.019826349 -0.00058311224 0.68080425
-0.019756986 -0.0011621714 0.6803118
-0.019778619 -0.0017451644 0.68046534
-0.019929765 -0.0023446679 0.68153858
-0.020083308 -0.00295344 0.68262887
-0.020222882 -0.0035687387 0.68361992
-0.020237433 -0.0041665137 0.68372321
-0.020200958 -0.0047531128 0.68346423
-0.020143989 -0.0053322017 0.68305969
-0.020053718 -0.005898118 0.6824187
-0.01995535 -0.0064561367 0.68172032
-0.019858276 -0.0070087612 0.68103099
-0.01976697 -0.0075579286 0.68038261
-0.019678794 -0.008103013 0.67975652
-0.019593805 -0.0086443126 0.67915308
-0.019514186 -0.0091831088 0.67858768
-0.018506575 -0.0092532635 0.67143309
-0.018419379 -0.0097514093 0.67081392
-0.018359439 -0.010259658 0.67038828
-0.018314242 -0.010773093 0.67006743
-0.018291049 -0.011297435 0.66990268
-0.018284764 -0.011831284 0.66985804
-0.018304028 -0.01238212 0.66999483
-0.018339148 -0.012945294 0.67024422
-0.018412316 -0.01353845 0.67076379
-0.018486189 -0.014136463 0.67128831
-0.018560655 -0.014739335 0.67181706
-0.018618867 -0.015333176 0.67223042
-0.018629318 -0.015889704 0.67230463
-0.018613352 -0.016423523 0.67219126
-0.018573552 -0.016934693 0.67190868
-0.018532936 -0.017442763 0.67162025
-0.018520037 -0.017975301 0.67152864
-0.018492207 -0.018492192 0.67133105
-0.018457133 -0.018999964 0.67108202
-0.018421102 -0.019504696 0.6708262
-0.018382579 -0.020004541 0.67055261
-0.018344158 -0.020502299 0.6702798
-0.018310497 -0.021003217 0.67004085
-0.018278597 -0.021504194 0.66981423
-0.018246751 -0.022003382 0.66958815
-0.01821558 -0.022501588 0.66936678
-0.018188488 -0.023003072 0.66917443
-0.018161533 -0.023503155 0.6689831
-0.01813722 -0.024005145 0.66881043
-0.018121084 -0.024516732 0.66869587
-0.018117638 -0.025044978 0.66867137
-0.018119195 -0.025580019 0.66868246
-0.018134827 -0.026135445 0.66879344
-0.018157737 -0.026702553 0.6689561
-0.018191066 -0.027286559 0.66919273
-0.01824292 -0.027900904 0.66956097
-0.018314527 -0.028549105 0.6700694
-0.022084486 -0.035075337 0.6968385
-0.02198552 -0.03556478 0.69613576
-0.021887437 -0.036049902 0.69543934
-0.021790305 -0.036530763 0.69474959
-0.021688139 -0.036997408 0.69402421
-0.021568088 -0.037426949 0.69317174
-0.021449283 -0.037851632 0.6923281
-0.021331776 -0.038271695 0.69149381
-0.021215551 -0.03868717 0.69066846
-0.021100586 -0.039098144 0.68985212
-0.020963844 -0.039461344 0.68888122
-0.020814992 -0.039793372 0.68782431
-0.020668166 -0.040120542 0.68678176
-0.020523611 -0.04044354 0.68575525
-0.020373261 -0.04074651 0.68468773
-0.020176053 -0.04094553 0.68328738
-0.019969787 -0.041114271 0.68182284
-0.019927077 -0.041612417 0.68151957
-0.020060461 -0.042480975 0.68246663
-0.022640826 0.0089191496 0.70566046
-0.02251254 0.0081863701 0.70472193
-0.022381591 0.0074605346 0.70376396
-0.022277923 0.0067508817 0.70300561
-0.022296291 0.0060808063 0.70313996
-0.021501984 0.005212605 0.69732898
-0.021302337 0.0045186877 0.69586837
-0.021259444 0.0038653612 0.69555461
-0.021332139 0.0032321513 0.69608641
-0.02140821 0.0025949776 0.69664288
-0.019692883 0.0017902553 0.68409395
-0.019573545 0.0011863112 0.68322086
-0.019457759 0.00058966875 0.68237382
-0.019344965 -0 0.6815486
-0.019271035 -0.0005839467 0.68100774
-0.019279912 -0.0011684597 0.68107271
-0.019426508 -0.0017660558 0.68214518
-0.019576821 -0.0023729205 0.68324482
-0.019729545 -0.0029892921 0.68436217
-0.019884121 -0.0036152899 0.68549299
-0.020036653 -0.0042501688 0.68660885
-0.019670047 -0.0047684908 0.68392688
-0.019561391 -0.0053348839 0.68313193
-0.01946496 -0.0058984458 0.68242651
-0.019369606 -0.0064565241 0.68172884
-0.019280301 -0.0070109963 0.68107557
-0.019193938 -0.0075612366 0.68044376
-0.019110255 -0.0081073642 0.67983156
-0.019032162 -0.0086509585 0.67926019
-0.018049633 -0.0087513626 0.67207223
-0.017963728 -0.0092540085 0.67144376
-0.017902864 -0.0097651482 0.67099851
-0.017842969 -0.010273218 0.67056036
-0.017790535 -0.010782123 0.67017674
-0.017757915 -0.011300474 0.66993809
-0.017737258 -0.011824787 0.66978693
-0.017735558 -0.012361109 0.66977453
-0.017754231 -0.012912154 0.66991115
-0.017805066 -0.01348868 0.67028308
-0.017876238 -0.01408428 0.67080373
-0.017948037 -0.014684737 0.67132902
-0.018020246 -0.015289903 0.67185724
-0.018067777 -0.015877753 0.67220497
-0.018074157 -0.016431034 0.6722517
-0.018058559 -0.016964048 0.6721375
-0.018021209 -0.017475098 0.67186427
-0.017985366 -0.017985374 0.67160213
-0.0179733 -0.018517941 0.6715138
-0.017949497 -0.019037306 0.67133963
-0.01791702 -0.019545823 0.67110211
-0.017879471 -0.020046681 0.67082739
-0.017847024 -0.020551115 0.67058998
-0.017815745 -0.021054983 0.67036116
-0.017784631 -0.021557093 0.67013353
-0.01775445 -0.022058547 0.66991276
-0.017727988 -0.022562921 0.66971916
-0.017701605 -0.023065716 0.66952616
-0.017675301 -0.023567051 0.6693337
-0.017651901 -0.02407074 0.66916251
-0.017631274 -0.024576902 0.66901159
-0.01761643 -0.025090039 0.66890299
-0.017612208 -0.025617748 0.66887212
-0.017615834 -0.026156813 0.6688987
-0.01762943 -0.026711255 0.66899812
-0.017649511 -0.027276456 0.66914505
-0.017683644 -0.027865112 0.66939473
-0.017725522 -0.028468251 0.6697011
-0.017782314 -0.029098332 0.6701166
-0.017863818 -0.029773027 0.67071283
-0.021232517 -0.036030918 0.69535756
-0.021127749 -0.036493361 0.6945911
-0.021010371 -0.036927283 0.69373238
-0.020894215 -0.037356347 0.69288266
-0.020779336 -0.037780613 0.69204223
-0.020665713 -0.038200259 0.69121093
-0.020553324 -0.038615316 0.6903888
-0.020411441 -0.038967282 0.68935072
-0.020265985 -0.03930372 0.68828666
-0.02012266 -0.039635539 0.6872381
-0.019981278 -0.03996253 0.68620378
-0.019811014 -0.040222377 0.68495822
-0.019614663 -0.040418059 0.68352169
-0.019413155 -0.040591121 0.68204749
-0.019166281 -0.040655732 0.68024141
-0.019254724 -0.041426778 0.68088847
-0.01942631 -0.042384654 0.68214375
-0.022083284 0.0096614361 0.70663029
-0.021953352 0.0089185536 0.70565003
-0.021827254 0.0081852376 0.70469868
-0.021713872 0.0074641705 0.7038433
-0.021709377 0.0067841709 0.70380938
-0.021860126 0.0061481893 0.7049467
-0.020774757 0.0051937103 0.69675815
-0.020620953 0.0045108497 0.69559783
-0.020553865 0.0038538575 0.69509172
-0.020617969 0.0032215714 0.6955753
-0.019200196 0.0024000406 0.68487906
-0.019082952 0.0017890632 0.68399453
-0.018969461 0.001185596 0.68313831
-0.018858531 0.00058934093 0.6823014
-0.018780872 2.9802322e-08 0.68171549
-0.018779667 -0.00058686733 0.68170637
-0.018918918 -0.0011824071 0.68275696
-0.019065937 -0.0017873943 0.68386614
-0.019215262 -0.0024018884 0.68499273
-0.019366942 -0.003026098 0.68613708
-0.019521035 -0.0036601424 0.68729961
-0.019677533 -0.0043044388 0.68848026
-0.019777704 -0.0049443841 0.68923604
-0.018969592 -0.005335182 0.68313926
-0.018876074 -0.0058987737 0.68243372
-0.018788869 -0.0064586699 0.68177587
-0.018704228 -0.007014066 0.68113726
-0.018621966 -0.0075651407 0.68051666
-0.018545497 -0.0081136227 0.67993975
-0.017588167 -0.0082444251 0.67271721
-0.017503668 -0.0087518394 0.67207974
-0.017444462 -0.0092673302 0.67163301
-0.017385654 -0.0097794235 0.67118937
-0.0173287 -0.010288924 0.67075974
-0.017273245 -0.010795772 0.67034131
-0.017233301 -0.011309326 0.67003995
-0.017199233 -0.011824459 0.66978294
-0.017189769 -0.012355119 0.66971153
-0.01719684 -0.012897611 0.66976494
-0.017226573 -0.013458252 0.66998923
-0.017278828 -0.01403901 0.67038345
-0.017348761 -0.014638036 0.67091107
-0.017419809 -0.015242338 0.67144704
-0.01748473 -0.015845507 0.67193681
-0.017518835 -0.016423911 0.67219418
-0.017523088 -0.016975492 0.67222625
-0.017507471 -0.017507464 0.67210841
-0.017471543 -0.01801753 0.67183733
-0.017442655 -0.018532842 0.67161942
-0.017432481 -0.019066751 0.67154264
-0.017409172 -0.019585311 0.67136681
-0.017379567 -0.02009511 0.67114341
-0.017349033 -0.020601958 0.6709131
-0.01731855 -0.021107018 0.67068315
-0.017289467 -0.02161184 0.67046374
-0.017263589 -0.022118956 0.67026848
-0.01723779 -0.022624582 0.67007387
-0.017212067 -0.023128688 0.66987973
-0.017189609 -0.023635685 0.66971034
-0.017168481 -0.024143159 0.6695509
-0.017147407 -0.024649382 0.66939193
-0.017127385 -0.025155813 0.66924083
-0.017116943 -0.025675416 0.66916209
-0.017110201 -0.026199967 0.66911125
-0.017116522 -0.026744545 0.66915894
-0.017128387 -0.027298331 0.66924846
-0.017148094 -0.027865648 0.66939712
-0.017177446 -0.028450161 0.66961861
-0.017214892 -0.029050112 0.66990107
-0.017265359 -0.029674828 0.67028183
-0.017324705 -0.03031823 0.67072958
-0.017411189 -0.031013697 0.67138201
-0.020335091 -0.036857337 0.69344115
-0.020222878 -0.037285924 0.69259465
-0.020111902 -0.037709802 0.69175732
-0.019999541 -0.038124114 0.69090962
-0.019855544 -0.038470089 0.68982327
-0.019713607 -0.038811147 0.68875241
-0.01957375 -0.039147496 0.68769729
-0.019435799 -0.039478958 0.68665653
-0.019250458 -0.039704055 0.68525827
-0.019051367 -0.039888769 0.68375623
-0.018854821 -0.040066481 0.68227339
-0.018472847 -0.039832056 0.67939162
-0.018496692 -0.04046151 0.67957157
-0.018608503 -0.041287571 0.68041503
-0.018826535 -0.04235965 0.68206
-0.02138783 0.0096590519 0.70658857
-0.021266555 0.0089182556 0.70564419
-0.0211464 0.0081857443 0.70470834
-0.021124337 0.0074957609 0.70453662
-0.021261351 0.0068585277 0.70560354
-0.021414192 0.0062170327 0.7067939
-0.020090412 0.0051846206 0.69648457
-0.019942375 0.0045031309 0.69533169
-0.019861551 0.0038441718 0.69470227
-0.018702177 0.0030165017 0.6856733
-0.018587032 0.0023983419 0.6847766
-0.018475894 0.0017879903 0.68391109
-0.018366829 0.0011849999 0.68306172
-0.018285699 0.00058984756 0.68242991
-0.018275771 2.9802322e-08 0.68235254
-0.018406941 -0.00059375167 0.68337405
-0.018550668 -0.0011967719 0.68449336
-0.01869653 -0.0018093288 0.68562937
-0.018844768 -0.0024316013 0.68678379
-0.018995376 -0.0030637681 0.68795669
-0.019148342 -0.0037061274 0.68914789
-0.019252455 -0.0043472946 0.68995875
-0.019273261 -0.0049737096 0.69012082
-0.01838702 -0.0053381622 0.68321896
-0.01829247 -0.0059007704 0.6824826
-0.018209716 -0.0064615011 0.68183815
-0.018128868 -0.0070176125 0.68120849
-0.018054059 -0.0075710416 0.68062592
-0.017122228 -0.0077325702 0.67336905
-0.017039131 -0.0082447231 0.67272186
-0.01698143 -0.0087646246 0.6722725
-0.016923908 -0.0092808306 0.67182451
-0.016868092 -0.0097943842 0.67138982
-0.0168138 -0.010305196 0.67096698
-0.016760899 -0.010813475 0.67055506
-0.016709574 -0.011319399 0.67015535
-0.016677184 -0.011835396 0.6699031
-0.016661912 -0.012362063 0.66978419
-0.016662221 -0.012899786 0.66978657
-0.016682815 -0.013453841 0.66994691
-0.01672052 -0.014023632 0.67024052
-0.016784979 -0.014619142 0.67074251
-0.016861016 -0.015229285 0.67133474
-0.016915722 -0.015824378 0.6717608
-0.016949473 -0.016402692 0.67202365
-0.016972119 -0.016972095 0.67219996
-0.016976185 -0.017523766 0.67223161
-0.01696239 -0.01805675 0.67212421
-0.016928907 -0.018567175 0.6718635
-0.016901495 -0.019082338 0.67164999
