# .PCD v0.7 - Point Cloud Data file format
VERSION 0.7
FIELDS x y z
SIZE 4 4 4
TYPE F F F
COUNT 1 1 1
WIDTH 1280
HEIGHT 1
VIEWPOINT 0 0 0 1 0 0 0
POINTS 1280
DATA ascii
-0.0066384426 -0.046469092 0.71809834
-0.0066492832 -0.047283769 0.71838915
-0.0066601587 -0.048101157 0.71868086
-0.006671241 -0.04892242 0.71897811
-0.0066824742 -0.049747258 0.71927941
-0.0066939457 -0.050576478 0.71958715
-0.0067054573 -0.05140847 0.7198959
-0.0067170369 -0.05224362 0.72020656
-0.0067286277 -0.053081393 0.72051752
-0.006740259 -0.053922087 0.72082949
-0.0067519303 -0.054765612 0.72114253
-0.0067636422 -0.055612147 0.72145677
-0.0067755706 -0.056463093 0.72177672
-0.0067878654 -0.057319731 0.72210652
-0.0068002939 -0.058180243 0.72243989
-0.0068127681 -0.059043974 0.72277451
-0.0068252878 -0.059910834 0.72311032
-0.0068378537 -0.060780913 0.72344744
-0.0068504657 -0.06165415 0.7237857
-0.0068631247 -0.062530696 0.72412527
-0.0068759513 -0.063411564 0.72446942
-0.0068893419 -0.064300537 0.7248286
-0.0069083353 -0.06524539 0.72533804
-0.0052180821 0.056094408 0.69749433
-0.0051030726 0.05422017 0.69402361
-0.0050790911 0.053330481 0.69329989
-0.0050724363 0.05262655 0.69309908
-0.0050713816 0.051981688 0.69306719
-0.0050710114 0.051344007 0.69305605
-0.0050706416 0.050706446 0.6930449
-0.0050702714 0.050068945 0.69303375
-0.0050699017 0.049431562 0.69302261
-0.0050695315 0.04879424 0.6930114
-0.0050698644 0.048163742 0.69302148
-0.0050646178 0.047480822 0.69286311
-0.0050551863 0.04676047 0.69257855
-0.0050549293 0.046126246 0.69257075
-0.0050357357 0.045321614 0.69199157
-0.0048745424 0.043261588 0.68712711
-0.0048542996 0.042475164 0.68651617
-0.004851453 0.041843802 0.68643028
-0.0048569292 0.041283935 0.68659556
-0.004864187 0.040737629 0.68681455
-0.0048725768 0.040198803 0.68706775
-0.0048824362 0.039669842 0.68736529
-0.004897783 0.039182305 0.68782842
-0.0049155382 0.038709849 0.68836427
-0.0049334047 0.038233906 0.68890339
-0.0049514016 0.037754476 0.68944651
-0.004969548 0.037271649 0.6899941
-0.0049878098 0.036785126 0.69054526
-0.0050062248 0.036295146 0.69110096
-0.0050247577 0.035801411 0.69166023
-0.005043447 0.035304159 0.69222426
-0.0050584064 0.034776539 0.69267565
-0.0050698463 0.0342215 0.69302088
-0.0050804093 0.03365773 0.69333965
-0.0050896369 0.033082664 0.69361812
-0.0050987108 0.03250432 0.693892
-0.0051094512 0.031934083 0.69421607
-0.0051353145 0.031453788 0.6949966
-0.005183694 0.03110221 0.69645655
-0.0052176905 0.030653954 0.69748253
-0.005238161 0.030119419 0.69810027
-0.0052583753 0.029578388 0.69871026
-0.0052753198 0.02901426 0.69922161
-0.0052892724 0.028429866 0.69964266
-0.0053011747 0.027831167 0.70000184
-0.005312786 0.027228057 0.70035225
-0.0053241625 0.026620805 0.70069557
-0.0053341542 0.026004016 0.70099711
-0.0053440812 0.025384396 0.70129669
-0.0053540035 0.024762273 0.70159614
-0.0053635077 0.024135798 0.70188296
-0.0053679822 0.023484915 0.70201796
-0.0053641493 0.022797644 0.70190227
-0.0053479881 0.022060454 0.70141459
-0.0052827182 0.02113089 0.69944489
-0.0051813172 0.020077616 0.69638485
-0.0051566153 0.019337296 0.69563937
-0.0051576486 0.018696517 0.69567055
-0.0051590269 0.018056631 0.69571221
-0.005157304 0.017405927 0.69566017
-0.0050890404 0.016539425 0.69360012
-0.0054513561 0.017035514 0.70453393
-0.0054580565 0.016374171 0.70473617
-0.0054645375 0.015710592 0.70493174
-0.0054707965 0.015044689 0.70512068
-0.0054766815 0.014376312 0.7052983
-0.0054824282 0.013706088 0.70547169
-0.0054877964 0.013033539 0.70563364
-0.0054928064 0.012358844 0.70578486
-0.0054977601 0.011682749 0.70593441
-0.0055011329 0.011002272 0.70603615
-0.0054984777 0.010309666 0.70595598
-0.0054881214 0.0096042156 0.70564353
-0.0054647308 0.008880198 0.70493764
-0.0053997855 0.0080996752 0.70297778
-0.0052973158 0.0072838068 0.69988537
-0.0051348591 0.0064186156 0.69498283
-0.0051369276 0.0057790577 0.69504529
-0.0051427819 0.0051427484 0.69522196
-0.0051486497 0.0045050979 0.69539899
-0.0051545501 0.0038659573 0.69557709
-0.0051605976 0.0032254159 0.69575953
-0.0051667364 0.0025833547 0.69594479
-0.0051729092 0.0019398332 0.69613117
-0.0051790969 0.0012947917 0.69631785
-0.0051852604 0.00064817071 0.69650388
-0.0051914193 -0 0.69668972
-0.005197593 -0.00064969063 0.69687605
-0.0052037621 -0.0013009012 0.69706219
-0.0052099647 -0.0019536912 0.69724935
-0.0052161827 -0.0026080608 0.69743699
-0.0052224156 -0.0032639802 0.69762504
-0.0052286629 -0.003921479 0.69781357
-0.005234906 -0.0045805275 0.69800204
-0.0052412823 -0.0052412748 0.69819444
-0.0052477135 -0.0059036613 0.69838852
-0.0052541806 -0.0065677166 0.69858372
-0.005260644 -0.0072333813 0.69877869
-0.0052677221 -0.0079015791 0.69899231
-0.0052757803 -0.0085731447 0.6992355
-0.0052851895 -0.0092490613 0.6995194
-0.0052968515 -0.0099315941 0.69987142
-0.0055172266 -0.011034429 0.70652175
-0.0055241561 -0.011738837 0.70673096
-0.005531081 -0.012444913 0.70693988
-0.0055380012 -0.013152748 0.70714879
-0.0055449829 -0.013862461 0.70735943
-0.0055526923 -0.014575809 0.70759201
-0.0055593108 -0.015288115 0.70779181
-0.0055664354 -0.016003489 0.7080068
-0.0055736904 -0.01672107 0.70822579
-0.0055809864 -0.017440557 0.70844591
-0.0055883466 -0.018162102 0.70866805
-0.0055957716 -0.018885702 0.70889211
-0.0056033512 -0.019611686 0.70912081
-0.0056111333 -0.020340383 0.70935565
-0.0056680655 -0.021255225 0.71107376
-0.0056706788 -0.021973878 0.71115267
-0.0056515406 -0.022606164 0.71057504
-0.0056454572 -0.023287475 0.71039146
-0.0056502768 -0.024013638 0.71053696
-0.0056580054 -0.024753779 0.71077025
-0.0056657549 -0.025495887 0.71100408
-0.0056735491 -0.02624014 0.71123922
-0.0056813415 -0.026986361 0.71147442
-0.0056893649 -0.027735621 0.71171653
-0.0057030679 -0.028515339 0.71213007
-0.0058895857 -0.03018409 0.71775872
-0.0058988845 -0.030969143 0.71803927
-0.005907183 -0.031751096 0.71828979
-0.0059156558 -0.032536119 0.71854544
-0.0059141456 -0.033267051 0.7184999
-0.0058872658 -0.033851773 0.71768868
-0.0058375895 -0.034295827 0.71618962
-0.005784865 -0.034709185 0.71459854
-0.0057743625 -0.035367966 0.71428156
-0.0057832282 -0.036145151 0.71454906
-0.0057920977 -0.036924601 0.71481675
-0.0058011389 -0.037707418 0.71508962
-0.0058102575 -0.038492978 0.71536481
-0.0058194287 -0.03928116 0.71564162
-0.0058286292 -0.040071785 0.7159192
-0.0058380063 -0.040866047 0.7162022
-0.0058474378 -0.041662991 0.71648681
-0.0058569 -0.042462498 0.71677232
-0.0058663678 -0.043264449 0.71705806
-0.005875966 -0.044069737 0.71734774
-0.00588567 -0.044878185 0.71764052
-0.0058954814 -0.04568997 0.71793664
-0.0059055514 -0.046506196 0.71824056
-0.0059156306 -0.047325045 0.71854472
-0.0059257443 -0.048146635 0.7188499
-0.0059359181 -0.048971325 0.71915698
-0.005946076 -0.049798429 0.71946347
-0.005956294 -0.050628483 0.7197718
-0.0059665474 -0.051461458 0.72008127
-0.005977042 -0.052299082 0.72039795
-0.0059877536 -0.053141326 0.72072124
-0.0059986338 -0.053987682 0.72104955
-0.0060095531 -0.054837167 0.72137904
-0.0060205124 -0.055689722 0.72170979
-0.0060315109 -0.056545407 0.72204173
-0.0060425242 -0.057403952 0.72237408
-0.0060536042 -0.058265924 0.7227084
-0.0060648574 -0.059132338 0.72304803
-0.006076524 -0.060005635 0.72340006
-0.006088289 -0.060882866 0.72375512
-0.006100073 -0.061763227 0.72411072
-0.0061119297 -0.062647283 0.72446859
-0.0061238324 -0.063534737 0.72482771
-0.0061357818 -0.064425707 0.72518837
-0.0061545833 -0.065392435 0.72575569
-0.0044390787 0.053903073 0.6931231
-0.0044188364 0.05302605 0.69242495
-0.0044125514 0.052320272 0.69220817
-0.004411927 0.051682591 0.69218665
-0.004412103 0.051054358 0.69219273
-0.0044125994 0.050429732 0.69220984
-0.0044130958 0.049804956 0.69222701
-0.0044135922 0.049180061 0.69224411
-0.004414089 0.048554987 0.69226122
-0.0044145854 0.047929764 0.69227839
-0.0044124392 0.047276139 0.69220436
-0.0044034924 0.046551228 0.69189578
-0.0044048 0.04593581 0.6919409
-0.0043951534 0.045207322 0.69160819
-0.0042970078 0.043583959 0.68822324
-0.004277105 0.042771071 0.68753684
-0.0042730626 0.042120188 0.68739742
-0.0042810948 0.04158777 0.6876744
-0.0042931093 0.041091204 0.68808877
-0.0043042162 0.040582627 0.68847185
-0.0043191053 0.040105999 0.68898541
-0.0043395259 0.039675683 0.68968964
-0.0043623457 0.039261132 0.69047666
-0.0043790112 0.038785547 0.69105148
-0.0043920903 0.038273901 0.69150257
-0.0044021374 0.037732631 0.69184905
-0.0044113351 0.037181258 0.69216627
-0.0044192858 0.036616951 0.69244051
-0.0044272011 0.036050111 0.6927135
-0.0044341744 0.035473406 0.692954
-0.0044411537 0.034894824 0.69319463
-0.0044476339 0.034310341 0.69341815
-0.0044538071 0.033721715 0.69363105
-0.0044599976 0.03313145 0.69384456
-0.0044654347 0.032533914 0.69403207
-0.0044728084 0.031948686 0.69428641
-0.0045066713 0.031546682 0.6954543
-0.0045714686 0.031347245 0.69768906
-0.0046092393 0.030947804 0.69899172
-0.0046213246 0.030368745 0.69940853
-0.0046299282 0.029763848 0.69970524
-0.0046385634 0.029156685 0.70000309
-0.0046472312 0.028547317 0.700302
-0.0046554143 0.027932495 0.70058429
-0.0046632509 0.027313352 0.70085454
-0.0046706833 0.026689619 0.70111084
-0.0046781395 0.026063919 0.70136797
-0.0046855472 0.025435835 0.7016235
-0.0046924353 0.024802893 0.70186102
-0.0046990169 0.024166346 0.70208806
-0.0047031604 0.023515821 0.70223093
-0.0047004698 0.022830874 0.70213813
-0.0046891966 0.02210623 0.70174932
-0.0046421224 0.021221131 0.70012587
-0.0045507019 0.020153105 0.69697285
-0.0044812304 0.019205272 0.69457686
-0.0044139926 0.018286586 0.69225794
-0.0044130799 0.017652333 0.69222641
-0.0044146017 0.017027766 0.69227892
-0.0044167018 0.016404927 0.69235134
-0.0044192215 0.015782923 0.6924383
-0.0047672442 0.016344845 0.70444113
-0.004771546 0.015677929 0.70458949
-0.004775912 0.015010029 0.70474011
-0.0047802483 0.014340758 0.70488966
-0.0047845929 0.013670236 0.7050395
-0.004788945 0.012998581 0.70518953
-0.0047933049 0.012325644 0.70533997
-0.0047970489 0.011649996 0.70546907
-0.0048011015 0.01097393 0.70560884
-0.0048014047 0.010288745 0.70561928
-0.0044696853 0.0089393854 0.6941787
-0.0044711311 0.0083035231 0.69422853
-0.0044746352 0.00767079 0.69434941
-0.0044792336 0.0070388019 0.69450796
-0.0044845357 0.006406486 0.69469088
-0.0044898503 0.00577268 0.69487417
-0.0044951607 0.0051373243 0.69505733
-0.0045005004 0.0045005083 0.69524145
-0.0045058532 0.0038622022 0.69542611
-0.0045112181 0.0032223463 0.69561112
-0.0045165797 0.0025809407 0.69579601
-0.0045219702 0.0019379854 0.69598192
-0.0045273574 0.0012935698 0.69616765
-0.0045327232 0.00064754486 0.69635284
-0.0045380848 -0 0.69653773
-0.0045434763 -0.00064906478 0.69672364
-0.0045488807 -0.0012996793 0.69691008
-0.0045542978 -0.0019518137 0.69709688
-0.0045597791 -0.0026055574 0.69728589
-0.0045653591 -0.0032609701 0.69747841
-0.0045709359 -0.0039179027 0.6976707
-0.0045771636 -0.0045771301 0.69788551
-0.0045842896 -0.0052391589 0.69813132
-0.004592651 -0.0059048533 0.69841963
-0.0046030288 -0.0065757334 0.6987775
-0.0046228003 -0.0072643757 0.69945943
-0.004647444 -0.007967025 0.7003094
-0.0046723341 -0.0086771846 0.70116776
-0.0046935221 -0.0093870461 0.70189852
-0.004817877 -0.010324001 0.70618737
-0.0048247962 -0.011028081 0.70642602
-0.0048328494 -0.011736929 0.70670378
-0.0048426446 -0.012452513 0.70704162
-0.0048571695 -0.013183713 0.7075426
-0.0048828535 -0.013951004 0.70842832
-0.0048917113 -0.014675111 0.70873386
-0.004874594 -0.015320152 0.70814347
-0.004868194 -0.015995473 0.70792276
-0.0048745158 -0.016712636 0.70814085
-0.0048811287 -0.01743257 0.70836884
-0.0048878971 -0.018155038 0.70860231
-0.004894664 -0.018879443 0.70883566
-0.0049014506 -0.019605815 0.70906973
-0.0049139075 -0.020357639 0.70949936
-0.0050241589 -0.021532118 0.71330184
-0.0050068875 -0.022173315 0.71270615
-0.0049897344 -0.022810221 0.71211457
-0.0049726982 -0.023442686 0.71152699
-0.0049558789 -0.024071395 0.71094692
-0.0049518025 -0.024759024 0.71080637
-0.0049565858 -0.025490999 0.71097124
-0.0049638893 -0.026237667 0.71122313
-0.0049711941 -0.02698648 0.71147507
-0.0049785199 -0.027737439 0.71172774
-0.0049862564 -0.028492868 0.71199459
-0.004994242 -0.029251993 0.71226996
-0.0051631453 -0.030978829 0.71809524
-0.0051709167 -0.031764209 0.71836329
-0.0051775873 -0.032544822 0.71859336
-0.0051739304 -0.033260971 0.71846724
-0.0051454725 -0.033813119 0.71748579
-0.0050933226 -0.034198016 0.71568716
-0.0050531127 -0.034649879 0.71430039
-0.0050546252 -0.03538236 0.71435255
-0.0050625363 -0.036160946 0.71462536
-0.0050706207 -0.036943078 0.71490419
-0.0050787311 -0.037727714 0.71518391
-0.0050868886 -0.038515002 0.71546531
-0.0050950721 -0.039304823 0.71574754
-0.0051033893 -0.040098071 0.71603435
-0.0051117549 -0.040894061 0.7163229
-0.0051202131 -0.041693151 0.7166146
-0.0051288721 -0.042496324 0.71691322
-0.0051375823 -0.043302476 0.71721363
-0.0051463 -0.044111103 0.71751428
-0.0051550474 -0.044922531 0.717816
-0.0051638251 -0.0457367 0.71811867
-0.0051726322 -0.046553671 0.71842241
-0.0051814695 -0.047373444 0.71872729
-0.0051905368 -0.048197836 0.71903992
-0.0051997467 -0.049026161 0.71935761
-0.0052090785 -0.049858272 0.71967947
-0.0052184886 -0.05069387 0.72000396
-0.0052279332 -0.051532507 0.72032976
-0.0052374117 -0.052374095 0.72065663
-0.0052469247 -0.053218782 0.7209847
-0.0052564722 -0.054066539 0.72131395
-0.0052661914 -0.054918826 0.72164917
-0.0052761757 -0.055776685 0.72199351
-0.0052863127 -0.056639045 0.72234321
-0.0052964659 -0.057504475 0.72269332
-0.0053066807 -0.058373451 0.72304559
-0.0053169355 -0.059245795 0.72339928
-0.0053272299 -0.060121566 0.72375435
-0.0053375643 -0.061000735 0.72411084
-0.0053481977 -0.061886281 0.72447753
-0.0053591565 -0.062778711 0.72485542
-0.0053701368 -0.06367445 0.72523415
-0.0053814235 -0.064577073 0.72562337
-0.0054026768 -0.065603912 0.72635639
-0.0037863634 0.053640157 0.69237626
-0.0037687998 0.052763224 0.69166958
-0.0037634796 0.052061468 0.69145548
-0.0037631129 0.051429212 0.6914407
-0.0037635476 0.050807893 0.69145823
-0.0037639553 0.050186098 0.69147462
-0.0037649341 0.049571663 0.69151402
-0.0037659269 0.04895708 0.69155395
-0.0037669069 0.048342019 0.69159341
-0.0037679009 0.04772675 0.6916334
-0.0037677782 0.047097236 0.69162846
-0.0037598959 0.046372086 0.6913113
-0.0037612661 0.045762092 0.69136643
-0.0037565897 0.045079082 0.69117832
-0.003701906 0.043805897 0.68897796
-0.0036859885 0.043003231 0.68833745
-0.0036842688 0.042369097 0.6882683
-0.0036890672 0.041809469 0.68846136
-0.0036955802 0.041267335 0.68872344
-0.0037039975 0.040743977 0.68906212
-0.0037215056 0.040316284 0.68976659
-0.0037548849 0.040052116 0.69110966
-0.0037656005 0.039538801 0.69154084
-0.0037717863 0.03897512 0.69178975
-0.0037776777 0.038406372 0.69202673
-0.0037832167 0.037832171 0.69224966
-0.0037884414 0.037253052 0.69245982
-0.0037936806 0.036672264 0.69267064
-0.0037983253 0.036084086 0.6928575
-0.0038029258 0.03549397 0.69304264
-0.0038073985 0.034901172 0.69322264
-0.0038114914 0.034303427 0.69338733
-0.00381523 0.033701211 0.69353771
-0.0038186263 0.033094764 0.69367445
-0.0038219024 0.032486171 0.69380623
-0.0038256049 0.031880081 0.69395518
-0.0038437175 0.031390339 0.69468403
-0.0039280434 0.031424403 0.69807702
-0.0039611808 0.031029254 0.69941038
-0.0039715338 0.030448437 0.69982696
-0.0039778687 0.029834032 0.70008183
-0.0039839805 0.029215872 0.70032769
-0.0039898818 0.028594166 0.70056522
-0.0039956933 0.027969837 0.70079905
-0.0040014451 0.027343214 0.70103049
-0.0040069208 0.026712805 0.70125079
-0.0040123961 0.026080579 0.70147109
-0.0040175766 0.025444657 0.70167959
-0.0040226928 0.024806648 0.7018854
-0.0040276512 0.024165928 0.7020849
-0.0040308279 0.023513138 0.70221275
-0.004028616 0.022828847 0.7021237
-0.0040190169 0.022104621 0.70173746
-0.0039911345 0.021286041 0.70061564
-0.0039153402 0.02022925 0.69756591
-0.0038343014 0.019171506 0.69430518
-0.0037646894 0.018196017 0.69150418
-0.0037664848 0.017576933 0.69157636
-0.0037696722 0.016963542 0.69170463
-0.0037728921 0.016349226 0.69183421
-0.0037764322 0.015735149 0.69197667
-0.0037799927 0.01511997 0.69211996
-0.0037866661 0.014515549 0.69238842
-0.0040828004 0.014970303 0.70430398
-0.0040864814 0.014302731 0.70445204
-0.0040901853 0.013633966 0.70460111
-0.0038029535 0.012042731 0.69304377
-0.0038053414 0.011416078 0.69313991
-0.0038089845 0.010792136 0.69328642
-0.0038132202 0.010168612 0.69345689
-0.0038177031 0.0095442832 0.69363725
-0.0038221825 0.0089184046 0.6938175
-0.0038266864 0.0082911551 0.69399875
-0.003831201 0.0076624453 0.69418037
-0.0038357123 0.0070321262 0.69436193
-0.0038402483 0.0064003766 0.69454443
-0.0038447951 0.0057671964 0.69472736
-0.0038493383 0.0051324666 0.69491017
-0.0038539066 0.0044962764 0.69509399
-0.0038584857 0.0038585067 0.69527829
-0.0038630613 0.0032192171 0.69546235
-0.0038676623 0.0025784969 0.69564748
-0.0038722742 0.0019361675 0.69583303
-0.003876854 0.0012922883 0.69601727
-0.00388143 0.00064691901 0.69620144
-0.0038860748 2.9802322e-08 0.6963883
-0.0038908469 -0.00064843893 0.69658035
-0.0038961405 -0.0012986958 0.69679338
-0.0039023394 -0.0019511282 0.69704276
-0.0039095986 -0.0026063621 0.69733483
-0.003918814 -0.0032656491 0.69770563
-0.0039369147 -0.0039368868 0.698434
-0.0039577666 -0.004617393 0.69927299
-0.0039788405 -0.0053050816 0.70012093
-0.0040001092 -0.0060001314 0.70097673
-0.0040108678 -0.0066847503 0.70140964
-0.004018289 -0.0073668361 0.7017082
-0.0040283669 -0.00805673 0.70211375
-0.0040372913 -0.0087473989 0.70247275
-0.0040478893 -0.0094450712 0.70289922
-0.0041613602 -0.010403365 0.70746493
-0.0041833543 -0.011155605 0.70834994
-0.0042055822 -0.011915803 0.70924431
-0.0042280476 -0.012684107 0.71014827
-0.0042478787 -0.013451606 0.7109462
-0.0042401724 -0.0141339 0.71063614
-0.0042203446 -0.014771193 0.70983827
-0.0041934857 -0.015376121 0.70875758
-0.0041726539 -0.015995175 0.70791942
-0.0041768169 -0.016707242 0.70808691
-0.0041825823 -0.017427415 0.70831889
-0.0041883634 -0.018149525 0.70855153
-0.004194194 -0.01887387 0.70878607
-0.0042025135 -0.019611686 0.70912081
-0.0043357797 -0.020956278 0.71448302
-0.0043368982 -0.021684438 0.71452802
-0.004330826 -0.022375911 0.7142837
-0.0043158541 -0.023017883 0.71368128
-0.004300985 -0.023655415 0.71308303
-0.0042862003 -0.024288446 0.71248817
-0.0042715347 -0.024917245 0.71189803
-0.0042575775 -0.025545448 0.71133643
-0.0042564301 -0.026247978 0.7112903
-0.0042617549 -0.026991129 0.71150452
-0.0042683515 -0.027744263 0.71176994
-0.0042750556 -0.028500378 0.71203971
-0.0042817988 -0.029258937 0.71231103
-0.0042885458 -0.03001979 0.71258247
-0.0042958446 -0.030786902 0.7128762
-0.0044353823 -0.032526135 0.71849078
-0.0044272258 -0.033204168 0.71816254
-0.0043812282 -0.033589393 0.71631181
-0.0043296749 -0.033915788 0.71423739
-0.0043283445 -0.034626722 0.71418387
-0.0043351306 -0.035403579 0.71445698
-0.0043421732 -0.036184728 0.71474034
-0.0043492387 -0.036968529 0.71502459
-0.0043563638 -0.037755102 0.71531129
-0.0043636947 -0.038545966 0.71560627
-0.0043710321 -0.039339274 0.71590149
-0.0043783947 -0.040135264 0.71619773
-0.0043857815 -0.040933967 0.71649498
-0.0043931934 -0.041735291 0.71679318
-0.00440063 -0.042539418 0.71709245
-0.0044081295 -0.043346584 0.71739423
-0.0044157859 -0.044157833 0.71770227
-0.0044235433 -0.044972688 0.71801442
-0.0044313851 -0.04579097 0.71832997
-0.0044393302 -0.046612948 0.71864963
-0.0044473042 -0.047437876 0.71897042
-0.0044553061 -0.048265785 0.7192924
-0.0044633374 -0.049096733 0.71961564
-0.0044714361 -0.04993102 0.7199415
-0.0044796411 -0.050769269 0.72027159
-0.0044880309 -0.051612318 0.72060919
-0.0044965683 -0.052459925 0.72095275
-0.0045051579 -0.05331105 0.72129834
-0.004513761 -0.054165125 0.72164452
-0.0045224167 -0.055022687 0.72199273
-0.0045311055 -0.055883616 0.72234237
-0.0045398278 -0.056747824 0.72269332
-0.0045488216 -0.05761838 0.72305518
-0.0045580505 -0.058494985 0.72342658
-0.0045673372 -0.059375405 0.72380024
-0.0045766416 -0.060259134 0.72417462
-0.0045859842 -0.061146438 0.72455049
-0.0045953849 -0.062037677 0.72492874
-0.0046048043 -0.062932312 0.72530776
-0.0046143439 -0.063831747 0.72569162
-0.0046254001 -0.064755589 0.72613651
-0.0046483153 -0.065851092 0.72705847
-0.0031421662 0.053416818 0.69174194
-0.0031275048 0.05254212 0.69103402
-0.0031223451 0.051830947 0.69078487
-0.0031221879 0.051203907 0.69077736
-0.0031229961 0.050592542 0.69081634
-0.0031238047 0.049980909 0.69085538
-0.003124625 0.049369067 0.69089502
-0.0031254457 0.048756987 0.6909346
-0.0031265141 0.048148364 0.69098622
-0.0031277188 0.04754132 0.69104439
-0.0031284508 0.046926796 0.69107974
-0.003124445 0.04624179 0.69088638
-0.0031233779 0.045601338 0.69083476
-0.0031220757 0.044957906 0.69077194
-0.0030989866 0.044005632 0.68965709
-0.0030802181 0.043123066 0.68875086
-0.0030780025 0.042476445 0.68864387
-0.0030810374 0.041902125 0.68879044
-0.0030857765 0.041349381 0.6890192
-0.0030921914 0.040816933 0.68932897
-0.0031208531 0.040571094 0.69071293
-0.0031344339 0.040120751 0.69136858
-0.0031411208 0.03957817 0.69169146
-0.0031451012 0.038999259 0.69188368
-0.0031488293 0.03841573 0.69206369
-0.0031522 0.037826449 0.69222641
-0.003155303 0.037232608 0.69237626
-0.0031581363 0.036634386 0.69251305
-0.0031608369 0.036033541 0.69264346
-0.0031635188 0.035431415 0.69277298
-0.0031662055 0.034828275 0.69290268
-0.0031688968 0.034224093 0.69303256
-0.0031715925 0.033618897 0.6931628
-0.0031742926 0.033012658 0.69329315
-0.0031769976 0.032405406 0.69342375
-0.0031797306 0.03179732 0.69355571
-0.0031887414 0.031249642 0.69399083
-0.0032476333 0.031177282 0.69683439
-0.0033016112 0.031035155 0.6994406
-0.003312211 0.030472338 0.69995248
-0.0033169917 0.029852957 0.70018327
-0.0033212909 0.029227346 0.70039088
-0.003325525 0.02859953 0.70059532
-0.0033296039 0.027968705 0.70079225
-0.0033335651 0.027335256 0.70098352
-0.0033373814 0.026699066 0.70116776
-0.0033410653 0.026060343 0.70134568
-0.0033445514 0.025418609 0.70151401
-0.0033478898 0.024774432 0.70167518
-0.0033510928 0.024127871 0.70182979
-0.003353253 0.023472786 0.70193416
-0.0033515841 0.02279079 0.70185351
-0.0033447961 0.022075653 0.70152581
-0.0033285578 0.02130276 0.70074177
-0.003272112 0.020287097 0.69801629
-0.0031654555 0.018992752 0.69286644
-0.0031285635 0.018145651 0.69108522
-0.0031317216 0.017537624 0.69123769
-0.0031350672 0.016929388 0.69139922
-0.0031384539 0.01631999 0.69156265
-0.0031419504 0.015709758 0.69173157
-0.003145443 0.015098125 0.69190019
-0.0031489662 0.01448524 0.69207031
-0.0031525318 0.013871133 0.6922425
-0.0031562087 0.013256103 0.69242001
-0.0031598941 0.012639582 0.69259799
-0.0031635766 0.012021601 0.69277573
-0.0031672793 0.011402249 0.69295454
-0.003170979 0.010781318 0.69313318
-0.0031746987 0.010159045 0.69331276
-0.0031784275 0.0095353127 0.69349283
-0.0031821532 0.0089100599 0.69367272
-0.0031858997 0.0082833767 0.69385362
-0.0031896548 0.0076551735 0.69403493
-0.0031934069 0.0070255101 0.69421607
-0.0031971799 0.0063943565 0.69439828
-0.0032009615 0.0057617426 0.69458091
-0.0032047406 0.0051276088 0.6947633
-0.0032085401 0.0044919848 0.69494677
-0.0032123369 0.003854841 0.69513011
-0.0032161546 0.003216207 0.69531447
-0.0032201249 0.0025761127 0.6955061
-0.0032245235 0.001934737 0.69571847
-0.0032297026 0.0012919307 0.69596863
-0.0032358263 0.00064718723 0.69626427
-0.0032441525 -0 0.69666636
-0.0032597962 -0.0006519556 0.69742167
-0.0032769381 -0.0013107657 0.69824934
-0.0032942616 -0.0019765198 0.69908577
-0.0033117817 -0.0026494265 0.69993168
-0.0033294891 -0.0033294559 0.70078671
-0.0033473738 -0.0040168166 0.70165026
-0.0033643572 -0.004710108 0.7024703
-0.0033663127 -0.0053860843 0.70256472
-0.0033610247 -0.0060498118 0.70230937
-0.0033582959 -0.0067165792 0.70217764
-0.0033604787 -0.0073930323 0.70228302
-0.0033665737 -0.0080797672 0.70257729
-0.0033723766 -0.0087681711 0.70285749
-0.0033797242 -0.009463191 0.70321226
-0.0035299303 -0.010589778 0.71046489
-0.0035390768 -0.011325032 0.71090651
-0.0035488652 -0.012066156 0.71137917
-0.0035555616 -0.012799978 0.71170247
-0.003558737 -0.013523161 0.71185583
-0.0035505479 -0.014202178 0.71146035
-0.0035246166 -0.01480335 0.7102083
-0.003488705 -0.015350252 0.70847434
-0.0034756397 -0.015987933 0.70784348
-0.003480179 -0.016704857 0.70806265
-0.0034852056 -0.017426014 0.70830536
-0.0034903169 -0.018149614 0.70855212
-0.0034966955 -0.018882155 0.70886016
-0.0036110019 -0.020221591 0.71437931
-0.0036166848 -0.020976782 0.71465379
-0.0036213135 -0.02172786 0.71487725
-0.0036247286 -0.022473305 0.71504211
-0.0036248649 -0.023199111 0.71504867
-0.0036169561 -0.023871899 0.71466684
-0.0036044244 -0.024510056 0.71406174
-0.0035919941 -0.025143981 0.71346158
-0.0035796345 -0.025773376 0.71286476
-0.003567345 -0.026398331 0.71227145
-0.0035571777 -0.027034581 0.71178055
-0.0035585184 -0.027756423 0.71184528
-0.0035639203 -0.028511345 0.71210605
-0.0035694558 -0.029269516 0.71237332
-0.0035750086 -0.030030042 0.71264148
-0.0035805788 -0.030792952 0.71291041
-0.0035862848 -0.031559289 0.71318591
-0.0035925882 -0.032333255 0.71349025
-0.0035986307 -0.0331074 0.71378207
-0.0036037215 -0.033874959 0.71402782
-0.0036097264 -0.034653366 0.7143178
-0.0036157516 -0.035434335 0.71460873
-0.0036217968 -0.036217928 0.71490055
-0.0036278621 -0.037004203 0.71519345
-0.003633948 -0.03779304 0.71548724
-0.0036400543 -0.03858459 0.71578217
-0.0036462576 -0.039379537 0.71608162
-0.0036525282 -0.040177792 0.71638441
-0.0036588819 -0.040979475 0.71669126
-0.003665304 -0.041784465 0.71700132
-0.003671811 -0.042592973 0.71731544
-0.0036783568 -0.043404609 0.71763152
-0.0036849258 -0.044219136 0.71794873
-0.0036915343 -0.045036703 0.7182678
-0.0036981821 -0.04585743 0.71858883
-0.0037049328 -0.046682119 0.71891475
-0.0037118036 -0.047511071 0.71924651
-0.0037187792 -0.048344135 0.71958327
-0.0037258293 -0.049180925 0.71992373
-0.0037328899 -0.050020695 0.72026467
-0.0037399936 -0.050863951 0.72060764
-0.0037471242 -0.051710337 0.72095191
-0.0037542824 -0.052559912 0.7212975
-0.0037616794 -0.053415835 0.72165471
-0.0037692529 -0.054277211 0.72202039
-0.0037768735 -0.055142313 0.72238833
-0.0037845084 -0.056010723 0.72275704
-0.0037921742 -0.05688259 0.72312713
-0.0037998876 -0.057758301 0.7234996
-0.003807666 -0.058638036 0.72387511
-0.0038155937 -0.059523255 0.72425789
-0.0038235711 -0.060412407 0.72464311
-0.0038318355 -0.061309367 0.7250421
-0.0038401356 -0.062210202 0.72544295
-0.0038484719 -0.063114941 0.7258454
-0.0038568617 -0.064023882 0.72625053
-0.0038672152 -0.064969212 0.72675043
-0.0039050621 -0.066386044 0.72857785
-0.0025065884 0.053265005 0.69131076
-0.0024925007 0.052342534 0.69046044
-0.0024881456 0.051629037 0.69019765
-0.0024877538 0.050998956 0.69017398
-0.002488707 0.050396323 0.6902315
-0.0024896699 0.049793392 0.69028962
-0.0024906248 0.049189866 0.69034731
-0.0024915801 0.048585832 0.69040489
-0.0024925363 0.047981292 0.69046265
-0.0024934933 0.047376364 0.69052041
-0.0024943706 0.04676944 0.69057333
-0.0024927957 0.046116769 0.69047827
-0.002490714 0.045455545 0.69035262
-0.0024909014 0.044836223 0.69036394
-0.0024823952 0.044062495 0.68985057
-0.0024676044 0.043183088 0.68895781
-0.0024649962 0.042521209 0.68880045
-0.0024667548 0.041934848 0.68890655
-0.0024698232 0.041369557 0.68909174
-0.0024739646 0.04082042 0.68934172
-0.0024973284 0.040581614 0.69075185
-0.0025059828 0.040095747 0.69127417
-0.002509648 0.039526939 0.69149542
-0.0025117886 0.038932741 0.69162458
-0.0025138967 0.038336962 0.69175184
-0.0025160173 0.03774026 0.69187987
-0.0025181323 0.037142485 0.69200748
-0.0025202602 0.036543787 0.69213593
-0.0025223824 0.035943985 0.69226396
-0.0025245172 0.03534326 0.69239289
-0.0025266467 0.034741431 0.69252139
-0.0025287981 0.034138799 0.69265127
-0.0025310547 0.033536464 0.69278741
-0.0025333152 0.032933116 0.69292384
-0.0025356445 0.0323295 0.69306445
-0.0025379874 0.03172487 0.69320583
-0.0025428443 0.031149834 0.69349897
-0.0025751453 0.03090176 0.69544852
-0.0026309097 0.030913204 0.69881421
-0.002646459 0.03043431 0.69975275
-0.0026515482 0.029829949 0.70005989
-0.0026544752 0.029199243 0.7002365
-0.0026571446 0.028564334 0.70039761
-0.0026596666 0.027926534 0.70054984
-0.00266202 0.027285725 0.70069182
-0.0026643367 0.026643366 0.70083171
-0.0026667088 0.02600041 0.70097488
-0.0026690848 0.025356323 0.70111829
-0.0026714653 0.024711043 0.70126194
-0.0026737265 0.024063587 0.70139837
-0.0026756104 0.023411602 0.70151216
-0.002675497 0.022741765 0.70150524
-0.0026715577 0.022040367 0.70126754
-0.0026623465 0.021298796 0.70071155
-0.0024967005 0.019349456 0.69071394
-0.0024967543 0.018725663 0.69071722
-0.0024994572 0.018121094 0.69088036
-0.0025022472 0.017515749 0.69104874
-0.0025051155 0.01690954 0.69122183
-0.0025080177 0.016302139 0.69139701
-0.0025109174 0.015693247 0.69157201
-0.0025138331 0.015083015 0.69174802
-0.0025167554 0.014471352 0.69192433
-0.0025196755 0.013858259 0.69210058
-0.0025226113 0.013243705 0.69227785
-0.0025255447 0.012627751 0.69245493
-0.0025284945 0.012010366 0.69263291
-0.0025314419 0.011391491 0.69281077
-0.002534396 0.010771215 0.69298911
-0.0025373572 0.010149419 0.69316787
-0.0025403253 0.0095262527 0.69334698
-0.0025433097 0.0089015961 0.6935271
-0.0025462916 0.0082754791 0.69370705
-0.0025492806 0.0076478422 0.69388747
-0.0025522767 0.0070188046 0.69406831
-0.0025553079 0.0063882768 0.69425124
-0.0025586197 0.0057569146 0.69445109
-0.0025622989 0.0051246285 0.69467318
-0.0025665003 0.0044913888 0.69492674
-0.0025715053 0.0038572848 0.69522882
-0.0025785563 0.0032232404 0.69565433
-0.0025912672 0.0025913119 0.69642162
-0.0026048166 0.0019536316 0.69723934
-0.0026184984 0.0013092756 0.69806516
-0.0026323346 0.00065809488 0.69890016
-0.0026463179 -2.9802322e-08 0.69974416
-0.0026604505 -0.00066512823 0.70059717
-0.0026747247 -0.0013373494 0.70145869
-0.0026891527 -0.0020168424 0.70232946
-0.0027037372 -0.0027037263 0.7032097
-0.0027184915 -0.0033980906 0.70410025
-0.0027315812 -0.0040973425 0.70489025
-0.0027319035 -0.004780829 0.70490968
-0.0027228161 -0.0054455996 0.7043612
-0.0027081731 -0.006093353 0.70347744
-0.0026933737 -0.0067333877 0.70258421
-0.0026916629 -0.0074020326 0.70248091
-0.0026957348 -0.008087188 0.70272672
-0.0026994941 -0.0087733269 0.70295358
-0.0027034639 -0.0094621181 0.70319325
-0.0028335473 -0.01062578 0.71104443
-0.0028378749 -0.011351526 0.71130568
-0.0028420764 -0.012078822 0.7115593
-0.0028462552 -0.012808144 0.71181142
-0.0028473048 -0.013524681 0.71187472
-0.0028396607 -0.014198303 0.71141344
-0.0027967596 -0.014682978 0.70882416
-0.0027776777 -0.015277237 0.70767242
-0.0027804228 -0.015987396 0.70783806
-0.0027843774 -0.016706228 0.70807683
-0.0027884555 -0.017427832 0.70832288
-0.0027931288 -0.018155307 0.70860499
-0.0028856706 -0.019478261 0.71419036
-0.0028904476 -0.020233124 0.71447873
-0.0028950232 -0.020988882 0.71475488
-0.0028993473 -0.021745056 0.71501583
-0.0029034659 -0.022501856 0.71526444
-0.0029076692 -0.023261309 0.71551812
-0.0029103237 -0.024010152 0.71567833
-0.0029090566 -0.024726957 0.71560192
-0.0028999643 -0.025374651 0.71505308
-0.0028898946 -0.026009053 0.71444535
-0.0028798948 -0.026638985 0.71384174
-0.0028699518 -0.027264565 0.7132417
-0.0028600893 -0.027885824 0.71264642
-0.0028542979 -0.028542966 0.7122969
-0.0028574197 -0.02928853 0.71248531
-0.0028620446 -0.03005144 0.71276438
-0.0028667198 -0.030817211 0.71304655
-0.0028714698 -0.03158614 0.71333331
-0.0028762594 -0.032357901 0.71362233
-0.0028810408 -0.033131957 0.713911
-0.0028858385 -0.033908606 0.7142005
-0.002890652 -0.034687847 0.71449113
-0.0028955662 -0.035470665 0.7147876
-0.0029005089 -0.036256373 0.71508598
-0.0029055174 -0.03704536 0.71538824
-0.0029105798 -0.037837535 0.71569383
-0.0029156841 -0.03863278 0.71600187
-0.0029208434 -0.039431363 0.71631324
-0.0029260209 -0.040232748 0.71662569
-0.0029312291 -0.041037142 0.71694005
-0.0029364808 -0.041844845 0.71725702
-0.0029418136 -0.042656243 0.71757889
-0.0029472031 -0.043471217 0.71790421
-0.0029526879 -0.044290304 0.71823525
-0.0029582309 -0.045112997 0.71856982
-0.0029638072 -0.045939028 0.71890634
-0.0029693921 -0.04676792 0.71924341
-0.0029750108 -0.04760015 0.71958256
-0.0029806634 -0.048435777 0.71992368
-0.0029864917 -0.049277067 0.72027546
-0.0029924589 -0.050123662 0.72063559
-0.0029984626 -0.050973862 0.72099805
-0.0030044778 -0.051827222 0.72136104
-0.003010517 -0.052684039 0.72172552
-0.0030166195 -0.053544968 0.72209382
-0.0030228391 -0.054411083 0.72246921
-0.0030290845 -0.055280745 0.72284615
-0.0030353691 -0.056154311 0.72322547
-0.0030416797 -0.057031482 0.72360635
-0.0030482172 -0.057916105 0.72400093
-0.0030547827 -0.058804572 0.72439718
-0.0030613902 -0.059697121 0.724796
-0.0030680127 -0.060593218 0.72519571
-0.0030746912 -0.061493784 0.72559881
-0.0030817541 -0.062405497 0.72602504
-0.0030888768 -0.063321948 0.72645497
-0.0030960466 -0.064242959 0.7268877
-0.0031058569 -0.065222979 0.72747982
-0.0018750717 0.05312705 0.69091886
-0.0018632073 0.05216983 0.68996406
-0.0018596507 0.051450372 0.68967789
-0.0018593853 0.050823212 0.6896565
-0.0018600954 0.050222605 0.68971366
-0.0018608059 0.049621522 0.68977082
-0.0018616235 0.049022794 0.68983662
-0.0018625282 0.048425734 0.68990946
-0.0018634405 0.047828346 0.68998289
-0.001864347 0.047230095 0.69005585
-0.0018652544 0.046631366 0.6901288
-0.0018647339 0.045996815 0.69008696
-0.0018624417 0.045319468 0.68990248
-0.0018634205 0.04472211 0.68998122
-0.0018596109 0.044010818 0.68967474
-0.0018503091 0.043173879 0.68892616
-0.0018480718 0.042505682 0.68874609
-0.0018491143 0.041913241 0.68883002
-0.0018509661 0.041338265 0.68897897
-0.0018532104 0.04077065 0.68915963
-0.001869523 0.040506333 0.69047236
-0.001875571 0.040012211 0.6909591
-0.0018775439 0.039428443 0.69111776
-0.0018791211 0.038835168 0.69124478
-0.0018807553 0.038242042 0.69137621
-0.0018824195 0.037648439 0.69151014
-0.0018840866 0.037053704 0.69164431
-0.0018857567 0.036457986 0.69177872
-0.0018874297 0.035861164 0.69191337
-0.0018891126 0.035263479 0.69204879
-0.0018908123 0.034664869 0.69218558
-0.0018925425 0.034065783 0.69232482
-0.0018942826 0.033465683 0.69246489
-0.0018960261 0.032864451 0.69260514
-0.0018977658 0.032262027 0.69274515
-0.0018995156 0.03165862 0.69288599
-0.0019021569 0.031068563 0.69309855
-0.0019172918 0.030676693 0.69431645
-0.001959245 0.030694842 0.69769263
-0.001976602 0.030307889 0.69908941
-0.001983243 0.029748648 0.69962382
-0.0019858803 0.029126257 0.69983608
-0.0019875995 0.028488934 0.69997436
-0.0019895949 0.027854353 0.70013499
-0.0019913584 0.027215242 0.70027691
-0.0019931176 0.026574939 0.70041847
-0.0019948874 0.025933564 0.70056093
-0.0019966604 0.025291085 0.70070356
-0.0019983752 0.02464664 0.70084155
-0.0018597436 0.022316933 0.68968534
-0.0018606465 0.021707565 0.68975806
-0.001862242 0.021105409 0.68988645
-0.0018641737 0.020505935 0.69004184
-0.0018663097 0.019907326 0.69021374
-0.0018684507 0.019307345 0.69038606
-0.0018705965 0.018705964 0.69055873
-0.0018727473 0.018103272 0.69073182
-0.0018749031 0.017499089 0.69090533
-0.0018770638 0.016893595 0.6910792
-0.0018792363 0.016286731 0.69125402
-0.001881407 0.015678376 0.69142872
-0.0018835828 0.01506868 0.69160384
-0.0018857635 0.014457583 0.69177926
-0.0018879494 0.013844967 0.69195521
-0.0018901471 0.013231069 0.69213206
-0.0018923432 0.012615651 0.69230878
-0.0018945443 0.011998802 0.69248593
-0.0018967505 0.011380494 0.69266343
-0.001898962 0.010760784 0.69284141
-0.0019012132 0.010139823 0.69302261
-0.0019035115 0.0095175505 0.69320756
-0.0019060384 0.0088948607 0.69341087
-0.0019089564 0.0082721412 0.69364572
-0.0019122973 0.0076491833 0.69391453
-0.0019163612 0.0070266426 0.69424158
-0.0019233552 0.0064111948 0.69480443
-0.0019328558 0.0057985783 0.69556898
-0.0019424581 0.005179882 0.69634169
-0.0019512646 0.0045529306 0.69705045
-0.0019581851 0.003916353 0.69760734
-0.0019621216 0.0032702088 0.69792414
-0.0019694318 0.0026259124 0.69851243
-0.0019812302 0.0019812584 0.69946182
-0.0020036683 0.0013357997 0.70126754
-0.0020144638 0.00067147613 0.70213628
-0.0020253761 2.9802322e-08 0.70301443
-0.0020364071 -0.0006788075 0.70390218
-0.0020475672 -0.0013650656 0.70480025
-0.0020588422 -0.0020588338 0.70570761
-0.0020702502 -0.0027603209 0.7066257
-0.0020781746 -0.0034635961 0.70726335
-0.002078614 -0.0041571856 0.7072987
-0.0020715257 -0.0048335195 0.70672828
-0.0020596883 -0.0054925084 0.70577568
-0.0020446593 -0.0061340034 0.70456624
-0.0020267307 -0.0067557693 0.70312345
-0.0020185362 -0.0074012876 0.70246398
-0.0020206491 -0.0080825686 0.70263404
-0.0020227586 -0.0087652504 0.70280379
-0.0020248569 -0.0094493032 0.70297265
-0.0021255505 -0.010627717 0.7110759
-0.0021287627 -0.011353374 0.71133441
-0.0021319059 -0.012080789 0.71158731
-0.0021330577 -0.012798309 0.71168
-0.0021299892 -0.013489902 0.71143305
-0.0020992339 -0.013994843 0.70895803
-0.0020811039 -0.014567733 0.70749909
-0.0020828752 -0.015274405 0.70764166
-0.0020858261 -0.01599133 0.70787913
-0.0020887852 -0.016710281 0.70811725
-0.002092097 -0.01743415 0.70838368
-0.0021619101 -0.018736541 0.71400183
-0.0021656291 -0.019490629 0.71430111
-0.0021690628 -0.020244569 0.71457744
-0.0021724985 -0.021000803 0.71485394
-0.0021759449 -0.02175945 0.71513128
-0.0021792839 -0.022519261 0.71539998
-0.0021833281 -0.023288816 0.71572542
-0.0021871487 -0.02405861 0.71603286
-0.0021897308 -0.02481693 0.71624064
-0.0021913694 -0.025565952 0.71637261
-0.0021874241 -0.026249081 0.7160551
-0.0021797852 -0.026884019 0.71544027
-0.0021712948 -0.027503043 0.71475703
-0.002160924 -0.028091967 0.7139225
-0.0021494194 -0.028658926 0.71299672
-0.0021450671 -0.029315919 0.71264642
-0.0021486219 -0.030080676 0.71293247
-0.0021521796 -0.030847877 0.71321881
-0.0021558295 -0.031618834 0.71351254
-0.0021594826 -0.032392204 0.71380651
-0.0021631753 -0.033168703 0.7141037
-0.0021669164 -0.033948362 0.7144047
-0.0021706708 -0.034730732 0.71470684
-0.0021744834 -0.03551656 0.71501368
-0.0021783186 -0.036305279 0.71532226
-0.0021821763 -0.037097007 0.7156328
-0.0021860569 -0.037891656 0.71594501
-0.0021899976 -0.038689941 0.71626216
-0.0021939799 -0.039491624 0.71658266
-0.0021980046 -0.040296733 0.71690649
-0.0022020999 -0.041105837 0.71723604
-0.0022062201 -0.041918159 0.71756768
-0.0022103461 -0.042733341 0.71789968
-0.002214497 -0.043551773 0.7182337
-0.0022186919 -0.04437381 0.71857131
-0.0022229881 -0.045200706 0.71891701
-0.002227396 -0.046032816 0.71927172
-0.0022318312 -0.046868443 0.71962869
-0.0022362743 -0.04770714 0.71998626
-0.0022407547 -0.048549682 0.72034681
-0.0022453303 -0.04939726 0.72071493
-0.0022499245 -0.050248295 0.72108477
-0.0022545473 -0.051103055 0.72145677
-0.0022591795 -0.051961124 0.72182947
-0.0022638307 -0.052822709 0.72220373
-0.0022685209 -0.053688318 0.72258127
-0.0022733691 -0.05456087 0.72297138
-0.0022782483 -0.055437386 0.723364
-0.0022831385 -0.056317389 0.72375751
-0.0022880496 -0.057201207 0.72415274
-0.0022931837 -0.058093935 0.72456598
-0.0022984424 -0.05899331 0.72498912
-0.0023037354 -0.059897125 0.72541505
-0.0023090425 -0.060804784 0.72584212
-0.0023143741 -0.061716616 0.72627121
-0.0023197304 -0.06263271 0.72670221
-0.0023253604 -0.06355983 0.72715527
-0.0023312785 -0.064498693 0.72763157
-0.0023438802 -0.065628618 0.72864562
-0.0012494186 0.053100318 0.69084287
-0.0012389449 0.052035689 0.68957865
-0.001235979 0.051293164 0.68922061
-0.001235645 0.050661474 0.68918025
-0.0012362472 0.050068021 0.68925297
-0.0012368457 0.049473852 0.68932527
-0.0012374448 0.048879057 0.68939757
-0.0012380489 0.048283905 0.68947047
-0.001238649 0.047688037 0.68954289
-0.0012392498 0.047091514 0.68961549
-0.001239953 0.046498239 0.68970037
-0.0012401699 0.045886308 0.68972647
-0.0012384107 0.045201987 0.68951416
-0.0012392498 0.044613004 0.68961549
-0.0012378239 0.043942779 0.68944335
-0.0012322314 0.043128103 0.68876827
-0.0012302246 0.042442769 0.68852597
-0.0012303945 0.041833401 0.68854654
-0.0012312185 0.041245818 0.68864596
-0.0012320436 0.040657431 0.68874562
-0.001242076 0.040367484 0.68995661
-0.0012473151 0.039914101 0.69058901
-0.0012489291 0.039341271 0.69078386
-0.0012500299 0.038750917 0.69091672
-0.0012511326 0.038159549 0.69104981
-0.0012522372 0.037567139 0.69118315
-0.0012533439 0.036973685 0.69131672
-0.0012544842 0.036380053 0.69145435
-0.0012556266 0.035785377 0.69159234
-0.0012567756 0.035189748 0.69173098
-0.0012579267 0.034593046 0.69186991
-0.0012590982 0.033995658 0.69201136
-0.001260313 0.0333983 0.69215798
-0.0012615529 0.032800406 0.69230771
-0.0012627908 0.032201171 0.69245708
-0.0012640265 0.031600684 0.69260621
-0.001265472 0.031004101 0.69278073
-0.001270734 0.03049764 0.69341588
-0.0012960396 0.03045693 0.69647062
-0.0013130191 0.030199438 0.69852018
-0.0013180745 0.029656678 0.69913048
-0.0013204237 0.029049337 0.69941401
-0.0013218352 0.028419465 0.69958436
-0.0012308434 0.025847733 0.68860072
-0.0012310919 0.025237411 0.6886307
-0.0012319781 0.024639547 0.68873763
-0.0012331891 0.024047226 0.68888384
-0.0012345562 0.023456573 0.68904889
-0.0012359483 0.022865057 0.68921685
-0.0012373567 0.022272438 0.68938696
-0.0012387683 0.021678448 0.68955731
-0.0012401876 0.021083206 0.68972862
-0.0012416056 0.020486534 0.6898998
-0.0012430269 0.019888431 0.6900714
-0.0012444516 0.019289017 0.69024336
-0.0012458795 0.018688202 0.69041568
-0.0012473151 0.018086106 0.69058895
-0.0012487496 0.017482519 0.69076216
-0.0012501873 0.016877562 0.69093573
-0.0012516283 0.016271204 0.69110966
-0.0012530728 0.015663415 0.691284
-0.0012545249 0.015054315 0.6914593
-0.001255976 0.014443725 0.69163454
-0.0012574578 0.013832033 0.69181335
-0.001258943 0.013218939 0.69199264
-0.0012605279 0.012605339 0.69218385
-0.0012622724 0.01199162 0.69239455
-0.0012642519 0.011378258 0.69263345
-0.0012665837 0.01076597 0.69291496
-0.0012697403 0.010157943 0.69329602
-0.0012754123 0.0095655918 0.69398063
-0.0012816787 0.0089717507 0.69473708
-0.0012880117 0.008372128 0.69550157
-0.0012944029 0.0077664554 0.69627297
-0.0013008529 0.0071546733 0.69705158
-0.0013046332 0.0065231919 0.69750792
-0.0013053096 0.0058739185 0.69758958
-0.0013067774 0.0052270889 0.69776678
-0.0013091998 0.0045822263 0.69805914
-0.0013118244 0.0039354861 0.69837594
-0.0013143005 0.0032857656 0.6986748
-0.0013185546 0.0026371479 0.69918847
-0.001355973 0.0020339787 0.70370519
-0.0013633898 0.0013633966 0.70460045
-0.0013708936 0.00068542361 0.70550632
-0.0013766454 -0 0.70620054
-0.0013809951 -0.00069051981 0.7067256
-0.0013846824 -0.0013846755 0.70717072
-0.0013880011 -0.0020819902 0.70757133
-0.0013909905 -0.0027819574 0.70793217
-0.001393132 -0.0034828186 0.70819068
-0.0013929198 -0.0041787028 0.70816505
-0.0013900056 -0.0048649907 0.70781326
-0.0013820278 -0.0055280924 0.70685029
-0.0013693161 -0.0061619282 0.70531583
-0.0013550476 -0.0067752302 0.70359349
-0.001344389 -0.007394135 0.70230687
-0.0013443006 -0.0080657899 0.70229626
-0.0013452739 -0.0087442398 0.70241368
-0.0013461912 -0.0094233155 0.70252436
-0.0014172649 -0.010629505 0.7111038
-0.001419407 -0.011355251 0.71136236
-0.0014203992 -0.012073368 0.71148211
-0.0014186478 -0.012767822 0.71127069
-0.0014005951 -0.013305634 0.70909154
-0.0013860466 -0.013860434 0.70733547
-0.001386965 -0.014563143 0.70744634
-0.0013889277 -0.01527819 0.70768321
-0.0013911353 -0.015998036 0.70794964
-0.0013933835 -0.016720563 0.70822102
-0.0014398459 -0.01799807 0.71382952
-0.0014422904 -0.018749774 0.71412462
-0.0014446409 -0.01950264 0.7144084
-0.0014472102 -0.02026093 0.71471852
-0.0014497946 -0.021022022 0.71503043
-0.0014523943 -0.021785915 0.71534431
-0.0014550034 -0.02255252 0.7156592
-0.0014577075 -0.023323298 0.71598566
-0.0014603726 -0.024096131 0.71630734
-0.001462684 -0.024865627 0.71658635
-0.0014650028 -0.025637537 0.71686625
-0.0014664248 -0.026395619 0.71703792
-0.0014628996 -0.027063638 0.71661234
-0.0014545954 -0.027637273 0.71560997
-0.0014456266 -0.028189719 0.71452731
-0.0014362097 -0.028724164 0.71339059
-0.0014317712 -0.029351294 0.7128548
-0.0014340875 -0.030115813 0.71313441
-0.001436554 -0.030885875 0.71343219
-0.0014390468 -0.031659007 0.71373308
-0.0014415723 -0.032435358 0.71403801
-0.0014441066 -0.03321445 0.71434379
-0.0014466679 -0.033996701 0.71465302
-0.0014492504 -0.034781992 0.71496475
-0.0014518664 -0.035570711 0.71528053
-0.001454504 -0.036362618 0.71559894
-0.0014571879 -0.037158281 0.71592289
-0.0014598878 -0.037957072 0.71624881
-0.0014625979 -0.038758844 0.71657592
-0.0014653302 -0.039563894 0.71690577
-0.0014680853 -0.040372312 0.71723831
-0.0014709068 -0.041185379 0.71757889
-0.0014738016 -0.042003334 0.71792835
-0.0014767142 -0.042824686 0.7182799
-0.0014796382 -0.043649286 0.71863294
-0.0014826308 -0.044478893 0.71899414
-0.0014856355 -0.045311868 0.71935678
-0.0014886588 -0.04614839 0.71972179
-0.0014916881 -0.046988159 0.72008747
-0.0014947297 -0.047831327 0.72045457
-0.0014977837 -0.048677951 0.72082329
-0.0015008503 -0.049528033 0.72119343
-0.0015039489 -0.050382286 0.72156745
-0.0015071518 -0.051243156 0.72195411
-0.0015103619 -0.052107453 0.72234154
-0.0015135857 -0.052975476 0.7227307
-0.0015169027 -0.053850025 0.72313106
-0.0015203408 -0.054732263 0.72354615
-0.0015238144 -0.05561921 0.72396547
-0.0015272973 -0.056509972 0.72438586
-0.0015307962 -0.057404846 0.72480816
-0.0015343111 -0.058303803 0.72523248
-0.0015379443 -0.059210837 0.72567105
-0.0015417248 -0.060127258 0.72612739
-0.0015455307 -0.061048478 0.72658682
-0.0015493486 -0.061973929 0.72704768
-0.0015531853 -0.062904 0.72751081
-0.0015570481 -0.063838929 0.7279771
-0.0015623268 -0.064836532 0.72861433
-0.00061800709 0.051912606 0.6892249
-0.00061642175 0.051163048 0.68884212
-0.00061608735 0.050519198 0.68876141
-0.00061631901 0.04992184 0.68881732
-0.00061666244 0.049333006 0.68890023
-0.00061701942 0.048744559 0.68898642
-0.00061737461 0.048155248 0.68907219
-0.00061773026 0.047565252 0.68915802
-0.00061808847 0.046974719 0.68924451
-0.00061844487 0.046383381 0.68933058
-0.0006186695 0.045781553 0.68938482
-0.00061790162 0.045106828 0.68919939
-0.000618183 0.044509202 0.68926734
-0.00061793899 0.043873668 0.68920839
-0.00061530399 0.0430713 0.68857229
-0.00061364577 0.04234159 0.68817192
-0.00061276491 0.041668028 0.68795925
-0.00061228976 0.041023433 0.68784457
-0.00060399657 0.039863765 0.68584245
-0.00060469873 0.039305419 0.68601197
-0.0006220988 0.039814353 0.69021267
-0.00062312069 0.039256632 0.69045937
-0.00062367541 0.038667887 0.6905933
-0.00062425138 0.038079351 0.69073236
-0.0006248306 0.037489831 0.69087219
-0.00062541768 0.036899656 0.69101393
-0.00062601938 0.036309153 0.69115919
-0.00062663126 0.035717994 0.69130689
-0.00062724436 0.035125703 0.69145495
-0.00062785868 0.034532219 0.69160318
-0.0006284719 0.033937484 0.6917513
-0.00062908407 0.033341467 0.69189906
-0.0006296974 0.032744259 0.69204712
-0.00063031196 0.032145917 0.69219553
-0.00063092762 0.031546414 0.69234419
-0.00063155836 0.030946374 0.69249642
-0.00063328492 0.030397713 0.69291329
-0.00061101071 0.028717518 0.68753576
-0.00061135471 0.028122336 0.68761885
-0.00061189948 0.027535498 0.68775034
-0.00061253586 0.026951581 0.687904
-0.00061322126 0.026368529 0.68806946
-0.00061390596 0.025784075 0.68823475
-0.00061459659 0.02519846 0.68840146
-0.0006152931 0.024611741 0.68856966
-0.00061599119 0.024023652 0.68873817
-0.0006166909 0.023434281 0.68890709
-0.00061739434 0.022843599 0.6890769
-0.00061809726 0.022251487 0.68924665
-0.00061880174 0.021658063 0.68941671
-0.0006195078 0.021063268 0.68958718
-0.00062021555 0.020467132 0.68975806
-0.00062092708 0.019869685 0.68992984
-0.00062163803 0.019270808 0.69010144
-0.00062235061 0.018670529 0.69027346
-0.00062306708 0.018068969 0.69044644
-0.00062379637 0.017466336 0.69062251
-0.00062452961 0.016862333 0.69079953
-0.0006252646 0.016256899 0.69097704
-0.00062608026 0.015652001 0.69117391
-0.00062700443 0.015048087 0.69139701
-0.00062805385 0.014445275 0.69165039
-0.00062931649 0.013844967 0.69195521
