# .PCD v0.7 - Point Cloud Data file format
VERSION 0.7
FIELDS x y z
SIZE 4 4 4
TYPE F F F
COUNT 1 1 1
WIDTH 1339
HEIGHT 1
VIEWPOINT 0 0 0 1 0 0 0
POINTS 1339
DATA ascii
-0.0037800125 -0.061236203 0.7225399
-0.0037853988 -0.062080532 0.72280002
-0.0037908007 -0.062927276 0.72306085
-0.0037962177 -0.063776433 0.72332239
-0.0038016338 -0.064627767 0.72358394
-0.0038095196 -0.065523714 0.72396457
-0.0038326976 -0.066688925 0.72508383
-0.0024601617 0.051048398 0.68850863
-0.0024533439 0.050293565 0.68809712
-0.0024523917 0.049660951 0.68803972
-0.0024539763 0.049079537 0.68813533
-0.002456327 0.048512459 0.68827724
-0.0024586734 0.047944158 0.68841881
-0.0024610329 0.047374904 0.68856126
-0.0024633883 0.046804368 0.68870342
-0.0024657571 0.046232969 0.68884635
-0.0024681215 0.045660257 0.68898904
-0.0024702884 0.045082808 0.68911988
-0.0024698232 0.04445681 0.6890918
-0.0024704905 0.043851227 0.68913203
-0.0024714307 0.043250054 0.68918878
-0.0024627335 0.042482167 0.6886639
-0.002456466 0.041759938 0.68828559
-0.0024555544 0.041130543 0.68823057
-0.0024577777 0.040553361 0.68836474
-0.0024604579 0.039982468 0.68852651
-0.0024639387 0.039423019 0.68873668
-0.0024681741 0.038873732 0.68899226
-0.0024721427 0.038318217 0.68923175
-0.0024751364 0.037745863 0.68941247
-0.0024780135 0.037170202 0.6895861
-0.0024808976 0.036593229 0.68976015
-0.0024837793 0.036014825 0.68993413
-0.0024866767 0.03543514 0.69010901
-0.0024895808 0.034854144 0.69028425
-0.0024924916 0.034271777 0.69045997
-0.0024954004 0.03368789 0.69063544
-0.002498325 0.033102781 0.69081199
-0.0025012565 0.03251633 0.69098896
-0.0025041858 0.03192836 0.69116569
-0.0025071308 0.031339139 0.69134349
-0.0025100831 0.030748546 0.69152164
-0.0025130331 0.030156434 0.69169974
-0.0025159991 0.02956301 0.69187874
-0.0025189721 0.028968215 0.69205815
-0.0025219431 0.028371871 0.6922375
-0.0025249301 0.027774245 0.69241774
-0.0025279243 0.027175188 0.69259846
-0.0025309164 0.026574612 0.69277912
-0.0025339248 0.025972754 0.69296068
-0.0025369404 0.025369406 0.69314265
-0.0025399632 0.024764657 0.69332516
-0.002542984 0.024158388 0.69350743
-0.002546021 0.023550719 0.69369072
-0.0025490655 0.022941619 0.69387448
-0.0025521079 0.02233097 0.69405812
-0.0025551671 0.021718919 0.69424272
-0.0025582334 0.021105468 0.69442779
-0.0025613073 0.020490497 0.69461334
-0.002564379 0.019873977 0.69479871
-0.0025667374 0.019250572 0.69494104
-0.0025687488 0.018623441 0.69506246
-0.0025712959 0.017999083 0.69521618
-0.0025744298 0.017377406 0.69540536
-0.0025775712 0.01675424 0.69559491
-0.0025807493 0.016129702 0.69578671
-0.0025845596 0.01550734 0.69601673
-0.0025887575 0.014885336 0.69627011
-0.0025924174 0.014258325 0.696491
-0.0025955741 0.013626814 0.6966815
-0.0025987383 0.012993664 0.69687247
-0.0026019004 0.012359023 0.69706339
-0.0026050801 0.011722833 0.69725525
-0.0026082578 0.011085123 0.69744706
-0.0026114529 0.010445833 0.69763994
-0.002614656 0.0098049641 0.69783318
-0.0026178572 0.0091625154 0.69802636
-0.0026210761 0.0085184872 0.69822073
-0.0026242929 0.0078729093 0.6984148
-0.0026275276 0.0072257221 0.69861007
-0.0026302722 0.0065756738 0.69877577
-0.0026326238 0.0059234202 0.69891769
-0.0026352394 0.0052704811 0.69907552
-0.0026385211 0.0046174228 0.69927359
-0.002641801 0.0039627254 0.69947153
-0.0026451596 0.0033064783 0.69967425
-0.0026495669 0.0026495755 0.69994026
-0.002653938 0.0019904673 0.70020413
-0.0026575003 0.0013287663 0.70041907
-0.0026609702 0.00066524744 0.70062852
-0.0026644389 2.9802322e-08 0.70083785
-0.002667927 -0.00066697598 0.70104843
-0.0026714141 -0.0013356805 0.70125884
-0.0026749203 -0.0020061731 0.70147049
-0.0026784255 -0.0026784241 0.70168203
-0.0026819503 -0.0033524334 0.70189482
-0.0026854845 -0.0040282011 0.70210803
-0.0026890174 -0.0047057569 0.70232129
-0.0026925702 -0.0053851008 0.70253575
-0.0026955989 -0.0060650408 0.7027185
-0.0026978489 -0.0067445636 0.70285434
-0.0027009211 -0.0074275434 0.70303977
-0.0027044106 -0.0081132352 0.70325041
-0.0027078986 -0.0088006556 0.70346093
-0.0027124542 -0.0094935596 0.70373583
-0.0027633302 -0.010362476 0.70680648
-0.002766917 -0.011067659 0.70702296
-0.0027705019 -0.011774629 0.70723933
-0.0027741073 -0.012483478 0.70745695
-0.0027777222 -0.013194174 0.7076751
-0.0027813353 -0.013906687 0.70789319
-0.0027849688 -0.014621049 0.70811248
-0.0027911768 -0.015351444 0.70848715
-0.0027958483 -0.016076088 0.70876914
-0.002799599 -0.016797572 0.70899546
-0.0028033596 -0.017520964 0.70922244
-0.0028071306 -0.018246323 0.70945007
-0.0028109229 -0.018973708 0.70967895
-0.0028147141 -0.019702971 0.70990777
-0.0028185269 -0.02043429 0.7101379
-0.0028223388 -0.021167517 0.71036798
-0.0028261724 -0.021902829 0.71059936
-0.0028300048 -0.022640049 0.71083063
-0.0028338593 -0.023379326 0.71106327
-0.0028377129 -0.024120539 0.71129584
-0.0028416929 -0.024864823 0.71153611
-0.0028456957 -0.025611281 0.71177775
-0.0028497213 -0.026359916 0.7120207
-0.0028531025 -0.027104437 0.71222472
-0.002852927 -0.027816027 0.71221411
-0.0028557759 -0.028557748 0.71238607
-0.0028596066 -0.029310942 0.71261728
-0.0028634479 -0.030066162 0.71284914
-0.0028672994 -0.030823469 0.7130816
-0.0028711732 -0.031582892 0.71331543
-0.0028750456 -0.032344252 0.71354914
-0.0028789283 -0.033107698 0.71378344
-0.0028828217 -0.033873141 0.7140184
-0.0028867256 -0.0346407 0.71425408
-0.0028906399 -0.035410345 0.71449029
-0.0028945771 -0.036182195 0.71472794
-0.0028985129 -0.036956042 0.71496552
-0.0029024594 -0.037731946 0.7152037
-0.0029064165 -0.038510025 0.71544254
-0.0029103847 -0.03929016 0.71568203
-0.0029143759 -0.04007265 0.71592289
-0.0029183656 -0.040857106 0.71616375
-0.0029223664 -0.041643709 0.71640515
-0.0029263783 -0.042432487 0.71664733
-0.0029304009 -0.043223381 0.7168901
-0.0029344349 -0.04401651 0.71713358
-0.0029384922 -0.044812024 0.7173785
-0.0029425484 -0.045609504 0.71762323
-0.0029466159 -0.04640919 0.7178688
-0.0029506946 -0.047211111 0.71811497
-0.0029547845 -0.048015237 0.71836179
-0.0029588984 -0.048821777 0.71861005
-0.0029630112 -0.049630404 0.71885824
-0.0029671355 -0.050441295 0.71910721
-0.0029712711 -0.051254421 0.71935678
-0.0029754185 -0.052069783 0.71960711
-0.0029795773 -0.052887499 0.71985817
-0.0029837606 -0.053707689 0.72011065
-0.0029879427 -0.054529935 0.72036308
-0.0029921366 -0.055354506 0.72061616
-0.0029963425 -0.056181401 0.72087002
-0.00300056 -0.057010621 0.72112459
-0.0030047896 -0.057842195 0.72137982
-0.0030090439 -0.058676332 0.72163659
-0.0030132972 -0.059512645 0.72189331
-0.0030175627 -0.060351223 0.7221508
-0.0030218402 -0.061192274 0.72240901
-0.0030261299 -0.06203568 0.72266793
-0.0030304452 -0.062881708 0.72292829
-0.0030347593 -0.063729912 0.72318876
-0.0030390858 -0.06458056 0.72344983
-0.0030451049 -0.065469772 0.72381312
-0.0030600824 -0.066556811 0.72471708
-0.0018444748 0.051030517 0.68845665
-0.0018394429 0.050278127 0.6880517
-0.0018387486 0.049646229 0.68799585
-0.0018399429 0.049065202 0.68809187
-0.0018417048 0.048498243 0.68823367
-0.0018434701 0.047930241 0.68837577
-0.0018452323 0.047360957 0.68851763
-0.0018470044 0.046790779 0.6886602
-0.0018487732 0.046219349 0.68880254
-0.0018505522 0.045646995 0.68894565
-0.001852183 0.045069844 0.6890769
-0.0018518474 0.044444323 0.68904996
-0.0018523608 0.043839246 0.68909121
-0.0018529798 0.043236196 0.68914104
-0.0018471025 0.042483389 0.68866807
-0.0018434245 0.041784316 0.68837208
-0.001843594 0.041173637 0.68838578
-0.0018454937 0.040600836 0.68853861
-0.0018475543 0.04003036 0.68870449
-0.0018507559 0.039482832 0.6889621
-0.0018556583 0.038968861 0.68935657
-0.0018608193 0.038456947 0.68977189
-0.0018642803 0.037907034 0.69005048
-0.0018664567 0.037329137 0.6902256
-0.0018686382 0.036749899 0.69040114
-0.0018708248 0.03616932 0.69057709
-0.0018730097 0.035587192 0.69075298
-0.0018752066 0.035003871 0.69092971
-0.0018774086 0.034419179 0.69110692
-0.001879609 0.033832967 0.691284
-0.0018818213 0.033245534 0.69146204
-0.0018840389 0.03265667 0.6916405
-0.0018862549 0.032066315 0.69181883
-0.0018884829 0.031474739 0.69199812
-0.0018907163 0.030881733 0.69217783
-0.0018929479 0.030287176 0.69235742
-0.0018951918 0.029691368 0.69253802
-0.0018974411 0.0290941 0.69271904
-0.0018996887 0.028495312 0.69289994
-0.0019019486 0.027895242 0.69308174
-0.0019042139 0.027293772 0.69326401
-0.0019064776 0.026690692 0.69344622
-0.0019087538 0.026086301 0.69362938
-0.0019110353 0.025480479 0.69381303
-0.0019133221 0.024873227 0.69399703
-0.0019156076 0.024264365 0.69418097
-0.0019179055 0.023654193 0.69436586
-0.0019202019 0.02304247 0.69455069
-0.0019225109 0.022429317 0.69473648
-0.0019248255 0.021814704 0.69492275
-0.0019271385 0.021198511 0.69510889
-0.0019294643 0.020580947 0.69529605
-0.0019307722 0.019951314 0.69540131
-0.0019302861 0.019302845 0.69536221
-0.0019299501 0.018656194 0.69533515
-0.0019311943 0.018024474 0.69543529
-0.0019335586 0.017402023 0.69562554
-0.0019359286 0.016778082 0.69581628
-0.0019383909 0.016153306 0.6960144
-0.0019424581 0.015539676 0.69634175
-0.0019484052 0.014937758 0.69682032
-0.0019527486 0.014320165 0.6971699
-0.0019553935 0.01368776 0.69738269
-0.0019577879 0.013051957 0.69757533
-0.0019601882 0.012414515 0.69776851
-0.001962587 0.011775553 0.69796157
-0.0019649991 0.011135012 0.69815564
-0.0019674173 0.010492891 0.69835031
-0.0019698339 0.0098491907 0.69854474
-0.0019722637 0.009203881 0.6987403
-0.0019746998 0.0085570812 0.69893634
-0.0019771343 0.0079085827 0.6991322
-0.0019787031 0.0072552562 0.69925845
-0.0019785378 0.0065951347 0.69924521
-0.0019781999 0.0059346259 0.69921803
-0.00197965 0.005279094 0.69933462
-0.001982142 0.0046249926 0.69953525
-0.0019846326 0.0039692819 0.69973564
-0.0019873341 0.0033122003 0.69995302
-0.0019922261 0.002656281 0.70034671
-0.0019985591 0.0019985735 0.70085633
-0.0020023058 0.0013348758 0.70115793
-0.0020049247 0.00066834688 0.70136857
-0.002007558 2.9802322e-08 0.70158058
-0.0020101906 -0.00067004561 0.70179242
-0.0020128377 -0.0013418794 0.70200545
-0.0020154843 -0.0020155013 0.70221841
-0.0020181453 -0.0026908517 0.70243257
-0.0020208058 -0.0033679903 0.70264661
-0.0020234811 -0.004046917 0.70286191
-0.0020261556 -0.0047276914 0.70307714
-0.0020279058 -0.0054077208 0.70321798
-0.0020276769 -0.0060830116 0.70319963
-0.0020272431 -0.0067574382 0.70316464
-0.0020286317 -0.0074382722 0.7032764
-0.0020313438 -0.008125335 0.70349467
-0.0020340073 -0.0088139772 0.70370901
-0.0020383345 -0.0095121861 0.70405722
-0.0020718798 -0.010359347 0.70675677
-0.0020745352 -0.011064172 0.70697045
-0.0020771974 -0.011770755 0.70718467
-0.0020798747 -0.012479246 0.70740014
-0.0020825507 -0.013189495 0.70761549
-0.0020852336 -0.013901561 0.70783138
-0.00208794 -0.014615566 0.70804918
-0.002090662 -0.015331507 0.70826823
-0.0020933994 -0.016049385 0.70848852
-0.0020961356 -0.016769052 0.70870876
-0.0020988875 -0.017490715 0.70893019
-0.0021016379 -0.018214196 0.70915151
-0.0021044044 -0.018939644 0.70937419
-0.0021071692 -0.01966691 0.70959663
-0.0021099502 -0.020396143 0.70982039
-0.0021127299 -0.021127284 0.71004409
-0.0021155253 -0.021860391 0.71026909
-0.0021183197 -0.022595406 0.71049398
-0.0021211302 -0.023332447 0.71072018
-0.0021239654 -0.024071574 0.71094829
-0.0021268169 -0.024812847 0.71117777
-0.0021296672 -0.025555998 0.71140712
-0.002132534 -0.026301235 0.71163785
-0.0021353997 -0.027048379 0.71186846
-0.0021382819 -0.027797639 0.71210039
-0.0021411192 -0.028548241 0.71232873
-0.002143973 -0.029300958 0.71255833
-0.0021468252 -0.030055553 0.71278793
-0.0021496853 -0.030812144 0.71301806
-0.0021525528 -0.031570762 0.71324885
-0.0021554371 -0.032331526 0.71348095
-0.00215832 -0.033094227 0.71371293
-0.0021612109 -0.033858955 0.71394557
-0.0021641273 -0.034626007 0.71418029
-0.0021670517 -0.035395175 0.71441561
-0.0021699839 -0.0361664 0.71465158
-0.0021729241 -0.03693974 0.71488822
-0.0021758722 -0.037715107 0.71512544
-0.0021788375 -0.038492799 0.7153641
-0.0021818017 -0.039272428 0.71560264
-0.002184774 -0.040054172 0.71584183
-0.0021877545 -0.040838093 0.71608168
-0.0021907431 -0.041624099 0.71632212
-0.0021937492 -0.04241243 0.71656406
-0.0021967541 -0.043202817 0.71680582
-0.0021997672 -0.043995321 0.71704829
-0.0022027886 -0.04479 0.71729153
-0.0022058184 -0.045586914 0.71753532
-0.0022088659 -0.046386182 0.71778059
-0.0022119125 -0.047187448 0.7180258
-0.0022149675 -0.047990978 0.71827161
-0.0022180311 -0.048796624 0.71851814
-0.0022211028 -0.049604625 0.71876532
-0.0022241834 -0.05041483 0.71901327
-0.0022272819 -0.05122748 0.7192626
-0.0022303795 -0.052042186 0.71951187
-0.0022334857 -0.052859157 0.71976179
-0.0022366007 -0.053678423 0.72001255
-0.0022397339 -0.054500192 0.72026467
-0.0022428662 -0.055323988 0.72051668
-0.0022460076 -0.056150168 0.72076946
-0.0022491575 -0.056978643 0.72102296
-0.0022523163 -0.057809442 0.72127718
-0.002255484 -0.058642566 0.72153205
-0.0022586703 -0.059478313 0.72178853
-0.0022618559 -0.060316145 0.72204489
-0.0022650505 -0.061156362 0.72230196
-0.0022682543 -0.061998934 0.72255981
-0.0022714669 -0.062843919 0.72281832
-0.0022746988 -0.063691556 0.72307843
-0.0022779298 -0.06454134 0.72333837
-0.0022822686 -0.065425038 0.72368765
-0.0022916512 -0.066457838 0.7244426
-0.0012294019 0.051020205 0.68842667
-0.0012260616 0.050268501 0.68802351
-0.001225599 0.049636751 0.68796766
-0.0012263949 0.049055815 0.68806368
-0.0012275691 0.048489004 0.68820542
-0.0012287454 0.047921121 0.68834746
-0.0012299197 0.047351897 0.6884892
-0.0012311006 0.046781838 0.68863177
-0.0012322839 0.046210676 0.68877459
-0.0012334649 0.045638233 0.68891716
-0.0012345518 0.045061201 0.68904829
-0.0012343326 0.044435978 0.68902189
-0.0012346703 0.043830842 0.6890626
-0.0012351486 0.043230236 0.68912035
-0.0012312185 0.042477041 0.68864596
-0.0012288149 0.041779727 0.68835586
-0.0012289453 0.041169673 0.6883716
-0.0012302377 0.040597856 0.68852758
-0.0012315981 0.040026933 0.68869179
-0.0012344291 0.039501727 0.68903351
-0.0012398335 0.039054781 0.68968594
-0.0012449643 0.038593918 0.69030523
-0.0012476778 0.038054168 0.69063282
-0.0012491939 0.037475824 0.69081581
-0.0012506642 0.036894619 0.69099331
-0.0012521335 0.036311924 0.69117063
-0.0012536062 0.035727799 0.69134843
-0.0012550823 0.035142303 0.69152659
-0.0012565665 0.034555584 0.6917057
-0.0012580496 0.033967346 0.69188482
-0.0012595362 0.033377707 0.69206423
-0.0012610265 0.032786727 0.69224411
-0.0012625246 0.032194376 0.69242495
-0.0012640218 0.031600565 0.69260567
-0.0012655227 0.031005353 0.69278693
-0.001267101 0.030410439 0.69297737
-0.0012689381 0.029820055 0.69319916
-0.0012704831 0.029221147 0.69338566
-0.0012719947 0.028619885 0.69356811
-0.0012735145 0.028017342 0.69375151
-0.0012750332 0.027413249 0.69393492
-0.0012765604 0.026807785 0.69411922
-0.0012780911 0.026200891 0.69430399
-0.0012796255 0.025592566 0.69448918
-0.0012811589 0.024982601 0.69467431
-0.0012827007 0.024371356 0.6948604
-0.0012842462 0.023758531 0.69504702
-0.0012857907 0.023144275 0.6952334
-0.0012873437 0.022528559 0.69542086
-0.0012889004 0.021911323 0.69560879
-0.001290456 0.021292567 0.69579661
-0.001291713 0.020667404 0.6959483
-0.0012914921 0.020018131 0.69592166
-0.001289484 0.019342273 0.69567925
-0.0012873628 0.018666774 0.69542319
-0.0012874677 0.018024564 0.69543582
-0.0012890486 0.017402172 0.69562668
-0.0012906335 0.01677826 0.69581807
-0.0012923712 0.016154647 0.69602776
-0.0012967119 0.015560538 0.69655174
-0.0013036494 0.014991999 0.69738913
-0.0013075445 0.014382988 0.69785935
-0.0013094662 0.013749421 0.69809133
-0.001311072 0.013110757 0.6982851
-0.0013126817 0.012470484 0.69847947
-0.0013143005 0.011828721 0.69867492
-0.0013159181 0.011185288 0.69887018
-0.0013175447 0.010540336 0.69906652
-0.0013191755 0.0098938346 0.69926327
-0.0013208052 0.0092456639 0.69946003
-0.0013224438 0.0085959136 0.69965786
-0.0013237891 0.007942766 0.69982028
-0.0013236075 0.0072798431 0.69979835
-0.0013216843 0.0066084266 0.69956619
-0.0013196614 0.0059385002 0.69932199
-0.0013198368 0.0052793324 0.6993432
-0.0013215033 0.0046252906 0.69954431
-0.0013231691 0.0039695203 0.69974536
-0.0013251471 0.0033128858 0.69998419
-0.0013312701 0.0026625693 0.70072329
-0.0013381916 0.0020073056 0.70155877
-0.0013410425 0.0013410449 0.70190293
-0.0013428096 0.00067144632 0.70211619
-0.0013445764 2.9802322e-08 0.70232952
-0.0013463529 -0.00067317486 0.70254391
-0.0013481289 -0.0013481081 0.70275831
-0.0013499149 -0.0020248592 0.7029739
-0.0013517004 -0.0027033985 0.70318949
-0.0013534958 -0.0033836961 0.70340616
-0.0013552908 -0.0040658414 0.70362282
-0.0013567619 -0.0047486424 0.70380044
-0.0013565288 -0.0054261088 0.70377231
-0.0013545088 -0.0060952604 0.7035284
-0.0013522685 -0.0067613125 0.70325798
-0.0013522948 -0.0074376166 0.70326114
-0.001354113 -0.0081246495 0.70348066
-0.0013559413 -0.0088135898 0.70370138
-0.0013588577 -0.0095119774 0.7040534
-0.0013808524 -0.010356367 0.70670837
-0.0013826217 -0.011060953 0.70692199
-0.0013844066 -0.011767447 0.70713741
-0.0013862015 -0.012475789 0.70735407
-0.0013880067 -0.013186038 0.70757204
-0.001389811 -0.013898075 0.70778978
-0.0013916256 -0.014612049 0.70800883
-0.0013934617 -0.01532805 0.7082305
-0.001395297 -0.016045928 0.70845205
-0.0013971429 -0.016765684 0.70867479
-0.001398988 -0.017487347 0.70889753
-0.0014008435 -0.018210948 0.70912153
-0.0014026983 -0.018936425 0.7093454
-0.0014045638 -0.0196639 0.70957059
-0.0014064285 -0.020393223 0.70979571
-0.001408304 -0.021124542 0.71002203
-0.0014101786 -0.021857768 0.71024835
-0.0014120641 -0.022592992 0.71047592
-0.0014139487 -0.023330152 0.71070349
-0.0014158442 -0.024069309 0.71093225
-0.0014177391 -0.024810404 0.71116102
-0.0014196448 -0.025553614 0.71139103
-0.0014215498 -0.026298642 0.71162093
-0.0014234658 -0.027045876 0.71185231
-0.0014253809 -0.027794898 0.71208346
-0.0014273073 -0.028546125 0.71231592
-0.0014292329 -0.029299289 0.71254849
-0.0014311578 -0.030054271 0.71278077
-0.0014330643 -0.030810863 0.71301097
-0.0014349759 -0.031569451 0.7132417
-0.0014368927 -0.032330096 0.71347302
-0.0014388204 -0.033092856 0.71370578
-0.0014407474 -0.033857524 0.71393836
-0.0014426796 -0.034624279 0.71417159
-0.001444623 -0.035393238 0.71440613
-0.0014465655 -0.036164135 0.71464062
-0.0014485134 -0.036937088 0.71487582
-0.0014504663 -0.037712097 0.71511149
-0.0014524307 -0.038489401 0.71534866
-0.0014543944 -0.039268613 0.71558571
-0.0014563634 -0.04005 0.71582335
-0.0014583376 -0.040833473 0.71606171
-0.0014603235 -0.041619241 0.71630138
-0.0014623086 -0.042406917 0.71654099
-0.001464299 -0.043196797 0.71678126
-0.0014662949 -0.043988854 0.71702218
-0.0014683024 -0.044783205 0.71726453
-0.0014703092 -0.045579553 0.71750677
-0.0014723216 -0.046378136 0.71774971
-0.0014743457 -0.047179043 0.71799403
-0.0014763691 -0.047981977 0.71823829
-0.001478398 -0.048787147 0.71848321
-0.0014804326 -0.049594462 0.71872878
-0.001482479 -0.05040428 0.71897578
-0.0014845248 -0.051216096 0.71922278
-0.0014865763 -0.052030176 0.71947038
-0.0014886461 -0.052846909 0.71972024
-0.0014907217 -0.053665966 0.71997082
-0.0014928096 -0.054487556 0.72022283
-0.0014948969 -0.055311203 0.72047472
-0.0014969901 -0.056137115 0.72072744
-0.0014990891 -0.056965351 0.72098082
-0.001501194 -0.057795942 0.72123486
-0.0015033112 -0.058629125 0.7214905
-0.001505428 -0.059464395 0.72174603
-0.0015075507 -0.060302019 0.72200221
-0.0015096794 -0.061142027 0.72225916
-0.0015118142 -0.06198436 0.72251683
-0.0015139616 -0.062829375 0.72277611
-0.0015161085 -0.063676536 0.72303522
-0.0015182615 -0.064526111 0.72329509
-0.0015211195 -0.06540817 0.72364014
-0.0015270624 -0.066427201 0.72435755
-0.00061467919 0.051018387 0.68842149
-0.00061301136 0.050266981 0.6880188
-0.00061277999 0.049635202 0.68796295
-0.00061318011 0.049054414 0.68805957
-0.00061376498 0.048487425 0.68820071
-0.00061435316 0.047919571 0.68834269
-0.00061494246 0.047350585 0.68848503
-0.00061553071 0.046780318 0.688627
-0.00061612227 0.046209186 0.68876982
-0.00061671279 0.045636773 0.68891239
-0.00061725616 0.045059711 0.68904358
-0.00061714655 0.044434547 0.68901712
-0.00061731541 0.043829411 0.68905789
-0.00061754358 0.04322806 0.68911296
-0.00061548926 0.042468786 0.68861699
-0.00061395805 0.041749179 0.68824732
-0.00061383657 0.041127086 0.688218
-0.00061441399 0.040551335 0.68835741
-0.0006151406 0.039984167 0.68853283
-0.00061712245 0.039495885 0.68901128
-0.00062179152 0.039172888 0.69013852
-0.00062366651 0.038667321 0.6905911
-0.0006245476 0.038097382 0.69080389
-0.00062529388 0.037517637 0.69098401
-0.00062603288 0.036935955 0.69116247
-0.00062677142 0.036352754 0.6913408
-0.0006275117 0.035768181 0.69151944
-0.00062825601 0.035182357 0.69169915
-0.00062899978 0.034595013 0.69187868
-0.00062974531 0.034006238 0.69205874
-0.00063049491 0.033416241 0.6922397
-0.00063124398 0.032824725 0.69242054
-0.00063199486 0.032231748 0.6926018
-0.00063274981 0.03163749 0.69278407
-0.0006335043 0.031041741 0.69296622
-0.00063438102 0.030450314 0.69317788
-0.00063627918 0.02990514 0.69363612
-0.00063794502 0.029345483 0.69403833
-0.00063878944 0.028745532 0.69424212
-0.00063955365 0.028140366 0.69442666
-0.00064032211 0.027533859 0.69461221
-0.00064109237 0.026925892 0.69479817
-0.00064186449 0.026316464 0.69498456
-0.00064263848 0.025705576 0.69517136
-0.000643412 0.025093079 0.69535816
-0.00064418971 0.02447924 0.69554591
-0.00064496935 0.023863882 0.69573414
-0.00064574846 0.023246944 0.6959222
-0.00064653187 0.022628635 0.69611132
-0.00064731715 0.022008806 0.69630092
-0.00064810197 0.021387398 0.69649041
-0.00064862217 0.020755917 0.69661599
-0.00064820354 0.020094335 0.6965149
-0.0006463803 0.019391418 0.69607472
-0.00064365275 0.018665969 0.69541633
-0.00064304046 0.018005133 0.69526851
-0.00064382923 0.017383426 0.69545889
-0.00064461998 0.016760141 0.6956498
-0.00064540299 0.016135067 0.69583881
-0.00064993248 0.015598387 0.69693232
-0.00065501209 0.015065283 0.69815868
-0.00065684214 0.01445055 0.69860047
-0.00065769255 0.013811558 0.69880575
-0.00065850269 0.013170093 0.69900143
-0.00065931736 0.012527049 0.69919807
-0.00066013157 0.011882395 0.69939464
-0.00066095026 0.011236191 0.69959229
-0.00066176848 0.010588318 0.69978976
-0.00066259125 0.0099388659 0.69998842
-0.00066341355 0.0092878044 0.70018697
-0.00066424045 0.0086351335 0.70038652
-0.00066475634 0.0079770982 0.70051116
-0.00066426076 0.0073068738 0.70039147
-0.00066234119 0.0066234469 0.69992805
-0.00065975805 0.0059378445 0.69930446
-0.00065919227 0.0052735507 0.69916785
-0.0006599811 0.0046198964 0.69935834
-0.00066081202 0.0039648712 0.69955885
-0.00066172058 0.0033085942 0.6997782
-0.00066904171 0.0026761889 0.70154572
-0.00067245209 0.0020173788 0.70236909
-0.0006736358 0.0013472736 0.70265484
-0.00067452766 0.00067457557 0.70287013
-0.00067541929 -0 0.70308542
-0.00067631586 -0.0006763041 0.70330179
-0.0006772122 -0.0013543963 0.70351827
-0.00067811355 -0.0020343065 0.70373583
-0.0006790146 -0.0027160347 0.70395339
-0.00067992078 -0.0033995807 0.70417213
-0.00068082672 -0.0040849447 0.70439088
-0.00068135536 -0.0047694743 0.7045185
-0.00068070664 -0.0054456592 0.70436192
-0.00067876262 -0.0061088502 0.70389253
-0.00067607372 -0.0067606866 0.70324337
-0.00067526964 -0.0074279308 0.7030493
-0.00067613949 -0.0081136227 0.70325923
-0.00067701691 -0.008801192 0.70347112
-0.00067816913 -0.0094943643 0.7037493
-0.00069039059 -0.01035583 0.70669979
-0.00069128058 -0.011060447 0.70691466
-0.0006921757 -0.01176697 0.70713079
-0.00069307309 -0.012475342 0.70734745
-0.00069397007 -0.013185441 0.707564
-0.00069487217 -0.013897419 0.70778173
-0.00069577381 -0.014611214 0.70799941
-0.00069668057 -0.015326977 0.70821834
-0.00069758971 -0.016044527 0.7084378
-0.00069850683 -0.016764164 0.70865923
-0.00069942919 -0.017485708 0.70888186
-0.00070035679 -0.018209249 0.70910579
-0.00070128404 -0.018934667 0.70932972
-0.00070221379 -0.019661963 0.70955414
-0.00070314878 -0.020391285 0.70977986
-0.00070408348 -0.021122485 0.71000552
-0.00070502347 -0.021855712 0.71023244
-0.00070596318 -0.022590846 0.71045935
-0.00070690818 -0.023327976 0.71068752
-0.00070785289 -0.024066985 0.71091557
-0.00070880301 -0.024808079 0.71114492
-0.00070975279 -0.025551081 0.71137422
-0.00071070803 -0.026296169 0.71160483
-0.00071166293 -0.027043164 0.71183538
-0.00071262324 -0.027792335 0.71206725
-0.00071358326 -0.028543323 0.71229899
-0.00071454886 -0.029296488 0.71253204
-0.00071551406 -0.030051589 0.71276516
-0.00071648491 -0.030808806 0.71299952
-0.0007174554 -0.031568021 0.71323377
-0.00071841659 -0.032328725 0.71346587
-0.00071937742 -0.033091336 0.71369779
-0.00072034384 -0.033856124 0.71393114
-0.00072130986 -0.034622848 0.71416438
-0.00072227843 -0.035391629 0.71439821
-0.00072324963 -0.036162496 0.71463269
-0.00072422647 -0.036935538 0.71486849
-0.0007252029 -0.037710547 0.71510422
-0.00072618201 -0.038487643 0.71534061
-0.00072716677 -0.039267004 0.71557838
-0.00072815118 -0.040048301 0.71581602
-0.00072913826 -0.040831745 0.71605432
-0.00073012797 -0.041617274 0.71629328
-0.00073112349 -0.042405158 0.7165336
-0.00073211867 -0.043194979 0.71677387
-0.00073311653 -0.043986976 0.71701479
-0.00073411711 -0.044781119 0.71725631
-0.00073512353 -0.045577615 0.71749932
-0.00073612959 -0.046376139 0.71774209
-0.00073713844 -0.047176838 0.71798569
-0.00073815318 -0.047979951 0.71823072
-0.00073916756 -0.048785061 0.71847558
-0.00074018474 -0.049592346 0.71872115
-0.00074120471 -0.050401896 0.71896738
-0.00074223068 -0.05121392 0.7192151
-0.0007432563 -0.052027941 0.71946275
-0.00074428477 -0.052844197 0.71971101
-0.00074531609 -0.053662717 0.71995997
-0.00074635353 -0.054483801 0.72021049
-0.00074739056 -0.055306882 0.72046083
-0.00074843055 -0.056132257 0.72071183
-0.0007494734 -0.056959957 0.7209636
-0.00075052236 -0.05779022 0.72121692
-0.00075157109 -0.058622539 0.72147006
-0.00075262599 -0.059457451 0.72172475
-0.00075369031 -0.060295224 0.7219817
-0.00075475447 -0.061135113 0.7222386
-0.00075582159 -0.061977357 0.72249621
-0.00075689505 -0.062822282 0.72275537
-0.00075796823 -0.063669354 0.72301447
-0.00075904449 -0.06451875 0.72327429
-0.00076043321 -0.065397263 0.72360957
-0.00076336681 -0.066412896 0.72431785
0 0.051025093 0.68844086
0 0.05027315 0.6880371
0 0.049641341 0.68798119
0 0.049060315 0.68807727
0 0.048493445 0.68821907
0 0.047925502 0.68836105
0 0.047356278 0.68850285
0 0.046786129 0.68864548
0 0.046214789 0.68878776
0 0.045642436 0.68893087
0 0.045065165 0.68906152
0 0.044439942 0.68903512
0 0.043834865 0.68907642
0 0.043232679 0.68912888
0 0.042454958 0.68856859
0 0.0417054 0.68809193
0 0.041074842 0.68802977
0 0.040498346 0.68816358
0 0.039934665 0.68834901
0 0.039476365 0.68893778
0 0.039223999 0.69033432
0 0.038680971 0.69064409
0 0.038104713 0.69083261
0 0.037525356 0.69101501
0 0.036944747 0.69119847
0 0.036362618 0.69138169
0 0.03577891 0.69156492
0 0.035192758 0.69174415
0 0.034605265 0.6919238
0 0.03401649 0.69210452
0 0.033426166 0.692285
0 0.0328345 0.69246596
0 0.032241493 0.69264793
0 0.031646997 0.69282973
0 0.03105101 0.69301194
0 0.030454397 0.69319862
0 0.029955804 0.69389653
0 0.029459268 0.69463557
0 0.028872281 0.69492215
0 0.028264701 0.69510889
0 0.027655572 0.69529545
0 0.027045041 0.69548309
0 0.026433051 0.69567114
0 0.02581948 0.69585907
0 0.025204539 0.69604808
0 0.024588078 0.6962375
0 0.023970038 0.69642681
0 0.023350596 0.69661713
0 0.022729605 0.69680798
0 0.022107065 0.69699866
0 0.021483034 0.6971904
0 0.020845979 0.69729531
0 0.020173281 0.69712979
0 0.019456357 0.69659728
0 0.018666625 0.69542205
0 0.017981857 0.69506758
0 0.017360896 0.69525754
0 0.016738385 0.69544792
0 0.016114384 0.69563878
0 0.015710294 0.69805795
0 0.015143365 0.69897783
0 0.01451695 0.69932926
0 0.013874292 0.69952673
0 0.013229936 0.69972408
0 0.01258409 0.69992256
0 0.011936516 0.70012093
0 0.011287481 0.70032036
0 0.010636717 0.70051974
0 0.0099842846 0.70071959
0 0.0093303323 0.70092058
0 0.0086747706 0.70112199
0 0.0080113411 0.70120001
0 0.0073331296 0.70096743
0 0.0066436529 0.70041668
0 0.0059369206 0.69928092
0 0.0052666068 0.69895738
0 0.0046137273 0.69914615
0 0.0039593279 0.69933468
0 0.0033035278 0.699534
0 0.0026939213 0.70261514
0 0.0020273626 0.70317227
0 0.0013535619 0.70341444
0 0.00067770481 0.7036311
0 -0 0.70384836
0 -0.00067946315 0.70406687
0 -0.001360774 0.70428532
0 -0.0020439029 0.70450497
0 -0.0027288198 0.70472455
0 -0.0034156144 0.70494545
0 -0.0041042268 0.7051661
0 -0.0047889054 0.70518827
0 -0.0054641068 0.70492005
0 -0.0061261356 0.70435607
0 -0.0067620575 0.7032758
0 -0.0074172914 0.70281577
0 -0.0081017911 0.7030201
0 -0.0087884367 0.70323455
0 -0.009478122 0.70346981
0 -0.010357559 0.70672691
0 -0.011062324 0.70694256
0 -0.011768937 0.70715868
0 -0.012477398 0.70737541
0 -0.013187647 0.70759207
0 -0.013899773 0.70780987
0 -0.014613688 0.70802766
0 -0.01532954 0.70824659
0 -0.01604718 0.70846552
0 -0.016766757 0.7086857
0 -0.017488241 0.70890635
0 -0.018211514 0.70912695
0 -0.018936783 0.70934892
0 -0.0196639 0.70957059
0 -0.020392954 0.70979363
0 -0.021123946 0.7100172
0 -0.021856785 0.71024072
0 -0.02259165 0.71046555
0 -0.023328304 0.71069026
0 -0.024067104 0.71091628
0 -0.024807811 0.71114284
0 -0.025550485 0.71137011
0 -0.026295066 0.7115978
0 -0.027041644 0.71182549
0 -0.027790248 0.71205449
0 -0.028540879 0.71228415
0 -0.029293716 0.71251583
0 -0.030048698 0.71274871
0 -0.030805886 0.71298313
0 -0.031565011 0.71321738
0 -0.032326341 0.71345299
0 -0.033089578 0.71368855
0 -0.033854574 0.71392322
0 -0.034621388 0.7141571
0 -0.035390168 0.71439099
0 -0.036160946 0.71462536
0 -0.03693381 0.71486044
0 -0.037708968 0.71509695
0 -0.038486004 0.71533328
0 -0.039265186 0.71557033
0 -0.040046453 0.71580791
0 -0.040829986 0.71604687
0 -0.041615725 0.71628654
0 -0.042403728 0.7165277
0 -0.043193907 0.71676934
0 -0.043986261 0.71701175
0 -0.04478094 0.71725559
0 -0.045577615 0.71749932
0 -0.046376526 0.71774369
0 -0.047177851 0.7179895
0 -0.047981173 0.71823525
0 -0.0487867 0.71848166
0 -0.049594671 0.7187295
0 -0.050404727 0.71897733
0 -0.05121696 0.71922582
0 -0.052031726 0.71947581
0 -0.052848518 0.71972561
0 -0.053667545 0.71997619
0 -0.054488957 0.72022748
0 -0.055312842 0.7204802
0 -0.056138784 0.72073287
0 -0.05696708 0.72098625
0 -0.057797939 0.72124112
0 -0.058630884 0.72149599
0 -0.059466183 0.72175151
0 -0.060304075 0.72200853
0 -0.061144114 0.72226554
0 -0.061986506 0.72252321
0 -0.06283161 0.72278249
0 -0.063678771 0.72304165
0 -0.064528346 0.72330153
0 -0.065408438 0.72364098
0 -0.066428363 0.72436076
0.00061492721 0.05103898 0.68848133
0.00061323209 0.050285041 0.68807209
0.00061299407 0.049652547 0.68801463
0.00061339664 0.049071759 0.68811178
0.00061398192 0.048504591 0.6882531
0.0006145683 0.04793632 0.68839467
0.000615158 0.047367185 0.68853706
0.00061574671 0.046796799 0.68867916
0.00061633647 0.04622525 0.68882155
0.0006169274 0.045652628 0.68896425
0.00061746896 0.045075268 0.68909496
0.00061735488 0.044449568 0.68906742
0.00061752385 0.043844223 0.68910813
0.00061775878 0.04324314 0.68916494
0.00061512098 0.042443335 0.68852812
0.00061277137 0.041668445 0.68796086
0.00061238045 0.041029513 0.68786651
0.00061294215 0.040454179 0.68800211
0.00061362411 0.039885581 0.68816668
0.00061601523 0.039424986 0.68874401
0.00062289281 0.039242238 0.69040442
0.00062404957 0.038691044 0.6906836
0.0006247834 0.038111806 0.69086087
0.00062553928 0.037532359 0.69104332
0.00062629918 0.036951661 0.69122678
0.00062705873 0.036369443 0.69141006
0.00062782009 0.035785764 0.69159395
0.00062858331 0.035200685 0.69177818
0.00062935066 0.034614295 0.69196343
0.0006301176 0.034026384 0.69214857
0.00063087035 0.03343612 0.69233036
0.00063162035 0.032844275 0.69251138
0.00063237443 0.03225112 0.69269341
0.00063312799 0.031656414 0.69287539
0.00063388335 0.031060308 0.69305778
0.00063463824 0.030462652 0.69323999
0.00063809729 0.029990584 0.69407511
0.00064292864 0.029574722 0.69524145
0.00064444781 0.029000133 0.69560826
0.00064522563 0.02838999 0.69579601
0.00064600777 0.027778357 0.69598484
0.00064679183 0.027165294 0.69617409
0.0006475753 0.026550591 0.69636327
0.00064836314 0.025934547 0.69655347
0.00064915291 0.025316983 0.69674414
0.0006499422 0.02469781 0.6969347
0.0006507358 0.024077237 0.69712627
0.00065153139 0.023455173 0.69731838
0.00065232639 0.02283144 0.69751024
0.00065312587 0.022206277 0.6977033
0.00065392727 0.021579593 0.69789684
0.00065420062 0.020934433 0.69796276
0.00065319956 0.020249188 0.69772112
0.00065072364 0.019521713 0.69712335
0.00064415869 0.018680632 0.6955384
0.00064138824 0.017958879 0.69486958
0.00064217293 0.017338693 0.695059
0.00064296194 0.016717046 0.6952495
0.00064375292 0.01609385 0.69544041
0.00065846776 0.015803218 0.69899291
0.0006616828 0.015218735 0.69976914
0.00066286681 0.014583051 0.70005494
0.0006636898 0.013937503 0.70025367
0.00066451734 0.013290346 0.70045346
0.00066534441 0.012641579 0.70065314
0.00066617614 0.011991173 0.70085388
0.00066700735 0.011339158 0.70105451
0.00066784321 0.010685503 0.70125639
0.00066867861 0.01003018 0.70145804
0.00066951866 0.0093732774 0.70166087
0.00067030138 0.0087139308 0.70184982
0.00067027292 0.0080432892 0.7018429
0.00066902366 0.0073592961 0.7015413
0.00066632434 0.0066632628 0.70088971
0.00066016917 0.00594154 0.6994037
0.00065748097 0.0052598715 0.69875467
0.00065829809 0.0046080947 0.69895196
0.00065913226 0.003954798 0.6991533
0.00065997359 0.0032999218 0.69935644
0.00067730196 0.0027092099 0.70353997
0.00067904912 0.0020371377 0.70396167
0.00067995541 0.0013599098 0.70418048
0.00068086141 0.00068086386 0.70439923
0.00068177248 -0 0.70461917
0.00068268337 -0.0006827116 0.70483911
0.00068359933 -0.0013671815 0.70506018
0.00068451505 -0.002053529 0.70528132
0.00068543328 -0.0027417243 0.70550299
0.00068635668 -0.003431797 0.70572591
0.00068707869 -0.0041224658 0.70590025
0.00068681251 -0.0048076808 0.70583594
0.00068534946 -0.0054827631 0.70548272
0.00068228389 -0.0061405301 0.70474261
0.00067660294 -0.0067660213 0.70337123
0.00067359145 -0.0074094832 0.70264411
0.00067440199 -0.0080928206 0.70283973
0.00067528803 -0.0087787211 0.70305371
0.00067621848 -0.0094670653 0.7032783
0.00069064857 -0.010359704 0.70676208
0.00069155026 -0.011064798 0.70697975
0.00069245434 -0.011771679 0.70719802
0.00069336075 -0.012480468 0.70741683
0.00069426961 -0.013191134 0.7076363
0.00069518079 -0.013903618 0.7078563
0.00069609156 -0.01461792 0.70807612
0.00069700758 -0.015334159 0.70829731
0.00069793436 -0.016052455 0.70852101
0.0006988665 -0.016772747 0.70874602
0.00069980387 -0.017495096 0.70897239
0.00070074096 -0.018219233 0.70919853
0.0007016834 -0.018945426 0.70942611
0.0007026284 -0.019673586 0.70965421
0.00070357311 -0.020403624 0.70988238
0.00070452318 -0.021135688 0.71011174
0.00070547295 -0.02186963 0.71034104
0.00070643105 -0.022605777 0.7105723
0.00070740614 -0.023344398 0.71080768
0.00070838397 -0.024085045 0.71104372
0.00070936448 -0.024827749 0.71128052
0.00071034767 -0.025572509 0.71151793
0.00071133365 -0.026319325 0.71175587
0.0007123223 -0.027068257 0.71199453
0.00071331376 -0.027819216 0.71223396
0.00071431085 -0.02857244 0.71247464
0.00071531965 -0.029328108 0.71271825
0.00071633421 -0.03008604 0.7129631
0.00071734871 -0.03084597 0.71320808
0.00071836909 -0.031608224 0.71345437
0.00071938935 -0.032372475 0.71370065
0.00072041556 -0.03313908 0.71394849
0.00072144164 -0.033907741 0.71419621
0.00072195427 -0.034653813 0.71431994
0.00072240457 -0.035397828 0.71442866
0.00072338514 -0.036169231 0.71466541
0.00072436535 -0.036942631 0.71490204
0.00072535127 -0.037718236 0.71513999
0.00072633987 -0.038495988 0.7153787
0.00072732812 -0.039275706 0.7156173
0.00072832213 -0.040057719 0.71585727
0.00072931882 -0.040841818 0.71609789
0.00073031825 -0.041628122 0.71633917
0.00073131738 -0.042416364 0.71658039
0.00073232234 -0.04320699 0.71682298
0.00073333003 -0.043999791 0.71706623
0.00073434052 -0.044794768 0.71731025
0.00073535379 -0.045591891 0.71755481
0.00073636987 -0.046391279 0.71780014
0.00073738559 -0.047192633 0.71804535
0.00073840731 -0.047996461 0.71829206
0.00073943182 -0.048802465 0.71853942
0.00074045919 -0.049610734 0.71878743
0.00074148941 -0.050421238 0.7190361
0.00074252253 -0.051234007 0.71928555
0.00074355851 -0.052049071 0.71953565
0.0007445974 -0.052866399 0.71978647
0.0007456392 -0.053686023 0.720038
0.00074668392 -0.054507911 0.72029024
0.00074773154 -0.055332094 0.72054315
0.00074878213 -0.056158662 0.72079676
0.00074983569 -0.056987524 0.7210511
0.00075089216 -0.057818681 0.72130615
0.00075195165 -0.058652222 0.72156197
0.00075301412 -0.059488088 0.72181845
0.00075407961 -0.060326368 0.7220757
0.00075514812 -0.061167002 0.72233367
0.00075621967 -0.06201002 0.72259241
0.00075729424 -0.062855422 0.72285181
0.00075836858 -0.063702941 0.72311115
0.00075944932 -0.064553201 0.7233721
0.00076087617 -0.06543535 0.7237165
0.00076413236 -0.066479504 0.72450262
0.0012304467 0.051063538 0.68855286
0.0012270359 0.050308466 0.68814111
0.0012265334 0.0496746 0.68808043
0.0012273219 0.049092889 0.68817562
0.0012284935 0.048525482 0.68831706
0.0012296716 0.047957212 0.68845928
0.0012308478 0.04738763 0.68860126
0.0012320261 0.046817034 0.68874347
0.0012332067 0.046245247 0.68888593
0.0012343939 0.045672596 0.68902928
0.0012354737 0.045094788 0.68915963
0.0012352408 0.044468701 0.6891315
0.0012355834 0.043863207 0.68917286
0.0012359746 0.043259144 0.68922007
0.0012301811 0.042441249 0.68852073
0.0012247522 0.041641593 0.68786544
0.0012238377 0.040998578 0.68775499
0.0012249422 0.040423065 0.68788838
0.0012264728 0.039860368 0.68807316
0.0012307126 0.039382845 0.68858492
0.0012463711 0.039260685 0.69047505
0.0012486732 0.038708866 0.69075298
0.0012501422 0.038129359 0.69093025
0.0012516148 0.037548453 0.69110805
0.0012530863 0.036966056 0.69128567
0.0012545658 0.036382407 0.69146425
0.0012560441 0.035797268 0.69164264
0.0012575306 0.035210878 0.69182211
0.0012590206 0.034623086 0.69200194
0.0012605096 0.034033746 0.69218171
0.0012620111 0.033443332 0.69236296
0.001263553 0.032852381 0.69254911
0.0012650988 0.03226006 0.69273567
0.0012666344 0.031665862 0.6929211
0.0012681461 0.031069577 0.69310355
0.0012698609 0.030476689 0.69331056
0.0012772735 0.030015945 0.69420528
0.001290643 0.029684782 0.69581914
0.0012946246 0.029129058 0.69629979
0.001296199 0.028516382 0.69648981
0.0012977773 0.027902216 0.69668031
0.0012993546 0.02728644 0.69687068
0.0013009405 0.026669294 0.69706213
0.0013025303 0.026050627 0.69725406
0.0013041191 0.025430322 0.69744587
0.0013057167 0.024808645 0.69763875
0.0013073182 0.024185389 0.69783205
0.0013089237 0.023560643 0.69802582
0.0013105281 0.022934258 0.69821948
0.0013121414 0.022306412 0.69841427
0.0013136942 0.021675944 0.69860172
0.0013137588 0.021020144 0.69860947
0.0013113343 0.02032572 0.69831681
0.0013056234 0.019584328 0.69762743
0.0012883174 0.018680632 0.6955384
0.0012819718 0.017947614 0.69477242
0.0012835631 0.017328143 0.69496453
0.0012851391 0.016706795 0.69515479
0.0012867143 0.016083926 0.69534492
0.0013247582 0.015897095 0.69993716
0.0013296704 0.015291244 0.70053017
0.0013318007 0.014649808 0.70078731
0.0013334618 0.01400134 0.70098782
0.0013351322 0.013351321 0.70118946
0.0013368016 0.012699634 0.70139098
0.0013384803 0.012046307 0.70159364
0.0013401581 0.011391371 0.70179617
0.0013418453 0.010734767 0.70199984
0.0013435313 0.010076493 0.70220339
0.001345227 0.0094165802 0.70240808
0.0013465147 0.008752346 0.70256352
0.0013459148 0.0080754757 0.70249104
0.0013428096 0.0073854923 0.70211619
0.0013358302 0.0066791773 0.70127368
0.0013203433 0.00594154 0.69940436
0.0013139326 0.0052557588 0.69863051
0.0013157137 0.0046050251 0.69884545
0.00131729 0.0039518774 0.6990357
0.001318915 0.0032972991 0.69923186
0.0013619523 0.0027239323 0.70442694
0.0013644873 0.0020467639 0.70473289
0.0013663169 0.0013663173 0.70495379
0.0013681462 0.00068411231 0.70517457
0.0013699855 2.9802322e-08 0.70539665
0.0013718245 -0.00068587065 0.70561862
0.0013736739 -0.0013736784 0.70584184
0.0013755228 -0.0020632744 0.70606506
0.0013773821 -0.0027547479 0.70628953
0.001379241 -0.0034480989 0.70651388
0.0013802929 -0.0041408837 0.7066409
0.0013787813 -0.0048257113 0.70645833
0.001374663 -0.0054986477 0.70596129
0.001367457 -0.0061535239 0.70509142
0.0013532059 -0.0067660213 0.70337123
0.0013461442 -0.007403791 0.7025187
0.0013477472 -0.0080864727 0.7027123
0.0013494117 -0.0087711215 0.70291317
0.001351201 -0.0094583929 0.70312911
0.0013865555 -0.010399103 0.70739681
0.0013884614 -0.011107683 0.70762688
0.0013903672 -0.011818081 0.70785689
0.0013922836 -0.012530565 0.70808828
0.0013941997 -0.013244897 0.7083196
0.0013961211 -0.013961226 0.70855153
0.0013980535 -0.014679521 0.7087847
0.0013999856 -0.015399843 0.70901793
0.0014019287 -0.016122192 0.70925254
0.0014038715 -0.016846448 0.70948702
0.0014058254 -0.01757282 0.70972288
0.0014077789 -0.018301129 0.70995867
0.0014097438 -0.019031554 0.7101959
0.0014117083 -0.019763887 0.71043301
0.0014136784 -0.020498335 0.71067083
0.0014156597 -0.02123487 0.71090996
0.0014176407 -0.021973401 0.71114916
0.0014196332 -0.022714108 0.71138966
0.0014216254 -0.023456812 0.71163011
0.001423629 -0.024201661 0.71187198
0.0014256324 -0.024948567 0.71211386
0.0014276474 -0.025697678 0.71235704
0.0014296621 -0.026448756 0.71260023
0.0014316885 -0.0272021 0.71284485
0.0014337148 -0.02795741 0.71308941
0.0014357527 -0.028715074 0.71333551
0.0014377905 -0.029474676 0.71358138
0.00143984 -0.030236632 0.71382886
0.0014418893 -0.031000614 0.71407622
0.0014439506 -0.031766891 0.71432495
0.0014460117 -0.032535225 0.7145738
0.0014480847 -0.033305913 0.71482402
0.0014501213 -0.034077823 0.71506989
0.0014487066 -0.034768939 0.71489912
0.0014456988 -0.035419613 0.71453601
0.0014475599 -0.03618896 0.71476066
0.0014495224 -0.036962777 0.71499759
0.0014514964 -0.037738919 0.71523589
0.0014534697 -0.038516968 0.71547407
0.0014554544 -0.039297253 0.71571368
0.0014574385 -0.040079564 0.71595317
0.0014594342 -0.04086414 0.71619403
0.0014614352 -0.041650891 0.71643555
0.0014634356 -0.04243961 0.71667701
0.0014654477 -0.043230683 0.7169199
0.0014674591 -0.044023752 0.71716273
0.0014694822 -0.044819176 0.71740693
0.001471511 -0.045616806 0.71765184
0.0014735392 -0.046416461 0.7178967
0.0014755791 -0.047218531 0.71814293
0.0014776185 -0.048022568 0.71838903
0.0014796697 -0.048829049 0.71863663
0.0014817268 -0.049637854 0.718885
0.0014837831 -0.050448626 0.71913326
0.0014858516 -0.051261872 0.71938288
0.0014879194 -0.052077174 0.71963257
0.0014899995 -0.05289498 0.71988356
0.0014920789 -0.053714812 0.72013462
0.0014941705 -0.054537237 0.7203871
0.0014962681 -0.055361867 0.7206403
0.0014983651 -0.056188673 0.72089338
0.0015004744 -0.057018012 0.72114801
0.0015025832 -0.057849437 0.72140253
0.0015047044 -0.058683455 0.72165865
0.001506825 -0.059519559 0.72191465
0.0015089582 -0.060358316 0.72217214
0.0015110975 -0.061199456 0.72243035
0.0015132428 -0.062042952 0.72268933
0.0015153943 -0.062888831 0.72294909
0.001517552 -0.063737184 0.7232095
0.0015197156 -0.064587921 0.72347075
0.0015227259 -0.065477163 0.72383404
0.0015304995 -0.066576719 0.72477239
0.0018466706 0.051091284 0.68863332
0.0018414055 0.050331771 0.68820965
0.0018406642 0.049697936 0.68814999
0.0018418935 0.049117208 0.68824893
0.0018436527 0.048549533 0.68839043
0.0018454087 0.047980607 0.68853182
0.0018471746 0.047410816 0.68867391
0.0018489438 0.046839923 0.68881625
0.0018507164 0.046267927 0.68895888
0.0018524925 0.045694828 0.68910187
0.0018541135 0.045116812 0.68923229
0.0018537245 0.044489413 0.689201
0.0018542323 0.043883532 0.68924183
0.001854945 0.043282062 0.68929923
0.0018453107 0.042442173 0.68852389
0.0018363839 0.041624725 0.68780553
0.0018349292 0.04098013 0.68768847
0.0018364098 0.040401042 0.68780762
0.0018386383 0.039837152 0.68798697
0.0018450037 0.039360106 0.68849915
0.0018704354 0.039279163 0.6905458
0.0018738784 0.038726836 0.69082284
0.0018760909 0.038147181 0.69100094
0.0018783152 0.037566304 0.69117987
0.0018805517 0.036984205 0.69135988
0.0018827866 0.036400557 0.69153976
0.0018850338 0.035815656 0.69172055
0.0018872794 0.035229206 0.69190127
0.0018895373 0.034641504 0.692083
0.0018917937 0.034052312 0.69226456
0.0018940624 0.033461779 0.69244713
0.0018963296 0.032869726 0.69262958
0.0018986092 0.032276362 0.69281304
0.0019009012 0.031681687 0.69299752
0.0019032056 0.0310857 0.69318295
0.0019058641 0.030493855 0.69339687
0.0019173552 0.030038565 0.69432163
0.0019429143 0.029791355 0.69637841
0.0019503154 0.029254735 0.69697404
0.0019529974 0.028643966 0.69718987
0.0019553788 0.028027087 0.6973815
0.0019577732 0.027408838 0.6975742
0.0019601735 0.026789039 0.69776738
0.0019625723 0.026167631 0.69796038
0.0019649842 0.025544822 0.69815445
0.0019674024 0.024920464 0.69834912
0.0019698264 0.024294525 0.69854414
0.0019722488 0.023667008 0.69873905
0.0019746849 0.023038 0.69893515
0.0019771268 0.022407442 0.69913161
0.001979199 0.021771193 0.69929838
0.0019787331 0.021106511 0.69926089
0.0019744679 0.020402849 0.69891769
0.0019638664 0.019638687 0.69806451
0.0019324761 0.018680632 0.6955384
0.0019218021 0.017936826 0.69467944
0.0019241788 0.017317623 0.69487071
0.0019265331 0.016696662 0.69506013
0.001928893 0.016074121 0.69525009
0.0019978543 0.015982836 0.7007997
0.0020040458 0.015364349 0.70129794
0.0020068856 0.014717191 0.7015264
0.0020094002 0.014065802 0.70172876
0.002011921 0.013412833 0.70193166
0.0020144559 0.012758255 0.70213568
0.0020169895 0.012101948 0.70233947
0.0020195374 0.011444032 0.70254463
0.0020220915 0.010784537 0.70275009
0.0020246445 0.010123253 0.7029556
0.0020272115 0.00946033 0.70316207
0.0020287265 0.0087911785 0.70328403
0.0020268175 0.0081072748 0.70313036
0.0020204533 0.0074083209 0.70261824
0.0020082078 0.0066940486 0.70163286
0.001980515 0.00594154 0.69940436
0.0019700348 0.0052534342 0.69856095
0.0019723831 0.0046022832 0.69874984
0.0019748495 0.0039497316 0.69894838
0.0019773294 0.0032955706 0.69914788
0.002053157 0.0027375519 0.70525002
0.0020564133 0.0020564497 0.70551211
0.0020591756 0.0013727844 0.70573449
0.0020619454 0.00068733096 0.70595729
0.0020647307 -2.9802322e-08 0.70618153
0.0020675156 -0.0006891489 0.70640552
0.0020703161 -0.0013801754 0.70663089
0.0020731159 -0.0020731091 0.70685619
0.0020759315 -0.0027678907 0.70708281
0.0020786885 -0.0034644604 0.70730472
0.0020788542 -0.0041576624 0.70731801
0.0020752868 -0.0048423111 0.70703095
0.0020679093 -0.0055143833 0.70643723
0.0020533509 -0.0061600506 0.7052657
0.0020284187 -0.0067613721 0.70325923
0.0020180361 -0.0073994398 0.70242381
0.0020207118 -0.0080828667 0.7026391
0.0020232848 -0.0087675452 0.70284617
0.0020259351 -0.0094543695 0.70305943
0.0020899158 -0.010449558 0.7082082
0.0020927943 -0.011161566 0.70843989
0.0020956888 -0.01187557 0.70867282
0.0020985832 -0.012591511 0.7089057
0.002101494 -0.013309449 0.70913994
0.0021044044 -0.014029324 0.70937413
0.0021073227 -0.014751256 0.70960897
0.0021102577 -0.015475214 0.70984519
0.0021131923 -0.016201138 0.71008134
0.0021161439 -0.01692915 0.71031886
0.0021190948 -0.017659098 0.71055633
0.0021220543 -0.018391103 0.71079445
0.0021250306 -0.019125253 0.71103406
0.0021280064 -0.01986137 0.71127349
0.0021309995 -0.020599693 0.71151435
0.002133992 -0.021339923 0.71175516
0.0021370021 -0.022082329 0.71199739
0.0021400116 -0.022826761 0.71223962
0.0021430384 -0.023573399 0.71248317
0.002146065 -0.024322063 0.71272671
0.002149109 -0.025072902 0.71297169
0.0021521531 -0.025825799 0.71321666
0.0021552143 -0.02658096 0.71346301
0.0021582753 -0.027338117 0.71370935
0.0021613543 -0.0280976 0.71395713
0.0021644328 -0.028859079 0.71420491
0.0021675292 -0.029622883 0.71445405
0.0021706256 -0.030388713 0.7147032
0.0021737397 -0.031156927 0.71495378
0.0021768538 -0.031927139 0.71520436
0.0021799859 -0.032699734 0.71545649
0.0021831177 -0.033474445 0.71570849
0.0021839959 -0.034215927 0.71577919
0.002178537 -0.034856588 0.71533984
0.0021706617 -0.035454124 0.71470612
0.0021729874 -0.036216438 0.71489328
0.0021759449 -0.03699103 0.71513128
