# .PCD v0.7 - Point Cloud Data file format
VERSION 0.7
FIELDS x y z
SIZE 4 4 4
TYPE F F F
COUNT 1 1 1
WIDTH 421
HEIGHT 1
VIEWPOINT 0 0 0 1 0 0 0
POINTS 421
DATA ascii
-0.0071936706 -0.021067142 0.66407514
-0.0071936706 -0.021067142 0.66407514
-0.0067209238 -0.017577767 0.66483814
-0.0067209238 -0.017577767 0.66483814
-0.014645447 -0.015416205 0.66408491
-0.0041493005 -0.024377108 0.665241
-0.0043281396 -0.01939119 0.66542155
-0.019496538 -0.01715675 0.66554022
-0.018654924 -0.015027553 0.66512746
-0.0013120384 -0.027556561 0.66674262
-0.0013120384 -0.027556561 0.66674262
-0.0010481209 -0.024368599 0.66654414
-0.0026176162 -0.020678803 0.66641444
-0.023093859 -0.016533062 0.66673726
-0.0075297402 -0.015410036 0.66685212
-0.0044824909 -0.017666288 0.66733694
-0.0095050465 -0.013465002 0.66750932
-0.0042330925 -0.011376441 0.66776961
-0.0023677254 -0.011575177 0.6670475
-0.0036886279 -0.010275304 0.66724098
-0.009492442 -0.0087017566 0.66734022
-0.011387037 -0.0058259368 0.66788918
-0.013302536 -0.0069172978 0.6684854
-0.0016036914 -0.031539232 0.6690799
-0.00053557759 -0.020619512 0.66932464
-0.001341968 -0.017449662 0.66964793
0.001614801 -0.01776281 0.66997391
-0.026244581 -0.016603678 0.66933095
-0.0035633778 -0.014788529 0.66906977
-0.0035633778 -0.014788529 0.66906977
-0.018441878 -0.011637798 0.66970193
-0.015317529 -0.010480054 0.66977727
-0.011493018 -0.010691062 0.66907752
-0.0024114347 -0.0080385059 0.66940272
-0.011515182 -0.004820317 0.66932833
-0.0013535642 -0.034108832 0.67073286
-0.0013535642 -0.034108832 0.67073286
0.0010789747 -0.028323188 0.67026854
-0.00135881 -0.034786403 0.67124641
0.00054492394 -0.033240348 0.67158103
0.00054492394 -0.033240348 0.67158103
0.004718008 -0.014335553 0.6714555
0.0021918337 -0.024384022 0.67231363
0.003554814 -0.022422865 0.67205787
0.0047609434 -0.013550511 0.67265236
-0.021644492 -0.010685116 0.67231256
-0.024233524 -0.0096383393 0.67299044
-0.021879788 -0.0098458827 0.67208093
-0.020469092 -0.0074924827 0.67239255
0.0022069481 -0.027586818 0.67322588
-0.023693917 -0.010469407 0.67305309
-0.0027597107 -0.0071752667 0.67327541
-0.0085765114 -0.0022132993 0.67361069
-0.031135939 -0.023630172 0.67425478
-0.026115427 -0.01389119 0.6741699
-0.027388332 -0.0095020533 0.67496616
-0.00055831688 -0.0044665337 0.6748144
-0.010211269 -0.0014846325 0.67449379
0.0014971173 -0.015342703 0.67554164
0.0033697728 -0.014602363 0.67561394
0.0011229236 -0.0050531328 0.67557365
-0.029467169 -0.013317212 0.67683256
-0.029467169 -0.013317212 0.67683256
-0.023371972 -0.0064078374 0.67653555
0.0011330186 -0.0039655864 0.6767922
-0.0079380935 -0 0.67691225
0.0017067518 -0.032997191 0.67737353
-0.029660719 -0.028519928 0.67773116
0.0005696679 -0.011677697 0.67755473
-0.0064534191 -0.0064527988 0.6774928
-0.0051706787 -0.037918299 0.67872608
-0.018614896 -0.0068729818 0.67829865
-0.0054367515 -0.0062955022 0.67819536
-0.015466874 -0.0057284832 0.67832232
0.0013375098 -0.0026743314 0.67839491
-0.030077839 -0.032969922 0.67966771
-0.022491436 -0.0046135783 0.67925328
-0.022491436 -0.0046135783 0.67925328
-0.0075099836 0.0017330945 0.6794917
-0.012183365 -0.042931825 0.6800878
-0.016308477 -0.04193607 0.68063956
-0.0097015314 -0.040358059 0.68055487
-0.007005129 -0.038528204 0.68095708
-0.007005129 -0.038528204 0.68095708
-0.0026157855 -0.035751902 0.68037307
0.0026272247 -0.03561382 0.6809746
-0.028448047 -0.031641036 0.68018728
-0.027956642 -0.022132307 0.68063581
-0.021555981 -0.00407812 0.68067539
-0.023574999 -0.0034925789 0.68055618
-0.0096670352 -0.039838612 0.68146437
-0.0085041029 0.002638191 0.68160313
-0.022588994 -0.038499407 0.68228978
0.0041338005 -0.033660918 0.68259442
0.0064922213 -0.0088530183 0.68251216
-0.014805849 -0.040271908 0.68300265
-0.021343706 -0.038537234 0.68315881
0.0088942423 -0.0071154237 0.68317544
-0.020756207 -0.0023721457 0.68319595
-0.020756207 -0.0023721457 0.68319595
-0.011668274 -0.038893864 0.68448341
-0.0047946512 -0.035360545 0.68471611
0.0065811323 -0.034401014 0.6844635
-0.026965175 -0.028463081 0.68469071
-0.027458891 -0.023578882 0.68413699
0.0095582092 -0.0071686506 0.68424696
0.0077920607 -0.0065932572 0.68473017
-0.005674392 0.0047785342 0.68422997
-0.019583182 -0.03765963 0.68549538
-0.019583182 -0.03765963 0.68549538
-0.018499319 -0.037802421 0.68565893
-0.021396248 -0.036464132 0.68553412
0.0024092437 0.0024092793 0.68543547
0.0030122125 0.002409786 0.68546724
-0.011529727 -0.037623316 0.68652594
-0.02158314 -0.034410775 0.68749636
-0.0042842319 -0.033661783 0.68778265
-0.025049921 -0.029631913 0.68752688
-0.026303431 -0.024468273 0.68770403
-0.025678795 -0.0042797923 0.6876297
0.0045796502 -0.00061054528 0.68742549
-0.0045794379 0.0033578128 0.68742573
-0.0045725871 0.006706655 0.68721819
-0.015570878 -0.036467515 0.68840981
-0.00951315 -0.036210075 0.68819225
-0.01755191 -0.035720125 0.68870771
0.0073723681 -0.031332523 0.68834531
-0.024283409 -0.03012462 0.68844771
-0.0064730304 -0.0049319565 0.68886065
-0.0024566569 -0.0036849678 0.68829715
0.0046133907 -0.0015383735 0.6885249
-0.0006159257 0.00030791759 0.68872237
-0.0006159257 0.00030791759 0.68872237
0.00030756817 0.0015394092 0.68860734
0.0067795864 0.001541093 0.68881905
-0.014540678 -0.035887823 0.68940556
-0.022576079 -0.031545445 0.68935311
0.0061860355 0.0034030527 0.68936884
-0.0055929809 -0.033557862 0.69005424
0.0046642376 -0.0037315488 0.69017112
0.0083965762 -0.0037319511 0.69018674
0.0099494122 -0.0024873316 0.69014978
0.0099494122 -0.0024873316 0.69014978
-0.012497826 0.0037493408 0.69088686
-0.0093929982 -0.034440964 0.69120276
-0.023190163 -0.028517216 0.6913383
0.0044040503 -0.0094372332 0.69191504
0.0012554228 -0.0084736347 0.69156766
-0.0043942342 -0.001569584 0.69157648
-0.0085268766 -0.033475026 0.69250757
-0.019593287 -0.031285495 0.69261312
-0.02277256 -0.027516425 0.69274092
-0.02404999 -0.024366125 0.692819
0.0034711829 -0.0094670355 0.69239426
0.001892485 -0.0085159391 0.69232023
-0.013860878 0.0025201738 0.69212985
-0.015444957 0.0031520277 0.69221652
-0.017069822 0.0044255257 0.69265515
-0.013675192 -0.03307505 0.69358301
-0.015685353 -0.032642853 0.69354773
-0.021038203 -0.0031875968 0.69393605
-0.016427033 -0.031574339 0.69454288
-0.0064086784 -0.030441359 0.69474399
-0.022376884 -0.026212901 0.69437492
-0.022428965 -0.025633067 0.69473422
-0.021477083 -0.02243875 0.69480187
-0.020483643 -0.0035200864 0.69456196
-0.017505247 0.00042662024 0.69464058
-0.012592995 -0.031644151 0.69593441
-0.018481981 -0.029442113 0.69567525
-0.0093432302 -0.02963993 0.69558376
-0.0093432302 -0.02963993 0.69558376
-0.013533983 -0.025456905 0.69561487
0.0090347026 -0.025813431 0.6958226
-0.017417666 -0.0012901723 0.69576538
-0.024468822 0.00032296777 0.69547987
0.010949479 2.9802322e-08 0.69552118
-0.00064431876 0.011597753 0.69557709
-0.016496602 -0.026523843 0.69620579
-0.01745227 -0.025855213 0.69607472
0.0084449518 0.0084449649 0.69685489
0.0091392612 0.0084864795 0.69762564
0.0091392612 0.0084864795 0.69762564
0.0058733858 0.00978899 0.69757599
0.0076022632 0.0095573468 0.69733608
0.01184977 0.0019749999 0.69895738
0.0091812452 0.0091812611 0.69834965
-0.00066397898 0.0086317658 0.70032346
0.0046433806 0.0092867613 0.70016927
0.0053308806 0.0099954307 0.70089829
0.0003324876 0.015286773 0.70048356
0.01202409 -0.02338019 0.70129544
0.0013343836 0.0060047507 0.7010991
0.010774747 -0.02087605 0.7026031
0.010774747 -0.02087605 0.7026031
-0.0087436717 0.0094162524 0.70240241
0.010083504 0.01210025 0.70231628
-0.012537109 0.0094874352 0.70362926
-0.015591743 0.01152432 0.70368475
-0.0084417593 0.01283142 0.7030654
-0.0084417593 0.01283142 0.7030654
-0.011560508 0.0081603825 0.70419854
0.015198981 -0.0062177479 0.70681375
-0.014543106 0.0138506 0.70721602
0.0034781864 0.018782228 0.70796645
0.0013885669 0.02013424 0.70763958
0.012585318 -0.016780406 0.70882285
-0.020400479 0.0098485351 0.70985621
0.016843326 0.010527074 0.70945549
0.016843326 0.010527074 0.70945549
0.00070373266 0.021111995 0.70992082
0.0035399566 0.015575826 0.71094894
-0.0035570031 0.017429262 0.71177208
-0.0064207464 0.018548846 0.7122587
0.014391304 -0.013671726 0.71374315
-0.010796518 0.017994225 0.71379209
-0.011521345 0.018002093 0.71386844
0.015889863 -0.014445305 0.71439528
0.015889863 -0.014445305 0.71439528
-0.0086817145 0.015554145 0.71468735
-0.0086817145 0.015554145 0.71468735
0.016970096 -0.0022134483 0.71815276
0.0089309961 0.018606246 0.71970254
0.010528462 0.019552857 0.72158158
0.009405544 0.020314693 0.72166896
0.025635645 -0.012437165 0.72385526
0.025328213 -0.015350401 0.72532088
0.022310562 -0.011539906 0.72575736
0.010478603 0.024452165 0.72742546
0.027409488 -0.0086144209 0.7290886
0.0078672413 0.024388462 0.72995675
0.0094340676 0.026729882 0.72982353
0.004742356 0.02687335 0.73084241
0.0078924578 0.026440009 0.73056555
0.017558224 0.019154429 0.73270339
0.018341757 0.019537315 0.7325505
0.019141551 0.019540116 0.73257393
0.0039819265 0.025484324 0.7322892
0.027313102 -0.0056232512 0.73396492
0.03025781 -0.0032711029 0.73745406
0.018768094 0.026112139 0.73702556
0.012292022 0.027861953 0.73786187
0.0146918 0.030199856 0.73707557
0.011453806 0.031907022 0.73753858
0.021406332 0.023876339 0.73879194
0.014787323 0.031217724 0.73835671
0.0024705117 0.032116681 0.73883611
0.019446436 0.0285483 0.73979986
-0.0033376482 0.025032401 0.74146968
-0.0016815196 0.026904315 0.74300212
0.011814661 0.036287904 0.74376124
0.017802933 0.034758151 0.74469185
0.017802933 0.034758151 0.74469185
0.013648923 0.037534565 0.74597114
0.0077514709 0.038757384 0.74795485
0.00087150093 0.036603063 0.75042367
0.015782893 0.04121092 0.75170958
0.02741939 0.027419418 0.75356108
0.022172691 0.039910853 0.75414324
0.022172691 0.039910853 0.75414324
0.0044446802 0.040891081 0.75463295
0.0062997518 0.043198317 0.75729543
0.019797888 0.044095308 0.75728077
0.023485089 0.042453855 0.75809401
0.023485089 0.042453855 0.75809401
0.0099440124 0.04520005 0.75826991
-0.0051035853 -0.019072827 0.66492575
-0.015297599 -0.017270546 0.66427922
-0.015297599 -0.017270546 0.66427922
-0.0011219311 -0.022974024 0.6671406
-0.0092570055 -0.013223561 0.66773003
0 -0.012190759 0.66798615
0.00041549405 -0.029314581 0.66882932
-0.0063678785 -0.018042296 0.6681366
0.0048346999 -0.018800242 0.66970253
-0.014742191 -0.0091615319 0.66970456
-0.023763189 -0.014041871 0.6704098
-0.01105377 -0.0043136403 0.67020106
0.0011061649 -0.032631814 0.67355061
0.0031139199 -0.01518942 0.6725933
-0.024746537 -0.013234004 0.67315614
0.005261586 -0.013207083 0.67326492
-0.023066936 -0.010790172 0.67292875
0.0016886804 -0.032084912 0.67591923
-0.014894431 -0.0068848878 0.6757226
0.0011124432 -0.0063962787 0.67430854
0 -0.0039379895 0.67584223
-0.028885476 -0.016991466 0.67676145
-0.0085092103 -0.0062400401 0.67697841
-0.021966942 -0.004913643 0.67958498
-0.0069906041 -0.0050876015 0.67912132
-0.010579537 -0.03996712 0.68192059
-0.025844164 -0.035535365 0.68182784
0.0033117286 -0.033397138 0.68107128
0.0040753293 -0.012225986 0.68057781
-0.011497103 -0.04009147 0.68236214
-0.016945757 -0.039687648 0.68356848
-0.0068910392 -0.037491761 0.68313491
0.0045526805 -0.033445455 0.68336201
-0.017102202 -0.0041280985 0.68239844
-0.017102202 -0.0041280985 0.68239844
-0.020311151 -0.036378771 0.68640161
-0.020311151 -0.036378771 0.68640161
-0.02486494 -0.030949578 0.68689442
0.0055040126 -0.0091733336 0.68766773
0.010578897 -0.0051870001 0.68735927
0.0060984679 0.00071224076 0.68725479
-0.0018289776 0.0050298125 0.68720949
-0.010919979 -0.03629633 0.68854535
-0.001158564 -0.0010798499 0.68907487
-0.0037529112 -0.03189972 0.69103026
-0.021939769 -0.0043879747 0.69135988
-0.014924284 0.0036130399 0.69173074
0.0025009145 0.0037513971 0.69096828
-0.019088984 -0.031201843 0.69313526
-0.02404999 -0.024366125 0.692819
-0.0030076101 0.010449819 0.6929068
-0.013220726 -0.025150754 0.69571817
0.0090382276 -0.0025823414 0.69588345
-0.0011230793 0.011565991 0.69515097
0.0084955543 -0.023526132 0.69779462
0.0090615563 -0.017083077 0.69742674
0.0093867313 -0.015537024 0.69631529
-0.018968258 -0.0016706561 0.69614005
0.012045315 -0.02308628 0.70158017
0.010789036 0.0027975738 0.70081228
0.014836203 0.0046844184 0.70160186
0.014836203 0.0046844184 0.70160186
0.0089821564 0.011477217 0.70064878
0.010061702 0.011403263 0.70196539
0.00083650637 0.015351415 0.70116198
0.0084283464 -0.0010113642 0.70282274
-0.0090656802 0.010072753 0.70214289
-0.021037731 0.0075874627 0.70654929
-0.015128415 0.0068765879 0.70603943
0.0041703335 0.019461572 0.70782602
0.014344639 0.0073467791 0.7089687
0.0182929 0.0084429085 0.70988232
0.016843326 0.010527074 0.70945549
0.0063022203 0.012604445 0.70907927
0.0063022203 0.012604445 0.70907927
0.012628248 0.013328314 0.70939863
0.0065787039 0.015154487 0.71019578
-0.0030185711 0.017215449 0.71142083
0.018127188 0.0030807257 0.71507639
0.018127188 0.0030807257 0.71507639
-0.0123039 0.018817753 0.71475559
-0.0086887982 0.019549817 0.71482992
0.024927165 -0.014957011 0.72519457
0.021225048 -0.012659038 0.72523308
0.022739347 -0.010593852 0.72717398
0.024220856 -0.010157108 0.72865158
0.012790073 0.024536362 0.7290706
0.025265785 -0.0078955293 0.73064041
0.0071236314 0.027179256 0.73114127
0.015918804 0.018306613 0.73218173
0.017326584 0.018658977 0.73308754
0.0089154867 0.029012254 0.73279303
0.027466547 -0.0029916964 0.73698926
0.012682948 0.027821988 0.73757809
0.0091702603 0.031788707 0.73680598
0.031986263 -0.0041007698 0.738029
0.016703703 0.024918338 0.73835105
0.022386024 0.023215145 0.74019015
-0.0010420973 0.029281795 0.74129248
0.021764016 0.027623594 0.74211311
0.0055189449 0.036514699 0.74503458
0.024693307 0.030755341 0.74918866
-0.0008665974 0.034663916 0.74923986
0.026127361 0.027434215 0.75028157
0.0109221 0.041067794 0.75097454
0.0109221 0.041067794 0.75097454
0.015439856 0.040787023 0.75102174
0.027594544 0.030710593 0.75492513
0.025741609 0.035505712 0.75432038
0.026124548 0.038736433 0.75750834
0.026124548 0.038736433 0.75750834
0.017894913 0.043842584 0.75603551
0.01891854 0.044596642 0.7575289
0.019467734 0.04527235 0.75861895
0.0082110344 0.045616865 0.76028246
0 -0.028327033 0.66785109
-0.002300295 -0.010478253 0.66728371
-0.028487377 -0.018571567 0.67117745
-0.017860681 -0.010350682 0.67029232
-0.0097601358 -0.010190781 0.66856831
-0.0097308047 -0.0051150797 0.66937393
-0.030278688 -0.025117517 0.67459536
0.001672999 -0.01617232 0.67465734
-0.027934026 -0.021093041 0.67765474
0.0011597546 -0.011004947 0.67897379
0.0015521249 -0.0047968328 0.67627597
-0.018111382 -0.039491445 0.683487
-0.011735388 -0.0017602742 0.68168342
0.0097777182 -0.0036666393 0.68755913
-0.019512672 0.00030526519 0.68723655
-0.018215656 -0.034146007 0.69026959
-0.0036058258 -0.032546967 0.68922943
-0.0048877671 0.0085920421 0.68991339
-0.018704206 -0.02262035 0.69495839
0.0099846357 -0.0017618705 0.69440502
-0.01583574 0.0075868219 0.69931996
-0.01583574 0.0075868219 0.69931996
-0.00083926134 0.010385832 0.69843352
0.0064490847 0.0098880697 0.69799584
-0.0064493059 0.01048111 0.70083308
0.015697077 0.0084533095 0.70661062
0.012639195 0.013423881 0.70955724
0.016552299 -0.011343967 0.71843624
0.02582762 -0.01262828 0.72386813
0.015481113 0.019151663 0.7300508
0.015481113 0.019151663 0.7300508
0.0073545263 0.02325381 0.73032641
0.0031036437 0.029235993 0.73338807
0.013688532 0.032466739 0.73929715
0.018748829 0.031062389 0.74155629
-0.0012712715 0.032649294 0.74475336
0.0014741479 0.038434412 0.75416601
0.0059943306 0.041599408 0.75445592
0.029059246 0.033146232 0.75925982
0.021960845 0.045903333 0.76092863
