# .PCD v0.7 - Point Cloud Data file format
VERSION 0.7
FIELDS x y z
SIZE 4 4 4
TYPE F F F
COUNT 1 1 1
WIDTH 484
HEIGHT 1
VIEWPOINT 0 0 0 1 0 0 0
POINTS 484
DATA ascii
0.050170179 -0.02750285 0.68595433
0.049309503 -0.032334 0.68638933
0.045488648 -0.030628994 0.68645048
0.047496751 -0.0284376 0.68609816
0.048600502 -0.027425956 0.68608135
0.043618672 -0.034447014 0.68764943
0.051196337 -0.031083494 0.68716633
0.047533955 -0.024376363 0.68714923
0.052349899 -0.022654295 0.68784201
0.038525499 -0.024348147 0.68883938
0.038525499 -0.024348147 0.68883938
0.043523345 -0.023294151 0.68801725
0.047538042 -0.02208218 0.68811131
0.05060266 -0.022081137 0.68810427
0.046409894 -0.021514505 0.68842673
0.040504396 -0.034630001 0.68931794
0.037442274 -0.031443387 0.68984926
0.037442274 -0.031443387 0.68984926
0.037370719 -0.027487747 0.68915105
0.055589434 -0.021284899 0.68969488
0.047379527 -0.019508816 0.6895467
0.044544045 -0.040494695 0.69042921
0.039183103 -0.034829408 0.6901778
0.032486286 -0.025614172 0.69084936
0.034196086 -0.023315489 0.69012773
0.03760431 -0.019268349 0.69008267
0.049586359 -0.01839941 0.69060564
0.040620852 -0.01687324 0.6908977
0.042436212 -0.040346205 0.69142962
0.033508774 -0.0294379 0.6912362
0.02954272 -0.023571372 0.69177461
0.055294324 -0.018850327 0.6917206
0.044481687 -0.016601875 0.69127589
0.037176535 -0.035916299 0.69214696
0.032569408 -0.031621188 0.69270539
0.030775234 -0.029299956 0.69269288
0.025744788 -0.018570026 0.69286203
0.025744788 -0.018570026 0.69286203
0.028679518 -0.017333776 0.69219804
0.051432975 -0.017039061 0.69238019
0.03156415 -0.014519483 0.69243002
0.038872823 -0.039510071 0.69387275
0.03832566 -0.03853796 0.69338435
0.04254631 -0.013652325 0.69333202
0.031532604 -0.011466369 0.69381547
0.034623973 -0.036547512 0.6948204
0.034623973 -0.036547512 0.6948204
0.051530607 -0.015363038 0.69456512
0.021418493 -0.014385551 0.69438052
0.046571694 -0.014035285 0.69404393
0.021452934 -0.012487531 0.69462878
0.041587677 -0.012156397 0.69448864
0.02648025 -0.011485443 0.69407082
0.0246506 -0.010564327 0.6946013
0.034563713 -0.010560662 0.69455105
0.029495256 -0.0096180141 0.69482446
0.023383953 -0.025529584 0.69540375
0.021206837 -0.021849483 0.69516969
0.021206837 -0.021849483 0.69516969
0.042465508 -0.011581481 0.69535929
0.057814144 -0.016889513 0.69685137
0.057814144 -0.016889513 0.69685137
0.013639397 -0.010391891 0.6968267
0.021354944 -0.0071183145 0.69625318
0.022079367 -0.006493926 0.69680214
0.028579922 -0.0064954162 0.69683844
0.028579922 -0.0064954162 0.69683844
-0.0016202203 0.0045361817 0.69647205
0.026418136 -0.031636521 0.69750351
0.021509569 -0.026723981 0.69738442
0.019544393 -0.024430886 0.69730592
0.018577524 -0.023466915 0.69739747
0.054036371 -0.014973909 0.69719988
0.013011646 -0.0094333738 0.69708925
0.012393319 -0.0075010955 0.69749904
0.031613488 -0.0065181851 0.69738829
0.019537076 -0.005209893 0.69724703
0.036783576 -0.040724665 0.69860226
0.019751413 -0.019093037 0.69897187
0.015791794 -0.015133798 0.69887793
0.015433964 -0.014449343 0.69858742
0.015078466 -0.013767272 0.69829708
0.039955135 -0.0085150301 0.6981563
0.0085366238 -0.0065666139 0.69855732
0.0334973 -0.0059112608 0.69859266
0.025526222 -0.0045816004 0.69803953
0.022428282 -0.029684484 0.69927967
0.042298563 -0.0085918903 0.69958377
0.007479622 -0.0077001154 0.69935989
-0.003626321 0.00032986701 0.69919181
-0.0046229232 0.0052833259 0.69946373
-0.0085716266 0.0095602721 0.69920731
-0.0095673287 0.010556966 0.69931686
0.02585802 -0.033151269 0.70009345
0.018594822 -0.027228117 0.70035285
0.017524324 -0.022404265 0.70068729
0.016657405 -0.021987796 0.70088291
0.017234406 -0.017897248 0.70005369
0.011295154 -0.012623966 0.7004301
0.024651825 -0.0073288679 0.70087552
0.021945104 -0.0046550035 0.7005707
0.00563535 -0.001657337 0.70008671
0.002664061 -0.0006659627 0.70081502
0.014635224 0.00066527724 0.70062721
0.012655939 0.0013321936 0.70083606
-0.007314167 0.0066492558 0.70055169
0.0033135756 0.011928886 0.70001835
0.013381703 -0.020406678 0.70155621
0.015349005 -0.017351002 0.70113677
0.013389547 -0.016067445 0.70165092
0.013389547 -0.016067445 0.70165092
0.017355293 -0.0063415617 0.70117629
0.040138945 -0.0066898167 0.70153135
0.0013354041 0.0073447526 0.7012223
-0.016283793 0.014499187 0.70158213
-0.01134653 0.014683753 0.70115972
0.014470207 -0.019517913 0.70250899
0.0053857872 -0.0094251037 0.7025553
0.0084364973 -0.0020247549 0.70296407
0.0083988123 -0.0013437867 0.70223629
0.011433146 -0.0013450682 0.70238978
0.022259241 0.0013490617 0.70286888
-0.014494547 0.0064043179 0.702779
-0.010452654 0.0067435056 0.70282787
0.0060569923 0.01009503 0.70250106
0.0020164743 0.012434483 0.70229805
-0.0013471985 0.015492797 0.70264602
0.006110678 -0.015616179 0.70394123
-0.012209046 -0.012209058 0.70377606
-0.0094848154 -0.012872249 0.70358455
0.048128594 -0.010167986 0.70367646
-0.0054132873 -0.0094732344 0.70338517
0.01553873 -0.0043911338 0.70312828
0.033142444 -0.0027054548 0.70331645
0.029418029 -0.0013525337 0.70329237
0.029418029 -0.0013525337 0.70329237
-0.017582912 0.013525367 0.70328975
-0.024437936 0.016970813 0.70390922
-0.022300802 0.01655665 0.70317292
-0.024433449 0.018325061 0.70387912
-0.020350156 0.019671857 0.70379019
0.0023839914 -0.016351953 0.70451272
0.0095218718 -0.016323179 0.70422357
0.0095218718 -0.016323179 0.70422357
-0.0095611354 -0.010927022 0.70490062
0.026540594 0.00068053603 0.70431876
0.027598344 0.00034166873 0.70454454
0.0064736819 0.007495597 0.7045331
0.0064736819 0.007495597 0.7045331
-0.0013651146 0.0129686 0.70480865
-0.0068558478 -0.013026118 0.70553952
0.0023998737 -0.013369508 0.70555401
-0.0082407398 0.0013734698 0.70581567
-0.0044528851 0.015070483 0.70540321
-0.0044528851 0.015070483 0.70540321
-0.011680061 0.022673041 0.70589632
0.0013765636 -0.012389094 0.70619071
0.0013765636 -0.012389094 0.70619071
-0.0013795076 -0.01138036 0.70654607
-0.013427172 0.0024104863 0.70626605
-0.025506036 0.012408376 0.70644915
-0.026541352 0.018612996 0.70645326
-0.01127703 0.020482074 0.70670569
-0.028878663 0.023377955 0.70602298
-0.017603105 0.023470461 0.70668
0 -0.0096933246 0.70718002
-0.017349951 -0.0045111477 0.70757067
-0.02566787 0.0083247423 0.70750511
-0.021482183 0.012473583 0.70732337
-0.021482183 0.012473583 0.70732337
-0.03129553 0.021559179 0.7079227
-0.032682389 0.022947222 0.70790195
-0.01946109 0.022936285 0.70782202
-0.01946109 0.022936285 0.70782202
-0.0083529316 -0.016705841 0.70807278
-0.02055715 -0.0045291334 0.70825934
0.011847845 0.0083631873 0.70827907
-0.0048717041 0.012527287 0.70804381
-0.026534192 0.016060203 0.70860159
-0.010522574 -0.0056120157 0.70938301
-0.026747691 -0.0014077425 0.70995808
-0.01683775 0.0056126118 0.7093994
-0.020415192 0.0084476769 0.7099787
0.010500907 0.01400125 0.70903432
-0.01124856 0.016872853 0.70975244
-0.029432306 0.018220037 0.70920545
-0.0014039879 0.021410733 0.70950109
0.015558121 -0.027580291 0.71075487
0.014488155 -0.026502654 0.71064585
-0.01201304 -0.016252905 0.71062499
-0.01201304 -0.016252905 0.71062499
-0.011312464 -0.0024745911 0.71071666
-0.011312464 -0.0024745911 0.71071666
-0.020535013 -0.0014162064 0.71097612
-0.020535013 -0.0014162064 0.71097612
0.01976978 0.0049424469 0.71048361
-0.033876594 0.021172881 0.71041089
-0.0014110834 0.023282886 0.71035761
-0.038239788 0.024785072 0.71098596
-0.023336895 0.027579963 0.71075279
-0.023336895 0.027579963 0.71075279
-0.020442694 0.02960664 0.71020764
-0.042331502 0.031396165 0.71035361
0.014912118 -0.027693927 0.71145833
-0.0120728 -0.017043948 0.7114737
-0.0056787184 -0.014196783 0.7113952
-0.016378645 -0.013530165 0.71194458
-0.012751899 -0.002125293 0.71105701
-0.028351309 0.00070878863 0.71114004
-0.032630097 0.0014187098 0.71127701
0.021509906 0.002363513 0.71122283
-0.013493957 0.017045021 0.71148425
0.0042609535 0.017043829 0.71147227
-0.0014245395 0.024217188 0.71198189
-0.042646494 0.027009457 0.71162093
-0.017878722 -0.012872666 0.712677
-0.019298613 0.0042886138 0.7125839
-0.030702997 0.015708536 0.7124052
-0.034585334 0.019253746 0.7121827
-0.034585334 0.019253746 0.7121827
-0.004298165 0.023639917 0.71296954
-0.041517429 0.025769442 0.71283847
-0.040739819 0.025372401 0.71257675
-0.02286735 0.025011182 0.71254563
-0.0057232529 0.025396407 0.71273923
-0.028570674 0.030713528 0.71246403
-0.030791454 0.035087973 0.71290189
0.0075250622 -0.022575021 0.71304309
-0.022226524 0.0014339685 0.71312016
-0.022316596 0.00575912 0.71382165
-0.042458918 0.0064768195 0.71376181
-0.040315356 0.015838176 0.71382815
-0.036623731 0.015438899 0.71339238
-0.040576607 0.019390464 0.71340501
-0.0043171397 0.022664502 0.71373308
-0.046676621 0.023697406 0.71338987
-0.023662934 0.025097072 0.71313804
-0.025496999 0.026573688 0.7134155
-0.01256154 0.027635381 0.71332002
-0.034461975 0.035538465 0.71335506
-0.03813269 0.03741321 0.71372372
-0.023475461 0.0036116391 0.71440834
-0.02349598 0.0043377429 0.71456075
-0.041078847 0.0064861476 0.71401268
-0.0064896061 0.024516314 0.71410584
-0.0094022462 0.02676025 0.71463269
-0.0094022462 0.02676025 0.71463269
-0.031417269 0.028528929 0.71438825
-0.034419946 0.029709905 0.71496618
-0.032585844 0.031861752 0.71484518
-0.037565354 0.034675747 0.71443009
0.0036246378 -0.021022886 0.7150377
0.0036246378 -0.021022886 0.7150377
-0.0058214762 -0.016736716 0.71570337
-0.02902423 -0.0050792396 0.7152015
-0.041503921 0.0087377131 0.71581304
-0.037520021 0.0080140233 0.71591151
-0.030453311 0.01232633 0.7150743
-0.033473909 0.014553905 0.71570557
-0.045123246 0.017467082 0.71572983
-0.045123246 0.017467082 0.71572983
-0.0065675913 -0.018243283 0.71619773
-0.048587687 0.010959685 0.71641779
-0.047461953 0.010588318 0.71630669
-0.03141861 0.011690646 0.71642303
-0.04363621 0.013407519 0.71658295
-0.044608671 0.014625847 0.71657372
-0.048845291 0.017496824 0.71602917
-0.048328586 0.030022323 0.71680582
-0.014595567 0.032110274 0.71620888
-0.030923339 -0.0058901906 0.71777606
-0.030791542 0.0087976158 0.71701843
-0.048557807 0.012507349 0.71764433
-0.03454496 0.013229996 0.71746922
-0.052303322 0.025414929 0.71787179
-0.050743613 0.030519903 0.71756953
-0.017691921 0.030960888 0.71799171
-0.045588329 0.033456415 0.71754086
-0.036126528 0.010321885 0.71801901
-0.036126528 0.010321885 0.71801901
-0.052348379 0.024330944 0.71802497
-0.019918457 0.035410613 0.7181263
-0.037808374 -0.00074133277 0.71900022
-0.042377576 0.0029739141 0.71951336
-0.018550774 0.030423313 0.71916687
-0.046387829 0.036368072 0.71920896
-0.046387829 0.036368072 0.71920896
-0.025984623 0.03860575 0.71926022
-0.055323087 0.021680683 0.72051358
-0.026218222 0.035956413 0.72087157
-0.025427869 0.035523608 0.72057855
-0.032299995 0.039435372 0.72137147
-0.0045304359 -0.018121749 0.72231543
-0.053516097 0.014525831 0.72459519
0.016550522 0.011546955 0.72586972
0.016605701 0.013902336 0.72648644
0.020482175 0.013139427 0.7266205
0.029575961 0.014787972 0.72792655
0.0264697 0.015570432 0.7279762
0.018766232 0.0093831122 0.72879851
0.028484095 0.01560767 0.72842538
0.030591642 0.0062752366 0.72939599
0.029416066 0.0094133466 0.72940618
0.029416066 0.0094133466 0.72940618
0.02553346 0.011784762 0.72969735
0.021576017 0.017261252 0.72944462
0.023656033 0.011039495 0.73039383
0.025260275 0.011051387 0.73059881
0.027268972 0.0072183013 0.73365158
0.038983315 -0.029192407 0.68870848
0.040930122 -0.023040438 0.68852633
0.038755812 -0.035160672 0.69061786
0.031245122 -0.026927892 0.69165063
0.051047903 -0.01871283 0.69062495
0.042943742 -0.016912591 0.69094723
0.042446434 -0.041342378 0.69240391
0.0327846 -0.031277664 0.69240081
0.028333506 -0.020935327 0.69203174
0.030225145 -0.016371936 0.69204551
0.047852665 -0.016370654 0.69203341
0.024964269 -0.015063176 0.69341791
0.028997241 -0.011471495 0.69388396
0.028997241 -0.011471495 0.69388396
0.03448119 -0.035758257 0.6941821
0.025632273 -0.028695576 0.69570303
0.022677183 -0.020921096 0.69424522
0.04102369 -0.011251563 0.69525999
0.020238988 -0.018280357 0.69764167
0.047108643 -0.012464918 0.69635576
0.020889718 -0.0068817306 0.69640374
0.020273194 -0.0039238334 0.69790804
-0.0026110997 0.0019583106 0.6976186
-0.0026110997 0.0019583106 0.6976186
-0.0026110997 0.0019583106 0.6976186
0.018607177 -0.025284916 0.69857329
0.011182503 -0.011030748 0.69916165
0.012788938 -0.011641592 0.69836259
0.026752068 -0.0073270127 0.69900697
0.0039750319 -0.0046375096 0.69996768
0.036432516 -0.0059616864 0.69994456
-0.0031134705 0.0093396343 0.6982491
0.034675464 -0.040010154 0.70101321
0.018626492 -0.027497312 0.7006337
0.018477995 -0.02230645 0.70078367
0.011159915 -0.020985223 0.70137274
0.0088893129 -0.01098009 0.70100361
0.04100525 -0.0073333457 0.70099807
0.0028187125 -0.0049749725 0.70087224
-0.0054727728 -0.003151305 0.70016611
0.020813368 0.00033455095 0.70124692
-0.014061715 0.0083695799 0.70168185
-0.01671239 0.015111859 0.70176935
0.01883007 -0.029302124 0.70311236
0.014111772 -0.017471731 0.70225728
-0.0089675495 -0.013197571 0.70342499
0.0050807451 -0.010331586 0.70358062
0.043745961 -0.0080761611 0.70250487
-0.002696174 -0.0048329434 0.70287275
-0.002696174 -0.0048329434 0.70287275
0.031013697 -0.002558399 0.7029416
0.010779006 0.0033692024 0.7027036
0.0061042607 0.0094955266 0.70376909
-0.018323943 0.013573289 0.70386887
-0.020926112 0.019147623 0.70365179
-0.00305307 0.018319353 0.70382792
0.010193985 -0.016310364 0.70409453
0.0049677519 -0.012850441 0.70547962
0.0026144548 -0.0093253432 0.70474809
0.0070285993 0.0049767364 0.70514488
0.0070285993 0.0049767364 0.70514488
0.015138182 0.0051830946 0.70464712
0.015138182 0.0051830946 0.70464712
-0.023259969 0.011803865 0.70765448
0.0088901762 0.013032166 0.7067157
-0.015075104 0.023130961 0.70735264
-0.015075104 0.023130961 0.70735264
-0.016019244 -0.0050491467 0.70817202
0.02312381 0.0029923599 0.70937359
0.011610332 0.0088695884 0.70906311
0.013180412 0.0088655949 0.70898384
-0.02120983 0.010822125 0.70859325
-0.02120983 0.010822125 0.70859325
0.011207192 0.016984321 0.70911908
-0.030733934 0.019397384 0.70929217
-0.0024619279 0.022507891 0.70983356
-0.035398751 0.024685502 0.70869482
-0.020371608 0.02599138 0.70961583
-0.015355543 0.026523203 0.70853186
-0.022914242 0.029059876 0.70958674
-0.021217963 0.02894119 0.70951712
-0.015206099 -0.013437212 0.71076345
-0.012848427 -0.0028518967 0.71077412
-0.028982921 0.00070921332 0.71103495
-0.012680183 -0 0.71009517
-0.018906403 0.0052358396 0.71144986
-0.018906403 0.0052358396 0.71144986
0.00091268029 0.021005124 0.71073073
-0.020645073 0.023492694 0.71189237
-0.021061238 -0.0096382797 0.71238571
-0.022826295 0.0021568611 0.71359396
-0.037032284 0.0046633705 0.71320605
-0.025476519 0.0050229183 0.71328688
-0.041769207 0.0064814389 0.7138865
-0.041769207 0.0064814389 0.7138865
-0.030909875 0.015140183 0.71306181
0.0049872785 0.015674293 0.71202981
-0.014608467 0.017458901 0.71206367
0.00067520572 0.018915784 0.71272081
-0.042466026 0.026407525 0.71233118
-0.013209558 0.027047124 0.71357554
-0.03829902 0.035061959 0.71366227
-0.03829902 0.035061959 0.71366227
-0.029221803 0.034589943 0.71279562
0.0023459271 -0.019129977 0.71429956
-0.032040667 -0.0029127896 0.71582711
-0.031478804 0.0054281652 0.71472949
-0.030936265 0.012967271 0.7149331
0.012332928 0.01450935 0.71516782
-0.034669079 0.016612262 0.71439677
-0.048611797 0.019044727 0.71518785
-0.016017849 0.032035708 0.71579981
-0.036904626 0.009067215 0.71689105
-0.04498994 0.014996089 0.71663296
-0.049085006 0.026873011 0.71656042
-0.01535305 0.030339986 0.71652734
-0.022107398 0.0353719 0.71793133
-0.035172418 -0.0029629543 0.71879101
-0.02006609 0.031584904 0.7194463
-0.050314985 0.033296704 0.71865875
-0.021153096 0.032934003 0.71920723
-0.021153096 0.032934003 0.71920723
-0.022980699 0.034988236 0.71898794
-0.041604377 0.036403805 0.71938515
-0.051677771 0.015728027 0.72083801
-0.042733483 0.038941145 0.72316587
0.015012644 0.011548072 0.72588789
0.020420611 0.009424895 0.72963905
0.030376187 0.010125428 0.72806215
0.019334685 0.018420598 0.7292614
0.024767704 0.018084243 0.72984719
0.034847513 0.0087118745 0.73122776
0.025337528 0.0084455609 0.73421413
0.048742916 -0.033237472 0.68666553
0.050901495 -0.032503337 0.6880815
0.054535575 -0.02584327 0.68837076
0.034000501 -0.018015683 0.69102079
0.038102038 -0.018412085 0.69037032
0.045991719 -0.018211499 0.69034135
0.018343646 -0.022698876 0.69762135
0.053797998 -0.014570059 0.69803733
0.041971669 -0.0097010862 0.6976161
0.018428132 -0.0025130729 0.69893938
-0.0054851463 0.0068926984 0.69886667
0.037725359 -0.042064637 0.70121568
0.030163368 -0.037093949 0.70187706
0.015328079 -0.024771577 0.70093507
0.0033890465 -0.016267389 0.7036624
-0.0098980032 -0.0076410733 0.70772648
0.00056729751 -0.0072753681 0.70467889
-0.006298162 -0.001283603 0.70644432
0.0088303303 -0.0033962727 0.70401168
0.012502048 0.0083347261 0.70770597
0.012502048 0.0083347261 0.70770597
-0.0087595154 0.014242452 0.70479858
0 0.012246728 0.70428145
-0.036176324 0.026436597 0.70798123
-0.010019982 -0.017370641 0.7100426
-0.022308122 -0.0052085966 0.70832705
-0.03650599 0.0026078522 0.71171236
-0.018115174 0.006137439 0.71002114
-0.014709879 0.021074547 0.70900285
-0.028422475 0.0316194 0.71156955
-0.041507211 0.014516108 0.71488404
-0.031414956 0.016421467 0.71239388
-0.042220026 0.025509721 0.71299613
-0.010267386 0.02920999 0.7145583
-0.052785061 0.010961905 0.71794236
-0.050308626 0.010059112 0.71705115
-0.028461954 0.025542766 0.71621251
-0.042251777 0.0014564395 0.72091836
-0.030691443 0.041454855 0.72115922
0.031668246 0.0073825493 0.7276426
0.017685007 0.011040388 0.72659373
0.019328669 0.0097612813 0.72856665
