# .PCD v0.7 - Point Cloud Data file format
VERSION 0.7
FIELDS x y z
SIZE 4 4 4
TYPE F F F
COUNT 1 1 1
WIDTH 489
HEIGHT 1
VIEWPOINT 0 0 0 1 0 0 0
POINTS 489
DATA ascii
0.0044904053 -0.059337437 0.6948933
0.010563632 -0.058579661 0.69458658
0.0019373749 -0.057475448 0.69593263
0.00450275 -0.055641025 0.69531906
0.0096322382 -0.055224836 0.69505328
0.012450489 -0.055596732 0.69549531
0.0036576034 -0.05271418 0.69585741
0.0054753395 -0.05249951 0.69554043
0.0074147913 -0.050613843 0.69568449
0.0025862621 -0.062716872 0.69611955
0.015598671 -0.054595351 0.6969353
0.015598671 -0.054595351 0.6969353
0.0025873887 -0.052394629 0.6961875
0.013611106 -0.05249998 0.69650149
0.0025923548 -0.049578696 0.69648719
0.0056164218 -0.045579903 0.69647956
0.0073662624 -0.042680912 0.69693995
0.0073662624 -0.042680912 0.69693995
0.017641362 -0.060764641 0.69776553
-0.0006511602 -0.058604389 0.69722873
0.018285669 -0.058448717 0.69768727
-0.0013067897 -0.056518614 0.69776821
0.00043467211 -0.046537142 0.69752616
0.0045558335 -0.041327789 0.69714981
0.010449976 -0.041473195 0.69770277
0.0045781629 -0.035971254 0.69791991
-0.00065322663 0.0035928786 0.69772762
-0.0019681007 -0.052482665 0.69840521
0.01637583 -0.051419914 0.69816375
0.016453275 -0.048701704 0.69891167
-0.00065470976 -0.045502245 0.69808567
-0.0017532539 -0.044479739 0.69872046
0.011187168 -0.036851853 0.69889665
0.011187168 -0.036851853 0.69889665
0.0026223471 -0.03441821 0.69829744
0.0075429901 -0.034434751 0.69837356
0.0085366257 -0.034474686 0.69855732
0.0055957362 -0.029624134 0.69895589
0.0055957362 -0.029624134 0.69895589
-0.0026283124 -0.0013141632 0.69865745
-0.0078889057 0.0026296079 0.69873726
-0.0013125131 0.0085313916 0.69845909
-0.0032993164 -0.059387684 0.69932985
-0.0033108476 -0.040392309 0.69988662
-0.00065911474 -0.033614814 0.69914913
0 -0.032606602 0.69905412
0.0086099105 -0.02847895 0.69991833
-0.0075957291 -0.0026422441 0.69949901
-0.010565818 -0.0016508549 0.69945067
-0.010600207 0.0026500821 0.69996953
-0.009581673 0.0056167692 0.69955266
-0.0085700694 0.0056036115 0.69917846
-0.0006597293 0.013524562 0.69929755
-0.0026424795 0.015524685 0.69951248
-0.0039772918 -0.059659362 0.70005858
0.017908335 -0.04841882 0.70015275
-0.0046583032 -0.046582997 0.70068383
0.013947289 -0.036528587 0.70036632
0.013310563 -0.033608973 0.70069742
0.013310563 -0.033608973 0.70069742
-0.0026553932 -0.02954118 0.70029193
0.0033236928 -0.027254254 0.70050687
-0.0033338848 -0.02467075 0.70099896
0.005332415 -0.017996877 0.7009446
-0.0046482524 0.013612702 0.70033729
-0.0016570874 0.018559933 0.7000519
-0.0026585069 0.021600485 0.70047987
-0.0026640254 0.023643374 0.70081294
-0.0053657233 -0.061035067 0.70194978
-0.0053564589 -0.057581902 0.70167017
-0.0053564589 -0.057581902 0.70167017
-0.0053454377 -0.047440737 0.70133758
0.018095342 -0.043562859 0.7018249
-0.0046693385 -0.035353541 0.70106447
0.012073389 -0.025488228 0.70195663
0.0086799935 -0.023369193 0.70121986
0.0013344297 -0.015345931 0.70110464
0.011342783 0.0026689172 0.70110655
0.008676759 0.0093441904 0.70115972
-0.0087016299 0.010709733 0.70162165
0.0053527872 0.012712896 0.70155936
-0.012366928 0.013369262 0.70140576
0.0063459235 0.014361702 0.70128942
-0.010672691 0.017343134 0.70106322
-0.0033382922 0.026372626 0.70121175
-0.0060292226 0.027466476 0.70175624
-0.0053532817 0.028104752 0.70157433
-0.0065061478 -0.041500073 0.70249641
0.014479102 -0.029630408 0.70260239
0.002692756 -0.024572149 0.70254695
-0.0060605844 -0.022558808 0.7025975
0.0060530528 -0.011433542 0.7023955
-0.0023527178 -0.0094103068 0.70229995
0.00067219714 -0.0073941648 0.70230746
0.00067272683 -0.0063907802 0.70243537
-0.0047217854 -0.0026981831 0.70287329
0.00033698761 -0.0023585632 0.70268178
0.0013500251 0.012150258 0.70298725
0.0064025414 0.020555295 0.70272821
-0.012458523 0.0266001 0.70260239
-0.0060755378 0.037128299 0.70299858
-0.0061095557 -0.063810915 0.70391107
-0.0067691403 -0.053476155 0.70344627
0.020330645 -0.046421334 0.70363319
0.017609987 -0.036574572 0.70354116
0.01692529 -0.03452754 0.70346981
0.014861304 -0.029047072 0.70310819
-0.0074544773 -0.021346867 0.7036311
-0.0074544773 -0.021346867 0.7036311
0.012873635 -0.021342918 0.70360219
0.012873635 -0.021342918 0.70360219
-0.0067743277 -0.014564663 0.70357144
0.0020265889 -0.002702117 0.70311201
0.0043996242 -0.0013534725 0.70340484
-0.0074286014 0.010805249 0.70306325
0.0084688114 0.019646466 0.70357919
0.0084688114 0.019646466 0.70357919
-0.0047322027 0.023661017 0.70323265
0.0074657639 0.023415565 0.70387876
-0.0044004004 0.040619865 0.7034663
0.021066086 -0.048248112 0.70408291
0.0095546003 -0.027981311 0.70478797
0.00034104683 -0.026605934 0.70472324
0.0063715558 -0.025712928 0.70482993
0.0020446435 -0.024535716 0.70456493
-0.0081595285 -0.020398796 0.70418179
-0.0074939099 -0.0054500997 0.7044965
-0.014989877 0.022484809 0.70451915
-0.0095667392 0.023916841 0.7049973
0.0040956652 0.025256604 0.70482165
0.0054410286 0.029585794 0.70422232
-0.014960073 0.033320189 0.70419204
-0.012908644 0.036687732 0.70404696
-0.015013371 0.039580733 0.70477694
-0.013629864 0.04054904 0.70455176
-0.0047678235 0.046315998 0.7044611
-0.0082127899 -0.047565818 0.70525336
0.021194749 -0.046491683 0.70508492
-0.0089019574 -0.037662089 0.70534194
0.017127521 -0.029459327 0.70542276
0.01304655 -0.014419854 0.70579928
-0.0095994743 -0.012342215 0.70556182
-0.0095994743 -0.012342215 0.70556182
-0.0084394701 0.025546074 0.70522213
0.0054727783 0.033520788 0.70518047
-0.015723033 0.039649397 0.70506287
-0.015723033 0.039649397 0.70506287
0.0034270994 0.039411768 0.70549977
-0.016494129 0.046046138 0.70594287
-0.015430743 0.046634376 0.70559126
-0.0096420962 -0.035469234 0.70629674
0.01866376 -0.031797498 0.70690733
-0.0024098535 -0.021340534 0.70622057
0.01175453 -0.020743251 0.70695388
-0.00068786496 -0.015477076 0.70609003
0.011058536 -0.004492268 0.7068851
0.011058536 -0.004492268 0.7068851
0.011731233 -0.00069007277 0.70662296
0.01334648 0.00023008387 0.70668304
0.01312681 0.0013817549 0.70681912
0.0061934078 0.035784155 0.70616037
0.0043722172 0.042338371 0.70667791
0.0023007444 0.046473097 0.70665234
-0.0096874898 -0.040480003 0.70707953
0.020071177 -0.0373739 0.70711476
0.020071177 -0.0373739 0.70711476
0.0090355258 -0.018418387 0.70782232
0.0090355258 -0.018418387 0.70782232
-0.0013870869 -0.005548358 0.707461
-0.0013870869 -0.005548358 0.707461
-0.0024318884 -0.0045160279 0.70776093
0.0069286856 -0.0041571856 0.70729798
-0.0041680327 0.018061489 0.70773345
0.0045027426 0.044329897 0.70724636
-0.0096943602 0.048471808 0.70719802
0.00034782838 0.049642861 0.70764732
-0.010462543 -0.038362652 0.70841682
0.007678282 -0.011517256 0.70854306
0.0090551404 -0.0076620281 0.70818663
0.0034809182 -0.0041770637 0.70809835
-0.016022947 -0.0034832358 0.70821083
0.013238789 -0.0006967783 0.70824194
-0.0076739364 0.0024419576 0.70844769
-0.0027903027 0.003487885 0.70843446
-0.01640166 0.0083751231 0.70851922
0 0.02441752 0.70845068
0 0.02441752 0.70845068
0.0020924413 0.042546302 0.70841146
-0.011519674 0.048520423 0.70857024
0.0041784076 0.048748076 0.70815092
-0.0020984057 0.051061183 0.70889145
-0.0020984057 0.051061183 0.70889145
-0.0020984057 0.051061183 0.70889145
0.010506114 -0.01330775 0.70911813
-0.0049001863 0.0014000833 0.7090261
0.0070182513 0.0035091639 0.70946032
0.0070182513 0.0035091639 0.70946032
-0.0034995971 0.0055993795 0.70900029
-0.0035002176 0.0063004196 0.70903015
-0.0075028278 0.0072685583 0.70984292
-0.0063361865 0.0070402622 0.70999038
0.0024622697 0.024621144 0.70985514
-0.012656576 0.036563486 0.70977849
-0.011905058 0.038516372 0.70909154
-0.013305707 0.040617436 0.70909214
-0.012641023 0.041434467 0.70956993
-0.013363505 0.043607235 0.70982665
-0.012641432 0.050565749 0.70957536
0.0169596 0.0024736077 0.71062517
0.006341686 0.0063417256 0.7101379
-0.017662212 0.0077713728 0.71058613
0.0056562098 0.0095447749 0.71071595
-0.019105099 0.022643089 0.71085364
-0.0074301818 0.022644356 0.71086299
-0.0084815864 0.036753535 0.71066111
-0.012685429 0.046513259 0.7101655
-0.012674632 0.047177821 0.71002072
-0.01345337 0.051689267 0.71096849
-0.01345337 0.051689267 0.71096849
0.0042494722 0.0084989667 0.71101028
-0.0092200264 0.017376393 0.7112487
0.0014241774 0.018514305 0.71193814
-0.0063873832 0.020581573 0.71136373
0.00035537145 0.038343921 0.71145147
-0.0014168546 0.04817304 0.71105421
-0.00070921553 0.048581064 0.71124452
-0.012752314 0.052426189 0.71106255
-0.0074382666 0.053839386 0.71105075
-0.0092148902 0.054580539 0.71115333
-0.012130069 -0.033536047 0.71228695
-0.0093116928 -0.030800194 0.712951
0.032585874 -0.011458755 0.71292394
0.018585151 0.0014296174 0.712596
0.013553017 0.012126386 0.71223468
0.0024987871 0.018560857 0.71237022
0.0014302684 0.022526681 0.71267343
-0.011418411 0.035682529 0.71231532
-0.011418411 0.035682529 0.71231532
-0.020658024 0.047014832 0.71200019
-0.014737094 0.054669153 0.7121765
-0.015732145 0.05542019 0.7126646
-0.010754947 -0.029396832 0.71312302
-0.010423654 -0.026598334 0.71357644
-0.012588769 -0.024457604 0.71368933
0.031583689 -0.0086137354 0.71331966
0.032343797 -0.0075467527 0.71354663
0.032343797 -0.0075467527 0.71354663
-0.01434206 -0.0057368279 0.71314871
0.018013151 0.0086463392 0.71397513
-0.010419218 0.031616867 0.71350175
-0.010419218 0.031616867 0.71350175
0.0021615962 0.034585565 0.71397656
-0.01942279 0.036687493 0.71369421
-0.019423835 0.039567113 0.71370357
-0.019425042 0.042447329 0.71371436
-0.018633757 0.043717682 0.71304733
-0.00071860681 0.05533275 0.71351177
-0.016498407 0.05666849 0.71320158
-0.013485901 -0.020469656 0.71444273
-0.011595745 -0.017393619 0.71499103
0.019554034 -0.00072422624 0.71486777
0.016661415 0.015574992 0.71491265
0.013023861 0.028218359 0.71470463
0.00048121694 0.031508993 0.71422952
0.017483689 -0.022583067 0.71589708
-0.012382514 -0.011654139 0.71587205
0.029104456 -0.0087313354 0.71568573
-0.018905742 -0.0054535568 0.71557283
-0.018927647 -0.0036399364 0.71577621
0.024738271 -0.0014551878 0.71568203
0.017420437 0.015606031 0.71526074
0.017420437 0.015606031 0.71526074
-0.022594372 0.045188785 0.71598488
-0.021125948 0.051722169 0.71589559
0.016474072 -0.017572582 0.71679139
-0.016072746 -0.0073057711 0.71640223
-0.022707544 -0.0014650226 0.71686625
0.024069037 0.00072935224 0.71610898
0.014606796 0.026292235 0.71634442
0.0025587319 0.056644976 0.71648198
-0.013940127 -0.00036677718 0.71715343
-0.019471971 0.0014695823 0.71741933
-0.015443083 0.0014707744 0.71756232
-0.023516094 0.0025721937 0.71744001
-0.014716295 0.0025754422 0.71766615
-0.019511539 0.0044177324 0.71777976
-0.023574278 0.0055253357 0.717879
-0.019470189 0.0055100173 0.71740329
-0.016136121 0.006601125 0.7170977
0.014669944 0.019070923 0.71710664
0.014669944 0.019070923 0.71710664
0.015432631 0.029395491 0.71744221
0.0029425952 0.05848448 0.71762609
0.015497726 -0.0095938146 0.71819061
-0.022547998 0.0096105933 0.71850181
-0.021441242 0.010350943 0.7185204
-0.020698013 0.034003884 0.71848702
0.014018477 0.035415113 0.71814895
0.0074118888 0.047436118 0.71896362
0.0044359108 0.056188226 0.71851206
0.014108229 0.010395557 0.71928936
-0.018535575 0.011862785 0.71902013
-0.022613615 0.012604356 0.71902204
-0.020398071 0.012609735 0.71909881
-0.016332144 0.013362676 0.71924877
-0.021541532 0.014484972 0.71935534
-0.022326201 0.017488822 0.71969217
-0.024588153 0.018627405 0.71990669
-0.023312693 0.020336052 0.71964431
-0.018559415 0.033406973 0.71925032
0.011174325 0.041717499 0.71987277
-0.023841115 0.042466998 0.71989208
0.011165085 0.048382044 0.71972412
-0.023755239 0.049737543 0.71924418
-0.025396856 0.021662056 0.72035843
-0.025464408 0.024715483 0.72083807
0.0097449189 0.038979679 0.72099644
0.010465517 0.041488409 0.72049612
0.009742775 0.044217259 0.72095656
0.009742775 0.044217259 0.72095656
-0.022496624 0.025496155 0.72106361
-0.022496624 0.025496155 0.72106361
-0.023305256 0.028567731 0.72152108
-0.019591913 0.030518308 0.72194421
-0.019591913 0.030518308 0.72194421
-0.023309795 0.033836812 0.72155648
-0.024817519 0.043618709 0.72158474
-0.02643846 0.03474769 0.72239077
-0.02643846 0.03474769 0.72239077
-0.025699031 0.043460906 0.72250402
0.011422847 0.033507019 0.72387272
-0.025291573 0.04046635 0.72320175
0.010699147 0.035536498 0.72452492
0.0068665892 -0.055182826 0.69503611
0.013037238 -0.055129796 0.69576854
0.0069399183 -0.049386367 0.69588035
-0.00097806938 -0.060936995 0.69736761
0.0031876098 -0.043199867 0.69709456
0.0069997511 -0.040857911 0.69722068
0.01507579 -0.0450917 0.69894797
-0.0011222931 -0.043051828 0.69850618
-0.0011559648 -0.033006072 0.69939405
0.0034904059 -0.029108156 0.69901538
0.005005091 -0.02904194 0.69901365
0.0019672909 0.003934592 0.69834006
0.019130476 -0.050652128 0.70066416
0.019130476 -0.050652128 0.70066416
-0.005001965 -0.049011789 0.70101231
0.013936391 -0.036997303 0.70024109
-0.003654093 -0.035042088 0.70040268
0.00099554262 -0.021078845 0.70030618
0.0068949643 -0.019126847 0.70110875
0.0068949643 -0.019126847 0.70110875
0.0048474474 -0.00066859275 0.70144284
-0.0033229999 0.0003323406 0.70047343
0.0079915095 0.0071590021 0.70080149
0.0050200159 0.014894221 0.70163089
-0.0028005796 0.024940012 0.70101464
-0.0064173043 -0.055043098 0.70307595
-0.0069228066 -0.042956579 0.70302451
0.018896472 -0.043019317 0.70293897
0.005369558 -0.012081504 0.70206553
-0.0040439791 -0.010109901 0.70274186
-0.0062747099 -0.0069528818 0.70378709
0.0074213315 0.0087692942 0.70290369
-0.0030347549 0.010453776 0.70285255
0.010088796 0.010930173 0.70240152
0.017510667 -0.032859087 0.70472306
0.017147062 -0.031011835 0.70493543
0.015433301 -0.025197079 0.70488185
-0.0034185885 -0.011623204 0.70508879
0.0054524895 -0.0013630986 0.70456827
0.0023980727 0.011643842 0.70538193
-0.0040905545 0.020452797 0.70461595
-0.0092351176 0.023714315 0.7051751
-0.0092351176 0.023714315 0.7051751
-0.0090368073 0.025029242 0.70519733
-0.0090368073 0.025029242 0.70519733
-0.013604423 0.03894297 0.70424461
-0.0068583107 0.039778203 0.70559907
-0.0069786729 0.047148608 0.70439482
-0.015281767 0.048936006 0.70583737
-0.0069889557 0.048923805 0.70464033
-0.0083075743 -0.055038035 0.70716023
-0.0090073673 -0.048847854 0.70729947
-0.0032161369 -0.0227411 0.70639777
0.0117695 -0.019039407 0.70716643
0.0030087531 -0.0027788978 0.70768517
-0.013149033 0.014533162 0.70710146
-0.015561124 0.022130728 0.7069881
-0.01123761 -0.034942701 0.70958722
-0.0098221796 -0.016837984 0.70940214
0.010715447 -0.015025422 0.70875216
-0.016459968 -0.0045524389 0.70910567
-0.006847742 0.0050928034 0.70960021
-0.0083961692 0.0069974563 0.70894265
0.004178056 0.024372011 0.70813668
-0.0062955702 0.032526314 0.70890087
0.0027983112 0.036901191 0.7089178
0 0.039393872 0.7098555
-0.0042125005 0.045284614 0.70952272
-0.013220862 0.049247772 0.70890766
0.0034848312 0.051053315 0.70828724
-0.0085294032 -0.027720571 0.71162313
0.0051184404 0.0051186085 0.71046138
-0.0076202997 0.0363269 0.71115077
-0.010972075 0.053180635 0.71092355
-0.0088605406 0.054580972 0.7111547
-0.010810002 -0.030855453 0.71286041
-0.0089544421 -0.029010721 0.71295834
0.030962314 -0.0050400943 0.71386099
-0.001426727 0.053502291 0.71224594
-0.012931325 -0.011292078 0.7159071
-0.016903788 -0.0065437406 0.71555883
0.023367159 -0.0046009421 0.71540612
0.027513217 0.00072333217 0.71482152
0.016979503 0.013005715 0.71445608
0.015577528 0.017147701 0.71494478
-0.021830719 0.022558421 0.7157048
0.011022556 0.025295094 0.714504
-0.021033958 0.049321026 0.71512979
0.018525315 -0.021328261 0.71656674
-0.016072746 -0.0073057711 0.71640223
0.020862978 -0.0032941997 0.71675265
-0.018881053 -0.0010997243 0.7170462
-0.013563395 0.0010082386 0.71701729
0.024069037 0.00072935224 0.71610898
-0.02097749 0.0049680956 0.71772242
-0.01467645 0.016144097 0.71718514
0.015309718 0.023329109 0.71602917
-0.02275542 0.049181074 0.71723908
0.0068402905 0.049592942 0.71696568
0.0068402905 0.049592942 0.71696568
0.02902835 -0.010420412 0.71971869
0.014108229 0.010395557 0.71928936
0.014108229 0.010395557 0.71928936
0.012931289 0.038885396 0.71841323
0.014568275 0.0070975497 0.72039104
-0.026590966 0.025093064 0.72085953
-0.023156157 0.034360796 0.72035992
0.010458347 0.046688735 0.7203725
0.010458347 0.046688735 0.7203725
-0.027019713 0.036857013 0.72270381
0.0106778 0.031270713 0.7241568
0.0094131818 -0.050505754 0.69584966
0.0094131818 -0.050505754 0.69584966
0.0060274247 -0.041892104 0.69705379
0.020283442 -0.047213987 0.70325327
0.0023165597 -0.02914102 0.70278442
0.0023165597 -0.02914102 0.70278442
0.0081323935 0.020839758 0.70363593
0.0030485967 0.026339838 0.70360231
0.023188766 -0.054044999 0.70589209
0.019705553 -0.041680276 0.70454252
-0.0081572933 -0.031949371 0.70413685
-0.0081572933 -0.031949371 0.70413685
-0.0016470596 -0.018108014 0.70622003
-0.0057580872 -0.013945043 0.70702749
0.0011539756 -0.0084958579 0.70634556
-0.013932092 -0.0044855205 0.70654619
0.012485694 -0.0071092099 0.70748657
-0.013706105 -0.0024003014 0.70541501
-0.0020777113 0.0029425845 0.70722604
-0.0022988163 0.0056343875 0.70636868
-0.014328003 0.0096120443 0.70602655
-0.010618745 -0.012742519 0.71093088
0.016343474 -0.00071057677 0.71157539
-0.015463924 0.02899044 0.70972121
-0.0018034463 0.038325261 0.71047044
-0.012990436 0.042045459 0.70955014
-0.0042196913 0.046652418 0.70981205
-0.013340047 0.050619908 0.71010119
0.011621195 0.011621207 0.71537507
-0.014436061 0.017138191 0.71428341
0.002064534 0.021957409 0.7124933
-0.0075699873 0.034032144 0.71269369
-0.018429082 0.038016718 0.7127893
0.0056943255 0.050466858 0.71497524
-0.0042763362 0.055592358 0.71209127
0.0054383972 0.052202478 0.71506345
-0.01442496 0.0058120587 0.71708822
0.013424814 0.037791461 0.71841758
0.013424814 0.037791461 0.71841758
-0.022496365 0.054142408 0.71773875
-0.022496365 0.054142408 0.71773875
0.0028283771 0.058227826 0.71750259
0.026105437 -0.0067128241 0.72009361
0.012512929 0.030538078 0.72131222
-0.025711888 0.038088549 0.72262502
