# .PCD v0.7 - Point Cloud Data file format
VERSION 0.7
FIELDS x y z
SIZE 4 4 4
TYPE F F F
COUNT 1 1 1
WIDTH 1336
HEIGHT 1
VIEWPOINT 0 0 0 1 0 0 0
POINTS 1336
DATA ascii
0.0056402567 -0.010575473 0.71023452
0.00562642 -0.01125282 0.70981699
0.0056071943 -0.011915296 0.7092368
0.0055845072 -0.012565136 0.70855218
0.0055615352 -0.013208628 0.70785892
0.005567662 -0.013919115 0.70804381
0.0055881445 -0.014668882 0.70866191
0.0056104311 -0.015428692 0.70933449
0.0061545013 -0.017694175 0.72575331
0.0061714444 -0.018514305 0.7262646
0.0061884811 -0.019338965 0.72677869
0.0062056123 -0.020168185 0.72729564
0.0062152972 -0.020976603 0.72758794
0.0062401607 -0.021840543 0.72833824
0.006244394 -0.022635877 0.72846597
0.0062751239 -0.023531705 0.7293933
0.0062929667 -0.024385244 0.72993177
0.0063175946 -0.025270343 0.73067498
0.0056569222 0.053426474 0.69176936
0.0056690434 0.052911103 0.69209456
0.0056906245 0.052480221 0.69267344
0.0057123699 0.052046031 0.69325674
0.005734283 0.051608562 0.69384456
0.0057563856 0.051167905 0.69443744
0.0057767807 0.05070731 0.69498456
0.0057968907 0.050239712 0.69552404
0.0058171414 0.049768895 0.69606721
0.0058375341 0.04929477 0.69661427
0.0058580702 0.048817217 0.69716513
0.0058787516 0.048336446 0.69771993
0.0050471211 0.040937781 0.6754117
0.0050138151 0.040110558 0.67451829
0.0049985885 0.03943336 0.67410982
0.0049908822 0.038817972 0.67390317
0.0049887486 0.038247108 0.67384589
0.0049911053 0.037710577 0.67390919
0.0049975659 0.037204117 0.6740824
0.005005341 0.036705822 0.67429101
0.0050131399 0.036206037 0.67450023
0.0050209635 0.035704643 0.67471004
0.0050288117 0.035201699 0.67492056
0.0050366842 0.034697175 0.6751318
0.0050445977 0.034191221 0.67534405
0.0050515397 0.033676922 0.67553025
0.0050599421 0.03317073 0.67575562
0.0050643999 0.032637268 0.67587519
0.0050637275 0.032070279 0.67585719
0.0050732074 0.03156665 0.67611146
0.0050778701 0.03103146 0.67623663
0.0050723189 0.030433923 0.67608768
0.005045753 0.029713899 0.67537504
0.0050076172 0.028932899 0.67435205
0.004971317 0.028170824 0.67337835
0.0049531911 0.027517736 0.67289209
0.00494722 0.026934862 0.67273194
0.0049478463 0.026388496 0.67274874
0.0049542426 0.025872171 0.67292035
0.0049648136 0.025375724 0.67320389
0.0049761585 0.024880826 0.67350817
0.0049876347 0.024383992 0.67381603
0.0049991477 0.023884863 0.6741249
0.0050107301 0.023383409 0.67443556
0.005022754 0.022881448 0.67475808
0.0050369762 0.022386581 0.67513961
0.0050554597 0.021907002 0.67563546
0.0050930204 0.021503866 0.67664301
0.005145242 0.021152705 0.67804372
0.0051985453 0.020794213 0.67947358
0.005252982 0.02042827 0.68093389
0.0052991263 0.020018905 0.6821717
0.0053240624 0.019521534 0.68284059
0.0053453022 0.019005507 0.68341035
0.0054456242 0.018757164 0.68610144
0.0055429973 0.018476665 0.68871343
0.0055818004 0.017985821 0.68975431
0.0056102998 0.017454296 0.6905188
0.0056345193 0.016903579 0.69116843
0.0056566359 0.016341388 0.69176173
0.0056770709 0.015769631 0.69230992
0.0056962427 0.015190005 0.69282418
0.0057138521 0.014602065 0.69329655
0.0057314453 0.014010221 0.6937685
0.0057461467 0.013407677 0.69416279
0.0057533779 0.012785286 0.6943568
0.0057531237 0.012145519 0.69435
0.0057445848 0.011489183 0.69412088
0.0057224887 0.010809183 0.69352823
0.0056885127 0.010112941 0.69261682
0.0056549376 0.0094249249 0.69171619
0.0056217364 0.0087449551 0.69082552
0.0055867461 0.0080697834 0.68988699
0.0055488194 0.0073984265 0.6888696
0.0055065132 0.0067301989 0.68773472
0.0054702004 0.0060780346 0.68676066
0.0054763504 0.0054763854 0.68692565
0.0054915254 0.004881382 0.68733275
0.0055079293 0.0042839348 0.68777275
0.0055252905 0.003683567 0.68823844
0.005542879 0.0030793846 0.68871021
0.0055607189 0.002471447 0.68918878
0.0055792709 0.0018597543 0.68968642
0.0055980072 0.0012440383 0.690189
0.0056168698 0.00062415004 0.69069505
0.0056358394 2.9802322e-08 0.69120389
0.0056549581 -0.00062832236 0.69171679
0.0056741661 -0.0012609065 0.69223195
0.0056935046 -0.0018978119 0.69275069
0.0057129543 -0.0025390983 0.69327247
0.005732622 -0.0031847954 0.69380003
0.0057556652 -0.0038371086 0.69441813
0.0058300686 -0.0045344532 0.69641399
0.0059414096 -0.0052812696 0.69940066
0.0060542715 -0.0060542226 0.7024281
0.0061942418 -0.0068824887 0.70618272
0.0063291588 -0.0077356398 0.70980191
0.0064086672 -0.0085449219 0.71193469
0.0064099547 -0.0092588067 0.7119692
0.0063979682 -0.0099523962 0.71164763
0.0063791228 -0.010631859 0.71114212
0.0063557085 -0.011299044 0.71051413
0.0063270847 -0.011951149 0.70974624
0.0062966626 -0.012593329 0.70893019
0.0062663057 -0.013228863 0.70811582
0.0062677623 -0.013928354 0.70815492
0.0062921015 -0.014681548 0.70880789
0.0063167838 -0.01544103 0.70946997
0.0068976083 -0.017627239 0.72505033
0.0069247955 -0.018466085 0.72577959
0.006950282 -0.019306332 0.72646326
0.0069694584 -0.020134002 0.72697771
0.0069888029 -0.020966381 0.72749662
0.0070081921 -0.02180326 0.72801667
0.0070286058 -0.022647738 0.72856426
0.0070604384 -0.023534775 0.72941816
0.0063093454 0.053629458 0.69234586
0.0063248496 0.053128779 0.69272017
0.0063488171 0.052695215 0.69329876
0.0063716355 0.052247405 0.69384968
0.0063936068 0.051788211 0.6943801
0.0064149243 0.051319391 0.69489473
0.0064372192 0.050854027 0.69543296
0.0064596934 0.050385654 0.69597554
0.0064823255 0.049913913 0.69652188
0.0065051164 0.049438894 0.69707215
0.0065280683 0.048960537 0.69762623
0.0065511828 0.048478782 0.69818425
0.0065744612 0.0479936 0.69874626
0.0055766101 0.040151596 0.67465603
0.0055516264 0.039416552 0.67405289
0.0055388124 0.038771689 0.67374355
0.0055331145 0.038178474 0.67360598
0.0055326391 0.037621945 0.67359447
0.005538071 0.037105113 0.67372561
0.0055473899 0.036612779 0.67395055
0.0055562784 0.036115825 0.67416519
0.0055649281 0.035615563 0.67437398
0.0055736043 0.035113722 0.67458349
0.0055823079 0.034610331 0.6747936
0.0055910568 0.03410545 0.67500478
0.0055999234 0.033599555 0.67521882
0.0056093791 0.03309539 0.67544717
0.0056177047 0.0325827 0.67564809
0.0056205033 0.032036901 0.67571568
0.0056254901 0.031502783 0.67583609
0.0056347037 0.030990869 0.67605853
0.00563474 0.030427605 0.67605942
0.0056209397 0.029790998 0.67572623
0.005579798 0.029014975 0.67473298
0.0055378415 0.028242975 0.67372012
0.0055068773 0.027534425 0.67297256
0.0054957462 0.02692917 0.6727038
0.0054936782 0.026369661 0.67265391
0.0054988945 0.025844812 0.6727798
0.0055084312 0.025338829 0.67301005
0.0055210702 0.024844825 0.67331517
0.0055339253 0.024349272 0.67362553
0.0055489135 0.023860335 0.67398739
0.0055676387 0.023384094 0.67443943
0.0056011872 0.022964865 0.6752494
0.0056580273 0.022632122 0.67662162
0.0057160323 0.022292554 0.67802197
0.0057752589 0.021945983 0.67945182
0.0058307704 0.021573871 0.68079203
0.0058622099 0.021103978 0.68155104
0.0058855242 0.020599306 0.68211389
0.0059056911 0.020079345 0.68260074
0.0059239753 0.019549161 0.68304217
0.0059405244 0.01900968 0.6834417
0.0061719697 0.019133121 0.68902934
0.0062020668 0.018606216 0.68975592
0.0062273429 0.018059283 0.69036615
0.0062501943 0.017500579 0.69091779
0.0062716058 0.016933322 0.69143474
0.0062913187 0.016357452 0.69191062
0.0063104224 0.015776098 0.69237185
0.0063293888 0.015190572 0.69282967
0.006348446 0.014601439 0.69328982
0.0063669886 0.014007419 0.69373751
0.0063841152 0.013406664 0.69415092
0.0063949008 0.012789786 0.69441134
0.0063976324 0.012155503 0.69447732
0.0063914428 0.011504591 0.69432783
0.0063710748 0.010830849 0.69383609
0.0063346508 0.010135442 0.69295681
0.0062953308 0.0094430149 0.69200748
0.0062542213 0.0087559521 0.69101501
0.0062073846 0.0080696344 0.68988431
0.0061545656 0.0073854923 0.68860912
0.0060911481 0.0067003071 0.68707806
0.0060675777 0.006067574 0.68650901
0.0060815746 0.0054734349 0.68684697
0.0061007091 0.0048806071 0.68730891
0.0061200722 0.004284054 0.68777639
0.006139949 0.0036839843 0.6882562
0.0061603705 0.003080219 0.68874931
0.0061809062 0.0024723709 0.68924505
0.0062016016 0.0018604994 0.68974465
0.0062223915 0.0012444854 0.69024658
0.0062432988 0.00062432885 0.69075131
0.0062643695 -0 0.69126004
0.0062855603 -0.00062856078 0.69177163
0.0063068946 -0.0012613535 0.69228667
0.0063291583 -0.0018987358 0.69282418
0.0063615334 -0.0025445819 0.69360578
0.0064759948 -0.0032379925 0.69636911
0.0065836045 -0.003950119 0.69896704
0.0066319578 -0.0046423972 0.7001344
0.0066808714 -0.0053446889 0.70131528
0.0070247496 -0.0063222647 0.70961726
0.0071712374 -0.0071712136 0.71315372
0.0071947877 -0.0079142153 0.71372229
0.0071863355 -0.0086236 0.71351826
0.0071683377 -0.0093188286 0.71308374
0.0071426979 -0.0099997818 0.71246469
0.0071125207 -0.010668755 0.7117362
0.0070793363 -0.011326909 0.71093512
0.0070441174 -0.01197499 0.7100848
0.007008851 -0.012615949 0.7092334
0.0069728731 -0.013248444 0.70836484
0.0069729011 -0.013945788 0.7083655
0.0070008584 -0.014701813 0.7090404
0.0070304633 -0.015467018 0.70975518
0.0076673236 -0.017634839 0.72513032
0.0076883263 -0.018451959 0.72563738
0.0076931948 -0.019232959 0.72575492
0.007730748 -0.020099968 0.72666156
0.0077544879 -0.020937115 0.7272346
0.0078039845 -0.021851122 0.72842962
0.0069665411 0.053832412 0.69292217
0.0069818115 0.053315669 0.69325733
0.0070066149 0.052868098 0.6938017
0.0070298626 0.052404463 0.69431192
0.0070532914 0.051937908 0.69482619
0.0070768506 0.051468074 0.6953432
0.0071014646 0.051001459 0.69588339
0.0071263304 0.050532162 0.69642913
0.0071513704 0.050059617 0.69697869
0.0071765874 0.049583703 0.69753218
0.0072019831 0.049104452 0.69808948
0.0072258371 0.048610181 0.69861305
0.0072485302 0.048103899 0.6991111
0.0072713657 0.047594428 0.69961226
0.0061086044 0.039428264 0.67409271
0.0060878219 0.038740695 0.67363656
0.0060780635 0.038126051 0.67342246
0.0060753007 0.03755644 0.67336178
0.0060782763 0.037022263 0.6734271
0.0060859998 0.036516011 0.67359662
0.0060958029 0.036020637 0.67381179
0.0061061648 0.035526812 0.67403913
0.0061156615 0.035026073 0.67424762
0.0061583077 0.034710467 0.67518359
0.0061991792 0.034377277 0.67608058
0.0061543016 0.033568949 0.67509568
0.0061576725 0.03302756 0.67516965
0.0061689429 0.032527149 0.67541701
0.0061754612 0.032000124 0.67556006
0.0061754016 0.03143838 0.67555875
0.0061877184 0.030938596 0.67582905
0.0061940555 0.03040719 0.67596811
0.0061878986 0.029814422 0.67583305
0.0061552133 0.029097378 0.67511564
0.0061087995 0.028322637 0.67409694
0.0060657556 0.027571648 0.67315227
0.0060457224 0.026930958 0.67271262
0.0060399519 0.026356161 0.67258596
0.0060420712 0.025816143 0.67263252
0.0060523851 0.02530998 0.67285889
0.0060716528 0.024838567 0.67328173
0.0061002588 0.024401039 0.67390954
0.0061603524 0.024081409 0.67522848
0.0062228772 0.02376011 0.67660069
0.0062866639 0.023432106 0.67800069
0.0063517499 0.023097277 0.67942917
0.006389786 0.022654712 0.68026394
0.0064166468 0.02216661 0.68085343
0.0064395438 0.021660298 0.68135595
0.0064602238 0.021142572 0.68180984
0.0064780926 0.020612121 0.68220204
0.0064954427 0.020076811 0.68258286
0.0065124203 0.01953727 0.68295544
0.0065294863 0.018994898 0.68333
0.0065524331 0.018465966 0.6838336
0.0068358411 0.01864323 0.69005364
0.0068582632 0.01808089 0.6905458
0.0068789008 0.017509937 0.69099867
0.0068994137 0.016934961 0.69144893
0.0069200997 0.016356587 0.69190294
0.0069407839 0.015774518 0.69235688
0.0069616176 0.015188992 0.69281417
0.0069825514 0.01459989 0.6932736
0.0070026354 0.014005274 0.69371438
0.007023972 0.013409436 0.69418263
0.0070382771 0.012796909 0.69449657
0.0070427642 0.012164801 0.6945951
0.0070372922 0.011515588 0.69447505
0.0070177559 0.010845631 0.6940462
0.0069788285 0.010151029 0.69319189
0.0069274744 0.0094465911 0.69206476
0.0068710851 0.0087450743 0.69082719
0.006804565 0.0080417693 0.68936723
0.0067061642 0.0073158145 0.68720764
0.0066571315 0.0066571534 0.68613148
0.0066689793 0.006062746 0.68639147
0.0066900835 0.0054737031 0.68685466
0.006712053 0.0048815012 0.6873368
0.0067342143 0.0042854548 0.68782318
0.0067564989 0.0036853552 0.68831229
0.0067789075 0.0030813515 0.68880415
0.0068014651 0.0024732649 0.68929923
0.0068241977 0.001861155 0.68979812
0.0068470584 0.0012449324 0.69029987
0.0068700728 0.00062456727 0.69080496
0.0068935156 2.9802322e-08 0.69131947
0.0069194483 -0.00062903762 0.69188857
0.006991006 -0.0012710989 0.69345915
0.0071215765 -0.0019422174 0.69632483
0.0072262469 -0.0026277006 0.69862205
0.0072557405 -0.0032980442 0.69926935
0.0072889766 -0.0039757788 0.69999886
0.0073212283 -0.0046589375 0.70070666
0.0078903148 -0.0057384372 0.71319664
0.0079860995 -0.00653404 0.71529883
0.007987869 -0.0072616637 0.71533763
0.0079718418 -0.0079718232 0.71498591
0.007947145 -0.008669585 0.71444392
0.0079166265 -0.0093559921 0.71377409
0.0078802621 -0.010029376 0.71297598
0.0078411391 -0.010692418 0.71211731
0.0078013204 -0.011347353 0.71124339
0.0077604856 -0.011993468 0.71034724
0.0077197957 -0.01263237 0.70945418
0.0076785735 -0.013262987 0.70854944
0.0076815672 -0.013966471 0.70861518
0.0077142487 -0.014727205 0.70933241
0.0077496287 -0.015499234 0.71010894
0.0084198983 -0.017605215 0.72481954
0.0084429616 -0.018420994 0.72532576
0.0084708044 -0.019251823 0.72593689
0.0076284497 0.054034859 0.6934973
0.0076402193 0.053481549 0.69373411
0.0076655573 0.05302012 0.69424385
0.0076910933 0.052555799 0.69475758
0.0077167717 0.052088231 0.69527417
0.0077426503 0.051617712 0.69579488
0.007769601 0.051149875 0.69633704
0.0077968854 0.050679773 0.696886
0.0078223655 0.050193518 0.69739854
0.007846714 0.049695849 0.69788849
0.0078712432 0.04919529 0.6983819
0.0078959269 0.048691571 0.69887853
0.0079207662 0.048184693 0.69937825
0.007945762 0.047674596 0.69988114
0.006676395 0.039501995 0.67434341
0.0066398648 0.038732588 0.67360848
0.0066243368 0.038089931 0.67329609
0.0066180285 0.03750217 0.6731692
0.0066180704 0.036950916 0.67317003
0.0066250316 0.03643769 0.6733101
0.0066350889 0.035940081 0.67351246
0.0066460879 0.035445839 0.67373371
0.0067889248 0.035641849 0.67660737
0.0081955492 0.042343676 0.70490646
0.0067892564 0.034512073 0.67661405
0.0067341686 0.033670872 0.67550576
0.0067044348 0.032963485 0.67490757
0.0067166602 0.032463878 0.67515349
0.0067274105 0.031955212 0.6753698
0.0067316028 0.031414151 0.67545414
0.0067386744 0.030885607 0.67559636
0.0067501944 0.030375868 0.67582822
0.0067509157 0.029816568 0.67584264
0.0067326678 0.029174894 0.6754756
0.0066846577 0.028409809 0.67450964
0.0066496702 0.027706951 0.67380583
0.0066232425 0.027044922 0.67327404
0.0066096149 0.026438475 0.67299992
0.0066121514 0.025897622 0.67305094
0.0066525349 0.0255014 0.67386341
0.0067193448 0.025197566 0.67520756
0.0067780213 0.024852753 0.67638803
0.0068570734 0.02457118 0.6779784
0.00690783 0.024177402 0.6789996
0.0069384528 0.023706377 0.67961562
0.0069641564 0.023213863 0.68013275
0.0069865137 0.022706181 0.68058252
0.0070064478 0.022187114 0.6809836
0.0070254067 0.021661669 0.68136501
0.0070436117 0.02113086 0.68173128
0.0070619113 0.020597249 0.68209946
0.0070803063 0.020060867 0.68246955
0.0070987977 0.019521683 0.6828416
0.0071173855 0.018979698 0.6832155
0.0071371216 0.018437564 0.68361253
0.0074576815 0.018644214 0.69006169
0.007480802 0.018078595 0.6905269
0.0075028511 0.017506689 0.69097042
0.0075259539 0.016933411 0.69143528
0.0075484072 0.016354918 0.69188696
0.0075709946 0.015772909 0.69234145
0.00759369 0.015187383 0.69279802
0.0076163267 0.014597982 0.6932534
0.0076395194 0.01400578 0.69371998
0.007661867 0.013408303 0.69416964
0.0076776682 0.012796134 0.69448751
0.0076835817 0.012165695 0.69460654
0.007676594 0.011514932 0.69446594
0.0076577021 0.010848433 0.69408584
0.0076092659 0.010145694 0.69311136
0.0075384448 0.0094230473 0.69168651
0.0072090616 0.008410573 0.68505991
0.0072155739 0.0078169107 0.68519086
0.0072313417 0.0072313547 0.68550813
0.0072533302 0.0066489279 0.68595052
0.0072770021 0.0060642064 0.6864267
0.0073008547 0.0054756403 0.68690664
0.0073248376 0.0048832297 0.68738908
0.0073489794 0.0042869151 0.68787485
0.0073733069 0.0036866665 0.68836427
0.0073977695 0.0030824244 0.68885636
0.0074223951 0.002474159 0.6893518
0.0074472916 0.0018618405 0.68985271
0.0074728113 0.0012454689 0.69036615
0.0075060925 0.00062552094 0.69103575
0.0076244045 -0 0.693416
0.0077667641 -0.00064721704 0.69627994
0.0078970036 -0.00131616 0.69890022
0.007918871 -0.0019797087 0.69934016
0.0079239272 -0.0026413202 0.69944179
0.0079366872 -0.0033069551 0.69969857
0.007963608 -0.0039817989 0.70024019
0.00799157 -0.0046617091 0.70080274
0.0087410389 -0.0058273077 0.71588081
0.0087580765 -0.0065685511 0.7162236
0.0087578557 -0.0072982013 0.71621919
0.0087376311 -0.0080094635 0.71581233
0.0086993854 -0.0086993575 0.71504289
0.0086574797 -0.0093789399 0.71419978
0.0086128088 -0.010048211 0.71330106
0.0085668704 -0.01070857 0.71237689
0.0085209319 -0.011361241 0.71145266
0.0084730033 -0.012003392 0.71048838
0.0084239431 -0.012635887 0.70950139
0.0083828904 -0.013272882 0.70867544
0.008399101 -0.013998508 0.7090016
0.0084377509 -0.014766037 0.7097792
0.0084777931 -0.015542567 0.71058476
0.0091787931 -0.017592669 0.72468781
0.008295021 0.05423671 0.69407058
0.0082995016 0.05362758 0.69415379
0.0083273174 0.053166747 0.69467032
0.0083553204 0.052702785 0.69519037
0.0083832322 0.052233964 0.69570869
0.0084100151 0.051753968 0.69620609
0.0084358361 0.051263958 0.69668561
0.0084619746 0.050771862 0.69717097
0.0084883068 0.050276905 0.69766003
0.0085148038 0.049778849 0.69815212
0.0085414667 0.049277723 0.6986472
0.0085682971 0.048773408 0.69914556
0.0085952962 0.048265904 0.69964695
0.0086224666 0.047755241 0.7001515
0.0086498093 0.0472413 0.70065928
0.0071990103 0.03876394 0.67371666
0.0071738348 0.03807652 0.67324913
0.0071627321 0.037466586 0.67304295
0.0071597123 0.036900043 0.67298687
0.0071635274 0.036368668 0.67305773
0.0071732877 0.035866439 0.67323893
0.0071855658 0.035375118 0.67346698
0.0088590095 0.042932153 0.70454431
0.0088846935 0.04237318 0.70502132
0.0089105275 0.04181096 0.70550102
0.007317544 0.033773273 0.67591798
0.0072584697 0.032942325 0.67482084
0.0072638853 0.032408118 0.67492151
0.0072779297 0.031910926 0.67518222
0.0072863121 0.03138721 0.67533791
0.0072878636 0.030833274 0.67536676
0.007302945 0.030335307 0.67564678
0.0073101781 0.029803038 0.67578113
0.0073026381 0.029210567 0.67564118
0.0072650774 0.028501451 0.67494357
0.007239067 0.027842611 0.67446053
0.007229358 0.027249157 0.67428023
0.0072329002 0.0267061 0.67434603
0.0072640725 0.026262432 0.67492491
0.0073006554 0.02583313 0.67560428
0.0073416154 0.025413275 0.67636496
0.0074444111 0.025196493 0.67827398
0.0074791955 0.024738908 0.67891991
0.0075035715 0.024242312 0.67937267
0.0075258492 0.023735404 0.67978632
0.0075463681 0.023219615 0.68016744
0.0075657824 0.022697359 0.68052793
0.0075852713 0.022172332 0.6808899
0.0076048607 0.021644622 0.68125367
0.0076245521 0.021114171 0.68161935
0.0076443455 0.020580947 0.68198693
0.0076642414 0.020044953 0.68235642
0.0076847384 0.019507438 0.68273705
0.007705871 0.018968344 0.68312949
0.0077270935 0.01842615 0.68352365
0.0080715036 0.018626571 0.68991959
0.0081025455 0.01807493 0.69049609
0.0081280889 0.017506689 0.69097042
0.0081522334 0.016931564 0.69141889
0.0081765521 0.01635313 0.69187045
0.0082009872 0.015771151 0.69232428
0.0082255378 0.015185624 0.69278014
0.0082483683 0.014593303 0.69320416
0.0082696909 0.013994873 0.69360018
0.0082894806 0.01339069 0.69396764
0.0083064921 0.012779206 0.6942836
0.0083102202 0.012145698 0.69435281
0.0083027054 0.011496097 0.69421327
0.0082775401 0.010824502 0.69374591
0.0077514388 0.0095402598 0.68397576
0.0077644698 0.0089590251 0.68421775
0.007784863 0.0083837211 0.68459642
0.0078096278 0.0078096688 0.68505633
0.0078349859 0.0072323084 0.68552732
0.0078604817 0.0066511929 0.68600076
0.0078861443 0.0060662925 0.68647736
0.0079120016 0.0054775476 0.68695754
0.0079380022 0.0048849285 0.6874404
0.0079641743 0.0042883754 0.68792641
0.0079905475 0.0036879778 0.68841624
0.0080175223 0.0030836761 0.6889171
0.0080460561 0.0024757385 0.68944705
0.008108858 0.0018712878 0.69061333
0.0082574151 0.0012703836 0.69337213
0.0084115816 0.00064703822 0.69623518
0.0085715484 -0 0.69920594
0.0086487494 -0.00066524744 0.70063955
0.0086491462 -0.0013306141 0.70064694
0.0086321887 -0.0019920468 0.70033205
0.0086113876 -0.0026496351 0.69994575
0.0086047603 -0.0033095479 0.69982266
0.0086300448 -0.0039830804 0.70029217
0.0086585963 -0.0046623349 0.70082247
0.0086926213 -0.0053492785 0.70145434
0.0095030852 -0.0065790415 0.71650535
0.0095018065 -0.0073090792 0.71648157
0.009485485 -0.0080261528 0.71617854
0.0094436416 -0.0087172091 0.71540141
0.0093921581 -0.0093921423 0.71444535
0.0093412325 -0.010059774 0.71349961
0.0092888679 -0.010717928 0.71252716
0.0092328591 -0.011363506 0.71148705
0.0091743153 -0.011997133 0.71039981
0.0091142645 -0.012619734 0.70928454
0.0090907123 -0.013286412 0.70884722
0.0091231 -0.014035553 0.7094487
0.0091704782 -0.01481387 0.71032858
0.0089662941 0.054438233 0.69464296
0.0089596547 0.053757936 0.69452846
0.0089888591 0.053291142 0.69503212
0.009017854 0.052818865 0.69553208
0.0090450505 0.052332103 0.69600111
0.0090720402 0.051840276 0.69646651
0.0090997694 0.051348716 0.69694465
0.0091280453 0.050856292 0.69743228
0.0091564981 0.050360739 0.69792289
0.0091850944 0.049861938 0.69841605
0.0092139039 0.049360216 0.69891286
0.0092428951 0.048855335 0.69941276
0.0092720697 0.048347235 0.69991589
0.0093014287 0.047835946 0.70042217
0.0093310103 0.047321558 0.70093226
0.0077739661 0.038869828 0.67408198
0.0077255699 0.038076043 0.67324746
0.0077077961 0.037437886 0.67294091
0.0077012796 0.036856174 0.67282856
0.0077024503 0.036311597 0.67284876
0.0077113393 0.035802633 0.67300206
0.0077238278 0.035308957 0.67321742
0.007737834 0.034820288 0.67345893
0.0095747979 0.042402685 0.70513618
0.0096026575 0.041840166 0.70561665
0.0079045054 0.033876479 0.67633307
0.0078404993 0.033042103 0.67522931
0.0078103123 0.032357007 0.67470878
0.0078253392 0.031860322 0.67496789
0.0078384271 0.031353742 0.67519355
0.0078430269 0.030811936 0.67527288
0.0078537902 0.030293196 0.67545849
0.0078674322 0.029783845 0.67569375
0.0078671779 0.029220939 0.6756894
0.0078449501 0.028578073 0.67530608
0.0078260945 0.027950346 0.67498094
0.0078223441 0.027378231 0.67491621
0.0078336811 0.02685836 0.67511177
0.0078602117 0.02638787 0.67556924
0.007889634 0.025923133 0.67607659
0.0079345461 0.025503904 0.67685109
0.008033582 0.025248438 0.67855889
0.0080582006 0.024750173 0.67898345
0.0080791591 0.024237484 0.67934489
0.0080997944 0.02372086 0.67970073
0.0081205359 0.023201555 0.68005836
0.0081413835 0.022679567 0.6804179
0.0081623383 0.022154897 0.68077928
0.008183402 0.021627545 0.68114251
0.0082047954 0.021098077 0.6815114
0.0082269134 0.020567298 0.68189281
0.008249375 0.020034194 0.68228012
0.0082719875 0.019498289 0.68267006
0.008294696 0.018959343 0.68306172
0.0083175302 0.018417388 0.68345541
0.0083491076 0.01789093 0.68399996
0.0087256925 0.018074691 0.69049394
0.0087523814 0.017504781 0.69095415
0.008778315 0.016929597 0.69140142
0.0088034142 0.016349226 0.69183421
0.0088267997 0.01576215 0.69223744
0.0088484753 0.015168846 0.69261122
0.0088677993 0.014568567 0.69294441
0.008885649 0.013963163 0.69325227
0.008902072 0.013353109 0.69353551
0.0089137191 0.012733907 0.69373637
0.0082821846 0.011240125 0.68284589
0.0082899183 0.010658473 0.68297929
0.0083077857 0.010088056 0.68328738
0.0083325179 0.0095228851 0.68371391
0.0083591789 0.0089562535 0.68417364
0.0083861267 0.0083861053 0.68463832
0.0084132487 0.0078122914 0.68510604
0.0084405756 0.007234782 0.68557727
0.0084680514 0.0066534877 0.68605107
0.0084957071 0.0060683787 0.68652797
0.0085235732 0.0054794252 0.6870085
0.008551864 0.004886806 0.68749636
0.0085807061 0.0042904019 0.68799371
0.0086148968 0.0036920905 0.68858337
0.0087302029 0.0031179488 0.69057167
0.0088901632 0.0025400519 0.69333017
0.0090560289 0.0019405782 0.69619036
0.009228237 0.0013183355 0.69915998
0.0093868989 0.00067052245 0.70189607
0.0094139297 5.9604645e-08 0.70236212
0.0094031207 -0.00067162514 0.70217574
0.0093781045 -0.0013397038 0.70174432
0.0093439864 -0.002002269 0.70115602
0.0093038836 -0.0026582479 0.70046449
0.0092741204 -0.0033121705 0.69995123
0.0092965225 -0.0039842129 0.70033753
0.0093279323 -0.0046639442 0.70087922
0.0093622208 -0.0053498149 0.70147049
0.010234652 -0.0065793693 0.716515
0.010234695 -0.0073105097 0.71651572
0.01021827 -0.0080286264 0.71623254
0.010181357 -0.0087268651 0.71559596
0.010124104 -0.009400934 0.71460867
0.010060912 -0.010060906 0.71351898
0.0099983383 -0.010712504 0.71243989
0.0099321166 -0.011350989 0.71129793
0.0098667657 -0.01198107 0.71017104
0.0098081976 -0.012610525 0.70916104
0.0098121148 -0.013316393 0.70922863
0.0098630041 -0.014090031 0.71010619
0.009918184 -0.01487726 0.71105766
0.0096204327 0.053874433 0.69486326
0.0096493931 0.053393334 0.69532943
0.0096784206 0.052908689 0.69579661
0.0097072618 0.052419186 0.69626081
0.0097362753 0.051926821 0.69672775
0.0097659389 0.05143398 0.69720519
0.009796299 0.050940752 0.69769382
0.0098268855 0.050444692 0.6981861
0.009857663 0.049945533 0.69868141
0.009888635 0.049443185 0.69917989
0.0099198017 0.048937738 0.69968152
0.0099479742 0.048413485 0.70013499
0.0099760788 0.047885209 0.70058733
0.010004303 0.047353715 0.70104158
0.010032727 0.046819419 0.70149904
0.0082862126 0.038116604 0.67338932
0.0082576722 0.037434816 0.67293
0.0082458621 0.036831528 0.67273992
0.0082435664 0.036271721 0.67270297
0.008248968 0.035745531 0.67278993
0.0082613369 0.035248399 0.67298901
0.0082765026 0.034761339 0.67323303
0.010265865 0.042432278 0.70525134
0.010295757 0.041869402 0.70573246
0.010323041 0.041292191 0.70617157
0.0084260395 0.033142388 0.67563981
0.0083581535 0.032318175 0.6745472
0.008372386 0.031815082 0.67477626
0.0083890148 0.031318963 0.67504394
0.0083989101 0.030796021 0.6752032
0.0084033245 0.03025198 0.67527425
0.0084212199 0.029754996 0.67556226
0.0084277829 0.029216319 0.67566788
0.0084164599 0.028615981 0.67548561
0.0083999932 0.027999967 0.67522061
0.0084003722 0.027441233 0.67522669
0.0084123304 0.026919484 0.67541915
0.008436596 0.02643469 0.67580974
0.0084623471 0.025951236 0.67622417
0.0085581122 0.025674343 0.67776549
0.0086045386 0.025240004 0.67851269
0.0086275265 0.024732262 0.67888272
0.0086494898 0.024218559 0.67923617
0.008671565 0.023702294 0.67959154
0.0086937537 0.023183346 0.67994857
0.0087160552 0.022661775 0.68030751
0.0087392339 0.02213943 0.68068057
0.0087627126 0.021614701 0.68105853
0.0087864967 0.021087617 0.68144131
0.0088104382 0.020557702 0.68182659
0.0088344812 0.020024836 0.6822136
0.0088587468 0.019489259 0.68260419
0.0088839326 0.018952399 0.68300951
0.0089094453 0.018412888 0.68342012
0.0089376485 0.017875284 0.68387407
0.0093478495 0.018072546 0.69047612
0.0093738409 0.017497838 0.69089448
0.009397435 0.016915381 0.69127417
0.0094193099 0.016326785 0.69162625
0.0094382083 0.015730351 0.69193041
0.0094569428 0.015131146 0.69223201
0.0094716884 0.014523298 0.6924693
0.0094837518 0.013909519 0.69266343
0.0088086808 0.012332171 0.68179834
0.0088234441 0.011764616 0.68203592
0.0088462671 0.011205286 0.68240327
0.0088738296 0.010648608 0.6828469
0.0089020506 0.01008901 0.68330109
0.0089305732 0.0095259845 0.68376017
0.0089593111 0.008959353 0.6842227
0.0089882035 0.0083889961 0.68468767
0.0090172822 0.0078150034 0.68515575
0.0090465816 0.0072372556 0.68562734
0.0090761352 0.0066558123 0.68610299
0.0091064237 0.0060709417 0.68659043
0.0091377795 0.0054826736 0.68709511
0.0091871964 0.0048998594 0.68789041
0.0093512377 0.0043639243 0.69053066
0.0095224949 0.003809005 0.69328707
0.0097001437 0.0032333732 0.69614619
0.0098845093 0.0026358962 0.69911355
0.010076057 0.002015233 0.70219642
0.010182315 0.001357615 0.70390666
0.010184304 0.00067895651 0.70393866
0.010164522 -0 0.70362031
0.010133298 -0.00067552924 0.70311773
0.010094088 -0.0013458729 0.70248663
0.010045064 -0.0020089746 0.70169759
0.0099934088 -0.0026648641 0.70086622
0.0099486578 -0.0033161938 0.70014596
0.0099658547 -0.0039863586 0.70042276
0.010002729 -0.0046679378 0.70101631
0.01004042 -0.0053548515 0.70162284
0.010955649 -0.006573379 0.71635324
0.010958966 -0.0073059797 0.7164067
0.010945479 -0.0080266297 0.71618962
0.010906451 -0.0087251365 0.71556145
0.010840351 -0.0093949735 0.71449757
0.010769658 -0.010051668 0.71335971
0.010693867 -0.010693878 0.71213996
0.010614204 -0.011321783 0.71085781
0.010534271 -0.01193884 0.70957124
0.010515059 -0.012618065 0.70926213
0.01055907 -0.013374805 0.70997041
0.010621818 -0.014162421 0.71098036
0.010683608 -0.01495707 0.71197486
0.01027925 0.053966045 0.69512671
0.01031017 0.053484023 0.69559324
0.010340815 0.052996695 0.69605559
0.010371682 0.052506685 0.69652134
0.010402733 0.052013695 0.69698989
0.010434284 0.051519305 0.69746596
0.010466816 0.051025718 0.6979568
0.01049955 0.050529093 0.69845068
0.010529378 0.050014585 0.69890082
0.010558855 0.049494654 0.69934559
0.010588538 0.048971981 0.69979346
0.010618347 0.048446208 0.70024323
0.010648366 0.047917664 0.70069623
0.010678554 0.04738611 0.70115167
0.010708873 0.046851337 0.70160913
0.0088664806 0.038236737 0.67380965
0.0088095516 0.037440598 0.67295063
0.0087908851 0.036811858 0.67266899
0.0087849135 0.036237806 0.67257887
0.0087874122 0.035698861 0.6726166
0.0087990109 0.035196066 0.67279154
0.0088146636 0.034707755 0.67302775
0.0088313818 0.034221619 0.67328
0.010980101 0.041861653 0.70570171
0.011008671 0.041282535 0.70613277
0.0090151746 0.033243477 0.67605329
0.0089423237 0.032415926 0.674954
0.0089190258 0.031774044 0.67460251
0.0089374362 0.031281024 0.67488027
0.0089523457 0.030773699 0.67510521
0.0089564417 0.030228049 0.67516696
0.0089729782 0.029722989 0.67541659
0.0089868447 0.02920723 0.6756258
0.0089842016 0.028637171 0.67558587
0.0089683468 0.028026074 0.67534667
0.0089677684 0.027463794 0.67533797
0.0089791231 0.026937395 0.67550927
0.0090014543 0.026441783 0.67584622
0.009024892 0.025946587 0.67619985
0.0090549076 0.025466919 0.67665273
0.0091707557 0.02521956 0.67840075
0.0091955718 0.024713099 0.67877519
0.0092189629 0.024199754 0.67912817
0.0092429956 0.023685187 0.6794908
0.0092674317 0.023168594 0.67985946
0.0092922458 0.022649884 0.6802339
0.0093173189 0.022128642 0.68061227
0.0093425587 0.021604717 0.68099302
0.009368062 0.021078169 0.68137789
0.009394276 0.020550013 0.68177342
0.0094208922 0.020019382 0.68217504
0.0094477562 0.01948601 0.68258035
0.0094748382 0.018949687 0.68298906
0.0095020439 0.018410236 0.6833995
0.0095298318 0.017868429 0.68381882
0.0099595366 0.018051684 0.69030255
0.0099812075 0.017467141 0.69062948
0.010001102 0.016876876 0.69092971
0.0100188 0.016280562 0.6911968
0.010033229 0.015676945 0.69141448
0.0093230065 0.013984531 0.68069804
0.0093319891 0.01341477 0.68083358
0.0093518626 0.012858838 0.68113345
0.0093792509 0.012310296 0.68154669
0.0094086165 0.011760771 0.68198979
0.0094383899 0.011208087 0.68243909
0.0094684809 0.010652095 0.6828931
0.0094987322 0.010092407 0.68334961
0.009529178 0.0095291734 0.68380892
0.0095598521 0.008962363 0.68427181
0.0095906919 0.0083918571 0.68473715
0.0096222637 0.0078181028 0.68521345
0.0096541783 0.007240653 0.68569505
0.0096903229 0.0066621006 0.68624043
0.0097957738 0.0061223507 0.68783158
0.009971898 0.0056092143 0.69048905
0.010095429 0.0050477386 0.69235301
0.010201501 0.0044631362 0.69395351
0.010540398 0.0039526522 0.69906706
0.010744595 0.0033577383 0.70214814
0.010942497 0.0027356446 0.70513427
0.010981663 0.0020590723 0.70572531
0.010969399 0.0013712049 0.70554024
0.010939656 0.00068375468 0.70509142
0.010899207 -0 0.70448112
0.010851214 -0.00067821145 0.70375693
0.010797348 -0.0013496876 0.70294416
0.010738909 -0.0020135343 0.70206237
0.010681098 -0.0026702881 0.70119011
0.010628781 -0.0033214986 0.70040071
0.010642577 -0.0039909482 0.70060885
0.010682371 -0.0046735406 0.70120931
0.010723704 -0.005361855 0.70183295
0.011669542 -0.0065641105 0.71610451
0.011674688 -0.0072966516 0.71618217
0.011661758 -0.0080174208 0.71598715
0.011620369 -0.0087152719 0.71536261
0.011540191 -0.0093763769 0.71415281
0.01145601 -0.010023981 0.71288264
0.011364588 -0.010654271 0.71150315
0.011268121 -0.011268139 0.71004766
0.011230382 -0.011932284 0.70947814
0.011258127 -0.012665361 0.7098968
0.011323294 -0.013446391 0.71088004
0.011377891 -0.014222354 0.71170384
0.011425498 -0.014995962 0.71242219
0.01094011 0.054057062 0.69538808
0.010972422 0.053571254 0.69584692
0.011004966 0.053082764 0.69630909
0.011037704 0.052591473 0.69677401
0.011070594 0.052096933 0.69724107
0.011101888 0.051591158 0.69768554
0.011132728 0.051079601 0.69812346
0.011163741 0.050565213 0.69856393
0.01119497 0.050048143 0.69900739
0.011226332 0.049527973 0.69945276
0.011257912 0.049005032 0.69990122
0.011289627 0.048478991 0.70035166
0.011321565 0.047950178 0.70080519
0.011353684 0.047418326 0.70126134
0.011385942 0.046883285 0.7017194
0.011418383 0.046345204 0.70218015
0.0093712565 0.037485063 0.67310834
0.0093409074 0.036814183 0.67267734
0.0093294885 0.036220372 0.67251515
0.0093288105 0.035668999 0.67250562
0.0093367733 0.03515023 0.67261869
0.009352088 0.034657747 0.67283612
0.0093705729 0.034175009 0.67309868
0.011663962 0.04185304 0.70566761
0.011694258 0.041273892 0.7060979
0.009607913 0.033345103 0.67646921
0.0095300367 0.032514274 0.67536324
0.0094655314 0.031737417 0.67444718
0.0094849551 0.031244576 0.67472309
0.0095042456 0.030749053 0.67499697
0.0095149623 0.030223995 0.6751492
0.0095239822 0.029692441 0.67527729
0.0095437095 0.029192537 0.67555743
0.0095485533 0.028645664 0.67562628
0.0095351133 0.028044492 0.67543536
0.0095304055 0.027470022 0.67536849
0.0095376074 0.026929766 0.67547077
0.0095555661 0.026418358 0.67572576
0.0095762005 0.025912076 0.67601883
0.0095944926 0.025397211 0.67627859
0.0097342292 0.025194466 0.67826307
0.009763835 0.024696738 0.67868346
0.0097894985 0.024185836 0.67904794
0.009815624 0.023672998 0.67941892
0.0098420857 0.023157865 0.67979473
0.0098686898 0.02263993 0.68017256
0.0098958695 0.022120208 0.68055856
0.0099237002 0.021598637 0.68095374
0.0099516539 0.021074086 0.68135077
0.0099798329 0.020546734 0.68175095
0.01000824 0.020016491 0.68215436
0.010036843 0.019483268 0.68256056
0.010065576 0.018946946 0.68296862
0.010093334 0.018405497 0.68336284
0.010117988 0.017855257 0.68371296
0.010151547 0.017317384 0.6841895
0.010572121 0.017412931 0.69016212
0.010585193 0.016811758 0.69034779
0.0098344162 0.015040874 0.67968583
0.0098508503 0.014486551 0.67991924
0.0098759495 0.013942569 0.68027568
0.0099062258 0.013402581 0.68070561
0.0099370554 0.012859732 0.6811434
0.0099683469 0.012313873 0.68158776
0.0099999039 0.011764616 0.68203592
0.010031661 0.011211872 0.68248695
0.010063655 0.010655642 0.68294126
0.010095819 0.010095835 0.68339807
0.010128502 0.0095327199 0.68386221
0.010161782 0.0089662969 0.68433487
0.010195703 0.0083964765 0.6848166
0.010241416 0.0078316927 0.68546569
0.010405186 0.0073448718 0.68779147
0.010592064 0.0068536997 0.69044542
0.010669587 0.0062762201 0.69154632
0.010727797 0.0056794584 0.69237292
0.010775703 0.0050709248 0.69305325
0.011412779 0.004699409 0.70210057
0.011638178 0.0041075945 0.70530152
0.011779517 0.0034645498 0.70730877
0.0117837 0.0027726889 0.70736808
0.011761036 0.0020754635 0.70704621
0.01172434 0.0013793409 0.70652509
0.011677937 0.00068697333 0.7058661
0.011619863 -0 0.70504141
0.011558608 -0.00067991018 0.70417154
0.01149558 -0.0013523996 0.70327646
0.011433234 -0.0020176172 0.70239109
0.011371563 -0.0026756525 0.70151532
0.011313369 -0.0033274591 0.70068884
0.011321565 -0.0039958358 0.70080519
0.011368849 -0.0046812892 0.70147669
0.011416573 -0.0053724945 0.70215446
0.012376702 -0.0065523684 0.71578944
0.012380438 -0.0072826147 0.71584255
0.012364371 -0.0080004632 0.71561432
0.012314365 -0.008692503 0.71490419
0.01221283 -0.0093392134 0.71346223
0.012107097 -0.009970516 0.71196073
0.011982239 -0.010572582 0.71018755
0.011931461 -0.011229604 0.70946652
0.01195353 -0.011953533 0.70977992
0.012009328 -0.012715727 0.71057224
0.012057177 -0.013475657 0.71125185
0.012101441 -0.014236957 0.71188045
0.012142736 -0.014999807 0.71246684
0.011598167 0.054124802 0.69558287
0.011632466 0.053638607 0.69604284
0.011666836 0.053148925 0.69650382
0.011699616 0.052648276 0.69694352
0.011731568 0.052140325 0.69737202
0.011762898 0.051626086 0.69779229
0.011795465 0.051113695 0.69822901
0.011828391 0.050599247 0.69867063
0.011861456 0.05008173 0.69911414
0.011894707 0.049561292 0.69956011
0.01192819 0.049038142 0.70000923
0.011961862 0.048512042 0.70046079
0.011995678 0.047982723 0.70091438
0.012029733 0.047450602 0.70137113
0.012063934 0.046915323 0.70182979
0.012096787 0.046371043 0.70227045
0.0099494988 0.037586987 0.67347038
0.0098936576 0.036826432 0.67272145
0.0098751308 0.036208838 0.67247295
0.0098707359 0.035644352 0.672414
0.0098759104 0.035114378 0.67248344
0.0098900907 0.034615308 0.67267358
0.0099093961 0.034132361 0.67293251
0.0099291224 0.0336487 0.67319709
0.012379607 0.041265398 0.70606369
0.012412381 0.040685087 0.70650327
0.010121326 0.032613188 0.67577499
0.01003967 0.031792313 0.67467976
0.010033196 0.031214416 0.67459297
0.010055166 0.030724138 0.67488766
0.010070287 0.030210853 0.67509043
0.01007392 0.029662102 0.67513919
0.010098121 0.029172361 0.6754638
0.010111214 0.028648466 0.67563939
0.010103146 0.028064281 0.67553115
0.010091343 0.027470887 0.6753729
0.010091832 0.026911557 0.67537946
0.010100078 0.026372463 0.67549002
0.010113928 0.02584672 0.67567575
0.010127652 0.025319129 0.67585987
0.010143947 0.024796337 0.67607838
0.010333156 0.024684787 0.67861611
0.010360853 0.024175346 0.67898756
0.010388939 0.0236637 0.67936426
0.010417907 0.023150921 0.67975283
0.010447036 0.022635281 0.68014354
0.010476295 0.022116661 0.68053597
0.010505753 0.02159518 0.68093103
0.010535483 0.021070987 0.68132973
0.010565382 0.020543814 0.68173081
0.010595236 0.020013213 0.68213123
0.010622445 0.019474506 0.68249613
0.010645732 0.018925756 0.68280852
0.010665738 0.018368781 0.6830768
0.010680674 0.017801136 0.68327713
0.01033302 0.016647667 0.67861426
0.010343239 0.016089499 0.67875135
0.010365007 0.015547544 0.67904329
0.010394913 0.015014887 0.67944443
0.010426973 0.014481932 0.67987442
0.010459196 0.013945609 0.68030661
0.010491971 0.013406426 0.6807462
0.010524987 0.012863904 0.681189
0.010558248 0.012317985 0.68163514
0.010591684 0.011768579 0.68208355
0.010625404 0.011215717 0.68253583
0.010659994 0.010660022 0.68299973
0.010694809 0.010100663 0.68346667
0.01073232 0.0095398426 0.68396986
0.010823211 0.0090193152 0.68518889
0.011014268 0.0085666776 0.68775141
0.011211106 0.0080969632 0.69039142
0.011267049 0.0075114071 0.69114172
0.011296802 0.0069036186 0.69154084
0.011340019 0.0063000023 0.69212055
0.011382202 0.0056911111 0.6926862
0.011421902 0.0050764084 0.69321871
0.012461744 0.0048462749 0.70716536
0.012523778 0.0041746199 0.70799732
0.012548905 0.0034857988 0.70833445
0.012550567 0.0027890205 0.70835674
0.012519867 0.0020866394 0.70794493
0.012463433 0.0013848543 0.70718801
0.012399929 0.00068888068 0.70633626
0.012331426 2.9802322e-08 0.70541751
0.012263675 -0.00068131089 0.70450878
0.012196713 -0.001355201 0.70361072
0.012130383 -0.0020217299 0.70272106
0.012064818 -0.0026810467 0.70184171
0.012003506 -0.0033343136 0.70101935
0.012014066 -0.0040046573 0.70116097
0.012064213 -0.0046916306 0.70183361
0.012120276 -0.0053867698 0.70258552
0.013072806 -0.0065363944 0.71536112
0.013073462 -0.0072630346 0.71536988
0.013045648 -0.0079723597 0.71499687
0.012965061 -0.0086433291 0.71391606
0.012820803 -0.0092594624 0.71198118
0.012604289 -0.0098032951 0.70907718
0.012600886 -0.010500729 0.70903158
0.012631628 -0.011228085 0.70944393
0.012680338 -0.011975825 0.71009719
0.01272559 -0.012725532 0.71070415
0.012768716 -0.01347807 0.71128255
0.012812136 -0.014235675 0.71186495
0.012855852 -0.014998466 0.71245128
0.012282003 0.054299414 0.69608462
0.012291149 0.053692937 0.69620085
0.012325662 0.05319497 0.69663942
0.012358935 0.052688122 0.69706213
0.012391875 0.052176327 0.69748074
0.012424946 0.05166167 0.69790089
0.012459086 0.051147848 0.69833475
0.012493888 0.050633132 0.6987769
0.012528837 0.050115407 0.69922101
0.01256403 0.049594879 0.69966817
0.012599373 0.049071252 0.70011729
0.012634964 0.048544854 0.70056951
0.012669783 0.04801178 0.70101196
0.012701764 0.04746455 0.70141828
0.012733907 0.046914428 0.70182669
0.012766263 0.046361715 0.70223784
0.012798734 0.045805991 0.70265043
0.010455014 0.036867708 0.67287016
0.010425067 0.036213398 0.6724897
0.010415428 0.035631776 0.67236722
0.010417532 0.035090685 0.67239392
0.010429118 0.034580767 0.6725412
0.010447734 0.034092635 0.67277771
0.010469472 0.03361252 0.67305398
0.013064674 0.041256875 0.70602953
0.013098215 0.040673435 0.70645571
0.01071619 0.032712579 0.67618883
0.010629508 0.031888545 0.67508733
0.01058126 0.031186908 0.67447436
0.010604137 0.030696243 0.67476499
0.010625675 0.030199289 0.6750387
0.010634473 0.029664576 0.67515051
0.010652008 0.02915287 0.67537326
0.010671499 0.028644592 0.67562091
0.010671707 0.028083473 0.6756236
0.010652868 0.027473211 0.67538422
0.010643182 0.026888072 0.67526114
0.010638517 0.026316345 0.67520189
0.010634644 0.025747031 0.67515266
0.010634062 0.025185972 0.67514527
0.010623657 0.024602145 0.67501307
0.010588625 0.023963749 0.67456794
0.0105908 0.023411244 0.67459553
0.010964354 0.023659945 0.67934203
0.010994921 0.023147196 0.67973053
0.01102566 0.022631645 0.68012106
0.011056608 0.022113234 0.68051428
0.011087804 0.021592051 0.68091065
0.011117716 0.021065146 0.68129081
0.011143952 0.020528346 0.68162411
0.011166835 0.019982755 0.68191493
0.011184732 0.019426137 0.68214226
0.011196302 0.018856943 0.6822893
0.010830032 0.017670095 0.67763537
0.010848041 0.017128497 0.67786419
0.010875311 0.016599178 0.67821062
0.010908121 0.016075164 0.67862755
0.010941567 0.015548557 0.67905253
0.010975217 0.015018731 0.67948008
0.011009406 0.014486104 0.67991447
0.011043882 0.013950199 0.68035263
0.011078538 0.013410866 0.68079293
0.011113449 0.012868226 0.68123657
0.011149071 0.012322664 0.68168914
0.011185187 0.011773884 0.6821481
0.011221499 0.011221468 0.68260944
0.011266924 0.01067394 0.68318665
0.011421456 0.010219216 0.68515021
0.011623019 0.0097878277 0.68771136
0.011831867 0.0093409419 0.69036502
0.011940965 0.008798629 0.69175124
0.011947059 0.0081743002 0.69182873
0.011943688 0.0075434148 0.69178587
0.011949655 0.0069182217 0.69186169
0.011981361 0.0063059926 0.69226456
0.012020672 0.0056940019 0.69276404
0.012059712 0.0050777793 0.69326013
0.013206691 0.0048656464 0.70783412
0.013251012 0.0041845739 0.70839721
0.01327067 0.0034922957 0.70864701
0.01326987 0.0027936399 0.70863682
0.013248566 0.0020918548 0.70836622
0.013189488 0.001388371 0.70761549
0.013116065 0.000690341 0.70668256
0.013043457 2.9802322e-08 0.70575994
0.012971646 -0.0006827116 0.70484751
0.012900623 -0.0013579428 0.70394504
0.012830323 -0.0020257831 0.70305181
0.012760834 -0.0026864707 0.70216882
0.012696634 -0.0033412278 0.70135313
0.012710861 -0.0040139258 0.70153391
0.012771696 -0.0047053695 0.70230687
0.012833166 -0.0054033995 0.70308793
0.012900068 -0.0061105192 0.70393801
0.013739399 -0.0072312653 0.71460283
0.013674853 -0.0079170167 0.71378273
0.013202413 -0.0083383322 0.70777971
0.013213511 -0.0090408325 0.70792079
0.013247608 -0.0097613931 0.708354
0.013294721 -0.010495812 0.70895267
0.013341307 -0.01123476 0.7095446
0.013386211 -0.011977136 0.71011519
0.013431419 -0.012724489 0.71068954
0.013476933 -0.013476968 0.71126795
0.013528355 -0.014240354 0.71192133
0.013796074 -0.015248269 0.71532297
0.013841602 -0.016027093 0.71590149
0.013905508 -0.016832948 0.71671355
0.013006434 0.054627061 0.69702631
0.012949239 0.053739339 0.69633591
0.012983884 0.053233951 0.6967541
0.013018373 0.052724421 0.69717038
0.013053096 0.052212417 0.69758958
0.013087954 0.051697463 0.69801033
0.013123645 0.05118224 0.69844115
0.013160277 0.050667107 0.6988833
0.013197165 0.050149232 0.69932866
0.013233958 0.049627393 0.69977278
0.013267105 0.049088329 0.7001729
0.01330042 0.048546553 0.70057499
0.013333953 0.048002243 0.70097983
0.013367604 0.047454983 0.70138603
0.013401425 0.046905011 0.70179427
0.013435469 0.046352416 0.70220518
0.013469636 0.045796782 0.70261765
0.011027842 0.036943287 0.67314261
0.01097944 0.036232173 0.67255831
0.010962674 0.035628706 0.67235595
0.010959943 0.03507182 0.67232299
0.010968904 0.034552068 0.67243117
0.010987356 0.034060806 0.67265385
0.011009986 0.033580452 0.67292702
0.013741465 0.04122439 0.70589894
0.013772894 0.040630072 0.70627826
0.013804466 0.040032953 0.70665944
0.01122289 0.031985223 0.67549706
0.011129677 0.031163096 0.67437184
0.011155154 0.030676723 0.67467934
0.011179703 0.030185223 0.67497569
0.011194759 0.029666126 0.67515749
0.011204686 0.029132217 0.67527723
0.011230507 0.028637826 0.67558897
0.011239189 0.028097987 0.67569375
0.011221512 0.027492702 0.67548043
0.011195119 0.026868343 0.67516178
0.011169389 0.026248097 0.67485118
0.011138561 0.025618702 0.67447907
0.011091274 0.024955392 0.67390823
0.011067534 0.024348557 0.67362171
0.011069402 0.023799241 0.67364424
0.011082006 0.023272216 0.67379642
0.011098855 0.022752672 0.67399979
0.011571789 0.02314356 0.6797086
0.01160398 0.022627771 0.68009722
0.011632884 0.022102505 0.68044609
0.011657706 0.021566749 0.68074572
0.011678904 0.021022052 0.6810016
0.011694667 0.020465672 0.68119186
0.011313512 0.019232988 0.67659092
0.011325017 0.018686295 0.6767298
0.011348578 0.018157721 0.67701417
0.011380805 0.017640263 0.67740321
0.011415389 0.017123073 0.67782074
0.011450185 0.016602814 0.67824066
0.011485194 0.016079307 0.67866337
0.011520799 0.015553087 0.67909312
0.011556625 0.015023619 0.67952561
0.011592715 0.014490873 0.6799612
0.011629302 0.013955206 0.68040287
0.011666591 0.013416618 0.68085295
0.011704121 0.012874544 0.681306
0.011743479 0.012330681 0.68178105
0.011814554 0.011814564 0.68263906
0.012019426 0.011418462 0.68511206
0.012231441 0.011008322 0.6876713
0.01245116 0.01058349 0.69032353
0.012661777 0.010129422 0.69286597
0.012710547 0.0095329285 0.69345462
0.012699491 0.0088896751 0.69332117
0.0126663 0.0082331002 0.69292051
0.012620387 0.0075722337 0.6923663
0.012593126 0.0069262683 0.69203722
0.012615667 0.0063078403 0.69230938
0.012656518 0.0056954622 0.69280249
0.012697634 0.0050790906 0.69329882
0.013912912 0.0048695207 0.70796841
0.013953923 0.004186213 0.70846343
0.013973339 0.0034933686 0.70869786
0.013973901 0.0027948022 0.70870465
0.013956053 0.0020934343 0.70848918
0.013910629 0.001391083 0.70794094
0.013835246 0.00069177151 0.70703095
0.013758496 -0 0.70610452
0.013682539 -0.00068411231 0.70518762
0.013607469 -0.0013607442 0.70428145
0.0135309 -0.0020296574 0.70335722
0.013452322 -0.0026904643 0.70240867
0.013391611 -0.0033478737 0.70167577
0.013424258 -0.0040272772 0.70206988
0.013494116 -0.0047229528 0.70291317
0.013570004 -0.0054279864 0.70382923
0.013646964 -0.0061411262 0.70475817
0.013741737 -0.006870836 0.70590222
0.013805178 -0.0075927973 0.70666802
0.013851682 -0.0083110034 0.70722938
0.013900835 -0.0090354979 0.70782268
0.013948658 -0.0097640455 0.70839995
0.013995289 -0.010496438 0.7089628
0.014042231 -0.011233807 0.70952952
0.014089491 -0.011976093 0.7101
0.014145703 -0.012731135 0.71077847
0.014368808 -0.013650358 0.71347159
0.014439806 -0.014439821 0.71432865
0.01449595 -0.015220731 0.71500635
0.014534333 -0.015987724 0.71546966
0.014572246 -0.016758054 0.71592736
0.014611464 -0.017533779 0.71640074
0.014683644 -0.018354535 0.71727204
0.013605218 0.053773016 0.69643378
0.01364159 0.053267151 0.69685197
0.013678158 0.052758574 0.69727236
0.013714973 0.052247524 0.69769555
0.013751883 0.051733285 0.69811994
0.013789045 0.051216483 0.69854712
0.013823789 0.050687253 0.6989466
0.013858181 0.050153434 0.69934195
0.013892799 0.049617141 0.69973987
0.013927589 0.049078196 0.70013988
0.013962662 0.048536867 0.70054305
0.013997857 0.047992647 0.7009477
