# .PCD v0.7 - Point Cloud Data file format
VERSION 0.7
FIELDS x y z
SIZE 4 4 4
TYPE F F F
COUNT 1 1 1
WIDTH 1284
HEIGHT 1
VIEWPOINT 0 0 0 1 0 0 0
POINTS 1284
DATA ascii
-0.0086148689 0.014578998 0.70001042
-0.0086453725 0.013965607 0.7005769
-0.0086293845 0.013275981 0.70027995
-0.0085950997 0.012562096 0.69964325
-0.0085516218 0.011840731 0.69883585
-0.0085085807 0.011126608 0.69803655
-0.0084659709 0.010419667 0.69724524
-0.0084238173 0.0097198188 0.69646239
-0.0083820811 0.009026885 0.69568729
-0.0083604548 0.0083605051 0.69528568
-0.0083628697 0.0077196062 0.69533056
-0.008372914 0.0070847869 0.69551712
-0.0083844149 0.0064495504 0.69573069
-0.0083959466 0.0058126152 0.69594479
-0.0084074801 0.0051738322 0.69615901
-0.008419076 0.0045333505 0.6963743
-0.0084307035 0.0038911104 0.69659024
-0.0084423637 0.0032470822 0.69680679
-0.0084560178 0.0026018322 0.69706041
-0.0085496465 0.001973033 0.69879919
-0.0085822968 0.0013203919 0.69940555
-0.0086039407 0.00066184998 0.69980741
-0.0086201625 2.9802322e-08 0.70010865
-0.0086340029 -0.00066414475 0.70036572
-0.0086466633 -0.0013302565 0.70060086
-0.0086593935 -0.0019983053 0.70083725
-0.0086721275 -0.0026683211 0.70107371
-0.0086849332 -0.0033403635 0.70131159
-0.0086977761 -0.004014343 0.70155001
-0.0087106237 -0.0046903193 0.70178866
-0.0087235775 -0.0053683519 0.70202917
-0.0087365685 -0.0060483813 0.70227045
-0.0087495651 -0.0067303777 0.70251179
-0.0087626008 -0.00741449 0.7027539
-0.0087756412 -0.0081005692 0.70299608
-0.0087887542 -0.0087887347 0.70323962
-0.0088019054 -0.0094789863 0.70348388
-0.0088150976 -0.010171235 0.7037288
-0.0088284323 -0.010865748 0.70397645
-0.0088572372 -0.011582524 0.7045114
-0.0089872554 -0.0124439 0.70692599
-0.0094123157 -0.013756424 0.71481967
-0.0094610481 -0.014555424 0.71572471
-0.0095215943 -0.015381038 0.71684915
-0.0083560627 -0.014140993 0.69520414
-0.0082528898 -0.01460126 0.69328821
-0.0082381396 -0.01520884 0.69301426
-0.0082506584 -0.015866637 0.69324672
-0.0082632164 -0.016526431 0.6934799
-0.0082845539 -0.017206371 0.69387621
-0.0080785565 0.055203468 0.7025528
-0.0082117217 0.055429131 0.7052319
-0.0079903454 0.053268999 0.70077807
-0.0079640644 0.052430123 0.70024937
-0.0079379259 0.051596552 0.69972348
-0.0079133101 0.050777107 0.69922823
-0.0078937151 0.049993545 0.698834
-0.0078573897 0.049108714 0.69810319
-0.0078387186 0.048338771 0.69772756
-0.0078156795 0.047545403 0.69726408
-0.0076289801 0.045773894 0.69350797
-0.0076113218 0.045033693 0.69315273
-0.0076104882 0.044394523 0.69313598
-0.0076166051 0.043795496 0.693259
-0.0076227598 0.043195635 0.69338286
-0.0076504801 0.042715192 0.69394058
-0.0077123465 0.042417914 0.69518518
-0.0077414429 0.041932821 0.69577056
-0.0077586998 0.04137972 0.69611776
-0.0077647106 0.040764779 0.69623864
-0.0077661565 0.040125161 0.69626778
-0.0077649998 0.039472073 0.69624448
-0.0077632936 0.038816482 0.69621015
-0.0077615306 0.03816089 0.69617468
-0.0077597974 0.037505716 0.69613981
-0.0077589597 0.036855072 0.696123
-0.0077588153 0.036207795 0.69612002
-0.0077586998 0.035560727 0.6961177
-0.0077586132 0.034913778 0.69611597
-0.0077585266 0.034266829 0.69611424
-0.00775844 0.03361994 0.69611251
-0.007759884 0.032979518 0.6961416
-0.0077613574 0.032339007 0.69617116
-0.00777299 0.031739742 0.69640529
-0.0078406055 0.031362444 0.69776553
-0.007911508 0.030986756 0.69919199
-0.0079340898 0.030413985 0.69964629
-0.0079453373 0.029795021 0.69987255
-0.0079552513 0.029169291 0.70007205
-0.0079652211 0.028542042 0.70027262
-0.0079752151 0.027913243 0.70047367
-0.0079852343 0.027282923 0.70067525
-0.0079952478 0.026650876 0.70087671
-0.0080053173 0.026017278 0.70107931
-0.0080154128 0.025382161 0.70128238
-0.0080255335 0.024745405 0.70148599
-0.0080356486 0.024106979 0.70168948
-0.0080458205 0.023467004 0.70189416
-0.0080560176 0.02282539 0.70209932
-0.0080657108 0.022180706 0.70229435
-0.008069613 0.021518975 0.70237285
-0.0080631841 0.020829916 0.70224351
-0.008039088 0.020097733 0.70175874
-0.0078802286 0.019043893 0.69856268
-0.0077853263 0.018165767 0.69665343
-0.007792776 0.017533779 0.69680333
-0.0078017288 0.016903758 0.6969834
-0.0078106434 0.016272157 0.69716281
-0.0078223366 0.01564467 0.69739801
-0.0080942074 0.015513927 0.70286757
-0.0081072384 0.014863282 0.70312983
-0.0081021339 0.014178753 0.70302713
-0.0080794329 0.013465732 0.70257038
-0.0080384994 0.012727618 0.70174688
-0.0079973331 0.011996031 0.70091867
-0.007956557 0.011271834 0.70009834
-0.0079161944 0.010554969 0.69928628
-0.0078762397 0.0098453164 0.69848245
-0.0078367153 0.0091428459 0.69768727
-0.007797556 0.0084473789 0.69689941
-0.0077588153 0.007758826 0.69612008
-0.007735583 0.0070909858 0.69565266
-0.0077370759 0.0064475536 0.6956827
-0.0077461889 0.0058096647 0.69586605
-0.0077568525 0.0051712692 0.69608057
-0.0077675455 0.0045310855 0.69629568
-0.007778239 0.0038891137 0.69651085
-0.0077889911 0.0032454431 0.69672716
-0.007799773 0.0025999248 0.69694406
-0.0078105559 0.0019526482 0.69716096
-0.0078229532 0.0013038516 0.6974104
-0.0079082372 0.00065904856 0.69912624
-0.007939226 -0 0.69974971
-0.0079596862 -0.00066328049 0.70016128
-0.0079750316 -0.0013291538 0.70046997
-0.0079879574 -0.0019969642 0.70073009
-0.0079996968 -0.0026665628 0.70096624
-0.0080115013 -0.0033381283 0.7012037
-0.0080233403 -0.0040116608 0.70144188
-0.0080351839 -0.0046871901 0.70168018
-0.0080470936 -0.0053647161 0.70191973
-0.0080590388 -0.0060442686 0.70216006
-0.0080710193 -0.0067258179 0.7024011
-0.0080830669 -0.0074094534 0.70264351
-0.0080951182 -0.0080951154 0.70288599
-0.0081072068 -0.008782804 0.70312917
-0.0081190467 -0.0094722211 0.70336735
-0.0081314594 -0.010164291 0.7036171
-0.008143656 -0.010858208 0.70386249
-0.0081558889 -0.011554182 0.7041086
-0.0081682233 -0.012252331 0.70435673
-0.0086382525 -0.01367721 0.71381295
-0.008664784 -0.014441311 0.71434677
-0.0077570258 -0.013574779 0.69608402
-0.0076606846 -0.014044583 0.6941458
-0.0075903721 -0.014548212 0.69273126
-0.0075991703 -0.01519832 0.69290823
-0.0076107383 -0.0158557 0.69314098
-0.0076223137 -0.016514987 0.69337392
-0.0076339245 -0.01717633 0.69360745
-0.0076455986 -0.01783973 0.69384229
-0.0076686312 -0.018532515 0.69430566
-0.0075809211 0.055823147 0.70640624
-0.0075904354 0.05520317 0.70661509
-0.0075999438 0.054581463 0.70682371
-0.0073377001 0.052030981 0.70106816
-0.0073113129 0.0511792 0.70048904
-0.0072822273 0.050313592 0.69985062
-0.0072394959 0.049360216 0.69891286
-0.0072235977 0.04859513 0.69856393
-0.0071840333 0.047675908 0.69769555
-0.0069778091 0.045672923 0.69316947
-0.0069706575 0.044992447 0.69301254
-0.0069742952 0.044381887 0.69309235
-0.0069821686 0.043797255 0.6932652
-0.0069914665 0.043219984 0.69346923
-0.0070420895 0.042892724 0.69458026
-0.0070776367 0.042465836 0.69536048
-0.0070984578 0.041945457 0.69581741
-0.0071116388 0.041376829 0.69610667
-0.0071205418 0.040781289 0.69630212
-0.0071282173 0.040177256 0.69647062
-0.0071336189 0.039559186 0.69658911
-0.0071357233 0.038922131 0.69663531
-0.0071349773 0.03826946 0.69661897
-0.0071334857 0.037612945 0.69658619
-0.0071319416 0.036956429 0.69655234
-0.0071303449 0.036299944 0.69651729
-0.0071289884 0.035644978 0.69648749
-0.0071288557 0.034996241 0.69648457
-0.0071287761 0.034347743 0.69648284
-0.007128696 0.033699304 0.69648105
-0.0071286163 0.033050895 0.69647932
-0.0071311435 0.032414317 0.69653481
-0.0071561639 0.031877488 0.69708395
-0.0072339606 0.031566381 0.69879138
-0.007259985 0.031019956 0.69936258
-0.007271532 0.030408233 0.69961596
-0.007280618 0.029784381 0.69981533
-0.0072897272 0.02915895 0.70001525
-0.0072988588 0.028531909 0.7002157
-0.0073079858 0.027903229 0.70041603
-0.0073171635 0.027273089 0.70061749
-0.0073263641 0.026641309 0.70081937
-0.0073355879 0.02600801 0.70102179
-0.007344835 0.025373101 0.7012248
-0.0073540774 0.024736434 0.70142758
-0.0073633711 0.024098307 0.70163161
-0.0073726885 0.02345857 0.70183611
-0.0073820297 0.022817165 0.70204109
-0.007389308 0.022167921 0.70220083
-0.0073895082 0.021496743 0.70220524
-0.0073777265 0.020791769 0.70194662
-0.0073342649 0.020002574 0.70099276
-0.0071415897 0.018827856 0.69676405
-0.0071366024 0.018165916 0.69665462
-0.0071436986 0.017534554 0.69681031
-0.007150996 0.016902387 0.69697052
-0.007159193 0.016270936 0.69715041
-0.0074391849 0.016231 0.70329547
-0.0074577937 0.015593588 0.70370394
-0.007462861 0.014925718 0.7038151
-0.0074623073 0.014246255 0.703803
-0.0074564549 0.013557196 0.70367455
-0.0074461992 0.012861639 0.70344943
-0.007426321 0.012152165 0.70301318
-0.0073899366 0.011420816 0.7022146
-0.0073519554 0.010693759 0.70138103
-0.007314363 0.0099741518 0.70055592
-0.0072771804 0.0092619061 0.69973987
-0.0072403462 0.008556813 0.69893146
-0.0072038835 0.007858783 0.69813132
-0.0071678124 0.007167846 0.69733959
-0.0071320748 0.0064837039 0.6965552
-0.0071081999 0.005815804 0.69603121
-0.0071086232 0.0051698983 0.69604057
-0.0071166442 0.0045287609 0.69621658
-0.0071264631 0.0038872063 0.69643205
-0.0071363095 0.003243804 0.69664818
-0.0071461559 0.0025986433 0.69686425
-0.0071560568 0.0019516647 0.69708157
-0.0071659852 0.0013029277 0.69729948
-0.007175914 0.00065237284 0.6975174
-0.0071870862 2.9802322e-08 0.69776261
-0.0072641796 -0.00066038966 0.69945467
-0.0072933715 -0.0013260245 0.70009524
-0.0073125716 -0.0019943118 0.7005167
-0.0073269536 -0.0026643574 0.70083237
-0.0073389681 -0.0033358932 0.70109606
-0.0073497784 -0.0040090084 0.70133328
-0.0073606488 -0.004684031 0.70157182
-0.0073715514 -0.00536111 0.70181108
-0.0073824576 -0.0060401559 0.70205045
-0.0073934249 -0.0067212582 0.70229119
-0.0074044247 -0.0074044168 0.70253259
-0.0074154283 -0.0080895424 0.70277417
-0.0074200928 -0.0087691844 0.70287645
-0.0074186814 -0.009441942 0.70284545
-0.0074362322 -0.0101403 0.70323068
-0.0074579972 -0.010847986 0.70370841
-0.0074711465 -0.011546314 0.70399702
-0.0074823792 -0.012243897 0.70424348
-0.0079129227 -0.013667762 0.71369278
-0.0079251956 -0.014409453 0.7139622
-0.00706184 -0.013481677 0.69501376
-0.0069747535 -0.013949484 0.69310242
-0.006950553 -0.014532983 0.69257128
-0.0069611105 -0.01518786 0.69280303
-0.0069716745 -0.015844673 0.69303489
-0.0069822962 -0.016503602 0.693268
-0.0069929245 -0.017164439 0.69350123
-0.0070035849 -0.017827302 0.69373524
-0.0070143044 -0.018492252 0.69397044
-0.0070250304 -0.019159138 0.69420588
-0.0069057993 0.054555833 0.70674545
-0.0067567672 0.052702785 0.70314753
-0.0067153457 0.051708192 0.7021476
-0.0066685118 0.050680697 0.7010169
-0.0066289972 0.049717486 0.70006287
-0.006604101 0.048870385 0.69946182
-0.0063536931 0.04638198 0.69341648
-0.0063355519 0.045616001 0.6929785
-0.0063346275 0.044975877 0.69295621
-0.0063394587 0.044376254 0.6930728
-0.0063461741 0.043788612 0.69323492
-0.0063636308 0.043272674 0.69365638
-0.0064137876 0.042972386 0.69486725
-0.0064383643 0.042493224 0.69546068
-0.0064538145 0.041949838 0.69583362
-0.0064630816 0.041363746 0.69605732
-0.0064709778 0.040767163 0.69624799
-0.0064788684 0.040168971 0.69643849
-0.0064868028 0.039569527 0.69663006
-0.0064941258 0.038964748 0.69680679
-0.0064996649 0.038348049 0.69694054
-0.0065023168 0.037713468 0.69700456
-0.0065019517 0.037061125 0.69699574
-0.006500565 0.036403179 0.6969623
-0.0064991787 0.035745472 0.69692886
-0.0064977934 0.035088122 0.69689536
-0.0064963596 0.034430742 0.69686073
-0.0064959712 0.033779085 0.69685137
-0.0064958981 0.033129126 0.69684958
-0.0065046293 0.032523155 0.69706041
-0.0065584038 0.032136202 0.69835865
-0.0065872492 0.031618804 0.69905502
-0.006599911 0.031019568 0.69936073
-0.0066081453 0.030397505 0.69955945
-0.0066163996 0.029773802 0.69975877
-0.0066246493 0.029148459 0.69995797
-0.006632945 0.028521687 0.70015824
-0.0066412617 0.027893305 0.70035905
-0.0066495989 0.027263343 0.70056033
-0.0066579576 0.026631832 0.70076209
-0.0066663371 0.025998741 0.70096439
-0.0066747116 0.025363922 0.70116657
-0.0066831331 0.024727583 0.70136988
-0.006691576 0.024089664 0.70157373
-0.0067000403 0.023450136 0.70177805
-0.0067084483 0.02280876 0.70198101
-0.0067124916 0.022151202 0.7020787
-0.0067080599 0.021465808 0.70197165
-0.0066914987 0.020743668 0.70157182
-0.0065779961 0.019734025 0.69883162
-0.0064850594 0.018806696 0.69658792
-0.0064893714 0.018170267 0.69669205
-0.0064958255 0.017538756 0.69684792
-0.0065022921 0.016905963 0.69700396
-0.0065097474 0.016274393 0.69718397
-0.0067819562 0.016276717 0.70375562
-0.0067938371 0.015625834 0.70404255
-0.0067990483 0.014957905 0.70416832
-0.0068013375 0.014282852 0.70422363
-0.0068013375 0.013602674 0.70422363
-0.0068003256 0.012920648 0.70419914
-0.0067951656 0.01223132 0.70407456
-0.0067865392 0.011537135 0.7038663
-0.0067696413 0.010831445 0.70345837
-0.0067376122 0.010106415 0.70268512
-0.0067028836 0.0093840659 0.70184672
-0.0066685118 0.0086691082 0.70101684
-0.0066344901 0.0079614222 0.70019555
-0.0065992842 0.0072592497 0.69934559
-0.0065675024 0.0065675378 0.6985783
-0.0065345014 0.0058810413 0.69778162
-0.0065018297 0.0052014887 0.69699287
-0.00647783 0.004534483 0.6964134
-0.0064773951 0.0038864613 0.69640291
-0.0064842608 0.003242135 0.69656873
-0.0064932276 0.002597332 0.69678509
-0.0065021948 0.0019506514 0.69700158
-0.0065112114 0.0013022423 0.69721931
-0.0065202527 0.00065204501 0.69743764
-0.0065292949 2.9802322e-08 0.69765586
-0.0065383869 -0.00065383315 0.69787538
-0.0065483926 -0.0013096631 0.6981169
-0.0066164499 -0.0019849241 0.69975996
-0.006644716 -0.0026578903 0.70044243
-0.0066625788 -0.0033312738 0.70087367
-0.0066759679 -0.0040055513 0.70119685
-0.0066870172 -0.0046809018 0.70146364
-0.0066969153 -0.0053575039 0.70170259
-0.0067068171 -0.006036073 0.70194161
-0.0067167738 -0.006716758 0.70218199
-0.0067267343 -0.0073993504 0.70242244
-0.0067345044 -0.0080814064 0.70261008
-0.0067255883 -0.0087432563 0.70239484
-0.0066930195 -0.0093702078 0.70160854
-0.0066830046 -0.010024488 0.70136678
-0.0066655953 -0.01066494 0.70094645
-0.0066400687 -0.011288136 0.7003302
-0.0066288197 -0.011931866 0.70005858
-0.0066301352 -0.012597233 0.70009041
-0.0064562126 -0.012912393 0.6958915
-0.0063761487 -0.013389885 0.69395864
-0.0063092997 -0.013880461 0.69234473
-0.0063143442 -0.01452297 0.6924665
-0.0063239057 -0.015177369 0.69269741
-0.0063335192 -0.015833795 0.69292951
-0.0063431389 -0.016492128 0.69316167
-0.0063527874 -0.017152518 0.6933946
-0.0063624885 -0.017814964 0.69362885
-0.0063721966 -0.018479347 0.69386321
-0.0063819573 -0.019145846 0.69409883
-0.006391725 -0.019814372 0.69433469
-0.0064015221 -0.020484865 0.69457114
-0.0061642057 0.052738219 0.7053771
-0.006053803 0.051121026 0.70241559
-0.0060203089 0.050169259 0.70151711
-0.0059777983 0.049150795 0.70037675
-0.0057115355 0.046326905 0.69323444
-0.0057023703 0.045618981 0.69298851
-0.0057017258 0.044980288 0.69297123
-0.0057059079 0.044379324 0.69308347
-0.0057118693 0.043790996 0.69324338
-0.0057489355 0.043436438 0.69423759
-0.0057790438 0.043021768 0.69504529
-0.0057965037 0.042507708 0.69551361
-0.0058074621 0.041942805 0.69580758
-0.0058147619 0.041349471 0.69600338
-0.0058218632 0.040753067 0.69619387
-0.0058289603 0.040155113 0.69638425
-0.0058360961 0.039555788 0.69657564
-0.0058432496 0.038955003 0.69676757
-0.0058504208 0.038352787 0.69695991
-0.0058573023 0.037747085 0.69714451
-0.005862881 0.037131608 0.69729418
-0.005865938 0.036499172 0.69737619
-0.00586585 0.035846889 0.69737375
-0.005864596 0.035187572 0.69734019
-0.0058633424 0.034528613 0.69730651
-0.0058620893 0.033869833 0.69727296
-0.0058627268 0.033222139 0.69729006
-0.0058836401 0.032686919 0.697851
-0.0059170602 0.032215148 0.69874752
-0.0059301658 0.031627566 0.69909906
-0.0059378222 0.031008631 0.69930446
-0.0059452276 0.030386716 0.69950306
-0.0059526288 0.029763132 0.69970161
-0.005960071 0.029138148 0.69990122
-0.0059675318 0.028511554 0.70010138
-0.0059750113 0.02788341 0.700302
-0.0059825098 0.027253658 0.70050317
-0.0059900042 0.026622236 0.70070416
-0.00599754 0.025989354 0.70090634
-0.0060050949 0.025354862 0.70110899
-0.0060126693 0.024718791 0.70131218
-0.0060202624 0.024081081 0.70151585
-0.0060278745 0.023441762 0.70172006
-0.0060341787 0.022795796 0.70188916
-0.0060350168 0.022128403 0.70191163
-0.0060273632 0.021430641 0.70170629
-0.0059997723 0.020665854 0.70096624
-0.0058455653 0.019485205 0.69682968
-0.0058382316 0.01881209 0.69663292
-0.0058431625 0.018178791 0.69676524
-0.0058481232 0.017544359 0.69689834
-0.0058534872 0.016910076 0.69704217
-0.005872746 0.016313165 0.69755882
-0.0061098184 0.01629287 0.70391816
-0.0061194547 0.015638649 0.70417666
-0.0061254478 0.014973313 0.70433736
-0.0061299866 0.014303327 0.70445913
-0.0061333771 0.013629705 0.70455015
-0.0061354227 0.012952566 0.70460498
-0.0061358078 0.012271613 0.70461529
-0.0061348933 0.011588156 0.70459074
-0.0061306595 0.010898918 0.70447725
-0.0061234809 0.010205805 0.70428467
-0.0061093648 0.009503454 0.70390606
-0.0060795536 0.0087815821 0.70310628
-0.006041476 0.0080553293 0.7020849
-0.0059951944 0.0073274672 0.70084345
-0.0059561431 0.0066179335 0.69979584
-0.0059335185 0.0059335232 0.69918901
-0.0059172614 0.0052597821 0.69875294
-0.0058970875 0.004586637 0.69821179
-0.0058680736 0.0039120615 0.69743341
-0.0058443854 0.0032469034 0.69679803
-0.0058432058 0.0025970042 0.69676638
-0.0058490201 0.0019496977 0.69692236
-0.0058571268 0.0013016164 0.69713986
-0.005865234 0.00065171719 0.6973573
-0.0058733858 2.9802322e-08 0.69757599
-0.00588156 -0.00065347552 0.69779527
-0.0058897347 -0.0013087988 0.6980145
-0.005897955 -0.0019659996 0.69823498
-0.0059068003 -0.002625227 0.69847226
-0.005965665 -0.0033142865 0.70005131
-0.0059932182 -0.0039954782 0.70079041
-0.006009711 -0.004674226 0.70123279
-0.0060220012 -0.0053528845 0.70156246
-0.0060320832 -0.0060320497 0.70183289
-0.0060410323 -0.0067122579 0.70207298
-0.0060499846 -0.007394433 0.70231318
-0.006052725 -0.0080702901 0.70238662
-0.0060342019 -0.0087160468 0.70188975
-0.0060085333 -0.0093465745 0.7012012
-0.005999404 -0.009999007 0.70095634
-0.0059772953 -0.010626286 0.70036328
-0.0059587988 -0.011255503 0.69986707
-0.0059492313 -0.011898458 0.69961047
-0.0059460416 -0.012552708 0.69952488
-0.0057708109 -0.012823999 0.6948244
-0.00569971 -0.013299316 0.69291717
-0.0056704208 -0.01386103 0.69213152
-0.0056789885 -0.014512986 0.6923613
-0.0056876023 -0.015166968 0.69259238
-0.0056962217 -0.015822828 0.69282359
-0.0057048877 -0.016480774 0.69305611
-0.0057135597 -0.017140657 0.69328868
-0.0057222582 -0.017802596 0.69352204
-0.0057310043 -0.018466562 0.69375664
-0.0057397555 -0.019132525 0.69399142
-0.0057485341 -0.019800484 0.69422686
-0.0057573607 -0.020470589 0.69446361
-0.0057661929 -0.021142662 0.69470054
-0.0057750735 -0.021816909 0.69493878
-0.0054828823 0.052087396 0.70548534
-0.0054184576 0.050798029 0.70354116
-0.0051047597 0.047219068 0.69407451
-0.0050787753 0.046343833 0.69329035
-0.005071511 0.045643568 0.69307113
-0.0050730845 0.04502362 0.69311863
-0.0050757336 0.044412702 0.69319856
-0.0050840145 0.043849647 0.69344842
-0.00512035 0.043522954 0.69454497
-0.0051404615 0.043051392 0.69515193
-0.0051531359 0.0425134 0.69553435
-0.0051605976 0.041929871 0.69575953
-0.0051668901 0.041335136 0.69594944
-0.0051731984 0.04073897 0.69613981
-0.0051795021 0.040141135 0.69633007
-0.0051858411 0.039542079 0.69652134
-0.0051921951 0.038941473 0.69671309
-0.0051985653 0.038339436 0.69690537
-0.0052049505 0.037735939 0.69709802
-0.0052113323 0.037130743 0.6972906
-0.0052177296 0.036524117 0.69748366
-0.0052229846 0.035908043 0.69764227
-0.0052260482 0.035275817 0.69773471
-0.0052265394 0.034625798 0.69774956
-0.0052255569 0.033966154 0.69771987
-0.0052315365 0.033351034 0.69790035
-0.0052498742 0.032811701 0.69845378
-0.0052623968 0.032232195 0.69883162
-0.0052696397 0.03161788 0.69905019
-0.0052761808 0.030997574 0.6992476
-0.0052827587 0.030375868 0.69944608
-0.005289353 0.029752642 0.6996451
-0.0052959635 0.029127806 0.6998446
-0.0053025908 0.028501421 0.70004463
-0.0053092344 0.027873486 0.70024508
-0.0053158747 0.027243882 0.70044547
-0.0053225518 0.026612759 0.70064694
-0.0053292457 0.025980115 0.70084894
-0.0053359563 0.025345832 0.70105147
-0.0053426842 0.02470994 0.70125449
-0.0053494084 0.024072379 0.70145744
-0.0053561702 0.023433268 0.70166147
-0.0053602392 0.022781014 0.70178431
-0.0053574708 0.022099584 0.70170075
-0.0053454582 0.021381825 0.70133823
-0.0052713384 0.020426452 0.69910145
-0.0051907022 0.019465148 0.69666803
-0.0051925252 0.018822908 0.69672304
-0.0051968158 0.018188864 0.69685256
-0.0052012107 0.017554104 0.69698519
-0.0052061011 0.016919851 0.69713271
-0.0054168529 0.016927689 0.7034927
-0.0054305042 0.016291559 0.70390475
-0.0054386002 0.015635997 0.70414907
-0.0054456107 0.014975429 0.7043606
-0.0054516341 0.014310539 0.7045424
-0.0054572425 0.013643146 0.70471162
-0.0054612951 0.012970597 0.70483392
-0.0054645804 0.012295336 0.70493305
-0.0054664286 0.01161617 0.70498884
-0.0054670735 0.010934174 0.70500833
-0.0054662568 0.010249227 0.70498365
-0.0054628835 0.0095600486 0.70488185
-0.0054540085 0.0088627934 0.70461404
-0.005420106 0.008130163 0.70359093
-0.0053709485 0.0073850453 0.70210743
-0.0053184377 0.0066480637 0.70052278
-0.0052933614 0.0059550405 0.69976604
-0.0052831601 0.0052831769 0.69945818
-0.0052762809 0.0046167672 0.69925058
-0.0052703787 0.0039528012 0.69907248
-0.0052551343 0.0032844543 0.69861245
-0.005230729 0.0026153922 0.69787598
-0.0052078567 0.0019529462 0.69718575
-0.0052061789 0.0013015568 0.69713509
-0.0052108048 0.00065138936 0.69727468
-0.0052180039 -0 0.697492
-0.00522538 -0.0006531775 0.69771457
-0.0052326592 -0.0013081431 0.69793421
-0.0052399584 -0.0019649565 0.69815445
-0.0052472581 -0.0026236176 0.69837475
-0.0052545979 -0.0032840967 0.69859624
-0.0052623171 -0.0039467216 0.69882917
-0.0052799489 -0.004619956 0.69936132
-0.0053389082 -0.0053389072 0.70114058
-0.0053539006 -0.0060231388 0.70159298
-0.0053650811 -0.0067062974 0.70193034
-0.0053733359 -0.0073882937 0.70217955
-0.0053702635 -0.0080553889 0.70208681
-0.005340857 -0.0086789131 0.70119935
-0.0053270194 -0.0093222558 0.70078176
-0.0053182952 -0.0099717975 0.70051849
-0.0052965283 -0.010593027 0.69986165
-0.0052829194 -0.011226177 0.69945091
-0.0052764411 -0.011871964 0.69925547
-0.0051586251 -0.012251735 0.69570005
-0.0050947112 -0.012736738 0.69377124
-0.0050357357 -0.01321879 0.69199151
-0.0050369217 -0.013851494 0.69202733
-0.0050445269 -0.014503002 0.69225681
-0.0050521544 -0.015156448 0.692487
-0.0050598243 -0.01581195 0.69271845
-0.0050674984 -0.016469359 0.69295001
-0.0050751963 -0.017128795 0.69318241
-0.005082936 -0.017790288 0.69341594
-0.0050906809 -0.018453717 0.69364965
-0.0050984677 -0.019119233 0.69388461
-0.0051062601 -0.019786716 0.69411981
-0.0051140762 -0.020456254 0.69435567
-0.0051219347 -0.021127969 0.69459283
-0.0051297988 -0.021801621 0.69483018
-0.0051377062 -0.022477448 0.69506872
-0.0051456192 -0.023155302 0.69530755
-0.0044673048 0.047225803 0.69409657
-0.0044494565 0.046401471 0.69348103
-0.0044459105 0.045729399 0.69335872
-0.0044458294 0.045093417 0.69335592
-0.0044468045 0.044468075 0.69338953
-0.0044615031 0.043977678 0.69389653
-0.0044855941 0.043574363 0.69472736
-0.0044996347 0.043067962 0.69521159
-0.0045082583 0.042506456 0.69550902
-0.0045139645 0.041915357 0.69570583
-0.0045194663 0.04132086 0.69589555
-0.0045249821 0.040724844 0.69608581
-0.0045304941 0.040127248 0.69627595
-0.0045360369 0.03952837 0.69646704
-0.0045415931 0.038927943 0.69665873
-0.0045471629 0.038326085 0.69685078
-0.004552729 0.037722647 0.69704276
-0.0045583262 0.037117839 0.69723582
-0.0045639374 0.036511511 0.6974293
-0.0045695622 0.035903692 0.69762331
-0.0045752004 0.035294414 0.6978178
-0.0045800079 0.034677207 0.69798362
-0.0045838058 0.03405112 0.69811457
-0.0045901896 0.033442825 0.69833475
-0.0045975647 0.032839745 0.69858909
-0.0046035862 0.032225132 0.69879675
-0.0046092919 0.031606585 0.69899356
-0.0046150289 0.030986667 0.69919139
-0.0046207802 0.030365169 0.69938982
-0.0046265461 0.029742122 0.6995886
-0.0046323263 0.029117465 0.69978797
-0.0046381033 0.028491229 0.69998723
-0.0046439124 0.027863473 0.70018756
-0.0046497365 0.027234197 0.70038843
-0.0046555744 0.026603311 0.70058978
-0.0046614278 0.025970817 0.7007916
-0.0046672956 0.025336772 0.70099401
-0.0046731601 0.024701029 0.70119631
-0.0046790573 0.024063736 0.70139968
-0.0046842657 0.023421377 0.70157927
-0.004685421 0.022757769 0.70161915
-0.004680444 0.022064954 0.70144749
-0.004662089 0.021312416 0.70081443
-0.004551826 0.020158112 0.69701159
-0.0045442572 0.0194754 0.69675064
-0.0045474176 0.0188393 0.6968596
-0.0045506 0.018202454 0.69696933
-0.004553786 0.017564625 0.69707918
-0.004564845 0.016955167 0.69746059
-0.0047415942 0.016934276 0.70355648
-0.0047509484 0.016288966 0.70387912
-0.0047570439 0.015630305 0.70408934
-0.0047631548 0.014969945 0.70430011
-0.0047692819 0.014307886 0.7045114
-0.0047754245 0.013644099 0.70472324
-0.0047808499 0.012976587 0.7049104
-0.0047859862 0.012306809 0.70508754
-0.0047895485 0.011631757 0.70521039
-0.0047926819 0.010954738 0.70531845
-0.0047943066 0.010273546 0.70537448
-0.0047949115 0.0095898509 0.70539534
-0.0047900202 0.0088957548 0.70522666
-0.0047717332 0.0081801414 0.70459598
-0.0047243536 0.0074239969 0.70296186
-0.0046700016 0.0066714585 0.70108736
-0.0046392889 0.0059648156 0.70002812
-0.0046340916 0.0052961111 0.69984883
-0.0046329796 0.0046330094 0.6998105
-0.0046320441 0.003970325 0.6997782
-0.0046282187 0.0033058822 0.69964635
-0.0046234331 0.0026419759 0.69948125
-0.0046119485 0.0019765496 0.69908524
-0.0045909174 0.0013117194 0.69835985
-0.0045694588 0.00065279007 0.69761974
-0.0045662336 -0 0.69750851
-0.0045698024 -0.00065279007 0.6976316
-0.004575958 -0.0013074279 0.69784391
-0.004582372 -0.0019638538 0.69806516
-0.0045888559 -0.0026221871 0.69828874
-0.0045953584 -0.0032823682 0.69851297
-0.0046018441 -0.003944397 0.69873667
-0.0046082963 -0.0046083033 0.69895923
-0.0046149413 -0.0052742064 0.69918841
-0.0046281484 -0.0059504509 0.69964391
-0.0046817414 -0.0066881478 0.70149225
-0.004691259 -0.0073719323 0.70182049
-0.0046827327 -0.008027494 0.7015264
-0.004656163 -0.0086471736 0.7006101
-0.004651248 -0.0093024969 0.70044059
-0.0046390058 -0.0099406838 0.70001829
-0.0046217814 -0.010564059 0.69942427
-0.0046122284 -0.011201113 0.69909483
-0.0046078246 -0.011848658 0.69894296
-0.0044829156 -0.012167901 0.69463491
-0.004427765 -0.012650758 0.69273293
-0.0043978393 -0.013193488 0.69170082
-0.0044042738 -0.013841987 0.69192272
-0.0044109188 -0.014492989 0.6921519
-0.0044176001 -0.015146047 0.6923824
-0.0044242861 -0.015800983 0.69261289
-0.0044310079 -0.016458035 0.69284475
-0.0044377339 -0.017116964 0.69307673
-0.0044444809 -0.01777789 0.69330943
-0.0044512642 -0.018440962 0.69354343
-0.0044580521 -0.019105941 0.6937775
-0.004464861 -0.019772917 0.69401234
-0.0044717067 -0.020442069 0.69424844
-0.004478557 -0.021113157 0.69448465
-0.0044854451 -0.021786422 0.69472229
-0.0044923378 -0.022461683 0.69496
-0.004499252 -0.023139 0.69519836
-0.0045062038 -0.023818493 0.69543815
-0.0045131603 -0.024500012 0.69567811
-0.0038378164 0.047333091 0.69444656
-0.0038248191 0.046535313 0.69392359
-0.0038210058 0.045852095 0.69377017
-0.0038191299 0.045193046 0.69369465
-0.0038189199 0.044554055 0.69368625
-0.0038321589 0.044069856 0.69421887
-0.0038476759 0.043607026 0.69484329
-0.0038573148 0.043073356 0.69523114
-0.0038630757 0.04249385 0.69546294
-0.0038677771 0.041900933 0.69565207
-0.00387249 0.041306585 0.69584173
-0.0038772144 0.040710777 0.69603181
-0.003881936 0.04011333 0.69622183
-0.0038866834 0.039514631 0.6964128
-0.0038914424 0.038914442 0.69660431
-0.0038962134 0.038312793 0.69679624
-0.003900981 0.037709504 0.69698811
-0.0039057753 0.037104875 0.69718099
-0.0039105816 0.036498755 0.6973744
-0.0039153993 0.035891175 0.69756824
-0.0039202292 0.035282075 0.69776261
-0.0039250706 0.034671456 0.6979574
-0.0039299093 0.034059197 0.69815212
-0.003934775 0.033445597 0.69834787
-0.0039396528 0.032830447 0.69854414
-0.0039445423 0.032213777 0.6987409
-0.0039494294 0.031595439 0.69893754
-0.0039543435 0.030975699 0.69913524
-0.0039592697 0.03035441 0.69933343
-0.0039642085 0.029731572 0.69953221
-0.0039691445 0.029107034 0.69973081
-0.0039741076 0.028481096 0.69993049
-0.0039790836 0.027853608 0.7001307
-0.0039840718 0.027224511 0.70033139
-0.0039890725 0.026593864 0.70053262
-0.0039940705 0.025961488 0.70073372
-0.0039990963 0.025327623 0.70093596
-0.0040041348 0.024692178 0.70113868
-0.0040091863 0.024055123 0.70134193
-0.0040126741 0.02340728 0.7014823
-0.0040113921 0.022731245 0.70143074
-0.0040031662 0.022017419 0.70109969
-0.0039602327 0.021121264 0.69937217
-0.0038981803 0.020140588 0.69687545
-0.0038989969 0.01949501 0.69690824
-0.0039012001 0.01885584 0.69699693
-0.0039039177 0.018218279 0.6971063
-0.0039070491 0.017581731 0.69723225
-0.0040535876 0.017565578 0.70312852
-0.0040644775 0.016935349 0.70356667
-0.0040707625 0.016283035 0.70381957
-0.0040759835 0.015624642 0.70402962
-0.0040812176 0.014964491 0.70424032
-0.0040864656 0.014302641 0.70445144
-0.0040917108 0.013639063 0.7046625
-0.0040969853 0.012973785 0.70487475
-0.0041022738 0.012306809 0.70508754
-0.0041070418 0.011636615 0.70527935
-0.0041116099 0.010964304 0.70546317
-0.0041147261 0.010286838 0.70558852
-0.0041165459 0.0096052885 0.70566177
-0.0041130213 0.00891155 0.70551991
-0.0041002892 0.0082006156 0.70500767
-0.0040607252 0.0074446499 0.70341575
-0.0040068743 0.0066781342 0.70124894
-0.0039778841 0.0059668422 0.70008242
-0.0039776564 0.0053035617 0.7000733
-0.0039793872 0.0046426654 0.70014292
-0.00398112 0.0039811134 0.70021266
-0.0039807092 0.0033172667 0.70019615
-0.0039827931 0.0026552379 0.70027995
-0.0039846809 0.0019923449 0.70035589
-0.0039817584 0.0013272762 0.70023829
-0.0039671203 0.00066119432 0.69964933
-0.0039473656 2.9802322e-08 0.69885451
-0.003927792 -0.00065460801 0.69806689
-0.0039233863 -0.0013077855 0.69788963
-0.0039260169 -0.0019629896 0.69799548
-0.0039311247 -0.0026207268 0.698201
-0.0039365282 -0.003280431 0.6984185
-0.0039420812 -0.0039420426 0.69864184
-0.0039476794 -0.0046056211 0.69886714
-0.0039532939 -0.0052710176 0.69909304
-0.0039589391 -0.0059384108 0.69932014
-0.0039646309 -0.0066077113 0.6995492
-0.0039716852 -0.0072813928 0.69983304
-0.0039773225 -0.0079546273 0.70005989
-0.0039816368 -0.0086268783 0.70023346
-0.003978461 -0.0092830658 0.70010567
-0.0039644348 -0.0099110603 0.69954133
-0.0039520646 -0.010538816 0.69904351
-0.0039455132 -0.011178941 0.69877994
-0.0038642071 -0.011592627 0.69550842
-0.0038164032 -0.012085289 0.69358492
-0.003769754 -0.012565851 0.69170797
-0.0037668252 -0.013183862 0.69159007
-0.0037725097 -0.013832539 0.69181883
-0.003778198 -0.014483064 0.69204766
-0.0037839033 -0.015135616 0.69227725
-0.0037896396 -0.015790135 0.69250804
-0.0037953795 -0.01644665 0.69273901
-0.003801137 -0.017105103 0.69297069
-0.0038069256 -0.017765641 0.69320357
-0.0038127182 -0.018428147 0.69343674
-0.0038185422 -0.019092709 0.69367105
-0.0038243702 -0.019759238 0.69390553
-0.0038302157 -0.020427793 0.69414067
-0.0038360935 -0.021098495 0.69437724
-0.003841975 -0.021771163 0.69461393
-0.0038478889 -0.022446007 0.69485188
-0.0038538068 -0.023122817 0.69508994
-0.003859743 -0.023801744 0.69532877
-0.0038657116 -0.024482787 0.69556898
-0.0038716847 -0.025165915 0.6958093
-0.0038776759 -0.02585119 0.69605041
-0.0033430583 0.050145864 0.70144188
-0.0032094766 0.047500253 0.69499201
-0.0032006549 0.046729565 0.69456601
-0.003196415 0.046028405 0.69436133
-0.0031936301 0.045349568 0.69422686
-0.0031915063 0.044681102 0.69412434
-0.0031974504 0.044124842 0.69441134
-0.0032076871 0.04362455 0.69490564
-0.0032140128 0.043067783 0.69521105
-0.0032181207 0.042479217 0.69540936
-0.0032220357 0.041886449 0.69559842
-0.0032259605 0.04129231 0.69578791
-0.0032298947 0.040696651 0.69597793
-0.0032338267 0.040099472 0.69616771
-0.0032377802 0.039500952 0.69635856
-0.0032417432 0.038900942 0.69654995
-0.0032457162 0.038299471 0.69674182
-0.0032496988 0.037696511 0.6969341
-0.003253679 0.037091941 0.69712627
-0.0032576811 0.036486059 0.69731951
-0.0032616933 0.035878658 0.69751322
-0.0032657152 0.035269767 0.69770741
-0.0032697348 0.034659207 0.69790155
-0.0032737767 0.034047306 0.69809669
-0.0032778285 0.033433855 0.69829237
-0.0032818904 0.032818884 0.69848847
-0.0032859624 0.032202423 0.69868505
-0.003290032 0.031584322 0.69888151
-0.0032941243 0.030964792 0.69907916
-0.0032982139 0.030343592 0.69927657
-0.0033023267 0.029720992 0.69947517
-0.0033064494 0.029096752 0.69967425
-0.0033105826 0.028471023 0.69987381
-0.0033147261 0.027843714 0.70007384
-0.00331888 0.027214795 0.70027447
-0.0033230316 0.026584268 0.70047492
-0.0033272065 0.02595222 0.7006765
-0.0033313916 0.025318593 0.70087862
-0.0033355874 0.024683326 0.70108116
-0.0033394983 0.024044424 0.70127004
-0.0033406927 0.023384869 0.70132768
-0.0033376506 0.022696048 0.70118076
-0.0033262381 0.021953195 0.70062971
-0.0032573147 0.020846844 0.69730181
-0.003251292 0.020158023 0.69701105
-0.0032530697 0.019518435 0.69709688
-0.0032548495 0.018878132 0.69718277
-0.0032566309 0.018237144 0.69726884
-0.0032635191 0.017623007 0.69760144
-0.0033793692 0.017572731 0.70319515
-0.0033866153 0.016933084 0.70354503
-0.0033910708 0.016277164 0.70376015
-0.0033954182 0.01561892 0.70397007
-0.003399777 0.014959008 0.70418048
-0.0034041335 0.014297366 0.70439088
-0.0034085147 0.013634056 0.70460242
-0.0034129072 0.012969047 0.70481449
-0.003417311 0.012302339 0.7050271
-0.0034217262 0.011633843 0.70524031
-0.0034261527 0.010963708 0.70545405
-0.0034302115 0.010290682 0.70564997
-0.003431824 0.009609133 0.70572793
-0.003428722 0.0089146793 0.70557809
-0.0034183194 0.0082039833 0.7050758
-0.0033831729 0.007442981 0.7033788
-0.0033289916 0.0066579878 0.70076269
-0.0033135756 0.0059644282 0.70001835
-0.0033166118 0.0053066015 0.70016497
-0.0033198439 0.0046477616 0.70032096
-0.0033224851 0.0039870143 0.70044851
-0.0033259324 0.0033259094 0.70061499
-0.003338356 0.0026707053 0.70121485
-0.0033632759 0.0020179451 0.70241809
-0.003361519 0.0013446212 0.70233327
-0.0033495163 0.00066995621 0.70175374
-0.0033330789 -0 0.70096004
-0.0033163459 -0.00066325068 0.70015216
-0.0032997676 -0.0013198555 0.69935161
-0.0032833666 -0.0019699931 0.69855976
-0.0032775688 -0.0026220381 0.69827974
-0.0032792639 -0.0032792389 0.69836158
-0.0032833915 -0.003940016 0.69856089
-0.0032878777 -0.0046029985 0.69877756
-0.0032924386 -0.0052679181 0.6989978
-0.0032971124 -0.0059347749 0.6992234
-0.0033017995 -0.0066035986 0.69944972
-0.0033065125 -0.0072742999 0.69967729
-0.0033114282 -0.0079473853 0.69991463
-0.0033132343 -0.0086143911 0.70000184
-0.0033076203 -0.0092613399 0.69973075
-0.0032907175 -0.0098721385 0.69891465
-0.0032735423 -0.010475308 0.69808543
-0.0032565577 -0.011072278 0.69726527
-0.0031981803 -0.011513442 0.69444656
-0.0031588713 -0.01200372 0.69254851
-0.0031328285 -0.012531281 0.69129109
-0.0031368786 -0.013174862 0.6914866
-0.0031415981 -0.013823032 0.69171453
-0.0031463315 -0.01447311 0.69194305
-0.0031510908 -0.015125245 0.69217288
-0.0031558531 -0.015779227 0.69240284
-0.0031606413 -0.016435295 0.69263399
-0.0031654325 -0.017093331 0.69286537
-0.0031702383 -0.017753333 0.69309741
-0.00317507 -0.018415391 0.69333076
-0.003179905 -0.019079417 0.69356418
-0.0031847665 -0.019745529 0.6937989
-0.0031896313 -0.020413637 0.6940338
-0.0031945109 -0.021083742 0.69426942
-0.0031994171 -0.021756053 0.69450629
-0.0032043268 -0.022430271 0.69474339
-0.0032092514 -0.023106605 0.6949811
-0.0032142031 -0.023785114 0.69522023
-0.0032191582 -0.024465561 0.69545949
-0.0032241405 -0.025148302 0.69570005
-0.0032291263 -0.025832981 0.69594073
-0.0032341275 -0.026519805 0.69618225
-0.0032391564 -0.027208894 0.69642508
-0.0026668622 0.050003678 0.70098412
-0.0025798965 0.047728091 0.69573528
-0.0025739148 0.046973944 0.69537425
-0.0025704019 0.046267271 0.69516224
-0.0025670596 0.045565307 0.69496053
-0.00256401 0.044870198 0.69477648
-0.0025622705 0.044199169 0.69467145
-0.0025665287 0.043630987 0.69492853
-0.0025704969 0.043055832 0.69516802
-0.0025736098 0.042464554 0.69535583
-0.0025767398 0.041872025 0.69554484
-0.0025798774 0.041278034 0.69573414
-0.0025830227 0.040682614 0.69592398
-0.0025861659 0.040085584 0.69611371
-0.0025893266 0.039487243 0.69630444
-0.0025924949 0.038887471 0.69649565
-0.002595671 0.03828615 0.69668734
-0.0025988452 0.037683278 0.69687891
-0.0026020368 0.037079066 0.69707155
-0.0026052364 0.036473304 0.69726467
-0.0026084438 0.035866112 0.69745827
-0.0026116492 0.03525728 0.69765174
-0.0026148725 0.034647077 0.69784629
-0.0026181038 0.034035355 0.69804132
-0.0026213429 0.033422142 0.69823682
-0.0026245902 0.03280741 0.6984328
-0.0026278354 0.032190979 0.69862866
-0.0026310987 0.031573206 0.6988256
-0.0026343602 0.030953765 0.69902241
-0.0026376399 0.030332834 0.69922042
-0.0026409277 0.029710472 0.69941884
-0.0026442236 0.029086471 0.69961774
-0.0026475277 0.02846092 0.69981724
-0.0026508402 0.027833849 0.70001709
-0.0026541508 0.02720505 0.70021695
-0.0026574798 0.02657482 0.70041788
-0.0026608172 0.025942981 0.70061928
-0.0026641632 0.025309592 0.70082122
-0.0026675174 0.024674565 0.7010237
-0.0026700695 0.024030626 0.70117772
-0.0026696282 0.023359299 0.70115107
-0.0026648475 0.022651225 0.70086253
-0.0026446562 0.021818429 0.69964385
-0.0026045919 0.020836741 0.69722581
-0.0026048848 0.020187855 0.69724351
-0.0026059006 0.019544274 0.69730473
-0.002607025 0.018900931 0.69737262
-0.0026086592 0.018260598 0.69747126
-0.0026959649 0.018197805 0.70274067
-0.0027040739 0.017576486 0.70323008
-0.0027084053 0.01692754 0.70349151
-0.0027118719 0.016271263 0.70370066
-0.0027153476 0.015613258 0.70391047
-0.0027188214 0.014953524 0.7041201
-0.0027223146 0.014292181 0.70433098
-0.002725817 0.013629109 0.70454234
-0.0027293283 0.012964308 0.70475429
-0.002732849 0.012297809 0.70496678
-0.0027363785 0.011629641 0.70517981
-0.0027399063 0.010959625 0.70539272
-0.0027429885 0.010286182 0.70557874
-0.0027437033 0.0096029639 0.7056219
-0.0027408355 0.0089077353 0.70544881
-0.0027307335 0.0081922412 0.70483905
-0.0026914857 0.0074016154 0.7024703
-0.002650911 0.0066272914 0.70002139
-0.0026504965 0.0059636235 0.69999641
-0.0026536034 0.0053072274 0.70018387
-0.0026567078 0.0046492517 0.70037121
-0.0026594833 0.0039892197 0.70053881
-0.0027497502 0.0034372211 0.70598692
-0.0027509583 0.0027509928 0.70605981
-0.0027435408 0.0020576715 0.70561212
-0.0027302185 0.0013651252 0.704808
-0.002716186 0.00067904592 0.70396113
-0.0027022969 2.9802322e-08 0.70312285
-0.0026885387 -0.00067210197 0.70229244
-0.0026749307 -0.0013374388 0.70147109
-0.0026614594 -0.0019960701 0.70065802
-0.0026481128 -0.0026481152 0.69985253
-0.0026349097 -0.0032936335 0.69905561
-0.0026285511 -0.0039428174 0.69867188
-0.0026294959 -0.0046016276 0.69872892
-0.0026327237 -0.0052654445 0.69892371
-0.002636279 -0.0059316158 0.69913828
-0.0026399244 -0.0065998137 0.69935834
-0.0026436301 -0.0072699487 0.69958192
-0.0026468823 -0.00794065 0.69977826
-0.002646449 -0.00860098 0.69975209
-0.0026382306 -0.0092338026 0.69925606
-0.0026244316 -0.0098416209 0.69842321
-0.0026107859 -0.010443121 0.69759965
-0.0025729809 -0.010935128 0.69531792
-0.00254118 -0.0114353 0.69339854
-0.0025125244 -0.011934489 0.69166899
-0.0025042309 -0.012521148 0.69116843
-0.0025077823 -0.013165861 0.69138283
-0.0025115616 -0.013813555 0.69161087
-0.0025153435 -0.014463216 0.69183916
-0.0025191365 -0.015114814 0.6920681
-0.0025229501 -0.015768468 0.69229829
-0.0025267662 -0.016423941 0.69252861
-0.002530603 -0.017081589 0.69276023
-0.0025344423 -0.017741084 0.69299191
-0.0025382934 -0.018402606 0.69322431
-0.0025421653 -0.019066215 0.69345802
-0.0025460399 -0.01973179 0.69369185
-0.0025499261 -0.020399362 0.69392639
-0.0025538336 -0.021069109 0.69416225
-0.0025577438 -0.021740824 0.69439828
-0.0025616754 -0.022414654 0.69463557
-0.0025656098 -0.023090482 0.69487303
-0.002569556 -0.023768395 0.69511116
-0.0025735241 -0.024448454 0.69535065
-0.0025774948 -0.02513054 0.69559032
-0.0025814874 -0.025814861 0.6958313
-0.0025854828 -0.026501179 0.69607246
-0.0025894905 -0.027189642 0.69631439
-0.0025935203 -0.027880371 0.69655752
-0.0025975532 -0.028573096 0.69680095
-0.0020076276 0.050859898 0.70158613
-0.0019978697 0.049946755 0.7008009
-0.0019966145 0.049249858 0.70069987
-0.0019431968 0.047284484 0.69640112
-0.0019388668 0.04653281 0.69605273
-0.0019358207 0.045814455 0.69580758
-0.0019331713 0.045107365 0.69559437
-0.0019305506 0.044402689 0.69538343
-0.0019282008 0.04370591 0.69519436
-0.0019278157 0.043054581 0.69516337
-0.0019295429 0.042449951 0.69530237
-0.0019318886 0.0418576 0.69549119
-0.0019342402 0.041263819 0.69568038
-0.0019365903 0.040668398 0.69586957
-0.0019389534 0.040071696 0.6960597
-0.0019413222 0.039473563 0.69625032
-0.0019436968 0.038873911 0.69644141
-0.00194607 0.038272709 0.69663239
-0.0019484562 0.037670165 0.69682443
-0.0019508483 0.037066132 0.69701689
-0.0019532463 0.036460608 0.69720989
-0.0019556428 0.035853475 0.69740272
-0.0019580526 0.035245001 0.69759667
-0.0019604682 0.034634948 0.69779104
-0.0019628902 0.034023434 0.69798595
-0.0019653104 0.033410311 0.69818074
-0.001967744 0.032795757 0.69837654
-0.0019701838 0.032179683 0.69857287
-0.0019726295 0.03156206 0.69876975
-0.0019750739 0.030942827 0.69896644
-0.0019775319 0.030322164 0.69916421
-0.001979996 0.029699951 0.69936252
-0.0019824661 0.029076189 0.6995613
-0.001984935 0.028450757 0.69975996
-0.0019874175 0.027823865 0.69995975
-0.0019899064 0.027195394 0.70016003
-0.0019924014 0.026565343 0.70036083
-0.0019949027 0.025933743 0.70056212
-0.0019974103 0.025300562 0.70076388
-0.001999832 0.02466464 0.70095879
-0.0020008071 0.024009705 0.70103729
-0.0019992567 0.023324698 0.70091248
-0.0019935139 0.022593141 0.70045042
-0.0019596133 0.021555781 0.69772226
-0.0019561127 0.020865202 0.69744056
-0.0019566927 0.020219177 0.69748718
-0.001957457 0.019574583 0.69754875
-0.0019582219 0.018929511 0.69761032
-0.0019623875 0.018315643 0.69794548
-0.0020231511 0.018208385 0.70283538
-0.0020277873 0.017574161 0.70320845
-0.0020305682 0.016921401 0.7034322
-0.0020331664 0.016265333 0.7036413
-0.0020357629 0.015607536 0.70385027
-0.0020383743 0.01494807 0.70406049
-0.0020409925 0.014286995 0.70427114
-0.0020436172 0.013624161 0.70448232
-0.0020462489 0.012959599 0.70469415
-0.0020488792 0.012293279 0.70490587
-0.0020515244 0.01162532 0.70511872
-0.0020541765 0.010955632 0.7053321
-0.0020560483 0.010280281 0.70548272
-0.0020554077 0.0095919073 0.70543122
-0.0020514193 0.0088894963 0.70511025
-0.0020383582 0.0081534386 0.70405924
-0.0020012602 0.0073379576 0.70107377
-0.0019859788 0.0066199303 0.69984394
-0.0019877132 0.0059631467 0.69998354
-0.0019900354 0.0053067803 0.70017046
-0.0019923632 0.0046488643 0.70035774
-0.0019964615 0.003992945 0.70068753
-0.0020745681 0.0034576058 0.70697314
-0.0020744856 0.0027659833 0.70696646
-0.0020728933 0.0020729303 0.70683831
-0.0020700693 0.0013800561 0.70661104
-0.0020645182 0.00068816543 0.70616442
-0.0020543223 -0 0.70534384
-0.0020437294 -0.00068125129 0.70449138
-0.0020332455 -0.0013554692 0.70364773
-0.0020228606 -0.0020228326 0.70281196
-0.002012589 -0.0026834309 0.70198536
-0.0020024213 -0.0033373535 0.70116711
-0.0019923481 -0.0039846599 0.70035654
-0.0019823832 -0.0046255589 0.69955468
-0.0019763096 -0.0052701831 0.69906592
-0.0019767068 -0.0059301257 0.69909787
-0.0019790637 -0.0065968931 0.69928753
-0.0019817275 -0.0072663426 0.69950187
-0.001983681 -0.0079347193 0.69965911
-0.0019811473 -0.0085849762 0.6994552
-0.00197254 -0.0092051625 0.69876254
-0.0019622545 -0.0098112822 0.69793481
-0.0019520831 -0.010411054 0.69711626
-0.0019208459 -0.010884792 0.69460249
-0.0018996818 -0.011398107 0.69289935
-0.0018791278 -0.01190111 0.69124532
-0.0018779836 -0.012519866 0.69115317
-0.0018802667 -0.013161838 0.69133699
-0.0018825622 -0.013805449 0.69152164
-0.0018852178 -0.014453292 0.69173539
-0.0018880588 -0.015104443 0.69196397
-0.0018909083 -0.015757591 0.69219333
-0.0018937733 -0.016412675 0.69242388
-0.0018966402 -0.017069727 0.69265455
-0.0018995156 -0.017728806 0.69288599
-0.0019024068 -0.01838994 0.69311863
-0.0019052998 -0.019053012 0.69335145
-0.0019082086 -0.01971814 0.69358552
-0.0019111193 -0.020385236 0.69381976
-0.0019140388 -0.021054417 0.69405466
-0.0019169744 -0.021725684 0.69429094
-0.0019199119 -0.022398949 0.69452733
-0.0019228585 -0.023074299 0.69476444
-0.0019258212 -0.023751795 0.69500291
-0.0019287859 -0.024431258 0.69524145
-0.001931767 -0.025112927 0.6954813
-0.00193475 -0.025796652 0.69572145
-0.0019377423 -0.026482493 0.69596225
-0.0019407511 -0.027170509 0.6962043
-0.0019437621 -0.027860582 0.69644666
-0.0019467896 -0.02855289 0.69669032
-0.0019498193 -0.029247314 0.6969341
-0.0019528584 -0.029943824 0.69717866
-0.0013378566 0.05083859 0.7015183
-0.0013328225 0.049980849 0.70091069
-0.0013317395 0.049274385 0.70077997
-0.0013324698 0.048635155 0.70086813
-0.0013337946 0.048016608 0.70102799
-0.0013453051 0.047758371 0.70241743
-0.0012962571 0.045369029 0.69649684
-0.0012941859 0.044649452 0.6962468
-0.0012923807 0.043940932 0.69602895
-0.0012906095 0.043235421 0.69581509
-0.0012889769 0.042536229 0.69561803
-0.0012881836 0.041865975 0.69552231
-0.0012890726 0.041250318 0.6956296
-0.0012906143 0.040654361 0.69581568
-0.0012921885 0.040057838 0.6960057
-0.0012937667 0.039459914 0.6961962
-0.0012953437 0.038860321 0.69638658
-0.0012969297 0.038259417 0.69657803
-0.0012985193 0.037657082 0.69676989
-0.0013001129 0.037053227 0.69696224
-0.0013017056 0.036447763 0.69715452
-0.0013033071 0.035840988 0.69734788
-0.0013049125 0.035232633 0.69754159
-0.0013065218 0.034622848 0.69773585
-0.0013081303 0.034011424 0.69793004
-0.0013097476 0.033398569 0.6981253
-0.0013113689 0.032784224 0.69832098
-0.0013129943 0.032168388 0.6985172
-0.0013146236 0.031550974 0.69871384
-0.001316252 0.03093192 0.69891042
-0.0013178895 0.030311495 0.69910806
-0.0013195311 0.029689431 0.69930625
-0.0013211718 0.029065788 0.69950426
-0.0013228215 0.028440654 0.69970345
-0.0013244754 0.027814001 0.69990313
-0.0013261334 0.027185768 0.70010322
-0.0013277956 0.026555926 0.70030385
-0.0013294568 0.025924385 0.70050442
-0.0013311272 0.025291413 0.70070601
-0.0013324851 0.024650991 0.70086992
-0.0013324851 0.02398473 0.70086992
-0.0013304392 0.023282677 0.70062298
-0.0013231892 0.022494227 0.6997478
-0.0013065709 0.021558434 0.69774181
-0.0013065709 0.020905167 0.69774181
-0.0013068658 0.02025643 0.69777739
-0.0013071559 0.019607365 0.69781244
-0.0013076577 0.018961042 0.697873
-0.0013447481 0.018826514 0.7023502
-0.0013492125 0.018214375 0.70288914
-0.0013514953 0.017569453 0.7031647
-0.0013532165 0.016915232 0.70337242
-0.0013549472 0.016259372 0.70358139
-0.0013566825 0.015601873 0.70379084
-0.0013584221 0.014942676 0.70400083
-0.0013601662 0.01428175 0.70421135
-0.0013619149 0.013619184 0.70442247
-0.0013636627 0.012954831 0.70463341
-0.0013654203 0.012288779 0.70484561
-0.0013671825 0.011621058 0.70505828
-0.001368836 0.010950685 0.70525789
-0.001369397 0.010270506 0.7053256
-0.0013682161 0.0095775425 0.70518303
-0.0013641338 0.0088668764 0.70469028
-0.0013471149 0.0080826879 0.70263594
-0.0013250612 0.0072878599 0.69997382
-0.0013240918 0.0066204667 0.69985676
-0.0013254302 0.0059644282 0.70001835
-0.0013267765 0.005307138 0.70018089
-0.0013281356 0.0046484768 0.70034492
-0.00138471 0.0041541457 0.70717406
-0.0013861075 0.0034653246 0.70734274
-0.0013865998 0.0027732253 0.70740211
-0.0013866662 0.0020799935 0.70741022
-0.0013864946 0.0013865232 0.70738941
-0.0013855105 0.00069278479 0.70727068
-0.0013838276 2.9802322e-08 0.70706749
-0.0013804904 -0.00069022179 0.70666468
-0.0013740161 -0.0013740063 0.70588315
-0.0013669082 -0.0020503402 0.70502514
-0.0013598682 -0.0027197003 0.70417535
-0.0013529055 -0.0033822656 0.70333493
-0.0013460139 -0.0040380359 0.70250303
-0.0013391922 -0.0046871901 0.70167959
