# .PCD v0.7 - Point Cloud Data file format
VERSION 0.7
FIELDS x y z
SIZE 4 4 4
TYPE F F F
COUNT 1 1 1
WIDTH 1335
HEIGHT 1
VIEWPOINT 0 0 0 1 0 0 0
POINTS 1335
DATA ascii
-0.0040711919 -0.045461625 0.70383686
-0.0040712077 -0.046140343 0.70383757
-0.0040712077 -0.046818912 0.70383751
-0.0040712077 -0.047497422 0.70383751
-0.0040712235 -0.04817611 0.70383817
-0.0040712235 -0.048854679 0.70383817
-0.0040712235 -0.049533188 0.70383817
-0.0040712394 -0.050211966 0.70383877
-0.0040712394 -0.050890476 0.70383883
-0.0040712552 -0.051569223 0.70383942
-0.0040712552 -0.052247733 0.70383942
-0.0040712552 -0.052926302 0.70383942
-0.004071271 -0.05360508 0.70384014
-0.004071271 -0.054283589 0.70384002
-0.0040712873 -0.054962337 0.70384073
-0.0040712873 -0.055640936 0.70384073
-0.0040712873 -0.056319445 0.70384067
-0.0040713032 -0.056998223 0.70384133
-0.0040713032 -0.057676822 0.70384133
-0.0040713032 -0.058355331 0.70384133
-0.004071319 -0.059034139 0.70384198
-0.004071319 -0.059712678 0.70384198
-0.0040713348 -0.060391456 0.70384264
-0.0040713348 -0.061069995 0.70384264
-0.0040713348 -0.061748534 0.70384264
-0.0040713507 -0.062427342 0.70384324
-0.0040715099 -0.063108385 0.70384967
-0.0040739444 -0.063825101 0.7039476
-0.0040813773 -0.064621806 0.70424676
-0.0040994827 -0.065591693 0.70497525
-0.0033886367 0.057606846 0.70364261
-0.0033823431 0.056823373 0.70333874
-0.0033809608 0.056123972 0.70327199
-0.0033802108 0.055435479 0.70323575
-0.0033794481 0.054747075 0.70319891
-0.0033786988 0.054059207 0.70316279
-0.0033779368 0.053371429 0.70312595
-0.0033771882 0.052684158 0.70308983
-0.0033752201 0.051978409 0.70299482
-0.0033692112 0.051212043 0.70270467
-0.0033668738 0.050503135 0.70259178
-0.0033258561 0.049222678 0.70061129
-0.0033177391 0.048438966 0.70021939
-0.0033173212 0.047769457 0.70019919
-0.0033173338 0.047106147 0.70019984
-0.0033173212 0.046442509 0.70019919
-0.0033173212 0.045779049 0.70019919
-0.0033173212 0.04511562 0.70019919
-0.0033173212 0.044452101 0.70019919
-0.0033173338 0.04378885 0.70019978
-0.0033173338 0.043125361 0.70019978
-0.0033173338 0.042461902 0.70019978
-0.0033173212 0.041798264 0.70019919
-0.0033173212 0.041134804 0.70019919
-0.0033173212 0.040471345 0.70019919
-0.0033173212 0.039807856 0.70019919
-0.0033173212 0.039144397 0.70019919
-0.0033173212 0.038480908 0.70019919
-0.0033173212 0.037817478 0.70019919
-0.0033173338 0.037154138 0.70019978
-0.0033173338 0.036490679 0.70019978
-0.0033173338 0.035827219 0.70019978
-0.0033173338 0.03516376 0.70019978
-0.0033173338 0.034500301 0.70019978
-0.0033173338 0.033836842 0.70019978
-0.0033173338 0.033173323 0.70019978
-0.0033173338 0.032509893 0.70019978
-0.0033173338 0.031846434 0.70019978
-0.0033173338 0.031182945 0.70019978
-0.0033173338 0.030519485 0.70019978
-0.0033173338 0.029856026 0.70019978
-0.0033173338 0.029192567 0.70019978
-0.0033173338 0.028529078 0.70019978
-0.0033173338 0.027865618 0.70019978
-0.0033173212 0.02720204 0.70019919
-0.0033173212 0.026538551 0.70019919
-0.0033173212 0.025875121 0.70019919
-0.0033173212 0.025211662 0.70019919
-0.0033173212 0.024548173 0.70019919
-0.0033173212 0.023884714 0.70019919
-0.0033173212 0.023221284 0.70019919
-0.0033173212 0.022557765 0.70019919
-0.0033173212 0.021894306 0.70019919
-0.0033173212 0.021230876 0.70019919
-0.0033173212 0.020567387 0.70019919
-0.0033173212 0.019903958 0.70019913
-0.0033173212 0.019240499 0.70019913
-0.0033173212 0.018577009 0.70019913
-0.0033173212 0.01791355 0.70019913
-0.0033173338 0.01725015 0.70019978
-0.0033173338 0.016586721 0.70019978
-0.0033173338 0.015923232 0.70019978
-0.0033173338 0.015259743 0.70019978
-0.0033173338 0.014596283 0.70019978
-0.0033173338 0.013932854 0.70019978
-0.0033173338 0.013269365 0.70019978
-0.0033173338 0.012605906 0.70019978
-0.0033173338 0.011942446 0.70019978
-0.0033173212 0.011278927 0.70019919
-0.0033173212 0.010615438 0.70019919
-0.0033173212 0.0099519491 0.70019919
-0.0033173845 0.0092886984 0.70020223
-0.0033175491 0.0086256266 0.70021021
-0.0033177265 0.0079625547 0.70021874
-0.003317904 0.0072994232 0.70022732
-0.0033180688 0.0066361427 0.70023525
-0.0033182462 0.005972892 0.70024383
-0.0033184108 0.0053094923 0.70025182
-0.0033185885 0.0046460629 0.70026034
-0.0033187533 0.0039825141 0.70026827
-0.0033189307 0.0033189654 0.70027685
-0.0033190956 0.0026552677 0.7002849
-0.0033192732 0.00199157 0.70029342
-0.0033194507 0.0013277829 0.70030195
-0.0033196283 0.00066396594 0.70031059
-0.0033197934 -0 0.70031857
-0.0033199708 -0.00066396594 0.70032716
-0.0033201484 -0.0013280511 0.70033574
-0.0033203135 -0.001992166 0.70034367
-0.0033204786 -0.0026563704 0.7003516
-0.0033206563 -0.0033206344 0.70036024
-0.0033208339 -0.0039849877 0.70036876
-0.0033778448 -0.0047289729 0.70312154
-0.0033891655 -0.0054226518 0.70366812
-0.0033904088 -0.0061027408 0.7037282
-0.0033903294 -0.0067806542 0.70372438
-0.00339025 -0.0074585378 0.70372057
-0.0033901839 -0.0081364214 0.70371735
-0.0033901045 -0.0088142455 0.70371348
-0.0033900384 -0.0094920993 0.70371032
-0.0033901311 -0.01017037 0.70371479
-0.0034459278 -0.011026949 0.70640886
-0.0034613749 -0.011768639 0.70715475
-0.0034768917 -0.012516797 0.70790392
-0.0034875844 -0.013252795 0.70842022
-0.0034914112 -0.013965636 0.70860499
-0.0034920147 -0.014666468 0.70863414
-0.0034926045 -0.015367448 0.70866263
-0.0034927728 -0.01606673 0.70867074
-0.0034928853 -0.016765833 0.70867622
-0.0034930117 -0.017465055 0.70868224
-0.0034931381 -0.018164307 0.70868838
-0.0034932646 -0.018863618 0.70869446
-0.0034934049 -0.019563049 0.70870125
-0.0034936299 -0.020263046 0.7087121
-0.0034940934 -0.020964533 0.70873451
-0.0034941919 -0.021663964 0.70873928
-0.0034932646 -0.022356868 0.70869446
-0.0034908359 -0.02303949 0.70857722
-0.0034839197 -0.023690641 0.70824325
-0.0034711675 -0.024298161 0.70762753
-0.0034484449 -0.024828792 0.70653039
-0.0033902104 -0.025087506 0.70371854
-0.0033900121 -0.025764048 0.70370901
-0.0033900121 -0.026442051 0.70370901
-0.0033900121 -0.027120113 0.70370907
-0.0033900121 -0.027798116 0.70370907
-0.0033900121 -0.028476089 0.70370901
-0.0033900121 -0.029154092 0.70370901
-0.0033900121 -0.029832095 0.70370901
-0.0033900121 -0.030510098 0.70370901
-0.0033900121 -0.031188071 0.70370895
-0.0033900121 -0.031866103 0.70370901
-0.0033900121 -0.032544106 0.70370901
-0.0033900121 -0.033222109 0.70370901
-0.0033900121 -0.033900112 0.70370907
-0.0033900121 -0.034578115 0.70370901
-0.0033900121 -0.035256118 0.70370901
-0.0033900121 -0.03593412 0.70370901
-0.0033900121 -0.036612093 0.70370901
-0.0033900121 -0.037290096 0.70370901
-0.0033900121 -0.037968129 0.70370901
-0.0033900121 -0.038646162 0.70370907
-0.0033900121 -0.039324105 0.70370907
-0.0033900121 -0.040002108 0.70370901
-0.0033900121 -0.04068014 0.70370901
-0.0033900121 -0.041358173 0.70370901
-0.0033900251 -0.042036295 0.7037096
-0.0033900251 -0.042714298 0.7037096
-0.0033900251 -0.043392301 0.7037096
-0.0033900251 -0.044070303 0.70370966
-0.0033900251 -0.044748306 0.70370966
-0.0033900251 -0.045426339 0.70370966
-0.0033900251 -0.046104342 0.70370972
-0.0033900251 -0.046782345 0.70370966
-0.0033900251 -0.047460347 0.7037096
-0.0033900251 -0.04813835 0.70370966
-0.0033900251 -0.048816323 0.70370966
-0.0033900251 -0.049494326 0.7037096
-0.0033900251 -0.050172359 0.70370972
-0.0033900251 -0.050850391 0.70370966
-0.0033900384 -0.051528573 0.70371032
-0.0033900384 -0.052206576 0.70371032
-0.0033900384 -0.052884579 0.70371032
-0.0033900384 -0.053562611 0.70371032
-0.0033900517 -0.054240823 0.70371097
-0.0033900517 -0.054918826 0.70371091
-0.0033900517 -0.055596828 0.70371091
-0.0033900649 -0.05627507 0.70371163
-0.0033900649 -0.056953073 0.70371151
-0.0033900649 -0.057631075 0.70371151
-0.0033900782 -0.058309317 0.70371222
-0.0033900782 -0.058987349 0.70371222
-0.0033900782 -0.059665352 0.70371217
-0.0033900912 -0.060343623 0.70371282
-0.0033900912 -0.061021626 0.70371282
-0.0033900912 -0.061699659 0.70371282
-0.0033901045 -0.0623779 0.70371348
-0.0033901045 -0.063055933 0.70371348
-0.0033920505 -0.063770503 0.70380741
-0.0033976892 -0.064556092 0.70407975
-0.0034108569 -0.065488428 0.70471549
-0.002709155 0.057569563 0.70353675
-0.002704337 0.056791097 0.70324594
-0.002703306 0.056093633 0.70318365
-0.0027027067 0.055405498 0.70314753
-0.0027021079 0.05471769 0.70311135
-0.0027014986 0.054029971 0.70307463
-0.0027009 0.053342819 0.70303851
-0.0027003018 0.052655935 0.70300233
-0.0026985402 0.051946908 0.70289612
-0.0026939374 0.051184833 0.7026183
-0.0026918191 0.050471634 0.70249045
-0.0026700282 0.049395561 0.70117521
-0.0026643164 0.04862377 0.70083046
-0.0026637956 0.04794836 0.70079899
-0.0026638466 0.047283292 0.70080209
-0.0026645001 0.046628803 0.70084155
-0.0026653688 0.045977622 0.700894
-0.0026654711 0.045313001 0.7009002
-0.0026654711 0.044646651 0.70090014
-0.0026654711 0.043980271 0.7009002
-0.0026654711 0.043313891 0.7009002
-0.0026654711 0.04264757 0.70090014
-0.0026654711 0.041981161 0.7009002
-0.0026654813 0.04131496 0.70090079
-0.0026654813 0.040648609 0.70090079
-0.0026654711 0.03998208 0.70090014
-0.0026654711 0.039315701 0.70090014
-0.0026654711 0.03864938 0.70090014
-0.0026654711 0.03798297 0.7009002
-0.0026654711 0.037316591 0.7009002
-0.0026654711 0.03665024 0.70090014
-0.0026654711 0.03598386 0.7009002
-0.0026654711 0.03531751 0.7009002
-0.0026654711 0.03465116 0.7009002
-0.0026654711 0.03398478 0.70090014
-0.0026654711 0.0333184 0.7009002
-0.0026654711 0.03265202 0.7009002
-0.0026654711 0.03198567 0.7009002
-0.0026654711 0.03131929 0.7009002
-0.0026654711 0.03065294 0.70090014
-0.0026654813 0.02998665 0.70090079
-0.0026654711 0.02932021 0.70090014
-0.0026654813 0.02865392 0.70090079
-0.0026654813 0.02798757 0.70090079
-0.0026654711 0.0273211 0.70090014
-0.0026654711 0.026654691 0.7009002
-0.0026652054 0.025985748 0.7008841
-0.0026644594 0.025312394 0.7008391
-0.0026636934 0.024639159 0.70079285
-0.0026636219 0.023972601 0.70078856
-0.0026636219 0.023306727 0.70078856
-0.0026636219 0.022640765 0.70078856
-0.002664296 0.021980464 0.70082927
-0.0026650622 0.021320522 0.70087552
-0.0026654711 0.02065739 0.7009002
-0.0026654711 0.01999104 0.70090014
-0.0026654711 0.01932469 0.7009002
-0.0026654711 0.01865831 0.7009002
-0.0026654711 0.01799193 0.70090014
-0.0026654711 0.01732558 0.7009002
-0.0026654813 0.01665929 0.70090079
-0.0026654813 0.01599288 0.70090079
-0.0026654813 0.01532653 0.70090079
-0.0026654813 0.01466015 0.70090079
-0.0026654813 0.0139938 0.70090079
-0.0026654813 0.01332745 0.70090073
-0.0026652156 0.012659788 0.7008847
-0.0026644492 0.01199007 0.70083845
-0.0026636934 0.01132071 0.70079285
-0.0026636219 0.010654539 0.70078856
-0.0026636219 0.0099885762 0.7007885
-0.0026636627 0.0093228221 0.70079106
-0.0026644594 0.0086595118 0.70083904
-0.0026653688 0.0079961121 0.700894
-0.0026659211 0.0073312819 0.70092738
-0.0026660643 0.0066651404 0.70093596
-0.0026661973 0.0059989393 0.70094395
-0.0026663404 0.0053327084 0.70095259
-0.0026664836 0.0046663582 0.70096129
-0.0026666166 0.0039999187 0.70096934
-0.00266676 0.0033334196 0.70097798
-0.0026668929 0.0026669204 0.70098597
-0.0026670361 0.0020003319 0.70099461
-0.0026671693 0.0013335943 0.70100272
-0.0026673125 0.00066682696 0.7010113
-0.0026674457 2.9802322e-08 0.70101929
-0.0026670464 -0.00066673756 0.70099521
-0.0026659109 -0.0013329387 0.70092666
-0.0026653996 -0.0019990206 0.70089585
-0.0026654813 -0.0026654303 0.70090079
-0.002665512 -0.0033318698 0.70090264
-0.0026655325 -0.0039982796 0.70090389
-0.0027004802 -0.0047258437 0.70301312
-0.0027094402 -0.0054188371 0.70355397
-0.0027104651 -0.0060985386 0.70361578
-0.0027104546 -0.0067760944 0.70361513
-0.0027104546 -0.0074537396 0.70361519
-0.0027104651 -0.0081313848 0.70361578
-0.0027104651 -0.0088090003 0.70361578
-0.0027104651 -0.0094866157 0.70361578
-0.0027104651 -0.010164231 0.70361584
-0.002710666 -0.010842651 0.70362788
-0.0027124011 -0.011527717 0.70373267
-0.0027124011 -0.01220578 0.70373261
-0.0027124011 -0.012883872 0.70373261
-0.0027124011 -0.013561994 0.70373261
-0.0027124011 -0.014240116 0.70373267
-0.0027124011 -0.014918178 0.70373261
-0.0027124011 -0.0155963 0.70373267
-0.0027124011 -0.016274393 0.70373273
-0.0027124011 -0.016952515 0.70373261
-0.0027124011 -0.017630607 0.70373267
-0.0027124011 -0.018308729 0.70373267
-0.0027124011 -0.018986762 0.70373273
-0.0027124011 -0.019664913 0.70373261
-0.0027124011 -0.020343006 0.70373267
-0.0027124011 -0.021021098 0.70373267
-0.0027124011 -0.02169922 0.70373267
-0.0027124011 -0.022377282 0.70373261
-0.0027124011 -0.023055375 0.70373267
-0.002712073 -0.023730636 0.70371282
-0.0027105708 -0.024395108 0.70362216
-0.0027104651 -0.02507177 0.70361578
-0.0027104758 -0.025749534 0.7036165
-0.0027104758 -0.02642712 0.70361638
-0.0027104758 -0.027104735 0.7036165
-0.0027104758 -0.027782381 0.70361644
-0.0027104758 -0.028459996 0.70361644
-0.0027104863 -0.029137731 0.7036171
-0.0027104863 -0.029815346 0.7036171
-0.0027104863 -0.030492932 0.7036171
-0.0027104863 -0.031170577 0.7036171
-0.0027104863 -0.031848192 0.7036171
-0.0027104863 -0.032525837 0.7036171
-0.002710497 -0.033203572 0.70361775
-0.002710497 -0.033881217 0.70361769
-0.002710497 -0.034558803 0.70361769
-0.0027105075 -0.035236567 0.70361835
-0.0027105075 -0.035914242 0.70361841
-0.0027105075 -0.036591858 0.70361841
-0.002710518 -0.037269622 0.703619
-0.002710518 -0.037947267 0.703619
-0.002710518 -0.038624853 0.703619
-0.0027105287 -0.039302647 0.7036196
-0.0027105287 -0.039980322 0.70361966
-0.0027105287 -0.040657938 0.70361966
-0.0027105391 -0.041335702 0.70362025
-0.0027105391 -0.042013347 0.70362025
-0.0027105499 -0.042691171 0.70362091
-0.0027105499 -0.043368787 0.70362085
-0.0027105499 -0.044046432 0.70362097
-0.0027105603 -0.044724226 0.70362151
-0.0027105603 -0.045401871 0.70362157
-0.0027105603 -0.046079487 0.70362151
-0.0027105708 -0.04675737 0.70362222
-0.0027105708 -0.047434986 0.70362216
-0.0027105708 -0.048112631 0.70362222
-0.0027105815 -0.048790455 0.70362282
-0.0027105815 -0.04946813 0.70362288
-0.002710592 -0.050145984 0.70362347
-0.002710592 -0.050823599 0.70362353
-0.002710592 -0.051501244 0.70362347
-0.0027106027 -0.052179098 0.70362413
-0.0027106027 -0.052856773 0.70362413
-0.0027106027 -0.053534389 0.70362413
-0.0027106132 -0.054212242 0.70362473
-0.0027106132 -0.054889888 0.70362473
-0.0027106132 -0.055567563 0.70362473
-0.0027106237 -0.056245416 0.70362532
-0.0027106237 -0.056923091 0.70362544
-0.0027106237 -0.057600766 0.70362544
-0.0027106344 -0.05827865 0.70362604
-0.0027106344 -0.058956295 0.70362604
-0.0027106449 -0.059634179 0.70362663
-0.0027106449 -0.060311854 0.70362669
-0.0027106449 -0.060989499 0.70362663
-0.0027106556 -0.061667383 0.70362729
-0.0027106556 -0.062345058 0.70362729
-0.0027106556 -0.063022703 0.70362729
-0.0027121366 -0.063735187 0.70371664
-0.0027164407 -0.064515442 0.70397651
-0.0027265337 -0.06543678 0.70458561
-0.0020308292 0.057540178 0.70345324
-0.0020273693 0.056766361 0.70317483
-0.002026652 0.056070715 0.70311713
-0.0020262108 0.055383086 0.70308161
-0.0020257619 0.054695547 0.70304549
-0.0020253132 0.054008335 0.70300937
-0.0020248645 0.053321421 0.70297325
-0.0020244243 0.052635044 0.70293784
-0.0020230098 0.051923931 0.702824
-0.0020197018 0.05116576 0.7025578
-0.0020180047 0.050450116 0.70242125
-0.0020043463 0.049440533 0.70132208
-0.0020012448 0.048696995 0.70107251
-0.0020011065 0.048026592 0.70106137
-0.0020011296 0.047360092 0.70106322
-0.0020025058 0.046725154 0.70117396
-0.0020052022 0.04611969 0.70139092
-0.0020075117 0.045503616 0.70157677
-0.0020078828 0.04484275 0.70160669
-0.0020078905 0.044173598 0.70160729
-0.0020078905 0.043504328 0.70160729
-0.0020078905 0.042834997 0.70160735
-0.0020078905 0.042165726 0.70160729
-0.0020078905 0.041496456 0.70160729
-0.0020078905 0.040827125 0.70160735
-0.0020078905 0.040157825 0.70160729
-0.0020078905 0.039488494 0.70160735
-0.0020078984 0.038819373 0.70160794
-0.0020078905 0.038149953 0.70160729
-0.0020078905 0.037480652 0.70160735
-0.0020078905 0.036811352 0.70160729
-0.0020078905 0.036142021 0.70160735
-0.0020078905 0.035472721 0.70160729
-0.0020078905 0.03480348 0.70160729
-0.0020078905 0.03413415 0.70160729
-0.0020078905 0.033464879 0.70160729
-0.0020078905 0.032795548 0.70160735
-0.0020078905 0.032126248 0.70160729
-0.0020078905 0.031456947 0.70160735
-0.0020078984 0.030787766 0.70160794
-0.0020078984 0.030118495 0.70160794
-0.0020078984 0.029449165 0.70160794
-0.0020078984 0.028779864 0.70160794
-0.0020078984 0.028110623 0.70160794
-0.0020078984 0.027441293 0.70160794
-0.0020077359 0.026769817 0.70159483
-0.0020060514 0.026078671 0.70145929
-0.0020027214 0.025367796 0.70119131
-0.0020011296 0.024680585 0.70106322
-0.0020010527 0.024012655 0.70105708
-0.0020010527 0.023345619 0.70105708
-0.0020010527 0.022678614 0.70105702
-0.0020020443 0.022022516 0.70113683
-0.0020048167 0.021384716 0.70135999
-0.0020071792 0.020740867 0.70155007
-0.0020078828 0.020078808 0.70160669
-0.0020078828 0.019409567 0.70160669
-0.0020078828 0.018740267 0.70160669
-0.0020078828 0.018070966 0.70160669
-0.0020078828 0.017401665 0.70160669
-0.0020078828 0.016732365 0.70160669
-0.0020078828 0.016063064 0.70160669
-0.0020078905 0.015393823 0.70160735
-0.0020078905 0.014724553 0.70160729
-0.0020078905 0.014055252 0.70160729
-0.0020076199 0.013384163 0.70158553
-0.0020057887 0.012703329 0.70143819
-0.0020026136 0.0120157 0.70118266
-0.0020011142 0.011339664 0.70106196
-0.0020010527 0.010672271 0.70105708
-0.0020010527 0.010005295 0.70105708
-0.0020010604 0.0093383193 0.70105761
-0.0020022213 0.0086763203 0.70115101
-0.0020052022 0.008020848 0.70139098
-0.0020076276 0.0073613226 0.70158613
-0.0020083315 0.0066944659 0.70164281
-0.00200844 0.0060253441 0.70165151
-0.0020085406 0.005356133 0.70165956
-0.0020086488 0.0046868622 0.70166832
-0.0020087496 0.0040175319 0.70167643
-0.0020088579 0.0033481419 0.70168519
-0.0020089664 0.0026786625 0.70169383
-0.002009067 0.002009064 0.701702
-0.0020091755 0.0013394356 0.7017107
-0.0020092761 0.0006698072 0.70171881
-0.0020088579 2.9802322e-08 0.70168513
-0.0020066691 -0.00066885352 0.701509
-0.002003391 -0.0013355613 0.70124525
-0.0020016984 -0.0020017028 0.70110893
-0.0020017445 -0.0026689768 0.70111269
-0.0020017906 -0.0033363104 0.70111638
-0.002001829 -0.0040036142 0.70111954
-0.0020247861 -0.0047245026 0.70296693
-0.0020315258 -0.0054174066 0.70350933
-0.0020323021 -0.0060968697 0.7035718
-0.0020322783 -0.0067742169 0.70356983
-0.0020322625 -0.0074515939 0.70356864
-0.0020322388 -0.0081289411 0.70356667
-0.0020322229 -0.0088062882 0.70356542
-0.0020321992 -0.0094836056 0.70356357
-0.0020321833 -0.010160923 0.70356226
-0.0020321833 -0.01083827 0.7035622
-0.0020321833 -0.011515677 0.70356226
-0.0020321833 -0.012193084 0.7035622
-0.0020321833 -0.012870491 0.70356226
-0.0020321833 -0.013547868 0.70356226
-0.0020321833 -0.014225245 0.7035622
-0.0020321833 -0.014902651 0.7035622
-0.0020321833 -0.015580058 0.70356226
-0.0020321833 -0.016257435 0.7035622
-0.0020321833 -0.016934872 0.70356226
-0.0020321833 -0.017612249 0.70356226
-0.0020321833 -0.018289655 0.70356226
-0.0020321913 -0.018967122 0.70356286
-0.002032215 -0.019644737 0.70356476
-0.0020322388 -0.020322382 0.70356667
-0.0020322625 -0.021000028 0.70356858
-0.0020322863 -0.021677732 0.70357049
-0.0020323021 -0.022355288 0.7035718
-0.0020323258 -0.023032993 0.7035737
-0.0020323496 -0.023710728 0.70357561
-0.0020323736 -0.024388462 0.70357752
-0.0020323656 -0.025065809 0.70357692
-0.0020323496 -0.025743067 0.70357561
-0.0020323417 -0.026420444 0.70357502
-0.0020323258 -0.027097672 0.7035737
-0.00203231 -0.0277749 0.70357251
-0.0020323021 -0.028452218 0.7035718
-0.0020322863 -0.029129416 0.70357049
-0.0020322704 -0.029806644 0.70356923
-0.0020322625 -0.030483931 0.70356864
-0.0020322467 -0.0311611 0.70356733
-0.0020322308 -0.031838238 0.70356601
-0.0020322229 -0.032515526 0.70356548
-0.0020322071 -0.033192694 0.70356411
-0.0020321992 -0.033869952 0.70356357
-0.0020321992 -0.034547389 0.70356351
-0.0020321913 -0.035224617 0.70356286
-0.0020321913 -0.035902023 0.70356286
-0.0020321913 -0.03657943 0.70356286
-0.0020321913 -0.037256837 0.70356286
-0.0020321913 -0.037934214 0.70356286
-0.0020321913 -0.03861165 0.70356292
-0.0020321833 -0.039288878 0.70356226
-0.0020321833 -0.039966255 0.70356226
-0.0020321833 -0.040643662 0.70356226
-0.0020321833 -0.041321069 0.70356226
-0.0020321833 -0.041998416 0.70356226
-0.0020321833 -0.042675853 0.7035622
-0.0020321754 -0.043353051 0.7035616
-0.0020321754 -0.044030428 0.70356154
-0.0020321754 -0.044707865 0.7035616
-0.0020321754 -0.045385242 0.70356154
-0.0020321754 -0.046062589 0.70356154
-0.0020321754 -0.046739995 0.7035616
-0.0020321675 -0.047417194 0.70356095
-0.0020321675 -0.04809463 0.70356095
-0.0020321675 -0.048772007 0.70356095
-0.0020321675 -0.049449414 0.70356095
-0.0020321675 -0.050126791 0.70356095
-0.0020321675 -0.050804168 0.70356095
-0.0020321675 -0.051481545 0.70356095
-0.0020321596 -0.052158743 0.70356029
-0.0020321596 -0.05283612 0.70356035
-0.0020321596 -0.053513557 0.70356035
-0.0020321596 -0.054190874 0.70356029
-0.0020321596 -0.054868281 0.70356029
-0.0020321596 -0.055545688 0.70356035
-0.0020321517 -0.056222856 0.7035597
-0.0020321517 -0.056900233 0.7035597
-0.0020321517 -0.05757761 0.70355964
-0.0020321517 -0.058255017 0.7035597
-0.0020321517 -0.058932364 0.70355964
-0.0020321517 -0.059609771 0.7035597
-0.0020321438 -0.060286909 0.70355904
-0.0020321438 -0.060964316 0.70355904
-0.0020321438 -0.061641663 0.70355904
-0.0020321438 -0.06231907 0.70355904
-0.0020321438 -0.062996417 0.70355904
-0.0020331901 -0.063706607 0.70364326
-0.0020362639 -0.064481676 0.70389062
-0.0020435292 -0.065392941 0.70447534
-0.0013535591 0.057526261 0.70341384
-0.0013512956 0.05675441 0.70314056
-0.0013508333 0.056059599 0.70308471
-0.001350534 0.05537191 0.70304865
-0.0013502348 0.05468452 0.70301253
-0.0013499359 0.053997427 0.70297641
-0.0013496371 0.053310663 0.70294034
-0.0013493435 0.052624434 0.70290494
-0.0013483643 0.05191204 0.70278674
-0.0013462016 0.051155716 0.70252568
-0.0013450708 0.050440192 0.70238912
-0.0013361744 0.049438447 0.70131522
-0.0013343169 0.048702598 0.70109105
-0.0013342196 0.048031926 0.70107931
-0.0013342452 0.047365725 0.70108235
-0.0013362617 0.046769172 0.70132583
-0.0013397085 0.046219945 0.70174187
-0.0013429497 0.045660317 0.70213312
-0.0013441498 0.045029044 0.70227802
-0.001344181 0.044357985 0.70228177
-0.001344181 0.043685883 0.70228171
-0.001344181 0.043013811 0.70228177
-0.001344181 0.042341739 0.70228177
-0.001344181 0.041669667 0.70228171
-0.001344181 0.040997565 0.70228177
-0.001344181 0.040325463 0.70228171
-0.001344181 0.039653391 0.70228171
-0.001344181 0.038981289 0.70228171
-0.001344181 0.038309216 0.70228171
-0.001344181 0.037637115 0.70228171
-0.0013443318 0.036969125 0.70229995
-0.0013445035 0.036301613 0.70232069
-0.0013445035 0.035629362 0.70232069
-0.0013445035 0.034957111 0.70232069
-0.0013445035 0.03428483 0.70232069
-0.0013445035 0.033612609 0.70232069
-0.0013445035 0.032940358 0.70232069
-0.0013445035 0.032268107 0.70232069
-0.0013445035 0.031595826 0.70232069
-0.0013445035 0.030923605 0.70232069
-0.0013444982 0.030251205 0.7023201
-0.0013445035 0.029579103 0.70232069
-0.0013445035 0.028906822 0.70232069
-0.0013445035 0.028234571 0.70232069
-0.0013445035 0.02756235 0.70232069
-0.0013442226 0.026884466 0.70228684
-0.0013419748 0.026168525 0.70201546
-0.0013370021 0.025403053 0.70141518
-0.0013342759 0.024684101 0.7010861
-0.0013341325 0.024014413 0.70106882
-0.0013341325 0.023347318 0.70106882
-0.0013341325 0.022680253 0.70106876
-0.0013357121 0.022039264 0.70125943
-0.0013394296 0.02143091 0.7017082
-0.0013429965 0.020816445 0.70213878
-0.0013444202 0.020166337 0.70231062
-0.0013445035 0.019495308 0.70232069
-0.0013445035 0.018823028 0.70232069
-0.0013445035 0.018150806 0.70232069
-0.0013445035 0.017478585 0.70232069
-0.0013445035 0.016806334 0.70232069
-0.0013445035 0.016134024 0.70232075
-0.0013445035 0.015461802 0.70232069
-0.0013445035 0.014789551 0.70232069
-0.0013445035 0.014117301 0.70232069
-0.0013440094 0.013440073 0.70226103
-0.0013413324 0.012742668 0.70193791
-0.0013367399 0.012030661 0.70138353
-0.0013342657 0.011341274 0.70108491
-0.0013341325 0.010673076 0.70106882
-0.0013341325 0.010006011 0.70106882
-0.0013341376 0.0093390048 0.70106941
-0.0013359484 0.0086836517 0.70128798
-0.0013400237 0.0080401599 0.70177996
-0.0013436456 0.0073900819 0.7022171
-0.0013447949 0.006724 0.70235586
-0.0013448625 0.0060518682 0.70236403
-0.0013449354 0.0053797364 0.70237285
-0.0013450083 0.004707545 0.70238161
-0.0013450811 0.0040352345 0.70239043
-0.0013451489 0.0033628643 0.7023986
-0.0013452218 0.0026904643 0.70240742
-0.0013452948 0.0020179451 0.70241618
-0.0013453624 0.001345396 0.70242441
-0.0013454354 0.00067275763 0.70243317
-0.0013447845 2.9802322e-08 0.70235455
-0.0013414463 -0.00067070127 0.70195168
-0.0013369353 -0.0013369024 0.70140707
-0.0013343015 -0.0020014644 0.70108926
-0.0013343374 -0.0026686788 0.70109355
-0.0013344041 -0.0033359826 0.7011016
-0.0013344605 -0.0040033758 0.7011084
-0.0013494798 -0.0047231615 0.70292133
-0.0013539757 -0.0054158568 0.70346403
-0.0013545036 -0.0060952604 0.70352781
-0.0013544877 -0.0067724288 0.7035259
-0.0013544824 -0.0074496567 0.7035253
-0.0013544824 -0.0081268847 0.7035253
-0.0013544824 -0.0088041127 0.70352525
-0.0013544824 -0.0094813406 0.70352525
-0.0013544877 -0.010158628 0.7035259
-0.0013545036 -0.010836005 0.70352781
-0.0013545194 -0.011513412 0.70352972
-0.00135453 -0.012190759 0.70353103
-0.0013545458 -0.012868166 0.70353293
-0.0013545617 -0.013545573 0.70353478
-0.0013545775 -0.014223039 0.70353675
-0.0013545881 -0.014900476 0.70353806
-0.0013546039 -0.015577912 0.70353991
-0.0013546197 -0.016255409 0.70354182
-0.0013546356 -0.016932935 0.70354372
-0.0013546514 -0.017610431 0.70354563
-0.001354662 -0.018287927 0.70354694
-0.0013546778 -0.018965483 0.70354885
-0.0013546937 -0.019643068 0.70355076
-0.0013547095 -0.020320654 0.70355266
-0.0013547253 -0.02099824 0.70355463
-0.0013547359 -0.021675766 0.70355582
-0.0013547518 -0.022353411 0.70355779
-0.0013547676 -0.023031026 0.7035597
-0.0013547834 -0.023708701 0.7035616
-0.001354794 -0.024386317 0.70356286
-0.0013548099 -0.025063992 0.70356482
-0.0013548257 -0.025741696 0.70356667
-0.0013548415 -0.026419401 0.70356858
-0.001354831 -0.027096599 0.70356733
-0.0013548204 -0.027773768 0.70356607
-0.0013548152 -0.028451085 0.70356542
-0.0013548046 -0.029128283 0.70356411
-0.001354794 -0.029805452 0.70356286
-0.0013547888 -0.030482709 0.7035622
-0.0013547782 -0.031159878 0.70356095
-0.0013547676 -0.031837016 0.7035597
-0.0013547624 -0.032514304 0.70355904
-0.0013547518 -0.033191413 0.70355779
-0.0013547412 -0.033868521 0.70355648
-0.0013547359 -0.034545749 0.70355588
-0.0013547253 -0.035222828 0.70355451
-0.0013547147 -0.035899937 0.70355332
-0.0013547095 -0.036577135 0.7035526
-0.0013546989 -0.037254214 0.70355135
-0.0013546884 -0.037931263 0.7035501
-0.0013546831 -0.038608462 0.7035495
-0.0013546725 -0.039285481 0.70354819
-0.001354662 -0.0399625 0.70354688
-0.0013546566 -0.040639669 0.70354629
-0.0013546462 -0.041316688 0.70354503
-0.0013546356 -0.041993678 0.70354372
-0.0013546303 -0.042670846 0.70354313
-0.0013546197 -0.043347806 0.70354187
-0.0013546092 -0.044024795 0.7035405
-0.0013546039 -0.044701904 0.70353991
-0.0013545933 -0.045378894 0.70353866
-0.0013545827 -0.046055794 0.70353734
-0.0013545775 -0.046732932 0.70353675
-0.0013545669 -0.047409832 0.70353544
-0.0013545563 -0.048086733 0.70353413
-0.0013545511 -0.048763841 0.70353359
-0.0013545405 -0.049440742 0.70353228
-0.00135453 -0.050117612 0.70353103
-0.0013545246 -0.050794691 0.70353037
-0.0013545142 -0.051471531 0.70352912
-0.0013545036 -0.052148342 0.70352775
-0.0013545036 -0.05282563 0.70352781
-0.0013545036 -0.053502858 0.70352781
-0.0013545036 -0.054180115 0.70352781
-0.0013544983 -0.054857165 0.70352715
-0.0013544983 -0.055534422 0.70352715
-0.0013544983 -0.05621165 0.70352715
-0.0013544983 -0.056888908 0.70352715
-0.0013544983 -0.057566136 0.70352721
-0.0013544983 -0.058243394 0.70352721
-0.001354493 -0.058920443 0.7035265
-0.001354493 -0.059597731 0.70352656
-0.001354493 -0.060274929 0.70352656
-0.001354493 -0.060952187 0.7035265
-0.001354493 -0.061629415 0.70352656
-0.001354493 -0.062306672 0.70352656
-0.0013544877 -0.062983662 0.7035259
-0.0013551745 -0.063693196 0.70360881
-0.0013571859 -0.064466298 0.70385158
-0.0013619576 -0.065373927 0.70442754
-0.00067672681 0.05752176 0.70340109
-0.00067560311 0.056750715 0.70312977
-0.00067537464 0.056056112 0.70307457
-0.00067522499 0.055368453 0.70303851
-0.00067507545 0.054681152 0.70300239
-0.00067492598 0.053994089 0.70296627
-0.00067477918 0.053307563 0.70293087
-0.00067462982 0.052621126 0.70289481
-0.00067413505 0.051908404 0.70277536
-0.00067305908 0.051152527 0.7025156
-0.00067248335 0.050436288 0.7023766
-0.00066753273 0.049397439 0.70118141
-0.00066644704 0.048650622 0.70091927
-0.00066634733 0.047977 0.70089519
-0.00066638057 0.047313035 0.70090324
-0.00066845736 0.04679203 0.70140463
-0.00067148783 0.046332687 0.70213628
-0.00067279063 0.045749784 0.70245075
-0.00067302259 0.045092493 0.70250678
-0.00067303301 0.044420183 0.70250928
-0.00067303301 0.043747157 0.70250928
-0.00067303301 0.043074101 0.70250934
-0.00067303301 0.042401105 0.70250928
-0.00067303301 0.04172805 0.70250928
-0.00067303301 0.041055024 0.70250934
-0.00067303301 0.040381968 0.70250928
-0.00067303301 0.039708972 0.70250928
-0.00067303301 0.039035916 0.70250928
-0.00067303301 0.03836289 0.70250928
-0.00067303301 0.037689865 0.70250928
-0.00067317905 0.037024885 0.70254457
-0.00067425543 0.036409825 0.70280445
-0.00067513844 0.035782367 0.70301759
-0.00067523029 0.035112023 0.70303977
-0.00067523291 0.034436911 0.70304042
-0.00067523291 0.03376165 0.70304042
-0.00067523291 0.033086419 0.70304042
-0.00067523291 0.032411188 0.70304042
-0.00067523291 0.031735957 0.70304036
-0.00067523291 0.031060725 0.70304042
-0.00067523291 0.030385494 0.70304042
-0.00067523291 0.029710263 0.70304036
-0.00067523291 0.029035062 0.70304036
-0.00067523291 0.028359771 0.70304036
-0.00067523291 0.027684569 0.70304042
-0.00067515415 0.027006209 0.70302141
-0.0006740723 0.026288837 0.70276022
-0.00066999893 0.025459975 0.70177686
-0.00066634477 0.024654746 0.70089459
-0.00066636008 0.023988992 0.70089829
-0.00066636008 0.023322642 0.70089829
-0.00066636008 0.022656262 0.70089829
-0.00066795107 0.022042394 0.70128238
-0.00067177083 0.021496713 0.70220459
-0.00067412463 0.020897865 0.70277286
-0.0006751148 0.020253479 0.70301193
-0.00067523291 0.019581765 0.70304036
-0.00067523291 0.018906504 0.70304042
-0.00067523291 0.018231332 0.70304042
-0.00067523291 0.017556041 0.70304036
-0.00067523291 0.01688084 0.70304042
-0.00067523291 0.016205579 0.70304042
-0.00067523291 0.015530407 0.70304036
-0.00067523029 0.014855117 0.70303977
-0.00067523029 0.014179856 0.70303977
-0.00067500729 0.013500154 0.70298594
-0.0006736567 0.012799501 0.70265985
-0.00066946965 0.01205048 0.70164901
-0.00066631922 0.011327475 0.7008884
-0.00066632178 0.010661185 0.70088905
-0.00066631922 0.0099948049 0.70088845
-0.00066632178 0.0093285441 0.70088905
-0.00066821056 0.0086867511 0.70134503
-0.00067240262 0.0080688298 0.70235711
-0.00067466125 0.0074212849 0.70290238
-0.00067537726 0.0067537725 0.70307523
-0.00067541137 0.0060787201 0.70308352
-0.00067544816 0.0054036081 0.70309234
-0.00067548495 0.0047284067 0.70310128
-0.00067551906 0.0040531456 0.7031095
-0.00067555584 0.0033777654 0.70311838
-0.00067559263 0.0027023554 0.70312726
-0.0006756268 0.0020269156 0.70313549
-0.00067566353 0.0013512969 0.70314437
-0.00067570037 0.00067570806 0.70315325
-0.00067535363 -0 0.70306951
-0.00067347131 -0.00067347288 0.70261514
-0.00066923496 -0.0013384521 0.70159239
-0.00066633709 -0.0019990206 0.70089281
-0.00066631922 -0.0026652813 0.70088845
-0.00066631922 -0.0033315718 0.70088851
-0.00066634221 -0.003998071 0.70089406
-0.00067471369 -0.0047229528 0.70291507
-0.00067695888 -0.0054156482 0.703457
-0.00067722535 -0.006095022 0.70352143
-0.00067722274 -0.0067722201 0.70352083
-0.00067722012 -0.0074493885 0.70352018
-0.00067722012 -0.0081266165 0.70352018
-0.00067721744 -0.0088038146 0.70351952
-0.00067721482 -0.0094810128 0.70351887
-0.00067721482 -0.010158181 0.70351887
-0.0006772122 -0.010835379 0.70351827
-0.0006772122 -0.011512578 0.70351821
-0.00067720952 -0.012189776 0.70351762
-0.00067721482 -0.012867093 0.70351887
-0.00067722274 -0.01354441 0.70352077
-0.00067722803 -0.014221758 0.70352209
-0.00067723595 -0.014899194 0.70352399
-0.00067724386 -0.015576601 0.7035259
-0.00067725178 -0.016254038 0.70352781
-0.00067725708 -0.016931415 0.70352906
-0.00067726499 -0.017608881 0.70353103
-0.00067727291 -0.018286377 0.70353287
-0.00067728083 -0.018963873 0.70353484
-0.00067728874 -0.01964137 0.70353675
-0.00067729404 -0.020318806 0.70353806
-0.00067730196 -0.020996362 0.70353991
-0.00067730987 -0.021673888 0.70354182
-0.00067731779 -0.022351474 0.70354372
-0.0006773257 -0.023029059 0.70354563
-0.000677331 -0.023706555 0.70354688
-0.00067733892 -0.024384201 0.70354879
-0.00067734683 -0.025061816 0.70355076
-0.00067735475 -0.025739431 0.7035526
-0.00067736005 -0.026417017 0.70355392
-0.00067736796 -0.027094692 0.70355588
-0.00067737588 -0.027772397 0.70355773
-0.00067738118 -0.028449953 0.70355904
-0.00067737588 -0.029127151 0.70355773
-0.00067737058 -0.02980426 0.70355648
-0.00067736796 -0.030481547 0.70355582
-0.00067736267 -0.031158686 0.70355457
-0.00067735737 -0.031835794 0.70355332
-0.00067735475 -0.032513022 0.70355272
-0.00067734945 -0.033190131 0.70355141
-0.00067734421 -0.03386721 0.7035501
-0.00067734154 -0.034544408 0.7035495
-0.00067733624 -0.035221487 0.70354819
-0.000677331 -0.035898507 0.703547
-0.00067732832 -0.036575735 0.70354629
-0.00067732309 -0.037252754 0.70354503
-0.00067731779 -0.037929803 0.70354378
-0.00067731517 -0.038606942 0.70354319
-0.00067730987 -0.039283961 0.70354187
-0.00067730458 -0.03996098 0.70354056
-0.00067730196 -0.040638089 0.70353991
-0.00067729666 -0.041315079 0.70353866
-0.00067729136 -0.041992038 0.70353734
-0.00067728874 -0.042669177 0.70353669
-0.00067728345 -0.043346107 0.70353544
-0.00067727815 -0.044023097 0.70353419
-0.00067727553 -0.044700176 0.70353353
-0.00067727023 -0.045377076 0.70353222
-0.00067726499 -0.046054006 0.70353103
-0.00067726232 -0.046731085 0.70353037
-0.00067725708 -0.047408015 0.70352906
-0.00067725178 -0.048084885 0.70352781
-0.00067724916 -0.048761934 0.70352721
-0.00067724386 -0.049438775 0.7035259
-0.00067723857 -0.050115645 0.70352465
-0.00067723595 -0.050792664 0.70352393
-0.00067723065 -0.051469505 0.70352274
-0.00067722535 -0.052146345 0.70352149
-0.00067722274 -0.052823395 0.70352077
-0.00067721744 -0.053500175 0.70351952
-0.0006772122 -0.054176986 0.70351821
-0.00067720952 -0.054853946 0.70351762
-0.00067720428 -0.055530727 0.7035163
-0.00067720161 -0.056207716 0.70351565
-0.00067720161 -0.056884915 0.70351577
-0.00067720161 -0.057562143 0.70351577
-0.00067720161 -0.058239341 0.70351577
-0.00067720161 -0.058916539 0.70351571
-0.00067720161 -0.059593737 0.70351565
-0.00067720161 -0.060270905 0.70351565
-0.00067720161 -0.060948133 0.70351565
-0.00067720161 -0.061625332 0.70351577
-0.00067720161 -0.06230256 0.70351565
-0.00067720161 -0.062979758 0.70351571
-0.00067751325 -0.063686252 0.70359093
-0.00067850546 -0.064458013 0.70383048
-0.00068087206 -0.065363705 0.70440185
0 0.057530999 0.7034272
0 0.056758404 0.703152
0 0.056063294 0.70309556
0 0.055375576 0.70305943
0 0.054688156 0.70302331
0 0.054001033 0.70298719
0 0.053314388 0.70295179
0 0.052627861 0.70291567
0 0.051916063 0.70279938
0 0.051159054 0.70253634
0 0.050442904 0.702398
0 0.049335092 0.70097792
0 0.048583955 0.70069861
0 0.047913462 0.70068204
0 0.04725343 0.70070046
0 0.046850979 0.70160788
0 0.046388298 0.70233071
0 0.045770168 0.70252317
0 0.045101255 0.70253825
0 0.04442963 0.70254397
0 0.043757856 0.70254898
0 0.043086171 0.70255458
0 0.042413741 0.7025578
0 0.041740507 0.7025578
0 0.041067302 0.7025578
0 0.040394038 0.7025578
0 0.039720803 0.7025578
0 0.039047569 0.7025578
0 0.038374335 0.7025578
0 0.03770113 0.7025578
0 0.037030458 0.70256913
0 0.036449969 0.70298409
0 0.035897285 0.70354122
0 0.035268366 0.70376587
0 0.034590155 0.70376587
0 0.033912063 0.70376652
0 0.033233792 0.70376658
0 0.03255555 0.70376652
0 0.031877339 0.70376652
0 0.031199098 0.70376658
0 0.030520827 0.70376652
0 0.029842615 0.70376652
0 0.029164344 0.70376652
0 0.028486103 0.70376652
0 0.027807862 0.70376652
0 0.02712965 0.70376652
0 0.026418388 0.70356226
0 0.025614947 0.70276147
0 0.024623424 0.70069003
0 0.023958296 0.70069247
0 0.02329278 0.70069247
0 0.022627294 0.70069247
0 0.022052497 0.70135617
0 0.021575093 0.70279622
0 0.020984352 0.70344627
0 0.020341486 0.70372051
0 0.019668996 0.70376652
0 0.018990725 0.70376652
0 0.018312484 0.70376587
0 0.017634213 0.70376593
0 0.016955972 0.70376587
0 0.016277701 0.70376587
0 0.015599489 0.70376587
0 0.014921248 0.70376587
0 0.014243037 0.70376593
0 0.013561249 0.70372307
0 0.012859195 0.70341885
0 0.012107193 0.70240992
0 0.011312723 0.70067894
0 0.010647565 0.70068324
0 0.0099813938 0.70067281
0 0.0093157291 0.70066851
0 0.0087028444 0.70164406
0 0.0081029832 0.70304352
0 0.0074535012 0.70360947
0 0.0067838132 0.70380044
0 0.0061057508 0.70380938
0 0.0054276884 0.70381826
0 0.0047494471 0.70382661
0 0.0040711462 0.70383561
0 0.0033928156 0.70384455
0 0.0027144253 0.70385289
0 0.0020359159 0.70386189
0 0.0013574064 0.70387077
0 0.00067871809 0.70387977
0 -0 0.70379531
0 -0.00067642331 0.70333368
0 -0.0013432205 0.70217198
0 -0.0019962788 0.70067275
0 -0.0026615858 0.70066667
0 -0.0033270419 0.70066971
0 -0.0039926767 0.70067656
0 -0.0047237575 0.70294166
0 -0.0054165423 0.70348382
0 -0.0060959756 0.70354694
0 -0.0067732632 0.70354629
0 -0.0074505806 0.70354569
0 -0.008127898 0.70354569
0 -0.0088051856 0.70354503
0 -0.0094824731 0.70354438
0 -0.010159791 0.70354438
0 -0.010837078 0.70354378
0 -0.011514425 0.70354378
0 -0.012191653 0.70354307
0 -0.012868911 0.70354247
0 -0.013546228 0.70354247
0 -0.014223516 0.70354182
0 -0.014900744 0.70354116
0 -0.015578032 0.70354116
0 -0.01625526 0.7035405
0 -0.016932607 0.70354056
0 -0.017609835 0.70353991
0 -0.018287092 0.70353925
0 -0.01896435 0.70353925
0 -0.019641608 0.70353872
0 -0.020318925 0.70353866
0 -0.020996094 0.70353806
0 -0.021673411 0.703538
0 -0.022350609 0.7035374
0 -0.023027867 0.70353734
0 -0.023705095 0.70353669
0 -0.024382383 0.70353675
0 -0.02505967 0.70353669
0 -0.025737137 0.703538
0 -0.026414752 0.70353997
0 -0.027092367 0.70354182
0 -0.027770013 0.70354372
0 -0.028447658 0.70354563
0 -0.029125214 0.70354688
0 -0.029802889 0.70354885
0 -0.030480355 0.7035495
0 -0.031157434 0.70354819
0 -0.031834543 0.70354688
0 -0.032511741 0.70354629
0 -0.03318879 0.70354497
0 -0.033865869 0.70354378
0 -0.034543037 0.70354307
0 -0.035220116 0.70354182
0 -0.035897136 0.70354056
0 -0.036574274 0.70353991
0 -0.037251294 0.7035386
0 -0.037928313 0.7035374
0 -0.038605452 0.70353675
0 -0.039282441 0.70353544
0 -0.039959729 0.70353544
0 -0.040636986 0.70353544
0 -0.041314274 0.7035355
0 -0.041991591 0.7035355
0 -0.042668849 0.70353544
0 -0.043346107 0.70353544
0 -0.044023424 0.70353544
0 -0.044700682 0.70353544
0 -0.04537797 0.70353544
0 -0.046055257 0.70353544
0 -0.046732545 0.70353544
0 -0.047409832 0.70353544
0 -0.04808709 0.70353544
0 -0.048764408 0.70353544
0 -0.049441665 0.7035355
0 -0.050118983 0.70353544
0 -0.05079627 0.70353544
0 -0.051473528 0.70353544
0 -0.052150816 0.70353544
0 -0.052828074 0.7035355
0 -0.053505391 0.70353544
0 -0.054182678 0.70353544
0 -0.054860145 0.70353609
0 -0.055537462 0.70353615
0 -0.05621472 0.70353609
0 -0.056892037 0.70353609
0 -0.057569295 0.70353609
0 -0.058246583 0.70353603
0 -0.05892387 0.70353609
0 -0.059601158 0.70353609
0 -0.060278445 0.70353609
0 -0.060955733 0.70353609
0 -0.061633021 0.70353609
0 -0.062310308 0.70353603
0 -0.062987596 0.70353609
0 -0.063694924 0.70361328
0 -0.064468592 0.70385736
0 -0.065376788 0.70443475
0.00067707233 0.057551146 0.70348448
0.00067589222 0.056774974 0.70319963
0.00067565043 0.05607897 0.70314121
0.00067550066 0.055391103 0.70310503
0.00067535101 0.054703444 0.70306891
0.0006751988 0.054015905 0.7030322
0.00067504926 0.053328931 0.70299608
0.00067489978 0.052642167 0.70296001
0.00067443866 0.051931828 0.70284867
0.00067331735 0.051172167 0.70257795
0.00067278283 0.050458729 0.7024489
0.00066594122 0.04927966 0.70079714
0.0006647894 0.048529655 0.70051914
0.00066471059 0.047859162 0.70050007
0.0006649014 0.047208041 0.70054615
0.0006699111 0.046893805 0.70175558
0.00067260832 0.046409994 0.70240676
0.00067330425 0.045784712 0.70257479
0.00067330169 0.045111239 0.70257413
0.00067330425 0.044438064 0.70257485
0.00067332515 0.043766171 0.70257986
0.00067334867 0.043094337 0.70258552
0.00067337212 0.042422444 0.70259118
0.00067339302 0.041750401 0.70259625
0.00067341648 0.041078389 0.70260191
0.00067343737 0.040406287 0.70260692
0.00067343737 0.039732814 0.70260692
0.00067343737 0.039059371 0.70260692
0.00067343737 0.038385957 0.70260692
0.00067343737 0.037712514 0.70260692
0.00067344779 0.037039638 0.70260948
0.00067528535 0.036465406 0.70305312
0.00067900401 0.035987258 0.70395082
0.0006809468 0.035409242 0.70441985
0.00068127253 0.034744918 0.70449853
0.00068127253 0.034063637 0.70449853
0.00068127253 0.033382356 0.70449853
0.00068127253 0.032701075 0.70449853
0.00068127253 0.032019824 0.70449853
0.00068127253 0.031338543 0.70449853
0.00068127253 0.030657262 0.70449853
0.00068127253 0.02997601 0.70449853
0.00068127253 0.029294729 0.70449853
0.00068127253 0.028613448 0.70449853
0.00068127253 0.027932197 0.70449853
0.00068127253 0.027250916 0.70449853
0.00068074936 0.02654925 0.70437217
0.00067802885 0.025765121 0.70371538
0.00066469278 0.024593651 0.70049578
0.00066469278 0.02392894 0.70049584
0.00066469278 0.023264259 0.70049578
0.00066469278 0.022599608 0.70049578
0.00066945161 0.022091925 0.70164466
0.00067663455 0.021652311 0.70337886
0.00067972392 0.021071464 0.70412463
0.00068101351 0.020430446 0.70443594
0.00068127253 0.019756883 0.70449853
0.00068127253 0.019075662 0.70449847
0.00068127253 0.018394381 0.70449853
0.00068127253 0.0177131 0.70449847
0.00068127253 0.017031848 0.70449853
0.00068127253 0.016350567 0.70449847
0.00068127253 0.015669286 0.70449853
0.00068127253 0.014988035 0.70449853
0.00068127253 0.014306694 0.70449853
0.00068114168 0.01362282 0.70446688
0.00067997404 0.012919515 0.70418501
0.00067611056 0.012170017 0.70325232
0.00066469022 0.011299759 0.70049512
0.00066468515 0.010634989 0.70049393
0.00066469278 0.0099704266 0.70049572
0.0006647004 0.0093058348 0.70049763
0.00067150081 0.0087295473 0.70213938
0.00067811087 0.0081373751 0.70373523
0.00068054133 0.007485956 0.70432198
0.00068140618 0.0068140626 0.70453078
0.00068145158 0.0061331093 0.70454168
0.00068148901 0.0054519176 0.70455074
0.00068152376 0.0047706962 0.70455915
0.00068156119 0.0040893853 0.70456815
0.00068159861 0.0034080148 0.70457721
0.00068163342 0.0027265251 0.70458567
0.00068167085 0.0020450056 0.70459467
0.00068170828 0.0013634264 0.70460373
0.00068174308 0.00068178773 0.70461214
0.00068139279 -0 0.70452756
0.00067945011 -0.00067943335 0.70405853
0.00067452504 -0.0013490021 0.70286953
0.00066473091 -0.0019941628 0.70050502
0.00066470553 -0.002658844 0.70049882
0.00066471822 -0.0033235848 0.70050192
0.00066474109 -0.0039884448 0.7005074
0.00067493384 -0.0047245026 0.70296824
0.00067718315 -0.0054174364 0.70351124
0.00067744986 -0.0060970187 0.70357561
0.0006774551 -0.0067745447 0.70357692
0.0006774604 -0.0074520409 0.70357817
0.00067746569 -0.0081295669 0.70357949
0.00067746831 -0.0088070631 0.70358008
0.00067747361 -0.0094846189 0.70358133
0.00067747891 -0.010162175 0.70358264
0.0006774842 -0.010839701 0.7035839
0.00067748944 -0.011517316 0.70358521
0.00067749212 -0.012194872 0.7035858
0.00067749742 -0.012872458 0.70358706
0.00067750266 -0.013550043 0.70358837
0.00067751587 -0.014227867 0.70359159
0.00067753176 -0.014905661 0.7035954
0.00067754497 -0.015583545 0.70359862
0.00067756081 -0.016261458 0.70360243
0.00067757402 -0.016939342 0.70360559
0.00067758723 -0.017617255 0.70360875
0.00067760306 -0.018295258 0.70361263
0.00067761628 -0.018973231 0.70361584
0.00067763217 -0.019651324 0.7036196
0.000677648 -0.020329446 0.70362347
0.00067766121 -0.021007478 0.70362663
0.0006776771 -0.02168566 0.70363051
0.00067769561 -0.022363961 0.70363498
0.00067772466 -0.023042619 0.70364195
0.00067775109 -0.023721248 0.70364839
0.00067778019 -0.024400055 0.70365536
0.00067780662 -0.025078803 0.70366174
0.00067783572 -0.02575773 0.70366877
0.0006778622 -0.026436627 0.70367521
0.00067789125 -0.027115643 0.70368224
0.00067791773 -0.0277946 0.70368856
0.00067794416 -0.028473675 0.70369494
0.00067797326 -0.02915284 0.70370197
0.00067800505 -0.029832184 0.7037096
0.00067804207 -0.030511856 0.70371866
0.00067801826 -0.031188816 0.70371282
0.00067744456 -0.031839877 0.70357442
0.00067744189 -0.032517195 0.70357376
0.00067744456 -0.033194751 0.70357436
0.00067744456 -0.033872217 0.70357436
0.00067744456 -0.034549654 0.70357436
0.00067744456 -0.03522712 0.70357436
0.00067744456 -0.035904527 0.7035743
0.00067744456 -0.036581993 0.7035743
0.00067744456 -0.03725943 0.70357436
0.00067744456 -0.037936896 0.70357436
0.00067744718 -0.038614482 0.70357502
0.00067744718 -0.039291918 0.70357502
0.00067744718 -0.039969414 0.70357502
0.00067744718 -0.040646821 0.70357502
0.00067744718 -0.041324288 0.70357496
0.00067744718 -0.042001694 0.70357496
0.00067744986 -0.04267931 0.70357561
0.00067744986 -0.043356776 0.70357561
0.00067744986 -0.044034213 0.70357561
0.00067744986 -0.044711679 0.70357561
0.00067744986 -0.045389086 0.70357561
0.00067745248 -0.046066731 0.70357621
0.00067745248 -0.046744227 0.70357627
0.0006774551 -0.047421873 0.70357692
0.0006774551 -0.048099309 0.70357692
0.00067745778 -0.048776954 0.70357758
0.00067745778 -0.049454391 0.70357752
0.00067745778 -0.050131887 0.70357752
0.0006774604 -0.050809532 0.70357817
0.0006774604 -0.051486999 0.70357817
0.00067746307 -0.052164644 0.70357883
0.00067746307 -0.05284211 0.70357883
0.00067746569 -0.053519785 0.70357949
0.00067746569 -0.054197222 0.70357943
0.00067746831 -0.054874927 0.70358008
0.00067746831 -0.055552393 0.70358008
0.00067747099 -0.056230098 0.70358074
0.00067747099 -0.056907535 0.70358074
0.00067747361 -0.057585269 0.70358139
0.00067747361 -0.058262706 0.70358139
0.00067747623 -0.05894044 0.70358205
0.00067747623 -0.059617937 0.70358205
0.00067747623 -0.060295373 0.70358205
0.00067747891 -0.060973078 0.70358264
0.00067747891 -0.061650574 0.70358258
0.00067748153 -0.062328309 0.70358324
0.00067748153 -0.063005775 0.7035833
0.00067781721 -0.063714802 0.7036643
0.00067885808 -0.06449151 0.7039156
0.00068131264 -0.065405995 0.70450813
0.001354942 0.057585061 0.70358074
0.0013524474 0.056802809 0.70327961
0.0013519212 0.056104749 0.70321608
0.0013516215 0.055416495 0.70317996
0.0013513218 0.054728568 0.70314372
0.0013510224 0.054040909 0.7031076
0.001350723 0.053353578 0.70307148
0.0013504238 0.052666545 0.70303535
0.0013495793 0.051958829 0.70293343
0.0013472455 0.051195353 0.70265168
0.0013462172 0.050483197 0.70252758
0.0013307806 0.04923889 0.70066422
0.0013285164 0.048490852 0.70039088
0.0013284809 0.047825336 0.70038658
0.0013289279 0.047176957 0.70044059
0.0013400288 0.046901047 0.70178056
0.0013457428 0.046428144 0.7024703
0.0013472508 0.045806527 0.70265234
0.0013472455 0.045132726 0.70265168
0.0013472403 0.044458956 0.70265108
0.0013472351 0.043785125 0.70265043
0.0013472298 0.043111384 0.70264983
0.0013472247 0.042437613 0.70264918
0.0013472195 0.041763812 0.70264852
0.0013472142 0.041090071 0.70264792
0.001347209 0.0404163 0.70264733
0.0013472037 0.0397425 0.70264661
0.0013472247 0.039069563 0.70264918
0.0013472716 0.038397253 0.70265484
0.0013472821 0.037723929 0.70265609
0.0013474755 0.037055582 0.70267946
