# .PCD v0.7 - Point Cloud Data file format
VERSION 0.7
FIELDS x y z
SIZE 4 4 4
TYPE F F F
COUNT 1 1 1
WIDTH 1330
HEIGHT 1
VIEWPOINT 0 0 0 1 0 0 0
POINTS 1330
DATA ascii
0.0055356855 -0.0089954734 0.70707887
0.0054924372 -0.0096117556 0.70577371
0.0054693324 -0.010254979 0.70507646
0.0054797479 -0.010959476 0.70539081
0.0054915692 -0.011669576 0.70574749
0.0055045537 -0.012385219 0.70613933
0.0058084847 -0.013795137 0.71531129
0.0058302921 -0.01457569 0.71596938
0.0058522634 -0.015362173 0.71663237
0.0058744014 -0.016154617 0.71730047
0.0058966819 -0.016952962 0.71797293
0.005919158 -0.017757446 0.71865118
0.0059418054 -0.018568128 0.7193346
0.005964627 -0.01938501 0.72002327
0.0059876246 -0.02020824 0.72071737
0.0060108006 -0.021037787 0.72141671
0.0060341558 -0.021873802 0.72212154
0.0060577202 -0.022716433 0.72283268
0.0060814428 -0.023565561 0.72354853
0.0061026714 -0.024410665 0.72418916
0.0061209737 -0.025249004 0.72474146
0.0061381119 -0.026086956 0.72525865
0.0061541745 -0.026924491 0.72574341
0.006169308 -0.027761877 0.7262001
0.0061838008 -0.028600037 0.72663748
0.0061976984 -0.029439062 0.72705686
0.0062114918 -0.030280977 0.72747308
0.0062241759 -0.031120837 0.72785592
0.0062353173 -0.031955957 0.72819209
0.006229951 -0.032707214 0.72803015
0.0062017636 -0.033334434 0.72717953
0.0061638085 -0.033900946 0.72603416
0.0061263158 -0.034460485 0.72490269
0.0061065052 -0.035112381 0.72430491
0.006122834 -0.035971642 0.72479761
0.0061416649 -0.036850005 0.72536588
0.0061606122 -0.037733734 0.72593766
0.0061796489 -0.038622797 0.72651219
0.0061990526 -0.039518923 0.72709769
0.0062193298 -0.040425628 0.72770965
0.0062397965 -0.041338623 0.72832721
0.0062603694 -0.042257488 0.72894812
0.0062811077 -0.043182582 0.72957391
0.0063019544 -0.044113666 0.73020303
0.0063229692 -0.045051128 0.73083717
0.0063451384 -0.046002209 0.73150623
0.006367696 -0.046961755 0.73218697
0.0063904449 -0.047928363 0.7328735
0.006413416 -0.048902303 0.7335667
0.0064365529 -0.049883276 0.73426497
0.0064603672 -0.050875366 0.73498356
0.0064855088 -0.051884055 0.73574233
0.0065109381 -0.052901357 0.73650968
0.0065365369 -0.053926408 0.73728228
0.0065627098 -0.054962695 0.7380721
0.006591124 -0.056024551 0.73892951
0.0066199433 -0.057096988 0.7397992
0.0066490471 -0.05817917 0.74067748
0.0066797878 -0.059283108 0.74160516
0.006713375 -0.060420334 0.7426188
0.0062636198 0.058460474 0.70804381
0.0062743519 0.057863474 0.7083317
0.0062851212 0.057264447 0.70862061
0.0062958258 0.05666244 0.70890772
0.0063065672 0.056058377 0.70919585
0.0063170134 0.055449367 0.70947611
0.0063275197 0.054838508 0.70975792
0.005240588 0.044836134 0.68060142
0.0052311379 0.044174105 0.68034792
0.0052311728 0.043593138 0.68034887
0.005237007 0.043059886 0.68050534
0.0052453522 0.042545676 0.68072921
0.0052537234 0.042029798 0.68095374
0.0052621397 0.04151243 0.68117952
0.0052705649 0.040993303 0.68140554
0.0052790171 0.040472448 0.68163228
0.0052874964 0.039949954 0.68185973
0.0052960031 0.03942582 0.6820879
0.0053033861 0.038891524 0.68228596
0.0053037279 0.038304716 0.68229508
0.0053110239 0.037767291 0.68249083
0.0053158086 0.037210673 0.68261915
0.0053036199 0.036536068 0.68229222
0.0052469186 0.035562485 0.68077123
0.0052201874 0.034801275 0.68005419
0.0052104634 0.034157485 0.67979336
0.005215086 0.033608347 0.67991734
0.0052292133 0.033118367 0.6802963
0.0052441559 0.032630324 0.68069708
0.0052592014 0.03213957 0.68110073
0.0052743163 0.031645924 0.68150616
0.0052895178 0.031149417 0.68191391
0.0053048073 0.030650049 0.68232405
0.0053202035 0.030147821 0.68273711
0.0053356714 0.029642671 0.68315196
0.0053512296 0.029134482 0.68356931
0.0053668967 0.028623462 0.68398958
0.005382637 0.028109342 0.68441182
0.0053984704 0.027592212 0.68483657
0.0054144161 0.027072102 0.68526429
0.0054304376 0.026548803 0.68569404
0.0054465537 0.026022464 0.68612635
0.0054627853 0.025493026 0.68656176
0.0054790946 0.024960339 0.68699926
0.0054955012 0.024424464 0.68743938
0.0055120261 0.023885459 0.6878826
0.0055286312 0.023343146 0.68832803
0.0055453363 0.022797525 0.6887762
0.005562163 0.022248656 0.68922752
0.0055790716 0.021696389 0.68968111
0.0055961036 0.021140844 0.69013798
0.0056132199 0.020581812 0.69059712
0.0056304615 0.020019442 0.69105959
0.0056477888 0.019453496 0.69152439
0.0056652231 0.018884093 0.6919921
0.0056827655 0.018311143 0.69246262
0.0057004164 0.017734647 0.69293606
0.0057181986 0.017154604 0.69341314
0.0057360078 0.016570717 0.69389087
0.0057432554 0.015953511 0.69408524
0.0057371864 0.015299201 0.6939224
0.0057225511 0.014624357 0.6935299
0.0057128919 0.013964832 0.6932708
0.0057165679 0.013338685 0.69336939
0.0057278131 0.012728482 0.69367099
0.0057388498 0.012115389 0.69396704
0.0057512405 0.011502475 0.69429946
0.0058992677 0.011143088 0.69827026
0.0059212279 0.010526627 0.69885927
0.005940394 0.0099006891 0.69937342
0.0059597073 0.009270668 0.69989151
0.005979124 0.0086365342 0.70041227
0.0059986673 0.0079982281 0.70093656
0.0060183392 0.0073557794 0.7014643
0.0060381633 0.0067090988 0.70199603
0.006058095 0.0060581267 0.70253074
0.0060695945 0.0053952038 0.7028392
0.0060643451 0.0047167242 0.70269841
0.0060479022 0.0040319562 0.70225734
0.0060211201 0.0033450723 0.70153886
0.0059824637 0.0026588738 0.70050192
0.0059357262 0.0019785762 0.69924825
0.0059340592 0.0013186932 0.69920349
0.0059462222 0.00066071749 0.69952977
0.005958572 2.9802322e-08 0.69986099
0.0059797643 -0.00066441298 0.7004295
0.0062907347 -0.0013979375 0.70877111
0.0063131368 -0.0021043718 0.7093721
0.0063356985 -0.0028158724 0.70997733
0.006358448 -0.0035324395 0.71058756
0.0063813357 -0.0042542219 0.71120155
0.0063991728 -0.0049771369 0.71167994
0.0063989633 -0.0056879818 0.71167439
0.0063844621 -0.0063844621 0.71128535
0.0063601029 -0.0070667565 0.71063197
0.006325549 -0.0077312291 0.709705
0.0062809302 -0.0083746016 0.70850813
0.0062315674 -0.0090011358 0.70718402
0.0061776005 -0.0096096098 0.7057364
0.0061558578 -0.010259718 0.70515311
0.0061684861 -0.010966212 0.7054919
0.0061824368 -0.011677921 0.7058661
0.0061969669 -0.012393922 0.70625585
0.0066008898 -0.013935208 0.71709096
0.0066259243 -0.014724284 0.71776253
0.0066511496 -0.015519381 0.71843916
0.0066765673 -0.016320467 0.71912098
0.0067021805 -0.017127752 0.71980804
0.0067279912 -0.017941326 0.72050035
0.0067535923 -0.018759966 0.72118717
0.0067763929 -0.019576222 0.72179872
0.0067959493 -0.020387828 0.7223233
0.0068143713 -0.02120024 0.72281748
0.0068319379 -0.022013992 0.72328871
0.0068483055 -0.022827655 0.72372782
0.0068631549 -0.023639768 0.72412616
0.0068766768 -0.024450392 0.72448885
0.0068915281 -0.025268942 0.72488725
0.006906474 -0.026091099 0.72528815
0.0069214543 -0.026916742 0.72568995
0.0069346232 -0.027738512 0.72604322
0.0069475644 -0.028562188 0.72639036
0.006960554 -0.029388994 0.72673881
0.0069735926 -0.030218869 0.72708857
0.0069866483 -0.031051755 0.72743875
0.0069997841 -0.031887889 0.72779113
0.0070021036 -0.032676488 0.72785336
0.0069818441 -0.03335771 0.72730988
0.0069395169 -0.033926487 0.72617447
0.0069011091 -0.034505516 0.72514421
0.0069034859 -0.03528443 0.72520792
0.0069259 -0.036168545 0.72580922
0.0069484292 -0.037058264 0.72641355
0.006971105 -0.037953764 0.72702181
0.0069939611 -0.038855344 0.72763491
0.0070169671 -0.039762825 0.72825211
0.0070414883 -0.040684164 0.72890985
0.0070662773 -0.041612506 0.7295748
0.0070912419 -0.042547405 0.73024446
0.0071163508 -0.043488801 0.73091799
0.0071416711 -0.044437021 0.73159719
0.0071678287 -0.045396239 0.73229885
0.0071952385 -0.046369314 0.73303413
0.007223059 -0.047351152 0.73378038
0.007251095 -0.048340648 0.73453248
0.0072800955 -0.049342871 0.73531038
0.0073110717 -0.05036515 0.73614132
0.0073426226 -0.051398337 0.73698771
0.0073746913 -0.052442253 0.73784786
0.0074085146 -0.053505927 0.73875523
0.0074448828 -0.054595768 0.73973072
0.0074819676 -0.05569911 0.74072552
0.0075228964 -0.056839645 0.74182343
0.0075683398 -0.05802393 0.74304235
0.0076196785 -0.059264153 0.74441952
0.0069569298 0.058438241 0.70797992
0.0069687618 0.057840705 0.70826554
0.0069806059 0.057240963 0.70855153
0.0069915336 0.056631476 0.70881528
0.0070024668 0.056019723 0.70907927
0.0070137745 0.055408835 0.70935225
0.0070254314 0.054798394 0.70963371
0.0058264877 0.044863969 0.68068862
0.0058143982 0.044189423 0.6803968
0.005813153 0.043598682 0.68036664
0.0058194036 0.043063581 0.68051755
0.0058286185 0.042548925 0.68074006
0.0058379215 0.042033076 0.68096459
0.0058472548 0.041515529 0.68118995
0.0058566174 0.040996343 0.68141603
0.0058660102 0.040475488 0.68164277
0.0058755325 0.039953619 0.68187261
0.0058852052 0.039430887 0.6821062
0.0058938903 0.03889966 0.68231589
0.0058955504 0.038321078 0.68235594
0.0059023602 0.037775099 0.68252039
0.0059085628 0.037223965 0.68267006
0.0058986931 0.03657192 0.68243182
0.0058595012 0.035742968 0.68148565
0.0058365292 0.035019189 0.68093103
0.0058298507 0.034396112 0.6807698
0.0058395113 0.033869147 0.68100303
0.0058562621 0.033380717 0.68140745
0.0058731493 0.032889634 0.68181515
0.0058901338 0.03239575 0.68222517
0.005907197 0.031898856 0.6826371
0.0059243795 0.03139919 0.68305194
0.005941642 0.030896544 0.6834687
0.0059590051 0.030390948 0.68388784
0.0059764702 0.029882371 0.68430948
0.0059940587 0.029370904 0.68473417
0.0060117301 0.028856307 0.68516076
0.0060295057 0.028338701 0.68558991
0.0060474081 0.027818114 0.6860221
0.0060653961 0.027294338 0.68645638
0.0060834913 0.026767403 0.68689322
0.0061016949 0.026237279 0.68733269
0.0061200289 0.025704145 0.68777531
0.0061384523 0.025167674 0.68822008
0.0061569866 0.024627954 0.68866754
0.0061756554 0.024085075 0.68911827
0.0061944155 0.023538768 0.68957114
0.006213312 0.022989243 0.69002742
0.0062323022 0.022436291 0.69048584
0.0062514087 0.021879941 0.69094712
0.0062706326 0.021320164 0.6914112
0.0062899976 0.02075702 0.69187868
0.0063094599 0.020190299 0.6923486
0.0063290661 0.019620091 0.69282192
0.006348771 0.019046336 0.69329762
0.0063685994 0.018468946 0.69377637
0.006388552 0.01788798 0.69425809
0.0064086299 0.017303348 0.6947428
0.0064241039 0.016702682 0.69511634
0.0064247213 0.016061842 0.6951313
0.0064114914 0.015387565 0.69481188
0.0063854991 0.014686644 0.69418436
0.0063510919 0.013972431 0.69335365
0.0063497224 0.013334453 0.69332063
0.006361953 0.012723923 0.69361591
0.0063742306 0.012111038 0.69391233
0.0063861567 0.011495113 0.69420016
0.0066167018 0.01124841 0.69976604
0.0066382419 0.01062119 0.70028609
0.0066599227 0.0099898875 0.70080948
0.006681771 0.009354502 0.70133698
0.0067037372 0.0087148845 0.70186728
0.0067258487 0.0080710053 0.70240104
0.0067481063 0.0074229538 0.70293844
0.0067705121 0.0067704916 0.70347941
0.0067884219 0.0061096251 0.70391178
0.00678943 0.0054315627 0.7039361
0.0067756344 0.0047429502 0.70360309
0.0067491811 0.00404948 0.70296443
0.0067098215 0.003354907 0.70201415
0.0066565801 0.0026626587 0.70072877
0.0066002123 0.0019800663 0.699368
0.0065956516 0.0013191402 0.69925791
0.0066090752 0.0006608963 0.69958198
0.0066227806 2.9802322e-08 0.69991279
0.0066397893 -0.00066396594 0.70032346
0.0070570218 -0.0014114082 0.71039635
0.0070824241 -0.0021247268 0.71100962
0.007107981 -0.0028431714 0.71162659
0.0071337232 -0.0035668314 0.71224803
0.0071567325 -0.004294008 0.71280354
0.0071608624 -0.0050126016 0.71290326
0.0071483995 -0.005718708 0.71260238
0.0071239825 -0.0064115822 0.71201295
0.0070879431 -0.0070879459 0.71114284
0.0070390659 -0.0077429414 0.70996284
0.0069833836 -0.0083800554 0.70861858
0.0069228881 -0.0089997649 0.70715809
0.0068532513 -0.0095945299 0.70547688
0.0068462836 -0.010269433 0.70530868
0.006862184 -0.010979474 0.70569247
0.0068780496 -0.011692673 0.70607555
0.0068948097 -0.012410641 0.70648021
0.0074084122 -0.014075965 0.7188797
0.0074323402 -0.014864683 0.71945727
0.0074534807 -0.015652329 0.71996772
0.0074730054 -0.0164406 0.72043908
0.007492051 -0.017231673 0.72089887
0.0075081429 -0.018019527 0.72128737
0.0075239781 -0.018809944 0.72166967
0.0075399783 -0.019603938 0.72205597
0.0075560464 -0.020401299 0.72244382
0.0075721839 -0.021202087 0.7228334
0.0075883898 -0.022006333 0.72322476
0.0076024691 -0.022807389 0.72356457
0.0076164673 -0.023611039 0.72390258
0.007614865 -0.024367571 0.72386384
0.0076446189 -0.025227219 0.7245822
0.0076452242 -0.025993735 0.7245968
0.0076729786 -0.026855439 0.72526681
0.0076872041 -0.02767393 0.72561026
0.0077015162 -0.02849561 0.72595578
0.0077158818 -0.029320329 0.72630262
0.0077302665 -0.030148 0.72664988
0.0077447398 -0.030978948 0.72699928
0.007759267 -0.031812966 0.72735006
0.0077693649 -0.032631308 0.72759384
0.0077574658 -0.033357084 0.72730649
0.0077164299 -0.033952236 0.72631586
0.0076944898 -0.034625202 0.72578615
0.0077193445 -0.03550896 0.72638619
0.0077461554 -0.036406934 0.72703356
0.0077731535 -0.037311137 0.72768527
0.0078003407 -0.038221627 0.72834164
0.0078277187 -0.039138585 0.72900259
0.0078561064 -0.040066123 0.72968793
0.0078855949 -0.041005075 0.73039985
0.0079156673 -0.041952997 0.73112583
0.0079461504 -0.042909175 0.73186183
0.0079777492 -0.043877602 0.73262465
0.0080111148 -0.04486227 0.73343015
0.0080452068 -0.045857668 0.73425329
0.0080810189 -0.046869874 0.73511779
0.0081175305 -0.047893435 0.73599929
0.0081558656 -0.048935175 0.73692477
0.0081959181 -0.049995065 0.73789167
0.0082398811 -0.05108726 0.73895311
0.0082889833 -0.052220583 0.74013853
0.0083444007 -0.053404123 0.74147642
0.0084117092 -0.054676086 0.74310136
0.0076492229 0.058412254 0.70790523
0.0076611508 0.057806909 0.70816708
0.0076731164 0.057199597 0.70842969
0.0076850886 0.056590229 0.70869243
0.0076971292 0.055979162 0.70895672
0.0077095497 0.055368602 0.70922929
0.0077223536 0.054758519 0.70951033
0.0064139334 0.044897556 0.68079388
0.0063991789 0.04421255 0.68047005
0.006396994 0.043615878 0.68042213
0.0064028664 0.043073833 0.68055099
0.0064128572 0.042558044 0.68077028
0.0064233327 0.042043656 0.68100017
0.0064338422 0.041527539 0.68123084
0.0064444081 0.041009873 0.68146276
0.0064549865 0.040490419 0.68169492
0.0064656222 0.039969325 0.68192828
0.0064762705 0.039446414 0.68216205
0.0064861178 0.038916707 0.68237811
0.006489025 0.038344264 0.68244195
0.0064950236 0.037789255 0.68257356
0.0065026036 0.037242204 0.68273997
0.0064942068 0.036603719 0.68255568
0.0064706132 0.035882473 0.68203789
0.0064596338 0.035234392 0.68179691
0.0064633698 0.034667194 0.68187886
0.0064736162 0.034133613 0.68210375
0.0064892895 0.033626348 0.68244773
0.0065086274 0.033134818 0.68287218
0.0065294639 0.032647341 0.68332946
0.0065502771 0.032155901 0.68378627
0.0065694842 0.031652987 0.68420786
0.0065887817 0.031147003 0.68463135
0.0066081923 0.030638009 0.6850574
0.0066277185 0.030126005 0.68548596
0.0066473829 0.029611051 0.6859175
0.0066671409 0.029092968 0.68635112
0.00668704 0.028571904 0.68678784
0.0067068706 0.028046936 0.68722308
0.0067248777 0.027510881 0.68761837
0.006742863 0.026971489 0.68801308
0.0067586256 0.026420116 0.68835896
0.0067744618 0.025866151 0.68870652
0.0067904452 0.025309891 0.68905735
0.006816579 0.024787545 0.68963093
0.0068493159 0.024283946 0.6903494
0.0068714558 0.023737758 0.6908353
0.0068925959 0.02318421 0.69129926
0.0069138408 0.022627145 0.69176555
0.0069352174 0.022066593 0.69223469
0.0069567519 0.021502703 0.69270736
0.0069783954 0.020935178 0.69318241
0.007000173 0.020364165 0.69366038
0.0070220879 0.019789547 0.69414127
0.0070441402 0.019211292 0.69462532
0.0070663574 0.018629521 0.69511288
0.0070886891 0.018043935 0.69560301
0.0071105538 0.017453194 0.69608289
0.0071186586 0.016825944 0.69626075
0.0071099717 0.016159028 0.69607013
0.0070872693 0.015463144 0.6955719
0.0070500388 0.014741004 0.69475478
0.0069935387 0.013987094 0.6935147
0.0069820154 0.013329327 0.69326186
0.0069956123 0.012719303 0.69356024
0.0070091332 0.012106657 0.69385695
0.0070226556 0.011491627 0.69415379
0.0073441295 0.011350036 0.70120931
0.0073682545 0.010717481 0.70173872
0.0073925382 0.010080785 0.7022717
0.0074169827 0.009439826 0.7028082
0.007441618 0.0087946653 0.70334888
0.0074663889 0.0081451833 0.70389253
0.007491325 0.0074913204 0.70443982
0.0075152754 0.006832093 0.70496547
0.0075223455 0.0061546862 0.70512062
0.007511524 0.0054629445 0.7048831
0.007486864 0.0047643781 0.70434195
0.0074490146 0.0040631294 0.70351124
0.0073943688 0.0033610761 0.70231187
0.007330073 0.0026654899 0.70090079
0.0072672181 0.0019819736 0.6995213
0.0072576967 0.0013195872 0.69931233
0.0072728875 0.00066122413 0.69964564
0.0072886986 2.9802322e-08 0.69999272
0.0073051364 -0.00066408515 0.7003535
0.0078335861 -0.0014242828 0.71195161
0.0078584217 -0.0021432042 0.71249664
0.0078798067 -0.0028653443 0.71296597
0.0079013417 -0.0035915077 0.71343863
0.0079151513 -0.004317373 0.71374172
0.0079145944 -0.0050365329 0.7137295
0.0078979125 -0.005743891 0.71336335
0.0078612017 -0.0064318776 0.71255761
0.0078103752 -0.0071003139 0.71144211
0.0077482462 -0.0077482462 0.7100786
0.0076810732 -0.0083793402 0.70860434
0.0075965305 -0.0089776814 0.70674884
0.0075350394 -0.0095900595 0.70539927
0.0075407182 -0.010282785 0.70552385
0.0075582545 -0.010993779 0.70590878
0.0075764428 -0.011709034 0.70630795
0.007597859 -0.012432814 0.70677793
0.0081692832 -0.014110565 0.71931922
0.0081859753 -0.014883548 0.71968555
0.0082031926 -0.015660644 0.72006345
0.008220518 -0.016441017 0.72044373
0.0082378453 -0.01722458 0.72082406
0.0082527865 -0.018006086 0.72115195
0.0082508624 -0.018751949 0.72110975
0.0082755508 -0.019560367 0.72165155
0.0082856333 -0.020337433 0.72187281
0.008298045 -0.021122307 0.72214526
0.0083111813 -0.021911293 0.72243351
0.0083264261 -0.022708416 0.72276807
0.0083417268 -0.023508519 0.72310394
0.0083741853 -0.024361223 0.72381634
0.0083896257 -0.025168866 0.72415519
0.0084051229 -0.025979459 0.72449535
0.0084206779 -0.026793033 0.72483671
0.0084256157 -0.027574718 0.72494507
0.00845196 -0.02842927 0.72552329
0.0084676892 -0.029251993 0.72586852
0.0084834388 -0.030077606 0.72621417
0.0084992852 -0.030906469 0.72656196
0.0085151903 -0.03173843 0.72691101
0.0085305078 -0.032571048 0.72724718
0.0085272724 -0.033333868 0.72717619
0.0085078739 -0.034031481 0.72675043
0.0085259415 -0.03487882 0.72714698
0.0085573606 -0.035785317 0.72783661
0.0085895536 -0.036700785 0.7285431
0.0086224945 -0.037625402 0.72926605
0.0086564738 -0.038560629 0.73001176
0.0086920662 -0.039509356 0.730793
0.0087293871 -0.040472567 0.73161203
0.0087681161 -0.041449279 0.73246211
0.0088071898 -0.042434633 0.73331964
0.0088471053 -0.043431222 0.73419571
0.0088899471 -0.044449717 0.73513603
0.0089367991 -0.045496434 0.73616421
0.0089893024 -0.046580911 0.73731661
0.0090491064 -0.047713429 0.7386291
0.009120536 -0.048919231 0.74019676
0.0083456086 0.058419287 0.70792544
0.0083514927 0.05776453 0.70804381
0.0083645936 0.057158113 0.70830739
0.0083776694 0.056549281 0.70857042
0.0083907517 0.055938363 0.70883363
0.0084043154 0.055328399 0.70910656
0.0084182629 0.054718733 0.70938712
0.0070034112 0.044938564 0.68092257
0.0069857882 0.044243336 0.68056798
0.0069824192 0.043640137 0.68050015
0.006988036 0.043092906 0.68061316
0.0069985455 0.042574495 0.68082464
0.0070100049 0.042060047 0.68105519
0.0070214788 0.041543782 0.68128598
0.0070330142 0.041025937 0.68151808
0.0070445635 0.040506244 0.68175048
0.0070561753 0.039985031 0.68198407
0.007067801 0.039461911 0.68221796
0.0070788879 0.038933873 0.682441
0.0070834099 0.038368493 0.68253195
0.0070885397 0.037805557 0.68263519
0.0070983144 0.037266165 0.68283182
0.0070916982 0.036640465 0.68269867
0.0070724762 0.035951763 0.68231201
0.0070685199 0.035342604 0.68223238
0.007076269 0.034791678 0.68238831
0.0070906854 0.034271687 0.68267834
0.0071062986 0.033754915 0.68299246
0.0071272887 0.033260673 0.68341476
0.0071610236 0.032821387 0.68409342
0.0071999002 0.032399535 0.68487561
0.0072239996 0.031906009 0.68536037
0.0072431494 0.031387001 0.6857456
0.007261212 0.030860186 0.68610907
0.0072779418 0.030324787 0.68644565
0.0072947745 0.029787004 0.68678433
0.0073105572 0.029242247 0.68710178
0.0073259189 0.028693199 0.68741089
0.0073413192 0.028141767 0.68772072
0.0073566292 0.027587384 0.68802869
0.0073718205 0.027030021 0.68833435
0.0073870751 0.026470363 0.68864125
0.0074023926 0.025908411 0.68894941
0.0074176947 0.025343806 0.68925726
0.007464597 0.024882019 0.69020087
0.0075336504 0.024484396 0.69159013
0.0075600403 0.023940146 0.69212103
0.0075834976 0.023382455 0.69259292
0.0076070726 0.022821248 0.69306725
0.0076307952 0.022256494 0.69354451
0.0076546655 0.021688223 0.6940248
0.0076787141 0.021116495 0.69450855
0.0077028861 0.020541042 0.69499493
0.0077272109 0.019961983 0.69548422
0.0077516898 0.019379258 0.69597673
0.007776353 0.018792868 0.69647288
0.0078011448 0.018202722 0.69697165
0.0078196377 0.017594218 0.69734371
0.0078192558 0.016941726 0.69733608
0.0078011742 0.016252488 0.69697225
0.0077668219 0.015533686 0.69628114
0.0077133453 0.014783919 0.69520527
0.0076390435 0.014004946 0.69371045
0.0076163546 0.013328642 0.69325399
0.0076316888 0.012719512 0.69356245
0.0076471972 0.012108058 0.69387448
0.0076627401 0.01149413 0.69418716
0.0080848215 0.011453509 0.7026788
0.0081116231 0.010815531 0.70321798
0.0081386007 0.010173261 0.70376074
0.00816576 0.0095267296 0.7043072
0.0081931017 0.0088758767 0.70485723
0.008220626 0.0082206428 0.70541102
0.0082483692 0.0075609982 0.7059691
0.0082658976 0.0068882704 0.70632178
0.0082589891 0.0061942339 0.70618278
0.0082362145 0.0054908097 0.7057246
0.0081987716 0.0047826469 0.70497131
0.0081445146 0.0040722787 0.70387977
0.0080753015 0.0033647418 0.70248729
0.0080050407 0.0026683509 0.70107371
0.0079359924 0.00198403 0.69968462
0.0079248305 0.0013208389 0.69946003
0.007941857 0.00066184998 0.69980264
0.0079589868 -2.9802322e-08 0.70014721
0.0079763439 -0.0006646812 0.70049638
0.0085780444 -0.0014296472 0.71260166
0.0085989181 -0.0021497309 0.71302164
0.0086192181 -0.0028730333 0.71343005
0.0086383959 -0.0035993159 0.71381593
0.0086508701 -0.0043254495 0.7140668
0.0086495057 -0.005045563 0.71403939
0.0086340318 -0.0057560205 0.71372807
0.0085935313 -0.0064451098 0.71291327
0.0085258801 -0.0071048737 0.71155226
0.0084519815 -0.0077476501 0.71006554
0.0083604008 -0.0083604157 0.7082231
0.0082445852 -0.0089316368 0.70589304
0.0082237395 -0.0095943511 0.70547366
0.0082419124 -0.010302395 0.70583928
0.0082620652 -0.011016071 0.70624465
0.0082823494 -0.011733353 0.70665282
0.0088862292 -0.013329327 0.71880192
0.008902166 -0.014095098 0.71912253
0.0089181215 -0.014863521 0.7194435
0.0089158714 -0.015602797 0.71939826
0.0089319525 -0.016375214 0.71972179
0.0089664105 -0.017185599 0.720415
0.008982636 -0.017965257 0.72074139
0.0089856563 -0.01872012 0.72080225
0.0090152258 -0.019532979 0.72139704
0.0090316283 -0.020321161 0.72172713
0.0090480912 -0.021112204 0.7220583
0.0090460107 -0.021861225 0.72201645
0.0090811187 -0.022702783 0.72272271
0.0090913353 -0.023485929 0.72292829
0.0091079772 -0.024287909 0.72326308
0.0091125555 -0.025059491 0.72335523
0.0091428068 -0.025904596 0.7239638
0.0091649527 -0.026731074 0.7244094
0.0091818655 -0.027545601 0.72474968
0.0091988808 -0.028363228 0.72509193
0.0092159593 -0.029183835 0.72543561
0.0092333881 -0.030008495 0.72578621
0.0092518264 -0.030839413 0.72615713
0.0092724832 -0.031680971 0.72657263
0.0092953453 -0.032533705 0.72703266
0.0093170302 -0.033386022 0.72746897
0.0093548233 -0.034301013 0.72822922
0.009395591 -0.035233468 0.72904944
0.0094367582 -0.036174208 0.72987771
0.009478244 -0.037123114 0.73071229
0.0095200967 -0.038080394 0.73155427
0.0095649976 -0.039057046 0.73245764
0.0096149333 -0.040062189 0.73346227
0.0096701002 -0.041097909 0.73457217
0.0097341677 -0.042181373 0.73586106
0.0098093729 -0.043324709 0.73737407
0.0090402439 0.057718486 0.70791
0.0090548135 0.057114989 0.70818055
0.0090691391 0.056507736 0.70844656
0.0090834005 0.055897892 0.70871139
0.0090980735 0.055288285 0.70898396
0.0091131609 0.054678977 0.70926416
0.0075941212 0.044980556 0.68105423
0.0075732153 0.044274211 0.68066597
0.0075684949 0.043664396 0.68057835
0.0075739012 0.043112963 0.68067873
0.0075851693 0.042593688 0.68088794
0.0075978767 0.042080551 0.68112397
0.0076106265 0.041565746 0.68136072
0.0076234196 0.041049182 0.68159831
0.0076362556 0.04053092 0.68183666
0.0076491348 0.04001084 0.68207586
0.007662083 0.03948921 0.68231636
0.0076745804 0.038963258 0.6825484
0.0076804524 0.038402259 0.68265748
0.0076846858 0.03783229 0.6827361
0.0076960241 0.037296116 0.68294668
0.0076906257 0.036678374 0.68284643
0.0076717651 0.035998285 0.68249619
0.0076696808 0.035398543 0.68245745
0.0076793297 0.034852356 0.68263662
0.0076942937 0.034328431 0.6829145
0.00770958 0.033803552 0.68319839
0.00773816 0.033333629 0.68372917
0.007805957 0.033025205 0.6849882
0.007833926 0.032540947 0.6855076
0.0078503452 0.03200528 0.68581247
0.0078663956 0.03146559 0.68611062
0.0078824284 0.030923367 0.68640834
0.0078985272 0.030378968 0.68670732
0.0079146912 0.029832333 0.68700743
0.0079309223 0.029283404 0.68730891
0.0079472195 0.02873227 0.68761158
0.0079635847 0.028178841 0.68791544
0.0079800161 0.027623147 0.68822062
0.0079965163 0.027065158 0.68852705
0.0080130855 0.026504874 0.68883473
0.0080297226 0.025942206 0.68914366
0.0080461139 0.02537623 0.68944812
0.0081307227 0.025017619 0.69101936
0.008231204 0.024693608 0.6928854
0.0082604662 0.02414602 0.69342881
0.0082862871 0.023584038 0.69390833
0.00831227 0.023018569 0.69439089
0.0083384467 0.022449672 0.69487703
0.0083647585 0.02187705 0.69536567
0.0083912369 0.021300852 0.69585741
0.0084179146 0.020721048 0.69635284
0.0084447311 0.020137429 0.69685078
0.008471719 0.019550145 0.69735193
0.0084988791 0.018959075 0.69785637
0.0085248314 0.018361181 0.69833827
0.0085334312 0.017723292 0.69849801
0.0085216146 0.017043233 0.69827855
0.0084925834 0.016331911 0.69773948
0.0084456466 0.015591979 0.69686776
0.008372697 0.014813244 0.69551307
0.0082861958 0.014022797 0.69390666
0.0082539758 0.01333338 0.69330823
0.0082703875 0.012723684 0.69361311
0.0082871681 0.012112021 0.69392473
0.0083040185 0.011497915 0.69423765
0.008839108 0.011558861 0.7041747
0.0088686803 0.010915339 0.70472395
0.0088984855 0.010267496 0.70527744
0.0089284563 0.0096152723 0.70583397
0.0089586303 0.0089586675 0.70639431
0.0089871483 0.0082958639 0.7069239
0.0090103457 0.0076241195 0.70735472
0.0090147331 0.0069344342 0.70743626
0.0089981044 0.00622949 0.70712739
0.008962078 0.0055150986 0.70645839
0.0089081721 0.0047967434 0.70545733
0.0088353744 0.0040778816 0.70410538
0.0087577421 0.0033683777 0.70266366
0.0086814947 0.0026712716 0.70124769
0.0086065968 0.0019861758 0.69985676
0.008594675 0.0013222694 0.69963539
0.0086131608 0.00066259503 0.69997865
0.00863331 -0 0.70035285
0.0086538196 -0.00066569448 0.70073372
0.0093027949 -0.0014311671 0.71278584
0.0093216468 -0.0021511614 0.7131359
0.0093405368 -0.002873987 0.71348667
0.0093595423 -0.0035997927 0.71383965
0.009373487 -0.0043261945 0.71409863
0.009371426 -0.005046159 0.71406031
0.009356169 -0.0057576299 0.71377707
0.009314266 -0.0064482987 0.71299881
0.0092356149 -0.0071043074 0.7115382
0.0091353888 -0.0077299476 0.70967686
0.0090023363 -0.0083098412 0.70720601
0.0089186551 -0.0089186132 0.705652
0.0089257397 -0.0096122921 0.70578349
0.008948762 -0.010325462 0.70621109
0.0089719044 -0.011042327 0.70664084
0.008995166 -0.011762917 0.70707285
0.009605214 -0.013299525 0.71840197
0.0096223606 -0.014063448 0.71872044
0.0096396087 -0.014830172 0.71904075
0.0096528754 -0.015593082 0.7192871
0.0096736709 -0.016370803 0.71967328
0.00968483 -0.017134696 0.71988052
0.0097091859 -0.017924607 0.72033286
0.0097072655 -0.018667787 0.72029716
0.00972436 -0.019448727 0.72061461
0.0097429436 -0.02023533 0.72095966
0.0097797308 -0.021064043 0.72164297
0.0097975498 -0.02185604 0.72197378
0.0098153902 -0.022650898 0.72230512
0.0098333815 -0.023448855 0.72263926
0.0098513952 -0.024249583 0.72297382
0.0098699071 -0.025054395 0.72331762
0.0098897442 -0.025865465 0.72368598
0.0099114878 -0.026684761 0.72408974
0.0099359062 -0.027514786 0.72454315
0.0099634761 -0.028357565 0.72505522
0.010000047 -0.029230893 0.72573435
0.010043404 -0.030130178 0.72653949
0.010087183 -0.03103748 0.72735256
0.010131345 -0.031952679 0.72817266
0.010175576 -0.032874912 0.72899407
0.010221997 -0.033811241 0.72985619
0.010274637 -0.034775674 0.73083371
0.010332264 -0.035765529 0.73190391
0.010400349 -0.036801189 0.7331683
0.010479004 -0.037885606 0.73462898
0.009724943 0.057655066 0.70772541
0.0097405985 0.057052106 0.70799536
0.0097561097 0.056446046 0.70826286
0.0097713564 0.05583635 0.70852578
0.009859086 0.055633426 0.71003866
0.0098875826 0.055087954 0.71053004
0.0081906496 0.045048594 0.68126744
0.0081637353 0.044317484 0.6808033
0.0081576845 0.043701917 0.68069899
0.0081626941 0.043145716 0.68078542
0.0081744632 0.042623997 0.68098831
0.0081881676 0.042110592 0.68122464
0.0082019186 0.041595429 0.68146181
0.0082157152 0.041078597 0.68169963
0.0082295863 0.040560126 0.68193889
0.008243476 0.040039748 0.68217838
0.0082574133 0.039517611 0.68241876
0.0082712006 0.038992822 0.68265653
0.008278097 0.038434029 0.68277544
0.008281677 0.037859082 0.68283719
0.008295347 0.037329078 0.68307292
0.0082909642 0.036717117 0.68299735
0.0082694851 0.036031365 0.6826269
0.0082654664 0.035423458 0.68255758
0.0082739294 0.034868717 0.68270355
0.0082881674 0.034336686 0.68294913
0.0083027659 0.033804119 0.68320084
0.008348993 0.033396006 0.68399799
0.0084270947 0.033106476 0.68534482
0.0084469076 0.032580972 0.68568641
0.0084642209 0.032043129 0.68598503
0.0084816348 0.03150323 0.68628532
0.0084990915 0.030961007 0.68658638
0.0085166199 0.030416489 0.68688858
0.0085342498 0.029869914 0.68719262
0.0085519236 0.029320896 0.68749738
0.0085696103 0.028769404 0.68780237
0.0085872803 0.028215349 0.68810707
0.008605022 0.027658999 0.68841302
0.0086228373 0.027100354 0.68872023
0.008640727 0.026539415 0.68902874
0.0086586913 0.025976092 0.68933856
0.00867642 0.025409549 0.68964422
0.00881276 0.025179356 0.69199538
0.0089413095 0.024907947 0.69421214
0.0089730415 0.024355441 0.69475931
0.0090013342 0.023789257 0.69524717
0.0090298057 0.023219496 0.6957382
0.0090584578 0.022646189 0.69623226
0.009087326 0.022069186 0.69673014
0.0091163451 0.021488518 0.69723046
0.0091455495 0.020904124 0.69773412
0.009174942 0.020315975 0.698241
0.009204559 0.019724071 0.69875169
0.0092343334 0.019128293 0.69926512
0.0092558386 0.018511683 0.69963598
0.0092534442 0.017845958 0.69959474
0.0092293927 0.017140329 0.69917989
0.009186239 0.016404033 0.69843572
0.0091193533 0.015633196 0.69728231
0.0090283975 0.014832407 0.69571388
0.0089350026 0.014040709 0.69410336
0.0088947481 0.013342112 0.6934092
0.0089102574 0.01272893 0.69367665
0.0089293281 0.012118399 0.69400549
0.0089484481 0.011505157 0.69433522
0.0095989816 0.011655927 0.70555329
0.0096247345 0.010999709 0.70599741
0.0096494397 0.010338694 0.7064234
0.0096742716 0.0096742809 0.7068516
0.0096986899 0.009005934 0.70727265
0.009721172 0.0083324313 0.70766044
0.0097382981 0.0076515377 0.70795566
0.0097411452 0.0069580078 0.70800477
0.009727004 0.0062530935 0.70776093
0.0096845943 0.0055340827 0.70702958
0.0096107777 0.0048054457 0.70575666
0.0095254891 0.0040823817 0.70428592
0.0094417008 0.0033720136 0.70284104
0.0093593756 0.0026741028 0.70142138
0.0092757829 0.0019876659 0.6999799
0.0092692077 0.0013242066 0.69986653
0.0092908405 0.00066366792 0.7002396
0.0093125757 2.9802322e-08 0.70061439
0.0093345549 -0.00066676736 0.70099336
0.0093609598 -0.0013372898 0.70144874
0.01002868 -0.0021490157 0.71296316
0.010047114 -0.0028705895 0.71328104
0.010064701 -0.0035944879 0.7135843
0.010079172 -0.0043196678 0.71383387
0.010080468 -0.0050402284 0.71385616
0.010063701 -0.0057506561 0.71356702
0.010025703 -0.00644508 0.71291184
0.0099233231 -0.0070880353 0.71114635
0.0097795669 -0.0076839328 0.70866734
0.0096191019 -0.0082449019 0.70590025
0.0096157175 -0.0089288354 0.70584184
0.0096401842 -0.009640187 0.70626378
0.0096650841 -0.010355473 0.70669317
0.0096901124 -0.011074424 0.70712483
0.0097148828 -0.011796623 0.70755196
0.010320988 -0.013269842 0.71800387
0.010339372 -0.014032006 0.71832085
0.010336648 -0.014766604 0.71827388
0.010376379 -0.015564531 0.71895903
0.010373724 -0.016301543 0.7189132
0.010413697 -0.017108172 0.71960247
0.010432412 -0.017884105 0.71992528
0.010451239 -0.0186629 0.72024989
0.010470134 -0.019444495 0.72057575
0.010489777 -0.020230293 0.72091448
0.0105109 -0.021021783 0.72127873
0.010534026 -0.021820456 0.72167754
0.010559727 -0.02262798 0.72212076
0.010589519 -0.023448229 0.72263443
0.010628295 -0.024293214 0.72330308
0.010673161 -0.025158137 0.72407687
0.010719068 -0.026032001 0.72486848
0.010765372 -0.026913375 0.72566694
0.010812078 -0.027802467 0.72647238
0.011323011 -0.029925078 0.73528314
0.011250786 -0.030537844 0.73403758
0.011180965 -0.031146973 0.73283362
0.011122373 -0.031778157 0.73182321
0.011130669 -0.032596916 0.73196632
0.010405976 0.057579786 0.70750642
0.010422248 0.056975007 0.70776832
0.010438572 0.056368321 0.708031
0.010454945 0.055759758 0.70829451
0.0087900516 0.045122266 0.68149853
0.0087554706 0.044361085 0.68094194
0.0087478878 0.043739468 0.68081987
0.0087524122 0.043178588 0.68089271
0.0087645994 0.042654425 0.68108881
0.0087795397 0.042141795 0.68132937
0.0087946495 0.041628033 0.6815725
0.0088098124 0.041112512 0.68181652
0.0088250572 0.040595293 0.68206191
0.0088403253 0.040076137 0.68230766
0.0088556455 0.039555222 0.68255419
0.0088710198 0.039032519 0.68280166
0.008879181 0.038476467 0.68293297
0.0088822376 0.037897557 0.68298221
0.0088969441 0.037367195 0.68321896
0.0088939993 0.03676191 0.68317151
0.008866312 0.03605637 0.68272591
0.0088578733 0.035431504 0.68259013
0.0088628139 0.034860402 0.68266964
0.0088766403 0.034323037 0.68289214
0.0088928761 0.033792943 0.68315339
0.0089984145 0.033594102 0.68485206
0.0090410272 0.033150434 0.68553793
0.0090606418 0.032618314 0.6858536
0.0090792663 0.032080114 0.68615329
0.0090979356 0.031539559 0.68645376
0.0091166813 0.03099677 0.68675554
0.0091355378 0.030451804 0.68705899
0.009154439 0.029904485 0.68736327
0.0091734519 0.029355049 0.68766928
0.0091925105 0.028803229 0.68797594
0.0092116492 0.028249085 0.68828404
0.0092309006 0.027692735 0.68859386
0.009250232 0.027134061 0.68890494
0.009269678 0.026573062 0.68921798
0.009289206 0.026009798 0.68953228
0.0093100797 0.025447577 0.68986821
0.009529355 0.025411636 0.6933974
0.0096649248 0.025128782 0.69557941
0.0096980501 0.024568379 0.69611251
0.0097289328 0.023998082 0.69660962
0.0097599765 0.02342397 0.69710922
0.0097912196 0.022846192 0.69761205
0.0098226629 0.022264719 0.69811815
0.0098543456 0.02167961 0.69862807
0.0098861968 0.021090537 0.69914067
0.0099182539 0.020497739 0.69965661
0.0099505195 0.019901097 0.70017594
0.0099805873 0.019295812 0.70065987
0.0099893101 0.018646747 0.70080024
0.0099737877 0.01795283 0.70055044
0.0099376943 0.017225355 0.69996953
0.009879862 0.016466469 0.69903874
0.0097882403 0.01566121 0.69756413
0.0096857948 0.01485157 0.69591528
0.0095854709 0.014058709 0.69430053
0.0095385285 0.013353944 0.69354504
0.0095568225 0.01274246 0.69383943
0.0095772631 0.012131214 0.69416845
0.0095977923 0.011517376 0.6944989
0.010317278 0.011692911 0.70607883
0.010341024 0.011030406 0.70646101
0.010363559 0.010363579 0.70682371
0.010385449 0.0096930861 0.70717603
0.010407472 0.0090198517 0.7075305
0.010429548 0.008343637 0.7078858
0.010445475 0.0076600015 0.70814216
0.010449119 0.0069660842 0.70820081
0.010434392 0.0062606335 0.70796376
0.010395641 0.0055443645 0.70734012
0.010308667 0.0048107207 0.70594025
0.010217085 0.0040868521 0.70446628
0.010127116 0.0033757091 0.70301825
0.01003377 0.0026756823 0.70151585
0.009944899 0.001989007 0.70008552
0.0099503295 0.0013267398 0.7001729
0.0099742459 0.00066500902 0.70055783
0.0099984314 -0 0.70094705
0.010023775 -0.00066822767 0.70135498
0.010049209 -0.0013398826 0.70176423
0.010722864 -0.0021445453 0.71260667
0.010741471 -0.0028643906 0.71290612
0.010760142 -0.0035867095 0.71320665
0.010776516 -0.0043105781 0.71347022
0.010779815 -0.0050305724 0.71352327
0.010762675 -0.0057400763 0.71324742
0.010715721 -0.0064294338 0.71249169
0.010567248 -0.007044822 0.71010208
0.010303247 -0.0075557232 0.70585299
0.010306302 -0.0082450211 0.70590222
0.010330448 -0.0089530647 0.70629084
0.010355529 -0.0096651316 0.70669448
0.010379409 -0.010379404 0.70707881
0.010403069 -0.011096567 0.70745963
0.010426877 -0.011817127 0.70784283
0.011033482 -0.013240159 0.71760595
0.011053137 -0.014000654 0.71792233
0.011072862 -0.014763802 0.71823978
0.011093602 -0.015531033 0.71857357
0.011115984 -0.01630342 0.71893382
0.011140504 -0.017082095 0.71932846
0.011167669 -0.017868251 0.71976566
0.01119944 -0.018665671 0.72027695
0.0112405 -0.019483507 0.72093785
0.011286505 -0.020315677 0.72167826
0.011334416 -0.021157563 0.72244942
0.011382734 -0.022006601 0.72322702
0.011431416 -0.022862822 0.72401059
0.01108351 0.057495743 0.70726204
0.011100506 0.05689013 0.70751846
0.011117332 0.056281507 0.70777231
0.011134164 0.055670828 0.70802635
0.011151092 0.055058569 0.70828176
0.0093931649 0.04520461 0.68175673
0.0093508242 0.044416428 0.68111777
0.0093415538 0.043788522 0.68097794
0.0093456367 0.04322359 0.68103951
0.0093585998 0.042698652 0.68123513
0.0093746968 0.042186171 0.68147796
0.0093908804 0.041672051 0.68172216
0.0094070882 0.041155994 0.68196678
0.0094233518 0.040638238 0.68221217
0.0094396723 0.040118605 0.6824584
0.0094560804 0.039597362 0.682706
0.0094725136 0.039074123 0.68295395
0.0094820457 0.038520843 0.68309778
0.0094844075 0.037937611 0.68313342
0.0095011024 0.037410587 0.68338537
0.0094997715 0.03681162 0.68336523
0.0094640963 0.03608188 0.68282694
0.0094490731 0.035434067 0.68260026
0.0094508398 0.034850001 0.6826269
0.0094647091 0.034309566 0.68283623
0.0094824666 0.03378129 0.68310416
0.0095215729 0.033325553 0.68369418
0.0096574314 0.033197433 0.68574411
0.0096784467 0.032664776 0.68606126
0.009698404 0.03212598 0.68636239
0.0097184423 0.031584948 0.68666476
0.0097385645 0.031041682 0.68696833
0.0097587705 0.03049618 0.6872732
0.0097790603 0.029948413 0.68757939
0.0097994339 0.029398322 0.68788677
0.0098201707 0.028846771 0.6881997
0.0098414132 0.028294086 0.68852019
0.009862748 0.027738988 0.68884212
0.0098842811 0.027181804 0.68916702
0.0099060498 0.026622564 0.6894955
0.0099278791 0.0260607 0.68982488
0.0099498397 0.025496483 0.69015622
0.010296346 0.025740862 0.69538462
0.010402616 0.025356412 0.69698811
0.01043589 0.02478525 0.69749016
0.010469378 0.024210453 0.69799554
0.010503121 0.02363202 0.69850463
0.010537041 0.023049772 0.69901645
0.010571183 0.022463799 0.69953156
0.010605546 0.021873981 0.70005006
0.010637038 0.02127409 0.70052528
0.010667859 0.020668983 0.70099032
0.010697952 0.020058662 0.70144439
0.010719446 0.019428998 0.7017687
0.010720561 0.018760979 0.70178556
0.010698363 0.018053502 0.70145059
0.010645389 0.017298758 0.70065129
0.01056355 0.016505539 0.6994164
0.010454415 0.015681654 0.6977697
0.010344895 0.014870763 0.69611716
0.010237607 0.01407674 0.6944983
0.010186361 0.01336962 0.69372511
0.010204722 0.012755901 0.69400215
0.010226572 0.012144089 0.69433177
0.01024912 0.01153025 0.69467205
0.011015084 0.011703551 0.70622951
0.011036381 0.011036396 0.7065509
0.011057761 0.010366648 0.70687354
0.011079225 0.0096943676 0.70719737
0.011100772 0.0090194345 0.70752251
0.011120846 0.008340627 0.70782536
0.011137867 0.0076573193 0.70808214
0.011141572 0.0069634914 0.70813811
0.011127613 0.0062592924 0.70792747
0.011091913 0.0055459738 0.70738876
0.011008104 0.0048160851 0.70612425
0.010910201 0.0040913224 0.704647
0.010809944 0.003378123 0.70313424
0.010665853 0.0026664734 0.70096004
0.010619321 0.0019911528 0.7002579
0.010639155 0.0013298988 0.70055723
0.010665935 0.00066661835 0.70096129
0.010692932 -0 0.70136863
0.010720107 -0.00067001581 0.70177865
0.010747378 -0.0013433993 0.70219016
0.010781475 -0.0020215213 0.70270467
0.011432734 -0.0028581619 0.71253139
0.011452517 -0.0035788715 0.71282989
0.011468299 -0.0043005943 0.71306801
0.01093604 -0.0047844946 0.70503688
0.010933072 -0.0054665208 0.70499212
0.010946936 -0.0061576664 0.70520127
0.010962089 -0.0068512559 0.70542985
0.010982228 -0.0075502694 0.70573378
0.011006405 -0.0082547963 0.70609856
0.011029419 -0.0089613795 0.70644581
0.011052529 -0.0096709728 0.7067945
0.011075693 -0.010383457 0.70714408
0.011098822 -0.011098832 0.70749301
0.011121201 -0.011816233 0.70783073
0.011760135 -0.013230145 0.71747148
0.011793764 -0.014005065 0.71797895
0.011837156 -0.014796436 0.71863365
0.011884068 -0.01559785 0.71934152
0.011933863 -0.016409069 0.72009283
0.011984078 -0.017227113 0.72085053
0.012035759 -0.018053651 0.72163033
0.011755466 0.057394326 0.70696712
0.011773132 0.056788057 0.70721805
0.01179085 0.056179941 0.70746964
0.01180834 0.055568665 0.70771801
0.011825881 0.054955572 0.70796716
0.0099990573 0.045289844 0.68202394
0.0099480674 0.044473708 0.68129981
0.0099371225 0.043840259 0.68114436
0.0099406345 0.043271005 0.68119425
0.0099540018 0.042743683 0.68138409
0.00997114 0.042230725 0.68162745
0.0099884393 0.041716427 0.68187314
0.010006172 0.04120189 0.68212497
0.010023933 0.040685385 0.68237716
0.010041757 0.040167063 0.6826303
0.010059644 0.039646864 0.68288434
0.010077597 0.039124787 0.68313932
0.010088612 0.0385741 0.68329567
0.01009037 0.037987292 0.68332064
0.010108361 0.037460446 0.68357623
0.0101085 0.036866307 0.68357813
0.010064032 0.03611213 0.68294668
0.010042303 0.035443455 0.68263805
0.010041449 0.034849703 0.68262595
0.010055501 0.034306973 0.68282551
0.010073541 0.033775985 0.68308169
0.010103382 0.033281744 0.68350548
0.010276051 0.03324604 0.68595761
0.010298589 0.032713175 0.68627769
0.010320037 0.03217423 0.68658221
0.01034208 0.031634599 0.68689525
0.010364254 0.031092793 0.6872102
0.010386524 0.030548602 0.68752646
0.01040889 0.030002117 0.68784404
0.010431352 0.029453218 0.68816304
0.010454059 0.028902411 0.6884855
0.010476977 0.028349459 0.68881094
0.010499958 0.027794003 0.68913734
0.010523078 0.027236193 0.68946564
0.010546261 0.02667585 0.6897949
0.010569586 0.026113123 0.69012618
0.010593166 0.025548249 0.69046098
0.011074206 0.026057005 0.69729233
0.011148571 0.025576144 0.69834852
0.0111809 0.024992615 0.6988076
0.011212267 0.024403185 0.69925302
0.011240559 0.023803562 0.69965482
0.011268736 0.023200363 0.700055
0.011296493 0.022592992 0.70044917
0.011323127 0.021980196 0.70082736
0.011348754 0.021362364 0.70119131
0.011373972 0.020740747 0.70154947
0.011399345 0.020116508 0.70190972
0.01141878 0.019479096 0.70218581
0.011419619 0.018808812 0.70219767
0.011404758 0.018113464 0.70198667
0.011351327 0.017360866 0.70122784
0.011241586 0.016531736 0.69966942
0.011122374 0.015702188 0.69797641
0.011005704 0.014890105 0.69631958
0.010886398 0.014088333 0.69462526
0.010837663 0.01338771 0.69393319
0.01085942 0.012775779 0.69424212
0.01088359 0.012164056 0.69458544
0.010907909 0.011549562 0.69493073
0.011694397 0.011694431 0.70609987
0.011714992 0.011025906 0.70639235
0.011735613 0.010354966 0.70668525
0.011755653 0.0096811354 0.7069698
0.011775385 0.0090047121 0.70725
0.011795135 0.008325994 0.7075305
0.011814575 0.0076447129 0.70780659
0.011820249 0.0069530904 0.70788711
0.011810937 0.0062528551 0.70775491
0.011780457 0.0055437386 0.707322
0.011709094 0.0048213899 0.7063086
0.011601787 0.0040947795 0.70478475
0.011459674 0.0033704937 0.70276648
0.011306482 0.0026603639 0.70059103
0.011308604 0.0019956529 0.70062113
0.011336775 0.0013337433 0.70102119
0.011364912 0.0006685257 0.70142078
0.011392925 2.9802322e-08 0.70181865
0.01141984 -0.00067174435 0.70220083
0.011446262 -0.0013465881 0.70257598
0.011472493 -0.0020245612 0.70294857
0.011497817 -0.0027053356 0.70330822
0.011524106 -0.0033894479 0.70368153
0.011548439 -0.0040758848 0.70402706
0.011572104 -0.0047649741 0.70436311
0.011595911 -0.0054568648 0.70470124
0.011619817 -0.0061516464 0.70504075
0.011643638 -0.0068491697 0.70537901
0.011666819 -0.0075491369 0.70570827
0.011690139 -0.0082518458 0.70603937
0.011713506 -0.0089573562 0.70637119
0.011737013 -0.0096657872 0.70670509
0.011760567 -0.01037696 0.70703959
0.011784264 -0.011091053 0.70737612
0.011808009 -0.011807978 0.70771337
0.012624825 -0.013367444 0.71931314
0.012433948 0.057334334 0.70679259
0.012441714 0.056678921 0.70689672
0.01245961 0.056068271 0.70713675
0.012477506 0.055455595 0.70737678
0.012495505 0.054841399 0.70761818
0.010609183 0.045383781 0.68231827
0.010549628 0.044542879 0.68151951
0.010536583 0.043902457 0.68134457
0.010539425 0.043328762 0.68138266
0.010553651 0.042800963 0.68157345
0.010572311 0.042289287 0.68182373
0.010591038 0.041775763 0.6820749
0.010609831 0.041260481 0.68232691
0.01062869 0.040743321 0.68257987
0.010647617 0.040224344 0.68283379
0.010666611 0.039703518 0.68308854
0.010685709 0.039180934 0.68334472
0.010698029 0.038631797 0.68350989
0.010699163 0.038041472 0.68352509
0.010718893 0.037516147 0.68378973
0.010719849 0.036923945 0.6838026
0.010668503 0.03615436 0.68311387
0.01063838 0.035461277 0.68270987
0.010635088 0.034859508 0.68266571
0.010648269 0.034311116 0.68284249
0.010668867 0.033784747 0.68311882
0.010695065 0.033273548 0.68347013
0.0108996 0.033304363 0.68621337
0.010924425 0.032773316 0.68654639
0.010947755 0.032235056 0.68685925
0.010971221 0.031694651 0.68717408
0.010994789 0.031151921 0.68749011
0.011018692 0.030607492 0.68781078
0.011042698 0.030060679 0.6881327
0.011066849 0.029511601 0.68845665
0.011091067 0.028960019 0.68878144
0.011115429 0.028406143 0.68910819
0.011139859 0.027849644 0.6894359
0.011164437 0.027290851 0.68976551
0.011189084 0.026729465 0.69009602
0.01121388 0.026165724 0.69042861
0.011240401 0.025603116 0.69078434
0.011817752 0.026261717 0.69852793
0.011854531 0.025684834 0.69902122
0.01188151 0.025083214 0.69938308
0.011907977 0.024477512 0.69973814
0.011933379 0.023866743 0.70007879
0.011958523 0.023252696 0.70041597
0.011983451 0.02263543 0.70075035
0.012007746 0.02201423 0.70107621
0.012032093 0.021390438 0.70140272
0.012056539 0.020764083 0.70173061
0.012079685 0.02013281 0.70204109
0.012096928 0.019489527 0.70227236
0.012099454 0.018821418 0.70230627
0.012084072 0.01812613 0.70209992
0.012038253 0.017388582 0.7014854
0.011918643 0.0165537 0.69988114
0.011792084 0.015722781 0.69818372
0.011667315 0.014908224 0.69651031
0.011511669 0.014069825 0.69442272
0.01149449 0.01341027 0.69419229
0.011520744 0.012800843 0.69454443
0.01154729 0.012188822 0.69490045
0.011574 0.011574 0.69525874
0.012359107 0.011672497 0.70578873
0.012379705 0.01100418 0.70606506
0.012400372 0.010333687 0.70634222
0.012421107 0.0096608698 0.70662034
0.012441863 0.0089857876 0.70689875
0.012462738 0.0083085001 0.70717871
0.012483682 0.0076289475 0.70745969
0.012495654 0.0069420636 0.70762026
0.012489915 0.0062449574 0.70754325
0.012466314 0.0055406094 0.70722663
0.012406619 0.0048247874 0.70642602
0.012265551 0.004088521 0.70453399
0.011964379 0.0033234656 0.70049459
0.011972348 0.0026605129 0.70060146
0.01199867 0.0019997954 0.7009545
0.012025061 0.0013361275 0.70130843
0.012051103 0.00066953897 0.70165777
0.012076653 -0 0.70200044
0.01210114 -0.00067228079 0.70232892
0.012125727 -0.0013473034 0.70265859
0.012150367 -0.002025038 0.7029891
0.01217487 -0.0027055144 0.70331776
0.012198807 -0.0033885539 0.70363879
0.012222884 -0.0040742755 0.70396173
0.01224701 -0.0047627091 0.70428526
0.012271279 -0.0054538846 0.70461082
0.012295596 -0.0061477721 0.70493698
0.012320057 -0.006844461 0.70526505
0.012344569 -0.0075438917 0.70559382
0.012369227 -0.0082461238 0.70592451
0.012393934 -0.0089511573 0.70625591
0.012418789 -0.0096590221 0.70658928
0.012444586 -0.010370433 0.70693529
0.012472182 -0.011086375 0.70730537
0.012502749 -0.011808127 0.70771533
0.013103518 0.056552023 0.70652312
0.013122427 0.055942982 0.70676339
0.013141129 0.055331081 0.70700097
0.013159308 0.054715037 0.707232
0.011235937 0.045535147 0.6827929
0.011154835 0.044619352 0.6817624
0.011139139 0.043970317 0.68156296
