# .PCD v0.7 - Point Cloud Data file format
VERSION 0.7
FIELDS x y z
SIZE 4 4 4
TYPE F F F
COUNT 1 1 1
WIDTH 459
HEIGHT 1
VIEWPOINT 0 0 0 1 0 0 0
POINTS 459
DATA ascii
0.01156248 -0.016430855 0.68694216
0.0097278133 -0.013679594 0.68680608
0.010982261 -0.010677099 0.68732214
0.010982261 -0.010677099 0.68732214
0.010982261 -0.010677099 0.68732214
0.010411642 -0.0045932382 0.68788314
0.010437324 -0.0024558604 0.68824792
0.014527514 -0.012672476 0.68926525
0.013582798 -0.0095695853 0.68907827
0.014278721 -0.0065184236 0.68990248
0.013441763 -0.0033087533 0.68979621
0.017507534 -0.015631706 0.69097805
0.014940108 -0.0065361857 0.69031066
0.0093362629 -0.0006223917 0.69028962
0.013487276 0.00041491789 0.69030333
0.015355084 -0.00062671304 0.69132847
0.0183658 -0.0053829849 0.6929177
0.01767952 -0.004419893 0.69246101
-0.00064087246 -0.062805474 0.69474506
-0.0012759743 -0.058056802 0.69404852
-0.0016017309 -0.053499334 0.69470626
0.0076889661 -0.0044852197 0.69471484
0.0038581286 -0.060443997 0.69526386
0.0035419804 -0.057632856 0.69548655
-0.0092291581 -0.055587601 0.6954698
0.0025762385 -0.054422945 0.69551456
-0.0025775046 -0.047361538 0.69559097
-0.010675972 -0.062440977 0.69623715
0.0056137517 -0.059371751 0.69639206
0.0025856271 -0.050419748 0.69608116
-0.0077556404 -0.049119055 0.69605625
-0.0077556404 -0.049119055 0.69605625
-0.0025870423 -0.04365623 0.69616657
-0.0016172037 -0.04366567 0.69620031
-0.0025998906 -0.038673252 0.69694203
0.0075616678 0.00021649401 0.69650304
0.0065333708 -0.053573608 0.69775426
-0.010457681 -0.045425445 0.69781899
0.0035927505 -0.041476652 0.69771576
0.0026135745 -0.038550228 0.69776791
-0.0045634918 -0.036507934 0.69741398
0.00032624282 -0.036527649 0.6974991
-0.003488671 -0.032488119 0.69794452
0.007853956 -0.060213655 0.69803417
0.0078766858 -0.056449592 0.69849145
-0.013762078 -0.055375829 0.69823718
-0.011162119 -0.043663457 0.69854087
0.0055764429 -0.043624274 0.69839853
-0.010491783 -0.042622864 0.69833356
-0.01050326 -0.041684687 0.69850671
0.004596835 -0.038416296 0.69856393
-0.0095339762 -0.037477091 0.69875759
0.0046006083 -0.037462085 0.69869411
-0.0075327763 -0.036352746 0.69815737
-0.0058918656 -0.034041882 0.69807166
0.0026277711 -0.032518566 0.69862473
-0.0045872461 -0.031455368 0.69823319
-0.0055827447 -0.030539811 0.69858372
0.0045939265 0.00032825768 0.69846356
0.0026330329 0.0026330352 0.69894236
-0.01587791 -0.058549643 0.69974422
0.0092724767 -0.056628257 0.69992292
-0.014550482 -0.051588058 0.69969738
0.007913461 -0.050448179 0.69923127
0.0046159397 -0.033630431 0.69922286
-0.008581385 -0.031354904 0.69938856
0.0053002653 -0.030476511 0.69997448
-0.0033016615 -0.029054612 0.69944304
-0.0033016615 -0.029054612 0.69944304
-0.0066016298 -0.027396634 0.69940221
-0.0039723357 -0.025489047 0.69985926
-0.0046328912 -0.022502571 0.69980741
0.0056019165 0.0019771159 0.69912922
0.0046177451 0.0065967739 0.69928509
0.0036378303 0.010584012 0.69972491
0.0099652829 -0.060456038 0.70041358
-0.015927581 -0.056410193 0.70024389
-0.015948968 -0.055488974 0.700459
-0.013635602 -0.04256767 0.70059896
-0.013293121 -0.041540846 0.7004869
0.0066520055 -0.031596914 0.70061839
-0.009319731 -0.025629118 0.70073777
-0.0093299719 -0.024657786 0.70091432
-0.008655495 -0.023636028 0.70076489
-0.0073232763 -0.020638317 0.70075154
-0.0039921738 -0.018630117 0.70065737
-0.0046529658 -0.017614663 0.70049977
-0.01066213 -0.0013327599 0.70090389
-0.01066213 -0.0013327599 0.70090389
-0.010604857 0.0019884109 0.70003974
-0.012659919 0.0046641827 0.70088655
-0.012659919 0.0046641827 0.70088655
0.0066437768 0.0056473315 0.70041966
0.006654745 0.0076530725 0.70068449
-0.011321955 0.0086579919 0.70081073
0.0017734715 0.0097553534 0.70060033
0.0056578182 0.0126459 0.70070851
0.0046661138 0.019331068 0.70095325
0.010714756 -0.058596238 0.70169795
-0.013347451 -0.038373783 0.70114279
0.0086854175 -0.038416162 0.70132053
0.0073628891 -0.027443498 0.701621
-0.010358984 -0.025395155 0.70136511
-0.0013376919 -0.025416136 0.70149845
-0.0013376919 -0.025416136 0.70149845
0.0063597513 -0.023430377 0.70164192
-0.0033479028 -0.013391584 0.70167577
-0.0083647594 0.0033460855 0.70158732
-0.0083647594 0.0033460855 0.70158732
-0.0093473978 0.0053414106 0.70121491
-0.0087137828 0.007373184 0.70184731
0.0066712773 0.010674089 0.7010836
0.0020005151 0.012669951 0.70101374
-0.00066762767 0.013352573 0.7012043
-0.010727555 0.016426712 0.70189106
0.010737374 -0.055029035 0.70203924
0.010760067 -0.051446497 0.70238161
-0.01416965 -0.033399731 0.7029227
0.0080686454 -0.025550693 0.70235336
-0.01143505 -0.023542762 0.70241684
0 -0.020576671 0.70289922
-0.0020130554 -0.017446429 0.70202291
-0.00067440985 -0.017534643 0.7028417
-0.0023536617 -0.012442902 0.70240372
-0.0043646693 -0.0073860884 0.70213068
-0.0043735094 -0.0053825527 0.70245838
0.012750139 0.0067106187 0.70203292
-0.0074101668 0.0074101686 0.70265859
0.0094054835 0.0094055235 0.70221651
0.010311695 0.012553772 0.70238757
0.010311695 0.012553772 0.70238757
-0.0084253792 0.013481304 0.70275825
0.0094487071 0.01417309 0.7029618
0.012121146 0.014478147 0.70259714
-0.012470815 0.015503705 0.70276052
-0.0094505427 0.020251155 0.70299357
0.0033610896 0.023527652 0.70231253
0.0033727242 0.026644677 0.7028743
0.0042558517 0.026656946 0.7022661
0.011481927 -0.058422655 0.70308256
-0.016916759 -0.048381746 0.70338738
0.010135703 -0.035474867 0.70315647
0.0023712106 -0.027433224 0.70355552
0.0013535223 -0.023348182 0.70340931
0.0013535223 -0.023348182 0.70340931
0.0047367197 -0.023345113 0.70338833
0.0081124287 -0.018590882 0.7032342
-0.0013571699 -0.0054286718 0.70384961
-0.0060802512 0.004391402 0.703125
-0.0074481592 0.014557898 0.7034924
0.0094794184 0.017604649 0.70349145
0.0094884606 0.018638149 0.70364738
-0.0083675534 0.021485031 0.70382392
0.011536375 0.025448009 0.70385575
-0.0023752365 0.026463389 0.70384085
0.0061109532 0.035647333 0.70394862
-0.018350465 -0.057090312 0.70410603
0.011586859 -0.041576356 0.70457268
0.0033968124 -0.026495099 0.70403731
0.0044237031 -0.020420432 0.70435584
0.0020488631 -0.01434204 0.7049045
0.0047767372 -0.014330178 0.70476854
0.0081642587 -0.010545373 0.70427692
0.000341398 -0.00750117 0.7046563
-0.0034147317 0.0054636002 0.70490265
0.0095126564 0.021403596 0.70406461
0.012908089 0.02173993 0.70403993
0.0013635182 0.024543345 0.70461595
0.0095575666 0.02662468 0.70483905
-0.011598143 0.029336512 0.70473289
0.0065801889 0.036529243 0.70435333
0.012328606 -0.05136919 0.70537972
-0.015745895 -0.031491786 0.70530283
-0.015793066 -0.029526144 0.70579791
-0.013738587 -0.026446685 0.70586419
-0.011665759 -0.018527985 0.70569319
0.003423891 -0.017461732 0.70534492
-0.012347519 -0.01063244 0.70563334
0.0054771351 -0.0095849633 0.70531189
0.0061536529 -0.0061536431 0.70509398
0.00068379845 -0.0054703653 0.70510828
0.0013721171 -0.0044592917 0.70565397
-0.010626668 -0.0020566881 0.70553398
-0.0027447545 0.0085774362 0.70568538
-0.0048101023 0.020614743 0.70591921
-0.0065004146 0.023608215 0.70522803
-0.0065035168 0.025330186 0.70530152
0.010605764 0.029423118 0.70521927
0.010639358 0.032605186 0.7057417
0.0096151466 0.033653051 0.705832
-0.0075615738 0.03437081 0.70598161
0.011667049 0.035687447 0.70571154
-0.010750896 0.037512474 0.70568931
0.0044615921 0.046335548 0.70575035
0.0034441652 -0.0096436143 0.70632374
0.0027567749 -0.0034459531 0.70641083
-0.016591197 -0.0013826191 0.70691931
0 0.0044930577 0.70690173
-0.0034396783 0.01582256 0.70610714
-0.0034498144 0.019318968 0.70659649
-0.0075959116 0.040396526 0.70673525
-0.0076019997 0.041465461 0.70686889
-0.0096301083 0.043335527 0.70608997
-0.00898604 0.048386365 0.70690334
0.006878105 0.048490763 0.70607686
0.0024181439 0.049401172 0.70682919
-0.015996136 -0.021559983 0.70792949
-0.014533143 -0.015225142 0.70710146
-0.015583814 -0.002077803 0.70723438
-0.020138495 0.00034745038 0.70767516
-0.020138495 0.00034745038 0.70767516
-0.020138495 0.00034745038 0.70767516
0.00034676064 0.0055410564 0.70724028
0.00034676064 0.0055410564 0.70724028
-0.01766883 0.0065827519 0.70730841
-0.018402448 0.010416329 0.70767289
-0.0024240422 0.023551077 0.70725214
-0.0043882779 0.029565316 0.70731497
0.0096943993 0.043624818 0.70719868
0.013869817 0.043689936 0.70744824
-0.0069492916 0.045517951 0.7077955
-0.0096843252 0.048421651 0.70702493
0.0013869429 0.049236536 0.70744359
-0.010441708 -0.01531449 0.70808154
-0.00069659814 0.039357811 0.70819843
-0.00069772848 0.041514963 0.7084713
0.011138045 0.047336727 0.70808488
0.011888669 0.051051348 0.70885879
0.009826743 -0.020355374 0.70948088
-0.011953942 -0.0045705289 0.70978576
-0.012604492 -0.0028010011 0.70907992
0.014514573 0.011704515 0.70957178
-0.015413503 0.013311654 0.70916796
-0.018946107 0.016490325 0.70943201
-0.018946107 0.016490325 0.70943201
-0.015479298 0.016534805 0.70988989
0.0014052625 0.019673675 0.70965493
-0.00070398365 0.032383263 0.70998144
-0.0027999147 0.042698711 0.70901453
-0.0035127299 0.045665503 0.70963436
0.01128349 -0.022566974 0.71027946
-0.015522863 0.020461977 0.71036798
0.0021160925 0.021513671 0.71031475
-0.017667815 0.030388653 0.71064031
-0.00070513511 0.03455162 0.71025944
0.013471489 -0.028360993 0.71119869
0.013497819 -0.025574803 0.71153331
-0.019152369 0.023408473 0.71127629
-0.016296683 0.029759169 0.71108419
0.0014199348 0.033368498 0.71142602
0.0074558142 0.053252667 0.71144241
0.0056767003 0.054638296 0.71133435
0.0035419629 0.055254638 0.71104586
0.0046159993 0.056455761 0.71146607
-0.0007106121 0.057559609 0.71158171
0.0003553264 0.058284134 0.71162271
-0.016389325 0.037766695 0.71205664
0.0078469664 0.055642158 0.71224523
-0.0042793555 0.056344867 0.71221268
-0.0042793555 0.056344867 0.71221268
-0.013668229 0.037407786 0.71369857
-0.01367899 0.038517267 0.7138353
-0.015054814 0.039429277 0.71309876
-0.016542599 0.05034706 0.71366549
-0.019533351 -0.0028938055 0.71468282
-0.022457857 0.00036233664 0.71492171
0.012294886 0.054242134 0.71462762
-0.0086721005 0.055646002 0.71449393
0.011578337 0.05753012 0.71472836
-0.0064878291 0.059111327 0.7140581
-0.0064878291 0.059111327 0.7140581
-0.021864971 0.0065594912 0.71598041
-0.021550462 0.008401297 0.71639252
0.016543847 0.0080879331 0.71753329
-0.022011701 0.015408218 0.71716124
-0.022011701 0.015408218 0.71716124
0.016154535 0.042589217 0.71729976
0.018462379 0.0081234574 0.71831322
0.01556251 0.016303599 0.71893537
-0.021431392 0.023648441 0.71843845
0.016223654 0.050883263 0.71805823
0.015528002 0.05619657 0.71853864
-0.021553602 0.029729158 0.71945578
0.020178331 0.022420406 0.72044992
-0.020555582 0.035505958 0.72048509
-0.020573042 0.036658153 0.72063816
0.019439012 0.048597515 0.72052449
0.018779771 0.01727742 0.72137827
0.017310472 0.028599918 0.72172552
0.016550243 0.032348245 0.72164214
-0.020298652 0.042476907 0.72152579
-0.012414234 0.05642803 0.72166371
0.02187353 0.0060340762 0.72211915
0.021193616 0.014381379 0.7227602
0.018143034 0.03023839 0.72252965
0.018108208 0.041497976 0.72217929
-0.019620633 0.044523746 0.72221088
-0.019630695 0.045301616 0.72230434
0.019802254 0.031607538 0.72389734
0.019015657 0.034228206 0.72365618
0.019015657 0.034228206 0.72365618
0.018210623 0.035662502 0.7232095
0.021361096 0.025557294 0.72420418
0.020685798 0.035242468 0.72498751
0.019501077 0.039382935 0.72464633
0.022270722 0.029566422 0.72542572
0.021498961 0.033784121 0.72539288
0.021526266 0.045358926 0.72562838
0.023197614 0.03440991 0.72670478
0.022445237 0.040246636 0.72687858
0.0094333105 -0.014987487 0.68696785
0.013301985 -0.014734293 0.68823969
0.011646024 -0.0085812807 0.68800366
0.014902465 -0.0012294512 0.69096994
-0.0013099813 -0.059200116 0.69388855
-0.0068214354 -0.062594779 0.69501436
-0.0091402736 -0.061090607 0.69486451
0.0048399903 -0.061060175 0.69581044
0.0048399903 -0.061060175 0.69581044
0.0048399903 -0.061060175 0.69581044
-0.0088245692 -0.055008098 0.69542539
0.0011133532 -0.055089772 0.69497538
-0.00122026 -0.051133182 0.69510967
0.0073859226 -0.0049779005 0.69509959
0.0073859226 -0.0049779005 0.69509959
-0.013045367 -0.062283531 0.6974777
-0.014394689 -0.059541643 0.69798779
-0.014394689 -0.059541643 0.69798779
-0.012424618 -0.051660269 0.69789684
0.003078962 -0.049007922 0.69647664
-0.0069821877 -0.046930306 0.6962117
-0.0069821877 -0.046930306 0.6962117
-0.0051738699 -0.040932693 0.69680089
-0.0011915835 -0.038893688 0.69695818
0.00097949419 -0.037031442 0.69756216
-0.0030778632 -0.033038385 0.69784087
-0.0030778632 -0.033038385 0.69784087
-0.012557667 -0.043125309 0.69958735
-0.011172423 -0.043041401 0.69867039
0.0069417702 -0.040985953 0.69962168
-0.001153052 -0.0009881258 0.69905519
0.0051090834 0.0031309053 0.69914174
-0.015959717 -0.055027366 0.70056713
-0.015959717 -0.055027366 0.70056713
0.01036919 -0.05501993 0.70151591
0.0070563271 -0.03288221 0.70072562
-0.0027896902 -0.026776848 0.70043921
-0.007794152 -0.025040366 0.70016563
-0.014405437 -0.0010053366 0.70178533
-0.0090344278 0.0029748804 0.70112872
0.0088573769 0.0048465673 0.70140266
-0.0093841478 0.01089254 0.70184863
-0.0093841478 0.01089254 0.70184863
0.0026986194 0.013055104 0.70073998
0.0063621737 0.016909052 0.70169389
0.0063621737 0.016909052 0.70169389
0.011472477 -0.062423974 0.70294833
-0.016698219 -0.049079876 0.70289791
0.011156701 -0.049015455 0.70324653
-0.016294949 -0.041416317 0.70393932
0.0091973972 -0.032637812 0.70248669
0.0070598703 -0.020842172 0.70233905
-0.0010161519 -0.0089795701 0.70364118
-0.0054326905 0.0081490278 0.70397067
0.010064617 0.0093936622 0.7020123
0.00691354 0.023097454 0.7028321
0.00074247556 0.025250321 0.70301813
0.0028645147 0.025112363 0.70277882
0.011530286 0.024926104 0.70376933
0.0028980791 -0.020960798 0.70459211
-0.014436018 -0.019935429 0.70598495
-0.011662672 -0.012348711 0.70564938
-0.011662672 -0.012348711 0.70564938
0.0081534013 -0.012230128 0.70405859
0.0063770651 -0.0052384636 0.70499933
-0.0042530843 0.0049337968 0.70432055
-0.0050003389 0.015288815 0.70467454
-0.0064680218 0.016852297 0.70440614
-0.0047912383 0.026973341 0.70523179
0.010991218 0.028880397 0.70485604
0.010991218 0.028880397 0.70485604
0.0089156926 0.034858152 0.70557761
0.0070207692 0.037030857 0.70469123
0.0068856622 0.041078273 0.70512801
-0.017007973 -0.0020825714 0.70761794
-0.01598689 0.0024329275 0.70783246
-0.0043038707 0.021004178 0.70628321
-0.0029408964 0.0230159 0.70714122
-0.0049483641 0.029028505 0.70674831
-0.0065473737 0.032911655 0.70642298
-0.011700274 0.036993921 0.70618337
0.010740876 0.037077241 0.70642972
0.00092279271 0.049553469 0.70715046
0.00076091842 0.050794002 0.70709163
0.013346485 -0.031610072 0.70961034
-0.014709044 -0.0070038042 0.70912373
-0.014750808 -0.0050920025 0.70960379
-0.014895737 0.0089381803 0.7092678
-0.01855325 0.016977411 0.70903921
-0.0045336476 0.038888644 0.7084282
-0.0045336476 0.038888644 0.7084282
-0.0064472929 0.04704985 0.70830417
0.013058515 0.050665386 0.70815873
0.013071154 -0.030733384 0.71059358
-0.017584853 -0.029175539 0.71136308
0.011989318 -0.026975706 0.71028817
-0.014796186 0.015500754 0.71012551
-0.00070455752 0.033466592 0.71011996
-0.00070455752 0.033466592 0.71011996
-0.012691093 0.050764382 0.71024144
-0.017046085 0.039087731 0.71238399
-0.017164044 0.041059852 0.71266997
-0.015841099 0.049143694 0.71386015
-0.0064739413 0.058265537 0.71368563
0.0071541173 0.058655441 0.71271586
0.0071541173 0.058655441 0.71271586
0.018177452 0.0090878755 0.71556175
0.018138818 0.010520577 0.71518862
0.015967766 0.048992187 0.71525019
-0.0071043214 0.058995813 0.71442711
0.018846799 0.0071912706 0.71962893
0.016363226 0.016921364 0.71958983
0.0155582 0.020928219 0.71888578
-0.012976585 0.054494783 0.71902508
-0.011928333 0.056659609 0.72000939
0.021353574 0.020596899 0.72250748
0.019055702 0.029137045 0.72305173
0.019590933 0.039223541 0.72469139
0.022798188 0.041020308 0.72722971
-0.002112994 -0.050077114 0.69522423
0.0076515623 -0.0022061598 0.69540489
-0.013668982 -0.054017603 0.69847745
-0.0021740505 -0.033402108 0.69780755
-0.011169948 0.0020690812 0.69982892
0.0039734342 0.012913793 0.69990343
-0.011948315 -0.037006222 0.70027912
0.0095638484 -0.037927963 0.7023105
0.0061517102 -0.01801281 0.70306951
-0.0058625415 -0.0058869747 0.70279831
-0.0020693005 -0.0059610237 0.70334578
0.0097860508 0.0058801793 0.70131505
-0.015879942 0.001650095 0.70762074
-0.0081575504 0.022943385 0.70414197
0.0098431269 0.022306725 0.70414597
-0.0100167 0.033970177 0.70512986
0.013214141 0.034045424 0.70580131
-0.010087453 0.038120605 0.70581454
-0.010189964 -0.016634835 0.70823717
0.0091371117 -0.013968423 0.70970893
0 0.015322775 0.7081725
0.014790291 0.012321323 0.71002364
0.014790291 0.012321323 0.71002364
-0.0019666646 0.041984074 0.70874631
-0.011405528 0.050153896 0.70845544
0.016918313 0.024655119 0.71381783
0.0028502708 0.031352997 0.71205384
-0.02119451 0.030026568 0.71956247
0.015309718 0.043013066 0.71602917
-0.020136066 0.030390814 0.72007203
