# .PCD v0.7 - Point Cloud Data file format
VERSION 0.7
FIELDS x y z
SIZE 4 4 4
TYPE F F F
COUNT 1 1 1
WIDTH 1344
HEIGHT 1
VIEWPOINT 0 0 0 1 0 0 0
POINTS 1344
DATA ascii
0.015050776 0.010750592 0.71305233
0.015060904 0.010040611 0.71316874
0.015065506 0.0093262494 0.71322167
0.015062458 0.0086071491 0.71318662
0.015048231 0.0078824461 0.71302307
0.015162931 0.0072204471 0.71434164
0.015242878 0.0065326989 0.71526074
0.015285473 0.0058230758 0.71575046
0.015315502 0.0051051676 0.71609569
0.01534565 0.0043845177 0.71644229
0.015375917 0.0036609471 0.71679026
0.015406303 0.0029345453 0.71713954
0.01543681 0.0022052824 0.71749026
0.015467438 0.001473099 0.71784234
0.015497068 0.00073796511 0.71818298
0.015515323 2.9802322e-08 0.71839285
0.015517897 -0.00073891878 0.71842241
0.015505037 -0.0014766455 0.71827459
0.015471767 -0.0022102594 0.71789211
0.015407084 -0.0029346645 0.71714854
0.015302654 -0.0036434829 0.71594799
0.015199252 -0.0043426454 0.71475923
0.015096487 -0.0050321519 0.71357781
0.014993008 -0.0057116151 0.71238822
0.01489033 -0.0063815713 0.71120787
0.014784315 -0.0070401728 0.70998907
0.014679266 -0.0076891184 0.70878136
0.014576225 -0.0083292723 0.70759678
0.014470428 -0.0089578629 0.70638049
0.014365308 -0.0095768571 0.70517206
0.014267393 -0.010190964 0.70404637
0.014261035 -0.01086551 0.70397323
0.014271858 -0.011553377 0.70409769
0.014285941 -0.012245089 0.70425957
0.014301901 -0.012939781 0.70444304
0.014319526 -0.013637632 0.70464569
0.014337252 -0.014337212 0.70484948
0.014355022 -0.01503858 0.70505375
0.014372835 -0.015741646 0.70525849
0.014390693 -0.016446501 0.70546383
0.014408368 -0.017152846 0.70566702
0.01442637 -0.017861187 0.70587397
0.014453002 -0.018582404 0.70618021
0.014503908 -0.019338518 0.70676535
0.015105926 -0.020860523 0.71368635
0.015046618 -0.021495163 0.71300453
0.014980758 -0.022114456 0.71224737
0.01493874 -0.022763789 0.71176428
0.014960486 -0.023509324 0.71201432
0.014997507 -0.024281681 0.71244001
0.015025611 -0.025042653 0.71276301
0.015788388 -0.027065814 0.72153211
0.01581124 -0.027857929 0.72179484
0.015834229 -0.0286524 0.72205907
0.015857216 -0.029449105 0.72232342
0.015879715 -0.030247092 0.72258204
0.015889812 -0.031022966 0.72269815
0.015877157 -0.031754285 0.7225526
0.01583904 -0.032432288 0.72211438
0.015774462 -0.033051223 0.72137195
0.015698578 -0.033639848 0.72049963
0.015573803 -0.034114033 0.71906513
0.015415938 -0.034502298 0.71725029
0.015261241 -0.034882873 0.71547186
0.015109617 -0.03525576 0.71372873
0.01506252 -0.035863131 0.71318734
0.015086562 -0.036638767 0.71346366
0.015121328 -0.03744325 0.71386343
0.01515745 -0.038254529 0.7142787
0.01519324 -0.039068311 0.71469015
0.015229198 -0.039885998 0.71510351
0.015265328 -0.040707529 0.71551883
0.015302719 -0.041535944 0.71594882
0.015361092 -0.042425871 0.71661979
0.015979519 -0.044894844 0.72372937
0.016001245 -0.045717865 0.72397912
0.015980219 -0.046418697 0.72373742
0.015952481 -0.047097772 0.72341853
0.01598379 -0.047951341 0.72377849
0.016029013 -0.048850298 0.72429842
0.016308736 -0.050479382 0.72751415
0.01638167 -0.05148524 0.72835261
0.016446952 -0.052473605 0.72910309
0.016512681 -0.053469628 0.72985876
0.016583232 -0.054487795 0.73066986
0.015613604 0.031227231 0.71136373
0.015416177 0.030131638 0.70919716
0.01522362 0.029063284 0.70708418
0.01508864 0.028119773 0.70560288
0.015156731 0.027557701 0.70635015
0.016061602 0.019711971 0.71627992
0.015967662 0.01887086 0.71524906
0.015875803 0.018040687 0.71424103
0.015786758 0.017221928 0.71326387
0.015710512 0.016424626 0.71242714
0.015677454 0.015677482 0.71206439
0.015680414 0.01496771 0.71209687
0.01569793 0.014270842 0.71228909
0.015724149 0.013579965 0.71257681
0.015754547 0.012890071 0.71291041
0.0157777 0.012191862 0.71316445
0.015773466 0.011471629 0.71311802
0.015794912 0.010769278 0.71335334
0.015818968 0.010066658 0.71361732
0.015835222 0.0093571842 0.71379572
0.015853547 0.0086474121 0.71399683
0.015886098 0.0079430938 0.71435398
0.015938431 0.007244736 0.71492833
0.015984824 0.0065392852 0.71543741
0.016020266 0.0058255494 0.71582633
0.016051752 0.005107373 0.71617186
0.016083296 0.0043863654 0.71651798
0.016115032 0.0036625266 0.71686625
0.016146893 0.0029358268 0.7172159
0.01617888 0.0022062063 0.71756685
0.016210994 0.0014737546 0.71791929
0.016238198 0.00073811412 0.71821785
0.01625021 2.9802322e-08 0.71834964
0.016245721 -0.00073838234 0.71830034
0.016223172 -0.0014747977 0.71805286
0.016178399 -0.0022061169 0.7175616
0.016085599 -0.0029245913 0.7165432
0.015976539 -0.0036309958 0.71534646
0.015868949 -0.0043278635 0.71416581
0.015762798 -0.0050154328 0.71300089
0.015657995 -0.0056937933 0.71185088
0.015554638 -0.0063632429 0.71071672
0.015452637 -0.0070239305 0.70959735
0.015352891 -0.0076764226 0.70850277
0.015261063 -0.0083242059 0.70749509
0.015154327 -0.008954823 0.70632374
0.015057493 -0.0095820427 0.70526117
0.015007063 -0.010232121 0.70470774
0.015003175 -0.010911375 0.70466506
0.01500559 -0.01159519 0.70469159
0.015013194 -0.012283504 0.70477504
0.015023875 -0.012975127 0.70489222
0.015038357 -0.013671219 0.70505118
0.015055002 -0.01437068 0.70523381
0.015073705 -0.015073687 0.70543903
0.015092394 -0.015778422 0.70564413
0.015111189 -0.016484916 0.70585042
0.015130032 -0.017193168 0.70605719
0.015148861 -0.017903149 0.70626378
0.015167497 -0.01861465 0.70646828
0.015186541 -0.019328296 0.70667726
0.015213924 -0.020054698 0.70697778
0.015265452 -0.020816535 0.70754319
0.015589468 -0.021966964 0.71109885
0.015606464 -0.02270031 0.71128541
0.015656454 -0.023484677 0.71183395
0.015705671 -0.024272382 0.71237409
0.015757794 -0.025069207 0.71294606
0.016571123 -0.027116358 0.72187126
0.016594794 -0.027909428 0.72213101
0.016617808 -0.028703451 0.72238362
0.016640889 -0.029499739 0.72263682
0.016654449 -0.030280769 0.72278565
0.01665307 -0.031035274 0.72277051
0.016633647 -0.03175512 0.72255737
0.016593281 -0.032432288 0.72211438
0.016540859 -0.03308171 0.7215392
0.016486848 -0.033723086 0.72094643
0.016428528 -0.034350574 0.72030652
0.016365221 -0.034962058 0.71961176
0.016308311 -0.035581768 0.71898723
0.016222758 -0.036132485 0.71804839
0.01605924 -0.036498249 0.716254
0.015898984 -0.036856711 0.71449542
0.015858414 -0.037483513 0.71405023
0.015885107 -0.038268626 0.71434307
0.015921833 -0.039080858 0.71474612
0.015959661 -0.039899111 0.71516126
0.015998004 -0.040722162 0.71558201
0.016035995 -0.041547775 0.71599889
0.016074233 -0.042377532 0.7164185
0.016114555 -0.043216258 0.71686101
0.016185388 -0.044141948 0.71763831
0.016682288 -0.04625541 0.72309113
0.016696718 -0.04705441 0.7232495
0.016751453 -0.047970057 0.72385019
0.016976146 -0.04938516 0.72631586
0.017075498 -0.050450325 0.72740614
0.017143354 -0.051430017 0.72815073
0.017204626 -0.05239591 0.72882313
0.017272109 -0.05338648 0.72956365
0.017343115 -0.054394305 0.73034281
0.016430164 0.032145977 0.71248531
0.016221004 0.031031549 0.71028984
0.016017102 0.029945016 0.70814955
0.015818324 0.028885663 0.70606309
0.015722971 0.028027922 0.70506215
0.015637016 0.027194828 0.70415998
0.015655518 0.026546329 0.70435417
0.015784396 0.026078582 0.70570689
0.016733941 0.020371765 0.71567392
0.016627681 0.019519478 0.71455848
0.01652283 0.01867795 0.71345806
0.016419293 0.017847091 0.71237123
0.016342673 0.017053276 0.71156693
0.016335124 0.01633516 0.71148771
0.01634869 0.015637904 0.71163017
0.016375892 0.014951915 0.71191567
0.016408641 0.014268368 0.71225941
0.01644179 0.013582349 0.71260738
0.016475076 0.012893558 0.71295667
0.016484659 0.012184352 0.71305734
0.016496705 0.01147598 0.71318376
0.01652864 0.01077956 0.71351898
0.016557679 0.010078609 0.7138238
0.016585443 0.0093743801 0.7141152
0.016616549 0.0086695254 0.71444166
0.01665006 0.0079630613 0.71479344
0.016686982 0.0072552264 0.71518099
0.016722806 0.0065437257 0.71555704
0.016755624 0.0058280528 0.71590149
0.016788568 0.0051095784 0.71624732
0.016821645 0.0043882728 0.71659446
0.016854852 0.0036641061 0.71694309
0.016888117 0.0029370487 0.71729225
0.016921587 0.00220716 0.71764356
0.016954903 0.0014743805 0.71799326
0.01697709 0.00073814392 0.71822608
0.016981708 2.9802322e-08 0.71827465
0.016969448 -0.00073778629 0.71814597
0.016935932 -0.0014726818 0.71779418
0.016870009 -0.0022004247 0.71710217
0.016759066 -0.0029146075 0.71593761
0.016645828 -0.0036186278 0.71474904
0.016534111 -0.0043132603 0.71357644
0.016423883 -0.0049985945 0.71241939
0.016315049 -0.0056747794 0.71127695
0.016207714 -0.006342113 0.71015036
0.016126148 -0.007011354 0.70929414
0.016089851 -0.0076951385 0.70891315
0.016068565 -0.0083835721 0.70868975
0.016032975 -0.0090621114 0.70831621
0.015937503 -0.009701103 0.70731401
0.01582058 -0.010317773 0.70608675
0.015783833 -0.01098007 0.70570099
0.015770566 -0.011656493 0.70556176
0.015763659 -0.012336761 0.70548928
0.015768511 -0.013026148 0.70554024
0.016306194 -0.014179289 0.71118402
0.016065592 -0.014668584 0.70865858
0.015831925 -0.015143543 0.70620584
0.015815632 -0.015815645 0.70603484
0.015835125 -0.01652357 0.7062394
0.015854852 -0.017233521 0.70644653
0.015874693 -0.01794529 0.70665473
0.015894584 -0.018658847 0.70686352
0.015914273 -0.019373864 0.70707023
0.015933944 -0.02009061 0.7072767
0.015954174 -0.020809799 0.70748901
0.015982123 -0.021541089 0.70778239
0.016034134 -0.02230835 0.70832831
0.01629921 -0.023385793 0.71111071
0.016381733 -0.024216443 0.71197695
0.017302977 -0.02633059 0.72164685
0.017345186 -0.027148992 0.72208989
0.017379588 -0.027958483 0.72245103
0.017407449 -0.028760135 0.72274345
0.01742734 -0.029550701 0.72295225
0.017427264 -0.030308276 0.72295147
0.017411925 -0.031038642 0.72279042
0.017375432 -0.031729013 0.72240734
0.017324282 -0.032388866 0.72187048
0.017271042 -0.033040255 0.72131163
0.017217834 -0.033687055 0.72075313
0.017165909 -0.034331828 0.72020811
0.017113931 -0.034971923 0.71966249
0.017080938 -0.035647184 0.71931618
0.017082252 -0.036392599 0.71933001
0.017089412 -0.03715089 0.71940511
0.017036805 -0.037777245 0.71885294
0.016864313 -0.038127989 0.71704233
0.016695278 -0.038471729 0.71526808
0.016662488 -0.039120644 0.71492392
0.016691791 -0.039915144 0.71523148
0.016730508 -0.040735126 0.71563792
0.01677018 -0.041560858 0.71605432
0.016810888 -0.042392671 0.71648157
0.016851155 -0.043226868 0.71690428
0.016891545 -0.044064879 0.71732819
0.016934998 -0.044914544 0.71778429
0.017395552 -0.046892375 0.72261858
0.017484762 -0.047893047 0.72355497
0.017739594 -0.049362332 0.72622979
0.017840737 -0.05041948 0.72729152
0.017907336 -0.051386267 0.72799057
0.017971283 -0.052351117 0.72866184
0.018035688 -0.053322881 0.72933781
0.018106379 -0.054319143 0.73007989
0.017036293 0.031943083 0.71139663
0.016820768 0.030838072 0.70922863
0.016610693 0.029760838 0.70711547
0.016449943 0.028787404 0.7054984
0.016354902 0.027939647 0.7045424
0.016306994 0.027178347 0.70406044
0.016338624 0.026550263 0.7043786
0.016370377 0.025919765 0.70469803
0.017434929 0.021067232 0.7154066
0.017315248 0.020201117 0.7142027
0.017197199 0.019346863 0.7130152
0.017080819 0.018504232 0.71184456
0.017009398 0.017718136 0.71112609
0.017005166 0.017005175 0.71108353
0.017025303 0.016315937 0.71128607
0.017058248 0.015636742 0.71161747
0.017092582 0.014956027 0.71196282
0.017127125 0.01427263 0.71231037
0.017161736 0.013586372 0.71265852
0.017192377 0.012894303 0.71296668
0.017191242 0.01217714 0.7129553
0.017221278 0.011480868 0.71325743
0.017254557 0.010784149 0.71359217
0.017288039 0.010084718 0.713929
0.01732165 0.0093825758 0.71426708
0.017355392 0.0086777508 0.71460652
0.017389264 0.0079700947 0.71494722
0.01742327 0.0072597265 0.71528935
0.017457411 0.0065465569 0.71563274
0.017491683 0.005830586 0.71597755
0.017526019 0.0051117539 0.71632284
0.017560562 0.0043901801 0.71667033
0.017595241 0.0036657155 0.7170192
0.017630057 0.0029383302 0.7173695
0.017665014 0.0022081435 0.7177211
0.017695226 0.0014745891 0.71802497
0.017710106 0.0007379055 0.7181747
0.017707249 2.9802322e-08 0.71814591
0.017685769 -0.00073689222 0.71792984
0.01764035 -0.0014700294 0.71747297
0.01754689 -0.0021933317 0.71653283
0.017427932 -0.0029046535 0.7153362
0.017310575 -0.0036063492 0.71415567
0.017194787 -0.004298687 0.712991
0.01708054 -0.0049818158 0.7118417
0.016969111 -0.0056563616 0.71072078
0.016901154 -0.0063379109 0.71003723
0.016886028 -0.0070357919 0.70988506
0.016884727 -0.0077388287 0.70987201
0.016883429 -0.0084417164 0.70985895
0.016875435 -0.0091408193 0.70977849
0.018246165 -0.010643572 0.72356695
0.018259749 -0.011412352 0.72370362
0.01825743 -0.012171596 0.72368032
0.018224156 -0.012908757 0.72334558
0.018121192 -0.013590872 0.72230983
0.017924188 -0.014189959 0.72032815
0.017661048 -0.014717549 0.71768117
0.017390715 -0.015216857 0.71496183
0.017128533 -0.015701145 0.7123245
0.016874136 -0.016171038 0.70976543
0.016627187 -0.016627192 0.70728135
0.016584136 -0.017275125 0.70684826
0.016603881 -0.01798752 0.70704687
0.016624734 -0.018702805 0.70725667
0.01664564 -0.019419909 0.70746696
0.016666466 -0.020138621 0.70767641
0.016687142 -0.020858884 0.70788443
0.016707871 -0.021580964 0.70809305
0.016729321 -0.022305757 0.70830876
0.016757829 -0.023042023 0.70859557
0.016810054 -0.023814231 0.70912087
0.017093213 -0.024927586 0.7119692
0.018091472 -0.02713719 0.72201091
0.018140981 -0.027967334 0.72250897
0.018185765 -0.02879411 0.72295946
0.018210862 -0.029592633 0.72321188
0.018192587 -0.030320942 0.72302806
0.018162871 -0.031028211 0.72272915
0.018110961 -0.031694174 0.72220689
0.018053012 -0.032344997 0.72162402
0.017997609 -0.032995611 0.72106671
0.017942468 -0.033642113 0.72051203
0.017886972 -0.03428334 0.71995378
0.017838914 -0.034934521 0.71947038
0.017828694 -0.035657346 0.71936756
0.017857326 -0.036458671 0.71965557
0.017889965 -0.037270755 0.71998394
0.017914254 -0.038067788 0.7202282
0.01792126 -0.038829386 0.72029871
0.017858244 -0.039436936 0.71966481
0.017676622 -0.039772391 0.71783781
0.017498732 -0.04010126 0.71604842
0.017474603 -0.040774047 0.71580565
0.017506666 -0.041578352 0.71612823
0.017547408 -0.042406231 0.71653801
0.017589154 -0.043239981 0.71695805
0.017631773 -0.044079393 0.71738672
0.017674748 -0.044923335 0.71781898
0.017717557 -0.045770377 0.71824962
0.017764054 -0.046630651 0.71871734
0.018501764 -0.049338043 0.72613811
0.018605789 -0.050390661 0.72718453
0.018670021 -0.051342547 0.72783065
0.018736549 -0.052306205 0.72849989
0.018803639 -0.053276956 0.72917479
0.018876251 -0.054269224 0.72990519
0.017634818 0.031742692 0.71032166
0.017413175 0.030647188 0.70818126
0.017196963 0.029578775 0.70609331
0.017081179 0.028696388 0.70497525
0.016983265 0.027852565 0.70402968
0.016991105 0.027185768 0.70410538
0.017024204 0.026557744 0.70442498
0.017061654 0.025933772 0.70478666
0.017318744 0.025631756 0.70726937
0.018108228 0.021729887 0.71489334
0.017992184 0.020870954 0.71377265
0.017877618 0.020022959 0.71266633
0.017764429 0.019185603 0.71157324
0.017685944 0.018393397 0.71081531
0.017680401 0.017680407 0.71076179
0.017703028 0.016994923 0.7109803
0.017738529 0.016319454 0.71132314
0.01777417 0.015641272 0.71166736
0.017810028 0.014960438 0.7120136
0.017845958 0.014276803 0.71236062
0.017882109 0.013590425 0.71270967
0.017915225 0.012898982 0.7130295
0.017918404 0.01218453 0.71306014
0.01794639 0.011485696 0.71333039
0.01798116 0.010788709 0.7136662
0.018016066 0.01008901 0.71400326
0.018051032 0.0093865395 0.71434093
0.01808621 0.0086814165 0.71468067
0.018121526 0.0079734921 0.71502173
0.018156979 0.0072627962 0.7153641
0.018192571 0.0065493286 0.71570778
0.018228304 0.0058330595 0.71605277
0.018264176 0.0051139593 0.71639919
0.018300191 0.0043920279 0.71674705
0.01833627 0.0036672354 0.71709543
0.018372569 0.0029396117 0.71744597
0.018409012 0.0022090971 0.71779794
0.018437378 0.0014749765 0.71807182
0.018444974 0.0007378161 0.71814513
0.018432528 -0 0.71802497
0.01839833 -0.00073587894 0.71769476
0.018331006 -0.0014664531 0.71704459
0.018215308 -0.0021857917 0.7159273
0.018092161 -0.0028947294 0.71473813
0.017970745 -0.0035941601 0.71356565
0.017850947 -0.0042842329 0.71240878
0.017754262 -0.0049712062 0.71147513
0.017701082 -0.0056643188 0.71096152
0.017691275 -0.0063688457 0.71086681
0.017682921 -0.0070731342 0.7107861
0.017679323 -0.007778883 0.71075141
0.017679609 -0.0084861815 0.71075416
0.019017739 -0.0098891854 0.72367632
0.019050438 -0.010668248 0.72399211
0.019071601 -0.011442959 0.72419643
0.01906934 -0.012204379 0.72417456
0.019041918 -0.012948483 0.7239098
0.018974453 -0.013661593 0.72325832
0.018845284 -0.01432237 0.72201085
0.018695461 -0.014956355 0.72056413
0.018545784 -0.015578449 0.71911871
0.018381432 -0.016175658 0.71753156
0.018202787 -0.016746551 0.71580642
0.017961901 -0.017243385 0.71348023
0.017693365 -0.017693341 0.71088701
0.017432744 -0.018130034 0.70837021
0.017360209 -0.018749028 0.70766973
0.017380215 -0.019465834 0.70786297
0.01740215 -0.020186484 0.70807475
0.017424142 -0.020908952 0.70828712
0.017445907 -0.02163291 0.70849735
0.017467586 -0.022358507 0.70870674
0.01748939 -0.023085952 0.70891726
0.017512098 -0.023816407 0.70913655
0.017541094 -0.024557501 0.70941651
0.017594457 -0.025335997 0.70993185
0.018871404 -0.027929634 0.72226316
0.018934501 -0.028780431 0.7228725
0.018972632 -0.029597312 0.72324073
0.018954167 -0.030326635 0.7230624
0.018903928 -0.031002432 0.72257721
0.018842667 -0.031655699 0.7219857
0.018782614 -0.032306075 0.72140574
0.018722458 -0.032951504 0.72082484
0.018665092 -0.033597171 0.72027081
0.018607199 -0.034237206 0.71971178
0.01857521 -0.034921378 0.71940291
0.018588167 -0.035689294 0.71952796
0.018623715 -0.036502481 0.71987128
0.0186594 -0.037318766 0.72021586
0.01869522 -0.038138211 0.72056174
0.018729482 -0.038957298 0.72089261
0.018754553 -0.039759636 0.72113472
0.018761439 -0.040524691 0.72120118
0.018687258 -0.041111976 0.72048491
0.018496344 -0.041431785 0.71864122
0.018309293 -0.041745156 0.7168349
0.018295025 -0.042444438 0.71669722
0.01833 -0.043258786 0.71703494
0.018372802 -0.044094712 0.71744823
0.018416584 -0.044936448 0.71787101
0.018461201 -0.045783758 0.71830189
0.018506669 -0.04663679 0.71874094
0.018552201 -0.047493607 0.71918064
0.018601861 -0.048364818 0.71966022
0.019667746 -0.051922828 0.72995329
0.019517677 -0.052307367 0.72850412
0.019568149 -0.053225368 0.72899151
0.019663651 -0.054271668 0.72991371
0.018459531 0.032659173 0.7114296
0.018225955 0.031544924 0.7092607
0.017998217 0.03045854 0.70714605
0.017811356 0.029457241 0.70541102
0.017708503 0.028606027 0.70445597
0.017642727 0.027821243 0.7038452
0.017675797 0.027193546 0.70415223
0.01771017 0.026565284 0.70447141
0.017744677 0.025934547 0.70479178
0.017786179 0.025311112 0.70517719
0.017856561 0.024724483 0.70583075
0.018028172 0.024268717 0.70742416
0.018547148 0.024253964 0.71224314
0.01867366 0.023701221 0.71341777
0.01868942 0.023002356 0.71356422
0.018655844 0.022243559 0.71325243
0.018589817 0.021449775 0.71263933
0.018504221 0.02063933 0.71184444
0.018419409 0.019836307 0.71105701
0.01836198 0.019068211 0.71052378
0.018356683 0.018356681 0.71047461
0.018379688 0.017672807 0.71068817
0.018416481 0.016999811 0.71102983
0.018453421 0.016324192 0.71137279
0.01849051 0.015645832 0.71171725
0.018527824 0.014964819 0.71206367
0.01856529 0.014281005 0.71241158
0.018602831 0.013594359 0.71276015
0.018640524 0.012904972 0.71311015
0.01867667 0.01221171 0.71344578
0.018706061 0.011511475 0.71371871
0.018729718 0.010805607 0.71393836
0.0187525 0.010097533 0.71414989
0.018781036 0.009390533 0.71441489
0.018817652 0.0086850822 0.71475482
0.018854411 0.0079768896 0.71509618
0.018891312 0.0072658658 0.71543884
0.01892836 0.00655213 0.71578288
0.018965553 0.0058355629 0.71612823
0.019002892 0.0051161945 0.71647489
0.01904038 0.0043939352 0.71682298
0.019078014 0.0036688745 0.7171725
0.019115718 0.0029408932 0.71752256
0.019153653 0.0022100806 0.71787477
0.019182935 0.0014756024 0.71814668
0.019189943 0.00073811412 0.71821171
0.019172268 2.9802322e-08 0.71804762
0.019124053 -0.00073552132 0.71759999
0.019019855 -0.0014630556 0.71663249
0.018886968 -0.0021792352 0.71539849
0.018767616 -0.0028873384 0.71429026
0.018665865 -0.0035895407 0.71334541
0.018591652 -0.0042903423 0.71265638
0.018560484 -0.0049970448 0.712367
0.01853634 -0.0057034791 0.71214277
0.018518481 -0.0064102411 0.71197701
0.018501796 -0.0071160495 0.71182203
0.01970941 -0.0083385706 0.72303522
0.019750604 -0.0091156363 0.7234177
0.019791968 -0.0098959804 0.72380185
0.019828893 -0.010677069 0.7241447
0.019846579 -0.011449903 0.72430885
0.019838385 -0.012208253 0.72423279
0.019811673 -0.012953758 0.72398484
0.019748705 -0.013672173 0.72340012
0.019629501 -0.014344603 0.72229326
0.019497072 -0.014997751 0.72106361
0.019357873 -0.015635192 0.71977109
0.019218765 -0.016262025 0.71847939
0.019078741 -0.016877353 0.71717924
0.018932961 -0.017476559 0.71582556
0.018785879 -0.018063337 0.71445984
0.018628301 -0.018628269 0.7129966
0.018460134 -0.019170105 0.71143514
0.018248854 -0.019652605 0.70947337
0.018144034 -0.020237565 0.70850009
0.018164171 -0.020958662 0.70868701
0.018187208 -0.021684766 0.70890093
0.018210158 -0.022412509 0.70911402
0.018232943 -0.023141772 0.70932555
0.018255787 -0.023872942 0.70953768
0.018278688 -0.02460593 0.70975035
0.01830261 -0.025342047 0.7099725
0.018332023 -0.02608785 0.71024555
0.018386496 -0.026872575 0.71075141
0.019701932 -0.029552877 0.72296578
0.019694116 -0.03029865 0.72289324
0.019637864 -0.030967385 0.72237086
0.019573024 -0.031617939 0.72176886
0.019510547 -0.032267421 0.72118866
0.019448051 -0.032912046 0.72060835
0.019386036 -0.033552736 0.72003257
0.019338232 -0.034213781 0.71958876
0.01932979 -0.034942329 0.71951032
0.019360777 -0.035742939 0.71979803
0.019394359 -0.036550909 0.72010988
0.019428978 -0.03736341 0.72043133
0.019466406 -0.038184077 0.72077882
0.019503977 -0.039007962 0.72112775
0.019541608 -0.039834797 0.72147715
0.019577518 -0.040661007 0.72181058
0.019603433 -0.041468769 0.7220512
0.019609731 -0.042236298 0.72210962
0.01952387 -0.042802334 0.72131246
0.019323505 -0.043106258 0.71945196
0.019131668 -0.043414146 0.71767062
0.019123811 -0.044131875 0.71759772
0.019161858 -0.044956625 0.71795094
0.019206751 -0.045800686 0.71836782
0.019252758 -0.046650916 0.718795
0.019299399 -0.047506213 0.71922809
0.019346928 -0.048367292 0.7196694
0.019427558 -0.049316108 0.72041816
0.020313261 -0.052345723 0.72864228
0.020340245 -0.053197563 0.7288928
0.019082638 0.032511175 0.71065277
0.018809697 0.03134951 0.70821226
0.018576177 0.030272305 0.70612425
0.01843803 0.029364318 0.70488894
0.018331891 0.028516322 0.70393991
0.01832523 0.027827233 0.70388037
0.018360808 0.027201205 0.70419848
0.018396523 0.026572764 0.7045179
0.018432379 0.025941849 0.70483845
0.018468373 0.02530852 0.70516026
0.01850451 0.024672687 0.70548344
0.018542765 0.024036974 0.70582545
0.018597534 0.023419172 0.70631516
0.018738989 0.022903204 0.70757997
0.018909328 0.022411048 0.70910311
0.018968588 0.021778762 0.70963299
0.019001706 0.021113038 0.70992911
0.019005939 0.020413786 0.70996696
0.019011101 0.01971525 0.71001315
0.019026214 0.01902622 0.71014827
0.019054037 0.018348366 0.71039701
0.019092191 0.017677993 0.71073818
0.019130422 0.017004818 0.71108001
0.019168805 0.01632899 0.71142328
0.019210884 0.015653342 0.7117995
0.01925046 0.014972597 0.71215332
0.019287821 0.014287263 0.71248746
0.019323895 0.013598323 0.71280998
0.019363219 0.012908816 0.71316165
0.019403588 0.012217075 0.71352255
0.019463325 0.011533856 0.71405673
0.019571492 0.0086984634 0.71502388
0.019589556 0.0079809427 0.7151854
0.019626275 0.0072690248 0.71551371
0.019664779 0.0065549612 0.71585798
0.019703437 0.0058380961 0.71620357
0.019742245 0.0051183701 0.71655071
0.019781208 0.0043958426 0.71689904
0.019820325 0.003670454 0.7172488
0.019859511 0.0029421449 0.71759921
0.019898938 0.0022110045 0.71795171
0.019932253 0.0014764667 0.71824962
0.019949801 0.00073888898 0.71840656
0.019951412 -0 0.71842098
0.019945813 -0.00073871017 0.7183708
0.01992929 -0.001476258 0.71822315
0.019865567 -0.0022072792 0.71765333
0.019686816 -0.0029165745 0.71605504
0.019578598 -0.0036256611 0.71508741
0.019503465 -0.0043340921 0.71441567
0.019453317 -0.0050434172 0.7139672
0.019409528 -0.005750984 0.71357566
0.020391924 -0.0067972839 0.72235978
0.020434385 -0.0075682998 0.72273946
0.020477025 -0.0083425045 0.72312075
0.020519752 -0.0091198683 0.72350276
0.020562747 -0.0099005401 0.72388721
0.020593079 -0.010677844 0.72415847
0.020600224 -0.011444539 0.7242223
0.020586753 -0.012199551 0.72410184
0.020551037 -0.012939513 0.72378248
0.020478902 -0.013652593 0.7231375
0.020357763 -0.014325798 0.7220543
0.020229932 -0.014985114 0.72091132
0.020103527 -0.015636057 0.71978104
0.019970354 -0.016272128 0.71859032
0.019838933 -0.016899794 0.71741521
0.019708818 -0.017518938 0.71625173
0.019573942 -0.018124044 0.71504581
0.019436711 -0.018716812 0.71381873
0.01929909 -0.01929906 0.71258813
0.019157298 -0.019866824 0.71132034
0.019012872 -0.020421237 0.71002901
0.018914361 -0.021015972 0.70914817
0.018932834 -0.021737695 0.70931327
0.018955864 -0.022466213 0.70951921
0.018980023 -0.0231978 0.70973527
0.019003861 -0.023930788 0.70994842
0.019027757 -0.024665594 0.71016204
0.019051714 -0.025402278 0.71037626
0.019075731 -0.026140809 0.71059102
0.019100975 -0.026882857 0.7108168
0.019130656 -0.02763319 0.71108216
0.01918629 -0.028424144 0.71157956
0.020353701 -0.030907452 0.722018
0.02029874 -0.031575799 0.72152662
0.020236565 -0.032228589 0.72097063
0.02017165 -0.032872289 0.7203902
0.020110767 -0.033517927 0.71984583
0.020084333 -0.034217745 0.71960944
0.02010482 -0.034997255 0.71979266
0.020136839 -0.035798788 0.72007889
0.020171562 -0.036607653 0.72038943
0.020206666 -0.037419736 0.72070324
0.020241892 -0.038234711 0.72101831
0.020278294 -0.039054483 0.72134376
0.020317554 -0.039882571 0.72169483
0.020356968 -0.040713936 0.72204721
0.020396624 -0.041548669 0.72240186
0.020434296 -0.04238224 0.72273862
0.020445518 -0.043162793 0.722839
0.020384125 -0.043788105 0.7222901
0.020249931 -0.044249833 0.7210902
0.020107405 -0.044683099 0.71981579
0.019955996 -0.045085758 0.71846193
0.01995693 -0.045826972 0.71847028
0.020002373 -0.046672165 0.7188766
0.020049393 -0.047524482 0.71929705
0.020098101 -0.048384309 0.71973252
0.021143986 -0.051685274 0.72908437
0.021052791 -0.0522421 0.72826898
0.021120185 -0.053191513 0.72887152
0.019171331 0.030126363 0.7053237
0.019060683 0.029271781 0.70436966
0.018977106 0.028465658 0.70364904
0.019009288 0.027835071 0.70392644
0.019046204 0.027208865 0.70424479
0.019083263 0.026580274 0.70456433
0.019120468 0.02594921 0.70488507
0.019157818 0.025315702 0.70520711
0.019195313 0.024679691 0.70553041
0.019232955 0.024041206 0.70585501
0.019270744 0.023400217 0.70618081
0.019308837 0.022756845 0.70650929
0.019356396 0.022121638 0.70691931
0.019451052 0.021535128 0.70773542
0.019613944 0.021014988 0.70913994
0.019654438 0.020356387 0.70948911
0.019688964 0.019688994 0.70978671
0.019726088 0.01902163 0.71010685
0.019765522 0.01835373 0.71044683
0.019805033 0.017683059 0.71078753
0.019849643 0.017013997 0.71117216
0.019927295 0.016368836 0.7118417
0.020050168 0.015753686 0.71290112
0.02009066 0.015068024 0.71325028
0.020075984 0.014339983 0.7131238
0.020083942 0.013628393 0.71319234
0.020120742 0.012934774 0.71350968
0.020254025 0.012297094 0.71465886
0.02040782 0.0072885156 0.71598488
0.020406706 0.0065593123 0.71597528
0.020441951 0.0058405697 0.71627921
0.020482233 0.0051205456 0.71662652
0.020522673 0.0043976903 0.71697515
0.020563273 0.0036720335 0.71732521
0.020604033 0.0029434562 0.7176767
0.020644955 0.002211988 0.71802956
0.020685337 0.0014775395 0.71837771
0.020717846 0.00073996186 0.71865797
0.020740723 2.9802322e-08 0.71885526
0.020764362 -0.00074157119 0.71905911
0.020781038 -0.0014843643 0.71920288
0.020789031 -0.0022273958 0.71927178
0.020838724 -0.002976954 0.71970022
0.020950729 -0.0037411749 0.72066593
0.021022074 -0.0045047104 0.72128105
0.021069419 -0.0052673221 0.72168934
0.021113129 -0.0060322881 0.72206616
0.021157023 -0.0068004727 0.72244465
0.021201005 -0.0075717568 0.72282386
0.021245265 -0.0083463192 0.72320545
0.021289708 -0.0091241896 0.72358871
0.021330785 -0.00990358 0.72394288
0.021352412 -0.010676175 0.72412932
0.02135082 -0.011437923 0.72411561
0.021326764 -0.012186706 0.72390819
0.021275276 -0.012917131 0.72346425
0.021177839 -0.013614267 0.72262412
0.02104909 -0.014283299 0.72151405
0.020921895 -0.014944166 0.72041738
0.02079623 -0.015597165 0.71933383
0.020672064 -0.016242325 0.71826327
0.020548072 -0.016878754 0.71719414
0.020423412 -0.017505765 0.71611935
0.020297717 -0.018123001 0.71503556
0.020167287 -0.018726766 0.71391106
0.020039678 -0.019323945 0.71281064
0.019909434 -0.019909441 0.71168768
0.01977854 -0.020484895 0.71055913
0.019684661 -0.021090686 0.70974964
0.019693825 -0.021803856 0.70982867
0.019710584 -0.022526354 0.70997322
0.019731609 -0.02325508 0.71015447
0.019755408 -0.023988694 0.71035969
0.019780552 -0.024725676 0.71057647
0.019805517 -0.025464237 0.71079177
0.019830545 -0.026204646 0.71100754
0.019855639 -0.026946932 0.7112239
0.019880712 -0.027690977 0.71144009
0.019907316 -0.028438985 0.71166939
0.019937586 -0.029194295 0.71193039
0.019993801 -0.029990703 0.71241516
0.020933149 -0.032147318 0.72051442
0.020884082 -0.032817841 0.72009128
0.02084819 -0.033506006 0.71978188
0.020856325 -0.034263998 0.71985203
0.020889193 -0.035064012 0.72013539
0.020921985 -0.035866261 0.7204181
0.0209547 -0.036670715 0.72070014
0.020988695 -0.037479818 0.72099334
0.021024616 -0.038294822 0.72130305
0.021061027 -0.039113313 0.72161698
0.02109793 -0.03993535 0.72193509
0.021136522 -0.040763289 0.72226793
0.021177378 -0.041598409 0.72262019
0.021218298 -0.04243654 0.72297299
0.021238957 -0.043236434 0.72315115
0.021195924 -0.043905824 0.72278005
0.021083025 -0.044424921 0.72180665
0.020960208 -0.044914722 0.72074771
0.020837117 -0.045395136 0.71968639
0.020734271 -0.04591158 0.71879959
0.020755945 -0.046700835 0.71898651
0.020803167 -0.047550082 0.71939367
0.020873507 -0.048456311 0.72000009
0.021874838 -0.051562101 0.72863382
0.021835364 -0.052248925 0.72829348
0.021910504 -0.053211212 0.72894132
0.019770239 0.029314488 0.70460951
0.019657237 0.028469115 0.70366877
0.019693734 0.027842879 0.70397264
0.019731989 0.027216583 0.70429111
0.019770395 0.026587784 0.70461082
0.019808948 0.025956571 0.7049318
0.019847654 0.025322855 0.70525402
0.01988651 0.024686724 0.70557743
0.01992552 0.02404806 0.70590216
0.019964682 0.023406893 0.7062282
0.020003999 0.022763163 0.70655549
0.02004347 0.022116959 0.70688415
0.020083098 0.021468163 0.707214
0.020126499 0.020820528 0.70757532
0.020191832 0.020191878 0.70811921
0.020355396 0.019653499 0.70948094
0.020430343 0.019021362 0.71010482
0.02047734 0.018359005 0.71049607
0.020527147 0.017695844 0.71091062
0.020689072 0.017122 0.7122587
0.020730615 0.016441524 0.71260458
0.020772409 0.015758425 0.71295244
0.020814287 0.015072435 0.71330106
0.020856334 0.014383674 0.71365112
0.020898551 0.01369217 0.71400255
0.020941027 0.012997925 0.71435618
0.021233857 0.005125463 0.71679389
0.021264777 0.0043995976 0.71705139
0.021306863 0.0036735833 0.71740168
0.021349115 0.0029447079 0.71775347
0.021391537 0.0022129416 0.71810663
0.021434126 0.0014782548 0.71846116
0.021476796 0.00074058771 0.7188164
0.021514211 2.9802322e-08 0.71912789
0.02155222 -0.00074318051 0.71944433
0.021584257 -0.0014885664 0.71971101
0.021620195 -0.0022365749 0.72001016
0.021675818 -0.002989769 0.72047323
0.021735476 -0.0037474632 0.72096986
0.021786796 -0.0045076013 0.72139704
0.02183192 -0.0052697361 0.72177279
0.021877235 -0.0060350895 0.72214997
0.021922737 -0.0068035722 0.72252882
0.021968428 -0.0075753033 0.72290909
0.022014311 -0.0083502531 0.7232911
0.022060288 -0.0091283917 0.72367394
0.022096571 -0.0099053383 0.7239759
0.022107817 -0.010672718 0.72406954
0.022095891 -0.011428893 0.72397023
0.022060676 -0.012171388 0.7236771
0.021989617 -0.012890458 0.72308558
0.021866696 -0.013572425 0.72206229
0.021734165 -0.014239609 0.72095895
0.02160323 -0.014898777 0.7198689
0.021473866 -0.015550047 0.71879202
0.02134604 -0.016193539 0.7177279
0.021219637 -0.016829371 0.71667558
0.0210949 -0.017457813 0.71563709
0.020976685 -0.018083364 0.71465307
0.020878978 -0.018719107 0.71383965
0.020760939 -0.019329131 0.71285695
0.020620653 -0.01990959 0.71168911
0.020518286 -0.020518273 0.71083695
0.02048775 -0.02119422 0.71058273
0.02048425 -0.021896929 0.71055359
0.020488081 -0.022607535 0.71058547
0.020500086 -0.023327649 0.71068537
0.020516532 -0.024053842 0.71082234
0.020538276 -0.024787545 0.7110033
0.020562921 -0.025526375 0.71120852
0.02058897 -0.026268691 0.71142536
0.020615086 -0.027012825 0.71164274
0.020641267 -0.027758956 0.71186078
0.020667516 -0.028506935 0.71207923
0.020693831 -0.029256791 0.71229827
0.020721661 -0.030010641 0.71252996
0.020752901 -0.030771554 0.71279001
0.0208093 -0.0315727 0.71325958
0.021555355 -0.033447951 0.71947038
0.021611756 -0.034280688 0.71993989
0.021668546 -0.035117924 0.72041273
0.021710189 -0.035934091 0.72075933
0.021744763 -0.036741167 0.72104722
0.021779072 -0.037550122 0.72133279
0.02181264 -0.038360178 0.72161222
0.021849247 -0.039177954 0.72191703
0.021886833 -0.040000051 0.72222984
0.02192455 -0.040825039 0.7225439
0.021962779 -0.041653544 0.72286212
0.022000853 -0.042484403 0.7231791
0.022005176 -0.043251544 0.7232151
0.021955218 -0.043910444 0.72279918
0.021844322 -0.044441879 0.72187603
0.021729384 -0.04495734 0.72091913
0.021614352 -0.045464665 0.71996152
0.021515038 -0.045997649 0.71913475
0.02152616 -0.046763718 0.71922737
0.02156735 -0.047596931 0.71957028
0.022709286 -0.050900102 0.72907674
0.022602113 -0.051439285 0.72818452
0.022622716 -0.05226627 0.728356
0.022737777 -0.053316176 0.72931385
0.020430325 0.027240485 0.70443529
0.02045791 0.026595324 0.70465732
0.020497818 0.025963902 0.70497847
0.020537879 0.025330067 0.70530081
0.020578099 0.024693727 0.70562452
0.020618476 0.024054885 0.70594943
0.020659013 0.023413569 0.70627564
0.020699708 0.02276969 0.70660311
0.020740563 0.022123277 0.70693195
0.020781664 0.021474391 0.70726269
0.020822845 0.020822853 0.7075941
0.020864189 0.020168722 0.70792681
0.020906452 0.019512743 0.70826691
0.020961778 0.018865615 0.7087121
0.021086015 0.018274575 0.70971197
0.021244762 0.01770398 0.71098936
0.021408731 0.017126977 0.71230894
0.02145173 0.016446322 0.71265501
0.021494901 0.015762925 0.71300238
0.021479048 0.015035331 0.71287477
0.02158186 0.014387935 0.7137022
0.021625558 0.013696194 0.71405381
0.02207388 0.0036790073 0.71766168
0.02209634 0.0029461682 0.7178424
0.022138763 0.0022138655 0.71818376
0.022182859 0.0014788806 0.71853864
0.022227133 0.00074091554 0.7188949
0.022272345 5.9604645e-08 0.71925867
0.022317836 -0.00074389577 0.71962488
0.022360539 -0.0014906824 0.7199685
0.022405138 -0.0022405088 0.72032738
0.022454657 -0.0029939413 0.72072583
0.022502063 -0.0037503242 0.72110736
0.022548595 -0.0045097172 0.72148186
0.022595223 -0.0052722394 0.72185713
0.022642044 -0.0060378909 0.72223383
0.022689158 -0.0068067312 0.72261298
0.022736469 -0.0075787902 0.72299373
0.022783978 -0.0083541274 0.72337604
0.022828884 -0.009131521 0.72373748
0.022855012 -0.0099038184 0.7239477
0.022856314 -0.010666251 0.72395819
0.022833984 -0.011417001 0.72377849
0.022783579 -0.012151241 0.72337282
0.022689356 -0.012857258 0.72261459
0.022551328 -0.013530791 0.72150385
0.022415064 -0.014196187 0.72040725
0.022280436 -0.014853597 0.71932387
0.022147417 -0.015503168 0.71825337
0.022016071 -0.01614511 0.71719646
0.021886088 -0.016779333 0.7161504
0.021788465 -0.017430782 0.71536481
0.021753818 -0.018128186 0.71508598
0.021742383 -0.018843383 0.71499395
0.021714121 -0.019542664 0.7147665
0.02166556 -0.020221174 0.71437573
0.021531664 -0.020813912 0.7132982
0.02137528 -0.021375269 0.71203965
0.021324469 -0.022035271 0.71163076
0.021307992 -0.022728503 0.7114982
0.02130921 -0.023440093 0.71150804
0.02230227 -0.025275886 0.71949959
0.021957451 -0.025617003 0.71672469
0.021623045 -0.02594763 0.7140336
0.021366691 -0.026352257 0.71197057
0.02137826 -0.027079105 0.71206367
0.021405477 -0.027827114 0.71228272
0.021432765 -0.028577 0.7125023
0.021460121 -0.029328793 0.71272248
0.021487545 -0.030082524 0.71294314
0.021515043 -0.030838192 0.71316445
0.021544302 -0.0315983 0.71339989
0.02157641 -0.032364607 0.71365833
0.021632738 -0.033170193 0.71411157
0.02238897 -0.035076022 0.72019726
0.022468694 -0.035949916 0.72083879
0.022528615 -0.036796689 0.72132105
0.022572717 -0.03762117 0.72167587
0.022609044 -0.03843537 0.72196829
0.022644307 -0.039250106 0.72225207
0.022679385 -0.040066898 0.72253436
0.022718631 -0.040893555 0.7228502
0.022757914 -0.041722804 0.72316635
0.022778403 -0.042519659 0.72333121
0.022751953 -0.043228716 0.72311836
0.022669816 -0.043828279 0.72245735
0.022568317 -0.044384331 0.72164059
0.022453593 -0.044907182 0.72071731
0.0223544 -0.045453906 0.71991909
0.022314204 -0.046115994 0.71959561
0.022327779 -0.046888322 0.71970481
0.02237292 -0.047728896 0.7200681
0.023436273 -0.050778568 0.7286253
0.023352478 -0.051375449 0.72795099
0.023419527 -0.052303612 0.72849059
0.021348663 0.02616933 0.70628357
0.021230172 0.025339246 0.70536077
0.021270083 0.024700761 0.70567155
0.021311829 0.024061769 0.70599669
0.02135374 0.023420215 0.70632315
0.021395817 0.022776186 0.70665073
0.021438144 0.022129744 0.70698041
0.021480555 0.02148056 0.70731068
0.021523129 0.020828873 0.70764232
0.021565877 0.020174533 0.70797521
0.021608794 0.01951763 0.70830947
0.021651883 0.018858105 0.70864499
0.021695143 0.018195957 0.70898187
0.021744633 0.017535985 0.70936728
0.021821545 0.016894102 0.7099663
0.022027712 0.016343147 0.71157187
0.022143912 0.015715063 0.71247679
0.022059381 0.014943451 0.71181852
0.021976927 0.014178693 0.71117634
0.022056399 0.013518453 0.71179527
0.022931462 0.0022192001 0.71861011
0.022936638 0.0014798045 0.71865034
0.022978326 0.00074124336 0.71897507
0.023025284 2.9802322e-08 0.71934074
0.023072334 -0.0007442534 0.71970713
0.023119677 -0.0014915466 0.72007585
0.023167213 -0.0022419691 0.72044599
0.023214847 -0.0029954314 0.72081697
0.023262776 -0.0037520528 0.72119027
0.023310905 -0.0045117736 0.72156507
0.023359232 -0.0052746534 0.72194147
0.023407761 -0.0060407221 0.72231936
0.023456389 -0.0068098903 0.72269809
0.02350522 -0.0075823069 0.72307837
0.023554359 -0.0083579421 0.72346103
0.023595428 -0.0091336966 0.72378087
0.02361198 -0.0099017918 0.7239098
0.023601115 -0.010658562 0.72382522
0.023567552 -0.01140362 0.72356379
0.023499375 -0.012128681 0.72303289
0.023373526 -0.012817711 0.72205275
0.02323187 -0.013489455 0.72094959
0.02309192 -0.014153093 0.71985972
0.022953549 -0.014808744 0.71878207
0.022816923 -0.015456587 0.71771806
0.022692045 -0.016104013 0.71674556
0.02261572 -0.016779393 0.71615112
0.022600725 -0.017497331 0.71603435
0.022598829 -0.018224895 0.71601957
0.022597028 -0.01895231 0.71600556
0.022596933 -0.019681185 0.71600485
0.024391871 -0.022031337 0.72998345
0.024416752 -0.022841424 0.73017716
0.024390766 -0.023603976 0.72997487
0.024294715 -0.024294704 0.72922677
0.024166515 -0.024946064 0.72822839
0.024026796 -0.02557686 0.72714031
0.023873854 -0.026184201 0.72594917
0.023579726 -0.026622236 0.72365856
0.023206744 -0.026949733 0.72075391
0.022845475 -0.027267158 0.71794045
0.022495283 -0.027574837 0.71521318
0.022196569 -0.027924716 0.71288693
0.022201968 -0.028647721 0.71292895
0.022230284 -0.029401332 0.71314943
0.022258766 -0.03015703 0.71337122
0.02228732 -0.030914664 0.71359366
0.022315856 -0.031674117 0.71381587
0.022344558 -0.032435626 0.71403933
0.022375284 -0.033201993 0.7142787
0.022408333 -0.033973932 0.71453607
0.022464881 -0.034784317 0.71497643
0.023250023 -0.036750019 0.72109097
0.023334235 -0.037635833 0.72174674
0.023397388 -0.038492471 0.72223854
0.023444034 -0.039325476 0.72260189
0.023481753 -0.040146202 0.72289562
0.023518357 -0.040967435 0.72318065
0.023550753 -0.041783601 0.72343302
0.02353943 -0.042522848 0.7233448
0.023480318 -0.043173462 0.72288448
0.023423539 -0.043824703 0.72244227
0.023419263 -0.044572145 0.72240895
0.023393832 -0.04527837 0.72221088
0.023266695 -0.045782834 0.72122079
0.023199646 -0.046399295 0.7206986
0.02397396 -0.048721284 0.7267288
0.024274347 -0.050114751 0.72906816
0.024159903 -0.050657809 0.72817689
0.024152536 -0.051421553 0.72811955
0.024231208 -0.052370638 0.72873223
0.0220183 0.024082512 0.70614004
0.022048865 0.02342695 0.70637059
0.022092322 0.022782713 0.70669848
0.02213604 0.022136062 0.70702827
0.022179844 0.021486729 0.70735878
0.022223821 0.020834833 0.70769054
0.022267971 0.020180374 0.70802361
0.022312298 0.019523263 0.70835805
0.022356803 0.018863589 0.7086938
0.022401484 0.018201172 0.70903099
0.022446346 0.017536223 0.7093693
0.022491386 0.016868532 0.70970917
0.022538252 0.01619938 0.71006268
0.022602025 0.015538931 0.71054387
0.022673834 0.014879733 0.71108562
0.022674296 0.014171451 0.71108907
0.022719422 0.013489664 0.7114296
0.022766499 0.012806177 0.71178472
0.023789901 2.9802322e-08 0.71950573
0.023827525 -0.00074458122 0.71978956
0.02387644 -0.0014922321 0.72015858
0.023925556 -0.0022429824 0.72052914
0.023974771 -0.0029968321 0.72090042
0.024024293 -0.0037537813 0.72127408
0.02407402 -0.0045138896 0.72164917
0.024123846 -0.0052770674 0.72202516
0.02417409 -0.0060434937 0.72240424
0.024224335 -0.0068130791 0.72278327
0.024274895 -0.0075858831 0.72316474
0.024325559 -0.008361876 0.72354692
0.024366498 -0.0091374218 0.72385585
0.024378892 -0.0099039376 0.72394931
0.024358172 -0.010656655 0.72379297
0.024300996 -0.011391073 0.72336167
0.024197133 -0.012098551 0.72257805
0.024053501 -0.012778401 0.72149444
0.023908168 -0.013448358 0.72039795
0.023767121 -0.014111698 0.71933389
0.023641594 -0.014776021 0.71838683
0.023545871 -0.015451968 0.71766466
0.023505254 -0.016159832 0.71735823
0.023482023 -0.016877651 0.71718293
0.023470128 -0.017602593 0.71709317
0.023458738 -0.018327117 0.71700734
0.025113193 -0.020404428 0.72948921
0.025167536 -0.021235108 0.72989917
0.025217766 -0.02206555 0.73027813
0.025247082 -0.022880167 0.73049927
0.025200278 -0.023625225 0.73014617
0.02507163 -0.024288118 0.72917557
0.02494541 -0.024945408 0.72822338
0.024822783 -0.025598437 0.7272982
0.024708049 -0.0262523 0.72643256
0.024592198 -0.026897699 0.72555858
0.024471071 -0.027529955 0.72464478
0.024335781 -0.02813822 0.72362399
0.024124056 -0.028647304 0.72202671
0.023745701 -0.028940052 0.71917224
0.023379324 -0.029224157 0.71640813
0.023038967 -0.029518664 0.71384037
0.023034289 -0.030232489 0.71380508
0.023063339 -0.030991346 0.71402419
0.023093037 -0.031752884 0.71424824
0.023122812 -0.03251642 0.71447289
0.023152662 -0.033281922 0.71469808
0.023182591 -0.034049422 0.71492386
0.02321473 -0.034822106 0.71516633
0.023248611 -0.035599411 0.71542203
0.023305818 -0.036415309 0.71585357
0.024119765 -0.038440853 0.72199434
0.024208512 -0.039338797 0.72266388
0.024274895 -0.04020527 0.72316468
0.024313111 -0.041028351 0.72345299
0.024317686 -0.041796029 0.72348762
0.024280937 -0.042491645 0.72321033
0.024215156 -0.043133199 0.72271401
0.024239967 -0.043934941 0.72290123
0.024274999 -0.044757038 0.72316551
0.024565358 -0.046060026 0.7253561
0.024652392 -0.046993613 0.72601271
0.024728272 -0.047911018 0.72658515
0.024785155 -0.04879573 0.7270143
0.024838863 -0.0496777 0.7274195
0.024898265 -0.050574571 0.72786766
0.02495997 -0.051479936 0.72833323
0.022959614 0.02295962 0.70799267
0.022835974 0.02214399 0.70708811
0.022879535 0.021492898 0.70740682
0.022924911 0.020840853 0.70773882
0.02297047 0.020186186 0.70807207
0.023016207 0.019528925 0.70840669
0.023062129 0.018869042 0.70874262
0.023108235 0.018206507 0.70907998
0.023154523 0.017541289 0.70941859
0.023200998 0.016873449 0.70975864
0.023247661 0.016202927 0.71009994
0.023294512 0.015529662 0.71044266
0.023341551 0.014853686 0.71078688
0.023388876 0.014175087 0.711133
0.023436299 0.013493657 0.71147996
0.024657311 -0.001494348 0.72041267
0.024685765 -0.0022441447 0.72062087
0.024735395 -0.002998203 0.72098386
0.024786511 -0.0037555099 0.72135794
0.024837732 -0.0045159757 0.72173262
0.024889274 -0.0052795112 0.72210968
0.024941029 -0.0060462952 0.72248834
0.024992999 -0.0068162382 0.7228685
0.025045186 -0.0075894594 0.72325033
0.025097484 -0.0083658099 0.72363287
0.025142498 -0.0091426969 0.72396219
0.025163796 -0.0099129975 0.72411799
0.025159931 -0.010673881 0.72408974
0.025138641 -0.011426628 0.72393399
0.025101328 -0.012170345 0.72366101
0.024900515 -0.012827516 0.72219187
0.024721423 -0.013484418 0.72088176
0.024616763 -0.014173269 0.72011602
0.024539741 -0.014872581 0.71955258
0.024476672 -0.015576065 0.71909118
0.024435464 -0.016290277 0.7187897
0.02439533 -0.017002791 0.71849608
0.02579904 -0.018762946 0.72876537
0.025854653 -0.019586861 0.72917217
0.025910504 -0.020414323 0.72958076
0.025966598 -0.02124539 0.7299912
0.026022818 -0.022079974 0.73040247
0.026045633 -0.022888541 0.73056936
0.025982132 -0.023620099 0.7301048
0.025842765 -0.024276495 0.72908521
0.025713185 -0.024933994 0.7281372
0.025585013 -0.025584966 0.72719955
0.025466707 -0.026238382 0.72633398
0.02535207 -0.02688852 0.7254954
0.025244905 -0.027539879 0.72471142
0.025139963 -0.028187215 0.72394365
0.025034579 -0.028827697 0.72317272
0.024926173 -0.029458195 0.72237968
0.024842037 -0.030111551 0.72176409
0.024658902 -0.030636847 0.72042435
0.024275612 -0.030896217 0.71762025
0.023903958 -0.03114754 0.71490127
0.023875091 -0.03183344 0.71469015
0.023904856 -0.032597512 0.71490788
0.023935793 -0.033365041 0.71513414
0.023966812 -0.034134567 0.71536112
0.02399791 -0.03490603 0.71558869
0.024029091 -0.035679519 0.71581674
0.024062775 -0.036458731 0.71606314
0.024097463 -0.037241489 0.71631694
0.024155334 -0.03806296 0.71674031
0.024994852 -0.040143251 0.72288203
0.025043108 -0.040979624 0.72323507
0.025035126 -0.041725188 0.72317666
0.02496927 -0.042372108 0.72269487
0.024960138 -0.043112934 0.72262812
0.025025181 -0.043983638 0.72310394
0.025114853 -0.044902325 0.72375995
0.025379341 -0.046144217 0.72569489
0.025491845 -0.047121257 0.72651792
0.025548644 -0.048000455 0.72693348
0.02560398 -0.048880279 0.72733831
0.025659673 -0.049764216 0.72774577
0.025713531 -0.050647825 0.72813976
0.025788248 -0.051576465 0.72868639
0.023639647 0.020858526 0.70788109
0.023673374 0.020192027 0.70812058
0.023720525 0.019534558 0.70845538
0.023767866 0.018874496 0.70879155
0.023815395 0.018211812 0.70912904
0.023863116 0.017546445 0.70946789
0.023911027 0.016878396 0.70980805
0.023959132 0.016207665 0.71014965
0.02400743 0.015534222 0.71049261
0.024055924 0.014858097 0.71083695
0.024104709 0.01417926 0.71118337
0.024153598 0.013497621 0.71153051
0.025542807 -0.0030050278 0.72139478
0.025552973 -0.0037578046 0.7214669
0.025602369 -0.0045180321 0.72181761
0.025655409 -0.0052819848 0.72219425
0.025708783 -0.0060490966 0.72257328
0.025762379 -0.006819427 0.72295386
0.025816085 -0.0075929463 0.72333515
0.025870129 -0.0083697438 0.72371888
0.025923263 -0.0091493726 0.7240963
0.025964741 -0.0099276304 0.72439075
0.025989644 -0.010701597 0.72456753
0.026019638 -0.011479229 0.72478056
0.02603122 -0.012249976 0.72486275
0.026037989 -0.013018996 0.7249108
0.026116157 -0.013826191 0.72546589
0.026286416 -0.014689416 0.72667485
0.026366672 -0.015509784 0.72724468
0.026422931 -0.01632008 0.72764415
0.026479548 -0.017133802 0.72804624
0.026536409 -0.017951101 0.72844994
0.026593516 -0.018771887 0.72885543
0.026650866 -0.019596219 0.72926265
0.026708465 -0.020424098 0.72967166
0.026766315 -0.021255612 0.73008239
0.026824415 -0.022090703 0.73049498
0.026837455 -0.022890747 0.73058754
0.026759766 -0.023611546 0.73003596
0.026613405 -0.02426514 0.72899669
0.026478956 -0.024921358 0.72804195
0.026346797 -0.025571853 0.72710353
0.026223516 -0.026223511 0.72622824
0.026105192 -0.026872993 0.72538805
0.025993647 -0.027522683 0.72459596
0.025884187 -0.028168082 0.72381878
0.025782168 -0.028815359 0.72309434
0.025702631 -0.029482424 0.72252959
