# .PCD v0.7 - Point Cloud Data file format
VERSION 0.7
FIELDS x y z
SIZE 4 4 4
TYPE F F F
COUNT 1 1 1
WIDTH 309
HEIGHT 1
VIEWPOINT 0 0 0 1 0 0 0
POINTS 309
DATA ascii
-0.0036359902 -0.0038010082 0.65972042
0.0056954562 0.0004958908 0.6595906
0.0056954562 0.0004958908 0.6595906
-0.0067269253 -0.0087196976 0.66031748
-0.0067269253 -0.0087196976 0.66031748
-0.0054977965 -0.0049979985 0.66068709
0.011717588 -0.00074800104 0.66040146
0.0037320186 0.00099529326 0.6601634
-0.0080730906 -0.015389457 0.66183829
-0.0050591528 -0.00354141 0.6621635
0.017523836 -0.0033699474 0.66206181
0.016687915 -0.0010114014 0.66211021
0.015729913 -0 0.66252595
-0.0081925038 -0.019457191 0.66364014
0.021559205 -0.0064163655 0.66394985
-0.0012755478 0.00025564432 0.66324443
0.0030598885 0.0020399392 0.66314518
-0.0065178191 -0.022469133 0.66424906
-0.0033536993 -0.0005158335 0.66456509
0.012360814 0.0020601451 0.66436493
-0.0033728913 -0.025685593 0.66529685
-0.0054508783 -0.024659351 0.66535681
0.021265928 -0.0093362331 0.66524547
-0.0077921823 -0.0054540932 0.66543806
-0.0093823951 0.00052127242 0.66586423
-0.0095564891 0.0012162825 0.66586697
-0.0067822174 0.0010434091 0.66597646
-0.003386264 0.0044280961 0.66579103
0.021538636 -0.01050663 0.66685122
-0.0036556188 0.0005222261 0.66610253
-0.0033078108 0.0022631586 0.66611594
-0.0013936977 0.0024391017 0.66620278
0.014178278 0.0021004975 0.66680026
0.0033949316 0.0036562234 0.66612244
0.0055496981 -0.029333845 0.66762424
0.0010519152 -0.028927654 0.66700214
0.0021083558 -0.027935684 0.66727531
-0.0047445199 -0.022141069 0.66729462
-0.0047445199 -0.022141069 0.66729462
-0.010319873 -0.0076736137 0.66778809
-0.0076347422 0.0026327372 0.66714466
-0.0057992805 0.0036904812 0.66730386
0.011370009 0.004495047 0.66769618
0.022278594 -0.020687252 0.66808498
0.021796102 -0.015682429 0.66836727
0.009375643 -0.028395221 0.66936845
0.009375643 -0.028395221 0.66936845
0.020645119 -0.019574061 0.66948831
0.021398092 -0.017385602 0.66917366
-0.011542268 -0.014494821 0.66963083
0.019547708 0.0014346242 0.66991204
0.020698272 0.0024191588 0.66981673
0.011283332 0.0091341436 0.6697408
0.0048530037 -0.028039575 0.67020464
0.005667923 -0.028069228 0.67034233
0.0064843767 -0.028098941 0.67048037
0.013517858 -0.026764452 0.67056477
0.016164187 -0.025323868 0.67010409
-0.0025191731 -0.024653614 0.67035764
-0.0025191731 -0.024653614 0.67035764
0.019392572 -0.022085994 0.67007422
0.019392572 -0.022085994 0.67007422
0.019459531 -0.02135089 0.67052329
-0.014091866 -0.019511789 0.67087388
-0.011619097 -0.017564029 0.67049545
-0.011590568 -0.016442701 0.67017496
0.022375323 -0.0035472214 0.67177796
0.018079856 -0.024106473 0.67229331
0.018079856 -0.024106473 0.67229331
0.025546448 -0.004669793 0.67265809
0.0038617544 -0.027032256 0.67321193
0.0085764006 -0.027112991 0.67360961
0.012201296 -0.026066393 0.67391807
0.02049524 -0.0088627636 0.67375416
0.02049524 -0.0088627636 0.67375416
0.026032252 -0.0083081126 0.67374265
0.025373539 -0.0033095777 0.67319244
0.018231118 0.0038671792 0.67339998
-0.010468409 0.0044077337 0.67304039
0.019323193 0.0049688518 0.67331141
0.019323193 0.0049688518 0.67331141
0.0016662494 -0.026104569 0.67411417
0.0036150808 -0.026692808 0.67427927
-0.00055568112 -0.025005639 0.67417806
-0.0094956281 0.0050271153 0.67487466
0.0075441031 0.0075441152 0.67493773
-0.0083996952 -0.029118925 0.67521584
0.020719364 -0.011479884 0.67521656
0.0090109082 0.0095741153 0.67598885
-0.0028200499 -0.023124397 0.67618883
0.019193025 -0.018345669 0.67630732
0.0054439241 -0.025786474 0.6783672
0.018932227 -0.017497346 0.67852914
0.02003492 -0.014310628 0.67822069
-0.0080106426 0.0062940717 0.67816335
0.0034600026 -0.02537334 0.67924452
0.01210591 -0.024211794 0.67919731
0.015352206 -0.022014692 0.67988849
0.018503519 -0.017635524 0.67962301
-0.01153028 -0.0046120882 0.67920756
0.008689695 0.011006951 0.67988324
0.0014561969 -0.024456218 0.68060225
0.015174874 -0.021595001 0.68093008
0.0192654 -0.014594972 0.6809665
-0.0040874928 0.010510713 0.68099737
0.011646336 0.012228668 0.68060851
0.0073435274 -0.024674863 0.68185902
0.017541587 -0.020465165 0.68118858
0.019473905 -0.0085569918 0.6824919
0.014800551 -0.0023680627 0.68295157
-0.0065130638 0.010065645 0.68296957
0.011266117 -0.023125172 0.6831764
0.017821329 -0.016633213 0.68343973
-0.0056469697 -0.015455708 0.68353784
-0.0005997307 -0.022789776 0.68481255
0.01315996 -0.021534473 0.68443823
-0.0044802027 -0.019415259 0.68424821
-0.0029989227 -0.018593282 0.68482554
0.017689403 -0.0083950162 0.68479186
0.017462054 -0.016257763 0.68539417
0.017462054 -0.016257763 0.68539417
0.0045450754 -0.023330592 0.6863265
0.0045580105 -0.020358637 0.68674195
0.0015138153 -0.019677646 0.68619764
0.0060876906 -0.019480556 0.68699455
0.014599511 -0.01855357 0.68688452
0.013314077 -0.0066570342 0.68612939
0.010663012 -0.019498095 0.68712658
-0.010403133 0.0085672736 0.68776232
0.0048816474 0.010373503 0.68734151
0.005537285 -0.017227083 0.68856019
-0.004306396 0.012304008 0.68854702
0 -0.016064048 0.68918669
0.011763455 -0.012691304 0.6894958
-0.00062014471 0.013023049 0.6897409
0.0084119178 -0.015578911 0.69046831
-0.016169474 -0.012438029 0.6901654
-0.016169474 -0.012438029 0.6901654
0.0015585218 0.010598123 0.6905309
0.0031095364 0.010572463 0.69016647
-0.00062171812 0.011190921 0.69012082
0.0043994938 -0.016340971 0.69175792
0.012530049 -0.0093975067 0.69127584
-0.014442633 -0.0015700012 0.69162303
-0.0044024722 0.013207436 0.69186056
0.011363152 -0.011677936 0.69243068
-0.014572938 -0.0076032281 0.69299078
-0.013585122 -0.004423067 0.69257188
-0.015435195 -0.0037800521 0.6921227
-0.013561169 -0.0034693256 0.69230282
-0.0094925957 0.011391133 0.69280577
-0.0019082505 -0.013993829 0.69358891
0.010490533 -0.012398541 0.69352245
-0.015536132 -0.0076095164 0.69311666
-0.016539441 -0.0069974363 0.69360065
0.0015997223 -0.015353918 0.69447315
0.0015997223 -0.015353918 0.69447315
-0.0031938413 -0.012775332 0.69423705
-0.014045776 0.010215104 0.69415885
0.0073673297 0.016336337 0.69468915
0.0090988167 -0.012348384 0.69692826
0.011231978 -0.0036344379 0.69953299
0.0053000227 0.016562581 0.69996709
0.0092844572 -0.010610789 0.70012945
0.010032535 -0.0086948574 0.70149601
-0.0093443096 0.015351355 0.70116162
0.010748085 -0.0060457885 0.70220089
-0.0013484689 0.0155074 0.70279932
-0.0013546303 -0.012191653 0.70354307
0.0074556116 -0.010844499 0.70365608
0.0061196703 -0.011559367 0.70418245
-0.0054496462 0.01703018 0.70448238
-0.018564047 -0.0055004358 0.70601571
-0.01789079 0.0020643473 0.70614856
0.0048505249 0.019402117 0.70731342
0.0083614402 -0.0076646209 0.70824397
-0.016054749 0.014658719 0.70854473
-0.011515487 0.016400516 0.7085126
-0.0014089436 -0.010567039 0.71009928
0.0063792528 -0.0085056722 0.71114564
0.0070895338 -0.0077984929 0.71118128
0.0014318124 -0.01002267 0.71285981
-0.0014457529 -0.0093973875 0.71454263
0.0058032707 -0.0072540641 0.71515393
-0.0036334463 0.018893927 0.71546304
-0.0036334463 0.018893927 0.71546304
0.0014552837 0.019646347 0.715693
0.0058493572 -0.0065805316 0.71654475
-0.018342 0.0051357448 0.71715075
-0.020695282 -0.0036955774 0.71846342
0.0026031528 -0.0074397326 0.71963561
-0.0015211661 -0.0068452656 0.72364581
0.0023057736 -0.0053801239 0.72557902
0.0023057736 -0.0053801239 0.72557902
-0.017102133 0.021377653 0.7464658
-0.011967489 0.02478984 0.74639672
-0.017380238 0.022594333 0.74982274
-0.0096213073 0.02711463 0.75118738
-0.001783347 0.027641863 0.75529379
-0.019800143 0.023400187 0.75730556
-0.017458357 0.027565837 0.76185739
-0.0073264367 0.030221552 0.76111954
-0.014796306 0.029592633 0.76328379
-0.0120293 0.030535936 0.76341933
-0.023449119 0.022511154 0.76646948
-0.010643362 0.033865243 0.77361882
0 -0.00049707294 0.66003215
0.0091823852 0.0012055226 0.6603933
-0.002050017 2.9802322e-08 0.66375422
-0.0041716676 -0.026072949 0.66591597
0.020221863 -0.0072591305 0.66520399
-0.0010430142 0.0026067994 0.66586697
-0.006308875 -0.01892662 0.66694951
-0.010053231 -0.014948457 0.66776502
0.020557279 -0.0079066455 0.66728032
-0.0086810794 -0.003020823 0.66746187
-0.0086810794 -0.003020823 0.66746187
0.01529631 0.0013987025 0.66662765
0.012899335 0.0029086713 0.66698956
0.0049827313 0.0049827788 0.66664022
-0.0053345589 -0.021075949 0.66883636
-0.0093325805 -0.0031995475 0.66877389
0.013172391 0.0043317876 0.66808069
0.00094833079 -0.026559409 0.67088723
0.00094833079 -0.026559409 0.67088723
0.020912807 0.00074145943 0.67031521
-0.010945628 0.0028953752 0.67105246
0.0090831118 -0.027250666 0.67293704
0.0090831118 -0.027250666 0.67293704
-0.0022003725 -0.024204105 0.67282903
-0.0089555727 -0.023103489 0.67292792
-0.0089555727 -0.023103489 0.67292792
0.0075452747 0.0068102283 0.67332262
0.011311624 0.010484114 0.67323983
0.0032583538 -0.026432678 0.67484736
0.020180058 -0.016738361 0.67473471
0.020701978 -0.013334414 0.67510319
0.025545562 -0.0094407201 0.67409527
-0.0079093119 0.0056495368 0.67641592
-0.0051175673 0.0089565963 0.67729723
0.016737208 -0.022572398 0.67857325
0.016737208 -0.022572398 0.67857325
-0.008199363 0.0064736009 0.67892611
0.010634914 0.012071446 0.67880118
0.0096514504 0.012576088 0.68123758
0.012568289 -0.022622854 0.68281639
-0.0032592826 -0.021625832 0.6830675
-0.0056518055 -0.016956434 0.68365991
0.019158289 -0.013135945 0.68308198
-0.012961942 0.0058917999 0.68226516
0.0010227257 -0.023093721 0.68522447
0.005706206 0.010213882 0.68507451
0.0089842221 -0.021013657 0.68707359
0.013211672 -0.01911764 0.68701231
0.015002347 -0.013033038 0.68636668
-0.0060659465 0.0121319 0.68646967
-0.0060659465 0.0121319 0.68646967
0.0027745999 -0.017060693 0.68890929
0.012297238 -0.012297213 0.6884656
-0.0064579546 0.012608811 0.68851233
-0.0010845205 0.012707919 0.68968093
-0.014748233 -0.0010984987 0.69153601
0.0028089639 0.012694801 0.69074094
-0.00094811071 -0.01483871 0.6924758
0.0093126884 -0.013757299 0.69332236
0.012070898 -0.0092114955 0.69340229
-0.010585615 0.011227399 0.69491076
-0.0089712907 0.012815337 0.69472349
0.0044958089 0.013487458 0.69507962
0.015785106 0.01282686 0.6988107
0.0028443323 -0.01338625 0.70161128
-0.011374059 0.013381273 0.70155066
-0.017821845 -0.0029137135 0.70550835
-0.010306017 0.016489655 0.70589757
-0.0010398747 -0.011419803 0.70713782
-0.015814256 0.013751566 0.70602036
0.006929487 0.020095557 0.70731735
-0.0045977365 -0.008839637 0.71076536
0.0035541942 -0.0099517107 0.71163642
-0.014643556 0.015715182 0.71247828
0.0065288702 -0.0065288544 0.71515906
-0.015248064 0.016702294 0.71534133
0.0058535696 0.022682607 0.71667182
-0.015736669 0.02447927 0.75108963
-0.0008698951 0.026096851 0.750036
-0.014959064 0.025518417 0.75246221
-0.015118771 0.031182468 0.76814938
0.0024762852 0.00012397394 0.65962303
-0.0064347759 -0.010109858 0.66052657
0.014046397 0.001843902 0.66585267
0.0018759087 -0.027095336 0.67007601
-0.012342658 -0.0099261906 0.66958046
0.0018581565 0.0069028437 0.66821659
-0.0095246341 -0.022902668 0.67325914
0.01829432 -0.022389513 0.6741519
-0.0062621152 0.0062152236 0.67388678
0.010055388 0.0098531228 0.67427921
-0.0024158806 -0.022971712 0.67845792
-0.0058959192 -0.013933172 0.68323076
0.018055631 0.0092230998 0.6859535
0.012241416 -0.0060000438 0.69356883
-0.014095351 -0.0026014247 0.69230223
-0.011589603 0.011590734 0.69765007
-0.0019374811 0.015170511 0.70280385
-0.014004333 0.01765741 0.71642101
-0.0021850779 0.026611939 0.75066006
-0.019800143 0.023400187 0.75730556
-0.0089362618 0.031982869 0.76712298
-0.0061749602 0.032308519 0.76943552
