# .PCD v0.7 - Point Cloud Data file format
VERSION 0.7
FIELDS x y z
SIZE 4 4 4
TYPE F F F
COUNT 1 1 1
WIDTH 289
HEIGHT 1
VIEWPOINT 0 0 0 1 0 0 0
POINTS 289
DATA ascii
0.0040067425 -0.0080135167 0.66093892
0.0008313604 -0.0026610098 0.66048229
0.00049795234 0.00049870543 0.66042465
0.00074989657 0.005250901 0.66076154
0.0062943459 -0.010322578 0.66158974
0.0073425919 -0.012406856 0.66227818
0.0045626978 -0.011153251 0.66241729
0.0040529994 -0.010639101 0.6623348
0.010568898 -0.01448978 0.66348445
0.012552381 -0.014601886 0.66371393
0.01069865 -0.013755411 0.66301918
0.00051235466 0.0081976652 0.6637181
0.00051235466 0.0081976652 0.6637181
0.0061192019 0.012238443 0.66313356
0.0084351078 0.015591651 0.66343451
0.012531564 0.015600443 0.66350842
0.0015484113 -0.0087743104 0.66463125
-0.00051427772 -0.0046284795 0.66418236
-0.0015460323 0.0012884438 0.66443986
-0.0015483061 0.0023226142 0.66462278
0.016358746 0.016358724 0.66474038
0.016341718 -0.015563324 0.66526878
-0.0020838513 -0.0005209446 0.66579634
0.018446464 0.016368099 0.6654703
0.016331472 0.017108962 0.66519022
0.003523435 -0.012333056 0.66762543
0.021116937 -0.01267013 0.66747677
0.024536207 -0.01240012 0.66741085
-0.0034309204 -0.0055425167 0.66746128
-0.0034281844 -0.0013185292 0.66735202
0 0.010586202 0.66781151
0.0034282131 0.01371558 0.66737986
0.013710677 0.015292674 0.66733444
-0.0013280686 -0.013545677 0.6682685
-0.0015906724 -0.0079533458 0.66803217
0.029583558 -0.0045307651 0.66871059
0.030437639 0.0034709871 0.66894221
-0.0010647982 0.011446685 0.66855729
0.027112758 0.012227356 0.66836983
-0.00053443061 -0.016032904 0.66904771
0.0016027248 -0.012821764 0.66900206
0.031062383 0.003481254 0.66931999
-0.0026716108 0.0090834796 0.66902155
0.010500052 -0.016153917 0.67002141
0.025943236 -0.010269195 0.67050916
0.027525129 -0.0086353123 0.67032188
0.029631685 -0.0013467371 0.67009246
0.029695217 0.00027005374 0.67037129
0.028692123 0.0056839436 0.67072082
0.0085074017 -0.019367516 0.67112058
0.0083224997 -0.018634718 0.67105901
0.015544726 -0.013636187 0.67170751
-0.0070641143 -0.0092376769 0.67121154
0.022571955 0.01328817 0.67186302
0.020131562 0.014146507 0.67138124
0.0083233044 0.018636655 0.67107213
0.013145588 -0.016979724 0.67225915
0.025213199 -0.010414153 0.672351
0.026306601 -0.0093168914 0.67233676
0.028568842 -0.0024719536 0.67266178
0.026636727 0.0085132718 0.67261791
0.02442031 0.011524215 0.67250979
0.013427376 0.018633664 0.67233533
0.01996799 -0.01220265 0.67393303
0.01633841 0.019661695 0.67373449
0.017476521 0.020527959 0.67396748
-0.0050151017 0.013930827 0.67455286
0.020254254 0.013502806 0.67585284
0.02370612 -0.017497361 0.67629051
0.022582246 -0.010162026 0.67632067
0.025519963 -0.0085066557 0.67693728
-0.0050765183 0.013537437 0.67620027
0.021111188 -0.010840863 0.67777318
0.027322261 0.0025613457 0.67744505
-0.0056826714 0.0036941618 0.67721653
0.029140262 0.014855832 0.67796755
0.027805833 0.015605345 0.67702317
0.025898185 -0.0046041012 0.6789664
0.025190989 0.0080153048 0.67824394
-0.0040029744 0.0091496706 0.67808241
0.026030459 0.0052061081 0.67967606
0.018445266 0.01383394 0.67918354
0.0034884638 -0.020349354 0.6803897
0.0034884638 -0.020349354 0.6803897
0.019493325 -0.011346146 0.68050241
0.020889606 0.012185603 0.68011361
-0.0046894834 -0.014068395 0.6815424
0.013431869 -0.013431847 0.68101346
0.022826647 -0.0099500716 0.68132836
-0.0087738652 -0.0040944517 0.681238
-0.0056385417 -0.01454106 0.68330908
0.0077200681 -0.011283129 0.68339312
0.017792674 -0.011861801 0.68320918
0.004756371 -0.0071345568 0.68356097
0.025488392 -0.0014817417 0.68312806
0.0057298536 0.011459351 0.68312204
0.0095344624 0.013407618 0.68388867
0.013200553 -0.011700273 0.68488359
0.0095972214 -0.0092970282 0.68483567
0.0095972214 -0.0092970282 0.68483567
0.022736553 -0.0089749396 0.68447447
-0.0090052551 -0.0030017495 0.68496215
0.020388309 0.011393487 0.6847946
0.017989002 0.013191938 0.68478906
0.0042049373 -0.017420411 0.68504786
0.01242614 -0.010421763 0.68518257
0.01538376 -0.010557219 0.6856699
0.021725824 -0.0096559227 0.6857214
0.024657734 -0.0024056137 0.6852175
0.024781607 -0 0.68594694
0.018393882 0.012664974 0.68562436
0.023079688 -0.0054662228 0.68665445
0.023079688 -0.0054662228 0.68665445
0.023732513 0.0054767132 0.68693596
0.023732513 0.0054767132 0.68693596
0.01758597 0.010612071 0.68642575
-0.0079113645 0.016431302 0.68694568
-0.0054986128 -0.012830049 0.68752277
0.017383125 -0.0054893941 0.68727583
0.022319447 -0.002445966 0.68765211
0.02051641 0.001531072 0.68787873
0.022334147 0.0024475902 0.68774933
0.016455047 0.0076179355 0.68715811
0.017372539 0.0076193959 0.68718612
0.021618895 0.0085257888 0.68704641
0.018390082 0.0030650496 0.68801671
0.012881601 0.009201169 0.68811488
0.012881601 0.009201169 0.68811488
-0.0076727672 0.012583509 0.68821859
0.0030859739 -0.017281443 0.6890288
-0.0074476111 -0.014274597 0.68985915
0.015439193 -0.0055581033 0.6891188
-0.011149908 -0.0037166476 0.68957067
-0.013290644 -0.0035302341 0.69042993
-0.011613785 -0.003317982 0.6902281
-0.011557356 -0.0015616864 0.69084656
0.0084058661 0.0099627674 0.69035113
-0.0075508403 -0.01195547 0.69193596
0.013807053 -0.0062758923 0.69153917
-0.011259018 -0.00062552094 0.69103408
-0.011260153 0.0025022626 0.69104928
-0.0084917387 0.0034596995 0.69188625
0.015367677 0.0065864772 0.69145882
0.016431209 -0.002527833 0.69259572
-0.012594267 -0.00062969327 0.69205093
-0.0075630019 0.0066176355 0.69218063
0.01459487 -0.0035684109 0.69663203
0.015601239 -0.00065001845 0.69696105
0.011664791 0.0084245801 0.6964764
0.012388899 -0.0058684051 0.69744289
0.013049223 -0.0052196681 0.69754279
0.013049223 -0.0052196681 0.69754279
0.014521911 0.0036299527 0.6993838
0.013935942 -0.0026544631 0.7002359
0.012596103 0.0066295564 0.70007575
0.013406026 -0.0026811957 0.70184982
0.014069162 -0.00066995621 0.70176744
-0.017536428 -0.0047213137 0.70285815
-0.010857954 -0.012893796 0.70385861
-0.017591266 -0.0033828914 0.70336729
-0.015591713 0.0023726821 0.70368445
-0.013577639 0.01357764 0.70392144
0.012295209 0.0047815144 0.70493174
-0.012609191 0.0085198805 0.70457482
-0.012994318 0.012310416 0.70513558
0.012454448 0.0020757616 0.70706749
0.0091422293 0.0070325136 0.70980388
-0.014567407 0.012435555 0.71158361
0.010704366 -0.00071361661 0.71230888
0.0079689166 0.0065200329 0.71492171
-0.019701865 -0.0021890998 0.71618962
-0.017515859 0.013866782 0.71622068
0.0081498092 -0.0022226572 0.7188918
0.0088620922 0.0022155344 0.71831626
0.0074347258 0.00520432 0.71951497
0.0068377638 0.0037987828 0.723445
0.0068377638 0.0037987828 0.723445
0.0068696677 -0.00076329708 0.72430086
0.0068857325 0.00038270652 0.72473174
0.0053414558 0.0061045587 0.72424495
0.0047297468 -0.0015765727 0.73033512
0.0040132557 0.0016053319 0.73380184
-0.025654083 0.0025654137 0.74647284
-0.023173194 0.0068661571 0.74722862
-0.025124557 0.0086636543 0.74918354
-0.025124557 0.0086636543 0.74918354
-0.027403904 -0.0044199824 0.7534405
-0.033670224 -0.0028859973 0.77227366
0.0049157427 0.012226891 0.66174877
0.0070081763 0.014654297 0.66306973
0.0013820624 -0.0088106599 0.66513324
0.019265069 -0.01330772 0.66685504
-0.0051449956 -0.0085752606 0.66742408
0 -0.0075874776 0.66634583
-0.0049872114 -0.002921171 0.66731322
-0.0044925027 0.00079280883 0.66761374
0.00068398321 0.011013485 0.66724825
0.00068398321 0.011013485 0.66724825
0.003708683 0.014304936 0.66793263
-0.0055106394 -0.0010676384 0.66874886
0.0047055958 0.015273124 0.66864508
0.010786341 -0.016905323 0.67131186
0.027755182 0.0073463619 0.67141092
0.019082153 -0.012672804 0.67306411
0.021177508 0.013477281 0.67282832
0.022778057 -0.010340028 0.6749723
0.027967364 0.0033557217 0.67506313
0.028224256 0.0026908964 0.67451584
0.018729191 0.014254466 0.67499006
0.015389431 0.020425931 0.67512637
-0.0090852398 -0.0088026524 0.67711043
-0.0044579231 -0.015099004 0.67888534
0.024619669 -0.0087571517 0.67865837
0.026770081 0.0030221604 0.67901731
0.019196939 -0.011401063 0.68118232
-0.0072696684 -0.0026172847 0.68042254
0.026135491 -0.0026131421 0.68023956
0.024934394 0.0070712492 0.68084013
-0.0067108083 0.013713613 0.68091005
0.017976085 0.013916999 0.68001866
-0.0076668952 -0.0023590028 0.68240571
-0.0066162683 -0.01503697 0.68523455
0.017100541 -0.011258376 0.68539804
0.0090439105 -0.009017529 0.68477017
0.010853718 -0.0090065179 0.68531984
0.010853718 -0.0090065179 0.68531984
0.022632737 -0.0071086586 0.68509072
0.022632737 -0.0071086586 0.68509072
-0.010787195 -0.0051916838 0.6847285
0.022506431 0.0090023503 0.6849218
0.017537363 -0.01028049 0.68602109
0.023004433 0.0067554386 0.68695557
0.013465002 -0.006574899 0.69121432
-0.012941007 -0.0012639612 0.6924175
0.017072434 0.00094842911 0.69267845
0.014876135 0.0066470802 0.69285285
0.01045399 0.0095046759 0.69299996
0.015388432 -0.0014092773 0.69701022
0.014226328 0.0027785352 0.70103431
0.0090082129 0.0090086609 0.70113242
-0.016788431 -0.0087299943 0.7021482
-0.016870551 -0.0030808186 0.70330286
-0.011082415 -0.011593461 0.7046665
-0.015117644 0.014430493 0.70592123
-0.015117644 0.014430493 0.70592123
0.0072570117 0.0089867264 0.70691568
0.0106121 -0.0024753362 0.71082389
0.009937264 0.0053224564 0.71138674
0.0070625586 0.0084750652 0.71053004
0.0061780284 -0.00077223778 0.72646326
0.0061780284 -0.00077223778 0.72646326
-0.026959999 0.0043483973 0.74998343
-0.031595025 0.0032532215 0.76436925
-0.033849221 0.0058027506 0.77350825
-0.033925325 -0.0038771629 0.77403331
-0.0017631836 -0.0058650658 0.66675949
0.029439166 0.0059753987 0.66974664
-0.0016537406 -0.016537398 0.6731075
0.022112811 -0.013917483 0.67424464
0.026704734 -0.0061225616 0.67420238
0.0027618171 0.020204633 0.67368495
0.024592284 0.009296475 0.67736053
0.024592284 0.009296475 0.67736053
0.02459803 -0.005444482 0.68162173
0.024230711 0.008174628 0.68099082
0.014057275 0.01497524 0.68180859
0.01160957 -0.0079433918 0.68754047
-0.0076892395 -0.0012045428 0.68562484
0.024498988 -0.0019987915 0.68585271
-0.0036827719 -0.010434508 0.68820804
0.0097944457 -0.0080894344 0.6902529
0.013483204 0.0085927723 0.68971062
-0.0076727672 0.012583509 0.68821859
-0.0070888558 0.0085065924 0.69215131
-0.015330011 -0.0088034272 0.69749296
0.011405911 0.0072133765 0.70204788
0.012800456 0.005513336 0.70181763
-0.013110823 -0.013973756 0.70486462
-0.012768205 -0.01113816 0.705513
-0.011407744 0.009874776 0.7044431
-0.0088916114 -0.02000612 0.71891016
0.0085333558 -0.0018728662 0.71792907
0.0082058692 -0.00074598193 0.72012222
-0.024014669 0.012452036 0.7547527
-0.031480152 0.001157321 0.76355362
-0.031343445 0.0060814023 0.76590431
-0.030400302 0.01013439 0.7693783
-0.032801572 -0.0057885051 0.77293658
-0.030238446 0.01268065 0.77551532
