# .PCD v0.7 - Point Cloud Data file format
VERSION 0.7
FIELDS x y z
SIZE 4 4 4
TYPE F F F
COUNT 1 1 1
WIDTH 1288
HEIGHT 1
VIEWPOINT 0 0 0 1 0 0 0
POINTS 1288
DATA ascii
-0.0066265501 -0.013726413 0.6542955
-0.0066203633 -0.014186472 0.65418881
-0.0066149621 -0.014647424 0.65409571
-0.006612049 -0.015113235 0.65404546
-0.0066106832 -0.015582323 0.65402192
-0.0066133072 -0.016060889 0.65406716
-0.0066170674 -0.016542643 0.65413201
-0.0066215168 -0.017026752 0.65420872
-0.0066269832 -0.017514169 0.65430301
-0.0066336887 -0.018005729 0.65441865
-0.0066424389 -0.018503934 0.65456951
-0.0066514486 -0.019004107 0.65472484
-0.0066621248 -0.019510508 0.65490896
-0.0066744275 -0.020023286 0.65512115
-0.0066877143 -0.020540833 0.65535027
-0.006704323 -0.021070689 0.65563667
-0.0067273164 -0.021623522 0.65603316
-0.0067583648 -0.022206038 0.65656859
-0.011663891 0.034094423 0.7566334
-0.011342371 0.032282174 0.75066245
-0.011056039 0.03061673 0.74534506
-0.01078798 0.029044598 0.740367
-0.010532514 0.027546585 0.7356227
-0.010302806 0.026153296 0.73135686
-0.010310378 0.02537939 0.73149753
-0.010378556 0.024748862 0.73276365
-0.0097030541 0.022391707 0.72021896
-0.0097050555 0.021649778 0.72025609
-0.0097230207 0.020941913 0.72058976
-0.0097358879 0.020220697 0.72082877
-0.0097479057 0.019495815 0.72105181
-0.0097575914 0.018764615 0.7212317
-0.0097687338 0.018034607 0.72143865
-0.0097799003 0.01730296 0.72164607
-0.0097887591 0.016565591 0.72181058
-0.0091580208 0.014793754 0.71009719
-0.0090854466 0.013977647 0.70874947
-0.0090922136 0.013288647 0.70887506
-0.0091026565 0.0126037 0.70906907
-0.0091048218 0.011906356 0.70910919
-0.0090782521 0.011173218 0.70861584
-0.0089402255 0.010315686 0.70605254
-0.0088171279 0.0094953775 0.70376652
-0.0087019317 0.0087019503 0.70162725
-0.0085905557 0.0079298019 0.69955885
-0.0084826006 0.0071776211 0.69755405
-0.0083793756 0.0064457059 0.69563705
-0.0082786633 0.0057314038 0.69376677
-0.0081802839 0.0050340295 0.69193977
-0.0080860108 0.0043540299 0.690189
-0.0080698021 0.0037245452 0.68988806
-0.008097752 0.0031145215 0.6904071
-0.0081099356 0.0024953485 0.6906333
-0.0081132269 0.0018723011 0.69069445
-0.0076567065 0.0011779666 0.68221647
-0.0075782468 0.00058296323 0.68075943
-0.0075020511 2.9802322e-08 0.67934442
-0.0074283737 -0.00057139993 0.67797613
-0.0073566088 -0.0011318028 0.67664343
-0.0072865705 -0.0016815066 0.67534274
-0.0072183139 -0.0022209883 0.67407513
-0.0071521397 -0.0027507842 0.6728462
-0.0070877904 -0.0032712817 0.67165118
-0.0070257685 -0.003783077 0.67049944
-0.0069651669 -0.0042862296 0.66937399
-0.0069056228 -0.0047807992 0.6682682
-0.0068470878 -0.0052669644 0.66718113
-0.0067902715 -0.0057456195 0.66612601
-0.0067355554 -0.0062174201 0.66510987
-0.0066831969 -0.0066832006 0.6641376
-0.0066316272 -0.0071417391 0.66317987
-0.0065808659 -0.0075933039 0.66223717
-0.0065308758 -0.0080380142 0.66130883
-0.0064816023 -0.0084759295 0.66039377
-0.0064344229 -0.0089091957 0.65951765
-0.0063899676 -0.0093391538 0.658692
-0.0063461228 -0.0097632706 0.6578778
-0.0063028755 -0.010181546 0.65707469
-0.006260213 -0.010594159 0.65628237
-0.0062181074 -0.011001259 0.65550041
-0.0061775106 -0.011404634 0.65474653
-0.0061556902 -0.01183787 0.65434134
-0.0061376905 -0.012275368 0.65400702
-0.0061288797 -0.012729198 0.6538434
-0.0061200941 -0.013181746 0.65368026
-0.00611461 -0.013640285 0.6535784
-0.0061136498 -0.01410839 0.65356052
-0.0061126901 -0.014576405 0.65354276
-0.0061127567 -0.015046775 0.65354395
-0.0061138486 -0.015519768 0.65356433
-0.0061154873 -0.01599434 0.65359473
-0.0061183036 -0.016472369 0.65364701
-0.0061230478 -0.016956121 0.6537351
-0.0061288797 -0.017443746 0.65384346
-0.0061352062 -0.017933697 0.65396094
-0.0061425646 -0.01842767 0.65409756
-0.0061505605 -0.018924803 0.65424603
-0.0061588627 -0.019424081 0.65440017
-0.0061687198 -0.019929707 0.65458328
-0.0061789132 -0.020437956 0.65477258
-0.0061934171 -0.020962298 0.65504193
-0.0062083649 -0.021490484 0.65531951
-0.0062252716 -0.02202788 0.65563345
-0.0062440657 -0.022574693 0.65598249
-0.0062703281 -0.023151994 0.65647024
-0.0063108006 -0.023786813 0.65722185
-0.010574765 0.032605529 0.75277263
-0.010145876 0.030437648 0.74414396
-0.0098974342 0.028867543 0.73914576
-0.0096645411 0.02738288 0.73446029
-0.0094409883 0.02596274 0.72996283
-0.0092276661 0.024607152 0.72567105
-0.0090300636 0.023327678 0.72169566
-0.0089178924 0.0222947 0.71943891
-0.0089451363 0.021617413 0.71998703
-0.0089712339 0.020932883 0.72051203
-0.0084499605 0.019012451 0.71002483
-0.008376929 0.018150002 0.70855552
-0.0083590271 0.017414659 0.70819533
-0.0084731756 0.016946375 0.7104919
-0.008483002 0.016259134 0.71068954
-0.0084200986 0.015436858 0.70942402
-0.0083839018 0.014671862 0.70869589
-0.0083884224 0.013980687 0.70878679
-0.0083980523 0.013296932 0.70898056
-0.0084077045 0.012611598 0.70917469
-0.0084150005 0.011921257 0.7093215
-0.0084105534 0.011214107 0.70923203
-0.0083758514 0.010469824 0.70853388
-0.0080580106 0.0094010234 0.70213938
-0.0079512466 0.0086138844 0.69999146
-0.0078486046 0.0078486204 0.69792652
-0.0077501051 0.0071042776 0.69594485
-0.0076538506 0.0063782036 0.69400835
-0.0075600403 0.0056700408 0.69212103
-0.0074711777 0.0049808025 0.69033325
-0.0073843799 0.0043075383 0.68858701
-0.0072995764 0.003649801 0.68688089
-0.0072205472 0.0030085742 0.68529093
-0.0074798088 0.0024932623 0.69050694
-0.0070614568 0.0017653704 0.68209028
-0.0069870288 0.0011645257 0.68059289
-0.0069149327 0.00057628751 0.67914248
-0.0068444894 -0 0.6777252
-0.0067761489 -0.0005646646 0.67635036
-0.0067096781 -0.0011182725 0.67501307
-0.0066452194 -0.0016613007 0.67371625
-0.006582818 -0.0021942854 0.67246079
-0.0065219859 -0.002717495 0.67123699
-0.0064622876 -0.003231138 0.67003596
-0.0064039282 -0.0037356019 0.66886187
-0.0063473284 -0.0042315423 0.66772312
-0.00629267 -0.0047195256 0.66662347
-0.0062398221 -0.0051998496 0.66556031
-0.0061880383 -0.0056723356 0.66451848
-0.006137107 -0.0061371028 0.66349381
-0.0060870075 -0.0065942407 0.66248584
-0.0060378588 -0.0070441663 0.66149712
-0.0059907716 -0.0074884593 0.66054976
-0.0059458874 -0.007927835 0.65964681
-0.0059016543 -0.0083606839 0.65875685
-0.0058580912 -0.0087871253 0.65788043
-0.005815166 -0.0092073083 0.65701687
-0.0057728495 -0.0096213818 0.65616548
-0.0057311603 -0.010029525 0.65532678
-0.0056930059 -0.010437161 0.6545592
-0.0056700446 -0.010867566 0.6540972
-0.0056522894 -0.011304557 0.65374005
-0.0056418576 -0.011753827 0.65353012
-0.0056326967 -0.01220414 0.65334582
-0.00562815 -0.012663335 0.65325439
-0.005625295 -0.013125688 0.65319693
-0.0056228521 -0.013588518 0.65314782
-0.005621973 -0.014054894 0.65313011
-0.0056218212 -0.014523029 0.65312707
-0.0056236712 -0.014996439 0.65316433
-0.0056266766 -0.015473336 0.65322471
-0.0056297914 -0.015951067 0.65328741
-0.0056336857 -0.01643157 0.65336573
-0.005638272 -0.016914785 0.653458
-0.0056433389 -0.017400265 0.65355998
-0.0056489352 -0.017888248 0.65367258
-0.0056553865 -0.018380016 0.65380234
-0.0056627444 -0.018875808 0.65395033
-0.0056701219 -0.01937291 0.65409881
-0.0056790491 -0.019876659 0.6542784
-0.005688129 -0.020382464 0.65446109
-0.0056985766 -0.020894796 0.65467131
-0.0057095634 -0.021410853 0.65489233
-0.0057211579 -0.021931112 0.65512556
-0.0057340926 -0.022458524 0.65538585
-0.0057515884 -0.02300635 0.65573776
-0.0057728337 -0.023572385 0.65616524
-0.0057956865 -0.024148643 0.65662497
-0.0058429046 -0.024832338 0.65757495
-0.0090212123 0.028703868 0.7380169
-0.0088067427 0.027220845 0.73330986
-0.0086052567 0.025815785 0.72888774
-0.0084108934 0.024468035 0.72462201
-0.0082240198 0.023176759 0.72052056
-0.0080672773 0.022001714 0.71708047
-0.0081550609 0.021499723 0.71900713
-0.0077423449 0.019707829 0.70994902
-0.0076427381 0.018759459 0.70776296
-0.007641485 0.018061697 0.70773542
-0.0076502026 0.017386854 0.70792675
-0.0076589403 0.01671043 0.70811856
-0.0076682521 0.016033649 0.70832288
-0.0076765688 0.015353173 0.70850545
-0.0076853358 0.014672011 0.70869792
-0.0076941852 0.013989449 0.70889211
-0.0077030552 0.013305306 0.70908678
-0.0077119144 0.012619495 0.70928121
-0.0077208248 0.011932194 0.70947671
-0.0077275685 0.011240125 0.70962477
-0.0077252258 0.010534436 0.70957333
-0.0073186485 0.0093146265 0.7006501
-0.0072205137 0.0085333288 0.69849622
-0.0071260645 0.007773906 0.69642335
-0.0070348829 0.0070348978 0.69442213
-0.0069467886 0.0063152611 0.69248867
-0.0068624988 0.0056147575 0.69063878
-0.006780134 0.0049310327 0.68883097
-0.0066997227 0.0042634904 0.6870662
-0.006622849 0.0036124587 0.68537903
-0.0065484145 0.0029765666 0.68374538
-0.0064756344 0.0023548007 0.6821481
-0.0064047547 0.0017467439 0.68059242
-0.0063361875 0.0011520386 0.67908752
-0.0062698955 0.00057002902 0.67763263
-0.0062056207 2.9802322e-08 0.67622197
-0.0061434205 -0.00055849552 0.67485684
-0.0060826871 -0.0011059046 0.6735239
-0.006023162 -0.0016426444 0.67221749
-0.0059653493 -0.0021692216 0.67094868
-0.0059092753 -0.0026859939 0.66971797
-0.0058550881 -0.0031936765 0.66852868
-0.0058024852 -0.0036924779 0.66737425
-0.0057509225 -0.0041824877 0.66624254
-0.0057002511 -0.0046638548 0.66513044
-0.0056505157 -0.0051368475 0.6640389
-0.0056022964 -0.0056022704 0.66298062
-0.0055560404 -0.0060611069 0.66196537
-0.0055112252 -0.006513238 0.66098177
-0.0054671429 -0.0069581568 0.66001433
-0.00542376 -0.0073960423 0.65906221
-0.0053810603 -0.0078269541 0.65812504
-0.0053390278 -0.0082511902 0.65720248
-0.0052983812 -0.008670032 0.65631044
-0.0052600708 -0.009085536 0.6554696
-0.0052222963 -0.0094950497 0.65464056
-0.0051949411 -0.009917587 0.65404022
-0.005174391 -0.010348767 0.65358913
-0.00516304 -0.010795444 0.65334004
-0.0051535442 -0.011244088 0.65313166
-0.005148144 -0.011700302 0.65301311
-0.0051440145 -0.012158573 0.65292251
-0.005140915 -0.012618572 0.65285444
-0.0051386063 -0.01308009 0.65280378
-0.0051390487 -0.013548374 0.65281349
-0.0051402096 -0.014018744 0.65283895
-0.0051418971 -0.014490783 0.65287602
-0.0051435856 -0.01496315 0.65291303
-0.0051458152 -0.015437424 0.65296197
-0.0051489347 -0.015914887 0.65303051
-0.0051535168 -0.016397536 0.65313101
-0.0051584966 -0.01688233 0.65324032
-0.0051637376 -0.017368942 0.65335536
-0.0051693385 -0.01785773 0.65347826
-0.0051753018 -0.018348783 0.65360916
-0.005181869 -0.018843174 0.65375328
-0.0051884674 -0.019338787 0.65389812
-0.0051957318 -0.019838244 0.65405756
-0.005203187 -0.020339727 0.65422118
-0.0052112173 -0.020844877 0.65439743
-0.0052196151 -0.021352977 0.65458173
-0.0052299709 -0.021870792 0.654809
-0.0052417624 -0.022396594 0.6550678
-0.0052540116 -0.022926569 0.65533662
-0.005267668 -0.023465067 0.65563637
-0.0052831187 -0.024014145 0.65597546
-0.0053059421 -0.024600267 0.65647638
-0.0053322944 -0.025207162 0.65705472
-0.0079638893 0.027077258 0.73229003
-0.0077781649 0.025667965 0.72780627
-0.0076041659 0.024333358 0.72360557
-0.0074352985 0.023049444 0.71952879
-0.007275261 0.02182579 0.7156651
-0.0071263495 0.02066642 0.71207005
-0.0069845631 0.019556791 0.70864701
-0.006943556 0.018747628 0.70765704
-0.0069510848 0.018072873 0.70783877
-0.0069590476 0.017397612 0.70803106
-0.0069670291 0.016720891 0.7082237
-0.0069750287 0.01604256 0.70841688
-0.0069830189 0.01536265 0.70860976
-0.0069910553 0.01468125 0.70880377
-0.0069990815 0.013998151 0.70899761
-0.0070071551 0.013313621 0.70919245
-0.007015219 0.012627423 0.70938712
-0.0070233298 0.011939675 0.70958298
-0.007031431 0.011250317 0.70977855
-0.0066891029 0.010033667 0.70151401
-0.0065982067 0.009237498 0.69931954
-0.0065191765 0.008474946 0.69741166
-0.0064228689 0.0077074468 0.69508654
-0.0063377242 0.0069714785 0.69303095
-0.0062575103 0.0062575042 0.6910944
-0.0061881053 0.005569309 0.68941879
-0.0061050826 0.004884094 0.68741453
-0.0060333372 0.0042233765 0.68568242
-0.0059632594 0.0035780072 0.68399054
-0.0058948104 0.0029474199 0.682338
-0.0058286577 0.0023314655 0.68074095
-0.0057652164 0.0017295778 0.67920941
-0.0057031414 0.0011406243 0.67771077
-0.0056426828 0.00056430697 0.67625117
-0.0055836895 2.9802322e-08 0.67482698
-0.0055265846 -0.00055265427 0.67344832
-0.0054713772 -0.0010942519 0.6721155
-0.0054180049 -0.0016253889 0.67082697
-0.0053660125 -0.0021463633 0.66957176
-0.0053150565 -0.0026575029 0.66834158
-0.0052650431 -0.0031589866 0.66713417
-0.005216354 -0.0036514699 0.66595864
-0.0051693567 -0.0041354895 0.66482413
-0.0051241359 -0.0046117008 0.66373235
-0.005079892 -0.0050798655 0.66266423
-0.0050363918 -0.0055400133 0.661614
-0.0049936441 -0.005992353 0.66058201
-0.0049516018 -0.006437093 0.659567
-0.0049106083 -0.0068748295 0.65857732
-0.0048718178 -0.0073077083 0.65764081
-0.0048339176 -0.0077342689 0.65672588
-0.0047966028 -0.0081541836 0.65582496
-0.0047598467 -0.0085677207 0.65493757
-0.0047265277 -0.0089803636 0.6541332
-0.0047032409 -0.0094064772 0.65357101
-0.0046911128 -0.0098513365 0.65327823
-0.0046807867 -0.010297716 0.65302896
-0.0046733329 -0.010748655 0.65284896
-0.0046684355 -0.011204243 0.65273076
-0.0046647 -0.011661738 0.65264058
-0.0046618963 -0.012120903 0.65257287
-0.0046613584 -0.01258564 0.65255988
-0.0046617338 -0.013052851 0.65256894
-0.0046621342 -0.013520151 0.65257865
-0.0046625845 -0.01398772 0.6525895
-0.0046653892 -0.01446268 0.65265721
-0.004668674 -0.014939725 0.65273649
-0.0046720258 -0.015417665 0.65281743
-0.0046759369 -0.015898168 0.65291178
-0.0046799798 -0.016379923 0.65300947
-0.0046844091 -0.016863853 0.65311641
-0.0046890872 -0.017349631 0.65322936
-0.0046941675 -0.017837822 0.65335202
-0.0046995133 -0.018328071 0.65348101
-0.0047054063 -0.018821627 0.65362334
-0.0047113779 -0.019316614 0.65376747
-0.0047179158 -0.019815266 0.6539253
-0.0047246767 -0.020316094 0.6540885
-0.0047319476 -0.020820588 0.65426409
-0.0047395639 -0.021328032 0.65444791
-0.0047474252 -0.021838129 0.65463775
-0.0047558984 -0.022352725 0.65484232
-0.0047645718 -0.022869915 0.65505165
-0.0047755074 -0.023400009 0.65531576
-0.0047884327 -0.023942143 0.65562773
-0.0048024235 -0.024492323 0.65596551
-0.0048187538 -0.025057524 0.65635979
-0.0048432294 -0.025669098 0.65695065
-0.0048877443 -0.026393801 0.65802538
-0.0081134662 0.030650914 0.75766516
-0.0069759255 0.025578439 0.7271511
-0.0068063028 0.024200201 0.72260106
-0.0066559911 0.022926182 0.71856904
-0.0065117679 0.021705896 0.71470028
-0.0063761831 0.020545483 0.71106333
-0.0062567522 0.019465476 0.70785964
-0.0062527242 0.018758208 0.70775151
-0.0062598833 0.018084139 0.70794356
-0.0062670591 0.01740852 0.70813608
-0.0062742261 0.016731292 0.70832837
-0.0062814346 0.016052574 0.70852172
-0.0062886346 0.015372247 0.70871484
-0.0062958766 0.014690369 0.70890909
-0.0063031097 0.014006943 0.70910311
-0.0063103847 0.013321936 0.70929825
-0.0063176514 0.01263532 0.70949316
-0.0063249604 0.011947125 0.70968926
-0.0060603963 0.010774076 0.70259237
-0.0059738471 0.0099564493 0.70027077
-0.0059061754 0.0091873705 0.69845557
-0.0058825337 0.0084969699 0.69782138
-0.005734493 0.0076459944 0.69385022
-0.0056565744 0.0069136024 0.69176006
-0.0055980473 0.0062201023 0.69019008
-0.0055858679 0.0055858791 0.68986344
-0.0055010696 0.0048898458 0.68758869
-0.0053933128 0.0041947961 0.68469822
-0.0053177066 0.0035451055 0.68267012
-0.0052569914 0.002920568 0.68104142
-0.0051978538 0.0023101866 0.67945504
-0.0051400494 0.0017133653 0.67790449
-0.0050835819 0.0011297166 0.67638981
-0.0050299438 0.00055891275 0.67495096
-0.0049774414 2.9802322e-08 0.67354256
-0.0049262876 -0.00054734945 0.6721704
-0.0048762956 -0.0010835826 0.67082942
-0.0048273532 -0.001609087 0.66951656
-0.0047801868 -0.0021245182 0.66825134
-0.0047346931 -0.002630353 0.66703093
-0.0046905642 -0.0031270385 0.66584724
-0.0046472913 -0.0036145449 0.66468644
-0.0046047959 -0.0040931404 0.66354656
-0.0045630839 -0.0045630634 0.6624276
-0.0045223692 -0.0050248504 0.66133547
-0.0044835061 -0.0054798126 0.66029298
-0.0044458611 -0.0059278011 0.65928322
-0.0044088303 -0.0063682795 0.65828985
-0.0043724244 -0.0068015456 0.65731323
-0.0043366021 -0.0072276592 0.65635234
-0.0043013738 -0.0076468885 0.65540731
-0.0042667715 -0.008059442 0.65447921
-0.0042411834 -0.0084823668 0.6537928
-0.0042227311 -0.0089146495 0.65329784
-0.0042120046 -0.0093600154 0.65301013
-0.004202371 -0.0098055005 0.65275168
-0.0041975877 -0.010260731 0.6526233
-0.0041931188 -0.010715753 0.65250349
-0.0041890745 -0.011170864 0.65239501
-0.0041880086 -0.011633337 0.6523664
-0.0041875262 -0.012097269 0.65235341
-0.004187033 -0.012561083 0.65234017
-0.0041872687 -0.013027042 0.65234649
-0.0041896021 -0.013499796 0.6524092
-0.0041919383 -0.013973117 0.65247184
-0.0041946373 -0.014448166 0.6525442
-0.0041975765 -0.014924675 0.65262306
-0.0042005307 -0.01540193 0.65270233
-0.004204303 -0.015882909 0.65280342
-0.0042089317 -0.016368032 0.65292764
-0.0042136842 -0.016854733 0.65305507
-0.0042185499 -0.017342895 0.65318567
-0.0042235181 -0.017832607 0.65331888
-0.0042286008 -0.018323928 0.65345532
-0.0042338106 -0.018816888 0.65359497
-0.0042391019 -0.019311458 0.65373695
-0.0042445678 -0.019807994 0.65388358
-0.0042500943 -0.020305991 0.65403175
-0.0042557972 -0.020806134 0.65418482
-0.0042615738 -0.021307886 0.65433979
-0.0042677382 -0.021812886 0.65450507
-0.0042753466 -0.022326797 0.65470922
-0.004283193 -0.022843719 0.65491968
-0.0042916224 -0.023365468 0.65514576
-0.0043002972 -0.023890525 0.65537846
-0.0043102074 -0.024424493 0.6556443
-0.0043236515 -0.024981081 0.65600497
-0.0043378412 -0.025545031 0.65638554
-0.0043582628 -0.026149541 0.65693337
-0.0043870476 -0.026809752 0.65770555
-0.0072303913 0.030729175 0.75822115
-0.0072114463 0.029747218 0.75764942
-0.0061445432 0.024578184 0.72545278
-0.0058853463 0.022805721 0.7176308
-0.0057581193 0.021593004 0.71379137
-0.0056366199 0.02043277 0.71012479
-0.005558488 0.019454747 0.70776701
-0.0055614463 0.01876989 0.70785624
-0.0055677956 0.018095344 0.70804787
-0.0055741821 0.017419338 0.70824057
-0.0055805608 0.016741693 0.70843303
-0.0055869762 0.016062558 0.70862663
-0.0055933842 0.015381843 0.70882004
-0.0055998294 0.014699578 0.70901459
-0.0056062671 0.014015704 0.70920885
-0.0056127422 0.013330281 0.70940423
-0.0056192093 0.012643248 0.70959938
-0.005437749 0.011555225 0.70412338
-0.0053499439 0.010699898 0.70147353
-0.0052873609 0.0099138021 0.69958496
-0.005267662 0.0092184544 0.69899046
-0.0052537639 0.0085373819 0.69857109
-0.0050570075 0.0075855255 0.69263345
-0.004988383 0.0068590641 0.69056249
-0.0049752225 0.0062190294 0.6901654
-0.0049771289 0.0055992901 0.69022292
-0.0049723391 0.0049723387 0.69007838
-0.0049109529 0.0042970777 0.68822587
-0.004686811 0.0035151243 0.68146175
-0.0046322332 0.0028951764 0.67981476
-0.0045795008 0.0022897422 0.67822343
-0.0045287372 0.0016982853 0.67669153
-0.004479202 0.0011198223 0.67519665
-0.0044308943 0.00055384636 0.67373884
-0.004383618 2.9802322e-08 0.67231214
-0.0043383413 -0.00054228306 0.67094576
-0.004294375 -0.0010735989 0.66961896
-0.0042515509 -0.001594305 0.66832662
-0.0042096488 -0.0021048188 0.66706216
-0.0041685775 -0.0026053786 0.66582274
-0.0041284468 -0.0030963123 0.6646117
-0.0040899357 -0.0035786927 0.66344947
-0.0040528695 -0.0040528774 0.66233093
-0.0040165037 -0.0045185685 0.66123343
-0.0039807959 -0.0049759746 0.66015589
-0.0039457064 -0.005425334 0.65909696
-0.003911241 -0.0058668554 0.65805691
-0.0038776102 -0.0063010752 0.65704203
-0.0038458402 -0.0067301989 0.65608323
-0.0038146707 -0.0071525276 0.65514266
-0.003784002 -0.0075680017 0.65421712
-0.0037616862 -0.0079935789 0.65354371
-0.0037471128 -0.0084309876 0.65310389
-0.0037369272 -0.0088751912 0.65279651
-0.003729607 -0.0093240142 0.65257561
-0.0037246696 -0.0097772479 0.6524266
-0.0037200339 -0.010230035 0.65228671
-0.0037179941 -0.010689259 0.65222514
-0.0037168704 -0.011150599 0.65219122
-0.0037157475 -0.0116117 0.65215737
-0.0037153999 -0.012075037 0.65214688
-0.0037169997 -0.01254487 0.65219516
-0.0037186008 -0.013015091 0.65224349
-0.0037205918 -0.01348713 0.65230358
-0.0037226644 -0.013959974 0.6523661
-0.0037256682 -0.01443696 0.65245676
-0.0037295672 -0.014918268 0.65257436
-0.0037334743 -0.015400559 0.65269232
-0.0037374899 -0.01588434 0.65281355
-0.0037416252 -0.016369611 0.65293831
-0.0037458001 -0.016856104 0.65306431
-0.0037501561 -0.017344415 0.65319574
-0.0037545427 -0.017834067 0.65332806
-0.0037590817 -0.018325508 0.65346509
-0.0037637032 -0.018818498 0.65360451
-0.0037683973 -0.019313037 0.65374625
-0.0037732669 -0.019809633 0.65389323
-0.0037781596 -0.0203076 0.65404081
-0.0037832605 -0.020807922 0.65419477
-0.0037884063 -0.021309763 0.65435004
-0.0037936694 -0.021813571 0.65450883
-0.0037990513 -0.022319406 0.65467125
-0.0038045107 -0.022827059 0.654836
-0.0038104455 -0.023339003 0.65501511
-0.0038182128 -0.023863822 0.65524948
-0.0038263907 -0.024393201 0.65549636
-0.0038349212 -0.02492699 0.65575379
-0.0038453082 -0.025475144 0.65606719
-0.0038591241 -0.026049078 0.65648413
-0.003874724 -0.026638716 0.65695488
-0.0039006046 -0.027304232 0.65773594
-0.0063787564 0.03189382 0.7600202
-0.0063332808 0.030761659 0.75845176
-0.0063294899 0.029839039 0.75832105
-0.0062187347 0.028428495 0.75450128
-0.005623546 0.024904281 0.73397392
-0.0050153947 0.021494567 0.71299952
-0.0049085328 0.020335346 0.70931405
-0.0048642606 0.019457042 0.7077871
-0.0048692855 0.018781543 0.70796037
-0.0048748679 0.018106669 0.70815295
-0.0048804432 0.017430186 0.70834523
-0.0048860312 0.016752124 0.70853794
-0.0048916521 0.016072601 0.70873177
-0.0048972857 0.015391499 0.70892608
-0.0049028927 0.014708668 0.7091195
-0.0049083941 0.014023989 0.70930922
-0.0049136295 0.013337016 0.70948976
-0.0049198912 0.012651175 0.70970577
-0.0047236746 0.011471778 0.70293844
-0.0046615172 0.010654926 0.7007947
-0.0046436111 0.009950608 0.70017719
-0.0046312679 0.0092625618 0.69975144
-0.0046189902 0.0085781515 0.69932801
-0.004391551 0.0075283945 0.69148391
-0.0043445332 0.0068271458 0.68986237
-0.0043496764 0.0062138438 0.69003975
-0.0043578749 0.0056030154 0.69032246
-0.004360375 0.0049833059 0.69040871
-0.004117677 0.0041176677 0.68203837
-0.0040684449 0.0034872591 0.68034041
-0.0040206821 0.0028719306 0.67869306
-0.0039742999 0.0022710562 0.67709345
-0.0039293566 0.00168401 0.67554343
-0.00388594 0.0011102855 0.67404604
-0.0038441524 0.0005491972 0.6726048
-0.0038032543 2.9802322e-08 0.67119431
-0.0037633337 -0.00053760409 0.66981745
-0.003724345 -0.0010640919 0.66847283
-0.0036866027 -0.0015799701 0.66717112
-0.0036503081 -0.0020858645 0.66591936
-0.0036149574 -0.0025820732 0.66470015
-0.0035803269 -0.0030688643 0.66350579
-0.0035463641 -0.0035463572 0.66233444
-0.0035130293 -0.0040148795 0.66118479
-0.0034806444 -0.0044750869 0.66006786
-0.0034498388 -0.0049283206 0.6590054
-0.0034197278 -0.0053738654 0.65796697
-0.0033901283 -0.0058116317 0.65694612
-0.0033610461 -0.0062419176 0.6559431
-0.0033324498 -0.0066648722 0.65495682
-0.0033043625 -0.0070807338 0.65398812
-0.0032858993 -0.0075106025 0.65335137
-0.0032741602 -0.0079515278 0.65294653
-0.0032649832 -0.0083957016 0.65263003
-0.0032591559 -0.008846283 0.65242904
-0.0032543852 -0.0092982352 0.65226448
-0.0032504015 -0.0097511709 0.65212703
-0.0032488212 -0.010210544 0.65207255
-0.0032474245 -0.010670066 0.65202439
-0.0032463756 -0.011130422 0.65198827
-0.0032471297 -0.011596918 0.65201426
-0.0032481616 -0.012064606 0.65204984
-0.003249533 -0.012533903 0.65209711
-0.0032509316 -0.013003737 0.65214539
-0.003253828 -0.013480097 0.65224522
-0.0032570609 -0.013958812 0.6523568
-0.0032603091 -0.01443848 0.6524688
-0.003263704 -0.014919788 0.65258586
-0.0032671234 -0.015402108 0.65270382
-0.0032707523 -0.015886515 0.65282899
-0.0032747772 -0.016373843 0.65296775
-0.0032788122 -0.016862452 0.65310693
-0.0032828569 -0.017352253 0.65324646
-0.0032869119 -0.017843217 0.65338624
-0.0032909678 -0.018335402 0.65352619
-0.0032950426 -0.018828809 0.65366668
-0.0032991276 -0.019323438 0.65380758
-0.0033032228 -0.019819289 0.65394878
-0.0033073281 -0.020316422 0.6540904
-0.0033114436 -0.020814776 0.65423238
-0.0033155694 -0.021314353 0.65437466
-0.003319805 -0.021815836 0.65452075
-0.0033245243 -0.02232179 0.65468347
-0.0033293297 -0.022829682 0.65484923
-0.003334268 -0.023339868 0.65501952
-0.0033392664 -0.023851871 0.6551919
-0.003344418 -0.024366438 0.65536958
-0.0033519582 -0.024900258 0.65562963
-0.0033597276 -0.025437921 0.65589762
-0.00336799 -0.025981605 0.65618259
-0.0033802157 -0.026558816 0.65660417
-0.00339378 -0.027150214 0.65707201
-0.0034168647 -0.027823031 0.65786821
-0.0054363962 0.031712294 0.75876844
-0.005432968 0.030786812 0.75863051
-0.0054323734 0.02987808 0.75860661
-0.0053466936 0.028515726 0.75515902
-0.0052018156 0.026876062 0.74932963
-0.0048191571 0.024095803 0.73393267
-0.0041978257 0.020289481 0.70893222
-0.0041714851 0.019466966 0.70787233
-0.0041762651 0.018793225 0.70806468
-0.0041810558 0.018117905 0.7082575
-0.0041858405 0.017441034 0.70844996
-0.0041906531 0.016762614 0.70864362
-0.0041954601 0.016082615 0.70883709
-0.0042002951 0.015401095 0.70903158
-0.0042046322 0.014716238 0.7092061
-0.0042056162 0.014018714 0.70924568
-0.0042070928 0.013322502 0.70930511
-0.0040905066 0.012271523 0.70461404
-0.0040310621 0.011421382 0.70222211
-0.0040101423 0.010693729 0.70138049
-0.0039994186 0.00999856 0.70094895
-0.0039887368 0.0093070865 0.70051908
-0.0039781118 0.0086192489 0.7000916
-0.003740119 0.0074802935 0.69051552
-0.0037055644 0.0067935288 0.68912518
-0.0037148083 0.0061913729 0.68949711
-0.0037316841 0.0055975318 0.69017613
-0.0037393947 0.0049858987 0.69048643
-0.0035035417 0.0040874779 0.68099642
-0.00346114 0.0034611821 0.67929024
-0.0034200775 0.0028501153 0.67763805
-0.0033805261 0.0022537112 0.67604661
-0.0033420289 0.001671046 0.6744976
-0.0033044931 0.0011015236 0.67298728
-0.0032681494 0.00054472685 0.67152494
-0.0032330779 -0 0.6701138
-0.0031993205 -0.00053322315 0.66875547
-0.0031662609 -0.0010554194 0.66742527
-0.0031338774 -0.0015669167 0.6661222
-0.0031022604 -0.0020681322 0.66485006
-0.0030713924 -0.0025594532 0.66360807
-0.0030419938 -0.0030419827 0.6624251
-0.0030133615 -0.0035156012 0.66127306
-0.0029852891 -0.0039803982 0.66014349
-0.0029577264 -0.0044365525 0.65903449
-0.0029306761 -0.0048844218 0.65794611
-0.002904108 -0.0053241849 0.65687704
-0.0028787407 -0.0057574809 0.65585637
-0.0028542657 -0.0061841905 0.65487152
-0.0028303652 -0.0066041946 0.65390986
-0.0028139914 -0.0070349574 0.65325105
-0.0028038565 -0.0074769258 0.65284324
-0.0027952178 -0.0079197586 0.65249562
-0.0027905111 -0.008371532 0.65230626
-0.0027862373 -0.0088230968 0.6521343
-0.0027831204 -0.0092770755 0.65200889
-0.0027815013 -0.0097352564 0.65194374
-0.0027800696 -0.010193557 0.65188611
-0.0027794691 -0.010654598 0.65186191
-0.0027801439 -0.011120588 0.65188909
-0.0027810191 -0.01158756 0.65192437
-0.0027818948 -0.012054861 0.65195954
-0.0027840419 -0.012528151 0.65204597
-0.0027866766 -0.013004452 0.65215194
-0.0027893314 -0.013481736 0.65225875
-0.002792103 -0.01396051 0.65237033
-0.0027950678 -0.014441162 0.6524896
-0.0027984895 -0.014925271 0.65262729
-0.002801927 -0.015410572 0.65276557
-0.0028053808 -0.015897125 0.65290451
-0.0028088277 -0.01638481 0.65304327
-0.0028122908 -0.016873717 0.65318263
-0.0028157625 -0.017363846 0.65332234
-0.0028192427 -0.017855197 0.65346229
-0.0028227239 -0.018347681 0.65360236
-0.0028262213 -0.018841475 0.65374315
-0.0028297198 -0.019336402 0.65388387
-0.0028332423 -0.019832671 0.65402561
-0.002836766 -0.020330131 0.65416735
-0.0028402982 -0.020828813 0.65430951
-0.0028438393 -0.021328747 0.65445197
-0.0028473816 -0.021829933 0.65459454
-0.0028509402 -0.02233234 0.65473771
-0.0028545081 -0.022836059 0.6548813
-0.0028583042 -0.023342788 0.65503407
-0.0028626057 -0.023855031 0.6552071
-0.0028670384 -0.024369776 0.65538549
-0.0028715164 -0.024886459 0.65556562
-0.0028767544 -0.025411308 0.65577638
-0.0028839253 -0.025955319 0.65606493
-0.0028911401 -0.026502103 0.65635526
-0.0029012952 -0.027078748 0.65676391
-0.0029134178 -0.027677447 0.65725166
-0.0029349832 -0.028371483 0.65811938
-0.0045292201 0.031704575 0.75871485
-0.0045302594 0.030805767 0.75876504
-0.0045315595 0.029908329 0.75882781
-0.004472231 0.028622299 0.75596321
-0.0043443637 0.026935071 0.74978918
-0.0040336428 0.02420187 0.73478615
-0.0040116985 0.023267895 0.73372668
-0.0035002457 0.019601405 0.70903158
-0.0034825369 0.018805712 0.70817649
-0.0034863667 0.01812911 0.70836145
-0.003490373 0.017451882 0.70855486
-0.0034943747 0.016773015 0.70874804
-0.0034983994 0.016092628 0.70894241
-0.0035024192 0.015410662 0.70913655
-0.0035040721 0.014717102 0.70921636
-0.0034983854 0.013993531 0.70894176
-0.0034488556 0.013105661 0.70655024
-0.0033920107 0.012211263 0.70380551
-0.0033671088 0.011448205 0.7026031
-0.0033580232 0.010745674 0.70216447
-0.0033489869 0.010046989 0.70172817
-0.0033399991 0.0093520284 0.70129418
-0.0033310596 0.0086607635 0.70086253
-0.0030989756 0.007437557 0.68965656
-0.0030727545 0.0067600608 0.68839049
-0.0030816386 0.0061632991 0.68881941
-0.0030975942 0.0055756867 0.6895898
-0.0029362768 0.0046980381 0.68180072
-0.0028995911 0.0040594339 0.68002939
-0.002864179 0.0034370124 0.67831957
-0.0028297417 0.0028297603 0.67665672
-0.0027965363 0.0022372305 0.67505348
-0.002764418 0.0016586781 0.67350268
-0.002733459 0.0010933876 0.6720078
-0.0027032446 0.00054064393 0.67054898
-0.0026736911 2.9802322e-08 0.66912198
-0.0026450343 -0.00052899122 0.66773832
-0.0026174269 -0.0010469556 0.66640532
-0.0025908765 -0.0015545189 0.66512334
-0.0025648517 -0.0020518601 0.66386676
-0.0025393446 -0.0025393367 0.66263515
-0.0025143402 -0.0030172169 0.66142786
-0.0024899228 -0.0034858882 0.66024888
-0.0024665354 -0.0039464533 0.65911961
-0.0024439546 -0.0043991208 0.65802932
-0.0024217903 -0.004843533 0.65695912
-0.0024000176 -0.0052800179 0.65590787
-0.0023786395 -0.0057087243 0.65487564
-0.0023576519 -0.0061298907 0.65386224
-0.0023437275 -0.0065624416 0.65318996
-0.0023349456 -0.0070047975 0.65276587
-0.0023277502 -0.0074487925 0.65241849
-0.0023236531 -0.007900387 0.65222067
-0.002319657 -0.0083507597 0.65202773
-0.0023171697 -0.0088052154 0.65190756
-0.002315681 -0.0092627108 0.65183574
-0.0023142805 -0.0097199678 0.65176809
-0.0023141019 -0.010182023 0.65175945
-0.002314521 -0.01064676 0.65177971
-0.002315033 -0.011112154 0.65180445
-0.0023161564 -0.011580765 0.65185869
-0.0023182456 -0.012054861 0.65195954
-0.0023203634 -0.012529939 0.65206182
-0.0023225534 -0.0130063 0.65216756
-0.002325071 -0.013485432 0.65228915
-0.0023279185 -0.013967514 0.6524266
-0.002330773 -0.014450788 0.65256441
-0.0023336282 -0.014935195 0.65270227
-0.002336503 -0.015420914 0.65284109
-0.0023393787 -0.015907764 0.65297997
-0.0030051372 -0.021035969 0.68512565
-0.0029865811 -0.021503389 0.68422967
-0.0029554274 -0.021870136 0.68272543
-0.0027660641 -0.021022052 0.67358214
-0.0027281451 -0.021279484 0.67175126
-0.0026980054 -0.021584034 0.67029595
-0.0026728848 -0.021917611 0.66908306
-0.0026477594 -0.022241175 0.66786987
-0.0026235373 -0.022562385 0.66670036
-0.0026014831 -0.022893012 0.66563547
-0.0025811226 -0.023230076 0.66465241
-0.0023744327 -0.021844804 0.6546725
-0.0023774025 -0.022347569 0.65481591
-0.0023803797 -0.022851646 0.65495968
-0.0023833578 -0.023356855 0.65510345
-0.00238635 -0.023863465 0.65524793
-0.0023895535 -0.024373442 0.6554026
-0.0023932995 -0.024890304 0.65558344
-0.0023971498 -0.025409758 0.65576935
-0.0024010658 -0.025931478 0.65595841
-0.0024069669 -0.026476622 0.65624338
-0.00241342 -0.027030289 0.65655494
-0.0024215472 -0.027605593 0.65694737
-0.0024328185 -0.028220654 0.65749162
-0.0024515556 -0.028928339 0.6583963
-0.0036252476 0.031720936 0.75882781
-0.0036264583 0.0308249 0.75890088
-0.003628958 0.029938966 0.75905168
-0.0036020412 0.028816342 0.75742722
-0.0034872631 0.027026296 0.75049973
-0.0032269438 0.024202079 0.73478806
-0.0032219319 0.02335903 0.73448551
-0.0032147034 0.022502929 0.73404926
-0.0028614083 0.019314498 0.712726
-0.0027910871 0.018142074 0.70848173
-0.0027940385 0.01746276 0.70865989
-0.0027972437 0.016783476 0.70885336
-0.0028004677 0.016102672 0.70904791
-0.0028036877 0.015420318 0.70924222
-0.0028035068 0.014718413 0.70923138
-0.0027939149 0.01396963 0.70865238
-0.0027480214 0.013053119 0.70588255
-0.002714287 0.012214303 0.70384645
-0.0027068756 0.011504233 0.70339912
-0.002699536 0.010798156 0.7029562
-0.0026922363 0.010095924 0.7025156
-0.0026849762 0.0093974471 0.70207739
-0.0026777547 0.0087027252 0.70164156
-0.0024651187 0.0073953569 0.68880785
-0.0024462796 0.0067272782 0.68767083
-0.0024541931 0.0061355233 0.68814838
-0.0023647922 0.0053208172 0.68275261
-0.0023343922 0.0046687722 0.6809178
-0.0023048476 0.0040335059 0.67913461
-0.0022763025 0.0034144819 0.67741179
-0.0022488197 0.0028110147 0.67575306
-0.0022221487 0.0022221804 0.67414331
-0.0021962214 0.0016471744 0.67257845
-0.0021711765 0.001085639 0.67106682
-0.0021470282 0.00053673983 0.66960937
-0.0021237161 -0 0.6682024
-0.0021009047 -0.00052520633 0.66682559
-0.0020785783 -0.0010392964 0.66547805
-0.0020568126 -0.0015425682 0.66416436
-0.0020359096 -0.002035886 0.66290283
-0.0020158188 -0.0025197566 0.66169018
-0.0019961209 -0.0029941499 0.66050124
-0.0019768039 -0.003459394 0.65933543
-0.0019578573 -0.0039157271 0.65819192
-0.0019392758 -0.0043633878 0.6570704
-0.0019213518 -0.0048033893 0.65598863
-0.0019042257 -0.0052365959 0.65495491
-0.0018873969 -0.005662173 0.65393925
-0.0018754322 -0.0060951412 0.65321708
-0.0018677054 -0.0065369308 0.65275073
-0.0018614569 -0.006980449 0.65237361
-0.0018577297 -0.0074308813 0.65214866
-0.0018545421 -0.0078817904 0.65195632
-0.0018524707 -0.008336097 0.65183127
-0.0018510447 -0.00879246 0.6517452
-0.0018497489 -0.0092487335 0.651667
-0.0018497932 -0.0097114146 0.65166962
-0.0018500197 -0.010175079 0.65168333
-0.0018503054 -0.01063925 0.65170056
-0.001851602 -0.01110962 0.65177882
-0.0018532315 -0.011582673 0.65187716
-0.0018548935 -0.012056768 0.65197748
-0.001856747 -0.012533009 0.65208936
-0.0018590169 -0.013013095 0.65222633
-0.0018612923 -0.013494372 0.65236372
-0.0018635733 -0.013976812 0.65250134
-0.00186586 -0.014460415 0.65263939
-0.0024100959 -0.019280732 0.68548685
-0.0024096363 -0.01987949 0.68545926
-0.0024063573 -0.020454019 0.68526131
-0.0024010527 -0.021009177 0.68494111
-0.0023867865 -0.021481067 0.68408006
-0.0023674669 -0.021899074 0.68291402
-0.0023470065 -0.022296578 0.68167913
-0.0023255181 -0.022673786 0.68038219
-0.0023026178 -0.023026139 0.67900002
-0.0022774886 -0.023344249 0.67748338
-0.0021283014 -0.022347152 0.66847908
-0.0021039578 -0.022617579 0.66700989
-0.0020829705 -0.022912651 0.66574311
-0.0020631938 -0.023210913 0.66454959
-0.0020529542 -0.023608983 0.66393149
-0.0020483492 -0.024068117 0.66365361
-0.0019055937 -0.022867113 0.65503752
-0.0019079847 -0.023372799 0.65518183
-0.0019103817 -0.023879766 0.65532649
-0.0019127845 -0.024387985 0.65547156
-0.0019151936 -0.024897516 0.65561694
-0.0019180586 -0.025414258 0.65578985
-0.0019211818 -0.025935948 0.65597832
-0.0019244058 -0.026460558 0.65617287
-0.0019289247 -0.027004898 0.65644562
-0.001934299 -0.027563781 0.65677005
-0.0019413561 -0.028149635 0.65719599
-0.0019504227 -0.028768748 0.65774316
-0.0019719799 -0.029579699 0.65904427
-0.0027210363 0.031745434 0.75899684
-0.0027215194 0.030843884 0.75903571
-0.0027242505 0.029966772 0.75925553
-0.0027185811 0.028998226 0.7587992
-0.0024438456 0.025253087 0.73669028
-0.0024210061 0.024210095 0.73485219
-0.0024221085 0.023413718 0.73494101
-0.0024213435 0.02259922 0.73487943
-0.0022577506 0.02031979 0.7217145
-0.0021939522 0.019014299 0.71658039
-0.0020973166 0.017477632 0.70880377
-0.0020992425 0.016793966 0.70895875
-0.0021016635 0.016112745 0.70915359
-0.0021038945 0.015428573 0.70933306
-0.0021030286 0.014721215 0.70926344
-0.0020926262 0.013950855 0.70842624
-0.0020541521 0.013009638 0.70533019
-0.0020391159 0.012234718 0.70412016
-0.0020386772 0.011552513 0.70408487
-0.0020345866 0.010851145 0.70375568
-0.0020290662 0.010145366 0.70331138
-0.0020235674 0.0094433427 0.70286888
-0.0020180985 0.0087451339 0.7024287
-0.0018384696 0.0073538721 0.68797338
-0.0018259489 0.0066951513 0.68696582
-0.0018323747 0.0061079264 0.68748283
-0.0017635663 0.0052907169 0.68194562
-0.0017405681 0.0046415031 0.68009484
-0.00171823 0.004009217 0.67829722
-0.0016968223 0.0033936799 0.67657447
-0.0016759955 0.0027933419 0.67489851
-0.0016559632 0.0022079647 0.67328638
-0.0016366249 0.0016366243 0.67173016
-0.0016177783 0.001078546 0.67021346
-0.0015994246 0.00053313375 0.66873652
-0.0015816843 -2.9802322e-08 0.66730893
-0.0015646573 -0.00052151084 0.66593862
-0.0015481446 -0.0010320842 0.66460979
-0.0015319769 -0.0015319586 0.66330874
-0.0015161432 -0.0020215213 0.66203451
-0.0015006381 -0.0025010705 0.66078675
-0.0014857558 -0.00297153 0.65958917
-0.0014714856 -0.0034334362 0.65844077
-0.0014574869 -0.0038866103 0.65731424
-0.0014437521 -0.0043312311 0.65620899
-0.0014302738 -0.0047675669 0.65512431
-0.0014170448 -0.0051957965 0.65405971
-0.0014069919 -0.0056279302 0.65325069
-0.0014007225 -0.0060697794 0.6527462
-0.0013960403 -0.0065148473 0.65236938
-0.0013930218 -0.0069651008 0.65212649
-0.0013903574 -0.0074152052 0.65191209
-0.0013885461 -0.0078684092 0.6517663
-0.0013874336 -0.0083245635 0.65167677
-0.001386367 -0.0087803006 0.651591
-0.0013863597 -0.0092424154 0.65159035
-0.0013864519 -0.0097051263 0.65159774
-0.0013866178 -0.010168523 0.65161115
-0.0013877808 -0.010639638 0.65170473
-0.0013889569 -0.011111647 0.65179938
-0.0013901609 -0.01158464 0.65189624
-0.0013917868 -0.012062132 0.65202713
-0.0013934873 -0.012541384 0.65216398
-0.0013951883 -0.013021737 0.65230083
-0.0013968971 -0.013503313 0.6524384
-0.0018047179 -0.018047154 0.68525726
-0.0018069329 -0.018671632 0.68543547
-0.0018081239 -0.019286662 0.68553132
-0.0018066134 -0.019872725 0.68540978
-0.0018018107 -0.020420521 0.68502331
-0.0017916467 -0.020902514 0.68420529
-0.0017783871 -0.021340609 0.68313831
-0.0017659623 -0.021780193 0.68213844
-0.0017540877 -0.022218436 0.68118286
-0.0017416383 -0.022641301 0.68018103
-0.001728034 -0.023040444 0.67908621
-0.0017137441 -0.023421168 0.6779362
-0.0016987968 -0.023783118 0.67673337
-0.0016830148 -0.024123222 0.67546332
-0.0016657009 -0.024430275 0.67407
-0.0015594842 -0.02339226 0.66552234
-0.001544136 -0.023676753 0.66428721
-0.0015418975 -0.024156392 0.66410708
-0.0015422078 -0.02467531 0.66413206
-0.0014597238 -0.023842156 0.65749425
-0.0014339017 -0.023898333 0.65541625
-0.0014355683 -0.024404645 0.65555036
-0.0014373777 -0.024914533 0.65569597
-0.0014391914 -0.025425702 0.65584195
-0.0014411812 -0.025941283 0.6560021
-0.0014436002 -0.026466012 0.65619671
-0.0014460353 -0.026992649 0.65639269
-0.0014494978 -0.027540445 0.65667129
-0.0014536821 -0.028104484 0.65700805
-0.0014593519 -0.02870056 0.65746433
-0.0014672976 -0.02934593 0.6581037
-0.0018169839 0.03179723 0.75935417
-0.0018151141 0.030856937 0.75912839
-0.0018175351 0.029989332 0.75942063
-0.0018166419 0.029066294 0.75931287
-0.0016231041 0.025158137 0.73595071
-0.0016149041 0.024223596 0.73496097
-0.0016167075 0.023442268 0.73517859
-0.0015256008 0.02135846 0.72418106
-0.0015075376 0.020351797 0.7220006
-0.0015039685 0.019551605 0.72156984
-0.0014948712 0.018685907 0.72047168
-0.0014005273 0.016806364 0.70908332
-0.0014019796 0.016122818 0.70925862
-0.0014033555 0.015436918 0.70942473
-0.0014022851 0.014724016 0.70929551
-0.00139162 0.013916254 0.70800817
-0.0013658712 0.012975812 0.70490003
-0.0013592883 0.012233645 0.70410538
-0.0013609867 0.011568397 0.70431042
-0.0013612267 0.010889828 0.70433933
-0.0013593575 0.010195196 0.70411372
-0.0013556556 0.0094895959 0.70366693
-0.001237793 0.0080456734 0.68943959
-0.0012196536 0.0073179305 0.68725002
-0.001210202 0.0066561401 0.68610907
-0.0011855913 0.0059279799 0.68313831
-0.0011695455 0.0052630007 0.68120134
-0.0011540237 0.0046161115 0.67932773
-0.0011391662 0.0039870739 0.67753428
-0.0011247665 0.0033743382 0.67579609
-0.0011108222 0.0027770698 0.67411286
-0.0010973824 0.002194792 0.67249048
-0.0010843145 0.0016264915 0.6709131
-0.0010718087 0.0010718107 0.66940355
-0.0010596786 0.00052985549 0.66793931
-0.0010478231 -0 0.6665082
-0.0010362517 -0.00051811337 0.66511136
-0.001025066 -0.0010250509 0.6637612
-0.0010143709 -0.0015215576 0.66247016
-0.0010039576 -0.0020079017 0.66121316
-0.00099375588 -0.0024843812 0.65998167
-0.00098375941 -0.0029512644 0.65877497
-0.00097396207 -0.0034088492 0.65759236
-0.00096449448 -0.0038579404 0.65644956
-0.00095547189 -0.0042995811 0.6553604
-0.00094661646 -0.0047330856 0.65429145
-0.0009391862 -0.0051655173 0.65339458
-0.0009341439 -0.0056048632 0.6527859
-0.00093077082 -0.0060500205 0.65237874
-0.00092849508 -0.0064994693 0.65210402
-0.00092671951 -0.0069503486 0.65188968
-0.00092540897 -0.0074032247 0.65173149
-0.00092456682 -0.0078588128 0.65162992
-0.00092372624 -0.0083135068 0.65152836
-0.00092369673 -0.0087750852 0.65152484
-0.0009237164 -0.0092371702 0.65152717
-0.00092384656 -0.0097003877 0.6515429
-0.00092459877 -0.010170579 0.65163374
-0.00092537201 -0.010641754 0.65172702
-0.00092621066 -0.011114508 0.65182829
-0.0009273403 -0.011591733 0.65196466
-0.00092847273 -0.012070119 0.65210128
-0.00092960789 -0.012549698 0.65223837
-0.0012009995 -0.016813964 0.68499815
-0.0012024707 -0.017435819 0.68517584
-0.0012039457 -0.018059164 0.68535388
-0.0012054284 -0.018684119 0.68553287
-0.0012061564 -0.019298524 0.68562078
-0.0012049017 -0.019880891 0.68546927
-0.001201124 -0.020419061 0.68501323
-0.0011917355 -0.020855397 0.68387997
-0.0011809494 -0.021257073 0.68257797
-0.0011709762 -0.02166304 0.68137401
-0.0011621213 -0.022080272 0.68030518
-0.0011535295 -0.022493809 0.67926806
-0.0011457094 -0.022914171 0.6783241
-0.0011382781 -0.023334682 0.67742705
-0.0011304126 -0.023738623 0.67647767
-0.0011219592 -0.024122119 0.67545724
-0.0011130889 -0.024487942 0.67438644
-0.0011038351 -0.024836272 0.67326945
-0.001093869 -0.025158972 0.67206645
-0.0010831923 -0.025454998 0.67077762
-0.0010715344 -0.025716811 0.66937041
-0.0010597659 -0.02596423 0.6679498
-0.001048253 -0.026206315 0.66656005
-0.00096719799 -0.024663508 0.65677589
-0.00095890759 -0.02493161 0.65577519
-0.00096011843 -0.025443137 0.65592134
-0.00096133241 -0.025955945 0.65606785
-0.00096259738 -0.026471436 0.65622056
-0.00096425629 -0.026999146 0.65642077
-0.0009659343 -0.02752915 0.65662336
-0.00096830039 -0.028080702 0.65690899
-0.000971256 -0.028652042 0.65726572
-0.00097557547 -0.029267251 0.65778714
-0.00098275219 -0.029973894 0.65865344
-0.00090705481 0.03083989 0.7590071
-0.00090900529 0.0299972 0.75947797
-0.00090950972 0.029104292 0.75959986
-0.00080952892 0.025095403 0.73546231
-0.00080795528 0.024238676 0.73508239
-0.00080888066 0.023457557 0.73530579
-0.0007584017 0.021235287 0.72311914
-0.00075429241 0.020365894 0.72212708
-0.00075429567 0.019611716 0.7221278
-0.00075355626 0.018838912 0.72194934
-0.00070146244 0.016835093 0.70937276
-0.0007014313 0.016132921 0.70936525
-0.00070210028 0.015446216 0.70952678
-0.0007014228 0.014729917 0.70936322
-0.00069476099 0.013895243 0.70775491
-0.00068152911 0.012949109 0.70456046
-0.00067803147 0.012204587 0.70371604
-0.00068007782 0.011561364 0.70421004
-0.00068122178 0.010899574 0.70448625
-0.00068157725 0.010223657 0.70457208
-0.00068104023 0.0095345676 0.70444238
-0.0006164721 0.0080141425 0.68885428
-0.00060733262 0.0072880089 0.68664783
-0.00059846428 0.0065830946 0.68450683
-0.00059003755 0.0059004128 0.68247247
-0.00058195792 0.005237639 0.68052185
-0.00057414203 0.0045931339 0.67863488
-0.0005666294 0.0039664209 0.67682123
-0.00055935769 0.0033561885 0.67506564
-0.00055241067 0.0027620792 0.67338848
-0.00054566329 0.0021826327 0.67175955
-0.00053909712 0.0016173124 0.6701743
-0.00053275737 0.0010655522 0.66864371
-0.00052662403 0.00052663684 0.66716301
-0.00052074419 -0 0.66574353
-0.00051501556 -0.00051498413 0.66436052
-0.00050941313 -0.0010187626 0.66300797
-0.00050393137 -0.0015117824 0.66168451
-0.00049863488 -0.0019944906 0.66040587
-0.0004935888 -0.0024679303 0.65918761
-0.00048865622 -0.0029318929 0.65799677
-0.0004838212 -0.0033867359 0.65682954
-0.00047908095 -0.0038326085 0.65568519
-0.00047443272 -0.0042698979 0.65456295
-0.00047021967 -0.0047021806 0.65354586
-0.00046737099 -0.0051410496 0.65285808
-0.00046568355 -0.0055882037 0.65245068
-0.00046432321 -0.0060361922 0.65212232
-0.00046334616 -0.0064868331 0.65188646
-0.00046256033 -0.0069383979 0.65169668
-0.00046213955 -0.0073941946 0.65159512
-0.00046171949 -0.0078491867 0.65149367
-0.00046163361 -0.0083093941 0.65147293
-0.00046160296 -0.008770436 0.65146554
-0.00046166306 -0.0092332363 0.65148008
-0.00046203015 -0.0097026229 0.65156871
-0.00046240276 -0.010172844 0.65165865
-0.00046284747 -0.010645449 0.65176606
-0.00046341168 -0.011121869 0.65190226
-0.00046397725 -0.011599422 0.65203875
-0.00061631022 -0.016024083 0.68881524
-0.00060721795 -0.016394883 0.68662012
-0.00060089852 -0.01682514 0.68509448
-0.00060163514 -0.017447382 0.68527234
-0.00060237566 -0.018071264 0.68545115
-0.00060311804 -0.018696636 0.68563032
-0.00060366496 -0.019317269 0.68576241
-0.00060337567 -0.019911379 0.68569249
-0.00060218357 -0.020474225 0.68540466
-0.00059822528 -0.02093786 0.68444908
-0.0005911538 -0.021281511 0.68274188
-0.00058508781 -0.021648228 0.68127745
-0.00057969958 -0.022028536 0.67997658
-0.0005746301 -0.022410572 0.67875272
-0.00056989701 -0.022795886 0.67761004
-0.00056589115 -0.023201555 0.67664295
-0.00056151988 -0.023583829 0.67558765
-0.00055787945 -0.023988783 0.67470878
-0.00055436196 -0.024391919 0.6738596
-0.00055065629 -0.024779558 0.67296499
-0.00054671249 -0.025148749 0.67201281
-0.00054257381 -0.025500953 0.67101365
-0.00053819368 -0.025833279 0.66995621
-0.00053353776 -0.026143342 0.66883218
-0.00052860443 -0.026430219 0.66764116
-0.00052323152 -0.026684821 0.66634405
-0.00048618246 -0.025281459 0.65739959
-0.00048038975 -0.02546066 0.65600109
-0.00048099755 -0.025973856 0.65614784
-0.0004816069 -0.026488364 0.65629494
-0.00048224456 -0.027005672 0.6564489
-0.00048308264 -0.027535707 0.65665126
-0.00048393846 -0.028068423 0.65685785
-0.00048526583 -0.028630674 0.65717828
-0.00048678456 -0.029207051 0.65754491
-0.00048939127 -0.029852867 0.65817428
-0.00049672736 -0.030797094 0.65994531
0 0.030821025 0.75887346
0 0.029965997 0.75924981
0 0.029102951 0.75958949
0 0.0250898 0.73541862
0 0.024253696 0.73520315
0 0.023472071 0.7354269
0 0.021153152 0.72241139
0 0.020383507 0.72228456
0 0.019645572 0.72244227
0 0.018893927 0.7224803
0 0.016849399 0.70951653
0 0.016143084 0.709472
0 0.015455455 0.70962822
0 0.014735729 0.70943022
0 0.013888568 0.7076745
0 0.012935102 0.70438313
0 0.012056142 0.70172507
0 0.011307716 0.70060819
0 0.010887474 0.70430392
0 0.010228455 0.70464957
0 0.0095549524 0.70479381
0 0.0079857409 0.68832648
0 0.007260114 0.68608618
0 0.0065580606 0.68395698
0 0.0058762133 0.68188846
0 0.0052142739 0.67989445
0 0.0045720935 0.67799926
0 0.0039477646 0.67617732
0 0.0033397973 0.67440718
0 0.0027479231 0.67270505
0 0.0021711886 0.67106521
0 0.0016087592 0.669487
0 0.0010598302 0.66795564
0 0.00052374601 0.66646051
0 -0 0.66501451
0 -0.00051191449 0.66362226
0 -0.0010128319 0.66228491
0 -0.0015029609 0.66097653
0 -0.0019827783 0.65969592
0 -0.0024524927 0.6584425
0 -0.0029128492 0.65722871
0 -0.0033648908 0.65607655
0 -0.0038081408 0.65494674
0 -0.004242897 0.65383875
0 -0.0046809614 0.65303409
0 -0.0051264465 0.65253758
0 -0.0055733621 0.65215254
0 -0.0060251057 0.65191656
0 -0.0064757168 0.65169519
0 -0.0069310665 0.65157855
0 -0.0073853433 0.65146172
0 -0.0078445673 0.65142769
0 -0.0083054602 0.6514203
0 -0.0087670088 0.65142179
0 -0.0092354715 0.65150708
0 -0.0097048879 0.65159452
0 -0.010176986 0.65170413
0 -0.010652542 0.65184021
0 -0.0111292 0.65197629
0 -0.015756309 0.69218117
0 -0.016161174 0.69008809
0 -0.016552985 0.68803394
0 -0.016928434 0.68598497
0 -0.017459124 0.68536997
0 -0.018083334 0.68554848
0 -0.018709064 0.685727
0 -0.019335419 0.6858992
