# .PCD v0.7 - Point Cloud Data file format
VERSION 0.7
FIELDS x y z
SIZE 4 4 4
TYPE F F F
COUNT 1 1 1
WIDTH 1297
HEIGHT 1
VIEWPOINT 0 0 0 1 0 0 0
POINTS 1297
DATA ascii
-0.049884763 -0.029343963 0.71713138
-0.049924813 -0.030101746 0.71727347
-0.049974654 -0.030866712 0.7174505
-0.050047908 -0.031647921 0.71771055
-0.05024223 -0.032509655 0.71840048
-0.051616862 -0.0053928196 0.72601599
-0.051528435 -0.0061526299 0.7256974
-0.049863022 -0.0066980124 0.7196964
-0.049511798 -0.0073897839 0.71843076
-0.049397495 -0.0081100464 0.71801895
-0.049498744 -0.0088654757 0.71838379
-0.049566191 -0.0096172988 0.71862686
-0.049594488 -0.010363013 0.71872872
-0.049579069 -0.011099756 0.71867323
-0.049498953 -0.011820644 0.7183845
-0.049423505 -0.012540311 0.71811265
-0.047996771 -0.01289466 0.71297169
-0.047866113 -0.013573945 0.71250087
-0.047767702 -0.014259011 0.71214628
-0.047676142 -0.014943272 0.71181637
-0.047648039 -0.015645593 0.7117151
-0.047706623 -0.016376853 0.71192622
-0.047731273 -0.017097771 0.71201503
-0.047715619 -0.017804295 0.71195859
-0.047670674 -0.018499076 0.71179664
-0.047698218 -0.019221634 0.71189594
-0.047810476 -0.01998049 0.71230042
-0.047951493 -0.020755142 0.71280849
-0.048185121 -0.021575421 0.71365047
-0.048922893 -0.022635937 0.71630877
-0.04892968 -0.023369402 0.71633327
-0.048975792 -0.024122387 0.71649945
-0.048976619 -0.024853796 0.71650243
-0.048976619 -0.025584787 0.71650237
-0.048981152 -0.026318222 0.7165187
-0.048997235 -0.027058154 0.7165767
-0.04901601 -0.027800083 0.71664429
-0.049048644 -0.028550714 0.71676195
-0.049081732 -0.029302537 0.71688116
-0.049130414 -0.030064881 0.71705657
-0.049179401 -0.030828863 0.71723312
-0.049243484 -0.031603992 0.71746397
-0.049316294 -0.03238681 0.71772635
-0.049458992 -0.033218741 0.71824056
-0.050923463 -0.0046293736 0.72629768
-0.050823472 -0.0053903759 0.72593194
-0.050733306 -0.0061494708 0.72560203
-0.048817042 -0.0066568553 0.71859258
-0.048580639 -0.0073606968 0.71772784
-0.048663728 -0.0081105828 0.71803176
-0.048797723 -0.0088723004 0.71852195
-0.04890532 -0.0096328259 0.71891546
-0.048969861 -0.01038754 0.71915162
-0.04899434 -0.011135042 0.71924108
-0.048976552 -0.011873096 0.71917605
-0.048890725 -0.012593031 0.71886218
-0.047121078 -0.012851208 0.71238893
-0.047020599 -0.013536215 0.71202141
-0.046926692 -0.014220148 0.71167785
-0.046865702 -0.014911771 0.71145475
-0.04697071 -0.015656859 0.71183884
-0.047073875 -0.01640448 0.71221626
-0.047133282 -0.017139345 0.71243358
-0.047155183 -0.017861813 0.71251369
-0.047134832 -0.018568248 0.71243924
-0.047068853 -0.01925543 0.7121979
-0.047105011 -0.019983917 0.7123301
-0.047225486 -0.020750612 0.71277082
-0.047323719 -0.02151078 0.71313018
-0.047440805 -0.022282809 0.71355844
-0.048072081 -0.023307651 0.71586758
-0.048059791 -0.024029911 0.71582258
-0.048053749 -0.024754941 0.71580052
-0.048138075 -0.025527775 0.71610904
-0.048172053 -0.026275665 0.71623331
-0.048187837 -0.027014405 0.71629101
-0.048216004 -0.027760714 0.71639407
-0.048248056 -0.028510183 0.71651131
-0.048289917 -0.029266596 0.71666443
-0.048337754 -0.030027986 0.71683943
-0.048394062 -0.0307962 0.71704537
-0.048458483 -0.031571418 0.71728098
-0.048530061 -0.032353371 0.71754283
-0.048611742 -0.033144385 0.71784163
-0.048740059 -0.033970356 0.71831101
-0.050312325 -0.0038701594 0.72689354
-0.050226174 -0.0046362579 0.72657359
-0.050236676 -0.005410105 0.72661257
-0.048124515 -0.005923003 0.71876764
-0.047807708 -0.0066195428 0.71759093
-0.047808722 -0.0073551834 0.71759468
-0.047940034 -0.0081129074 0.71808237
-0.04807207 -0.0088748336 0.7185728
-0.048204832 -0.0096409917 0.71906596
-0.048308145 -0.010404795 0.71944964
-0.048368771 -0.011162013 0.71967483
-0.048390534 -0.011911511 0.71975571
-0.046377007 -0.012129337 0.71227705
-0.046274386 -0.012814403 0.71189594
-0.04618204 -0.013499349 0.71155292
-0.046095703 -0.014183283 0.71123219
-0.0461426 -0.014907628 0.71140647
-0.04627325 -0.015661687 0.71189165
-0.046402544 -0.016419351 0.71237195
-0.046500374 -0.017169356 0.7127353
-0.046556544 -0.017906368 0.71294391
-0.046574399 -0.01862973 0.71301019
-0.046550017 -0.019336134 0.71291965
-0.046480849 -0.020022482 0.7126627
-0.046498459 -0.020745426 0.71272814
-0.046572287 -0.021494895 0.71300238
-0.046625357 -0.022236675 0.7131995
-0.046666205 -0.022974133 0.71335125
-0.046731479 -0.023725182 0.7135936
-0.047236383 -0.024708241 0.71546888
-0.047255557 -0.025445312 0.71554017
-0.047264852 -0.026177436 0.71557462
-0.047373708 -0.026966572 0.71597898
-0.047418267 -0.027721435 0.71614444
-0.047453135 -0.028471857 0.71627402
-0.04750004 -0.029230773 0.71644819
-0.047548641 -0.029992223 0.71662873
-0.047611788 -0.03076452 0.71686327
-0.047675107 -0.031538874 0.71709836
-0.047754943 -0.03232643 0.71739495
-0.047835249 -0.033116698 0.71769321
-0.047932506 -0.03392145 0.71805441
-0.048056114 -0.034748226 0.71851355
-0.04947811 -0.0038654804 0.72666651
-0.049550653 -0.0046453476 0.72694016
-0.047443174 -0.0051890612 0.71899033
-0.047107305 -0.0058884025 0.71772337
-0.046974164 -0.0066057146 0.71722108
-0.047086556 -0.0073572397 0.71764505
-0.047215924 -0.0081152022 0.71813303
-0.047346003 -0.0088773668 0.71862376
-0.047476802 -0.0096437037 0.71911716
-0.047607102 -0.010414034 0.71960866
-0.047706574 -0.011181206 0.71998394
-0.047736477 -0.011934102 0.72009671
-0.045531876 -0.012094378 0.71178055
-0.045438472 -0.012779593 0.71142817
-0.045349702 -0.01346314 0.71109325
-0.045323454 -0.014163554 0.7109943
-0.045446087 -0.014911979 0.71145689
-0.045574799 -0.015666336 0.71194237
-0.045704246 -0.016424924 0.71243072
-0.045831028 -0.017186612 0.71290898
-0.045923591 -0.017938882 0.71325815
-0.045976192 -0.018677831 0.71345657
-0.045989502 -0.019401789 0.71350676
-0.045960419 -0.020107657 0.71339703
-0.045875087 -0.02078712 0.71307516
-0.045837831 -0.021486461 0.71293461
-0.04586222 -0.022214502 0.71302664
-0.045875467 -0.022937745 0.71307659
-0.045879818 -0.023656785 0.71309304
-0.045897812 -0.024383187 0.71316087
-0.045967069 -0.025138229 0.71342212
-0.046464384 -0.02613622 0.71529818
-0.046498969 -0.026882201 0.71542859
-0.046545491 -0.027636379 0.71560407
-0.046659559 -0.028433174 0.71603441
-0.04671229 -0.02919516 0.71623325
-0.046769075 -0.029961407 0.71644747
-0.046831321 -0.030733049 0.71668226
-0.046902634 -0.031512678 0.71695131
-0.046981309 -0.032299638 0.71724808
-0.047069214 -0.033095509 0.7175796
-0.047165453 -0.033900112 0.71794266
-0.047272332 -0.034715593 0.71834588
-0.04740838 -0.035556287 0.71885908
-0.048638783 -0.0030881763 0.72641277
-0.04870718 -0.0038656294 0.72667485
-0.048834093 -0.0046508312 0.72716117
-0.046414118 -0.0051571131 0.71788764
-0.046168804 -0.0058626831 0.71694756
-0.046237458 -0.0066053271 0.71721059
-0.046363983 -0.0073593259 0.71769547
-0.046491403 -0.0081175268 0.71818376
-0.04661952 -0.0088799 0.71867478
-0.046748348 -0.0096464455 0.71916837
-0.046877891 -0.010417283 0.71966481
-0.0469791 -0.011185467 0.72005266
-0.04479146 -0.011375606 0.71166945
-0.044695981 -0.012060791 0.71130353
-0.044607092 -0.012744844 0.71096289
-0.044537392 -0.013431877 0.71069586
-0.044622913 -0.014165998 0.71102357
-0.044748977 -0.014916301 0.71150661
-0.044875756 -0.015670896 0.71199244
-0.045003254 -0.016429752 0.71248102
-0.045131478 -0.01719293 0.7129724
-0.045255009 -0.017958313 0.71344578
-0.045343123 -0.018712997 0.71378344
-0.045392394 -0.019453913 0.71397227
-0.045400489 -0.02017796 0.71400326
-0.045367558 -0.020883501 0.71387708
-0.045267738 -0.02155605 0.71349454
-0.045149907 -0.022216588 0.71304303
-0.045101166 -0.022908539 0.71285629
-0.045098193 -0.023622841 0.71284485
-0.04510507 -0.024342388 0.71287119
-0.045126267 -0.025070101 0.71295244
-0.04516146 -0.025806487 0.71308732
-0.045304272 -0.026607245 0.71363455
-0.045743156 -0.027591109 0.71531641
-0.045786783 -0.028344184 0.71548361
-0.045900647 -0.029143244 0.71591997
-0.045991298 -0.02993083 0.71626735
-0.046054579 -0.030703068 0.71650982
-0.046131637 -0.03148669 0.7168051
-0.04621052 -0.032274008 0.71710742
-0.046304747 -0.033074796 0.7174685
-0.046401527 -0.033880472 0.71783936
-0.046514321 -0.034701139 0.71827161
-0.046632234 -0.035529315 0.71872348
-0.046788517 -0.036391079 0.71932232
-0.047858875 -0.0023157597 0.72638208
-0.047819354 -0.0030851066 0.72622824
-0.047947496 -0.0038667023 0.72672713
-0.045723338 -0.0044248104 0.71806645
-0.045414131 -0.0051274002 0.7168625
-0.045393843 -0.005857259 0.71678352
-0.045516416 -0.0066072047 0.71726078
-0.045641001 -0.007361412 0.7177459
-0.045766465 -0.0081198215 0.71823442
-0.045892626 -0.0088824332 0.71872574
-0.04601948 -0.0096492469 0.71921968
-0.046138935 -0.010418475 0.71968484
-0.044054706 -0.010658354 0.71156907
-0.043954574 -0.011343092 0.71117914
-0.043867398 -0.012028128 0.71083969
-0.04378359 -0.012711346 0.71051341
-0.043804068 -0.01342383 0.7105931
-0.043927506 -0.01417014 0.71107376
-0.04405164 -0.014920682 0.71155715
-0.044176482 -0.015675485 0.71204323
-0.044302031 -0.01643464 0.7125321
-0.044428296 -0.017198026 0.71302378
-0.04455528 -0.017965823 0.71351826
-0.044675212 -0.018734723 0.71398526
-0.044759307 -0.019491911 0.71431267
-0.044801567 -0.020232916 0.7144773
-0.044792809 -0.02095142 0.71444315
-0.044740345 -0.021648526 0.71423888
-0.04464392 -0.022321939 0.71386337
-0.044495098 -0.022965223 0.7132839
-0.044377774 -0.023620427 0.71282709
-0.044338867 -0.024314851 0.71267557
-0.044355299 -0.025039285 0.71273959
-0.044383992 -0.02577135 0.71285129
-0.044433426 -0.026516706 0.71304375
-0.044509254 -0.027279854 0.71333903
-0.044984739 -0.028296828 0.71519053
-0.045065481 -0.02907449 0.71550488
-0.045134969 -0.029847294 0.71577549
-0.045281447 -0.030674517 0.71634585
-0.045361727 -0.031460553 0.71665841
-0.045448624 -0.032253832 0.71699679
-0.045541242 -0.033054113 0.71735746
-0.045646027 -0.033866376 0.71776551
-0.045757134 -0.034686863 0.71819818
-0.045883436 -0.03552264 0.71868992
-0.046014957 -0.036366671 0.71920204
-0.046203651 -0.037261009 0.71993685
-0.04695344 -0.0023091733 0.72585368
-0.047059983 -0.0030858815 0.72627532
-0.045042463 -0.0036920011 0.71829045
-0.044721995 -0.0043988526 0.71702224
-0.044572275 -0.0051148534 0.71642965
-0.044672791 -0.0058587193 0.71682745
-0.044794962 -0.006609112 0.71731102
-0.04491761 -0.007363528 0.71779644
-0.045041122 -0.0081221461 0.7182852
-0.045165315 -0.0088849664 0.7187767
-0.045290198 -0.0096519887 0.71927094
-0.045367166 -0.010412097 0.71957564
-0.043217055 -0.010627121 0.71106607
-0.043128591 -0.011312425 0.71071601
-0.043043111 -0.011995584 0.71037769
-0.043002766 -0.012689322 0.71021795
-0.043109994 -0.013427705 0.71064234
-0.043231513 -0.014174223 0.71112329
-0.043353718 -0.014925033 0.71160698
-0.043476615 -0.015680075 0.71209329
-0.043600213 -0.016439408 0.71258247
-0.043724515 -0.017203093 0.71307445
-0.043849524 -0.017971128 0.71356922
-0.043975253 -0.018743545 0.7140668
-0.044088129 -0.019514412 0.71451354
-0.044114556 -0.020249277 0.71461815
-0.044099502 -0.020965278 0.7145586
-0.044066496 -0.02167201 0.71442795
-0.044021834 -0.022371709 0.71425116
-0.043955918 -0.023058832 0.71399033
-0.043864045 -0.023729742 0.71362668
-0.043722346 -0.024369806 0.71306586
-0.043631986 -0.025034726 0.71270823
-0.043625876 -0.025746405 0.71268415
-0.043669019 -0.026487738 0.7128548
-0.04371874 -0.027234614 0.71305162
-0.043776169 -0.027988017 0.71327889
-0.043954097 -0.028822333 0.71398306
-0.04435309 -0.029811084 0.71556222
-0.044424113 -0.030587047 0.71584326
-0.044586714 -0.031429976 0.71648681
-0.044687673 -0.032233745 0.7168864
-0.044782657 -0.033036351 0.71726227
-0.044891354 -0.033852488 0.71769243
-0.045006499 -0.034677118 0.71814817
-0.045135118 -0.035516173 0.71865726
-0.045275107 -0.036368519 0.71921128
-0.045426283 -0.037234634 0.71980959
-0.045685355 -0.038195938 0.72083491
-0.046122406 -0.0015374124 0.72560704
-0.046176959 -0.0023088455 0.7258265
-0.046301458 -0.0030867457 0.72632742
-0.044031397 -0.0036692917 0.71719348
-0.043782104 -0.0043781996 0.71619034
-0.043833286 -0.0051138699 0.71639633
-0.043952864 -0.0058603585 0.71687746
-0.044073097 -0.0066109598 0.71736121
-0.044193991 -0.007365644 0.7178477
-0.04431536 -0.0081244409 0.71833599
-0.044437587 -0.0088874996 0.71882778
-0.044541072 -0.0096505582 0.71924418
-0.042481214 -0.0099122524 0.71095598
-0.042390861 -0.010597736 0.71059239
-0.042306904 -0.011281848 0.71025455
-0.042232513 -0.011965871 0.70995522
-0.042296775 -0.012689024 0.71021378
-0.042415701 -0.013431609 0.71069229
-0.042535298 -0.014178425 0.71117359
-0.042655569 -0.014929444 0.71165752
-0.042776521 -0.015684694 0.7121442
-0.042898163 -0.016444296 0.71263361
-0.043020494 -0.017208219 0.71312582
-0.043143533 -0.017976463 0.7136209
-0.043267272 -0.018749177 0.71411884
-0.043339588 -0.019502819 0.71440983
-0.043330222 -0.020220757 0.7143721
-0.043312397 -0.020934314 0.71430039
-0.04330574 -0.021652848 0.71427357
-0.043302141 -0.022372752 0.71425915
-0.043281104 -0.02308327 0.71417451
-0.043242864 -0.023783594 0.71402061
-0.043190904 -0.024474829 0.71381152
-0.043101076 -0.025142282 0.71345007
-0.042964291 -0.025778532 0.71289968
-0.04292519 -0.026470482 0.71274239
-0.042962167 -0.027209342 0.7128911
-0.043022271 -0.027964443 0.71313298
-0.043102678 -0.028735101 0.71345651
-0.043226723 -0.029538244 0.71395564
-0.043656137 -0.030559272 0.71568346
-0.043744989 -0.031350553 0.71604097
-0.043906212 -0.032197893 0.71668971
-0.044030279 -0.033022702 0.71718895
-0.044137105 -0.033838421 0.71761876
-0.044260606 -0.03467077 0.71811569
-0.044388201 -0.03551054 0.71862906
-0.044535745 -0.036370844 0.71922272
-0.044692893 -0.037244052 0.71985507
-0.044870652 -0.038140059 0.72057033
-0.045300588 -0.0015355945 0.72538972
-0.045420021 -0.0023094714 0.72587836
-0.043341476 -0.0029383898 0.71737319
-0.043046977 -0.0036480129 0.71616817
-0.043001469 -0.0043729842 0.71598196
-0.043114875 -0.0051153302 0.71644598
-0.043232527 -0.0058620572 0.71692741
-0.043350823 -0.0066128075 0.7174114
-0.043469772 -0.0073677301 0.71789819
-0.043589372 -0.0081268251 0.71838754
-0.043704599 -0.0088890493 0.71885902
-0.041754812 -0.0092001855 0.71088076
-0.041654196 -0.0098840296 0.71046901
-0.041571755 -0.010569066 0.71013165
-0.041490983 -0.011251748 0.7098012
-0.041489303 -0.011954516 0.70979434
-0.041603815 -0.01269266 0.71026289
-0.041720994 -0.013435543 0.71074235
-0.041838493 -0.014182538 0.71122319
-0.041957002 -0.014933825 0.71170807
-0.042075839 -0.015689284 0.71219432
-0.042195521 -0.016449094 0.71268404
-0.042315889 -0.017213196 0.71317661
-0.042436946 -0.017981738 0.71367198
-0.042537857 -0.018745482 0.7140848
-0.042552866 -0.019473314 0.71414632
-0.042535562 -0.020186365 0.71407551
-0.042521268 -0.020900279 0.71401697
-0.042520914 -0.02162075 0.7140156
-0.042520564 -0.022341311 0.71401405
-0.04252021 -0.023061782 0.71401262
-0.042534325 -0.023790359 0.71407044
-0.042529386 -0.024508446 0.71405023
-0.042498525 -0.025211006 0.71392393
-0.042443622 -0.025897771 0.71369922
-0.042341411 -0.026553065 0.71328104
-0.042256754 -0.027216196 0.71293467
-0.042280283 -0.027947992 0.71303093
-0.042354532 -0.028714895 0.71333474
-0.042432029 -0.029486656 0.71365184
-0.042550039 -0.030289859 0.71413475
-0.042968664 -0.031316161 0.71584773
-0.043080807 -0.032128036 0.71630657
-0.043249309 -0.03298673 0.71699607
-0.04339138 -0.033830583 0.7175774
-0.043514982 -0.034664452 0.7180832
-0.043651186 -0.035512835 0.71864057
-0.043796286 -0.036373168 0.71923429
-0.0439629 -0.037256688 0.71991599
-0.044141617 -0.038156301 0.72064728
-0.044364188 -0.039100617 0.72155797
-0.044447724 -0.00076633692 0.72503567
-0.044542622 -0.0015359521 0.72543067
-0.042660452 -0.0022065938 0.71759617
-0.04235597 -0.0029211044 0.7163288
-0.042192098 -0.0036372244 0.71564674
-0.042280968 -0.0043738782 0.71601665
-0.042396065 -0.0051167309 0.71649569
-0.042511791 -0.0058636665 0.71697736
-0.042628147 -0.0066146851 0.71746171
-0.042745143 -0.0073698163 0.71794873
-0.042862784 -0.0081291199 0.71843839
-0.042942423 -0.0088846385 0.71876985
-0.040921416 -0.0091720521 0.71035761
-0.040837668 -0.0098573864 0.71000898
-0.040757224 -0.010540664 0.70967418
-0.040704049 -0.01122871 0.70945287
-0.040796168 -0.011957467 0.70983624
-0.040910617 -0.012696385 0.7103126
-0.041025713 -0.013439447 0.71079171
-0.041141458 -0.01418671 0.71127349
-0.041257855 -0.014938205 0.71175796
-0.041374914 -0.015693903 0.71224523
-0.041492641 -0.016453981 0.7127353
-0.041611038 -0.017218322 0.71322811
-0.041725274 -0.017985046 0.71370363
-0.041772842 -0.018725723 0.71390164
-0.041760724 -0.019440323 0.71385115
-0.041743599 -0.020152032 0.71377987
-0.041738927 -0.020869464 0.71376038
-0.04173841 -0.021588802 0.71375823
-0.041738063 -0.02230826 0.7137568
-0.041747056 -0.023032874 0.71379423
-0.041767303 -0.023764133 0.71387851
-0.04178774 -0.024496287 0.71396363
-0.041801609 -0.025225073 0.71402133
-0.041806292 -0.025948673 0.71404076
-0.04177596 -0.02665019 0.71391457
-0.04171025 -0.027327389 0.71364105
-0.041606743 -0.02797693 0.71321023
-0.041617911 -0.028701991 0.71325672
-0.041695062 -0.02947408 0.71357781
-0.041794155 -0.030264735 0.71399033
-0.041917071 -0.031076401 0.71450192
-0.042292327 -0.032083809 0.71606386
-0.042436417 -0.032924771 0.71666366
-0.04261715 -0.033799797 0.71741593
-0.04277236 -0.034660339 0.71806204
-0.042913895 -0.035514921 0.71865112
-0.043066304 -0.036383599 0.71928561
-0.043232597 -0.037269473 0.71997774
-0.043421876 -0.038181275 0.72076559
-0.043629058 -0.039115697 0.72162801
-0.043627691 2.9802322e-08 0.72480822
-0.04366944 -0.0007660985 0.724985
-0.043786839 -0.0015363693 0.72548229
-0.041667026 -0.0021929741 0.71650386
-0.041416265 -0.0029063821 0.71544176
-0.041451108 -0.0036360621 0.71558934
-0.041563671 -0.0043751001 0.71606612
-0.041676845 -0.0051181912 0.71654546
-0.041790638 -0.0058653653 0.71702743
-0.041905057 -0.0066165924 0.71751201
-0.042020101 -0.0073719323 0.71799934
-0.042124126 -0.0081292093 0.71843994
-0.040190089 -0.0084610581 0.71024835
-0.040104643 -0.0091466606 0.70988649
-0.0400257 -0.0098308325 0.70955211
-0.039950293 -0.010513246 0.70923275
-0.039992563 -0.011225998 0.70941174
-0.040104479 -0.011960983 0.70988584
-0.040217023 -0.012700111 0.71036237
-0.040330198 -0.013443351 0.71084172
-0.040444009 -0.014190882 0.7113238
-0.040558469 -0.014942557 0.71180862
-0.040673412 -0.015698522 0.71229547
-0.040789176 -0.01645878 0.71278584
-0.040905599 -0.017223388 0.71327889
-0.040986188 -0.017976403 0.71362025
-0.040987033 -0.018695831 0.71362382
-0.040971093 -0.019407362 0.71355629
-0.040959064 -0.020120203 0.71350533
-0.040958725 -0.020838648 0.7135039
-0.040958386 -0.021557033 0.71350253
-0.040960927 -0.022276998 0.71351326
-0.040978555 -0.023005486 0.71358788
-0.040998403 -0.02373594 0.71367198
-0.041018441 -0.02446714 0.7137568
-0.04105109 -0.025206774 0.71389508
-0.041091118 -0.02595225 0.71406466
-0.041110225 -0.026685596 0.71414554
-0.041100156 -0.027400076 0.71410286
-0.041063856 -0.028096318 0.7139492
-0.040972959 -0.028752923 0.71356416
-0.040971093 -0.029470414 0.71355629
-0.041064877 -0.030258298 0.7139535
-0.041170899 -0.031058729 0.71440256
-0.041287966 -0.031871378 0.71489841
-0.041631293 -0.032866776 0.71635258
-0.041811284 -0.033742458 0.71711493
-0.042013325 -0.034642547 0.71797061
-0.042176694 -0.035517216 0.71866256
-0.042338081 -0.036395878 0.71934605
-0.042510923 -0.037290275 0.72007817
-0.042701192 -0.038206309 0.72088403
-0.042920876 -0.039155841 0.72181445
-0.043187987 -0.040157229 0.72294587
-0.042804405 -0 0.72455859
-0.042915236 -0.00076630712 0.7250365
-0.040978268 -0.0014635026 0.71668601
-0.040698342 -0.0021802485 0.71547925
-0.040630698 -0.00290218 0.71518755
-0.040735319 -0.0036370456 0.71563864
-0.040845968 -0.004376322 0.71611565
-0.04095722 -0.0051196516 0.71659529
-0.041069079 -0.0058670044 0.71707749
-0.041181553 -0.0066184402 0.71756238
-0.041292366 -0.0073736012 0.71804005
-0.039492212 -0.0077573657 0.71027946
-0.039372668 -0.0084369481 0.70976406
-0.039295223 -0.0091220737 0.70943016
-0.039217927 -0.0098044574 0.70909703
-0.039197229 -0.010499269 0.70900774
-0.039302208 -0.011229187 0.70946038
-0.039412223 -0.01196444 0.70993459
-0.039522856 -0.012703776 0.71041161
-0.039634109 -0.013447255 0.71089125
-0.039745994 -0.014194995 0.71137357
-0.039858509 -0.014946938 0.71185857
-0.039971665 -0.015703142 0.71234643
-0.040085465 -0.016463697 0.71283704
-0.040189452 -0.017224014 0.71328533
-0.040215038 -0.017953128 0.7133956
-0.040200248 -0.01866439 0.71333188
-0.04018414 -0.01937446 0.71326244
-0.040181156 -0.02009055 0.71324956
-0.040180821 -0.020807922 0.71324813
-0.040180657 -0.021525353 0.71324742
-0.040192276 -0.022249252 0.71329749
-0.040211879 -0.022978246 0.71338207
-0.040231332 -0.023707747 0.71346587
-0.040255636 -0.024440885 0.71357065
-0.040294819 -0.025184244 0.71373957
-0.040334072 -0.025929034 0.71390885
-0.040373404 -0.026675284 0.71407837
-0.040419698 -0.027427644 0.71427792
-0.040435657 -0.028160542 0.71434677
-0.040414829 -0.028867722 0.71425694
-0.04034913 -0.029541314 0.7139737
-0.040346786 -0.030260056 0.71396363
-0.04044776 -0.031058103 0.71439892
-0.0405435 -0.031855613 0.71481162
-0.040610854 -0.032633722 0.71510208
-0.040796813 -0.033511639 0.7159037
-0.0412044 -0.034582257 0.71766084
-0.041439045 -0.035519183 0.71867245
-0.041609358 -0.036408216 0.71940672
-0.041792385 -0.037314624 0.72019571
-0.041992247 -0.038242906 0.72105736
-0.0422149 -0.039199501 0.72201723
-0.04247272 -0.040197343 0.72312868
-0.041965079 0.00076302886 0.72422957
-0.042047992 -0 0.72459352
-0.040311202 -0.00073292851 0.71696997
-0.040009581 -0.0014548898 0.71564603
-0.039836276 -0.0021728575 0.71488529
-0.039911151 -0.002902627 0.71521395
-0.040019132 -0.0036380887 0.71568787
-0.040127866 -0.0043775439 0.71616518
-0.040237192 -0.0051210821 0.71664506
-0.040347118 -0.0058686733 0.71712756
-0.04045764 -0.0066203177 0.71761274
-0.040541407 -0.0073711574 0.71798044
-0.038644716 -0.0077289343 0.70965493
-0.038565796 -0.0084143579 0.70930851
-0.038489986 -0.0090976059 0.70897567
-0.038429927 -0.0097821355 0.7087121
-0.038504101 -0.010501117 0.70903766
-0.038611613 -0.011232436 0.70950967
-0.038719725 -0.011967897 0.70998418
-0.038828444 -0.012707472 0.71046138
-0.038937777 -0.013451219 0.71094131
-0.039047729 -0.014199167 0.71142393
-0.0391583 -0.014951319 0.71190929
-0.039269339 -0.015707701 0.71239674
-0.039380684 -0.016468257 0.71288544
-0.039439362 -0.017209888 0.71314299
-0.039430737 -0.017923057 0.71310514
-0.039415773 -0.018632889 0.71303952
-0.03940602 -0.019344747 0.71299666
-0.039405696 -0.020061076 0.71299529
-0.039405372 -0.020777345 0.7129938
-0.039412033 -0.021497428 0.71302307
-0.039427809 -0.022222906 0.71309227
-0.039447017 -0.022951007 0.71317661
-0.039468523 -0.023681104 0.71327102
-0.039501481 -0.024419069 0.71341568
-0.039539892 -0.025161743 0.7135843
-0.039578382 -0.025905848 0.71375322
-0.039624497 -0.026656479 0.7139557
-0.039680444 -0.027415574 0.71420121
-0.039734732 -0.028175533 0.71443951
-0.03977393 -0.028926462 0.71461159
-0.039773766 -0.029649526 0.71461082
-0.039727297 -0.030337185 0.71440691
-0.039728951 -0.031060815 0.71441412
-0.039796956 -0.031837553 0.71471262
-0.039827146 -0.032585829 0.71484518
-0.03982731 -0.033310115 0.7148459
-0.039800767 -0.034011543 0.71472943
-0.039712436 -0.034658104 0.7143417
-0.039504584 -0.035194993 0.71342933
-0.039330438 -0.035754949 0.7126649
-0.041284613 -0.038282096 0.72124273
-0.041521959 -0.039257109 0.7222845
-0.041795839 -0.040275961 0.72348678
-0.041157972 0.0015243888 0.7240324
-0.041184712 0.00076267123 0.72415197
-0.04129475 -0 0.72464395
-0.039321154 -0.00072813034 0.71582037
-0.039070934 -0.0014470518 0.71470177
-0.039090794 -0.0021716952 0.71479058
-0.039196461 -0.0029034317 0.71526295
-0.039302539 -0.003639102 0.71573722
-0.039409358 -0.0043787956 0.71621478
-0.039516754 -0.0051225126 0.71669489
-0.039624911 -0.0058703423 0.71717846
-0.03973332 -0.006622225 0.71766317
-0.037917856 -0.0070217848 0.70954657
-0.037837416 -0.0077076256 0.70918697
-0.037763093 -0.0083917677 0.70885468
-0.037690122 -0.0090735257 0.70852846
-0.037709817 -0.0097765923 0.7086165
-0.037814844 -0.010504127 0.70908606
-0.03792046 -0.011235684 0.70955825
-0.038026668 -0.011971354 0.71003312
-0.038133476 -0.012711138 0.71051061
-0.03824088 -0.013455093 0.71099073
-0.038348895 -0.01420325 0.71147364
-0.03845752 -0.014955699 0.71195924
-0.038566761 -0.01571238 0.7124477
-0.038653202 -0.016463339 0.71283412
-0.038663238 -0.017183661 0.71287906
-0.038648903 -0.017892987 0.71281499
-0.038633782 -0.018601418 0.7127474
-0.038632669 -0.019316316 0.71274239
-0.038632512 -0.020031661 0.71274173
-0.038634259 -0.020748019 0.71274954
-0.038647469 -0.021470845 0.71280861
-0.038665149 -0.022196651 0.71288759
-0.038684443 -0.022924125 0.71297383
-0.038711097 -0.023656785 0.71309304
-0.03874867 -0.024397314 0.71326101
-0.038786318 -0.025139272 0.71342933
-0.038825806 -0.025883853 0.71360588
-0.038880028 -0.026640028 0.71384823
-0.03893489 -0.027398616 0.71409351
-0.038996227 -0.02816394 0.71436775
-0.039067026 -0.028938532 0.71468425
-0.039117526 -0.029700339 0.71491003
-0.039122909 -0.030428916 0.71493411
-0.039065238 -0.031107485 0.71467632
-0.039046053 -0.031815261 0.71459049
-0.039040852 -0.032534033 0.71456718
-0.039009199 -0.033230036 0.7144258
-0.038925037 -0.033879161 0.71404946
-0.038761158 -0.034454316 0.7133168
-0.038573738 -0.035002083 0.71247894
-0.038540937 -0.035686016 0.71233225
-0.038683802 -0.036534697 0.71297103
-0.040826976 -0.039314836 0.7225526
-0.041119188 -0.040357739 0.72385895
-0.041508883 -0.041508853 0.72560126
-0.040330678 0.001521945 0.72373581
-0.040433213 0.00076290965 0.72420293
-0.038633302 -0 0.71600407
-0.038368329 -0.00072392821 0.71479714
-0.038282827 -0.0014446378 0.71440762
-0.038377602 -0.0021722913 0.71483934
-0.038481373 -0.0029042661 0.715312
-0.038585544 -0.0036401153 0.71578658
-0.03869044 -0.0043800473 0.71626437
-0.038796075 -0.0051240027 0.71674556
-0.038901959 -0.0058720112 0.71722788
-0.039008588 -0.0066240728 0.71771359
-0.037110236 -0.0070019364 0.70906627
-0.037037242 -0.0076869428 0.70873386
-0.036964834 -0.008369416 0.708404
-0.036930587 -0.0090584457 0.70824802
-0.037022203 -0.0097794533 0.70866531
-0.037125345 -0.010507166 0.70913517
-0.037229069 -0.011238962 0.70960766
-0.037333369 -0.011974841 0.71008277
-0.037438259 -0.012714863 0.7105605
-0.037543736 -0.013459086 0.71104097
-0.037649814 -0.014207453 0.71152413
-0.037756491 -0.01496011 0.71201009
-0.037857696 -0.015714526 0.71247113
-0.037895247 -0.016445071 0.71264213
-0.03788371 -0.017154872 0.71258962
-0.037869688 -0.017863035 0.71252573
-0.037862055 -0.018573821 0.71249098
-0.037861746 -0.019288033 0.71248955
-0.037861589 -0.020002335 0.71248883
-0.037872024 -0.020722419 0.71253639
-0.037886046 -0.021444917 0.71260029
-0.037904292 -0.022170424 0.71268338
-0.037929118 -0.022900611 0.71279645
-0.037960391 -0.023635685 0.7129389
-0.037997205 -0.024375528 0.71310663
-0.038035657 -0.025117874 0.71328175
-0.038082853 -0.025867611 0.71349674
-0.038136479 -0.026623547 0.71374094
-0.038190417 -0.027381778 0.71398669
-0.038259283 -0.028153032 0.71430039
-0.038328718 -0.028927326 0.71461666
-0.038404815 -0.029709399 0.71496332
-0.03845036 -0.030470043 0.71517074
-0.038404174 -0.03115809 0.71496034
-0.038326804 -0.031818479 0.71460795
-0.038272165 -0.032495201 0.71435899
-0.03819897 -0.033153802 0.71402562
-0.03806632 -0.033756942 0.71342146
-0.037882306 -0.034308463 0.71258324
-0.037758037 -0.034908354 0.71201712
-0.037835453 -0.035693794 0.7123698
-0.037957262 -0.036524892 0.7129246
-0.038127322 -0.037407935 0.71369928
-0.040463954 -0.040463924 0.72434294
-0.040864047 -0.041635066 0.72616541
-0.039503969 0.002279073 0.72343051
-0.039575614 0.0015221834 0.72376311
-0.039681304 0.00076314807 0.72425389
-0.037681457 -2.9802322e-08 0.71496916
-0.037500486 -0.0007211864 0.71412897
-0.037562698 -0.0014446974 0.71441782
-0.037664019 -0.0021728873 0.71488816
-0.037765883 -0.002905041 0.71536112
-0.037868302 -0.0036411285 0.71583664
-0.037971281 -0.004381299 0.71631479
-0.038074821 -0.0051254332 0.71679544
-0.038178928 -0.0058736801 0.71727878
-0.036386725 -0.0062976778 0.70895803
-0.036312427 -0.006983161 0.70861316
-0.036241487 -0.0076664388 0.70828378
-0.036177192 -0.0083485842 0.70798528
-0.036233347 -0.0090583265 0.70824599
-0.036334042 -0.0097822249 0.70871353
-0.036435299 -0.010510176 0.70918363
-0.036537118 -0.011242181 0.70965636
-0.036639512 -0.011978298 0.7101317
-0.036742482 -0.012718558 0.71060979
-0.036846031 -0.013462961 0.71109051
-0.036950164 -0.014211595 0.71157402
-0.037055042 -0.014964521 0.71206087
-0.037128445 -0.015708148 0.71240163
-0.03712051 -0.016418695 0.71236485
-0.03710679 -0.017126173 0.71230114
-0.037093535 -0.017833441 0.71223962
-0.037093382 -0.018546671 0.71223891
-0.03709323 -0.01925993 0.71223819
-0.037098866 -0.019976318 0.7122643
-0.037111513 -0.020696789 0.71232307
-0.037127376 -0.021419615 0.71239668
-0.03714982 -0.022147 0.71250093
-0.03717535 -0.022877127 0.71261942
-0.03721118 -0.023614764 0.71278578
-0.037248306 -0.024354607 0.71295816
-0.037288897 -0.025098294 0.71314663
-0.0373413 -0.025851667 0.71338993
-0.037393849 -0.026607126 0.71363384
-0.037455086 -0.027371019 0.71391815
-0.037522912 -0.028142154 0.71423304
-0.037593022 -0.0289177 0.7145586
-0.037675954 -0.029706031 0.71494359
-0.037738279 -0.030480891 0.71523291
-0.037704416 -0.031178623 0.71507573
-0.037597716 -0.031813443 0.71458036
-0.037498772 -0.032450885 0.71412098
-0.037366938 -0.033055335 0.71350896
-0.037190039 -0.033614069 0.71268761
-0.037016023 -0.034168601 0.71187973
-0.037018906 -0.034883171 0.71189308
-0.037134856 -0.03570658 0.71243143
-0.037259366 -0.036542863 0.71300954
-0.039471868 -0.039471835 0.7232815
-0.039813157 -0.040578783 0.72486603
-0.04028073 -0.041830003 0.72703689
-0.038709242 0.0030360222 0.72326475
-0.038722098 0.0022777915 0.72332555
-0.038825259 0.0015226007 0.72381389
-0.036993224 0.00072535872 0.71514153
-0.036750641 -0 0.71399319
-0.03675171 -0.00072062016 0.7139982
-0.036850601 -0.0014451146 0.71446639
-0.036950029 -0.0021735132 0.71493697
-0.037049994 -0.0029058754 0.71541029
-0.037150502 -0.0036421716 0.715886
-0.037251558 -0.0043825209 0.71636438
-0.037353005 -0.0051268637 0.71684462
-0.035668589 -0.0055950582 0.70887107
-0.035588648 -0.0062803328 0.70849258
-0.035519168 -0.0069645643 0.70816374
-0.035449822 -0.0076460242 0.70783544
-0.035449822 -0.0083411336 0.70783544
-0.035546813 -0.0090609193 0.70829457
-0.03564563 -0.0097850859 0.70876235
-0.035744999 -0.010513246 0.70923275
-0.035844918 -0.011245459 0.70970571
-0.035945401 -0.011981785 0.71018136
-0.036046449 -0.012722254 0.71065974
-0.036148068 -0.013466924 0.71114075
-0.03625026 -0.014215797 0.7116245
-0.036353029 -0.014968902 0.712111
-0.036419224 -0.015710235 0.71242428
-0.036389161 -0.016410768 0.71228206
-0.036345724 -0.017103881 0.71207643
-0.036327694 -0.017807662 0.71199107
-0.036326949 -0.01851958 0.7119875
-0.03632829 -0.019232601 0.71199387
-0.036340505 -0.019951642 0.71205175
-0.03635288 -0.020671248 0.71211028
-0.036373176 -0.021395981 0.71220642
-0.036398131 -0.02212435 0.7123245
-0.036427908 -0.022856712 0.71246541
-0.036463886 -0.02359426 0.71263576
-0.036501892 -0.02433461 0.7128157
-0.036549322 -0.025082827 0.71304023
-0.036600504 -0.025835633 0.71328247
-0.036655013 -0.026592851 0.71354049
-0.036720637 -0.027360499 0.71385115
-0.036787108 -0.028131306 0.71416581
-0.036864553 -0.028913379 0.71453243
-0.036945868 -0.029701561 0.71491736
-0.037002649 -0.030472755 0.71518612
-0.036962051 -0.03116408 0.71499395
-0.036827475 -0.031772703 0.7143569
-0.03667428 -0.03235966 0.71363169
-0.036496781 -0.032918632 0.71279144
-0.036320843 -0.033472121 0.71195865
-0.036228769 -0.034097642 0.71152276
-0.036318906 -0.034894615 0.71194947
-0.036436897 -0.035722435 0.71250802
-0.036563348 -0.036563337 0.71310663
-0.038814545 -0.039575577 0.72376317
-0.039194509 -0.040731519 0.72556186
-0.039765313 -0.042104453 0.72826391
-0.037881058 0.0030305088 0.72293067
-0.037973292 0.0022784173 0.7233761
-0.03630637 0.0014522672 0.71532744
-0.036057558 0.0007211864 0.71412599
-0.035957258 -2.9802322e-08 0.71364176
-0.036041103 -0.00072076917 0.7140466
-0.03613811 -0.001445502 0.71451497
-0.036235642 -0.002174139 0.71498597
-0.036333703 -0.0029066801 0.71545935
-0.036432296 -0.0036432147 0.71593541
-0.03653127 -0.004383713 0.71641332
-0.03663094 -0.005128324 0.71689463
-0.034866326 -0.0055786073 0.70837432
-0.034797888 -0.0062635839 0.70804381
-0.034729995 -0.0069459975 0.70771605
-0.034684788 -0.0076306462 0.70749778
-0.034763351 -0.00834319 0.70787704
-0.03485975 -0.0090635121 0.70834249
-0.034956682 -0.0097878575 0.70881057
-0.035054158 -0.010516256 0.70928121
-0.035152178 -0.011248678 0.70975447
-0.035250742 -0.011985213 0.71023041
-0.035349865 -0.012725949 0.71070904
-0.035449695 -0.013470858 0.71119106
-0.035549942 -0.01421997 0.71167505
-0.035650756 -0.014973283 0.71216178
-0.035735819 -0.015723765 0.71257257
-0.035738025 -0.016439468 0.71258324
-0.035670079 -0.017121613 0.71225512
-0.035613924 -0.017806947 0.71198404
-0.035579063 -0.018501073 0.71181566
-0.035572212 -0.019208968 0.71178263
-0.035584163 -0.019927114 0.71184033
-0.035599183 -0.020647496 0.71191281
-0.035623562 -0.021374136 0.71203053
-0.035648122 -0.02210182 0.71214908
-0.035682388 -0.022836745 0.71231461
-0.03571951 -0.023574829 0.71249378
-0.035760537 -0.024317145 0.7126919
-0.035810512 -0.025067359 0.71293318
-0.035860922 -0.025819838 0.71317661
-0.035922166 -0.02658236 0.71347225
-0.035986755 -0.027349919 0.71378422
-0.036056809 -0.028124273 0.71412241
-0.036136158 -0.028908908 0.71450555
-0.03621253 -0.029694289 0.71487433
-0.03623398 -0.030436546 0.71497786
-0.036153149 -0.03109169 0.71458763
-0.035977066 -0.031659812 0.71373743
-0.035802834 -0.032222509 0.71289617
-0.035630137 -0.032779723 0.71206224
-0.035476189 -0.033347636 0.71131897
-0.035508525 -0.034088165 0.71147507
-0.035620786 -0.034908354 0.71201712
-0.035741407 -0.035741419 0.71259952
-0.036457065 -0.037186205 0.71605504
-0.036634028 -0.038099378 0.71690953
-0.038606327 -0.040922701 0.72643268
-0.037064124 0.0037820637 0.72263843
-0.037125543 0.0030306578 0.7229411
-0.03722408 0.0022790432 0.72342658
-0.035371203 0.0014437139 0.71429753
-0.035184953 0.00071808696 0.71337986
-0.035235487 2.9802322e-08 0.71362883
-0.035330098 -0.00072100759 0.714095
-0.03542522 -0.0014459193 0.71456367
-0.035520855 -0.0021747351 0.71503484
-0.035617009 -0.0029075146 0.71550858
-0.035713684 -0.0036442578 0.71598488
-0.035810735 -0.0043849945 0.71646309
-0.034147345 -0.0048781931 0.70826757
-0.034077629 -0.0055636764 0.70792407
-0.034011189 -0.0062469244 0.70759678
-0.033946767 -0.0069278479 0.70727932
-0.033983901 -0.0076290369 0.70746231
-0.034077901 -0.0083456039 0.7079255
-0.034172427 -0.0090661645 0.70839119
-0.034267478 -0.009790659 0.70885944
-0.034363057 -0.010519266 0.70933038
-0.034459174 -0.011251956 0.70980394
-0.034555826 -0.011988729 0.71028018
-0.034653027 -0.012729675 0.71075904
-0.034750771 -0.013474792 0.71124065
-0.03484907 -0.014224112 0.71172494
-0.034947928 -0.014977694 0.71221209
-0.035046913 -0.015735358 0.71269971
-0.035096329 -0.01647377 0.7129432
-0.035072327 -0.017178267 0.71282494
-0.034987856 -0.017850965 0.71240878
-0.03490809 -0.01852265 0.71201569
-0.03486263 -0.019210011 0.71179175
-0.03484308 -0.019910306 0.71169543
-0.034851637 -0.020626456 0.71173763
-0.034875482 -0.021352351 0.71185505
-0.034903936 -0.022082061 0.71199524
-0.034940038 -0.022817969 0.7121731
-0.034976356 -0.023555517 0.71235204
-0.0350237 -0.024302155 0.71258539
-0.035072904 -0.025052041 0.7128278
-0.035127319 -0.025807798 0.7130959
-0.035189901 -0.026571929 0.71340418
-0.035253435 -0.027339399 0.71371722
-0.035330392 -0.0281201 0.71409643
-0.035407983 -0.028904438 0.71447873
-0.035459898 -0.029670507 0.71473449
-0.035430234 -0.030368745 0.71458828
-0.035279002 -0.0309591 0.71384323
-0.035108052 -0.031525582 0.71300095
-0.034938462 -0.032086313 0.71216536
-0.034770783 -0.032641917 0.71133924
-0.034712229 -0.033295393 0.71105075
-0.034809742 -0.034099311 0.71153122
-0.034924414 -0.034924418 0.71209621
-0.035045903 -0.035761118 0.71269476
-0.035758387 -0.037217885 0.71620512
-0.03588561 -0.038082689 0.71683198
-0.036082886 -0.039028406 0.71780396
-0.036281805 0.0045352578 0.72250813
-0.036281645 0.0037793815 0.7225073
-0.036377717 0.0030314624 0.72299051
-0.034683354 0.0021677017 0.7144686
-0.0344491 0.0014353693 0.71329033
-0.034429614 0.0007173121 0.71319234
-0.034525972 2.9802322e-08 0.71367693
-0.034618706 -0.0007211864 0.7141434
-0.034711938 -0.0014463067 0.71461231
-0.034805674 -0.0021753311 0.71508378
-0.034899916 -0.0029083192 0.71555781
-0.034994673 -0.0036452711 0.71603435
-0.033443615 -0.0041804612 0.70823312
-0.033358399 -0.0048647523 0.70780456
-0.033293407 -0.0055488944 0.70747769
-0.0332288 -0.0062303841 0.70715272
-0.03321173 -0.006919086 0.70706683
-0.033299789 -0.0076311827 0.70750976
-0.033391926 -0.0083479881 0.70797318
-0.033484574 -0.0090687573 0.70843917
-0.033577871 -0.0097935498 0.70890844
-0.033671554 -0.010522366 0.70937967
-0.033765629 -0.011255175 0.70985276
-0.033860363 -0.011992186 0.71032923
-0.033955634 -0.01273334 0.7108084
-0.034051441 -0.013478667 0.71129024
-0.034147788 -0.014228255 0.71177495
-0.034244686 -0.014982045 0.71226227
-0.034342133 -0.015740126 0.71275234
-0.034431037 -0.016498208 0.7131995
-0.034451947 -0.017225951 0.71330464
-0.034398511 -0.017915875 0.71303594
-0.034315422 -0.0185875 0.71261805
-0.034233861 -0.019256532 0.71220779
-0.034166537 -0.019930482 0.71186918
-0.034136187 -0.020623952 0.71171653
-0.034132693 -0.02133292 0.71169895
-0.034163598 -0.022063971 0.71185434
-0.034199044 -0.022799373 0.71203268
-0.034240045 -0.02354002 0.71223891
-0.034288052 -0.024287313 0.71248031
-0.034336053 -0.025036663 0.71272171
-0.03439695 -0.025797695 0.71302807
-0.034458492 -0.026561737 0.71333766
-0.034528259 -0.027334839 0.71368843
-0.034604054 -0.028115779 0.71406972
-0.034674123 -0.02889508 0.71442211
-0.034681622 -0.029623866 0.71445978
-0.034579948 -0.030257404 0.71394837
-0.03441228 -0.030827671 0.7131052
-0.034246091 -0.031392246 0.71226931
-0.0340815 -0.031951368 0.71144146
-0.033951346 -0.032536715 0.71078682
-0.03400534 -0.033296883 0.71105838
-0.034113843 -0.034113824 0.71160412
-0.034230627 -0.03494373 0.71219152
-0.034920525 -0.036375523 0.71566147
-0.035048649 -0.037239194 0.71630585
-0.035173412 -0.038104504 0.71693337
-0.035301611 -0.038978875 0.71757817
-0.03545282 0.0045259297 0.72213256
-0.035535518 0.0037803948 0.72255737
-0.033997122 0.0028933585 0.71465522
-0.033764604 0.0021552145 0.7134608
-0.03357413 0.0014286935 0.71248245
-0.033669375 0.00071641803 0.71297169
-0.033809762 2.9802322e-08 0.71369278
-0.033906914 -0.00072142482 0.71419185
-0.033998255 -0.0014467239 0.714661
-0.034090087 -0.0021759272 0.71513271
-0.034182418 -0.0029091239 0.71560699
-0.034275252 -0.0036462843 0.71608388
-0.03264071 -0.0041668713 0.70768791
-0.032576643 -0.0048518181 0.70735872
-0.032513477 -0.0055342019 0.70703429
-0.032461517 -0.0062160194 0.70676738
-0.032525651 -0.0069203079 0.70709676
-0.032615419 -0.007633388 0.70755792
-0.032705687 -0.0083503425 0.70802158
-0.032796457 -0.0090713501 0.70848787
-0.032887734 -0.0097963512 0.70895672
-0.032979518 -0.010525376 0.70942813
-0.033071816 -0.011258483 0.70990229
-0.033164635 -0.011995673 0.710379
-0.033257972 -0.012737066 0.71085846
-0.033351839 -0.01348266 0.71134061
-0.033446237 -0.014232427 0.71182555
-0.033541169 -0.014986485 0.71231312
-0.033636644 -0.015744835 0.7128036
-0.033732664 -0.016507447 0.71329677
-0.033798985 -0.017259032 0.71363747
-0.033796608 -0.01797691 0.71362519
-0.033725698 -0.01865676 0.71326101
-0.033645235 -0.019328117 0.71284771
-0.03356861 -0.019998282 0.71245408
-0.033495218 -0.020667255 0.71207708
-0.03344829 -0.021349996 0.7118361
-0.033437744 -0.022054702 0.71178192
-0.033459529 -0.022780955 0.71189386
-0.033506211 -0.023525655 0.71213359
-0.033553161 -0.024272501 0.71237475
-0.033607431 -0.025026798 0.71265352
-0.033667155 -0.025787622 0.71296036
-0.033729874 -0.026553303 0.71328241
-0.033803742 -0.027330667 0.71366191
-0.033877652 -0.028111219 0.71404153
-0.033917759 -0.028866172 0.71424758
-0.033869922 -0.029546082 0.71400183
-0.033715669 -0.030128866 0.71320951
-0.033552885 -0.030697316 0.71237332
-0.033391528 -0.031260133 0.71154451
-0.033231717 -0.031817585 0.71072364
-0.033208739 -0.032502145 0.71060562
-0.033308577 -0.033308566 0.7111184
-0.033419956 -0.034130991 0.71169049
-0.033541445 -0.034968734 0.71231461
-0.034216795 -0.036400884 0.7157836
-0.03433824 -0.037260622 0.71640742
-0.034460403 -0.038126409 0.71703494
-0.034583583 -0.038998485 0.7176677
-0.03471503 -0.039885342 0.71834278
-0.034646612 0.0052723289 0.72186023
-0.034697153 0.0045257509 0.72212547
-0.034788985 0.0037814677 0.72260743
-0.033078488 0.0028764009 0.71363026
-0.03286384 0.0021432936 0.71250373
-0.032741051 0.0014235377 0.71185929
-0.032707818 0.00071108341 0.71168488
-0.033047576 2.9802322e-08 0.71346802
-0.033188105 -0.00072145462 0.71420556
-0.033284169 -0.0014471114 0.71470976
-0.033374101 -0.0021765828 0.71518177
-0.033464517 -0.0029099584 0.71565628
-0.031926066 -0.0034701824 0.707582
-0.031860899 -0.004155755 0.70723999
-0.03179916 -0.0048389733 0.70691603
-0.03173741 -0.0055195093 0.7065919
-0.031718265 -0.0062057376 0.70649141
-0.031838562 -0.0069214106 0.70712274
-0.031930532 -0.0076355338 0.70760542
-0.03201893 -0.0083527565 0.70806932
-0.032107819 -0.0090739131 0.70853591
-0.032197203 -0.0097991228 0.70900506
-0.032287087 -0.010528386 0.70947677
-0.032377474 -0.011261731 0.70995116
-0.032468367 -0.01199916 0.71042812
-0.032559905 -0.012740821 0.71090853
-0.032651827 -0.013486594 0.71139103
-0.03274427 -0.014236629 0.71187621
-0.032837238 -0.014990896 0.71236408
-0.032930735 -0.015749454 0.71285486
-0.033024769 -0.016512334 0.71334833
-0.033116318 -0.017278075 0.7138288
-0.033158638 -0.018020988 0.71405095
-0.033129636 -0.018725425 0.71389878
-0.033053726 -0.019401044 0.71350032
-0.032980338 -0.020074993 0.71311516
-0.032907277 -0.020745873 0.71273172
-0.03283643 -0.021415055 0.71235991
-0.032777306 -0.022089064 0.7120496
-0.032757558 -0.022787899 0.71194595
-0.032773945 -0.023511738 0.71203196
-0.032821462 -0.024259329 0.71228135
-0.032879524 -0.025017023 0.71258605
-0.032938067 -0.025777608 0.71289331
-0.033007309 -0.026549339 0.71325672
-0.033079308 -0.027326345 0.71363461
-0.033140488 -0.028097361 0.71395564
-0.033133343 -0.028811604 0.71391815
-0.033018354 -0.029429406 0.71331465
-0.032858707 -0.030001432 0.71247679
-0.032700591 -0.030567914 0.71164691
-0.032544129 -0.031129122 0.7108258
-0.032441877 -0.031736612 0.71028912
-0.032509577 -0.032509565 0.71064448
-0.03261425 -0.033323258 0.7111938
-0.032726035 -0.034148872 0.71178049
-0.033389859 -0.035567462 0.71526444
-0.033507872 -0.036421597 0.71588379
-0.033626869 -0.03728193 0.71650833
-0.03374657 -0.038148284 0.71713656
-0.03386727 -0.039020985 0.7177701
-0.033988692 -0.039899766 0.71840727
-0.033818357 0.0060121715 0.72145748
-0.033827577 0.0052620769 0.72150695
-0.033948909 0.0045265257 0.72215784
-0.032391034 0.0035990179 0.71380001
-0.03217243 0.0028597414 0.71262723
-0.03201421 0.0021342933 0.7117784
-0.031948272 0.0014199317 0.71142459
-0.03192896 0.00070956349 0.71132106
-0.031942267 -0 0.7113924
-0.03242233 -0.00072050095 0.71396792
-0.032562226 -0.001447171 0.71471846
-0.032657713 -0.0021771491 0.71523076
-0.032746214 -0.002910763 0.71570551
-0.031146169 -0.0034607053 0.70712143
-0.031085858 -0.0041447878 0.7067979
-0.031025657 -0.0048261881 0.7064749
-0.030971086 -0.0055059791 0.70618212
-0.03094228 -0.006188482 0.70602757
-0.031112332 -0.0069138408 0.70693988
-0.031241382 -0.0076367557 0.70763218
-0.031331904 -0.0083551705 0.7081179
-0.031418912 -0.0090765953 0.70858473
-0.031506404 -0.0098019838 0.70905411
-0.031594384 -0.010531425 0.70952606
-0.031682856 -0.01126498 0.71000075
-0.031771827 -0.012002677 0.71047801
-0.031861298 -0.012744516 0.710958
-0.031951275 -0.013490498 0.71144074
-0.032041762 -0.014240772 0.71192622
-0.032132763 -0.014995277 0.71241438
-0.032224283 -0.015754104 0.71290541
-0.032316323 -0.016517222 0.71339917
-0.032408889 -0.017284721 0.7138958
-0.032490239 -0.018050134 0.71433222
-0.032507531 -0.018782079 0.71442503
-0.032459483 -0.019475669 0.7141673
-0.032387007 -0.020151883 0.71377844
-0.032315653 -0.020825654 0.71339566
-0.032249004 -0.021499306 0.71303803
-0.03218263 -0.022170246 0.71268195
-0.032118767 -0.022839993 0.71233934
-0.032089766 -0.02353248 0.71218377
-0.032101359 -0.024254352 0.71224594
-0.032152187 -0.025007248 0.71251869
-0.032214455 -0.025771558 0.71285272
-0.032284562 -0.026545078 0.71322882
-0.032353099 -0.027320415 0.71359652
-0.032378558 -0.02806139 0.71373308
-0.032317124 -0.02872631 0.71340346
-0.032163829 -0.029304832 0.71258116
-0.032008965 -0.02987501 0.71175027
-0.031855587 -0.030439764 0.71092737
-0.031709202 -0.031004548 0.71014202
-0.031715762 -0.031715721 0.71017724
-0.031815141 -0.032522112 0.71071041
-0.031922575 -0.033341348 0.71128672
-0.03255301 -0.034723192 0.71466905
-0.03268256 -0.035587668 0.7153641
-0.032798279 -0.036442488 0.71598488
-0.032914683 -0.037303299 0.71660936
-0.033032056 -0.038170397 0.71723914
-0.033150129 -0.039043486 0.71787256
-0.033269051 -0.039922833 0.71851051
-0.032794751 0.0059626997 0.71996462
-0.032758214 0.0052115321 0.71976411
-0.031705648 0.0043235123 0.7139889
-0.031488977 0.0035783052 0.71280003
-0.031299703 0.0028454363 0.71176147
-0.031210124 0.0021279752 0.71127003
-0.031177791 0.0014171898 0.71109259
-0.031178681 0.00070863962 0.71109748
-0.031207193 -0 0.71125394
-0.031265013 -0.00071051717 0.71157116
-0.031793337 -0.0014451444 0.71447003
-0.03193279 -0.0021772087 0.71523517
-0.03043318 -0.002766639 0.70700699
-0.030373564 -0.0034514964 0.70667988
-0.030314906 -0.0041338503 0.70635808
-0.030257309 -0.0048136413 0.70604205
-0.030216407 -0.0054938793 0.70581764
-0.030199574 -0.006177187 0.70572531
-0.030211629 -0.0068663061 0.70579141
-0.030513233 -0.0076282918 0.70744622
-0.030640427 -0.008356452 0.70814419
-0.030729605 -0.0090792179 0.70863342
-0.030815201 -0.0098048151 0.70910311
-0.030901277 -0.010534495 0.70957541
-0.030987835 -0.011268288 0.71005034
-0.031074878 -0.012006223 0.7105279
-0.031162413 -0.012748241 0.71100819
-0.031250443 -0.013494521 0.71149123
-0.031338971 -0.014244974 0.71197695
-0.031428002 -0.014999688 0.71246541
-0.031517539 -0.015758753 0.71295667
-0.031607587 -0.016522139 0.71345085
-0.031698152 -0.017289877 0.71394765
-0.031789239 -0.018062055 0.7144475
-0.031852555 -0.018821925 0.71479487
-0.031852026 -0.019545525 0.71479195
-0.031789105 -0.020229399 0.71444678
-0.03172262 -0.020908058 0.714082
-0.031658508 -0.021585315 0.71373016
-0.031594656 -0.022259861 0.71337986
-0.031531319 -0.022931844 0.71303231
-0.031471215 -0.02360341 0.71270251
-0.031432264 -0.024288565 0.71248877
-0.031439763 -0.025008887 0.71253002
-0.031493645 -0.025767505 0.71282566
-0.031562172 -0.026540935 0.71320164
-0.031612031 -0.027301282 0.71347517
-0.031592697 -0.02800259 0.71336913
-0.031468105 -0.028607368 0.71268547
-0.0313165 -0.029181242 0.71185362
-0.031166352 -0.029749691 0.71102983
-0.031017633 -0.030312657 0.71021384
-0.030943805 -0.030943751 0.70980871
-0.031021032 -0.031726032 0.71023244
-0.031122701 -0.032537371 0.71079034
-0.031227974 -0.033357143 0.71136791
-0.031862114 -0.034758687 0.71484739
-0.031974595 -0.035608083 0.71546453
-0.03208774 -0.03646332 0.71608537
-0.032201689 -0.037324667 0.71671051
-0.032316584 -0.038192332 0.71734095
-0.032432165 -0.039065987 0.71797514
-0.032055471 0.0067092776 0.7199986
-0.031952914 0.0059447289 0.71942276
-0.031934611 0.0051986575 0.71932006
-0.030803388 0.0042981803 0.71296883
-0.030601252 0.0035583079 0.71183395
-0.030484002 0.0028357208 0.71117568
-0.030438542 0.0021236241 0.71092039
-0.030423172 0.0014150441 0.71083421
-0.030442139 0.00070795417 0.7109406
-0.030486366 2.9802322e-08 0.71118891
