# .PCD v0.7 - Point Cloud Data file format
VERSION 0.7
FIELDS x y z
SIZE 4 4 4
TYPE F F F
COUNT 1 1 1
WIDTH 373
HEIGHT 1
VIEWPOINT 0 0 0 1 0 0 0
POINTS 373
DATA ascii
-0.012427044 -0.0083692521 0.66248149
-0.012427044 -0.0083692521 0.66248149
-0.014460629 -0.005327493 0.66252047
-0.01970209 -0.0012792051 0.66356987
-0.012724969 -0.0044708652 0.66457129
-0.022372644 0.0003445248 0.66466731
-0.01947603 0.00051937997 0.66541147
-0.0086420979 -0.0096902698 0.6664834
-0.0047300239 -0.0026277602 0.66690576
-0.01365031 -0.0015750229 0.66677386
-0.01056248 -0.02270934 0.66752517
-0.0092456862 -0.020341352 0.66758347
-0.0089711268 -0.019525379 0.66742605
-0.0094703324 -0.0063135326 0.66704369
-0.0063563655 -0.0037078857 0.66790497
-0.016602729 -0.00052703917 0.66726863
-0.016602729 -0.00052703917 0.66726863
-0.027659949 0.0013174117 0.66722018
-0.01136191 0.0034349412 0.66760206
-0.01136191 0.0034349412 0.66760206
-0.0069303643 -0.014660522 0.6687277
-0.0045213415 -0.0093092769 0.66844624
-0.0074354829 -0.0084976852 0.66824508
-0.002133247 -0.0063997209 0.66877759
-0.0085061342 -0.0034555048 0.66837239
-0.015504687 -0.026732206 0.66909933
-0.015504687 -0.026732206 0.66909933
-0.015034772 -0.025236905 0.66965741
-0.012348426 -0.025770605 0.66964102
-0.0056395382 -0.01369635 0.66969383
-0.0045610424 -0.012610711 0.6695767
-0.0045610424 -0.012610711 0.6695767
-0.031141818 0.0010738671 0.66965061
-0.014622757 0.0014268458 0.66917914
-0.015601671 0.0059179068 0.66990674
-0.017606054 0.0044912598 0.67014021
-0.015323288 0.0055888593 0.67059582
-0.016569581 -0.028793678 0.67118347
-0.0087345364 -0.02238223 0.67181873
-0.0013614695 -0.002451852 0.67154258
-0.014135921 0.003805846 0.67128295
-0.0092378901 0.0059775114 0.6712144
-0.02202772 -0.029186755 0.67297381
-0.0049320054 -0.01918003 0.67232382
-0.028615989 0.002751559 0.67288077
-0.023129765 0.0055071115 0.67297763
-0.0055393954 -0.02603516 0.67375761
-0.0095611345 -0.026433706 0.67580485
-0.027969372 0.0053141862 0.67507285
-0.02658356 0.0067157894 0.67513579
-0.0045240349 -0.022620171 0.67654961
-0.0045240349 -0.022620171 0.67654961
-0.03057795 0.0053798407 0.67673165
-0.03057795 0.0053798407 0.67673165
-0.011595294 -0.029272934 0.67769563
-0.023559231 -0.027816772 0.67707717
-0.023559231 -0.027816772 0.67707717
-0.039796319 -0.013644427 0.67727733
-0.0022818153 -0.011694416 0.67774451
-0.036416132 -0.0076820403 0.67739397
-0.0064418809 0.00037924451 0.67725605
-0.0057060448 -0 0.67778087
-0.0054050209 0.0073972344 0.67739785
-0.026432896 -0.02700749 0.67875224
-0.032517672 -0.024483662 0.67856282
-0.037239864 -0.017473936 0.67834008
-0.0017258024 -0.011505336 0.67890662
-0.037185565 -0.010583818 0.67813838
-0.036810171 -0.01035285 0.67888039
-0.0011470749 -0.0057353377 0.67848897
-0.0054469816 0.00028657913 0.67845106
-0.032600813 0.0025735945 0.67810428
-0.014659198 0.011497617 0.67881322
-0.0044279331 -0.020602077 0.67947578
-0.0044279331 -0.020602077 0.67947578
-0.035668656 -0.019473374 0.679667
-0.035163384 -0.0046115816 0.67919189
-0.031144366 0.0069209337 0.67926395
-0.034958676 -0.019518301 0.68068761
-0.036621395 -0.014532268 0.68036109
-0.0011639752 -0.012512997 0.680529
-0.033760116 -0.0029103458 0.68054914
-0.0029045744 0.0069709718 0.68027002
-0.029646825 -0.026417628 0.68175328
-0.026651371 -0.025772989 0.68143731
-0.0023423154 -0.016981751 0.68139601
-0.035803877 -0.011445522 0.68172675
-0.03507857 -0.0076003373 0.68116999
-0.03507857 -0.0076003373 0.68116999
-0.011519646 0.011520515 0.681445
-0.020683909 -0.026002645 0.68269724
-0.030321885 -0.023233345 0.68262947
-0.00059069722 -0.021559685 0.68263173
-0.0017695898 -0.016516149 0.68243039
0.0041233152 0.00029487908 0.68223286
0.00029680697 -0.021680489 0.68342704
-0.034745425 -0.015442729 0.68341738
-0.013706417 0.0077471137 0.68389523
-0.025464712 -0.024566233 0.68467891
0.00019986676 -0.020768702 0.68466258
-0.032518402 -0.019351583 0.68451679
0.0005986066 -0.0053874254 0.68454117
-0.032282569 -0.0026897341 0.68435252
-0.027272835 0.0083917677 0.6847353
-0.011646401 0.013139874 0.68421763
-0.011646401 0.013139874 0.68421763
-0.028536512 -0.02250737 0.68557441
-0.0006026731 -0.019586116 0.68552291
-0.0018070331 -0.018672645 0.68544358
-0.033840984 -0.012388259 0.68591648
-0.033840984 -0.012388259 0.68591648
-0.033840984 -0.012388259 0.68591648
-0.032035541 -0.004835546 0.68595046
-0.031628557 -0.0024098158 0.68547094
0.0054351944 0.002415657 0.68582165
0.0060535055 0.0015137494 0.68616927
0.0060535055 0.0015137494 0.68616927
-0.030464929 -0.019497544 0.68712246
-0.025658477 0.0091637671 0.68751293
-0.01163769 0.0091876388 0.68789774
-0.02896617 -0.019721627 0.68881309
-0.030771285 -0.017539293 0.68860167
-0.032028932 -0.014166653 0.68872607
-0.03200363 -0.0073854625 0.68860853
0.0047100987 -0.0016385317 0.6883353
-0.0030682939 0.0042956173 0.68817508
-0.025813513 0.007989943 0.68840408
-0.015524453 -0.023597181 0.68994212
-0.032156561 -0.011440352 0.68931866
-0.030315239 -0.0037120581 0.6893869
0.0080757467 0.002484858 0.68999845
0.00041370685 0.0047592325 0.68989348
0.00041370685 0.0047592325 0.68989348
-0.0086793303 0.012399048 0.6896944
-0.028041435 -0.019317418 0.69046479
-0.015006296 -0.018132597 0.6909765
0.00062153797 -0.017403007 0.6900773
0.0062405625 -0.0056164861 0.69068527
0.0056019905 -0.0046684891 0.69029588
0.0074787089 0.0043625832 0.69048476
0.0031158158 0.0093474984 0.69046962
-0.030836618 -0.0094397664 0.69195575
0.0044057895 -0.008182168 0.691975
-0.030715149 -0.0065820813 0.69135725
-0.024435004 -0.0043857396 0.69128454
-0.0012588245 0.00062945485 0.69197834
-0.005658519 0.015089363 0.69181228
-0.021493064 -0.022125185 0.69263899
-0.018639026 -0.017375074 0.69256115
0.0025289271 -0.017070234 0.69265902
-0.025602423 -0.0075858682 0.69264096
0.0069263699 -0.0053521991 0.69204056
-0.0025191505 0.00031501055 0.69206893
-0.0085362522 0.0094846338 0.69267738
-0.0094487816 0.010078728 0.69210064
-0.0044243182 0.011376828 0.69261402
-0.023524739 -0.020663053 0.69352138
-0.020925405 -0.020608291 0.69311082
-0.019027609 -0.016490608 0.69314712
0.0044614212 -0.014021605 0.69389373
-0.028434148 -0.010609856 0.69371021
-0.023594782 -0.010840833 0.69397837
0.0025397404 -0.0095239878 0.69331163
0.0063936068 -0.019180775 0.6943801
0.0044749649 -0.017260581 0.69436079
-0.025541527 -0.01660195 0.6941815
-0.017589629 -0.016308844 0.69443643
0.0031919635 -0.013406247 0.69414645
0.010264144 0.0044905543 0.69489872
-0.023308471 0.0114948 0.69419622
-0.022579016 -0.010644108 0.69576931
0.0064762603 -0.017485857 0.69637549
-0.020748705 -0.012967914 0.69656163
-0.022616412 -0.005815655 0.69602716
0.00390383 0.010410249 0.69710279
0.0058908444 -0.015708923 0.6980443
0.0065838541 -0.015801221 0.69897306
-0.017855437 -0.013226211 0.69967973
0.011546925 0.0032990128 0.69931495
0.0099612456 0.0013282001 0.70034856
-0.0033197298 0.015934736 0.70031548
0.0083630998 -0.015386805 0.70153368
-0.0023442411 0.016408488 0.70171416
0.012126245 -0.002357915 0.70266557
0.010925596 -0.015022695 0.70487928
0.010925596 -0.015022695 0.70487928
0.010247418 -0.0095642507 0.7049545
0.010194941 -0.0067965984 0.70410991
0.014974315 0.0068065226 0.70434833
0.0075494759 -0.010981023 0.70571607
0.0075494759 -0.010981023 0.70571607
0.010445768 0.01532048 0.70814687
-0.013952803 0.016045749 0.70844996
0.013496219 0.014916897 0.71151298
0.012750234 0.015583634 0.71103477
-0.014266451 0.017119765 0.71223605
0.015465146 -0.01258789 0.7136817
0.010420864 0.011499032 0.71353114
0.010420864 0.011499032 0.71353114
0.0028706039 0.022247165 0.7132811
0.016639937 -0.0014469326 0.71468717
0.0036167949 0.018445268 0.71465909
0.015998473 -0.011635244 0.71558714
0.0043508909 0.016678423 0.71509111
0.02418774 -0.015392154 0.71697736
0.015383243 -0.010255486 0.71687442
0.013853859 -0.0014582872 0.71605724
0.013853859 -0.0014582872 0.71605724
-0.01167616 0.018243998 0.7162044
0.023474388 -0.014671504 0.7171253
0.013947403 -0.0055056661 0.71724588
0.023621872 -0.019562155 0.718238
0.019221954 -0.013307482 0.71850896
0.020296313 -0.017573884 0.71929383
0.020057196 -0.012628615 0.71936679
0.01940369 -0.017911077 0.72019649
0.025422214 -0.013458788 0.72053844
0.02091389 -0.012697697 0.7203483
0.032113325 -0.012531996 0.72911841
0.01992123 0.016733855 0.73240113
0.01992123 0.016733855 0.73240113
0.018440614 0.01282829 0.73358816
0.022545844 0.01248087 0.73441935
0.02439796 0.013825506 0.73636442
0.012209382 0.022790849 0.73653179
0.010639987 0.021279991 0.73761863
0.011428136 0.022040009 0.73709595
0.023180841 -0.00082787871 0.73989445
0.025865531 0.017521858 0.74145997
0.028562473 0.0092408061 0.74283624
0.026088623 0.0054699928 0.74319732
0.024416063 0.021048337 0.74328542
0.024583325 0.0016954243 0.74467784
0.022518391 0.025982738 0.74911785
0.032497067 0.017566025 0.75206488
0.033644438 0.016822249 0.7537744
0.028678238 0.026885837 0.75638539
0.035051774 0.010785192 0.75700545
0.036272153 0.012695253 0.7589466
0.036169454 0.014467806 0.75832671
0.036368012 0.019093186 0.75952512
0.038971823 0.0176301 0.76403975
0.035541922 0.028059423 0.7658295
0.039381128 0.022503525 0.76639253
-0.010951111 -0.010952501 0.66301131
-0.010364518 -0.021650232 0.66673923
-0.010364518 -0.021650232 0.66673923
-0.0079049394 -0.015019938 0.66725278
-0.0065687974 -0.004981651 0.66773963
-0.0072426456 -0.0030513387 0.66915673
-0.0058369371 -0.0031837821 0.66813034
-0.015601671 0.0059179068 0.66990674
-0.014179448 -0.025116734 0.6704303
-0.01907381 -0.027642027 0.67349231
-0.0051450254 -0.025078682 0.67370534
-0.0067031677 -0.021158276 0.67269731
-0.023139302 0.0060966015 0.67382908
-0.023139302 0.0060966015 0.67382908
0 2.9802322e-08 0.67555523
-0.028933216 0.0049156658 0.67565608
-0.017002765 -0.026354432 0.67685354
-0.011039641 -0.027242513 0.67668235
-0.0095889792 -0.027638823 0.67620033
-0.0095889792 -0.027638823 0.67620033
-0.035260193 -0.0037908456 0.67733181
-0.014820574 0.0051070191 0.67696953
-0.014820574 0.0051070191 0.67696953
-0.0062389867 0.0076579899 0.67695427
-0.028731886 -0.026335392 0.67891967
-0.017420299 -0.026201613 0.67905796
-0.0014386799 -0.024475247 0.67906284
-0.035486177 -0.0069063059 0.67895335
-0.035486177 -0.0069063059 0.67895335
-0.034889206 0.0013974931 0.67962956
-0.0049942732 0.0082635684 0.6791991
-0.027038462 -0.026167504 0.6804114
-0.033092286 -0.022552108 0.68143523
-0.0044174483 0.0044183731 0.68223435
-0.032439083 -0.0050313585 0.68505991
-0.015492542 -0.024301052 0.68669462
-0.012167852 0.0088203847 0.68690372
-0.032318562 -0.012927304 0.68864536
0.0069262944 -0.0010012463 0.68865108
0.0069262944 -0.0010012463 0.68865108
-0.0034072923 0.0034081489 0.68960536
-0.00062319892 -0.016203165 0.69047827
-0.00062648213 -0.015662044 0.69127095
-0.031250298 -0.010967642 0.69109321
0.0062534842 -0.0070356503 0.69099718
0.0031038502 -0.005166369 0.69087857
0.0031038502 -0.005166369 0.69087857
-0.022947414 -0.021172106 0.69306999
-0.02482168 -0.014623805 0.69389629
-0.0044159321 0.011040449 0.69232476
-0.018989218 -0.015457869 0.69499481
0.0027677498 -0.013094252 0.69422978
0.0045695105 0.011097401 0.69762152
0.0045695105 0.011097401 0.69762152
0.0073950235 -0.016594887 0.69869423
-0.018863777 -0.012940994 0.69889498
0.013277636 0.0051461682 0.70029998
0.012117976 -0.0010099411 0.7025547
0.00033652433 0.013473347 0.70266223
0.010858914 -0.0089780129 0.70515341
0.011194337 -0.011893958 0.70893425
0.01639501 0.0073259175 0.70844591
0.01639501 0.0073259175 0.70844591
0.0099495053 0.013502926 0.7115978
0.0014213462 0.018477529 0.71159637
0.014716072 0.010767519 0.71332502
0.0050676372 0.022435438 0.71474695
0.017339602 -0.013281167 0.71815586
0.018842999 -0.012931205 0.71841788
0.024885243 -0.013136338 0.72300279
0.020623138 -0.01680401 0.72442722
0.029329207 -0.012349099 0.72635889
0.02454086 0.015134409 0.73751432
0.026270065 0.0098513067 0.73821712
0.026270065 0.0098513067 0.73821712
0.026073918 0.018925816 0.74308288
0.018941442 0.024412215 0.74325341
0.018941442 0.024412215 0.74325341
0.025137095 0.0014124116 0.74458641
0.029395835 0.019885451 0.74875367
0.026189037 -0.00087293983 0.75077784
0.032650072 0.0079419017 0.75306332
0.032663628 0.018981084 0.75315177
0.028164657 0.024644047 0.75251073
0.020719845 0.028213471 0.75287879
0.033833615 0.0093476772 0.75497627
0.030607196 0.026106119 0.75735509
0.036198393 0.016742051 0.75850141
0.025464538 0.030011773 0.75958484
0.033049449 0.029326901 0.76478577
0.030739252 0.030739278 0.76490688
0.037580475 0.0084556639 0.76684296
0.037506849 0.026254833 0.76639855
0.037506849 0.026254833 0.76639855
-0.01164899 -0.0070402808 0.66364521
-0.0079429951 0.0017209053 0.66786534
-0.0023744537 -0.0059924601 0.66865456
-0.032395426 0.00013487041 0.66983169
-0.017850518 0.0025358247 0.66935349
-0.0062391176 -0.022154171 0.67388248
-0.035799861 -0.019009218 0.6798017
-0.0024596218 -0.013944593 0.67828774
-0.0040685674 -0.020342827 0.68034464
-0.00068087963 -0.010514344 0.68105692
-0.03707429 0.0019061735 0.68160433
-0.03707429 0.0019061735 0.68160433
-0.013383739 0.006867548 0.68152148
-0.027693696 -0.019639364 0.69055927
-0.030579254 -0.0056850379 0.69038409
-0.030579254 -0.0056850379 0.69038409
0.0053798854 -0.018180056 0.69415754
-0.009499955 0.0092564514 0.69258827
0.0055702897 0.011313705 0.69879103
0.012198085 -0.004914403 0.70362914
0.012125806 -0.0019375719 0.70265973
0.016379097 -0.0043678284 0.71577263
0.016379097 -0.0043678284 0.71577263
0.011414238 0.018548161 0.71225232
0.015232015 -0.015233606 0.71941638
0.014187314 -0.0023512379 0.71617454
0.028652057 -0.014230907 0.7232607
0.027506785 -0.011959776 0.73251486
0.018494003 0.013702847 0.73275411
0.024831291 0.0074494183 0.73985153
0.01435446 0.024811715 0.74192429
0.025928315 0.021662548 0.74599147
0.03363914 0.017836502 0.7542848
0.039002322 0.018341087 0.76421505
0.023064781 0.032950521 0.76730907
