# .PCD v0.7 - Point Cloud Data file format
VERSION 0.7
FIELDS x y z
SIZE 4 4 4
TYPE F F F
COUNT 1 1 1
WIDTH 394
HEIGHT 1
VIEWPOINT 0 0 0 1 0 0 0
POINTS 394
DATA ascii
0.0093675964 -0.018565118 0.66338176
0.0074337437 -0.016918689 0.66379857
0.009452058 -0.016604871 0.66337329
0.0098211644 -0.014990181 0.66481626
0.0020744251 -0.020484552 0.66522741
0.018500652 -0.015215278 0.66525185
0.015330426 -0.014031157 0.66548502
-0.00052574748 -0.028390348 0.66695142
-0.0010515937 -0.027341455 0.66696334
0.0013977555 -0.019748271 0.66660023
0.0033376548 -0.016513359 0.66726065
0.019579692 -0.013758689 0.66778034
0.0034344781 -0.010303959 0.66759574
0.0055474825 -0.0079253614 0.66758174
0.00053317758 -0.017594844 0.66874516
0.001326835 -0.013797045 0.66813666
0.014848179 -0.01219669 0.66804862
0.007694718 -0.010613099 0.66813666
0.007694718 -0.010613099 0.66813666
0.012282874 -0.008544594 0.66895294
-0.0013410049 -0.020644009 0.66947752
-0.0010700956 -0.0149813 0.66919672
-0.0023218859 -0.010536343 0.66936821
-0.0023218859 -0.010536343 0.66936821
0.0066936212 -0.0074961782 0.66929209
0.011541112 -0.007515043 0.66961718
0.004649248 -0.0067950985 0.66954184
-0.0016183761 -0.03290695 0.67026162
-0.0016183761 -0.03290695 0.67026162
-0.0027003959 -0.027274027 0.67041147
-0.0027073983 -0.02355437 0.67074955
0.019521194 -0.0059647858 0.67093682
0.021459803 -0.012366265 0.67174029
-0.0046628267 -0.023313791 0.67245734
0.028478695 -0.022454321 0.67224336
0.018700562 -0.0049501061 0.67281049
0.018700562 -0.0049501061 0.67281049
-0.0060921814 -0.022430122 0.67373228
-0.005518524 -0.020694166 0.67325372
-0.0005536059 -0.0077504814 0.67367709
-0.0005536059 -0.0077504814 0.67367709
0.0022086946 -0.0055217147 0.67333126
0.0025078915 -0.037609905 0.67453861
-0.0022273823 -0.015312806 0.67445922
0.023920994 -0.012516722 0.67432797
0.015013379 -0.0072286427 0.67426741
0.0025299122 -0.03737995 0.67572713
-0.0075745541 -0.027491257 0.67547321
-0.0075745541 -0.027491257 0.67547321
0.0011222889 -0.0044891238 0.67549706
-0.0056654997 -0.030593693 0.67680204
-0.0045354613 -0.030614346 0.67689443
-0.0073227161 -0.025911152 0.67601395
0.0093208347 -0.0062139034 0.676404
0.015855437 -0.0039638579 0.67673337
0.029577207 -0.029577196 0.67734343
-0.0040001567 -0.01428628 0.67798525
0.010435874 -0.005501966 0.67745352
0.014210042 -0.0051155984 0.67724907
0.017049484 -0.0022732615 0.67722845
0.0074663633 -0.040777832 0.67868167
-0.0034358369 -0.0045810938 0.67827213
0.010645352 -0.0046033412 0.67894322
0.0069086314 -0.040300339 0.67901564
0.0017279824 -0.036863595 0.67908204
-0.0034733647 -0.034154743 0.67978215
-0.0046218308 -0.013576195 0.67950082
0.014378794 -0.041582149 0.68075776
0.003483661 -0.037449419 0.68019646
0.026736982 -0.031677291 0.68034816
0.026804863 -0.023600057 0.68070441
-0.0063948119 -0.019474953 0.68037421
-0.0063948119 -0.019474953 0.68037421
0.0297738 -0.019265354 0.6809665
0.03151821 -0.016926438 0.68093526
0.026255915 -0.0058346391 0.68088561
-0.0064128144 -0.0034978688 0.68076938
-0.0064128144 -0.0034978688 0.68076938
0.019744528 -0.039684229 0.68161148
0.019744528 -0.039684229 0.68161148
0.020484921 -0.039506137 0.68132472
0.024621613 -0.035173744 0.68155295
0.026889775 -0.025428504 0.68115008
-0.0011747053 -0.00058734417 0.68182427
0.016685974 0.001170978 0.68137097
0.0094531858 -0.039585173 0.68266231
-0.0035310872 -0.03766492 0.68210477
0.024391143 -0.034423642 0.68249214
0.025589487 -0.031495631 0.68259394
-0.0094541656 -0.025702968 0.68267715
-0.0072728768 -0.023389837 0.68238229
0.015463667 -0.039550677 0.68361163
-0.0065300218 -0.03680557 0.68334174
0.026162103 -0.025567502 0.68357223
0.026162103 -0.025567502 0.68357223
0.030270074 -0.015431792 0.68331575
0.012442214 -0.0011849701 0.68306363
-0.0015822314 0.00039577484 0.68324298
0.0086797196 -0.038309693 0.68453693
0.0047845333 -0.036482066 0.68441081
0.020752756 -0.036716186 0.68455052
0.014763925 0.0025939941 0.6845271
0.01145952 -0.038298219 0.6856339
0.022267519 -0.036109477 0.68531811
0.022930585 -0.034999311 0.68570721
0.022965202 -0.032634765 0.68592715
-0.0096108196 -0.023426354 0.68504083
-0.0078070364 -0.021018922 0.68500823
0.010551393 -0.00060296059 0.6855948
0.010670304 -0.037193164 0.68722522
0.012558522 -0.03675665 0.68792224
0.022540806 -0.032288164 0.6871013
-0.011030702 -0.022061378 0.68797183
-0.011030702 -0.022061378 0.68797183
0.022562642 -0.0030489862 0.68724376
0.022562642 -0.0030489862 0.68724376
0.02264371 -0.002447933 0.68777269
-0.0064219432 0.0015295297 0.68766719
-0.0055001406 0.0012222528 0.68756378
0.012616041 0.0032561123 0.68740451
0.01353688 -0.036303431 0.68857437
0.01533459 -0.036189616 0.68810868
0.0064555807 -0.035353974 0.68846512
0.019030008 -0.03437677 0.68822634
0.019030008 -0.03437677 0.68822634
0.022819262 -0.028986633 0.68891817
0.022819262 -0.028986633 0.68891817
0.024524262 -0.024524271 0.68804175
0.011486754 0.0032822788 0.68858981
0.005574326 -0.034374103 0.6895538
0.014850077 0.0061875284 0.68940502
-0.0093592303 -0.004991591 0.69065934
0.00653168 0.0015550852 0.69020545
0.01555336 0.006221354 0.69022131
0.0084930919 -0.033971593 0.69190377
0.0084930919 -0.033971593 0.69190377
0.002505766 -0.031948477 0.69126111
0.022608034 -0.025433749 0.69163764
-0.010656065 -0.0065811574 0.69135427
-0.010656065 -0.0065811574 0.69135427
0.021737292 0.00020928185 0.69140673
-0.0075110681 0.0037555099 0.69113576
0.010441897 -0.033540681 0.6928066
0.010441897 -0.033540681 0.6928066
0.011389663 -0.033536196 0.69278634
0.0053673037 -0.032832757 0.69245815
0.019589204 -0.031595469 0.6925813
-0.003164879 0.0082287192 0.69283867
0.015588322 -0.031813622 0.69363463
-0.0095520588 -0.01146245 0.69376284
0.0054399502 -0.031677336 0.69452482
0.0064124856 -0.029497415 0.69483578
0.019826895 -0.027501792 0.69443238
0.017640958 -0.023093611 0.69489419
0.02051435 -0.02307862 0.69479364
0.02051435 -0.02307862 0.69479364
0.017609585 -0.022412196 0.6946187
-0.013401372 -0.018506646 0.69409037
-0.011520639 -0.014400825 0.694543
-0.012771703 -0.0089401901 0.69419289
-0.010254299 0.0064089298 0.69475019
0.01155322 0.0096276999 0.69498003
0.0086690914 -0.032107502 0.69505364
0.0077092382 -0.028909624 0.69512266
0.0077092382 -0.028909624 0.69512266
0.016151337 -0.026488155 0.69599587
0.011621787 -0.024534881 0.69589961
0.017374055 -0.024452358 0.69537544
0.020623401 0.0032224357 0.69561636
0.009668869 0.0083796978 0.69564283
0.0065013189 0.006501317 0.69698048
-0.00065567705 0.011146486 0.69831926
0.0046294346 0.0072748661 0.69968826
0.0092566488 0.011901438 0.69964999
-0.0086247055 0.0099515915 0.70019305
0.003660867 0.0096510574 0.70071566
0.003660867 0.0096510574 0.70071566
0.0073037962 0.010623753 0.70032406
-0.0026607052 0.01263836 0.70061249
-0.013376568 0.00033412874 0.70149422
-0.012784161 0.011438489 0.70246524
-0.011485789 -0.0013512373 0.7031374
0.0074335425 0.013515562 0.70317167
-0.016309354 -0.011552453 0.70408422
-0.012605303 -0.0044290647 0.7045213
-0.012605303 -0.0044290647 0.7045213
0.017696502 0.0088482797 0.70434451
0.018387653 0.0095343292 0.70443857
0.018387653 0.0095343292 0.70443857
-0.011569339 0.012249887 0.70432395
-0.0088359965 0.013593853 0.70411694
0.0061371564 0.013638139 0.70465147
0.007500675 0.015001357 0.70464504
-0.017178394 -0.0096198916 0.70591396
-0.0047857789 0.015724748 0.70508033
0.0082569607 0.01720202 0.70614195
0.0069443332 0.017360836 0.70767576
-0.011523888 0.01536417 0.70862651
-0.0090578999 0.01741904 0.70823789
0.015441842 0.011582121 0.70947886
0.015441842 0.011582121 0.70947886
0.0014117674 0.014471427 0.71044016
0 0.017702609 0.71097618
-0.0035213449 0.019015253 0.71005034
-0.0014197956 0.016327649 0.71140921
0.0078227157 0.020623535 0.71171308
0.00071376504 0.019271672 0.71234286
-0.018056361 -0.0028889775 0.71439242
-0.019538453 0.0025324523 0.71472847
-0.018393595 0.0036066473 0.71416837
-0.016601223 0.0043307841 0.71428084
-0.01522278 0.0036244988 0.71502972
-0.019716274 -0.0007302165 0.71631843
-0.02043926 0.00036528707 0.71625596
0.012538536 0.016963899 0.71808773
-0.013603013 0.018893093 0.72247243
-0.0061530303 0.023073852 0.72570884
-0.0065714763 0.02358 0.72667104
-0.0015457714 0.024732351 0.72661591
-0.017091304 0.013206959 0.72757947
-0.014783477 0.021786183 0.72786939
-0.020372812 0.010969996 0.72919524
-0.019668903 0.012588114 0.72996455
-0.0074604703 0.025522679 0.72961593
-0.02128135 0.011034787 0.73031259
-0.020577077 0.012662858 0.73109186
0.0047487291 0.022952229 0.73109889
0.0015938006 0.02470392 0.73241353
0.0015987065 0.026378661 0.73300576
-0.01706635 0.029256642 0.73622388
-0.022104474 0.023741871 0.73767257
-0.014763657 0.031987906 0.73803937
-0.024899025 0.017429322 0.74039662
-0.022688877 0.030251831 0.74289805
-0.018411536 0.033475548 0.7420674
-0.018411536 0.033475548 0.7420674
-0.00084854133 0.033093154 0.74488074
-0.012730171 0.037341863 0.74491382
-0.012730171 0.037341863 0.74491382
-0.021482557 0.036090732 0.74747866
-0.025959853 0.032017171 0.74893355
-0.027739558 0.026872665 0.74930358
-0.0043896092 0.038628548 0.75197381
-0.0043896092 0.038628548 0.75197381
-0.021908522 0.039435357 0.75159216
-0.0078805489 0.040278345 0.75141728
-0.010510205 0.041164964 0.75147378
-0.02922737 0.023913324 0.75384629
-0.027451115 0.035420835 0.75380814
-0.024771577 0.03892678 0.75361001
-0.029506244 0.033082783 0.7558865
-0.011602176 0.043731272 0.75548732
-0.010744418 0.043873101 0.75618577
-0.018103478 0.046163917 0.75855303
-0.03008201 0.038286239 0.7600987
0.015090141 -0.014772396 0.66470122
0.0029108396 -0.0123045 0.66779077
0.00079472183 -0.011648677 0.66785413
0.0070899287 -0.0091359504 0.66758102
-0.0021517924 -0.023400545 0.6698969
0.02386038 -0.016437143 0.66803372
0.0031004481 -0.013287425 0.66833401
0.016946347 -0.012332316 0.66854358
0.018293371 -0.011836886 0.66991925
-0.00088326243 -0.034636598 0.67119026
-0.00088326243 -0.034636598 0.67119026
-0.0033077355 -0.010398643 0.67062759
0.017048744 -0.0087342653 0.67092127
0.0016370259 -0.0076394379 0.67176247
-0.0046205814 -0.026244175 0.67388123
0.025976518 -0.016028047 0.67345637
0.022010975 -0.0055027306 0.67287272
0.0044945125 -0.039888769 0.6756587
-0.0035367585 -0.030711006 0.67482853
-0.008433247 -0.028954037 0.67575586
0.028040197 -0.0095336735 0.6754148
0.014895744 -0.0067395889 0.67488843
0.00085566065 -0.034771591 0.67763609
-0.003975464 -0.031521007 0.67713362
-0.0087738959 -0.027593844 0.67667603
0.028426221 -0.0090963542 0.6772787
0.0088992026 -0.0062153786 0.6764366
0.0045278077 -0.0028298795 0.67666346
0.0045278077 -0.0028298795 0.67666346
-0.0057512722 -0.018978706 0.67887276
0.010950814 -0.0046389769 0.67893869
0.014923233 -0.0028498471 0.67882341
0.016031951 -0.0022902787 0.67825532
0.0017337131 2.9802322e-08 0.6795432
0.025665354 -0.033276461 0.68138397
0.02962096 -0.016799957 0.68070167
0.015019807 -0.039556667 0.68363345
0.02317171 -0.037326671 0.68316168
0.025475588 -0.03103232 0.68306673
-0.0077994051 -0.020998051 0.68486661
0.01087379 -0.0010390341 0.68482059
-0.0029051451 0.00090257329 0.68511581
0.021026764 -0.035184279 0.68704718
0.011614799 0.0024452209 0.68760693
0.016974753 0.0036374629 0.68638432
0.024218768 -0.02483524 0.68868089
0.0055798069 -0.001549378 0.68970078
-0.007205015 0.0026774108 0.68914151
0.0068179341 0.0030981998 0.68965852
0.021225926 -0.031317662 0.6911183
0.021225926 -0.031317662 0.6911183
-0.012973872 -0.021127174 0.69108719
-0.0082576452 -0.01515477 0.69143414
-0.0068777967 0.003543685 0.69096565
0.0090745557 0.0047728084 0.69111049
0.021621786 -0.025277428 0.69355303
-0.010276696 -0.015360579 0.69348806
-0.0073814853 -0.012652735 0.69276798
-0.011459989 -0.0092517436 0.69231772
-0.0015823154 0.0082333088 0.69292402
0.0069354647 -0.032116529 0.69458354
0.016910098 -0.024963127 0.69554675
-0.0093040299 0.0066316873 0.69494915
0.012952752 -0.030654252 0.69637728
-0.012540975 0.0085806847 0.69937521
0.0059517222 0.0085969567 0.69967735
-0.0058113439 0.012950957 0.70036
0.0091076707 0.013019932 0.70094132
-0.016707359 -0.0069846273 0.70532829
-0.016707359 -0.0069846273 0.70532829
-0.010876175 -0.0031722586 0.70412874
0.0052427799 0.013222258 0.70513046
-0.010735741 0.014774795 0.7072224
-0.018823326 -0.0051074997 0.71313924
-0.01367882 0.0064794719 0.71383309
-0.020543125 0.0022010803 0.71715158
-0.0051103365 0.023505967 0.72507048
-0.019101728 0.012821674 0.72953528
-0.018203713 0.023349285 0.73110151
-0.011073741 0.023200884 0.73097229
-0.011073741 0.023200884 0.73097229
-0.015262005 0.024097949 0.73394966
-0.0031975664 0.028793275 0.73311663
-0.0031975664 0.028793275 0.73311663
-0.021311097 0.023770064 0.73790759
-0.021311097 0.023770064 0.73790759
-0.011146883 0.029090207 0.73693049
-0.011146883 0.029090207 0.73693049
-0.0049013598 0.031579565 0.73718995
-0.023936527 0.011555582 0.73929334
-0.0012401624 0.031001642 0.7396096
-0.0049524363 0.032735735 0.73925674
-0.02251802 0.028774083 0.74137032
-0.0029380647 0.033595935 0.74279398
-0.0089482442 0.037499264 0.74577737
-0.027708374 0.021213293 0.74906826
-0.025360148 0.03285294 0.74874353
-0.0043896092 0.038628548 0.75197381
-0.022550277 0.040677115 0.75351006
-0.012770077 0.042274326 0.75264812
-0.027307531 0.037101269 0.75499249
-0.020592513 0.043871015 0.75617576
-0.0072495118 0.043497086 0.75879812
-0.031347875 0.038723856 0.76261437
0.0045503876 -0.020791484 0.6636225
0.017928019 -0.016734371 0.66503704
-0.0020453564 -0.010022864 0.67006415
-0.0027327188 -0.015266076 0.6752764
0.022424648 -0.010403559 0.67293781
0.0027562785 -0.0036712238 0.67480457
-0.0059510604 -0.032712519 0.67816836
0.027688516 -0.025974445 0.67822033
-0.0051716082 -0.017974913 0.67802751
0.028580971 -0.017950913 0.67871833
0.0095635271 -0.039535936 0.68271607
0.0095635271 -0.039535936 0.68271607
-0.0068288776 -0.021746129 0.68151337
-0.0058571748 -0.0021607233 0.68219435
0.022627447 -0.034104493 0.68615562
0.0026925949 -0.032693561 0.68959349
0.01411587 -0.03463544 0.69059205
-0.010057166 -0.0084862923 0.69178224
0.01401392 -0.025799207 0.6956476
-0.013230076 -0.013870673 0.69462281
0.0097231185 0.010406535 0.6976608
0.0063594556 0.012690628 0.7025947
0.016369412 0.01342922 0.71062171
-0.020850763 -0.0062738871 0.7143454
-0.015535977 0.01000157 0.71246684
-0.013719751 0.019628298 0.72587812
-0.01881272 0.013669851 0.73003149
-0.025394809 0.021622147 0.7421211
-0.022036357 0.030053629 0.74202722
-0.01949623 0.031111509 0.74031627
-0.010003718 0.036231272 0.74344331
-0.024074633 0.03353253 0.74760091
-0.017841477 0.040782221 0.75099981
-0.02176117 0.041601036 0.75408244
-0.018416593 0.042680841 0.75378537
