# .PCD v0.7 - Point Cloud Data file format
VERSION 0.7
FIELDS x y z
SIZE 4 4 4
TYPE F F F
COUNT 1 1 1
WIDTH 1314
HEIGHT 1
VIEWPOINT 0 0 0 1 0 0 0
POINTS 1314
DATA ascii
-0.0057787932 0.023115158 0.67953718
-0.0058354707 0.022758335 0.68090546
-0.0058773411 0.02233392 0.68191636
-0.0059170751 0.021893203 0.68287563
-0.0059512891 0.021424651 0.68370157
-0.0059591071 0.020856857 0.68389034
-0.0059579834 0.020257145 0.68386316
-0.0059570028 0.019658089 0.68383956
-0.0059557981 0.019058585 0.68381041
-0.0059537571 0.018456668 0.68376112
-0.0059516765 0.017855018 0.68371093
-0.0059496178 0.017253935 0.68366122
-0.0059478865 0.016654134 0.68361944
-0.0059449761 0.016051471 0.68354917
-0.005941581 0.015448123 0.68346721
-0.0059380881 0.014845222 0.68338287
-0.0059343153 0.014242351 0.68329179
-0.0059290901 0.013636887 0.68316567
-0.0059238947 0.013032556 0.6830402
-0.0049855905 0.010469764 0.66038752
-0.0049787471 0.0099575222 0.66022229
-0.0049725343 0.0094478428 0.66007233
-0.0049691778 0.0089445412 0.65999126
-0.0049661235 0.0084424317 0.65991759
-0.0049664644 0.0079464018 0.65992582
-0.0049678846 0.0074518323 0.65996015
-0.0049732029 0.006962508 0.66008848
-0.0049828165 0.006477654 0.66032058
-0.0049998956 0.0059998631 0.66073292
-0.0050310395 0.0055341721 0.66148478
-0.005142001 0.0051420033 0.66416365
-0.0051360424 0.0046224594 0.66401982
-0.005146571 0.0041172802 0.66427398
-0.0051819845 0.0036274195 0.66512895
-0.0051959641 0.0031176209 0.66546643
-0.0052294489 0.0026147664 0.66627479
-0.0052418979 0.002096802 0.66657537
-0.0052447622 0.0015734136 0.66664451
-0.005241123 0.0010482669 0.6665566
-0.0052349484 0.0005235076 0.66640759
-0.0052289767 2.9802322e-08 0.6662634
-0.0052261925 -0.00052261353 0.66619623
-0.0052281427 -0.0010456443 0.66624331
-0.0052360529 -0.001570791 0.66643423
-0.0052541364 -0.00210163 0.66687083
-0.0053909044 -0.0026954412 0.67017269
-0.00556937 -0.0033415854 0.67448121
-0.0057600555 -0.0040320158 0.67908478
-0.0059643034 -0.0047714412 0.68401575
-0.0061631678 -0.005546838 0.68881679
-0.0061936649 -0.0061936378 0.68955302
-0.006203772 -0.0068241656 0.6897971
-0.0062082498 -0.0074498951 0.68990517
-0.0062239296 -0.0080910921 0.69028366
-0.0063056126 -0.0088278651 0.69225574
-0.0067580286 -0.010137051 0.70317805
-0.0067522763 -0.01080364 0.70303917
-0.0067444914 -0.011465639 0.70285118
-0.0067367242 -0.012126058 0.70266366
-0.0067291572 -0.012785375 0.70248103
-0.006721789 -0.013443559 0.70230311
-0.0067135291 -0.014098376 0.70210373
-0.0067038406 -0.014748424 0.70186979
-0.0066903136 -0.015387714 0.70154321
-0.0066853706 -0.016044855 0.70142388
-0.0067773792 -0.016943425 0.70364517
-0.0071759173 -0.018657357 0.71326673
-0.0070578819 -0.019056261 0.71041715
-0.0071800691 -0.02010417 0.71336699
-0.0088039525 -0.025531471 0.75257099
-0.0090191746 -0.027057528 0.7577669
-0.0092487261 -0.028670996 0.7633087
-0.0095021008 -0.030406713 0.76942581
-0.0050648265 0.031514496 0.67588669
-0.0050416701 0.030810207 0.67526555
-0.005029588 0.030177534 0.67494142
-0.0050219311 0.029573619 0.67473602
-0.004691958 0.027109087 0.66588461
-0.0046694828 0.026460409 0.66528171
-0.004667378 0.025929898 0.66522527
-0.0047232802 0.025715649 0.66672486
-0.0047820439 0.025504231 0.66830117
-0.0048385118 0.02526778 0.6698159
-0.0048963297 0.025025725 0.67136681
-0.004955546 0.02477777 0.67295527
-0.0050162119 0.024523735 0.6745826
-0.0050780182 0.024261653 0.67624056
-0.0051207747 0.023896962 0.67738748
-0.0051561343 0.023489058 0.67833602
-0.005190107 0.023067176 0.67924726
-0.0052250717 0.022642016 0.6801852
-0.0052642832 0.022226989 0.68123698
-0.0053099417 0.021829784 0.6824618
-0.005363638 0.021454573 0.6839022
-0.0053725759 0.020893365 0.68414199
-0.0053719301 0.020293981 0.68412459
-0.005371118 0.01969409 0.68410277
-0.0053702146 0.01909411 0.68407863
-0.0053684814 0.018491417 0.68403208
-0.0053667496 0.017889172 0.68398565
-0.005365184 0.017287821 0.68394363
-0.005363638 0.016686887 0.68390214
-0.0053618173 0.016085476 0.68385333
-0.0053587486 0.015480846 0.68377101
-0.0053556832 0.014876902 0.68368882
-0.005352695 0.014273882 0.68360859
-0.0053485022 0.013668388 0.68349618
-0.005343914 0.013062894 0.68337309
-0.0053393338 0.012458444 0.68325025
-0.0053341244 0.011853635 0.68311048
-0.004478639 0.009454906 0.66016245
-0.0044728736 0.0089457631 0.66000777
-0.0044686808 0.0084408522 0.6598953
-0.0044659111 0.0079393983 0.65982103
-0.0044655921 0.0074426532 0.65981245
-0.0044665746 0.006948024 0.65983886
-0.0044714538 0.0064587593 0.65996969
-0.0044790367 0.0059720576 0.66017312
-0.0044941502 0.0054928958 0.66057849
-0.004522644 0.0050251782 0.66134286
-0.0046254327 0.0046254396 0.66410011
-0.0046199388 0.004106611 0.66395277
-0.0046291165 0.0036004484 0.66419894
-0.004661256 0.0031075478 0.665061
-0.0046747876 0.0025970936 0.66542405
-0.0047059376 0.0020915568 0.66625965
-0.004716442 0.0015721619 0.66654146
-0.0047184201 0.0010485649 0.66659445
-0.0047144652 0.00052386522 0.66648841
-0.0047102328 -0 0.6663748
-0.0047105593 -0.00052341819 0.66638362
-0.0047164988 -0.0010481179 0.66654289
-0.00473422 -0.0015780926 0.66701829
-0.0048743649 -0.0021663606 0.67077762
-0.0050365059 -0.0027980506 0.67512697
-0.0051964894 -0.0034643412 0.6794185
-0.0053955088 -0.0041964948 0.68475711
-0.0055640233 -0.0049457848 0.68927741
-0.0055861273 -0.0055861175 0.68987036
-0.0055945418 -0.0062161088 0.69009602
-0.0055969651 -0.0068407059 0.69016111
-0.0055953828 -0.0074605048 0.69011867
-0.0055924412 -0.0080779493 0.69003975
-0.005603564 -0.0087166429 0.69033808
-0.0056564105 -0.0094273686 0.69175577
-0.0060808538 -0.010810405 0.70314121
-0.0060738386 -0.011472791 0.70295298
-0.0056274827 -0.011254936 0.69097972
-0.005614893 -0.011853635 0.690642
-0.006052631 -0.013450295 0.70238411
-0.0060429936 -0.014100313 0.70212567
-0.0060295481 -0.014738917 0.70176494
-0.0060109124 -0.01536119 0.70126498
-0.0059930575 -0.015981495 0.70078611
-0.0060531232 -0.016814202 0.70239735
-0.0061705308 -0.017825961 0.70554674
-0.0062951413 -0.018885404 0.70888937
-0.0064257863 -0.019991308 0.71239388
-0.0065620514 -0.02114436 0.71604919
-0.0081063155 -0.02702105 0.75747341
-0.0083233658 -0.028669327 0.76329565
-0.0085579762 -0.03042835 0.76958901
-0.0045116991 0.032145858 0.67617732
-0.0044903592 0.031432509 0.67553329
-0.0044794474 0.0307962 0.67520404
-0.0044725863 0.030189961 0.67499697
-0.0041799606 0.027692258 0.66616625
-0.004158475 0.02703011 0.66551781
-0.0041591469 0.02651456 0.66553813
-0.0042071766 0.026294887 0.66698754
-0.0042563551 0.026070207 0.66847163
-0.0043066833 0.025840104 0.66999042
-0.0043582297 0.025604635 0.67154598
-0.0044074296 0.025342703 0.67303073
-0.0044416557 0.02498433 0.67406356
-0.0044704424 0.024587452 0.6749323
-0.0044991537 0.024182975 0.67579871
-0.0045288107 0.023776263 0.67669374
-0.0045622736 0.02338168 0.67770356
-0.0046009058 0.023004532 0.67886937
-0.0046476144 0.022657126 0.6802789
-0.0047023348 0.022336125 0.68193024
-0.0047617815 0.02202329 0.68372422
-0.0047835782 0.021526098 0.68438202
-0.0047835126 0.020927876 0.68437999
-0.0047830185 0.020327836 0.68436515
-0.0047825249 0.019727916 0.68435025
-0.0047820313 0.019128144 0.68433529
-0.0047812415 0.018527329 0.68431151
-0.0047798441 0.017924458 0.68426931
-0.0047784634 0.017321974 0.68422765
-0.0047770841 0.016719788 0.68418598
-0.004775574 0.016117573 0.68414044
-0.0047734417 0.015513718 0.68407607
-0.0047707055 0.014908493 0.68399352
-0.0047682505 0.014304787 0.68391943
-0.00476503 0.013699472 0.68382227
-0.004761145 0.013093174 0.68370497
-0.0047571529 0.012487531 0.68358457
-0.0047523379 0.011880875 0.68343925
-0.004747225 0.011274666 0.683285
-0.0047415406 0.010668457 0.68311346
-0.0039738645 0.008444488 0.65994674
-0.0039692344 0.0079384744 0.65980697
-0.0039669797 0.0074380934 0.65973896
-0.003966176 0.0069408119 0.6597147
-0.0039670817 0.0064465106 0.65974206
-0.003971491 0.0059572756 0.65987509
-0.0039788014 0.0054708719 0.66009569
-0.0039920239 0.0049900413 0.66049474
-0.0040177344 0.0045199692 0.66127062
-0.0041092588 0.0041092932 0.66403258
-0.004104381 0.0035913587 0.66388541
-0.004115684 0.0030867755 0.66422653
-0.0041434374 0.002589643 0.6650641
-0.0041547953 0.0020774007 0.66540682
-0.0041837604 0.0015689433 0.66628087
-0.0041918489 0.0010479689 0.66652501
-0.0041924557 0.00052404404 0.6665433
-0.0041903071 -0 0.66647846
-0.004193088 -0.00052410364 0.66656238
-0.0042025335 -0.0010506213 0.66684747
-0.004232957 -0.0015873611 0.66776556
-0.0044654156 -0.0022327006 0.67478061
-0.0045505334 -0.0028440654 0.67734927
-0.0048208106 -0.0036155879 0.68550563
-0.0049585202 -0.0043387115 0.68966138
-0.0049760062 -0.0049759746 0.690189
-0.0049828747 -0.0056056976 0.69039631
-0.0049845721 -0.0062307119 0.69044757
-0.0049827853 -0.0068513155 0.69039357
-0.004978484 -0.0074677169 0.69026375
-0.0049726949 -0.0080806017 0.69008911
-0.0049672034 -0.0086925924 0.68992341
-0.0049638506 -0.0093072057 0.6898222
-0.0049592103 -0.0099183917 0.68968213
-0.004951084 -0.010521024 0.68943691
-0.0049436525 -0.01112318 0.68921262
-0.0049356823 -0.011722237 0.68897212
-0.0049355067 -0.012338758 0.68896687
-0.0049948008 -0.013111353 0.6907562
-0.0053482349 -0.014707625 0.70142204
-0.0053156102 -0.015282363 0.70043743
-0.0052671633 -0.015801489 0.69897544
-0.0053485641 -0.016714245 0.70143199
-0.005455079 -0.017728955 0.70464635
-0.0055663241 -0.018786341 0.7080034
-0.0056822239 -0.019887745 0.711501
-0.0058047492 -0.021042198 0.71519852
-0.0072089029 -0.027033359 0.75757265
-0.0074061952 -0.028699011 0.7635265
-0.0076251607 -0.030500621 0.77013433
-0.0039368486 0.032057226 0.67580175
-0.0039271615 0.03141731 0.67546773
-0.0039211218 0.030808836 0.67525941
-0.0036706685 0.028316617 0.66662163
-0.0036464992 0.027609199 0.66578799
-0.0036449255 0.027076632 0.66573375
-0.0036852397 0.026849598 0.66712415
-0.0037283639 0.026631176 0.66861141
-0.003766784 0.026367515 0.66993648
-0.0037940233 0.026016235 0.67087591
-0.0038176768 0.025632977 0.67169172
-0.0038416025 0.025244832 0.67251688
-0.0038664078 0.024855494 0.67337239
-0.0038945389 0.024479955 0.67434263
-0.0039267684 0.024121553 0.67545414
-0.0039657461 0.023794472 0.67679846
-0.0040111868 0.023494095 0.67836565
-0.0040575317 0.023185909 0.67996401
-0.0041052923 0.022872359 0.68161118
-0.0041591632 0.022578359 0.68346918
-0.0041919071 0.022157222 0.68459845
-0.0041925716 0.021561801 0.68462133
-0.0041924273 0.020962179 0.68461639
-0.0041919937 0.020361125 0.68460143
-0.0041915458 0.019760191 0.68458599
-0.0041913148 0.01916033 0.684578
-0.0041911849 0.018560946 0.68457353
-0.0041905204 0.017959386 0.68455064
-0.0041894233 0.017356187 0.68451273
-0.0041881967 0.016752779 0.68447053
-0.0041869711 0.016149759 0.68442827
-0.0041854437 0.015545934 0.68437558
-0.0041832845 0.014940351 0.68430108
-0.0041812276 0.014335632 0.68423015
-0.0041801641 0.013734847 0.68419343
-0.0042713815 0.013424337 0.68733943
-0.0044041621 0.013212502 0.69191885
-0.0045074061 0.012878329 0.69547963
-0.0046000169 0.012485743 0.69867367
-0.0046861791 0.012050211 0.70164526
-0.0047726696 0.011590749 0.70462829
-0.0034755813 0.0079442263 0.65989327
-0.0034708001 0.0074374378 0.65972841
-0.0034688003 0.006937623 0.65965939
-0.0034680092 0.0064406097 0.65963209
-0.0034691864 0.0059471726 0.65967274
-0.0034729708 0.0054575503 0.65980321
-0.003479539 0.0049707592 0.66002977
-0.0034924189 0.0044902563 0.66047394
-0.0035164321 0.0040187538 0.66130215
-0.0035936467 0.0035936534 0.66396523
-0.0035893936 0.0030766129 0.66381848
-0.003603742 0.002574116 0.66431332
-0.003626362 0.0020722449 0.66509348
-0.0036415202 0.001560688 0.66561627
-0.0036624111 0.0010464191 0.66633677
-0.0036676242 0.00052395463 0.66651654
-0.0036679008 2.9802322e-08 0.66652608
-0.0036709898 -0.00052437186 0.66663265
-0.0036812017 -0.001051724 0.66698486
-0.0037142669 -0.0015918314 0.66812527
-0.0039216401 -0.002240926 0.67527729
-0.0039780959 -0.0028415024 0.6772244
-0.0043489453 -0.0037276447 0.69001448
-0.0043632844 -0.0043632984 0.69050908
-0.004368755 -0.0049928427 0.69069767
-0.004369854 -0.0056183636 0.69073558
-0.0043679392 -0.0062398911 0.69066954
-0.0043639895 -0.0068576932 0.6905334
-0.0043589058 -0.0074723959 0.69035804
-0.0043538497 -0.0080856681 0.69018364
-0.0043488052 -0.0086975992 0.69000965
-0.0043437881 -0.0093080997 0.68983662
-0.0043387674 -0.00991714 0.68966353
-0.0043328931 -0.010522723 0.68946087
-0.0043248036 -0.011120886 0.68918192
-0.0043140645 -0.011709571 0.68881154
-0.0043022064 -0.012291998 0.68840253
-0.0043285443 -0.012985617 0.68931091
-0.0044031097 -0.013838321 0.69188261
-0.0044868686 -0.014742523 0.69477129
-0.0045678457 -0.01566115 0.69756407
-0.0046576075 -0.016634285 0.70065987
-0.0047503174 -0.017644018 0.70385736
-0.0048467168 -0.01869446 0.70718205
-0.0049478137 -0.019791245 0.71066874
-0.0050757211 -0.021027952 0.71508008
-0.0063136844 -0.027058631 0.7577759
-0.0064978371 -0.028776109 0.76412719
-0.0067051593 -0.030652136 0.77127749
-0.0033794192 0.032104462 0.67600209
-0.0033680089 0.031434745 0.67554295
-0.0033632603 0.030829906 0.67535192
-0.0031330015 0.02819705 0.66608703
-0.0031261144 0.027614027 0.66580993
-0.0031549816 0.027343214 0.66697139
-0.003176217 0.026997894 0.66782582
-0.0031955347 0.026629478 0.66860318
-0.003215089 0.026256591 0.66938996
-0.003235436 0.025883466 0.67020869
-0.0032586278 0.025525957 0.6711418
-0.0032850194 0.025185168 0.67220372
-0.0033169005 0.024876773 0.67348653
-0.0033539108 0.02459535 0.67497575
-0.0033917013 0.024307191 0.67649627
-0.0034303418 0.024012417 0.67805099
-0.0034698846 0.023710877 0.67964208
-0.0035112833 0.023408532 0.68130791
-0.0035579398 0.023126602 0.68318522
-0.00359548 0.022771388 0.68469572
-0.0035990675 0.022194266 0.68484008
-0.0035993161 0.021595895 0.68485004
-0.0035993285 0.020996124 0.68485051
-0.0035990179 0.020394444 0.68483806
-0.0035987692 0.019793272 0.68482804
-0.00359867 0.019192934 0.68482405
-0.0035985706 0.018592626 0.68482006
-0.0035983468 0.017991751 0.68481106
-0.0035977757 0.017389268 0.68478805
-0.0035969191 0.016785651 0.68475354
-0.0035959512 0.016181797 0.68471467
-0.0035946989 0.015577048 0.68466431
-0.0035961622 0.014984012 0.68472314
-0.0036586013 0.01463443 0.68723553
-0.0037403742 0.014338106 0.69052577
-0.0038147273 0.013987333 0.69351751
-0.0038836426 0.01359275 0.69629049
-0.0039529488 0.013176501 0.69907916
-0.0040184748 0.012725174 0.70171565
-0.0040851361 0.01225543 0.70439798
-0.0041502598 0.011759073 0.70701826
-0.0042157532 0.011242002 0.70965356
-0.0029776059 0.0074440539 0.65983438
-0.0029733677 0.0069378614 0.65966386
-0.0029715877 0.0064384341 0.65959227
-0.0029708594 0.0059417188 0.65956295
-0.0029720368 0.0054487586 0.65961027
-0.0029758378 0.0049597323 0.65976322
-0.0029822998 0.0044734776 0.66002321
-0.0029942414 0.0039923191 0.66050369
-0.0030162127 0.003518939 0.6613878
-0.0030786039 0.0030786097 0.66389823
-0.0030749531 0.0025624633 0.6637513
-0.0030944508 0.0020629764 0.66453588
-0.0031102113 0.001555115 0.66517001
-0.0031279435 0.0010426641 0.66588348
-0.0031402593 0.00052338839 0.66637903
-0.0031434507 -0 0.66650742
-0.0031459266 -0.00052428246 0.66660702
-0.0031540843 -0.0010513365 0.66693527
-0.0031784347 -0.0015892088 0.66791511
-0.0033471691 -0.0022314489 0.67470443
-0.0033884048 -0.0028236508 0.67636371
-0.0034306692 -0.0034306645 0.67806423
-0.0037521683 -0.0043774843 0.69100034
-0.003752776 -0.0050036907 0.69102484
-0.0037508181 -0.0056262016 0.69094604
-0.0037472718 -0.0062454343 0.69080329
-0.0037429126 -0.0068619847 0.69062799
-0.003738563 -0.0074771345 0.69045293
-0.003734224 -0.0080907941 0.69027829
-0.003729908 -0.0087030828 0.69010472
-0.0037255357 -0.0093138218 0.68992871
-0.0037200048 -0.009920001 0.68970621
-0.0037123871 -0.010518402 0.68939966
-0.0037023926 -0.011107177 0.68899757
-0.003688297 -0.01167962 0.68843037
-0.0036690319 -0.012230098 0.68765521
-0.0036874097 -0.012905926 0.68839467
-0.0037529247 -0.013760716 0.69103074
-0.0038235565 -0.014656961 0.69387281
-0.0038968979 -0.015587568 0.69682384
-0.0039731078 -0.016554564 0.69989026
-0.0040522637 -0.017559797 0.70307529
-0.004134113 -0.018603474 0.70636857
-0.0051429677 -0.024000496 0.74696183
-0.0052761692 -0.02550143 0.75232142
-0.0054278476 -0.027139217 0.75842452
-0.0055979593 -0.028922796 0.76526922
-0.0057933386 -0.030897796 0.77313066
-0.0028092337 0.031463414 0.67566657
-0.0026195894 0.028815508 0.66650975
-0.0026075116 0.028161138 0.66592658
-0.0026019195 0.02758038 0.66565657
-0.0026174742 0.027221739 0.66640759
-0.0026337109 0.026863843 0.66719157
-0.0026523189 0.026523232 0.66809005
-0.0026733619 0.026198953 0.66910613
-0.0026987346 0.025907844 0.67033124
-0.002728068 0.025643826 0.67174757
-0.0027580634 0.025374174 0.67319584
-0.0027887258 0.025098562 0.67467636
-0.0028200774 0.024816692 0.67619014
-0.0028521419 0.024528444 0.67773837
-0.0028854138 0.024237484 0.67934489
-0.0029198045 0.023942441 0.68100542
-0.0029565135 0.023652107 0.68277782
-0.002990694 0.02332744 0.68442822
-0.00300335 0.02282548 0.68503934
-0.003003672 0.022227198 0.6850549
-0.0030039421 0.02162841 0.68506795
-0.003004181 0.021029294 0.6850794
-0.003004181 0.020428449 0.68507946
-0.0030040978 0.019827038 0.6850754
-0.0030040147 0.019225687 0.68507141
-0.0030039214 0.018624336 0.68506688
-0.0030038382 0.018023044 0.68506289
-0.003003537 0.01742053 0.68504834
-0.0030030801 0.016817272 0.68502629
-0.0030026857 0.01621452 0.68500721
-0.003020718 0.015707731 0.68587792
-0.0030788751 0.015394419 0.68868601
-0.0031325801 0.015036404 0.69127905
-0.003186706 0.014658868 0.69389254
-0.0032380214 0.014247298 0.69637024
-0.0032900569 0.013818234 0.69888276
-0.003341181 0.013364732 0.70135123
-0.0033921169 0.0128901 0.70381063
-0.0034440015 0.012398422 0.70631588
-0.0034944308 0.011881053 0.70875084
-0.0035460982 0.011347532 0.71124554
-0.003597826 0.010793507 0.71374321
-0.0024799993 0.0069440007 0.65976971
-0.0024764643 0.0064388216 0.65959907
-0.0024750109 0.0059400201 0.65952885
-0.0024747287 0.0054444373 0.65951526
-0.0024758433 0.0049516559 0.65956903
-0.0024793057 0.0044627786 0.65973622
-0.00248552 0.0039768517 0.66003621
-0.0024973101 0.0034962296 0.66060555
-0.0025175901 0.0030211508 0.66158473
-0.0025641173 0.0025641322 0.66383135
-0.0025612295 0.0020489991 0.66369182
-0.0025826881 0.0015496016 0.66472793
-0.0025932509 0.0010372996 0.66523802
-0.0026111875 0.0005222559 0.66610402
-0.0026179238 2.9802322e-08 0.66642928
-0.0026202295 -0.00052404404 0.66654062
-0.0026250754 -0.0010500252 0.66677463
-0.002637221 -0.0015823245 0.66736102
-0.0026670992 -0.0021336675 0.66880369
-0.0028043727 -0.0028043687 0.67543185
-0.0028391103 -0.0034069121 0.67710912
-0.0028758135 -0.0040261149 0.67888129
-0.0031314394 -0.005010277 0.69122398
-0.0031283495 -0.0056310296 0.69107485
-0.0031247037 -0.006249398 0.69089878
-0.0031210661 -0.0068663359 0.69072318
-0.003117437 -0.0074818432 0.69054794
-0.0031138277 -0.0080959201 0.6903736
-0.0031099147 -0.0087077022 0.69018471
-0.0031049571 -0.0093148649 0.68994534
-0.0030980583 -0.0099137723 0.68961221
-0.0030888268 -0.010502011 0.68916655
-0.0030755941 -0.011072099 0.68852758
-0.0029812921 -0.011328906 0.68397427
-0.0030076967 -0.01203078 0.68524921
-0.0030570638 -0.012839645 0.68763286
-0.0031132698 -0.013698399 0.69034672
-0.0031715925 -0.01458931 0.6931628
-0.0032321422 -0.015514255 0.69608641
-0.0032950363 -0.016475171 0.69912314
-0.0033604396 -0.017474264 0.70228112
-0.0041834926 -0.022590816 0.74202168
-0.0042894888 -0.024021149 0.74713957
-0.0044109845 -0.025583684 0.75300592
-0.0045473818 -0.027284294 0.75959182
-0.0047026454 -0.029156417 0.76708859
-0.004885837 -0.031269342 0.77593386
-0.0021044165 0.029461861 0.66703755
-0.0020918425 0.028762877 0.6662786
-0.0020858089 0.028158456 0.66591442
-0.0020822901 0.027590364 0.6657021
-0.0020897228 0.027166426 0.66615069
-0.0021091236 0.026891321 0.66732162
-0.002131474 0.026643455 0.66867059
-0.0021543563 0.02639088 0.67005169
-0.0021777356 0.026132792 0.67146271
-0.0022016272 0.025869131 0.67290473
-0.0022260423 0.025599509 0.67437828
-0.0022510123 0.025323898 0.67588538
-0.0022766979 0.025043666 0.67743564
-0.0023034574 0.024762154 0.67905068
-0.0023302748 0.024467885 0.68066931
-0.0023559178 0.024148166 0.682217
-0.0023828419 0.023828447 0.683842
-0.0024043175 0.02344209 0.68513817
-0.0024059906 0.022856951 0.68523914
-0.0024062071 0.022257447 0.68525225
-0.0024064239 0.021657825 0.6852653
-0.0024066323 0.021058083 0.68527782
-0.0024070239 0.020459712 0.68530154
-0.0024072742 0.019860029 0.68531656
-0.0024072742 0.019258201 0.68531662
-0.0024072491 0.018656194 0.68531507
-0.0024071741 0.01805383 0.6853106
-0.0024070656 0.017451257 0.68530405
-0.0024072325 0.016850621 0.68531406
-0.0024281929 0.016390324 0.68657917
-0.0024688318 0.016047418 0.6890319
-0.0025075199 0.015672028 0.69136697
-0.0025465062 0.015279055 0.69372004
-0.0025852232 0.014865071 0.69605672
-0.0026233122 0.014428198 0.69835562
-0.0026623465 0.013977319 0.70071161
-0.0027003437 0.013501734 0.7030049
-0.0027390856 0.013010681 0.70534313
-0.0027782107 0.012501985 0.7077046
-0.0028167677 0.011971265 0.71003175
-0.0028562101 0.011424869 0.71241224
-0.0028958195 0.01085934 0.71480292
-0.0029354512 0.010274082 0.71719491
-0.0019826975 0.0064437687 0.65969115
-0.0019800651 0.0059401989 0.65953231
-0.0019791063 0.0054425597 0.65947437
-0.0019791008 0.0049477518 0.65947407
-0.0019804374 0.0044559836 0.65955472
-0.0019836768 0.0039673448 0.65975028
-0.0019894862 0.0034816265 0.66010082
-0.0020010581 0.0030016005 0.66079926
-0.0020526147 0.0025657713 0.66391098
-0.0020501805 0.0020501614 0.66376412
-0.0020543379 0.0015407801 0.664015
-0.0020698861 0.0010349452 0.66495341
-0.0020778822 0.00051951408 0.66543603
-0.0020915654 -0 0.66626191
-0.0020950967 -0.00052377582 0.666475
-0.002097392 -0.0010486841 0.66661358
-0.0021026973 -0.0015770197 0.66693377
-0.0021129455 -0.0021129549 0.66755223
-0.0022282549 -0.0027852654 0.67451185
-0.0022565234 -0.003384769 0.67621797
-0.0022860069 -0.0040004849 0.67799747
-0.0025071942 -0.0050143898 0.6913473
-0.002504267 -0.0056345463 0.69117057
-0.0025013464 -0.0062533617 0.69099438
-0.0024984328 -0.0068706572 0.69081849
-0.002495535 -0.0074865818 0.69064361
-0.0024921163 -0.0080993474 0.6904372
-0.0024877004 -0.0087069571 0.69017076
-0.0024817924 -0.0093067288 0.68981415
-0.0024736915 -0.0098947585 0.68932521
-0.0024611028 -0.010459661 0.68856543
-0.0023217655 -0.010447919 0.68015575
-0.0023509287 -0.0111669 0.68191582
-0.0023915423 -0.011957705 0.68436718
-0.0024345303 -0.012781262 0.68696165
-0.0024790831 -0.01363495 0.68965065
-0.0025253063 -0.014520526 0.69244051
-0.0025732857 -0.015439719 0.69533634
-0.0026243224 -0.016401976 0.69841659
-0.00326664 -0.021233141 0.73718393
-0.0033494073 -0.022608489 0.74217939
-0.0034434425 -0.024104118 0.74785489
-0.0035486268 -0.02572751 0.75420338
-0.003668691 -0.027515173 0.76144987
-0.0038083806 -0.029514939 0.76988089
-0.0015736519 0.029374838 0.66666251
-0.001567905 0.028744936 0.66619998
-0.0015647465 0.02816543 0.66594583
-0.0015631744 0.027616113 0.66581929
-0.0015783173 0.027357489 0.6670379
-0.0015950927 0.027116597 0.66838789
-0.0016122286 0.026870489 0.6697669
-0.0016297367 0.026619077 0.67117584
-0.0016476137 0.026361853 0.67261446
-0.0016658499 0.026098311 0.67408204
-0.0016844943 0.025828958 0.67558241
-0.0017028373 0.025542587 0.67705852
-0.0017206861 0.025236726 0.67849493
-0.0017389073 0.024924338 0.6799612
-0.0017575184 0.024605244 0.68145895
-0.0017775017 0.024292529 0.68306708
-0.0017982423 0.023976564 0.68473613
-0.0018066071 0.023485869 0.68540931
-0.0018069454 0.022887975 0.68543649
-0.0018071083 0.022287697 0.6854496
-0.0018072649 0.02168721 0.68546218
-0.0018075093 0.021087646 0.68548185
-0.0018078542 0.020489007 0.68550962
-0.0018080423 0.019888461 0.68552476
-0.0018082305 0.019287825 0.6855399
-0.0018083873 0.018686652 0.68555254
-0.0018083685 0.018083692 0.68555105
-0.0018086007 0.017483175 0.68556964
-0.0018223291 0.017008454 0.68667448
-0.001849764 0.016647875 0.68888223
-0.0018773004 0.016269922 0.69109821
-0.0019040678 0.015867233 0.69325233
-0.0019316095 0.015452892 0.69546872
-0.0019585602 0.015015632 0.6976375
-0.0019857215 0.014561981 0.69982326
-0.0020134521 0.014094174 0.70205486
-0.0020406567 0.013604403 0.70424414
-0.0020683934 0.013099849 0.70647621
-0.0020964644 0.012578815 0.70873517
-0.0021242597 0.012037486 0.71097201
-0.0021526597 0.011480868 0.71325743
-0.0021812266 0.01090616 0.71555626
-0.0022097463 0.01031214 0.7178514
-0.0022387239 0.0097011328 0.72018337
-0.0014862812 0.0059451759 0.65963137
-0.0014843552 0.0054426491 0.65947646
-0.0014837383 0.0049458146 0.65942681
-0.0014841735 0.0044525564 0.65946186
-0.0014855779 0.0039615631 0.65957487
-0.0014882885 0.0034726858 0.65979296
-0.0014936455 0.0029873252 0.66022402
-0.001504667 0.0025078058 0.661111
-0.0015386249 0.0020514727 0.66384375
-0.0015368056 0.0015368164 0.66369736
-0.0015457341 0.0010305047 0.66441584
-0.0015544981 0.00051817298 0.66512108
-0.0015644882 -0 0.66592503
-0.0015702337 -0.00052341819 0.66638738
-0.001571877 -0.0010479093 0.66651964
-0.001573747 -0.0015737116 0.66667014
-0.0015768132 -0.002102375 0.66691691
-0.0015797189 -0.0026328564 0.66715074
-0.0015813677 -0.0031627417 0.66728342
-0.0015795752 -0.0036856532 0.66713917
-0.0015734097 -0.00419572 0.66664296
-0.0015697939 -0.0047093928 0.66635203
-0.0015700115 -0.0052333176 0.6663695
-0.0015735521 -0.00576967 0.66665447
-0.0015863153 -0.0063452423 0.66768157
-0.0018685042 -0.008096844 0.69039035
-0.0018636337 -0.0086969435 0.68999839
-0.001856835 -0.0092841685 0.68945134
-0.0016866475 -0.0089954436 0.67575568
-0.0017000047 -0.0096333623 0.67683059
-0.001725374 -0.010352224 0.67887211
-0.0017548319 -0.011113912 0.68124276
-0.0017856803 -0.011904508 0.68372524
-0.0018176327 -0.012723386 0.68629652
-0.0018507427 -0.013572127 0.68896103
-0.0018852111 -0.014453292 0.69173479
-0.0019244346 -0.015395463 0.69489127
-0.002205753 -0.018381238 0.71753007
-0.0024542138 -0.021269828 0.73752463
-0.002560921 -0.023048252 0.74611181
-0.0025977709 -0.024245858 0.7490772
-0.0026849147 -0.025954187 0.75609004
-0.0027858741 -0.027858734 0.76421463
-0.0029125486 -0.030096322 0.77440852
-0.0010542066 0.030044913 0.66727877
-0.0010480444 0.029345244 0.6665349
-0.0010453454 0.028747022 0.6662091
-0.0010439698 0.028187186 0.66604304
-0.0010500777 0.027827054 0.66678035
-0.0010607752 0.027580202 0.66807163
-0.0010721427 0.027339637 0.66944385
-0.0010837564 0.027093947 0.67084569
-0.001095628 0.026842892 0.67227876
-0.0011068132 0.026563525 0.67362893
-0.0011181141 0.026275665 0.6749931
-0.0011296555 0.025982082 0.67638624
-0.001141434 0.0256823 0.67780805
-0.0011534606 0.025376171 0.67925978
-0.0011657433 0.025063485 0.68074244
-0.0011784303 0.024747044 0.68227386
-0.0011921199 0.024438471 0.68392634
-0.0012044465 0.024088949 0.68541431
-0.0012059555 0.023516148 0.68559647
-0.0012061942 0.022917688 0.68562531
-0.0012063785 0.022318006 0.68564749
-0.0012064831 0.021716714 0.68566012
-0.0012067094 0.021117449 0.68568742
-0.0012069399 0.020518005 0.68571532
-0.0012070909 0.019917011 0.68573356
-0.0012072166 0.019315511 0.6857487
-0.0012073425 0.018713802 0.6857639
-0.0012074978 0.018112481 0.68578261
-0.0012129861 0.017588317 0.68644512
-0.0012297413 0.017216414 0.68846762
-0.001246966 0.01683405 0.69054687
-0.0012640817 0.01643309 0.69261295
-0.0012810455 0.016013086 0.6946606
-0.001298466 0.015581608 0.69676346
-0.001315654 0.015130013 0.69883823
-0.0013329349 0.014662296 0.70092422
-0.001350597 0.014181286 0.70305628
-0.0013681138 0.013681144 0.70517069
-0.0013857924 0.013165057 0.70730472
-0.0014037694 0.01263395 0.70947468
-0.0014217185 0.012084603 0.71164131
-0.0014398459 0.011518806 0.71382952
-0.0014581602 0.010936201 0.71604025
-0.0014765761 0.010336041 0.71826327
-0.0014951864 0.0097187459 0.72050971
-0.0015138362 0.0090830326 0.72276092
-0.000990247 0.0054463446 0.65955812
-0.0009892236 0.0049461424 0.65943462
-0.00098881545 0.0044496655 0.65938532
-0.00098934467 0.0039573908 0.65944922
-0.00099070719 0.0034675002 0.65961367
-0.00099319639 0.0029796362 0.65991414
-0.00099783973 0.0024946034 0.66047466
-0.0010062924 0.0020125806 0.66149497
-0.001025196 0.0015377998 0.66377687
-0.0010248211 0.0010248423 0.66373158
-0.0010339329 0.00051698089 0.66483152
-0.0010376504 -0 0.66528022
-0.0010453706 -0.00052270293 0.6662122
-0.0010474378 -0.0010474324 0.66646171
-0.0010480128 -0.0015720129 0.66653109
-0.0010486833 -0.0020973682 0.66661203
-0.0010487529 -0.0026218593 0.66662043
-0.0010480634 -0.0031441748 0.66653717
-0.0010464505 -0.0036625266 0.6663425
-0.0010443651 -0.0041774213 0.66609079
-0.0010428481 -0.0046928227 0.66590762
-0.0010425852 -0.0052129328 0.66587591
-0.0010438475 -0.0057411492 0.66602826
-0.0010475357 -0.0062851906 0.66647351
-0.0010596593 -0.0068877339 0.66793692
-0.001238808 -0.0086716413 0.68956208
-0.0010960047 -0.008220017 0.67232424
-0.0011085541 -0.0088684261 0.67383909
-0.0011263087 -0.0095735788 0.67598224
-0.0011451015 -0.010305882 0.67825073
-0.0011647976 -0.011065602 0.6806283
-0.0011851829 -0.011851817 0.68308902
-0.0012062946 -0.012666076 0.68563741
-0.00122855 -0.013514042 0.68832386
-0.0012586877 -0.014474869 0.69196177
-0.0014535305 -0.017442375 0.7154814
-0.0016003411 -0.020004272 0.73320305
-0.0017106849 -0.02223888 0.74652272
-0.0017100956 -0.02308625 0.74645156
-0.0017476394 -0.024466962 0.75098348
-0.001812567 -0.026282191 0.75882095
-0.0018938429 -0.028407604 0.76863182
-0.00052582868 0.029972225 0.66697103
-0.00052394159 0.029340744 0.66651547
-0.00052297325 0.028763562 0.66628164
-0.00052371889 0.028280854 0.66646165
-0.00052914058 0.028044492 0.66777056
-0.00053466577 0.027802616 0.66910446
-0.00053989288 0.027534544 0.67036641
-0.00054527115 0.027263582 0.67166483
-0.00055075757 0.026987106 0.67298943
-0.00055635552 0.026705056 0.67434084
-0.00056206848 0.026417226 0.6757201
-0.00056790188 0.026123494 0.67712837
-0.00057385571 0.025823504 0.6785658
-0.00057993375 0.025517106 0.68003315
-0.00058614585 0.025204271 0.68153286
-0.00059273909 0.024895072 0.68312466
-0.00059932726 0.024572432 0.68471515
-0.00060344272 0.024137735 0.68570876
-0.00060370064 0.023544341 0.68577099
-0.00060383492 0.022945732 0.68580341
-0.00060397136 0.022346944 0.68583632
-0.00060409319 0.02174738 0.68586576
-0.00060420029 0.021147013 0.68589163
-0.00060430751 0.020546496 0.6859175
-0.00060441892 0.01994583 0.68594438
-0.00060450513 0.019344181 0.68596518
-0.0006045851 0.018742144 0.68598449
-0.00060527597 0.018158287 0.68615133
-0.00061251211 0.01776284 0.68789828
-0.00062047469 0.017373323 0.68982059
-0.00062864699 0.016973466 0.69179356
-0.00063685991 0.016558349 0.69377637
-0.00064495497 0.016123921 0.69573069
-0.00065325847 0.015678227 0.69773531
-0.00066160719 0.015216976 0.6997509
-0.00066987233 0.014737189 0.70174623
-0.00067834655 0.014245272 0.7037921
-0.00068687223 0.01373744 0.70585036
-0.00069533102 0.01321131 0.70789254
-0.00070400076 0.012672067 0.70998555
-0.00071268756 0.012115717 0.71208274
-0.00072137872 0.011542052 0.71418095
-0.00073024462 0.010953635 0.71632141
-0.00073909835 0.010347396 0.71845889
-0.00074801809 0.0097242594 0.72061229
-0.00075704342 0.0090845525 0.72279119
-0.00076607987 0.0084268749 0.72497284
-0.0004948189 0.0049482286 0.65948457
-0.00049444992 0.004450053 0.65939558
-0.00049441896 0.0039553642 0.65938807
-0.00049474987 0.0034632683 0.65946794
-0.0004956362 0.0029738247 0.65968192
-0.00049716805 0.0024858415 0.6600517
-0.00050046341 0.0020018816 0.66084731
-0.00050512102 0.0015153885 0.66197175
-0.00050999934 0.0010200143 0.66314948
-0.00051467842 0.00051468611 0.66427916
-0.00051801768 -0 0.66508532
-0.00052125042 -0.00052121282 0.66586572
-0.00052342069 -0.0010468364 0.6663897
-0.00052387052 -0.0015715957 0.6664983
-0.00052375993 -0.0020950437 0.6664716
-0.00052342069 -0.0026170909 0.6663897
-0.00052289449 -0.0031373501 0.66626269
-0.00052221084 -0.0036554337 0.66609758
-0.00052135205 -0.0041707754 0.66589028
-0.0005206755 -0.0046860874 0.66572696
-0.00052050862 -0.005205065 0.66568667
-0.00052093936 -0.0057303309 0.66579068
-0.00052227674 -0.0062673092 0.66611356
-0.00052672462 -0.0068474114 0.66718733
-0.00053471682 -0.0074860454 0.66911685
-0.00054295361 -0.0081442893 0.67110533
-0.00055167044 -0.0088267028 0.67320979
-0.00056067359 -0.0095314085 0.67538333
-0.00057011208 -0.010261983 0.67766196
-0.00057987566 -0.011017621 0.68001908
-0.0005900776 -0.011801511 0.68248206
-0.00060076761 -0.012616128 0.68506289
-0.00064718456 -0.01423803 0.69626892
-0.00072640367 -0.016707271 0.71539414
-0.0007285176 -0.017484426 0.71590447
-0.00073583028 -0.018395752 0.71766996
-0.00085634587 -0.022264957 0.7467649
-0.00085637119 -0.023122013 0.74677098
-0.00088499207 -0.024779767 0.75368071
-0.00092414441 -0.026800156 0.76313299
-0.00098151201 -0.02944532 0.77698267
0 0.030675292 0.66770875
0 0.029948384 0.66687006
0 0.029345095 0.66653413
0 0.028786004 0.66638017
0 0.028477162 0.66733944
0 0.028218299 0.66856259
0 0.027943343 0.66975766
0 0.027677655 0.67104387
0 0.027406782 0.67235637
0 0.027130336 0.67369497
0 0.026848257 0.67506087
0 0.026560307 0.67645502
0 0.026266366 0.6778782
0 0.025966257 0.67933142
0 0.02565971 0.68081564
0 0.025346577 0.6823318
0 0.02501893 0.68383658
0 0.024676174 0.68532616
0 0.024169803 0.68590224
0 0.023570806 0.68593478
0 0.022970885 0.68596315
0 0.022370785 0.68599164
0 0.021772444 0.68603379
0 0.021171421 0.68605971
0 0.020570189 0.68608564
0 0.019970566 0.68612534
0 0.019370079 0.68616045
0 0.018769085 0.68619406
0 0.018279761 0.6871286
0 0.0178985 0.68902719
0 0.017494082 0.69086194
0 0.017079592 0.69274241
0 0.016653985 0.694664
0 0.016208261 0.6965453
0 0.015750349 0.69846088
0 0.015280306 0.70041537
0 0.014791995 0.70234776
0 0.014289826 0.70430392
0 0.013774425 0.70629609
0 0.013241887 0.70828104
0 0.012694091 0.71028155
0 0.012131989 0.71231389
0 0.011553079 0.71434677
0 0.010958105 0.71639252
0 0.010347456 0.71846044
0 0.0097201765 0.72053689
0 0.0090763569 0.72262651
0 0.0084154606 0.72472191
0 0.0049521327 0.65957856
0 0.0044507682 0.65941429
0 0.0039546788 0.65936732
0 0.0034614503 0.65940571
0 0.0029701889 0.65953594
0 0.0024808049 0.65980631
0 0.0019934773 0.66034126
0 0.0015083849 0.66141135
0 0.0010153651 0.66258502
0 0.00051259995 0.6637736
0 -0 0.66481483
0 -0.00051888824 0.66529822
0 -0.0010457039 0.66625732
0 -0.0015715361 0.66649181
0 -0.0020950437 0.6664716
0 -0.0026160181 0.66633981
0 -0.003135711 0.66619694
0 -0.0036539435 0.66604531
0 -0.0041704476 0.66587931
0 -0.0046862662 0.66573185
0 -0.0052033365 0.66564488
0 -0.0057270825 0.66571903
0 -0.0062603951 0.66597462
0 -0.0068189204 0.66665864
0 -0.0074511766 0.6685161
0 -0.0081096888 0.67054814
0 -0.0087885857 0.6726346
0 -0.0094916821 0.67481869
0 -0.010218799 0.67708266
0 -0.010974437 0.67947036
0 -0.011761874 0.68200326
0 -0.014091045 0.70201921
0 -0.016013891 0.71575636
0 -0.016766936 0.71602029
0 -0.017502815 0.71608979
0 -0.018287599 0.71662575
0 -0.022278816 0.74689341
0 -0.023346275 0.7487765
0 -0.025268376 0.75789356
0 -0.027792603 0.77139479
0.00052746659 0.030593097 0.66736645
0.00052537228 0.029946208 0.66686088
0.00052435434 0.029363841 0.66661507
0.00052517222 0.0288845 0.66681254
0.00053016265 0.028628796 0.66801733
0.00053501816 0.028355956 0.66918957
0.00054015307 0.028087974 0.67042929
0.00054553652 0.027822375 0.67172897
0.00055102829 0.027551442 0.67305475
0.00055663183 0.027274966 0.6744076
0.0005623505 0.026992798 0.67578822
0.00056818972 0.026704937 0.67719793
0.00057414774 0.026410818 0.67863631
0.00058004796 0.026102185 0.68006074
0.0005856973 0.025770694 0.68142462
0.00059154228 0.025436342 0.6828357
0.00059772102 0.025104314 0.68432736
0.00060375308 0.024753928 0.68578362
0.00060487766 0.024195105 0.68605518
0.00060501246 0.023595512 0.68608773
0.00060513051 0.022994995 0.68611616
0.00060525065 0.02239427 0.68614519
0.00060544262 0.021795928 0.68619156
0.00060559454 0.021195829 0.68622816
0.00060571911 0.020594448 0.68625832
0.00060588599 0.019994259 0.68629861
0.00060604449 0.019393444 0.68633687
0.00060672389 0.018808454 0.68650091
0.00061316497 0.018394977 0.68805587
0.00062066753 0.017999411 0.68986714
0.00062812649 0.017587572 0.69166791
0.00063557154 0.017160445 0.69346529
0.00064319762 0.016723156 0.69530636
0.00065086503 0.016271651 0.69715744
0.0006584553 0.01580292 0.69898993
0.00066622469 0.015323162 0.70086563
0.00067407492 0.014829665 0.70276088
0.00068185275 0.014318913 0.7046386
0.00068978203 0.013795704 0.70655286
0.00069778302 0.013257891 0.70848447
0.00070576527 0.012703776 0.71041155
0.00071385887 0.012135625 0.71236551
0.0007219963 0.011551917 0.71433014
0.00073015562 0.010952353 0.71629989
0.00073840731 0.010337681 0.718292
0.00074665825 0.0097065866 0.72028399
0.00075495779 0.0090595186 0.72228765
0.00076335674 0.0083969235 0.7243154
0.00077165331 0.0077165663 0.72631836
0.00049488794 0.0044540167 0.65950125
0.00049439789 0.0039552152 0.65938294
0.00049426005 0.0034598112 0.65934968
0.00049462164 0.0029677749 0.659437
0.00049546658 0.0024773479 0.65964103
0.00049697177 0.0019878745 0.66000438
0.00050029479 0.0015008748 0.6608066
0.00050534582 0.001010716 0.66202605
0.00051022251 0.00051024556 0.66320336
0.00051514694 2.9802322e-08 0.66439223
0.00051826955 -0.00051829219 0.66514611
0.0005218109 -0.0010436177 0.66600108
0.00052367471 -0.0015709996 0.66645098
0.00052399846 -0.0020959377 0.66652918
0.00052347902 -0.002617389 0.66640377
0.00052286463 -0.0031371713 0.66625541
0.00052225165 -0.0036557317 0.66610742
0.00052163855 -0.0041731 0.66595948
0.00052102684 -0.0046892464 0.66581178
0.00052057725 -0.0052057505 0.66570324
0.00052059907 -0.0057265759 0.66570854
0.00052137242 -0.0062564313 0.66589522
0.00052334188 -0.0068034232 0.66637063
0.00053003652 -0.0074205101 0.66798687
0.00053835876 -0.0080753863 0.66999602
0.00054703263 -0.0087524951 0.67209011
0.0005561561 -0.0094546676 0.67429274
0.0005656443 -0.010181576 0.67658341
0.00057653314 -0.010954112 0.67921221
0.00067157089 -0.0134314 0.70215636
0.0006763764 -0.014203876 0.70331645
0.00073051482 -0.01607132 0.71638662
0.0007305732 -0.016803175 0.71640074
0.00073004514 -0.017521024 0.71627325
0.00073005434 -0.018251389 0.71627551
0.00085761398 -0.022297949 0.74707109
0.00088174467 -0.023807079 0.75289673
0.00093628658 -0.026216 0.76606429
0.0010543122 0.030575067 0.66729152
0.0010509798 0.029952914 0.66688925
0.0010494974 0.029385954 0.66671026
0.0010558435 0.029035717 0.66747636
0.0010654755 0.028767824 0.668639
0.0010752814 0.028494954 0.66982269
0.0010859242 0.028234005 0.67110741
0.0010968073 0.027968615 0.67242116
0.0011079073 0.027697712 0.67376101
0.0011192342 0.027421266 0.67512828
0.0011304677 0.027131259 0.67648429
0.0011411903 0.026818007 0.6777786
0.0011521181 0.026498705 0.67909771
0.0011632612 0.026173413 0.68044281
0.0011746219 0.025841713 0.68181419
0.0011865144 0.025510073 0.68324977
0.0011990889 0.025180846 0.6847676
0.0012097891 0.024800718 0.68605918
0.001210957 0.024219155 0.6862002
0.0012112778 0.02361992 0.68623888
0.0012115354 0.023019195 0.68627
0.0012118142 0.022418618 0.68630368
0.001212199 0.021819621 0.68635011
0.0012125882 0.021220297 0.68639714
0.0012128802 0.020618945 0.68643236
0.0012132147 0.020018071 0.68647271
0.0012135368 0.0194166 0.68651164
0.0012182937 0.018883586 0.68708581
0.0012322926 0.018484384 0.68877566
0.0012466169 0.018075973 0.69050473
0.0012612783 0.017657906 0.69227451
0.0012756464 0.017221212 0.69400895
0.0012902213 0.016772896 0.69576824
0.0013051331 0.016314179 0.6975683
0.0013199572 0.015839487 0.69935769
0.001334809 0.015350312 0.70115048
0.0013499988 0.014849991 0.70298404
0.0013652272 0.014334887 0.7048223
0.0013803643 0.013803661 0.70664942
0.0013958408 0.013260514 0.70851761
0.0014113298 0.012701958 0.71038735
0.0014268266 0.012128055 0.71225798
0.0014425778 0.011540651 0.71415931
0.0014582704 0.010937035 0.71605355
0.0014740454 0.010318339 0.71795774
0.0014900506 0.0096853375 0.71988976
0.001505852 0.0090351105 0.72179723
0.0015218189 0.008370012 0.72372454
0.0015379239 0.0076896548 0.72566855
0.0015537479 0.0069918633 0.7275787
0.00098918134 0.0039567351 0.65942949
0.00098863814 0.0034602284 0.65936393
0.00098887167 0.0029666126 0.65939212
0.00098995352 0.0024749041 0.65952271
0.00099222641 0.001984477 0.65979707
0.00099681772 0.0014952421 0.66035128
0.001006103 0.0010061264 0.66147214
0.0010157677 0.00050789118 0.66263878
0.0010256197 2.9802322e-08 0.66382802
0.0010347704 -0.00051736832 0.66493261
0.0010396841 -0.0010396838 0.66552579
0.0010467089 -0.0015700758 0.66637373
0.0010482594 -0.002096504 0.66656089
0.0010476304 -0.0026190579 0.66648495
0.0010463969 -0.003139168 0.666336
0.0010451693 -0.0036580563 0.66618788
0.0010439416 -0.0041757524 0.66603965
0.0010427167 -0.0046922266 0.66589177
0.0010416352 -0.0052081347 0.66576123
0.0010413042 -0.0057271719 0.6657213
0.0010423507 -0.006254077 0.6658476
0.0010453769 -0.0067949295 0.66621292
0.0010557089 -0.0073899329 0.66746008
0.0010724902 -0.0080436766 0.66948581
0.0010901215 -0.0087209642 0.67161405
0.001108342 -0.0094208717 0.67381346
0.0011349949 -0.010214955 0.6770308
0.0013448521 -0.012776077 0.70236278
0.0013499149 -0.013499141 0.70297396
0.0013538861 -0.014215827 0.7034533
0.001373207 -0.015105247 0.70578551
0.0014627703 -0.016821861 0.71659672
0.0014610972 -0.017533183 0.71639478
0.0014600903 -0.018251121 0.71627325
0.0017239507 -0.022411346 0.748124
0.0018305189 -0.024711996 0.76098788
0.0015912892 0.031295359 0.66808182
0.0015808017 0.030562192 0.66723782
0.0015771854 0.029966503 0.66694683
0.0015766653 0.029431105 0.66690499
0.0015914253 0.029176146 0.66809279
0.0016060139 0.028908283 0.66926676
0.0016212354 0.02864185 0.6704917
0.0016374064 0.028381735 0.67179304
0.0016534626 0.028108895 0.67308515
0.0016687567 0.02781263 0.67431593
0.001684331 0.027510732 0.6755693
0.0017002043 0.027203292 0.67684662
0.001716374 0.026889861 0.67814791
0.00173286 0.026570529 0.67947459
0.0017496657 0.026244998 0.68082696
0.0017668004 0.02591306 0.68220592
0.0017849464 0.02558428 0.68366611
0.0018039122 0.025254786 0.68519241
0.0018169484 0.024831653 0.68624145
0.0018181399 0.024241894 0.68633735
0.0018186918 0.023642987 0.68638176
0.0018191996 0.023043245 0.68642259
0.0018196887 0.022442818 0.68646204
0.0018201908 0.021842301 0.6865024
0.0018206359 0.021240771 0.68653822
0.0018212275 0.020640612 0.68658578
0.0018217495 0.02003926 0.68662786
0.001822412 0.019439101 0.68668109
0.0018345289 0.01895681 0.68765622
0.0018553346 0.018553346 0.68933058
0.0018758816 0.018133521 0.69098407
0.0018968886 0.017704308 0.69267452
0.0019182938 0.017264634 0.69439715
0.0019392996 0.016807258 0.6960876
0.0019606675 0.016338915 0.69780707
0.0019825189 0.0158602 0.69956553
0.0020040844 0.015364677 0.70130098
0.0020258247 0.01485604 0.70305055
0.0020480419 0.014336318 0.7048384
0.0020701599 0.013801098 0.70661837
0.0020922564 0.013250977 0.70839655
0.0021148301 0.012688965 0.71021312
0.0021372561 0.012111127 0.71201789
0.0021597601 0.011518747 0.71382874
0.0021826606 0.010913312 0.71567178
0.0022052492 0.010291189 0.71748954
0.002228034 0.00965482 0.7193231
0.00225111 0.0090044439 0.72118008
0.0022736965 0.0083369017 0.72299773
0.0022966091 0.0076553822 0.72484159
0.0023194517 0.0069583654 0.7266798
0.0014848458 0.0039595962 0.65951592
0.0014832442 0.0034609139 0.65938699
0.0014828222 0.0029656887 0.65935308
0.0014839876 0.0024733245 0.6594469
0.0014866797 0.0019822419 0.6596635
0.0014915424 0.0014915764 0.66005486
0.001502338 0.0010015965 0.66092354
0.001517123 0.00050574541 0.66211337
0.0015327067 -0 0.66336751
0.0015485126 -0.00051614642 0.66463941
0.0015564756 -0.0010376275 0.66528022
0.0015684051 -0.001568377 0.66624022
0.0015723085 -0.0020963848 0.66655433
0.0015724034 -0.0026206672 0.66656202
0.0015705981 -0.0031411946 0.66641676
0.0015687544 -0.0036604106 0.66626835
0.0015669104 -0.0041784048 0.66611993
0.0015650707 -0.0046951771 0.66597193
0.0015632353 -0.0052107871 0.66582423
0.0015623497 -0.0057286024 0.66575295
0.0015633948 -0.0062535703 0.66583705
0.0015669622 -0.0067901611 0.66612417
0.0015777678 -0.0073629022 0.66699374
0.001603198 -0.0080159903 0.66904014
0.001629538 -0.0086908638 0.67115986
0.0017519651 -0.0099277794 0.68101203
0.0018976483 -0.011385888 0.69273573
0.0020281188 -0.012844741 0.70323515
0.0020298089 -0.013532043 0.70337117
0.0020307975 -0.014215589 0.7034508
0.0020491048 -0.015026748 0.70492399
0.0021955511 -0.01683253 0.71670908
0.0021927985 -0.017542362 0.71648759
0.0021904302 -0.018253565 0.71629697
0.0022188998 -0.019230455 0.71858799
0.0021173812 0.031231403 0.66782004
0.0021083942 0.030571729 0.66727757
0.002104474 0.029988766 0.66704094
0.0021111227 0.029555738 0.66744232
0.0021310686 0.02930221 0.66864616
0.0021511687 0.029040813 0.66985929
0.0021704442 0.028758377 0.67102265
0.0021902064 0.028472692 0.67221546
0.0022103314 0.028181762 0.67343009
0.0022308228 0.027885318 0.67466682
0.0022517052 0.02758342 0.67592716
0.0022729819 0.027275831 0.67721134
0.0022946573 0.02696225 0.67851955
0.0023167576 0.02664271 0.67985344
0.0023392877 0.026317 0.68121326
0.0023622522 0.025984764 0.68259931
0.0023868685 0.025658846 0.68408501
0.002410071 0.025305778 0.68548536
0.0024251933 0.024858236 0.68639815
0.0024262855 0.024262846 0.68646407
0.0024269633 0.023662925 0.68650496
0.0024275908 0.02306211 0.68654281
0.0024283796 0.022462547 0.68659043
0.0024289738 0.021860808 0.68662626
0.0024295768 0.021258831 0.68666267
0.0024304178 0.020658582 0.68671346
0.0024312341 0.020057708 0.68676269
0.0024329536 0.019463629 0.68686652
0.0024529889 0.019010663 0.68807578
0.0024799237 0.018599451 0.68970138
0.002506959 0.018175453 0.69133312
0.0025337308 0.017736137 0.69294894
0.0025610807 0.017287314 0.69459963
0.0025888828 0.016827762 0.69627768
0.0026162113 0.016351342 0.69792706
0.0026439922 0.015863985 0.6996038
0.0026723591 0.015366077 0.70131588
0.0027003123 0.014851719 0.70300305
0.0027285032 0.014324665 0.70470452
0.002757289 0.013786435 0.70644188
0.0027858061 0.013232619 0.70816302
0.0028143721 0.012664706 0.70988715
0.0028435299 0.012085021 0.71164703
0.0028722768 0.011489123 0.71338201
0.0029011993 0.010879517 0.71512765
0.0029306235 0.010257214 0.71690357
0.0029593268 0.0096178353 0.71863592
0.0029884053 0.008965224 0.72039104
0.003017602 0.0082984269 0.72215313
0.0030461994 0.0076155066 0.72387916
0.003075208 0.0069192052 0.72563004
0.0031036099 0.0062072277 0.72734416
0.0019785655 0.0034625232 0.65944177
0.0019775296 0.0029663444 0.65937918
0.0019782106 0.0024727881 0.65942031
0.0019807366 0.0019807518 0.65957284
0.0019858535 0.0014894009 0.65988159
0.0019962641 0.00099816918 0.66050994
0.002015813 0.00050398707 0.66168988
0.0020364465 2.9802322e-08 0.6629352
0.002057513 -0.00051438808 0.66420662
0.0020731464 -0.0010365546 0.66515023
0.0020874629 -0.0015656054 0.66601431
0.0020961077 -0.0020960867 0.66653603
0.0020975503 -0.0026219189 0.66662312
0.0020954693 -0.0031431913 0.66649747
0.002093008 -0.003662765 0.66634899
0.0020905463 -0.004181087 0.6662004
0.0020880965 -0.0046982169 0.66605252
0.0020856461 -0.0052140951 0.66590464
0.0020838887 -0.0057306886 0.6657986
0.0020845013 -0.0062534809 0.6658355
0.0020884415 -0.0067874193 0.66607332
0.0020986081 -0.0073451102 0.66668695
0.0021315066 -0.0079931021 0.66867256
0.0024166501 -0.0096665919 0.68588245
0.0024934576 -0.010597199 0.69051826
0.0027098204 -0.012194186 0.70357692
0.0027117026 -0.012880564 0.70369047
0.0027112372 -0.013556153 0.7036624
0.00270906 -0.014222562 0.70353097
0.0027200771 -0.014960378 0.70419592
0.0029287338 -0.01684019 0.71678948
0.0029244816 -0.017546892 0.71653289
0.002920426 -0.018252641 0.71628809
0.0029585205 -0.019230396 0.71858728
0.0026458318 0.031220824 0.66777682
0.0026364126 0.030582398 0.66732198
0.0026325297 0.030010879 0.66713452
0.0026488411 0.02966705 0.66792214
0.0026730329 0.029403389 0.66909021
0.0026957197 0.029113799 0.67018569
0.0027199786 0.02883178 0.67135698
0.0027448081 0.028546005 0.6725558
