# .PCD v0.7 - Point Cloud Data file format
VERSION 0.7
FIELDS x y z
SIZE 4 4 4
TYPE F F F
COUNT 1 1 1
WIDTH 1339
HEIGHT 1
VIEWPOINT 0 0 0 1 0 0 0
POINTS 1339
DATA ascii
0.027823815 -0.036518723 0.67996776
0.027888486 -0.037184626 0.68029302
0.027965736 -0.037870288 0.68068153
0.028050771 -0.038569808 0.68110925
0.02815989 -0.039306492 0.68165803
0.028290194 -0.040077776 0.68231344
0.028453613 -0.040902048 0.68313539
0.028679164 -0.041823775 0.68426979
0.029092776 -0.043033063 0.68635011
0.035745025 0.011671871 0.71613926
0.035623118 0.010905057 0.71553868
0.035708141 0.010202348 0.71595758
0.035875175 0.0095179081 0.71678054
0.036043622 0.0088270307 0.71761048
0.036213662 0.0081296265 0.71844828
0.036385313 0.0074256063 0.71929401
0.036558758 0.0067148805 0.7201485
0.036733702 0.0059973896 0.72101045
0.031746931 -0.0051831603 0.69644082
0.031329133 -0.0057543218 0.69438237
0.031028021 -0.0063322186 0.69289881
0.03078532 -0.0069109797 0.69170296
0.03057777 -0.0074884295 0.69068044
0.030389367 -0.0080624521 0.6897521
0.030220535 -0.0086344182 0.68892038
0.030067474 -0.0092042983 0.6881662
0.029925 -0.0097714067 0.68746418
0.029794293 -0.010336787 0.68682015
0.029671133 -0.010899603 0.68621343
0.029557399 -0.01146102 0.68565309
0.029448815 -0.012019902 0.68511808
0.029348912 -0.0125781 0.68462586
0.029251698 -0.013133407 0.68414688
0.029162915 -0.013688713 0.68370944
0.029076159 -0.014241338 0.68328202
0.028995546 -0.014793605 0.68288481
0.028919306 -0.015344948 0.68250924
0.028845714 -0.015894532 0.68214667
0.028777944 -0.016444504 0.68181276
0.028711846 -0.016992688 0.68148708
0.028650101 -0.017540842 0.6811828
0.028592365 -0.018089026 0.68089837
0.028535627 -0.018635482 0.68061882
0.028484354 -0.019183308 0.68036622
0.028435165 -0.019730508 0.68012387
0.028387377 -0.020276695 0.67988843
0.028345693 -0.020825386 0.67968297
0.02830432 -0.021372616 0.67947918
0.028264849 -0.021919668 0.67928475
0.028231012 -0.02246958 0.67911798
0.028197348 -0.023018241 0.6789521
0.028166842 -0.023568153 0.67880177
0.028140677 -0.024120569 0.67867291
0.02811447 -0.024671882 0.67854381
0.028093686 -0.02522701 0.67844141
0.028074972 -0.025783122 0.6783492
0.028058039 -0.026340157 0.67826575
0.028042972 -0.026898354 0.67819154
0.0280318 -0.027459711 0.67813653
0.028020728 -0.02802071 0.67808193
0.028016854 -0.028588623 0.67806286
0.028013628 -0.029157013 0.67804694
0.028013259 -0.029728353 0.67804515
0.028018422 -0.030305654 0.6780706
0.028023772 -0.030883312 0.67809689
0.028035492 -0.031468391 0.67815471
0.028049903 -0.032057017 0.6782257
0.028066549 -0.032648802 0.67830771
0.028090814 -0.033250332 0.67842722
0.028115306 -0.033853114 0.67854792
0.028149704 -0.034469008 0.67871743
0.028185772 -0.03508842 0.67889512
0.02823073 -0.035720497 0.67911661
0.028280342 -0.036360443 0.67936105
0.02834003 -0.037015527 0.67965508
0.028405752 -0.037681103 0.67997897
0.028487405 -0.038370818 0.68038124
0.028577201 -0.039074957 0.68082368
0.028688915 -0.039813191 0.68137407
0.028826473 -0.040592372 0.68205178
0.029000089 -0.041428685 0.68290722
0.02924135 -0.042370111 0.68409592
0.029736221 -0.043694019 0.68653405
0.036517143 0.010955185 0.71634513
0.0327815 -0.0052450597 0.69830781
0.032173462 -0.0057912171 0.69537199
0.031779975 -0.0063559413 0.69347203
0.031499367 -0.0069298744 0.69211715
0.031263229 -0.0075031519 0.69097698
0.031059118 -0.0080753565 0.68999141
0.030876081 -0.0086452961 0.68910766
0.030708971 -0.0092126429 0.68830073
0.030556982 -0.0097782314 0.68756694
0.030416498 -0.010341555 0.68688858
0.030285746 -0.010902822 0.6862573
0.03016407 -0.01146239 0.68566984
0.030049499 -0.012019813 0.68511659
0.029942401 -0.012575805 0.68459946
0.029842006 -0.013130486 0.68411475
0.029745746 -0.013683021 0.68364996
0.02965628 -0.01423502 0.68321794
0.029569162 -0.014784575 0.68279731
0.029489258 -0.015334398 0.68241155
0.029412078 -0.015882522 0.68203884
0.029338965 -0.016429842 0.68168586
0.029271049 -0.016977191 0.68135786
0.029204329 -0.017522603 0.68103576
0.029143484 -0.018068939 0.68074197
0.029084938 -0.018614352 0.68045926
0.029028274 -0.019158632 0.68018562
0.028977437 -0.01970464 0.67994016
0.028927548 -0.020249248 0.6796993
0.028880712 -0.020794094 0.67947316
0.02883862 -0.021340579 0.67926997
0.028796555 -0.021885365 0.67906684
0.028758232 -0.022431403 0.67888176
0.028723998 -0.0229792 0.67871654
0.028689846 -0.023525625 0.67855161
0.028660692 -0.024074972 0.67841077
0.028634049 -0.024625272 0.67828214
0.028607646 -0.025174737 0.67815471
0.028587969 -0.02572912 0.67805964
0.028568977 -0.026283473 0.67796803
0.028552357 -0.026839197 0.67788774
0.028538099 -0.02739656 0.67781889
0.028526852 -0.027956337 0.67776459
0.028516645 -0.02851665 0.6777153
0.028513368 -0.02908358 0.67769945
0.028510094 -0.02965045 0.67768365
0.028511403 -0.030222058 0.67768997
0.028516645 -0.030797958 0.6777153
0.028522076 -0.031374246 0.67774153
0.02853566 -0.031959921 0.67780709
0.028550291 -0.032547325 0.67787778
0.028568977 -0.033140004 0.67796797
0.028593803 -0.033740699 0.67808789
0.028619144 -0.034342974 0.67821026
0.028655587 -0.034959793 0.67838621
0.028692311 -0.03557843 0.67856348
0.02874025 -0.036212713 0.67879498
0.028790638 -0.036852002 0.67903823
0.02885385 -0.037510008 0.67934346
0.02892071 -0.038175315 0.67966628
0.029006852 -0.038869143 0.6800822
0.029102184 -0.039578974 0.68054253
0.029215723 -0.040317655 0.68109071
0.029360881 -0.041105241 0.68179166
0.029544923 -0.041953743 0.68268025
0.029802179 -0.042915106 0.68392241
0.033069111 -0.0058356822 0.69656575
0.032594077 -0.006390959 0.69431698
0.032237954 -0.0069532692 0.69263124
0.031969611 -0.0075222552 0.69136101
0.031741813 -0.0080910027 0.69028264
0.03153833 -0.0086575449 0.68931943
0.031358957 -0.0092231929 0.68847024
0.031195335 -0.0097867548 0.68769574
0.031044068 -0.010348022 0.68697971
0.030905036 -0.01090765 0.68632156
0.030774189 -0.011464894 0.68570215
0.030653987 -0.012021154 0.68513316
0.030538827 -0.012574792 0.68458796
0.030433096 -0.013128012 0.68408751
0.030331729 -0.013678968 0.68360764
0.030236399 -0.01422888 0.68315637
0.030146282 -0.014777571 0.68272984
0.030059351 -0.015324324 0.68231827
0.029979816 -0.015871644 0.68194175
0.029901911 -0.016416728 0.68157297
0.029829532 -0.016961902 0.68123037
0.0297611 -0.01750651 0.68090641
0.029694473 -0.018049598 0.68059105
0.029633794 -0.018593758 0.68030381
0.029574545 -0.019136459 0.68002337
0.029518288 -0.019678861 0.679757
0.029467534 -0.020222783 0.67951673
0.029416954 -0.020764887 0.6792773
0.029371221 -0.021308511 0.67906082
0.029328639 -0.021852702 0.67885929
0.029285891 -0.022395074 0.67865688
0.02924896 -0.022940367 0.67848212
0.029214242 -0.023485959 0.67831767
0.029179895 -0.024030477 0.67815518
0.029151671 -0.02457884 0.67802155
0.029124649 -0.025127113 0.67789358
0.029098824 -0.025675416 0.67777133
0.029079532 -0.026228577 0.67768002
0.029060267 -0.026781023 0.67758888
0.029043978 -0.027335495 0.67751175
0.029030656 -0.027892172 0.67744869
0.029019246 -0.028450221 0.67739463
0.029010504 -0.029010475 0.67735326
0.029007277 -0.029576004 0.677338
0.029003952 -0.030141354 0.67732227
0.029006897 -0.030713171 0.67733622
0.029012309 -0.03128776 0.67736185
0.029018866 -0.031863809 0.67739284
0.029033415 -0.032449096 0.6774618
0.029048262 -0.033035249 0.67753208
0.029069038 -0.033628851 0.67763036
0.029094238 -0.034228534 0.67774969
0.029122064 -0.034832239 0.67788142
0.029159153 -0.035448372 0.67805696
0.029196434 -0.036066145 0.67823339
0.029247416 -0.036702603 0.67847472
0.029298477 -0.037341177 0.67871648
0.029365476 -0.038002402 0.67903364
0.029435815 -0.03867054 0.67936659
0.02952409 -0.039365441 0.67978448
0.029625075 -0.040080994 0.68026251
0.029742219 -0.040822655 0.68081707
0.029893337 -0.041616201 0.68153238
0.030087931 -0.042477071 0.68245351
0.030375298 -0.04347834 0.68381393
0.033452965 -0.0064332485 0.69533741
0.033014815 -0.0069838762 0.69330329
0.032693189 -0.0075445473 0.69181001
0.032436129 -0.0081090033 0.69061649
0.032216821 -0.0086737275 0.68959838
0.032017238 -0.0092357397 0.68867171
0.031839292 -0.0097967088 0.68784565
0.031678192 -0.010356277 0.68709767
0.031527732 -0.010913432 0.6863991
0.031390142 -0.011469454 0.68576032
0.031259697 -0.012022972 0.68515474
0.031140311 -0.012575865 0.68460041
0.03102524 -0.013126045 0.68406624
0.030920329 -0.013676286 0.68357915
0.030818122 -0.014223725 0.68310463
0.030723691 -0.014771014 0.68266618
0.030632952 -0.015316457 0.68224496
0.030546881 -0.015860856 0.68184531
0.030467043 -0.016405314 0.68147463
0.030388849 -0.016947657 0.68111163
0.030317258 -0.017490715 0.68077922
0.03024793 -0.018032402 0.68045735
0.030181739 -0.018573374 0.68015003
0.030121161 -0.019115359 0.67986888
0.030061126 -0.019655317 0.67959011
0.030006111 -0.020196408 0.67933464
0.029954674 -0.020737827 0.67909586
0.02990371 -0.021277636 0.67885923
0.029859036 -0.021820039 0.67865187
0.029815776 -0.022361815 0.678451
0.029773032 -0.02290231 0.67825252
0.029736772 -0.023446262 0.67808419
0.029701577 -0.023989707 0.67792082
0.029667635 -0.024532855 0.67776322
0.029639894 -0.025079906 0.67763448
0.029612593 -0.025626242 0.67750776
0.02958796 -0.026173919 0.67739332
0.029568398 -0.026725262 0.67730248
0.029548861 -0.02727586 0.67721176
0.029532924 -0.027829111 0.67713785
0.029520571 -0.028385162 0.67708045
0.029508904 -0.028941393 0.67702627
0.02950187 -0.029501885 0.67699367
0.029498594 -0.030065864 0.67697841
0.029495513 -0.030629933 0.6769641
0.029499942 -0.031201839 0.67698473
0.029505435 -0.031775057 0.67701018
0.029513627 -0.032351434 0.67704827
0.029528581 -0.032935709 0.67711765
0.029543644 -0.033520669 0.67718756
0.029566752 -0.034115463 0.67729485
0.029592223 -0.034713954 0.67741311
0.029622594 -0.035319239 0.67755413
0.029660232 -0.035934478 0.67772889
0.029700503 -0.036554456 0.67791587
0.029752148 -0.037190169 0.6781556
0.029806333 -0.037831098 0.67840719
0.029874835 -0.03849256 0.67872524
0.02994951 -0.039164722 0.6790719
0.030039234 -0.039859742 0.67948842
0.030145988 -0.040581107 0.67998409
0.030270329 -0.041330636 0.68056136
0.030424053 -0.042125583 0.68127501
0.030629421 -0.04299897 0.68222851
0.030955397 -0.044051915 0.68374193
0.034566034 -0.0065218806 0.69747716
0.03386493 -0.0070285201 0.6942836
0.033448275 -0.0075731575 0.69238567
0.033150833 -0.0081313252 0.6910308
0.032901607 -0.0086909831 0.68989551
0.032687284 -0.0092511177 0.68891925
0.032493386 -0.0098092854 0.68803602
0.032316625 -0.010365695 0.68723089
0.032157604 -0.010921448 0.68650651
0.032008816 -0.011474818 0.68582869
0.031871654 -0.012027025 0.68520397
0.031742774 -0.012577355 0.68461692
0.031623077 -0.013126552 0.68407166
0.031509127 -0.013673782 0.68355262
0.03140403 -0.014220685 0.68307388
0.031301759 -0.014764965 0.68260801
0.031208292 -0.015309691 0.68218225
0.031116329 -0.015851676 0.68176335
0.031031912 -0.016394228 0.68137884
0.030951178 -0.016935557 0.68101108
0.030873138 -0.017475337 0.6806556
0.030801982 -0.018016249 0.68033147
0.030731767 -0.018555015 0.68001163
0.030666672 -0.019094348 0.67971516
0.030605514 -0.01963374 0.67943656
0.030545209 -0.020171374 0.67916185
0.030490994 -0.020710886 0.6789149
0.030438984 -0.021249831 0.67867792
0.030387953 -0.021787584 0.67844552
0.030343791 -0.022328436 0.67824441
0.030300057 -0.022867948 0.67804515
0.030257741 -0.023406893 0.67785239
0.030221891 -0.023949385 0.67768908
0.030186223 -0.024490684 0.67752659
0.030153207 -0.025032848 0.67737621
0.030125486 -0.025578231 0.67724991
0.030097717 -0.02612254 0.67712349
0.030074419 -0.026669741 0.67701733
0.03005459 -0.027219236 0.67692703
0.030035278 -0.027768463 0.67683905
0.030019609 -0.028320372 0.67676771
0.030007772 -0.028875411 0.67671382
0.029996043 -0.029430062 0.6766603
0.029990669 -0.029990673 0.67663586
0.029987348 -0.030553132 0.67662072
0.029984906 -0.031116426 0.67660964
0.029990474 -0.031688035 0.67663497
0.029996043 -0.032259881 0.6766603
0.030006111 -0.032836884 0.67670619
0.030021371 -0.033419967 0.67677569
0.030036649 -0.034003705 0.67684531
0.030061949 -0.034599602 0.67696059
0.030087883 -0.035197139 0.67707866
0.030120755 -0.035803914 0.67722845
0.030158935 -0.036418349 0.67740238
0.030202163 -0.037040353 0.67759925
0.030254658 -0.037675589 0.67783839
0.030312426 -0.038319439 0.67810148
0.030381937 -0.038980573 0.6784181
0.030461036 -0.039656818 0.67877847
0.0305521 -0.040351808 0.67919326
0.030664731 -0.041079164 0.67970634
0.030796418 -0.041836619 0.68030614
0.030959502 -0.042642325 0.68104899
0.031181553 -0.043536514 0.68206048
0.031537618 -0.04462871 0.68368238
0.034790631 -0.0070869923 0.69556552
0.034271218 -0.0076157749 0.69324332
0.033893589 -0.008159548 0.69155502
0.033609461 -0.0087135434 0.69028479
0.033368111 -0.0092689097 0.68920577
0.033154085 -0.0098234117 0.68824887
0.032966055 -0.010378182 0.68740827
0.032792863 -0.010930926 0.686634
0.032633625 -0.011482209 0.68592203
0.032487512 -0.01203239 0.68526876
0.032349948 -0.012580484 0.68465376
0.032223389 -0.013128042 0.68408799
0.032102544 -0.013673335 0.68354774
0.031990778 -0.014218122 0.68304807
0.031884555 -0.014761358 0.68257314
0.031783555 -0.015303165 0.68212163
0.03168951 -0.015844733 0.68170118
0.031597506 -0.016383886 0.68128979
0.031513765 -0.016924053 0.68091547
0.031432044 -0.017462224 0.68055004
0.031355146 -0.018000156 0.6802063
0.031283528 -0.018538386 0.6798861
0.031212753 -0.01907444 0.6795696
0.031148707 -0.019612163 0.67928332
0.031086883 -0.020148873 0.67900687
0.031026637 -0.020684391 0.67873758
0.030973066 -0.021222293 0.67849809
0.030920289 -0.021758705 0.67826211
0.030870333 -0.022295237 0.67803878
0.030825805 -0.022833943 0.6778397
0.030781506 -0.02337113 0.67764169
0.030740455 -0.023909241 0.67745817
0.030704238 -0.024449676 0.67729622
0.030668104 -0.02498883 0.67713463
0.030636456 -0.025530398 0.67699319
0.03060827 -0.026073694 0.67686713
0.030580236 -0.026616126 0.67674184
0.030558223 -0.02716282 0.67664343
0.030538131 -0.027710527 0.67655361
0.030519156 -0.028258473 0.67646873
0.030504469 -0.028809756 0.67640305
0.030492473 -0.029363096 0.67634946
0.030480685 -0.029916197 0.67629671
0.03047692 -0.030476898 0.67627996
0.030473555 -0.031037867 0.67626488
0.030472862 -0.031601459 0.67626178
0.030478505 -0.032171756 0.676287
0.030484051 -0.032742143 0.67631185
0.03049624 -0.03331995 0.67636627
0.030511612 -0.033901781 0.67643499
0.03052859 -0.034485966 0.67651093
0.03055474 -0.035081357 0.67662787
0.030581033 -0.03567785 0.67674541
0.030616561 -0.036286265 0.6769042
0.030655377 -0.036899984 0.67707777
0.030701624 -0.037524164 0.67728448
0.030754866 -0.038158804 0.6775226
0.030816186 -0.038805544 0.67779672
0.030886697 -0.039466321 0.67811191
0.030970508 -0.040146947 0.67848665
0.031066397 -0.040846556 0.67891532
0.031196767 -0.041595697 0.6794982
0.031350534 -0.042381257 0.68018568
0.031543326 -0.043226033 0.68104756
0.031802196 -0.044169694 0.68220496
0.032263063 -0.045407236 0.68426526
0.035138201 -0.0076664984 0.69426322
0.034677096 -0.0081964135 0.69223917
0.034335181 -0.0087398291 0.69073832
0.034064304 -0.0092902482 0.68954933
0.033832494 -0.0098421574 0.68853176
0.033621788 -0.010392189 0.68760693
0.033434849 -0.01094231 0.68678635
0.033265725 -0.011491776 0.68604392
0.03310759 -0.012039125 0.68534988
0.032963112 -0.012585908 0.68471563
0.032825753 -0.013130277 0.68411273
0.032700498 -0.013674766 0.68356299
0.032579307 -0.014216423 0.68303096
0.032469049 -0.014758646 0.68254697
0.032361943 -0.015298367 0.68207687
0.032262187 -0.015837759 0.68163896
0.032167479 -0.016376168 0.68122321
0.03207602 -0.016912788 0.68082178
0.031992573 -0.017450482 0.68045545
0.031910095 -0.017985642 0.68009341
0.031834401 -0.018521845 0.67976123
0.031762023 -0.019057214 0.67944348
0.031691551 -0.019591123 0.67913413
0.031627879 -0.02012682 0.6788547
0.031565189 -0.020660847 0.67857951
0.031505764 -0.021194756 0.67831862
0.031452149 -0.021730572 0.6780833
0.031398717 -0.02226454 0.67784876
0.031350095 -0.022800058 0.67763531
0.031305004 -0.02333644 0.67743742
0.031260047 -0.023871303 0.67724013
0.031220417 -0.024408698 0.67706615
0.031183738 -0.024946958 0.67690516
0.031147145 -0.025484025 0.67674458
0.03111692 -0.026025027 0.67661184
0.031088369 -0.026566416 0.67648655
0.031060075 -0.027106971 0.67636228
0.031039391 -0.027653247 0.67627144
0.031019038 -0.028199106 0.67618221
0.03100042 -0.02874583 0.67610049
0.030986648 -0.029296458 0.67603999
0.030974595 -0.029848248 0.67598712
0.030964056 -0.030401081 0.67594081
0.030960644 -0.030960649 0.67592585
0.030957134 -0.031519949 0.67591041
0.030958338 -0.032084048 0.67591572
0.030963955 -0.032652915 0.67594039
0.030969676 -0.03322199 0.67596549
0.030983835 -0.033800542 0.67602766
0.030999515 -0.03438127 0.6760965
0.031018635 -0.034966439 0.67618042
0.031045241 -0.035560906 0.67629725
0.031071791 -0.036156267 0.67641371
0.031110132 -0.036766499 0.67658204
0.031149378 -0.037379235 0.67675436
0.031198807 -0.038005829 0.67697126
0.031252686 -0.038639694 0.67720777
0.031323168 -0.039296299 0.67751718
0.031405322 -0.039970398 0.67787778
0.031504516 -0.040669441 0.67831314
0.031620238 -0.041393757 0.67882109
0.031762235 -0.042157114 0.67944437
0.031953525 -0.042991996 0.68028408
0.032197937 -0.043906271 0.68135697
0.032543249 -0.044968843 0.68287265
0.036355551 -0.0077904761 0.69675708
0.035532732 -0.008248657 0.69320977
0.035093628 -0.0087734163 0.69131672
0.034779251 -0.0093158484 0.68996143
0.034516804 -0.0098618865 0.68882996
0.034292217 -0.01041013 0.6878618
0.034087725 -0.010956764 0.68698025
0.033902068 -0.011502445 0.68617982
0.033735376 -0.012048364 0.68546122
0.03357831 -0.012591869 0.68478411
0.033435106 -0.013135195 0.68416679
0.033299044 -0.013676405 0.68358016
0.033174146 -0.014217496 0.68304169
0.033053666 -0.014756083 0.6825223
0.032943871 -0.015295357 0.68204892
0.032836128 -0.015831709 0.68158448
0.032737903 -0.016368926 0.68116099
0.032642234 -0.016903996 0.68074858
0.032552239 -0.01743868 0.68036056
0.032468162 -0.017973453 0.6799981
0.032385591 -0.01850605 0.67964214
0.032310732 -0.019040227 0.6793195
0.032237504 -0.019572735 0.67900372
0.032167796 -0.020104825 0.67870319
0.032104 -0.020638257 0.67842817
0.032040671 -0.021169722 0.67815512
0.031982634 -0.021702498 0.67790502
0.031928372 -0.022235811 0.67767102
0.031874396 -0.022767425 0.67743832
0.031827059 -0.023301899 0.67723423
0.031781416 -0.023836017 0.67703748
0.031736009 -0.024368733 0.67684174
0.031697754 -0.024905354 0.67667675
0.031660616 -0.025441557 0.67651671
0.031624086 -0.025976896 0.67635924
0.031594712 -0.026516974 0.67623264
0.031565908 -0.027056485 0.67610842
0.031538691 -0.027596354 0.67599106
0.031517949 -0.028140992 0.67590165
0.031497337 -0.028685063 0.67581278
0.031479094 -0.029230595 0.67573416
0.031466369 -0.029780686 0.67567927
0.031454161 -0.030330777 0.6756267
0.031445317 -0.030883759 0.67558849
0.031441864 -0.031441867 0.67557359
0.031438306 -0.031999707 0.67555833
0.031441253 -0.032564133 0.67557096
0.031447046 -0.033131689 0.67559594
0.031453349 -0.033700019 0.67562318
0.031469118 -0.03427887 0.67569113
0.031484902 -0.034858286 0.6757592
0.031506315 -0.035444617 0.67585146
0.031533271 -0.036038011 0.67596769
0.031561609 -0.036633998 0.67608988
0.03160128 -0.03724435 0.67626095
0.031645995 -0.037862152 0.67645371
0.031708084 -0.038502634 0.67672133
0.031774256 -0.039150387 0.6770066
0.031852797 -0.039815992 0.67734528
0.031960465 -0.040521294 0.67780936
0.03208727 -0.041255027 0.67835605
0.032240175 -0.042027354 0.67901528
0.032419585 -0.042840153 0.67978871
0.032646723 -0.043723285 0.68076789
0.032960054 -0.044731468 0.68211871
0.033502113 -0.04606539 0.68445557
0.036492441 -0.0083228052 0.69458711
0.035925172 -0.0088237226 0.69218451
0.035526033 -0.0093489289 0.69049394
0.035226028 -0.0098879933 0.68922329
0.034971386 -0.010430068 0.68814474
0.034747932 -0.010973006 0.68719828
0.034550201 -0.01151672 0.68636084
0.034367587 -0.012058794 0.68558741
0.034201413 -0.012600511 0.68488353
0.034047492 -0.013141096 0.68423164
0.033903766 -0.013680458 0.68362296
0.033770345 -0.014219075 0.68305779
0.033644482 -0.014756352 0.68252468
0.033526137 -0.015292615 0.68202347
0.033415496 -0.015828371 0.68155485
0.03330861 -0.016362101 0.68110216
0.033210535 -0.016896605 0.68068677
0.033113807 -0.017428339 0.68027711
0.033025682 -0.017961323 0.67990375
0.032940656 -0.018492997 0.67954367
0.032858681 -0.019023418 0.67919642
0.032784056 -0.01955539 0.67888045
0.03270999 -0.020085067 0.67856669
0.032641631 -0.020615757 0.67827725
0.03257731 -0.021146655 0.67800474
0.032513566 -0.021675706 0.67773473
0.032456663 -0.022207171 0.67749369
0.032401759 -0.022738039 0.67726123
0.032347675 -0.023267597 0.67703211
0.032301251 -0.02380091 0.67683548
0.032255061 -0.024332762 0.67663991
0.032210056 -0.024863899 0.6764493
0.032172278 -0.025399148 0.67628926
0.032134697 -0.025933266 0.67613006
0.032099176 -0.026467741 0.67597961
0.032069966 -0.027006298 0.67585588
0.032040704 -0.027543724 0.67573196
0.03201481 -0.028083175 0.67562234
0.031993914 -0.028626114 0.67553377
0.031973049 -0.029168367 0.67544538
0.031955924 -0.029713392 0.67537284
0.031943552 -0.030262291 0.67532045
0.031931091 -0.030810654 0.6752677
0.031924091 -0.031363994 0.67523801
0.031920593 -0.031920612 0.67522323
0.031916991 -0.032476932 0.67520797
0.031921826 -0.033041894 0.67522848
0.031927694 -0.033608079 0.67525327
0.031935826 -0.034176916 0.67528772
0.031951901 -0.034754694 0.67535579
0.031967994 -0.035333037 0.67542398
0.031991746 -0.03592056 0.67552459
0.03202185 -0.03651613 0.67565209
0.032062802 -0.037125289 0.67582554
0.032113124 -0.037746996 0.67603874
0.032166217 -0.038373739 0.67626357
0.03224729 -0.039036155 0.67660695
0.032340702 -0.039716661 0.67700261
0.032447517 -0.040417045 0.67745501
0.032569811 -0.041140795 0.67797291
0.032737453 -0.041926891 0.67868304
0.032933317 -0.042755514 0.67951262
0.033176046 -0.043652654 0.68054062
0.033486798 -0.044649065 0.68185687
0.033993613 -0.045921177 0.68400347
0.036805388 -0.0088840127 0.69322491
0.036316581 -0.0093922317 0.69119024
0.035955429 -0.0099187195 0.68968701
0.035669819 -0.010454953 0.68849814
0.035425164 -0.010993987 0.68747979
0.035203755 -0.011532247 0.68655819
0.035008922 -0.012072027 0.68574721
0.034830671 -0.012611121 0.68500525
0.03466484 -0.013148725 0.68431497
0.034513813 -0.013686508 0.68368626
0.034369603 -0.014221907 0.6830861
0.034238458 -0.014757961 0.68254024
0.034111544 -0.015291393 0.68201196
0.033995654 -0.01582554 0.68152958
0.033883855 -0.01635769 0.68106419
0.033778563 -0.016889304 0.68062592
0.033679999 -0.017420679 0.68021566
0.033583466 -0.01794976 0.67981386
0.033496168 -0.018480659 0.67945045
0.033410206 -0.019009262 0.67909265
0.033329647 -0.019538075 0.67875731
0.033254411 -0.020067304 0.67844415
0.033179842 -0.020594358 0.67813373
0.033112787 -0.021123677 0.67785466
0.033047736 -0.021651953 0.67758393
0.032984022 -0.022178918 0.67731869
0.032927867 -0.022708863 0.67708492
0.032872438 -0.023237407 0.67685425
0.032819442 -0.023765802 0.6766336
0.032772582 -0.024296939 0.67643857
0.032725964 -0.024826586 0.6762445
0.032682341 -0.025356978 0.67606294
0.032644223 -0.025890231 0.67590427
0.032606196 -0.026422262 0.67574602
0.032572154 -0.02695626 0.67560428
0.032542493 -0.027492791 0.67548084
0.032512881 -0.028028339 0.67535758
0.032488458 -0.028567433 0.67525595
0.032467313 -0.029108614 0.67516792
0.032446194 -0.029649109 0.67508006
0.032430738 -0.030194134 0.67501569
0.032418113 -0.030741304 0.67496312
0.032405604 -0.031288117 0.67491102
0.032400396 -0.031841755 0.67488939
0.032396853 -0.032396823 0.6748746
0.03239404 -0.032952517 0.67486292
0.032399978 -0.033517212 0.6748876
0.032405917 -0.034082055 0.67491233
0.032416135 -0.034651697 0.67495489
0.032432411 -0.035228312 0.6750226
0.032458212 -0.035815954 0.67513001
0.032494742 -0.036416471 0.67528206
0.032533668 -0.037021071 0.67544413
0.032589428 -0.037646383 0.67567623
0.032661472 -0.038292766 0.67597604
0.032741699 -0.038951337 0.67631006
0.032832488 -0.039625436 0.67668796
0.032959964 -0.040347517 0.6772185
0.033103649 -0.041094154 0.67781663
0.033270221 -0.041874558 0.67850995
0.033468466 -0.042701125 0.67933518
0.033738866 -0.043627828 0.68046069
0.034076821 -0.044652373 0.68186742
0.034596406 -0.0459297 0.68403012
0.037177615 -0.0094519258 0.69215137
0.036717765 -0.0099573433 0.69026971
0.036385279 -0.010483861 0.68890923
0.036110207 -0.011016667 0.68778366
0.035874635 -0.011552811 0.68681967
0.035659477 -0.012087941 0.68593931
0.035465155 -0.012623191 0.68514425
0.035290793 -0.013159275 0.68443072
0.035125721 -0.013693035 0.68375528
0.03497662 -0.014227778 0.68314517
0.034833275 -0.014759839 0.68255854
0.034703199 -0.015292943 0.68202633
0.034576539 -0.015823156 0.68150806
0.034461804 -0.01635474 0.68103862
0.034349438 -0.016883582 0.68057877
0.034245811 -0.01741308 0.68015474
0.034146331 -0.017941266 0.67974764
0.034050822 -0.018468201 0.67935693
0.033963498 -0.018996537 0.67899954
0.033876844 -0.01952228 0.67864501
0.033797871 -0.020049572 0.67832184
0.03372182 -0.020576 0.67801058
0.033647541 -0.021100998 0.67770672
0.033581071 -0.021628469 0.67743474
0.033515304 -0.022154152 0.67716563
0.03345263 -0.022679746 0.67690915
0.033396389 -0.023207664 0.67667907
0.033340231 -0.023733735 0.67644924
0.033288691 -0.024261206 0.6762383
0.033241302 -0.024790108 0.67604446
0.033194151 -0.02531755 0.67585146
0.033151958 -0.025847256 0.67567885
0.033113405 -0.026378483 0.67552114
0.033074941 -0.026908427 0.67536366
0.03304242 -0.027441978 0.67523062
0.033012412 -0.027976632 0.67510784
0.032982562 -0.028510362 0.67498577
0.032959551 -0.029049128 0.67489159
0.032938156 -0.029588521 0.67480397
0.032917105 -0.030127496 0.67471784
0.032902949 -0.030672222 0.67465991
0.032890279 -0.031217903 0.67460811
0.032877937 -0.031763405 0.67455757
0.032874245 -0.032317013 0.67454243
0.032870661 -0.03287065 0.67452782
0.032869712 -0.033426821 0.67452395
0.03287572 -0.033990145 0.67454851
0.032887533 -0.034559757 0.67459691
0.032910027 -0.0351412 0.67468894
0.032936249 -0.035727441 0.67479622
0.032971423 -0.036324471 0.67494011
0.033030178 -0.036949039 0.67518055
0.033089034 -0.037575662 0.67542136
0.033160862 -0.038219303 0.67571533
0.033257369 -0.038894176 0.67611015
0.033370405 -0.039591998 0.67657268
0.033495151 -0.04030773 0.67708313
0.033653509 -0.041068703 0.67773116
0.033851225 -0.041883677 0.67854011
0.034081619 -0.042746395 0.67948288
0.034363717 -0.043682665 0.68063718
0.034731068 -0.044738322 0.68214041
0.035333369 -0.046113014 0.68460494
0.038173392 -0.0095433593 0.69362265
0.037556425 -0.010015011 0.69114017
0.037135907 -0.010521799 0.68944806
0.036820047 -0.011045992 0.68817723
0.036551889 -0.011574775 0.68709821
0.036319975 -0.012106657 0.68616503
0.036112115 -0.012639195 0.68532866
0.035919983 -0.01317063 0.68455559
0.035747409 -0.013703167 0.68386126
0.035585225 -0.014234066 0.68320864
0.035435949 -0.014764965 0.68260801
0.03529533 -0.015294641 0.68204212
0.035164714 -0.015824109 0.68151665
0.03503966 -0.016351819 0.68101341
0.034924846 -0.016880363 0.68055153
0.034811944 -0.017405957 0.68009722
0.034710053 -0.017933518 0.6796872
0.034609564 -0.018458396 0.6792829
0.034516163 -0.018983901 0.6789071
0.03442793 -0.019509166 0.67855203
0.034341164 -0.020032346 0.67820293
0.034263168 -0.02055788 0.67788911
0.034186419 -0.021081626 0.6775803
0.034113251 -0.021605045 0.67728591
0.034046512 -0.022130221 0.67701733
0.033979923 -0.022653282 0.67674947
0.033918999 -0.023177981 0.67650425
0.033862036 -0.023703396 0.67627507
0.033805262 -0.024227083 0.67604661
0.033755235 -0.024753809 0.67584532
0.033707317 -0.025280476 0.6756525
0.033659536 -0.025805622 0.67546022
0.033619042 -0.026334941 0.67529738
0.033580057 -0.026864052 0.6751405
0.033541158 -0.02739194 0.67498398
0.033510104 -0.027925104 0.67485905
0.033479862 -0.02845788 0.67473727
0.033449888 -0.028989911 0.67461669
0.033428114 -0.029528171 0.67452908
0.033406474 -0.030065805 0.67444205
0.033385824 -0.030603647 0.6743589
0.033372782 -0.031147897 0.67430645
0.033359967 -0.031691968 0.67425489
0.033349402 -0.032237738 0.6742124
0.033345666 -0.032789886 0.67419744
0.033343427 -0.033343405 0.67418838
0.033354525 -0.033910424 0.67423302
0.033370327 -0.034482658 0.6742965
0.033386145 -0.035055459 0.67436022
0.033430684 -0.035659373 0.67453945
0.033477068 -0.036266804 0.67472613
0.033532634 -0.036885887 0.67494965
0.033606905 -0.03752768 0.6752485
0.033696964 -0.038189888 0.67561084
0.03379485 -0.038864046 0.67600477
0.03392154 -0.03957507 0.67651451
0.034076784 -0.040324181 0.6771391
0.034253933 -0.041104734 0.67785197
0.034477122 -0.041947126 0.67874992
0.034763996 -0.042875588 0.67990428
0.03511047 -0.043888092 0.68129838
0.035566892 -0.045051366 0.68313491
0.036334027 -0.046628624 0.6862216
0.038450282 -0.010085315 0.69220048
0.037933491 -0.010571599 0.69015515
0.037553627 -0.011081398 0.6886518
0.037253048 -0.011603415 0.68746215
0.03699556 -0.012129694 0.68644309
0.036763653 -0.012656331 0.68552524
0.036560982 -0.013185918 0.68472314
0.036373511 -0.013714582 0.68398118
0.036200434 -0.014242768 0.6832962
0.036042478 -0.014771491 0.68267107
0.035892092 -0.015298247 0.68207586
0.035754655 -0.015825808 0.68153191
0.035622813 -0.016351432 0.68101013
0.03550062 -0.016877323 0.68052649
0.035384577 -0.017402232 0.6800673
0.035273518 -0.017925858 0.67962772
0.035171203 -0.018450469 0.67922276
0.035069834 -0.018972188 0.67882156
0.034978393 -0.019496143 0.6784597
0.034889266 -0.020018429 0.67810702
0.034803562 -0.02053979 0.67776775
0.034725558 -0.021063 0.677459
0.034648016 -0.021584004 0.67715216
0.034576461 -0.02210626 0.67686898
0.034509022 -0.022628874 0.67660207
0.034441955 -0.02314949 0.67633665
0.034382507 -0.023673177 0.67610133
0.034324937 -0.024196267 0.67587346
0.034267887 -0.024717808 0.67564768
0.034219094 -0.02524361 0.67545462
0.034170657 -0.025768042 0.67526287
0.034123015 -0.02629149 0.67507434
0.0340834 -0.026819706 0.67491752
0.034044094 -0.027346909 0.67476201
0.03400597 -0.027873695 0.67461109
0.033975333 -0.028405607 0.67448992
0.033944648 -0.028936416 0.67436838
0.033916183 -0.029468119 0.67425573
0.033894166 -0.03000465 0.67416865
0.03387228 -0.030540586 0.67408198
0.033853132 -0.031078249 0.67400622
0.033840157 -0.031621128 0.67395484
0.033827089 -0.032163441 0.67390311
0.033824392 -0.03271538 0.6738925
0.033829466 -0.033274889 0.67391258
0.033836484 -0.033836484 0.67394036
0.033861026 -0.034416109 0.67403746
0.033896767 -0.035008132 0.67417896
0.033936929 -0.035605937 0.67433786
0.0339907 -0.036219597 0.67455071
0.034064118 -0.036856234 0.67484128
0.034147535 -0.037506312 0.67517143
0.034242641 -0.038172096 0.67554778
0.034371693 -0.038879454 0.67605853
0.0345161 -0.039608628 0.67663008
0.034699406 -0.040387839 0.67735553
0.034931354 -0.04123044 0.67827356
0.03520041 -0.042125076 0.6793384
0.035599958 -0.043186814 0.68091965
0.036055844 -0.044330955 0.682724
0.036603156 -0.045603931 0.68489009
0.038799915 -0.010638684 0.69110751
0.038322166 -0.011125773 0.68924719
0.037969325 -0.011635751 0.68787324
0.037681889 -0.012155443 0.68675399
0.037434906 -0.012679547 0.68579227
0.037209123 -0.013203233 0.6849131
0.037006248 -0.013728112 0.68412316
0.03682445 -0.0142546 0.68341523
0.036651913 -0.014778972 0.68274337
0.036496308 -0.015304923 0.68213749
0.03634619 -0.015828162 0.68155295
0.03621069 -0.01635319 0.68102527
0.036078125 -0.016875237 0.68050909
0.03595829 -0.017399192 0.68004251
0.035841275 -0.017920643 0.67958689
0.035732366 -0.018442512 0.6791628
0.035629302 -0.018963963 0.67876148
0.035528474 -0.019483328 0.67836881
0.035437651 -0.020005077 0.67801517
0.035347641 -0.020524442 0.6776647
0.035263859 -0.021044552 0.67733848
0.035185184 -0.021565109 0.67703211
0.035106979 -0.022083431 0.67672759
0.035036981 -0.022604525 0.67645502
0.034968846 -0.023124546 0.67618972
0.034901883 -0.023643225 0.67592895
0.034843288 -0.024165481 0.67570078
0.034785114 -0.024686188 0.67547429
0.034729265 -0.025206745 0.67525685
0.034680288 -0.025730491 0.67506611
0.034631342 -0.026252747 0.6748755
0.034585197 -0.026775658 0.67469585
0.034545265 -0.027301878 0.67454028
0.034505427 -0.027826965 0.67438519
0.03446899 -0.028353512 0.67424333
0.034437913 -0.028883368 0.67412233
0.034406893 -0.029412359 0.67400151
0.034379985 -0.029943824 0.67389673
0.034357727 -0.030478626 0.67381006
0.034335602 -0.031012774 0.67372394
0.034319412 -0.031551719 0.67366087
0.034315147 -0.032101274 0.67364424
0.034312524 -0.032652199 0.67363405
0.034315914 -0.033208966 0.67364722
0.034340747 -0.033786833 0.67374396
0.034370992 -0.034370989 0.67386168
0.034407221 -0.034962177 0.67400277
0.034463476 -0.035575181 0.67422181
0.034532972 -0.036203921 0.67449242
0.03460364 -0.036836118 0.67476761
0.034716167 -0.037515819 0.67520583
0.034833822 -0.038204849 0.67566395
0.034982476 -0.038932115 0.67624277
0.035180245 -0.039719611 0.67701292
0.035424132 -0.040566355 0.67796254
0.035779726 -0.041550666 0.67934716
0.036223352 -0.042650044 0.68107456
0.036719382 -0.043826371 0.68300611
0.037229184 -0.045035303 0.68499124
0.037884392 -0.046438903 0.68754256
0.039837852 -0.010749906 0.6926868
0.039165296 -0.011190057 0.69010949
0.03872342 -0.011678487 0.68841624
0.038391732 -0.012187839 0.68714511
0.038110875 -0.012703627 0.68606889
0.037870228 -0.013224512 0.68514669
0.037652023 -0.013745993 0.68431056
0.03745066 -0.014266908 0.68353885
0.037271734 -0.014790356 0.68285322
0.037101556 -0.015311718 0.68220103
0.036946759 -0.015834332 0.68160784
0.036798816 -0.016355038 0.681041
0.036663592 -0.016876906 0.6805228
0.036531921 -0.017396122 0.68001819
0.036412939 -0.017917484 0.67956221
0.036295332 -0.018435717 0.6791116
0.03618829 -0.018955767 0.6787014
0.036084373 -0.019474089 0.67830312
0.035985433 -0.019991904 0.67792398
0.035894092 -0.020510882 0.67757398
0.035803214 -0.021027297 0.67722571
0.035721302 -0.021546185 0.67691183
0.035641856 -0.022064 0.67660737
0.035563916 -0.022580236 0.67630869
0.035494715 -0.02309972 0.67604357
0.035425901 -0.023617238 0.67577988
0.035360321 -0.024134815 0.67552853
0.035301361 -0.024654925 0.67530257
0.03524271 -0.025173336 0.6750778
0.035188325 -0.025693059 0.67486942
0.035138845 -0.026214689 0.67467982
0.035089392 -0.02673474 0.67449027
0.035044901 -0.027257115 0.67431986
0.035004556 -0.027781397 0.67416519
0.034964301 -0.028304428 0.67401093
0.034929376 -0.028830588 0.67387712
0.034897968 -0.029358596 0.67375672
0.034866732 -0.029885769 0.67363709
0.034841314 -0.030417055 0.67353964
0.034824021 -0.030954659 0.67347336
0.034811947 -0.031496525 0.6734271
0.034804754 -0.032042444 0.67339957
0.034811728 -0.032601416 0.67342627
0.034830783 -0.033172131 0.67349923
0.034855071 -0.033748537 0.67359233
0.034892183 -0.034338325 0.67373449
0.034949116 -0.034949094 0.67395282
0.035008699 -0.035564363 0.6741811
0.035091642 -0.036205649 0.67449886
0.035193756 -0.036869586 0.67489022
0.035310701 -0.037552625 0.67533839
0.035481598 -0.038297594 0.67599326
0.035682872 -0.039081246 0.67676455
0.036006384 -0.040007085 0.67800426
0.036467291 -0.041098058 0.67977047
0.039113231 -0.044700831 0.68991005
0.038736988 -0.044885695 0.68846822
0.03811061 -0.044764847 0.68606788
0.038529988 -0.045869023 0.687675
0.040079825 -0.01127246 0.6912142
0.039528411 -0.011734992 0.68913412
0.039129868 -0.012228072 0.68763077
0.038814198 -0.012735873 0.68643999
0.038543891 -0.013249457 0.68542039
0.038302109 -0.013764799 0.68450832
0.038091511 -0.014284283 0.68371385
0.037894834 -0.014802665 0.68297195
0.037715655 -0.015322 0.68229604
0.037549693 -0.015841246 0.68167007
0.037393861 -0.016359806 0.68108219
0.03724955 -0.016878694 0.68053782
0.037113156 -0.017396808 0.68002331
0.036984403 -0.017914325 0.67953765
0.036864359 -0.01843217 0.67908484
0.0367474 -0.01894787 0.67864364
0.036641318 -0.019465685 0.6782434
0.036536448 -0.019980878 0.67784786
0.036439698 -0.020497322 0.67748296
0.036347501 -0.021013379 0.67713511
0.03625695 -0.021527529 0.67679358
0.03617591 -0.022044659 0.6764878
0.036095701 -0.022559792 0.67618525
0.036019463 -0.023074985 0.67589772
0.035949703 -0.023591965 0.6756345
0.035880215 -0.024106979 0.67537242
0.035816304 -0.024623722 0.67513132
0.035756871 -0.025141537 0.67490715
0.03569752 -0.025657594 0.67468321
0.035644766 -0.026176631 0.67448425
0.035594672 -0.026696026 0.67429531
0.035544835 -0.02721402 0.67410731
0.035501935 -0.027735889 0.67394543
0.035461172 -0.028258115 0.67379171
0.035420507 -0.028779179 0.67363834
0.035387252 -0.029305041 0.67351288
0.035355631 -0.02983129 0.67339361
0.035334397 -0.030365497 0.6733135
0.035318684 -0.030903846 0.67325419
0.035306796 -0.031445116 0.67320937
0.035314757 -0.032003969 0.67323941
0.035328783 -0.032568723 0.67329228
0.035347652 -0.033138394 0.67336351
0.035390403 -0.033731461 0.6735248
0.035438567 -0.034331143 0.67370647
0.03549638 -0.034941733 0.67392457
0.035587266 -0.035587251 0.67426729
0.035682514 -0.036240041 0.67462671
0.035821609 -0.036941051 0.67515135
0.035988569 -0.03767553 0.67578119
0.036270905 -0.0385378 0.67684615
0.036706638 -0.039574325 0.6784898
0.040379222 -0.044164777 0.69234365
0.040144511 -0.044535309 0.69145823
0.039881155 -0.044866294 0.69046479
0.039570894 -0.045135528 0.68929446
0.039313458 -0.045456201 0.68832338
0.040405024 -0.01181069 0.69009602
0.039904878 -0.012278408 0.68823844
0.039532449 -0.012772024 0.6868552
0.039232634 -0.013278753 0.68574166
0.038973346 -0.013790548 0.68477857
0.038737118 -0.014302939 0.68390119
0.03852725 -0.014818162 0.68312168
0.038336556 -0.015334606 0.6824134
0.038156763 -0.01584971 0.68174565
0.03799475 -0.016366959 0.68114388
0.037838161 -0.016881645 0.68056232
0.037697203 -0.017398685 0.68003875
0.037559535 -0.017913014 0.67952746
0.037433788 -0.018428922 0.67906034
0.037312821 -0.018943399 0.67861104
0.037197903 -0.01945734 0.67818427
0.037091363 -0.019972235 0.67778856
0.0369858 -0.020484447 0.67739648
0.036891192 -0.020999581 0.67704511
0.036798149 -0.021512777 0.67669952
0.036709152 -0.022025436 0.67636895
0.036627829 -0.022540182 0.67606694
0.036546748 -0.023052573 0.67576575
0.036472388 -0.023566753 0.6754896
0.036401965 -0.02408129 0.675228
0.036331695 -0.024593771 0.67496705
0.036269736 -0.025109798 0.67473686
0.036209609 -0.025625229 0.67451358
0.036149681 -0.026138991 0.67429101
0.036098607 -0.026657373 0.67410129
0.036048021 -0.027174622 0.67391342
0.035997804 -0.027690619 0.67372686
0.035956543 -0.028212041 0.67357367
0.035915375 -0.0287323 0.67342073
0.035877831 -0.029254198 0.67328131
0.03585596 -0.029788047 0.67320013
0.035835821 -0.030322582 0.67312527
0.035822976 -0.030862898 0.67307758
0.035827637 -0.031418085 0.67309493
0.035836618 -0.031977296 0.67312825
0.035856418 -0.03254658 0.67320174
0.035895851 -0.033134639 0.67334819
0.035938118 -0.033726513 0.67350519
0.036005035 -0.034343272 0.67375374
0.036088225 -0.034977794 0.67406267
0.036193244 -0.035636395 0.67445272
0.036340933 -0.036340922 0.67500132
0.036561068 -0.037123531 0.67581892
0.036941759 -0.038078398 0.67723292
0.042015661 -0.043954819 0.69607824
0.041285418 -0.043826014 0.69336599
0.041089084 -0.044249773 0.69263685
0.040866636 -0.044638932 0.69181061
0.040623482 -0.044998318 0.69090748
0.040349446 -0.045315504 0.68988967
0.04076926 -0.046414196 0.69144893
0.041495506 -0.011945665 0.69181108
0.040752515 -0.012349248 0.68909335
0.040289301 -0.01281932 0.68739897
0.039941814 -0.013313919 0.6861279
0.039649017 -0.013817072 0.68505687
0.039398894 -0.01432687 0.68414199
0.039170627 -0.014837325 0.68330693
0.038961004 -0.015348256 0.68254012
0.038774841 -0.015862405 0.6818592
0.038596686 -0.01637435 0.68120754
0.038436513 -0.016888767 0.68062168
0.038281374 -0.017400622 0.68005419
0.03814156 -0.017914951 0.67954272
0.038003769 -0.018426061 0.6790387
0.037880227 -0.018940121 0.67858684
0.037758116 -0.019451171 0.67814016
0.037645929 -0.019963712 0.67772979
0.037538461 -0.020475507 0.67733669
0.037434049 -0.020985782 0.67695475
0.037339695 -0.021498591 0.67660964
0.037245821 -0.022008896 0.67626625
0.037158914 -0.022520542 0.67594832
0.037076849 -0.023032576 0.67564809
0.036995146 -0.023542345 0.6753493
0.036922481 -0.024055511 0.67508346
0.036851402 -0.024567574 0.67482346
0.036781304 -0.025078177 0.67456704
0.036720406 -0.025592983 0.6743443
0.036659714 -0.026106179 0.67412227
0.03660097 -0.026618898 0.6739074
0.03654987 -0.027135491 0.67372054
0.036498796 -0.027650565 0.67353368
0.036450181 -0.028166026 0.67335582
0.036415108 -0.028690696 0.67322755
0.036384601 -0.029217929 0.67311597
0.036355533 -0.0297454 0.67300963
0.03634977 -0.030291498 0.67298853
0.036350232 -0.030842602 0.67299026
0.036350574 -0.031393647 0.67299151
0.036376406 -0.031967133 0.67308599
0.036408979 -0.032547385 0.67320514
0.036448445 -0.033134967 0.6733495
0.03652193 -0.033755124 0.67361826
0.036599919 -0.034381717 0.67390358
0.03672323 -0.035053968 0.67435461
0.03687546 -0.035757989 0.6749115
0.037172526 -0.036609322 0.67599809
0.043054834 -0.043054849 0.69751501
0.042825215 -0.043474048 0.69667506
0.042148482 -0.043425679 0.69419962
0.041969679 -0.043877393 0.69354558
0.041777924 -0.044309914 0.69284421
0.041575246 -0.044724882 0.69210279
0.041350652 -0.045109779 0.69128126
0.041495655 -0.045896709 0.69181168
0.041697789 -0.012447089 0.69027454
0.04110178 -0.01288265 0.68812692
0.040684741 -0.013359159 0.68662429
0.040353857 -0.013852805 0.68543196
0.040070884 -0.014353722 0.6844123
0.03982085 -0.014858514 0.68351138
0.039600704 -0.015367419 0.68271816
0.039394978 -0.015875608 0.6819768
0.039209861 -0.016386211 0.68130982
0.039036028 -0.016896188 0.68068349
0.038875151 -0.017406762 0.68010378
0.038723584 -0.017916858 0.67955762
0.038582779 -0.01842761 0.67905021
0.03844744 -0.018936813 0.67856258
0.038323645 -0.019447833 0.6781165
0.038201015 -0.019955754 0.67767465
0.038091011 -0.020466805 0.67727828
0.037982628 -0.020975471 0.67688769
0.037880529 -0.021484494 0.67651987
0.037785355 -0.021994442 0.67617691
0.037690662 -0.022501886 0.67583567
0.037606034 -0.023012638 0.67553067
0.037523117 -0.02352196 0.67523193
0.037442006 -0.02402994 0.67493963
0.037370004 -0.024541497 0.67468023
0.037298277 -0.025051057 0.67442179
0.037229922 -0.025560796 0.6741755
0.037168462 -0.026073366 0.67395401
0.037107203 -0.026584268 0.67373329
0.037050158 -0.027096331 0.67352772
0.036998577 -0.027610868 0.67334187
0.036957227 -0.028131634 0.67319286
0.03692124 -0.028655291 0.67306316
0.036891051 -0.029182434 0.67295438
0.0368817 -0.029725552 0.6729207
0.036876209 -0.030271471 0.67290092
0.03688018 -0.030825227 0.67291522
0.036904618 -0.031396449 0.67300332
0.036930848 -0.031969994 0.67309785
0.036979184 -0.032563716 0.67327195
0.037046265 -0.033175737 0.67351371
0.037131235 -0.033806026 0.6738199
0.03726222 -0.034481436 0.67429185
0.037476122 -0.035238743 0.6750626
0.043960057 -0.041991711 0.69842625
0.043826655 -0.042518377 0.69794548
0.043606158 -0.042955309 0.69715101
0.042975549 -0.042975485 0.6948787
0.042813532 -0.043452531 0.69429493
0.042643983 -0.043916941 0.69368398
0.042465542 -0.044366956 0.69304097
0.04226755 -0.044790953 0.69232756
0.04231441 -0.045472205 0.69249648
0.041992966 -0.012968391 0.68911296
0.041466329 -0.013415605 0.68724328
0.041076049 -0.013893336 0.68585765
0.040762126 -0.014386624 0.68474317
0.040490679 -0.01488623 0.68377942
0.040243924 -0.015387386 0.68290335
0.040027399 -0.015893221 0.68213463
0.039827686 -0.016399652 0.68142551
0.039641388 -0.016905874 0.68076414
0.039472517 -0.017414331 0.68016458
0.03931044 -0.017920882 0.67958915
0.039162926 -0.018429607 0.67906547
0.039020896 -0.018936574 0.67856121
0.038888853 -0.019444436 0.67809242
0.038763929 -0.019951969 0.6776489
0.038643096 -0.020458102 0.67721987
0.038533188 -0.020966589 0.6768297
0.038423903 -0.021472156 0.67644167
0.038324311 -0.021980137 0.67608809
0.038228326 -0.022487253 0.67574733
0.038134173 -0.022992641 0.67541307
0.038050286 -0.023501635 0.67511523
0.037966646 -0.024008304 0.67481828
0.037887502 -0.02451542 0.6745373
0.037814859 -0.025024533 0.67427939
0.037742499 -0.025531679 0.67402244
0.037675936 -0.026040733 0.67378616
0.037613921 -0.026550978 0.67356598
0.037554257 -0.027061164 0.67335415
0.037510138 -0.027580947 0.67319751
0.037469335 -0.028101981 0.67305267
0.037436206 -0.028627694 0.67293507
0.037424229 -0.029168874 0.67289251
0.037414748 -0.029711694 0.67285883
0.037417591 -0.030264229 0.67286897
0.03743929 -0.03083235 0.67294598
0.037464105 -0.03140375 0.67303407
0.037516929 -0.031999707 0.67322159
0.0375797 -0.032605886 0.67344451
0.037681226 -0.033248097 0.67380488
0.037812319 -0.033919841 0.67427039
0.038109325 -0.034746706 0.6753248
0.044711921 -0.041424245 0.69876617
0.044579815 -0.041957438 0.69829708
0.044362862 -0.042405665 0.69752681
0.043773413 -0.042485952 0.69543415
0.04362696 -0.04298538 0.69491416
0.043474603 -0.043474615 0.69437331
0.043312985 -0.043949932 0.6937995
0.043138064 -0.044406801 0.69317842
0.043140586 -0.045043796 0.69318736
0.043167334 -0.013137877 0.69106126
0.042318389 -0.013492852 0.68809086
0.041833706 -0.013944536 0.68639505
0.041470747 -0.014424592 0.68512505
0.041166976 -0.014915556 0.68406224
0.040906671 -0.015414119 0.68315154
0.040668257 -0.015913635 0.68231732
0.040450476 -0.016414672 0.68155533
0.040257178 -0.016919672 0.680879
0.040071338 -0.017422318 0.68022883
0.039905798 -0.01792866 0.67964959
0.039743729 -0.018431842 0.67908251
0.03959905 -0.018938661 0.67857629
0.039455943 -0.019442022 0.67807555
0.039327148 -0.019948512 0.67762494
0.039201375 -0.020452887 0.67718488
0.03908328 -0.020957708 0.6767717
0.038972482 -0.021463066 0.67638403
0.038862817 -0.021965951 0.6760003
0.03876517 -0.02247256 0.6756587
0.038668387 -0.022976846 0.67532003
0.038576551 -0.023481369 0.6749987
0.038491827 -0.023987681 0.67470229
0.038407598 -0.024491757 0.6744076
0.03833035 -0.024998039 0.67413729
0.038257077 -0.025504708 0.67388093
0.038184084 -0.026009411 0.67362553
0.038124338 -0.026521266 0.6734165
0.038073484 -0.02703765 0.67323858
0.038022883 -0.027552813 0.67306149
0.037994441 -0.028082848 0.67296201
0.037975907 -0.028619528 0.67289716
0.037957508 -0.029155761 0.67283279
0.037967727 -0.029713839 0.67286855
0.037983365 -0.030276567 0.67292321
0.038006127 -0.030845553 0.6730029
0.038064051 -0.031444192 0.67320555
0.038124338 -0.032046556 0.6734165
0.038239747 -0.032697767 0.67382032
0.038425449 -0.03341344 0.67447001
0.045538004 -0.040258229 0.6993559
0.045445472 -0.040835053 0.69903213
0.04531474 -0.041374326 0.69857472
0.044753596 -0.041510582 0.69661134
0.044546213 -0.041963786 0.69588572
0.044414837 -0.042483747 0.69542605
0.044276055 -0.042992681 0.69494051
0.044129528 -0.043489963 0.69442785
0.04397219 -0.043972135 0.69387728
0.043974448 -0.044611722 0.69388521
0.043299925 -0.013608545 0.68936086
0.04265419 -0.01401493 0.68713379
0.042218409 -0.014474869 0.6856308
0.041872598 -0.014954448 0.68443817
0.041576702 -0.015442759 0.68341762
0.041319046 -0.015937358 0.68252909
0.041089263 -0.016435683 0.68173659
0.040874377 -0.01693365 0.6809954
0.040683493 -0.017435789 0.68033713
0.040501669 -0.017936438 0.67971003
0.040335905 -0.018439263 0.6791383
0.04017733 -0.018940747 0.67859143
0.040032119 -0.019444168 0.67809063
0.039890174 -0.019945055 0.67760104
0.03976262 -0.02044934 0.67716116
0.039635751 -0.020950317 0.6767236
0.039520599 -0.021454036 0.67632639
0.039408926 -0.021956414 0.67594129
0.03930144 -0.022457957 0.67557061
0.039203379 -0.022961974 0.67523241
0.03910581 -0.023463488 0.67489588
0.039016105 -0.023967028 0.67458647
0.038930677 -0.024470687 0.67429185
0.038845744 -0.02497223 0.67399895
0.038770575 -0.025477767 0.67373967
0.038703576 -0.025986671 0.67350864
0.038643438 -0.026498348 0.67330122
0.038592055 -0.027014434 0.67312402
0.038561221 -0.027543694 0.67301762
0.03853434 -0.02807501 0.67292494
0.038517985 -0.028613359 0.67286849
0.038525183 -0.029169053 0.67289335
0.038533729 -0.029725999 0.67292285
0.038567822 -0.03030327 0.67304039
0.038617425 -0.030893922 0.67321146
0.038692616 -0.031506866 0.6734708
0.038808309 -0.032155424 0.67386985
0.039043661 -0.032908201 0.67468154
0.046249099 -0.039642096 0.69953221
0.046157818 -0.040223271 0.69921744
