# .PCD v0.7 - Point Cloud Data file format
VERSION 0.7
FIELDS x y z
SIZE 4 4 4
TYPE F F F
COUNT 1 1 1
WIDTH 1303
HEIGHT 1
VIEWPOINT 0 0 0 1 0 0 0
POINTS 1303
DATA ascii
-0.010159926 0.006773293 0.70354629
-0.010106889 0.0060641468 0.70269269
-0.010040536 0.0053549707 0.70162475
-0.010031453 0.0046813488 0.70147854
-0.010062285 0.0040249228 0.70197481
-0.010093266 0.0033644438 0.7024734
-0.01012444 0.002699852 0.70297521
-0.010154185 0.0020308793 0.7034539
-0.010175754 0.0013568103 0.70380104
-0.01018976 0.00067931414 0.70402646
-0.010199251 -0 0.70417923
-0.010202365 -0.0006801486 0.7042293
-0.010196976 -0.0013595521 0.70414257
-0.010190755 -0.002038151 0.70404249
-0.010184542 -0.0027158558 0.70394248
-0.010180286 -0.0033934116 0.70387399
-0.010326682 -0.0041306317 0.70623016
-0.010426251 -0.0048655868 0.70783281
-0.010486752 -0.0055929124 0.70880651
-0.010528994 -0.0063173771 0.70948631
-0.010573894 -0.0070492327 0.71020901
-0.010616712 -0.0077855885 0.71089816
-0.010651208 -0.0085209608 0.71145338
-0.010671665 -0.0092487633 0.71178263
-0.010670966 -0.0099595487 0.71177131
-0.010651775 -0.010651767 0.7114625
-0.010616236 -0.011323959 0.71089047
-0.010580032 -0.011990666 0.71030778
-0.010565363 -0.012678444 0.71007168
-0.010899245 -0.013805687 0.71544552
-0.010935651 -0.014580846 0.71603143
-0.010972301 -0.01536122 0.71662128
-0.011009151 -0.016146749 0.71721435
-0.011046297 -0.016937643 0.71781224
-0.011083693 -0.017733872 0.71841407
-0.011978274 0.041068375 0.74658263
-0.011976328 0.040206254 0.74654913
-0.012022085 0.03950116 0.74733818
-0.012034458 0.038682222 0.74755156
-0.012005589 0.037731856 0.74705374
-0.011715642 0.035983771 0.74205375
-0.010607761 0.031823307 0.72294903
-0.01052869 0.030834049 0.72158551
-0.010450341 0.029858112 0.72023445
-0.010391052 0.028946489 0.719212
-0.010413251 0.028264552 0.7195949
-0.010473561 0.027680129 0.72063482
-0.010524955 0.027064174 0.72152114
-0.010572855 0.026432186 0.72234714
-0.010616559 0.025783062 0.72310078
-0.0106567 0.025119394 0.72379297
-0.010695219 0.024446189 0.7244572
-0.010729376 0.023757905 0.72504622
-0.010762752 0.023063064 0.72562182
-0.010781119 0.022332311 0.72593856
-0.010782361 0.021564752 0.72595996
-0.0097245928 0.018754601 0.70771939
-0.0096743098 0.017966598 0.7068522
-0.0096339602 0.01720351 0.70615649
-0.0095939459 0.016446769 0.70546645
-0.0095543005 0.015696347 0.70478284
-0.0095190024 0.014958471 0.70417404
-0.0095388256 0.014308244 0.70451593
-0.0096554914 0.013793588 0.70652771
-0.0097750472 0.013266146 0.70858943
-0.0098975608 0.012725443 0.71070206
-0.010011384 0.012156695 0.71266496
-0.010084312 0.011524916 0.7139225
-0.010128319 0.010851771 0.71468145
-0.010144668 0.010144681 0.71496332
-0.010142975 0.0094184875 0.71493411
-0.010125116 0.0086787045 0.71462619
-0.01010056 0.0079361796 0.7142027
-0.0094671687 0.0067622662 0.70328027
-0.0094287824 0.0060614049 0.70261824
-0.0093860654 0.0053634644 0.70188171
-0.0093892179 0.0046946108 0.70193607
-0.0094181579 0.0040363669 0.70243508
-0.0094472757 0.0033740699 0.70293719
-0.0094725518 0.0027064681 0.70337307
-0.0094869612 0.0020329356 0.70362157
-0.0094954427 0.0013565123 0.70376778
-0.0094968881 0.00067836046 0.70379281
-0.0094910702 2.9802322e-08 0.70369244
-0.0094801569 -0.00067716837 0.7035042
-0.0094692698 -0.0013527572 0.70331651
-0.0094594732 -0.002027005 0.70314753
-0.0094537009 -0.0027010441 0.70304799
-0.0094479723 -0.0033742785 0.70294923
-0.0094422512 -0.0040466487 0.70285058
-0.0095475493 -0.0047737658 0.70466638
-0.0097179487 -0.0055530667 0.70760483
-0.0098207518 -0.006313324 0.70937753
-0.0098792287 -0.0070565939 0.71038598
-0.009926036 -0.0077990294 0.71119314
-0.0099635664 -0.0085401833 0.71184027
-0.0099683851 -0.0092563629 0.71192342
-0.0099561438 -0.0099561512 0.71171236
-0.0099248616 -0.010633767 0.71117288
-0.0098907584 -0.011303693 0.71058476
-0.009856849 -0.011969 0.71000004
-0.0098232105 -0.012629837 0.70941997
-0.0097989123 -0.013298541 0.70900095
-0.010238142 -0.014625877 0.71657515
-0.010272561 -0.015408844 0.71716875
-0.010307211 -0.016197056 0.71776628
-0.010342097 -0.016990572 0.71836782
-0.010377176 -0.017789423 0.71897274
-0.011250895 0.042407215 0.74896371
-0.0111664 0.041229784 0.7473945
-0.011099451 0.040128797 0.74615127
-0.011133868 0.039396763 0.74679041
-0.011161765 0.038636893 0.74730849
-0.011140293 0.03770563 0.74690968
-0.011071865 0.036622345 0.74563897
-0.0098686563 0.031883359 0.72329438
-0.0097837979 0.030856609 0.72171843
-0.0097113559 0.02988112 0.72037309
-0.0096393209 0.028917968 0.71903539
-0.0095942784 0.02804482 0.7181989
-0.0096328249 0.027416497 0.71891475
-0.0097265793 0.02693513 0.72065586
-0.0097910939 0.026360631 0.72185391
-0.0098443106 0.025746703 0.72284222
-0.0098919105 0.025110275 0.72372615
-0.0099340267 0.024453014 0.72450829
-0.0099745644 0.023785502 0.72526115
-0.010006515 0.023091942 0.72585452
-0.010023479 0.022360086 0.72616953
-0.010023702 0.021589518 0.72617364
-0.0093418118 0.019402236 0.71351039
-0.0089770034 0.017954022 0.70673555
-0.0089286333 0.017170459 0.70583725
-0.0088915145 0.016415119 0.70514798
-0.0088548064 0.015666217 0.70446622
-0.0088185389 0.014923722 0.70379269
-0.0087855402 0.014192045 0.7031799
-0.0087981336 0.013535589 0.70341378
-0.0089050112 0.013015032 0.70539856
-0.0090145171 0.01248163 0.70743221
-0.0091267498 0.011934966 0.70951653
-0.0086869039 0.010691553 0.70134819
-0.0086957002 0.010033488 0.7015115
-0.0087399501 0.0094122589 0.70233327
-0.0093842363 0.0093842745 0.71429819
-0.0087954951 0.0081189275 0.70336479
-0.0087866001 0.007434845 0.70319957
-0.0087683499 0.0067448914 0.70286071
-0.0087402537 0.0060509443 0.70233893
-0.0087239146 0.0053685904 0.70203543
-0.0087433672 0.0047079623 0.70239669
-0.0087703932 0.0040479004 0.70289862
-0.008794982 0.0033827126 0.70335531
-0.0088032093 0.0027087033 0.70350802
-0.0088035176 0.0020315647 0.7035138
-0.0087995045 0.0013537705 0.7034393
-0.0087871812 0.00067594647 0.70321041
-0.0087728119 2.9802322e-08 0.7029435
-0.0087604932 -0.00067386031 0.70271474
-0.0087505151 -0.0013462007 0.70252943
-0.0087405583 -0.0020170212 0.70234454
-0.0087317387 -0.0026866794 0.7021808
-0.0087255659 -0.0033559501 0.70206606
-0.0087203104 -0.004024744 0.70196849
-0.0087150605 -0.0046927333 0.70187104
-0.0087829782 -0.0054048598 0.70313227
-0.0089382092 -0.0061880052 0.70601517
-0.0090990625 -0.0069992542 0.70900226
-0.0092038875 -0.0077879131 0.71094906
-0.0092508979 -0.0085392594 0.71182197
-0.0092546884 -0.0092546642 0.71189237
-0.0092312358 -0.0099413395 0.71145689
-0.0091994265 -0.010614693 0.71086615
-0.0091678724 -0.011283547 0.71028018
-0.009136497 -0.011947721 0.70969748
-0.0091053722 -0.012607425 0.7091195
-0.0090744589 -0.013262659 0.70854545
-0.0090469429 -0.01391834 0.7080344
-0.0091087874 -0.014714181 0.70918286
-0.0096008452 -0.016247571 0.71832085
-0.0096334415 -0.017043769 0.71892619
-0.0096662603 -0.017845392 0.71953559
-0.0097140297 -0.018680811 0.7204228
-0.010309281 0.041237116 0.74743152
-0.010234381 0.04008466 0.74592459
-0.01018563 0.039044946 0.7449438
-0.010235838 0.038384408 0.74595392
-0.010245093 0.037565351 0.74614012
-0.010216727 0.036609977 0.74556947
-0.010147555 0.035516471 0.74417782
-0.0090416558 0.030892313 0.72192883
-0.0089708092 0.029902726 0.72050345
-0.0089047514 0.028940439 0.71917456
-0.0088390224 0.027990252 0.71785218
-0.0088013718 0.027137578 0.71709472
-0.0088426592 0.026528001 0.71792537
-0.0089311879 0.026049316 0.71970636
-0.0090215066 0.025560975 0.72152346
-0.0090987952 0.025021672 0.72307837
-0.0091524795 0.024406642 0.72415847
-0.0091984747 0.023762733 0.72508371
-0.0092340419 0.023085117 0.72579932
-0.0092507591 0.022356033 0.72613561
-0.0092504313 0.021584362 0.72612906
-0.0086160479 0.019386113 0.71336621
-0.0085677505 0.018563449 0.71239454
-0.0082381675 0.017162859 0.70576388
-0.0081921034 0.016384244 0.70483714
-0.0081579955 0.015636176 0.70415097
-0.0081245201 0.014894962 0.70347744
-0.0080915997 0.014160305 0.70281518
-0.0080599105 0.013433218 0.70217764
-0.0080299228 0.012714058 0.70157433
-0.0080050407 0.012007564 0.70107371
-0.0079861209 0.011313707 0.70069307
-0.0079744523 0.010632604 0.70045829
-0.0079692705 0.0099615753 0.7003541
-0.0079762833 0.0093057156 0.70049512
-0.0080129793 0.0086807609 0.70123345
-0.0080635268 0.0080635548 0.70225036
-0.0080707688 0.0073982477 0.70239609
-0.0080632772 0.0067194104 0.70224535
-0.0080556441 0.0060417652 0.70209181
-0.0080689257 0.005379349 0.70235896
-0.0080938302 0.0047214031 0.70286
-0.00811892 0.0040594637 0.70336485
-0.0081346957 0.0033894777 0.70368218
-0.0081301276 0.0027100742 0.70359033
-0.0081118438 0.0020279586 0.70322245
-0.0080903126 0.0013484061 0.70278925
-0.0080765216 0.00067302585 0.70251185
-0.0080633713 2.9802322e-08 0.7022472
-0.0080502937 -0.00067085028 0.70198417
-0.0080387471 -0.0013397634 0.70175189
-0.0080294898 -0.0020073652 0.70156562
-0.0080206245 -0.0026735365 0.70138723
-0.0080126096 -0.0033385754 0.701226
-0.008006148 -0.0040030777 0.70109606
-0.0080013545 -0.0046674311 0.70099956
-0.0079965359 -0.0053309798 0.7009027
-0.0080324905 -0.0060243309 0.701626
-0.0081731547 -0.0068109334 0.70445585
-0.0083188349 -0.0076255798 0.70738679
-0.0084698023 -0.0084697902 0.71042401
-0.0085167894 -0.0092265308 0.7113694
-0.0085035199 -0.0099207759 0.71110237
-0.0084765861 -0.010595709 0.7105605
-0.0084475633 -0.0112634 0.70997661
-0.0084187044 -0.011926472 0.709396
-0.0083900765 -0.012585104 0.70882004
-0.0083616413 -0.013239264 0.70824802
-0.0083333664 -0.013888925 0.70767909
-0.0083060423 -0.014535606 0.70712942
-0.008301015 -0.015218496 0.70702827
-0.0089203725 -0.017097354 0.7194888
-0.0089508584 -0.017901689 0.72010213
-0.0089827916 -0.01871413 0.72074455
-0.0094584525 0.041273296 0.74761319
-0.0093843266 0.04009667 0.74598622
-0.0093154823 0.038955659 0.74447536
-0.0092794327 0.037961334 0.74368411
-0.0093305828 0.037322342 0.74480677
-0.0093331803 0.036484241 0.74486375
-0.0093045523 0.035526484 0.74423546
-0.0092348615 0.034420848 0.74270588
-0.0082309628 0.02993077 0.72067297
-0.0081686545 0.028961629 0.71930552
-0.008108695 0.028011829 0.71798956
-0.0080492347 0.027074724 0.71668452
-0.0080182329 0.026241511 0.71600407
-0.0080611529 0.02564913 0.71694607
-0.0081414068 0.025164336 0.71870744
-0.0082232766 0.024669856 0.72050428
-0.008306846 0.024165392 0.72233838
-0.0083889626 0.023641646 0.72414064
-0.0084404256 0.023019373 0.72527015
-0.0079147583 0.020866215 0.71373308
-0.0079011451 0.020112038 0.71343428
-0.0078799371 0.019341677 0.71296883
-0.0078506414 0.018556118 0.71232587
-0.0078438427 0.017826915 0.71217668
-0.0075078942 0.016380876 0.70480347
-0.0074643767 0.015607327 0.70384842
-0.0074333111 0.01486668 0.7031666
-0.0074029905 0.014133006 0.70250112
-0.0073732575 0.013405949 0.70184857
-0.0073446939 0.012686312 0.7012217
-0.0073173596 0.011973917 0.70062172
-0.0072944295 0.011273235 0.70011848
-0.0072779288 0.010586143 0.69975632
-0.0072736074 0.0099185407 0.69966149
-0.0072859754 0.009273082 0.69993287
-0.007306505 0.0086349845 0.70038348
-0.0073339832 0.0080007315 0.70098662
-0.0073596849 0.0073597133 0.70155066
-0.0073754201 0.0067049265 0.70189601
-0.0073947692 0.0060502887 0.70232069
-0.007417616 0.0053946376 0.70282209
-0.0074405754 0.0047349632 0.70332599
-0.0074636769 0.0040710866 0.70383304
-0.0074824966 0.0034011602 0.7042461
-0.0074911197 0.0027240217 0.70443535
-0.0074177887 0.0020230412 0.7028259
-0.0073885941 0.0013433695 0.70218515
-0.0073732007 0.00067034364 0.70184731
-0.0073600817 -0 0.70155942
-0.0073480546 -0.00066795945 0.70129544
-0.0073363762 -0.0013338625 0.70103914
-0.0073258863 -0.0019979775 0.70080894
-0.0073169954 -0.0026606917 0.70061374
-0.0073091318 -0.0033223331 0.70044118
-0.0073018987 -0.003982842 0.70028239
-0.0072954041 -0.0046425462 0.70013988
-0.007290923 -0.005302459 0.70004153
-0.0072865863 -0.005961746 0.6999464
-0.0072957659 -0.0066325068 0.70014787
-0.0074223406 -0.0074223578 0.7029258
-0.0075533553 -0.0082400441 0.70580125
-0.0076891086 -0.0090871155 0.70878071
-0.0077599501 -0.009876281 0.71033543
-0.0077519235 -0.010570765 0.7101593
-0.0077298186 -0.011243343 0.70967418
-0.0077034589 -0.011905342 0.7090956
-0.0076773087 -0.012562871 0.70852172
-0.0076513356 -0.013215929 0.70795166
-0.0076255077 -0.013864577 0.70738482
-0.0075998534 -0.014508814 0.70682174
-0.0075744307 -0.015148848 0.70626378
-0.007558703 -0.015804529 0.70591855
-0.0082308911 -0.017958283 0.72067142
-0.0082595637 -0.018771708 0.72130072
-0.008532756 0.040103972 0.74602365
-0.0084721306 0.038971782 0.74456006
-0.0084097143 0.037843734 0.7430532
-0.0083851982 0.036894888 0.74246138
-0.0084336773 0.036264837 0.74363172
-0.0084322039 0.035415292 0.7435962
-0.0084035313 0.034454465 0.74290401
-0.0083380332 0.033352137 0.7413227
-0.0074320859 0.028985113 0.71945119
-0.0073770494 0.028032809 0.71812248
-0.0073230998 0.027095497 0.71682
-0.0072697815 0.026171207 0.71553278
-0.007244953 0.025357336 0.7149334
-0.0072882017 0.024779916 0.71597749
-0.0073603913 0.02428931 0.71772033
-0.007136683 0.02283743 0.71231949
-0.007127753 0.022096038 0.71210396
-0.0071331374 0.021399438 0.7122339
-0.0071489289 0.020731896 0.71261519
-0.007150047 0.020020157 0.71264219
-0.0071394104 0.01927644 0.71238536
-0.007136683 0.018555403 0.71231955
-0.0071543455 0.017885894 0.7127459
-0.0071734581 0.017216325 0.71320736
-0.0067860088 0.015607864 0.70385349
-0.0067453557 0.014839798 0.70287204
-0.006717267 0.014106274 0.70219392
-0.0066900556 0.01338014 0.70153701
-0.0066633965 0.012660444 0.7008934
-0.0066378363 0.011948138 0.70027626
-0.0066135535 0.011243045 0.69969004
-0.0066049043 0.010567844 0.69948131
-0.0066190716 0.0099286139 0.69982326
-0.0066392059 0.0092948973 0.7003094
-0.0066594379 0.0086572766 0.7007978
-0.0066797929 0.0080157518 0.70128918
-0.0067003248 0.0073703825 0.70178491
-0.0067209313 0.0067209601 0.70228243
-0.0067416909 0.0060675442 0.70278358
-0.006762553 0.0054100752 0.70328724
-0.0067835711 0.0047485232 0.70379466
-0.006804694 0.0040828586 0.70430458
-0.0068259751 0.0034129918 0.70481837
-0.006846122 0.002738446 0.7053048
-0.006714697 0.0020144284 0.70213187
-0.0066921688 0.0013384819 0.70158792
-0.0066777389 0.00066778064 0.70123959
-0.0066643679 2.9802322e-08 0.70091683
-0.0066523491 -0.00066524744 0.70062667
-0.0066432934 -0.0013286173 0.70040804
-0.0066383178 -0.0019915104 0.70028794
-0.0066266456 -0.0026506484 0.70000613
-0.0066129491 -0.0033064485 0.69967544
-0.0066059339 -0.0039635599 0.6995061
-0.0065994598 -0.0046195984 0.69934982
-0.0065936241 -0.0052748919 0.69920897
-0.0065889228 -0.0059300363 0.69909543
-0.0065850271 -0.0065850019 0.69900131
-0.0065841787 -0.0072425902 0.69898093
-0.0066853445 -0.0080223978 0.70142323
-0.0068022693 -0.0088429153 0.70424604
-0.006923357 -0.0096926987 0.70716941
-0.0070114816 -0.01051724 0.70929694
-0.0070085968 -0.011213779 0.70922732
-0.0069906898 -0.011884153 0.70879495
-0.006967057 -0.012540668 0.70822436
-0.0069435006 -0.013192654 0.70765567
-0.0069201305 -0.013840228 0.70709145
-0.0068969168 -0.014483511 0.70653105
-0.0068738316 -0.015122414 0.70597374
-0.0068509271 -0.015757114 0.70542073
-0.0068318537 -0.016396463 0.70496029
-0.0069067054 -0.01726675 0.70676738
-0.0076252525 0.03897351 0.74456906
-0.0075725182 0.037862629 0.74315441
-0.0075176517 0.036752999 0.74168271
-0.00750315 0.035848409 0.74129367
-0.0075463508 0.035216302 0.7424525
-0.0075417282 0.034356773 0.74232852
-0.0075248154 0.03344363 0.74187487
-0.0075281118 0.032621831 0.74196327
-0.0066443947 0.028054118 0.7182579
-0.00659585 0.027116299 0.71695578
-0.0065477625 0.026191056 0.71566582
-0.0065008844 0.02528125 0.7144084
-0.0064592059 0.024401486 0.71329033
-0.0064233048 0.02355212 0.7123273
-0.0063994606 0.022753656 0.71168768
-0.0063834977 0.021987587 0.71125948
-0.0063781599 0.021260589 0.71111631
-0.0063908556 0.020592749 0.71145689
-0.0064071706 0.019933462 0.71189451
-0.0064195339 0.019258618 0.71222615
-0.006437453 0.018597066 0.7127068
-0.0064564319 0.017934561 0.71321589
-0.0064755501 0.017268181 0.71372873
-0.0064947549 0.016597718 0.71424395
-0.0060742158 0.014848143 0.70296311
-0.0060348306 0.014081299 0.70190662
-0.0060098036 0.013355136 0.70123529
-0.0059855785 0.012636244 0.70058548
-0.0059618889 0.01192376 0.69995004
-0.0059468555 0.011232942 0.69954669
-0.0059557804 0.010588109 0.69978613
-0.0059738928 0.0099565089 0.70027196
-0.0059920927 0.0093210638 0.70076025
-0.0060104271 0.0086817443 0.7012521
-0.0060288506 0.008038491 0.70174623
-0.0060474109 0.0073913038 0.70224404
-0.0060660858 0.006740123 0.70274508
-0.0060848766 0.0060848892 0.7032491
-0.0061037606 0.0054256022 0.70375562
-0.0061227856 0.0047622025 0.70426601
-0.0061419057 0.0040946305 0.70477891
-0.0061611696 0.0034229159 0.70529568
-0.0061805309 0.0027469099 0.70581496
-0.0060192891 0.0020064414 0.70148975
-0.0060008317 0.0013335049 0.70099467
-0.0059879394 0.00066533685 0.70064884
-0.0059752166 -0 0.70030749
-0.0059713377 -0.0006634593 0.70020342
-0.0059834025 -0.0013296306 0.70052707
-0.0059933104 -0.0019977689 0.70079285
-0.0059913811 -0.0026628375 0.70074117
-0.0059345998 -0.0032969713 0.69921798
-0.0059171272 -0.0039447546 0.6987493
-0.0059108865 -0.0045973659 0.69858193
-0.0059051272 -0.0052489936 0.69842738
-0.0058999578 -0.0058999658 0.69828874
-0.0058951532 -0.0065501332 0.69815987
-0.0058916877 -0.0072009265 0.69806689
-0.0058888253 -0.0078517497 0.69799018
-0.0059618433 -0.0086115301 0.69994879
-0.0060651214 -0.0094346106 0.70271921
-0.0061720652 -0.010286748 0.70558792
-0.0062695215 -0.0111458 0.70820212
-0.0062725144 -0.011848062 0.70828241
-0.0062586553 -0.012517273 0.70791066
-0.0062382054 -0.013169497 0.70736206
-0.0062172213 -0.013816088 0.70679921
-0.006196402 -0.014458269 0.70624071
-0.006161097 -0.015060484 0.70529372
-0.006140579 -0.015692562 0.70474327
-0.0061347247 -0.01635927 0.70458627
-0.006115362 -0.016987115 0.70406687
-0.0061228336 -0.017688215 0.70426732
-0.0067314203 0.037864268 0.74316335
-0.0066851852 0.036768556 0.74176806
-0.0066383132 0.03568095 0.74035358
-0.006632959 0.03482303 0.740192
-0.006675649 0.034212738 0.74148029
-0.006691236 0.033456206 0.74195069
-0.0067051165 0.032687485 0.74236959
-0.0067188921 0.031914771 0.74278527
-0.0058671357 0.027135491 0.71708125
-0.0058246725 0.026211053 0.71579981
-0.0057824827 0.025298417 0.71452659
-0.0057412316 0.024400234 0.71328175
-0.0057038637 0.023528486 0.71215403
-0.0056745452 0.022698194 0.71126932
-0.0056563704 0.021918476 0.71072078
-0.0056672795 0.021252304 0.71105003
-0.005686292 0.020612836 0.71162379
-0.0057040509 0.019964218 0.71215969
-0.005720885 0.019308031 0.7126677
-0.0057377713 0.01864776 0.71317732
-0.0057547335 0.017983526 0.71368921
-0.0057718209 0.017315477 0.71420485
-0.0057889852 0.016643345 0.71472281
-0.0058062524 0.01596719 0.71524394
-0.0053706993 0.014098108 0.70209992
-0.0053327014 0.013331771 0.70095325
-0.0053106952 0.012612909 0.70028919
-0.0052923337 0.011907756 0.69973511
-0.0052929786 0.011247605 0.69975454
-0.0053088898 0.010617793 0.70023471
-0.0053250599 0.0099844933 0.70072263
-0.0053413496 0.0093473792 0.70121419
-0.005357739 0.0087063313 0.70170885
-0.0053742086 0.0080613196 0.7022059
-0.0053908005 0.0074123442 0.70270658
-0.0054074954 0.0067594051 0.70321035
-0.0054242732 0.0061023533 0.7037167
-0.0054411762 0.0054412186 0.70422679
-0.005458164 0.0047758818 0.70473945
-0.0054752794 0.0041064322 0.70525599
-0.0054924809 0.0034328103 0.70577502
-0.0055094413 0.0027547479 0.70628685
-0.0053330082 0.0019998848 0.70096254
-0.0053156102 0.0013289154 0.70043749
-0.0053038453 0.00066301227 0.70008254
-0.005292132 2.9802322e-08 0.69972897
-0.0053027524 -0.00066286325 0.7000494
-0.0053269374 -0.0013317168 0.70077932
-0.0053449646 -0.0020043552 0.70132333
-0.0053579044 -0.0026789308 0.70171386
-0.0053645014 -0.0033528209 0.70191288
-0.0052482686 -0.0039362013 0.69840527
-0.0052299616 -0.0045762062 0.69785273
-0.0052238484 -0.0052238405 0.69766831
-0.0052188071 -0.0058711171 0.6975162
-0.0052142651 -0.0065178275 0.69737911
-0.0052097109 -0.007163316 0.69724166
-0.0052064518 -0.0078096688 0.69714338
-0.0052034114 -0.0084555149 0.69705153
-0.0052514216 -0.0091899931 0.69850039
-0.0053415755 -0.010015428 0.70122105
-0.0054348786 -0.010869741 0.70403671
-0.0055314992 -0.011754423 0.70695257
-0.0055441423 -0.012474298 0.70733404
-0.0055342307 -0.013143778 0.70703489
-0.005516767 -0.013791919 0.70650798
-0.0054983255 -0.014433116 0.70595139
-0.0054670307 -0.015034318 0.70500702
-0.0054488769 -0.015665472 0.70445913
-0.0054437337 -0.016331196 0.70430398
-0.005425734 -0.016955405 0.7037608
-0.0054079373 -0.017575771 0.70322371
-0.005399324 -0.01822269 0.70296377
-0.0058497624 0.036769986 0.74177575
-0.0058098556 0.035689145 0.74039948
-0.0057714484 0.034628689 0.73907489
-0.0057745725 0.033822507 0.73918265
-0.0058258031 0.033290297 0.74094951
-0.0058610677 0.032654524 0.74216568
-0.0054508653 0.029590428 0.7280184
-0.0054103923 0.028597802 0.72662252
-0.0051003071 0.026230156 0.71592808
-0.0050635063 0.02531752 0.71465886
-0.0050269417 0.024416566 0.71339774
-0.004991598 0.023531824 0.71217877
-0.0049596177 0.022672534 0.7110759
-0.0049443939 0.021896631 0.71055079
-0.0049610543 0.021261662 0.71112537
-0.0049808854 0.020635128 0.71180934
-0.0049994984 0.019998014 0.71245122
-0.0050172773 0.019352376 0.71306449
-0.0050335168 0.018695921 0.71362448
-0.0050491896 0.018032819 0.71416515
-0.005064202 0.017362982 0.71468288
-0.0050793248 0.016689211 0.71520436
-0.005094517 0.016011357 0.7157284
-0.0051090065 0.015327036 0.71622813
-0.0051167016 0.014619142 0.71649349
-0.0046387757 0.012590975 0.70001042
-0.0046325382 0.011912227 0.69979531
-0.0046441965 0.011278778 0.70019734
-0.0046583386 0.010647625 0.70068514
-0.0046725855 0.010012686 0.70117646
-0.0046869195 0.0093738437 0.70167083
-0.0047013238 0.0087310672 0.70216757
-0.0047158352 0.0080842972 0.70266807
-0.0047288174 0.0074310005 0.70311588
-0.0047396352 0.0067709088 0.70348895
-0.0047565973 0.0061156452 0.70407391
-0.0047739809 0.0054560006 0.70467347
-0.0047897184 0.0047896802 0.70521623
-0.0048047625 0.0041183829 0.70573509
-0.0048195003 0.0034425259 0.70624334
-0.0048279185 0.0027588308 0.70653367
-0.0046511767 0.0019933283 0.70043808
-0.0046362644 0.0013246834 0.69992375
-0.0046251738 0.00066074729 0.69954127
-0.0046151341 5.9604645e-08 0.69919503
-0.0046258247 -0.00066080689 0.69956374
-0.0046526715 -0.0013293326 0.70048964
-0.0046785716 -0.0020050704 0.70138288
-0.0046980185 -0.0026845634 0.70205361
-0.0047125644 -0.0033661127 0.70255518
-0.0047226287 -0.00404796 0.70290232
-0.0045697507 -0.0045697391 0.69762981
-0.0045507187 -0.0052008033 0.69697344
-0.0045446646 -0.0058431327 0.69676465
-0.0045403382 -0.0064862072 0.69661546
-0.0045363922 -0.0071286261 0.69647938
-0.0045324699 -0.0077699125 0.69634408
-0.0045291949 -0.0084113777 0.69623113
-0.0045265653 -0.0090531111 0.69614047
-0.004553752 -0.0097580254 0.69707811
-0.0046312152 -0.010585636 0.69974959
-0.0047113593 -0.011441857 0.70251369
-0.0047943257 -0.012328237 0.70537513
-0.0048234379 -0.01309216 0.70637918
-0.0048168655 -0.013762444 0.70615256
-0.004802675 -0.014408022 0.70566308
-0.0047867019 -0.015043914 0.70511222
-0.0047708349 -0.015675575 0.70456499
-0.0047437949 -0.016264409 0.70363247
-0.0047281738 -0.016886324 0.70309365
-0.0047238213 -0.01754564 0.7029435
-0.0047083679 -0.01816082 0.70241058
-0.0046965852 -0.018786311 0.70200413
-0.0049800905 0.035690665 0.74040818
-0.0049462519 0.034623772 0.73904657
-0.0049158814 0.033591866 0.73782456
-0.0049254512 0.032836348 0.73820961
-0.0049689095 0.032297939 0.73995829
-0.0046818862 0.029651999 0.72840929
-0.0046407208 0.028617799 0.72675294
-0.0046311952 0.027787179 0.72636962
-0.0043433853 0.025336415 0.71478909
-0.0043121581 0.02443558 0.71353263
-0.0042810426 0.023545772 0.71228063
-0.0042514475 0.022674412 0.71108979
-0.0042330269 0.021870613 0.71034861
-0.0042452319 0.021226168 0.71083969
-0.0042661675 0.02061981 0.71168208
-0.0042854249 0.01999867 0.71245694
-0.0043034884 0.019365698 0.71318376
-0.0043203258 0.018721402 0.71386123
-0.004336447 0.018068522 0.71450996
-0.0043512722 0.017405093 0.71510643
-0.0043654125 0.016734123 0.71567541
-0.0043788361 0.016055763 0.71621549
-0.0043903254 0.015366137 0.71667784
-0.0043946006 0.014648706 0.7168498
-0.0043915277 0.013906479 0.71672618
-0.0039803293 0.011941016 0.70018083
-0.0039919442 0.011310518 0.70064819
-0.0040041348 0.010677695 0.70113873
-0.0040164157 0.010041058 0.7016328
-0.0040287562 0.0094003975 0.70212942
-0.0040411884 0.0087559223 0.70262963
-0.0040524374 0.0081048906 0.7030822
-0.004056348 0.0074366629 0.70323956
-0.0040587015 0.0067645013 0.70333427
-0.0040751868 0.0061128139 0.70399761
-0.004095376 0.0054605007 0.70480996
-0.0041133137 0.0047988594 0.70553178
-0.0041292491 0.0041292608 0.70617288
-0.0041374275 0.0034478605 0.70650196
-0.0041387579 0.0027591586 0.70655555
-0.0039741532 0.0019870996 0.69993234
-0.0039614215 0.0013204813 0.69942009
-0.0039515104 0.00065857172 0.69902134
-0.0039426629 2.9802322e-08 0.69866526
-0.003952784 -0.00065875053 0.69907248
-0.0039756536 -0.0013251901 0.69999272
-0.0039987895 -0.0019993484 0.70092362
-0.0040221959 -0.0026814342 0.70186543
-0.0040431167 -0.003369242 0.70270717
-0.0040548649 -0.0040548742 0.7031799
-0.0040538711 -0.0047294796 0.7031399
-0.0038987342 -0.0051983297 0.69689775
-0.0038795809 -0.0058193803 0.69612706
-0.0038732383 -0.0064553916 0.69587183
-0.0038695862 -0.007094264 0.6957249
-0.0038662422 -0.0077324808 0.69559038
-0.0038629039 -0.0083696246 0.69545603
-0.0038597572 -0.009006083 0.69532937
-0.0038575148 -0.0096437633 0.69523919
-0.0038685093 -0.010315984 0.69568151
-0.0039337208 -0.011145532 0.69830549
-0.0040011685 -0.012003511 0.70101935
-0.0040709693 -0.012891382 0.70382792
-0.0041073817 -0.013691276 0.70529306
-0.0041066534 -0.014373273 0.70526373
-0.0040957942 -0.015017897 0.70482683
-0.0040822243 -0.015648514 0.70428079
-0.0040591438 -0.016236573 0.70335209
-0.004045784 -0.016857415 0.70281458
-0.0040420662 -0.0175156 0.70266497
-0.0040193424 -0.018087029 0.70175064
-0.0040157503 -0.018740177 0.70160609
-0.0040038582 -0.019351959 0.70112753
-0.0040224134 -0.020112038 0.70187414
-0.004122111 0.034625739 0.7390579
-0.0040938258 0.033569396 0.73769212
-0.0040713386 0.03257072 0.73660636
-0.0040845671 0.031859607 0.73724514
-0.0039134007 0.029741853 0.72898048
-0.0038752721 0.028677016 0.72713947
-0.0038695065 0.027860492 0.72686106
-0.0038807082 0.027164966 0.72740197
-0.0035961578 0.024453878 0.71366262
-0.0035702921 0.023563951 0.71241367
-0.0035447092 0.022686154 0.71117842
-0.0035216731 0.021834373 0.7100662
-0.0035172529 0.021103531 0.7098527
-0.0035416742 0.020541698 0.71103191
-0.003562751 0.019951403 0.7120496
-0.0035814203 0.019339681 0.71295106
-0.0035989289 0.018714398 0.71379638
-0.0036145779 0.018072903 0.71455204
-0.0036298784 0.017423421 0.71529078
-0.0036436117 0.016760617 0.71595395
-0.0036572951 0.016092122 0.71661454
-0.0036660156 0.01539731 0.71703565
-0.0036681518 0.014672607 0.71713877
-0.0036652111 0.013927817 0.71699679
-0.0034074718 0.012266904 0.70455205
-0.0033615448 0.01142928 0.70233452
-0.0033464066 0.010708511 0.70160353
-0.0033565182 0.010069579 0.70209175
-0.0033668608 0.0094271898 0.70259118
-0.0033770569 0.0087803602 0.70308352
-0.003382198 0.0081172884 0.70333177
-0.003381395 0.0074391067 0.70329297
-0.0033745251 0.0067490339 0.70296127
-0.0033703223 0.0060665905 0.70275831
-0.003401441 0.0054422915 0.70426083
-0.003423884 0.0047934353 0.70534456
-0.0034418453 0.0041302443 0.70621175
-0.0034485268 0.0034485757 0.70653439
-0.0034457501 0.0027565956 0.70640028
-0.0033027283 0.0019816458 0.6994946
-0.0032914905 0.0013166368 0.69895196
-0.0032829819 0.00065663457 0.6985411
-0.0032753444 -0 0.69817239
-0.0032838755 -0.00065675378 0.69858426
-0.0033028163 -0.0013211071 0.69949883
-0.0033219769 -0.0019931793 0.70042402
-0.0033413609 -0.0026730597 0.70135993
-0.0033609727 -0.0033609271 0.70230687
-0.0033742893 -0.0040491223 0.70294988
-0.003373123 -0.0047223568 0.70289356
-0.0033637579 -0.0053820014 0.70244133
-0.0032361757 -0.0058250725 0.69628114
-0.0032158215 -0.0064316392 0.69529837
-0.0032094175 -0.0070607066 0.69498914
-0.0032064202 -0.0076953769 0.69484442
-0.0032036649 -0.0083295107 0.69471145
-0.0032009145 -0.0089625418 0.69457859
-0.0031981803 -0.0095945001 0.69444656
-0.0031961564 -0.01022771 0.69434881
-0.0031971799 -0.010870427 0.69439828
-0.0032487265 -0.011695385 0.69688714
-0.0033039218 -0.012554914 0.69955224
-0.0033610247 -0.013444096 0.70230937
-0.0034012012 -0.014285058 0.70424926
-0.0034040001 -0.014977574 0.70438445
-0.0033958298 -0.015620768 0.70398986
-0.0033848207 -0.016247153 0.70345837
-0.0033736995 -0.016868472 0.70292133
-0.0033547035 -0.017444462 0.70200419
-0.0033437661 -0.018056363 0.7014761
-0.0033375993 -0.018690586 0.70117831
-0.0033299613 -0.019313753 0.70080948
-0.0033194507 -0.019916683 0.700302
-0.0033159915 -0.020559132 0.70013499
-0.0032756322 0.033575237 0.73772669
-0.0032529242 0.032529235 0.73635614
-0.0032374822 0.031565458 0.73542404
-0.0032518436 0.030892521 0.73629087
-0.0031086912 0.028755426 0.72765082
-0.0031038732 0.027934879 0.72736013
-0.0031128826 0.027237743 0.72790384
-0.0031219586 0.026536673 0.72845161
-0.0028584423 0.02358219 0.712547
-0.0028379445 0.022703528 0.71130985
-0.0028177728 0.021837771 0.71009243
-0.0028008062 0.021006078 0.70906836
-0.0027977731 0.020283878 0.70888531
-0.002822591 0.019758165 0.71038318
-0.0028492657 0.019232571 0.71199316
-0.0028696081 0.018652469 0.71322095
-0.0028864017 0.018040031 0.71423453
-0.0029008116 0.017404854 0.71510422
-0.0029146324 0.016759157 0.71593833
-0.0029266987 0.01609686 0.71666664
-0.0029336791 0.01540181 0.71708798
-0.002935997 0.014679998 0.71722788
-0.0029337783 0.013935447 0.71709394
-0.0027257102 0.012265712 0.70453596
-0.0027084581 0.011510968 0.70349467
-0.0026884349 0.010753781 0.70228612
-0.0026928519 0.010098219 0.70255274
-0.0027011835 0.0094541907 0.70305556
-0.0027072236 0.00879848 0.7034201
-0.0027079619 0.0081239045 0.70346469
-0.0027039477 0.0074358881 0.70322245
-0.0026945642 0.0067364275 0.70265615
-0.0026846442 0.0060404539 0.70205736
-0.0026802851 0.0053605735 0.70179427
-0.0027061482 0.0047357976 0.70335525
-0.0027386213 0.0041079521 0.70531511
-0.0027522549 0.0034403503 0.70613801
-0.0027495543 0.0027495623 0.70597506
-0.0026351195 0.001976341 0.69906831
-0.002625681 0.0013128519 0.69849867
-0.0026186069 0.00065466762 0.69807172
-0.0026126311 2.9802322e-08 0.69771099
-0.0026190609 -0.00065475702 0.69809902
-0.0026341206 -0.001317054 0.69900799
-0.0026493547 -0.0019869804 0.69992745
-0.0026647658 -0.0026647449 0.70085764
-0.0026803575 -0.0033504367 0.70179868
-0.002689267 -0.0040338933 0.70233637
-0.0026876861 -0.0047034621 0.702241
-0.0026837941 -0.0053675771 0.70200604
-0.0026771873 -0.0060236454 0.70160729
-0.0026658596 -0.0066646338 0.70092362
-0.0025593734 -0.0070382357 0.69449663
-0.0025530737 -0.0076591969 0.69411635
-0.002550703 -0.0082897842 0.6939733
-0.0025485328 -0.0089198351 0.69384235
-0.002546357 -0.0095488131 0.69371098
-0.0025441942 -0.010176748 0.69358045
-0.0025423421 -0.010804951 0.69346869
-0.0025414031 -0.011436284 0.69341195
-0.0025758897 -0.012235463 0.69549346
-0.0026192584 -0.013096273 0.69811094
-0.002664112 -0.013986558 0.70081812
-0.0027038739 -0.014871269 0.70321798
-0.002708226 -0.01557228 0.70348066
-0.0027028329 -0.016216964 0.7031551
-0.0026943658 -0.016839743 0.70264411
-0.0026855569 -0.017456114 0.70211244
-0.0026704797 -0.018025726 0.70120251
-0.0026681216 -0.018676847 0.70106012
-0.0026594833 -0.019281238 0.70053875
-0.002650911 -0.019881815 0.70002139
-0.0026423936 -0.020478517 0.69950736
-0.0026367991 -0.021094382 0.69916964
-0.0024573728 0.033584088 0.7377789
-0.0024404014 0.032538712 0.73641312
-0.0024233137 0.031503111 0.73503798
-0.0024137185 0.030573785 0.7342658
-0.0023418055 0.028882265 0.72847873
-0.0023342019 0.028010458 0.72786683
-0.0023409431 0.027311027 0.72840929
-0.0023477867 0.026608288 0.72896004
-0.0023546598 0.025901288 0.72951317
-0.0021300938 0.022721022 0.71144152
-0.0021149074 0.021854103 0.71021938
-0.0021000798 0.021000832 0.70902616
-0.0020879067 0.020183086 0.70804656
-0.0020867614 0.019476473 0.70795429
-0.0021057816 0.018952072 0.70948493
-0.0021258539 0.018424064 0.71110034
-0.0021463125 0.017885923 0.71274662
-0.0021654579 0.017323673 0.7142874
-0.0021797488 0.016711444 0.71543735
-0.0021915813 0.016071618 0.7163896
-0.002197569 0.015383005 0.7168715
-0.0021991266 0.014660895 0.71699679
-0.002197291 0.013916194 0.71684909
-0.00204204 0.012252241 0.70435548
-0.0020325638 0.011517882 0.7035929
-0.0020226252 0.010787368 0.70279306
-0.0020254075 0.010127038 0.703017
-0.0020316446 0.0094810426 0.70351887
-0.0020342218 0.0088149905 0.70372629
-0.0020315575 0.0081262589 0.70351183
-0.0020252108 0.0074257851 0.70300114
-0.0020172549 0.0067242086 0.70236093
-0.0020096169 0.006028831 0.70174623
-0.002002252 0.0053393543 0.70115358
-0.0019983752 0.0046629012 0.70084155
-0.0020162717 0.0040325224 0.70228183
-0.0020402973 0.0034005046 0.70421523
-0.0020513388 0.0027351677 0.70510375
-0.0019698339 0.0019698441 0.69854474
-0.0019640662 0.0013094246 0.69808054
-0.0019583248 0.00065281987 0.6976186
-0.0019537148 2.9802322e-08 0.69724756
-0.0019583027 -0.00065276027 0.69761682
-0.0019695286 -0.0013130009 0.69852018
-0.001980884 -0.001980871 0.69943398
-0.0019923709 -0.0026564896 0.70035839
-0.0020039149 -0.0033398271 0.70128739
-0.0020092218 -0.0040184557 0.7017144
-0.0020074497 -0.004684031 0.70157182
-0.0020049401 -0.0053465068 0.70136988
-0.0020019368 -0.006005764 0.70112813
-0.0019975174 -0.0066583753 0.70077252
-0.001989648 -0.0072953403 0.70013928
-0.0019098518 -0.0076393783 0.69371778
-0.0019041443 -0.0082512796 0.69325846
-0.0019023304 -0.0088775456 0.69311249
-0.001900721 -0.009503603 0.69298291
-0.0018991072 -0.010128558 0.69285309
-0.0018974963 -0.010752439 0.69272345
-0.0018959433 -0.011375636 0.69259846
-0.0018949232 -0.012001187 0.69251645
-0.0019149109 -0.012766033 0.69412488
-0.0019468623 -0.013628036 0.69669616
-0.0019798982 -0.014519274 0.69935465
-0.0020140745 -0.015441239 0.70210499
-0.0020200461 -0.016160369 0.70258546
-0.0020168568 -0.016807139 0.70232886
-0.0020107566 -0.01742655 0.70183796
-0.0020042153 -0.018037885 0.70131153
-0.0019977165 -0.018645316 0.70078856
-0.0019883728 -0.019220918 0.70003664
-0.0019805226 -0.019805223 0.69940495
-0.0019738025 -0.020395935 0.6988641
-0.0019721594 -0.021036357 0.6987319
-0.0019667787 -0.021634519 0.69829887
-0.001983711 -0.022482067 0.69966149
-0.0016270409 0.032540828 0.736426
-0.0016161887 0.031515688 0.73511595
-0.0016048128 0.030491471 0.73374283
-0.0015740969 0.029120833 0.73003507
-0.0015603274 0.028085917 0.72837293
-0.0015646132 0.027380764 0.72889024
-0.0015694258 0.026680261 0.72947121
-0.0015740327 0.025971562 0.73002732
-0.0015786667 0.02525866 0.73058671
-0.0014110147 0.021870762 0.71034932
-0.0014010186 0.021015316 0.70914268
-0.0013913303 0.020174295 0.70797318
-0.0013836843 0.019371599 0.7070502
-0.0013836458 0.018679231 0.70704561
-0.0013964971 0.018154472 0.70859683
-0.0014097381 0.017621726 0.71019524
-0.0014232325 0.017078817 0.71182418
-0.0014369878 0.016525388 0.71348453
-0.0014510115 0.015961111 0.71517736
-0.0014596487 0.015326321 0.7162199
-0.0014610726 0.014610767 0.7163918
-0.0013619256 0.012938321 0.70442373
-0.0013582734 0.012224466 0.70398289
-0.001353538 0.011505097 0.70341122
-0.0013507702 0.010806173 0.70307714
-0.0013541341 0.010156006 0.70348316
-0.0013583478 0.0095084608 0.70399183
-0.001361392 0.0088490248 0.70435935
-0.0013627482 0.0081765056 0.70452297
-0.0013485528 0.007417053 0.70280945
-0.001342597 0.0067130327 0.7020905
-0.001337347 0.0060181022 0.70145679
-0.0013322961 0.0053292215 0.70084715
-0.0013274302 0.0046460629 0.70025975
-0.0013246167 0.0039738715 0.69992012
-0.001335399 0.0033385456 0.7012217
-0.0013512062 0.0027023852 0.70312983
-0.0013098513 0.0019648075 0.69813776
-0.0013060848 0.0013060868 0.6976831
-0.0013022911 0.00065118074 0.69722515
-0.0012987184 -0 0.69679391
-0.0013015643 -0.00065079331 0.69713748
-0.0013090025 -0.0013090074 0.69803536
-0.0013165263 -0.0019747913 0.69894356
-0.0013241372 -0.0026482344 0.69986224
-0.0013316425 -0.0033290982 0.70076823
-0.001334358 -0.0040030777 0.70109606
-0.001333027 -0.0046655834 0.70093536
-0.0013313262 -0.0053252876 0.70073003
-0.0013293754 -0.0059821904 0.70049459
-0.0013274302 -0.006637156 0.7002598
-0.0013247329 -0.0072860122 0.69993412
-0.0013199922 -0.0079199672 0.69936192
-0.0012669577 -0.0082352459 0.69296014
-0.0012625201 -0.0088376105 0.69242442
-0.0012611684 -0.0094587803 0.69226128
-0.0012601027 -0.010080785 0.69213259
-0.0012590435 -0.010701865 0.6920048
-0.0012579813 -0.011321813 0.69187653
-0.0012569256 -0.011940807 0.6917491
-0.0012561213 -0.012561202 0.691652
-0.0012654628 -0.013287336 0.6927796
-0.0012863905 -0.014150292 0.69530582
-0.0013080268 -0.015042305 0.69791758
-0.0013303985 -0.015964776 0.70061809
-0.0013391147 -0.016738921 0.70167023
-0.001337558 -0.017388254 0.7014823
-0.0013338866 -0.018007487 0.70103914
-0.0013295738 -0.018614024 0.70051849
-0.0013252887 -0.019216686 0.7000013
-0.0013179146 -0.019768715 0.6991111
-0.0013136744 -0.02036196 0.69859934
-0.0013101279 -0.02096203 0.6981712
-0.0013084061 -0.021588683 0.6979633
-0.0013044226 -0.022175163 0.69748247
-0.0013042806 -0.022824913 0.69746536
-0.00080812816 0.031516999 0.73512417
-0.00080279569 0.030506253 0.73383683
-0.00079676142 0.029480219 0.73237997
-0.00078251801 0.028170705 0.72894132
-0.00078339659 0.027418941 0.72915339
-0.00078619365 0.026730627 0.72982866
-0.00078888895 0.026033372 0.73047942
-0.00079140085 0.025324851 0.73108584
-0.0007066782 0.021907061 0.71063197
-0.00070104073 0.021031231 0.70927095
-0.00069610553 0.02018708 0.70807946
-0.00069136039 0.019358128 0.70693392
-0.00068776408 0.018569618 0.70606571
-0.0006881755 0.017892599 0.70616508
-0.00069460546 0.017365158 0.7077173
-0.00070115668 0.016827762 0.70929897
-0.00067648437 0.015559167 0.70334256
-0.0006761211 0.014874697 0.70325482
-0.00067711191 0.014219373 0.70349407
-0.00067840744 0.013568163 0.70380676
-0.00067819556 0.01288572 0.70375562
-0.00067705911 0.012187064 0.70348126
-0.00067590014 0.011490345 0.70320147
-0.00067690876 0.010830551 0.70344496
-0.00067901198 0.010185212 0.70395273
-0.00068113097 0.0095358789 0.70446432
-0.00068326056 0.0088824034 0.70497847
-0.00068528729 0.008223474 0.70546776
-0.00068691297 0.007556051 0.7058602
-0.00067056523 0.0067056715 0.7019136
-0.00066756608 0.0060081184 0.70118946
-0.00066496752 0.0053197742 0.70056212
-0.00066247 0.004637301 0.69995916
-0.00066005631 0.0039603412 0.69937646
-0.00065773737 0.0032887161 0.6988166
-0.00065551623 0.0026220679 0.69828039
-0.00065339112 0.0019601882 0.69776738
-0.00065139454 0.0013028085 0.69728529
-0.00064954854 0.00064954162 0.69683963
-0.00064773229 2.9802322e-08 0.69640124
-0.00064880867 -0.00064879656 0.696661
-0.00065250526 -0.0013049841 0.69755346
-0.00065624417 -0.0019687116 0.69845611
-0.00066002621 -0.0026400983 0.69936919
-0.00066371262 -0.0033185482 0.70025915
-0.00066491158 -0.0039894581 0.70054853
-0.0006639206 -0.0046474338 0.70030934
-0.00066303631 -0.0053042769 0.70009583
-0.0006620686 -0.0059586167 0.69986224
-0.0006611037 -0.0066110194 0.69962931
-0.00066014158 -0.0072615147 0.69939703
-0.00065892976 -0.0079071522 0.69910455
-0.00065680739 -0.0085384846 0.69859213
-0.0006305041 -0.0088270605 0.69224191
-0.00062789721 -0.0094184279 0.69161248
-0.00062709721 -0.010033518 0.69141942
-0.00062657025 -0.010651678 0.69129223
-0.00062604644 -0.011268795 0.69116569
-0.00062552124 -0.011884898 0.69103897
-0.00062499696 -0.012499928 0.69091237
-0.00062454084 -0.013115346 0.69080228
-0.00062725798 -0.013799667 0.69145823
-0.00063754001 -0.014663368 0.69394052
-0.00064816483 -0.015555918 0.69650555
-0.00065915228 -0.016478807 0.69915819
-0.00066573708 -0.017309129 0.70074791
-0.00066530111 -0.017963082 0.70064259
-0.00066366442 -0.018582553 0.70024753
-0.00066153414 -0.0191845 0.6997332
-0.00065940997 -0.019782245 0.69922036
-0.00065574632 -0.020328134 0.69833595
-0.00065365416 -0.020916909 0.6978308
-0.00065157533 -0.021501958 0.69732893
-0.0006510528 -0.022135794 0.6972028
-0.00064899772 -0.022714883 0.69670665
-0.00064786029 -0.02332297 0.69643199
0 0.030507386 0.73384392
0 0.029509962 0.73257422
0 0.028482258 0.731031
0 0.027442545 0.72931641
0 0.026735097 0.72986042
0 0.026053816 0.73062915
0 0.025361687 0.73136389
0 0.024658799 0.7320621
0 0.021055371 0.70946515
0 0.020202309 0.70820618
0 0.019369185 0.70702964
0 0.018551886 0.70590675
0 0.017770022 0.7050271
0 0.016974151 0.70394123
0 0.016221821 0.70320338
0 0.015499294 0.70271409
0 0.014798671 0.70242059
0 0.01411894 0.70233953
0 0.013466597 0.70258105
0 0.012818545 0.70290178
0 0.012157232 0.70308095
0 0.011504769 0.7034061
0 0.010861665 0.70391434
0 0.010214537 0.70442498
0 0.0095634162 0.70493954
0 0.0089081526 0.70545661
0 0.0082487762 0.70597702
0 0.0075852871 0.70650131
0 0.0069164634 0.70700234
0 0.0060020387 0.70102739
0 0.0053110123 0.70029771
0 0.0046291351 0.69967663
0 0.0039530098 0.69908094
0 0.0032821894 0.69850218
0 0.0026165843 0.69794726
0 0.0019558072 0.69741571
0 0.0012996793 0.69690943
0 0.0006479919 0.69645536
0 -0 0.69600809
0 -0.00064682961 0.6961875
0 -0.0013010502 0.69707453
0 -0.0019626915 0.6979717
0 -0.0026319623 0.69887912
0 -0.003308028 0.69975209
0 -0.003975898 0.70000303
0 -0.004630506 0.69972533
0 -0.0052834153 0.69946671
0 -0.0059352219 0.6992349
0 -0.0065851212 0.69900382
0 -0.0072331131 0.69877326
0 -0.0078792274 0.69854355
0 -0.0085218549 0.69828337
0 -0.0091498792 0.69780892
0 -0.009406209 0.69141555
0 -0.0099884868 0.69073993
0 -0.010601491 0.69057977
0 -0.011216193 0.69045997
0 -0.011829525 0.69033539
0 -0.012441754 0.69021052
0 -0.01305297 0.69008535
0 -0.013663292 0.68996197
0 -0.014303207 0.6901595
0 -0.015167505 0.69259852
0 -0.016060472 0.69511861
0 -0.016983509 0.6977241
0 -0.017867476 0.69978732
0 -0.018530875 0.69980145
0 -0.019150525 0.69945037
0 -0.019749343 0.698955
0 -0.020342469 0.6984477
0 -0.020882368 0.69757003
0 -0.021517456 0.69744235
0 -0.022099346 0.69694412
0 -0.022623956 0.69607937
0 -0.023252189 0.69595754
0 -0.02383846 0.69556844
0 -0.024788111 0.69750851
0.00079759542 0.029511064 0.73258132
0.00079240068 0.028526425 0.73132724
0.00078566745 0.027498335 0.72970164
0.0007848086 0.02668348 0.72949433
0.00078847003 0.026019514 0.73037827
0.00079217309 0.025349557 0.73127228
0.00079560117 0.024663657 0.73209989
0.00073932169 0.022179633 0.71851277
0.00069734326 0.020222932 0.70837831
0.000692275 0.019383699 0.70715475
0.00068747293 0.01856178 0.70599544
0.00068289804 0.017755359 0.70489097
0.00067855581 0.016963899 0.70384258
0.00067472155 0.01619333 0.70291692
0.00067198131 0.015455574 0.70225537
0.00067022635 0.014744997 0.7018317
0.00067064288 0.014083534 0.70193225
0.00067243126 0.013448656 0.70236403
0.00067449623 0.012815446 0.70286256
0.00067658711 0.0121786 0.70336735
0.00067869102 0.01153776 0.7038753
0.00068080536 0.010892898 0.7043857
0.00068293558 0.010244042 0.70490003
0.00068507652 0.0095910728 0.70541692
0.0006872309 0.008934021 0.70593697
0.00068940158 0.0082728267 0.70646101
0.00069158606 0.00760746 0.70698839
0.00069339952 0.0069340169 0.70742619
0.00069355173 0.0062419772 0.70746303
0.00066326413 0.0053061247 0.70015085
0.00066021935 0.0046215355 0.6994158
0.00065767509 0.0039460659 0.69880164
0.00065523194 0.0032761991 0.69821167
0.00065285346 0.0026114285 0.69763756
0.00065057742 0.0019517243 0.69708806
0.00064839219 0.0012968183 0.69656044
0.00064634182 0.00064635277 0.69606549
0.00064448843 2.9802322e-08 0.69561803
0.00064489752 -0.00064489245 0.6957168
0.00064854953 -0.0012970865 0.69659847
0.00065224315 -0.0019566715 0.69749016
0.00065597909 -0.0026239157 0.69839209
0.00065953762 -0.0032976568 0.69925123
0.0006604176 -0.003962487 0.69946367
0.00065929233 -0.0046150684 0.69919205
0.00065797148 -0.0052637458 0.6988731
0.00065688684 -0.0059119761 0.69861126
0.00065593945 -0.0065594018 0.69838256
0.0006549948 -0.0072049499 0.69815451
0.00065405038 -0.0078485906 0.69792652
0.0006531087 -0.0084904134 0.69769919
0.00065212318 -0.009129703 0.69746125
0.0006503436 -0.0097551048 0.69703162
0.00062171812 -0.0099474788 0.69012082
0.00062089157 -0.010555148 0.68992126
0.00062017125 -0.011163056 0.68974733
0.00061968016 -0.011773914 0.68962884
0.00061918987 -0.012383789 0.68951046
0.00061869377 -0.012992561 0.68939066
0.000618183 -0.013599992 0.68926734
0.00061767094 -0.014206439 0.68914372
0.0006175919 -0.014822155 0.68912458
0.00062652054 -0.015662998 0.69128025
0.00063677825 -0.016556233 0.69375664
0.00064737746 -0.017479211 0.69631553
0.000657578 -0.018412203 0.69877815
0.00065827067 -0.019089818 0.69894534
0.00065709307 -0.019712776 0.69866097
0.00065512076 -0.020308763 0.69818491
0.00065303751 -0.02089718 0.69768196
0.00065096741 -0.021481901 0.69718218
0.0006489153 -0.022063106 0.69668674
0.00064651022 -0.02262786 0.6961062
0.00064331433 -0.023159295 0.69533455
0.00064282399 -0.023784488 0.69521618
0.00064095994 -0.024356455 0.69476616
0.00064263615 -0.025062799 0.69517088
0.0015848664 0.028527647 0.73133504
0.0015745676 0.027554929 0.73009193
0.0015650783 0.026606381 0.72894645
0.0015668286 0.02585268 0.72915769
0.0015785161 0.025256276 0.73056853
0.001587589 0.024607658 0.7316637
0.0014801235 0.022201836 0.71869147
0.0014691157 0.021302193 0.71736276
0.00138582 0.01940152 0.70730799
0.0013759531 0.01857537 0.70611697
0.0013665319 0.017764956 0.70497972
0.0013574669 0.016968369 0.70388556
0.0013489611 0.016187549 0.70285881
0.0013416379 0.015428841 0.70197475
0.0013406234 0.014746875 0.70185232
0.0013445243 0.014117509 0.7023232
0.0013486731 0.013486773 0.702824
0.0013528529 0.012852132 0.70332861
0.0013570534 0.012213469 0.70383561
0.0013612853 0.01157093 0.70434642
0.0013655438 0.010924339 0.70486045
0.0013698289 0.010273725 0.7053777
0.0013741303 0.009618938 0.70589697
0.0013784695 0.0089600682 0.70642078
0.0013828364 0.008297056 0.70694786
0.0013872308 0.007629782 0.70747828
0.0013895998 0.006948024 0.70776427
0.0013885392 0.0062484145 0.70763624
0.0013837946 0.0055352151 0.70706356
0.0013184496 0.0046145916 0.69917572
0.0013132126 0.0039396286 0.69854355
0.0013081746 0.0032704473 0.6979354
0.0013033267 0.0026066899 0.6973502
0.0012986213 0.0019479692 0.69678223
0.0012941088 0.0012941062 0.6962375
0.0012897759 0.00064492226 0.69571453
0.001285843 2.9802322e-08 0.69523972
0.0012860239 -0.00064298511 0.6952616
0.0012931792 -0.0012931824 0.69612527
0.0013005218 -0.0019507706 0.69701159
0.0013079481 -0.0026158988 0.69790804
0.0013150565 -0.0032876134 0.69876611
0.0013169155 -0.0039507449 0.69899052
0.0013146137 -0.0046011508 0.69871271
0.0013117304 -0.0052468777 0.69836462
0.0013089976 -0.0058904886 0.6980347
0.0013067676 -0.0065338314 0.69776559
0.0013048881 -0.0071768761 0.69753867
0.0013030188 -0.0078181326 0.69731307
0.0013011548 -0.0084574819 0.69708806
0.0012992963 -0.0090950429 0.69686371
0.0012404576 -0.0093034208 0.68976116
0.0012385211 -0.0099081099 0.68952751
0.0012367357 -0.010512233 0.68931198
0.0012350872 -0.01111576 0.6891129
0.0012335745 -0.011718929 0.68893033
0.0012325505 -0.012325466 0.68880671
0.0012315806 -0.012931615 0.68868971
0.0012306124 -0.013536721 0.68857276
0.0012296413 -0.014140874 0.68845558
0.0012286499 -0.014743775 0.6883359
0.0012279074 -0.015348792 0.68824625
0.001242307 -0.016149938 0.68998444
0.0012624696 -0.017043322 0.69241834
0.0012832975 -0.017966151 0.69493246
0.0013048243 -0.018919945 0.69753098
0.0013095255 -0.019642889 0.69809842
0.0013076232 -0.020268142 0.69786882
0.0013039184 -0.020862699 0.69742167
0.001299792 -0.021446556 0.69692355
0.0012956964 -0.022026807 0.69642913
0.0012372817 -0.02165246 0.6893779
0.0012404134 -0.022327423 0.68975592
0.0012447056 -0.023027062 0.69027406
0.0012506912 -0.02376312 0.69099653
0.001275623 -0.024874628 0.69400609
