# .PCD v0.7 - Point Cloud Data file format
VERSION 0.7
FIELDS x y z
SIZE 4 4 4
TYPE F F F
COUNT 1 1 1
WIDTH 1331
HEIGHT 1
VIEWPOINT 0 0 0 1 0 0 0
POINTS 1331
DATA ascii
0.0070846551 -0.045656651 0.73006779
0.0071799411 -0.047068477 0.73262382
0.0072149266 -0.048099488 0.73356223
0.0073751779 -0.049987286 0.73786092
0.0074241329 -0.051144004 0.73917413
0.0074725989 -0.052308172 0.74047422
0.007531303 -0.053555936 0.74204898
0.0068276385 0.025945038 0.70485854
0.0068394113 0.025305867 0.70514274
0.0068549281 0.024677753 0.70551735
0.0068709501 0.024048328 0.70590419
0.0068870201 0.023415893 0.70629215
0.006903165 0.022780418 0.70668197
0.0069193863 0.022142053 0.70707351
0.0069356835 0.021500647 0.70746696
0.006952086 0.020856261 0.70786297
0.0069685383 0.020208776 0.70826012
0.0064802216 0.018144637 0.6964711
0.0064841639 0.017507225 0.69656634
0.0064895167 0.016872764 0.69669557
0.0064948783 0.016237229 0.69682497
0.0065002488 0.015600622 0.69695461
0.0065056523 0.014963031 0.69708514
0.0065110405 0.014324337 0.6972152
0.0065164375 0.013684541 0.6973455
0.006522554 0.013045132 0.69749314
0.0065337885 0.012414217 0.6977644
0.0065504168 0.011790752 0.69816583
0.0065715765 0.011171669 0.69867665
0.0065989587 0.010558337 0.69933772
0.0066505917 0.00997594 0.70058423
0.0067087077 0.0093922019 0.70198727
0.006767848 0.0087982416 0.7034151
0.006825868 0.0081910789 0.7048158
0.0068344339 0.0075178742 0.70502257
0.0068198661 0.0068199039 0.70467091
0.0067935451 0.0061141849 0.70403546
0.0067524863 0.0054020286 0.70304424
0.0066674114 0.0046671927 0.70099032
0.0066613015 0.0039968193 0.70084286
0.006673173 0.0033366084 0.70112938
0.0066854218 0.002674222 0.70142508
0.0067001954 0.0020100474 0.70178175
0.0069412258 0.0013882518 0.70760071
0.0069253165 0.00069251657 0.70721668
0.0068958495 2.9802322e-08 0.70650524
0.0068601789 -0.00068601966 0.70564413
0.0068247956 -0.0013649464 0.70478988
0.0067897751 -0.0020369291 0.70394439
0.0067551117 -0.0027020574 0.7031076
0.006720827 -0.0033603907 0.70227993
0.0066868369 -0.004012078 0.70145929
0.0066532153 -0.0046572387 0.70064759
0.0066199545 -0.0052959323 0.6998446
0.0065869992 -0.0059283078 0.699049
0.0065586022 -0.0065585971 0.69836342
0.0065611284 -0.0072172284 0.69842446
0.006578295 -0.0078939497 0.69883883
0.0065956265 -0.008574307 0.69925725
0.0066133016 -0.0092585981 0.69968396
0.0066311983 -0.0099467933 0.70011604
0.0066492683 -0.010638803 0.70055223
0.0066674114 -0.011334598 0.70099026
0.0066857305 -0.012034297 0.70143259
0.0067042545 -0.012738049 0.7018798
0.0067231157 -0.013446182 0.70233512
0.0067454078 -0.014165372 0.70287335
0.0067751589 -0.014905334 0.70359159
0.0068423203 -0.015737355 0.70521295
0.0069269454 -0.016624659 0.70725596
0.0069764294 -0.017441064 0.70845068
0.0070170038 -0.018244207 0.70943022
0.0072071739 -0.019459337 0.71402133
0.0073066843 -0.020458698 0.71642375
0.0074089491 -0.021485925 0.71889257
0.0074626692 -0.022388011 0.72018957
0.0074695996 -0.023155719 0.72035682
0.0074578961 -0.023865253 0.7200743
0.0074375905 -0.02454406 0.71958411
0.0074118888 -0.025200427 0.71896362
0.0073819705 -0.025836915 0.71824133
0.0073495866 -0.026458472 0.71745944
0.0073174862 -0.027074695 0.71668446
0.0072933109 -0.02771458 0.71610081
0.0072776689 -0.028382897 0.71572322
0.0072501833 -0.0290007 0.71505958
0.0072461311 -0.02970916 0.71496189
0.0072523323 -0.030459762 0.71511149
0.00726431 -0.0312365 0.7154007
0.0078285299 -0.034445524 0.7290222
0.0078110723 -0.035149843 0.72860074
0.0077934125 -0.03584969 0.72817439
0.0077730841 -0.036533475 0.7276836
0.0077474681 -0.037187815 0.72706515
0.0074114776 -0.036316186 0.71895367
0.007427352 -0.037136734 0.71933693
0.0074535129 -0.038012892 0.7199685
0.007483338 -0.038913339 0.72068858
0.0075136302 -0.039822221 0.72141981
0.0075442018 -0.040738672 0.7221579
0.007575023 -0.041662604 0.72290194
0.0076061306 -0.042594284 0.72365296
0.0076382668 -0.043538094 0.72442877
0.0076706749 -0.04448989 0.72521126
0.0077103344 -0.04549095 0.72616869
0.0078748008 -0.047248811 0.73013932
0.0081502413 -0.049716473 0.73678899
0.008224396 -0.050991237 0.73857921
0.0082744947 -0.052129298 0.73978871
0.008325208 -0.053281307 0.74101305
0.0075809509 0.024121225 0.70640683
0.0075905561 0.023461729 0.70661771
0.0076074465 0.02282235 0.70698845
0.0076253559 0.022182852 0.70738143
0.007643349 0.021540374 0.70777637
0.0076614581 0.020894945 0.70817381
0.0076796226 0.020246267 0.70857251
0.0076978733 0.01959458 0.70897305
0.007716211 0.018939823 0.7093755
0.0077346368 0.018281877 0.70977992
0.0071955021 0.016353428 0.69794726
0.0071997582 0.015708566 0.69804066
0.0072048609 0.015064716 0.69815272
0.0072108689 0.014421761 0.69828451
0.0072169141 0.013777763 0.69841719
0.0072229421 0.013132662 0.69854951
0.0072289803 0.012486428 0.69868207
0.0072351657 0.01183939 0.69881779
0.0072423494 0.011192709 0.6989755
0.0072538126 0.010551006 0.69922698
0.0072721406 0.0099166036 0.69962931
0.0072952369 0.0092848539 0.70013618
0.007325016 0.0086568594 0.70078975
0.0073805475 0.0080515146 0.70200855
0.0074456194 0.0074456334 0.70343673
0.0074673225 0.0067884922 0.70391303
0.0074550007 0.0060995817 0.70364261
0.0074295253 0.0054033101 0.70308352
0.0073894225 0.0047023594 0.70220339
0.007357758 0.0040133297 0.7015084
0.0073705278 0.0033502579 0.70178866
0.0073837126 0.0026850104 0.70207804
0.0073969732 0.0020173788 0.70236909
0.0074277641 0.001350522 0.70304483
0.0075804698 0.0006891489 0.70639634
0.0075615142 2.9802322e-08 0.70598024
0.0075308233 -0.00068461895 0.70530671
0.0074928231 -0.0013623238 0.70447278
0.0074544484 -0.002033025 0.70363045
0.0074164644 -0.0026969016 0.70279688
0.007378866 -0.0033540428 0.70197165
0.0073416466 -0.0040044785 0.70115483
0.0073048016 -0.0046485364 0.70034617
0.0072683515 -0.0052860677 0.6995461
0.0072328653 -0.0059177577 0.6987673
0.0072200224 -0.0065636635 0.69848549
0.0072343438 -0.0072343349 0.69879973
0.0072515556 -0.0079107583 0.6991775
0.0072703147 -0.0085921586 0.69958925
0.007289282 -0.0092772543 0.70000553
0.0073086289 -0.009966284 0.70043015
0.0073282463 -0.010659248 0.70086068
0.0073482241 -0.011356354 0.70129913
0.0073683965 -0.012057394 0.70174187
0.0073886798 -0.012762249 0.70218706
0.0074090748 -0.013471037 0.70263469
0.0074295546 -0.01418367 0.70308411
0.0074502635 -0.014900535 0.70353866
0.0074717309 -0.015622705 0.70400977
0.0074974382 -0.016358048 0.70457399
0.0075331982 -0.017120898 0.70535886
0.0076183644 -0.01800704 0.707228
0.0077084927 -0.018920839 0.7092061
0.0078230044 -0.019913077 0.71171927
0.0079295365 -0.020905137 0.71405745
0.0080390433 -0.021924645 0.71646076
0.0081393961 -0.022938281 0.71866333
0.0081549212 -0.023723394 0.71900409
0.0081455363 -0.024436623 0.71879804
0.0081270058 -0.025119811 0.7183913
0.0081017166 -0.025778145 0.71783632
0.0080701737 -0.026411474 0.71714401
0.008044187 -0.027057707 0.71657372
0.0080528306 -0.027818829 0.71676338
0.0080670388 -0.028601289 0.71707523
0.008080068 -0.02938205 0.71736121
0.0085982103 -0.032047868 0.72873306
0.0086134784 -0.032887816 0.72906816
0.0086137895 -0.033672094 0.72907501
0.0086004157 -0.034401625 0.72878146
0.0085814539 -0.035105944 0.72836536
0.0085624605 -0.035806626 0.72794843
0.0085433591 -0.036503464 0.72752923
0.0085240398 -0.037195832 0.7271052
0.0085058287 -0.03788957 0.72670555
0.0085015157 -0.038643211 0.7266109
0.0082327705 -0.038170099 0.72071266
0.0082380585 -0.038943529 0.72082865
0.0082626706 -0.039811045 0.72136885
0.0082953433 -0.040722579 0.72208595
0.0083289659 -0.041644841 0.72282386
0.0083630085 -0.04257533 0.72357106
0.0083974414 -0.043514013 0.72432679
0.008432121 -0.044460237 0.72508782
0.0084679518 -0.045419008 0.7258743
0.0085041635 -0.046386331 0.72666901
0.0085422136 -0.047370464 0.72750413
0.0086655412 -0.048842132 0.73021078
0.0090758363 -0.05197981 0.73921579
0.0091300784 -0.053120434 0.74040622
0.0083560115 0.021586359 0.70813477
0.0083734635 0.020933658 0.70848584
0.0083933529 0.020283937 0.70888597
0.0084133372 0.019631147 0.709288
0.0084334165 0.018975168 0.709692
0.0084535927 0.01831612 0.71009791
0.0084738992 0.017653972 0.71050644
0.0084942691 0.016988546 0.71091622
0.0085147377 0.016319901 0.71132803
0.0079244087 0.014528096 0.69945157
0.0079291705 0.013876051 0.69954741
0.0079339081 0.013223231 0.69964266
0.0079403445 0.012572199 0.69977212
0.0079470342 0.011920571 0.69990677
0.0079537341 0.011267811 0.70004153
0.0079604462 0.010613948 0.7001766
0.007967839 0.0099598169 0.70032525
0.0079758251 0.0093051493 0.70048594
0.007987651 0.0086533129 0.70072389
0.0080073159 0.0080073178 0.70111954
0.0080323359 0.0073629916 0.70162284
0.0080644311 0.0067203939 0.70226854
0.0080909403 0.0060682297 0.70280188
0.0080822203 0.0053881407 0.70262647
0.0080646807 0.0047044456 0.70227361
0.0080633396 0.004031688 0.70224661
0.0080763968 0.0033652186 0.70250928
0.0080904691 0.002696842 0.70279241
0.0081050638 0.0020262897 0.70308608
0.0081205647 0.0013534427 0.70339793
0.0081986431 0.00068321824 0.70496869
0.0082060331 2.9802322e-08 0.70511746
0.0081921676 -0.000682652 0.70483845
0.0081582833 -0.0013597012 0.70415676
0.0081165805 -0.0020291507 0.70331776
0.0080753015 -0.0026917458 0.70248729
0.0080467826 -0.0033528209 0.70191348
0.0080213957 -0.0040106773 0.70140278
0.0079590175 -0.0046427846 0.70014781
0.0079200743 -0.0052800179 0.69936436
0.0078997565 -0.0059247911 0.6989556
0.0079057477 -0.0065881014 0.69907618
0.0079190508 -0.0072591305 0.69934374
0.0079341196 -0.0079341233 0.69964695
0.0079512466 -0.0086138546 0.69999146
0.0079749711 -0.0093041062 0.70046878
0.0080072545 -0.01000905 0.70111829
0.0080136256 -0.010684818 0.70124644
0.008032212 -0.011378974 0.7016204
0.0080538085 -0.012080669 0.70205486
0.0080759274 -0.012786865 0.70249987
0.0080982633 -0.013497084 0.70294917
0.0081207221 -0.014211237 0.70340109
0.0081433058 -0.014929384 0.7038554
0.0081660161 -0.015651524 0.70431238
0.008188853 -0.016377687 0.70477182
0.0082118185 -0.017107934 0.70523375
0.0082359221 -0.017844498 0.70571876
0.0082657998 -0.01859802 0.70631975
0.0083133951 -0.019397885 0.70727736
0.0084227519 -0.020354986 0.70947748
0.0085359337 -0.021339834 0.71175444
0.0086521981 -0.022351503 0.71409351
0.0087716738 -0.023391098 0.71649718
0.0088237217 -0.0242652 0.71754432
0.0088213328 -0.024993777 0.71749622
0.0088047916 -0.025680631 0.71716344
0.0087823151 -0.026346922 0.71671128
0.0087824631 -0.027079254 0.71671426
0.0088091064 -0.02789548 0.71725029
0.0088340035 -0.028710514 0.7177512
0.0093501238 -0.03116706 0.72813475
0.0093810894 -0.03205201 0.72875768
0.009391062 -0.032868683 0.72895837
0.009388525 -0.033642203 0.72890729
0.0093715172 -0.034362197 0.7285651
0.0093505848 -0.035064667 0.72814399
0.0093297046 -0.03576386 0.7277239
0.0093089174 -0.036459923 0.72730571
0.0092880987 -0.03715235 0.72688687
0.009277517 -0.037883192 0.72667396
0.0092980815 -0.038741976 0.72708768
0.0093277851 -0.039643079 0.72768527
0.0093516754 -0.040523916 0.72816592
0.0093678953 -0.041374832 0.72849226
0.0090657966 -0.040796071 0.72241449
0.0090865809 -0.041646808 0.72283268
0.0091200098 -0.042560011 0.72350514
0.0091572236 -0.043496788 0.72425389
0.0091947829 -0.044441432 0.7250095
0.0092327744 -0.04539445 0.72577381
0.0092712464 -0.046356231 0.72654784
0.0093107466 -0.047329605 0.72734249
0.0093508372 -0.048312634 0.72814906
0.0093913162 -0.049304426 0.72896343
0.0099354042 -0.052988827 0.73990965
0.0091362754 0.019678146 0.70969337
0.00915353 0.01901117 0.71001387
0.0091752466 0.018350512 0.71041715
0.009197291 0.017687082 0.71082652
0.0092194788 0.017020583 0.7112385
0.0092417374 0.016350806 0.71165192
0.0092641022 0.01567775 0.71206725
0.0092865769 0.015001446 0.7124846
0.0093091596 0.014321804 0.71290398
0.0086673684 0.012667716 0.70098531
0.0086725941 0.01200822 0.70108235
0.0086778253 0.01134795 0.70117956
0.0086836312 0.01068756 0.70128739
0.0086910157 0.010028094 0.70142454
0.0086984131 0.0093675256 0.70156187
0.0087058228 0.0087058544 0.7016995
0.0087145567 0.0080442429 0.70186168
0.0087233754 0.00738132 0.70202541
0.0087354202 0.0067195892 0.70224917
0.0087501761 0.0060578287 0.70252311
0.0087565538 0.0053886473 0.70264161
0.0087671923 0.0047208071 0.70283914
0.0087798368 0.0040522516 0.70307398
0.0087925512 0.0033817589 0.70331013
0.0088057145 0.0027094483 0.70355463
0.0088196406 0.0020353198 0.7038132
0.0088354088 0.0013593435 0.70410597
0.0088586966 0.0006814301 0.70453852
0.0088672526 -2.9802322e-08 0.70469743
0.0088583147 -0.0006814003 0.70453143
0.0088211913 -0.0013570786 0.70384198
0.008776186 -0.0020252764 0.70300621
0.0087464144 -0.0026911795 0.70245332
0.008753838 -0.0033668578 0.70259124
0.0087690307 -0.004047215 0.70287329
0.0087792911 -0.004727304 0.70306385
0.0087914895 -0.0054101348 0.7032904
0.0086430237 -0.0059835911 0.70053321
0.0086276373 -0.0066366196 0.70024753
0.008629187 -0.0073015988 0.70027632
0.0094259074 -0.008700788 0.71507204
0.0094146309 -0.009414643 0.71486264
0.0093953228 -0.010118037 0.71450412
0.0093655577 -0.010806412 0.71395135
0.009320531 -0.011471421 0.71311516
0.0092673339 -0.012118787 0.71212721
0.0087611051 -0.012130767 0.70272613
0.0087683164 -0.012815207 0.70286
0.0087902918 -0.013523489 0.70326817
0.0088145807 -0.014238924 0.70371926
0.008839108 -0.014958501 0.70417476
0.0088638077 -0.015682131 0.70463341
0.0088886451 -0.016409785 0.7050947
0.0089135868 -0.017141461 0.70555782
0.0089385975 -0.017877191 0.70602232
0.0089637851 -0.018617064 0.70649004
0.0089890799 -0.019361079 0.70695984
0.0090164607 -0.020113617 0.70746827
0.009052854 -0.02089119 0.70814413
0.0091265654 -0.021763325 0.70951307
0.0092491545 -0.022767127 0.71178961
0.0093752379 -0.023798704 0.71413112
0.0094789956 -0.024791181 0.71605802
0.0094895894 -0.025548905 0.71625471
0.0094934991 -0.026289672 0.71632731
0.0095152166 -0.027081758 0.71673065
0.0095512308 -0.027918965 0.71739948
0.0095934635 -0.028780371 0.71818376
0.010117231 -0.031129926 0.72791058
0.010160561 -0.032044858 0.72871524
0.010171038 -0.032860249 0.72890979
0.010162343 -0.033613861 0.72874838
0.010141399 -0.034324706 0.7283594
0.010118545 -0.035025746 0.72793502
0.010095795 -0.035723567 0.72751248
0.010073147 -0.036418259 0.72709185
0.010050778 -0.037110567 0.72667652
0.010045637 -0.037864327 0.72658098
0.010076158 -0.038754433 0.72714782
0.01011424 -0.039678931 0.72785503
0.010152385 -0.040609539 0.72856343
0.01018829 -0.041536868 0.72923023
0.010218066 -0.042444259 0.72978318
0.010240304 -0.043324322 0.73019612
0.0099172331 -0.042720377 0.72419643
0.0099267792 -0.04352507 0.7243737
0.0099580726 -0.044428289 0.72495484
0.009998586 -0.045378178 0.72570723
0.010039921 -0.046338081 0.72647488
0.010081555 -0.047305733 0.72724795
0.01012367 -0.048282117 0.7280302
0.010166918 -0.049270421 0.72883332
0.010211091 -0.050269961 0.7296536
0.0099331709 0.017737836 0.71131617
0.0099482844 0.01705423 0.71157676
0.0099714901 0.01638177 0.71197695
0.0099956682 0.015707493 0.71239388
0.010019963 0.015029937 0.71281284
0.010044376 0.014349133 0.71323383
0.01006895 0.013664991 0.71365762
0.010093602 0.012977511 0.71408272
0.010118376 0.012286633 0.7145099
0.0094250916 0.010771573 0.70255458
0.0094304997 0.01010412 0.70264786
0.0094362441 0.0094362497 0.70274699
0.0094419941 0.0087676048 0.70284605
0.0094492575 0.0080993772 0.70297134
0.0094573768 0.0074307919 0.70311141
0.0094661005 0.0067615211 0.70326185
0.0094757257 0.0060915649 0.70342779
0.0094856657 0.005420357 0.70359921
0.009495887 0.004747957 0.70377541
0.0095075797 0.0040746927 0.70397711
0.0095206052 0.0034002066 0.7042017
0.009534413 0.0027241409 0.70443982
0.009548299 0.0020461082 0.70467925
0.0095618125 0.0013659894 0.7049123
0.0095621133 0.00068300962 0.70491749
0.0095526492 -0 0.70475429
0.0095283622 -0.00068059564 0.70433551
0.0094815614 -0.0013544858 0.7035284
0.0094346702 -0.0020217001 0.70271987
0.0094319265 -0.0026948452 0.70267254
0.0094571197 -0.0033775568 0.70310694
0.0094793448 -0.0040625632 0.70349014
0.010041225 -0.0050205886 0.71317953
0.010076751 -0.0057581365 0.71379215
0.010111562 -0.0065002739 0.71439242
0.010142511 -0.0072446167 0.71492606
0.010160135 -0.0079829693 0.71523005
0.010160645 -0.0087091029 0.71523881
0.010146233 -0.0094215274 0.71499026
0.01011501 -0.010114968 0.71445185
0.010071243 -0.010790586 0.71369708
0.010023142 -0.011454999 0.71286762
0.0099748028 -0.01211226 0.71203411
0.0099230399 -0.012758195 0.71114147
0.0098630041 -0.013385504 0.71010619
0.0097922059 -0.013988853 0.70888531
0.0095257508 -0.014288604 0.70429045
0.0095392745 -0.01499027 0.70452362
0.0095643317 -0.015712827 0.70495582
0.0095910709 -0.016441822 0.70541686
0.0096179983 -0.017174989 0.70588124
0.0096450392 -0.017912209 0.70634753
0.0096722711 -0.018653631 0.70681709
0.0096996184 -0.019399196 0.70728862
0.0097271595 -0.020149112 0.70776367
0.0097547797 -0.020903051 0.70823985
0.0097825564 -0.021661341 0.70871896
0.0098148473 -0.022433907 0.70927572
0.0098586464 -0.023238212 0.71003103
0.0099627497 -0.024195254 0.71182626
0.010098463 -0.025246173 0.71416652
0.010181613 -0.026181251 0.71560037
0.010222221 -0.027015835 0.71630061
0.010273992 -0.02788654 0.71719337
0.010330808 -0.028778702 0.71817321
0.010825552 -0.030930161 0.72670472
0.010905347 -0.031937063 0.72808075
0.010940518 -0.032821536 0.72868729
0.010933387 -0.033581108 0.72856426
0.010910435 -0.034289926 0.72816849
0.010885824 -0.034990191 0.7277441
0.010861179 -0.035686731 0.72731912
0.010836645 -0.036380172 0.72689605
0.010814241 -0.037077397 0.72650969
0.010816453 -0.037857592 0.72654784
0.010853328 -0.038761884 0.7271837
0.010894308 -0.039686412 0.72789037
0.010935599 -0.040617883 0.72860241
0.010977253 -0.041556746 0.72932076
0.011019227 -0.042502731 0.73004454
0.011060013 -0.043450058 0.73074788
0.011096039 -0.044384152 0.73136908
0.011110179 -0.045234263 0.73161292
0.011083196 -0.04591611 0.73114765
0.010785374 -0.045452625 0.72601187
0.010811741 -0.046336025 0.7264666
0.010853328 -0.047289491 0.7271837
0.010898555 -0.04826501 0.72796357
0.010944062 -0.049248278 0.72874838
0.010989951 -0.050239772 0.72953969
0.010750998 0.015768141 0.71305948
0.010757921 0.01506111 0.71317089
0.010782402 0.014376521 0.71356493
0.010808832 0.013691217 0.71399027
0.010835348 0.013002425 0.71441704
0.010861993 0.012310296 0.7148459
0.01088877 0.01161468 0.71527684
0.01091568 0.010915697 0.71570992
0.010939323 0.010210037 0.71609056
0.010198732 0.008838892 0.70417094
0.010203244 0.0081626177 0.70424348
0.010209519 0.007486999 0.70434451
0.010215843 0.0068105459 0.70444632
0.010222174 0.0061333477 0.70454812
0.010231044 0.0054565668 0.70469093
0.010241216 0.0047792494 0.70485467
0.010252215 0.004100889 0.70503163
0.010263359 0.0034211278 0.70521104
0.010274527 0.0027399063 0.70539081
0.010285313 0.0020570755 0.70556438
0.010284177 0.0013712347 0.70554614
0.010266675 0.00068446994 0.70526445
0.010237394 -0 0.70479316
0.010191473 -0.00067940354 0.70405406
0.010139409 -0.0013518929 0.70321614
0.010098625 -0.0020197332 0.70255971
0.010114773 -0.0026972592 0.70281959
0.010147147 -0.0033823252 0.70334065
0.01017631 -0.0040704906 0.70380998
0.010726925 -0.0050058961 0.712672
0.010775669 -0.0057470202 0.71345657
0.010820276 -0.0064921677 0.71417445
0.010860002 -0.0072399676 0.71481383
0.010880178 -0.0079787672 0.71513855
0.010879134 -0.0087032914 0.71512181
0.010862853 -0.009414494 0.71485978
0.010823107 -0.010101557 0.71422005
0.010771261 -0.010771275 0.71338558
0.010719908 -0.011434555 0.71255904
0.010669087 -0.012091577 0.71174109
0.010618702 -0.0127424 0.71093011
0.01056652 -0.013384253 0.71009028
0.010508911 -0.01401189 0.70916313
0.010442085 -0.014618903 0.70808756
0.010360057 -0.015194744 0.70676744
0.010279755 -0.01576224 0.70547491
0.010297506 -0.016476005 0.70576066
0.010325372 -0.017208964 0.70620912
0.010354253 -0.017947376 0.70667398
0.010383504 -0.018690288 0.70714474
0.010412962 -0.019437522 0.70761883
0.010442545 -0.020188898 0.70809495
0.01047234 -0.020944655 0.70857447
0.010502261 -0.021704674 0.70905614
0.010532313 -0.022468925 0.70953977
0.010562536 -0.023237556 0.71002626
0.010593364 -0.024011612 0.71052241
0.010631135 -0.024805963 0.71113026
0.01068558 -0.025645345 0.71200657
0.010822074 -0.026694417 0.71420342
0.010945572 -0.027728766 0.71619105
0.01102051 -0.028653324 0.71739721
0.011283377 -0.030089021 0.72162801
0.011446026 -0.031285793 0.72424579
0.011613382 -0.032517433 0.72693932
0.011679692 -0.033481807 0.7280066
0.011671898 -0.034237564 0.72788113
0.011651546 -0.034954607 0.72755355
0.011625557 -0.035651714 0.7271353
0.011599219 -0.0363442 0.72671139
0.011579891 -0.037055641 0.72640032
0.011593956 -0.037873596 0.72662669
0.011635523 -0.03878507 0.72729564
0.01167739 -0.039703131 0.72796953
0.011719717 -0.040628344 0.72865081
0.011763786 -0.041565359 0.72935998
0.011808722 -0.042511374 0.73008329
0.011854003 -0.043464661 0.73081207
0.011899035 -0.044423074 0.73153681
0.011923316 -0.04530859 0.73192763
0.011906592 -0.046038806 0.73165846
0.011847482 -0.046600103 0.73070711
0.011765857 -0.04706341 0.72939336
0.011661974 -0.04742533 0.72772139
0.01167446 -0.0482544 0.72792238
0.011721984 -0.049232334 0.72868723
0.011771597 -0.050225466 0.72948575
0.012228699 0.01605016 0.7245416
0.01215847 0.015198112 0.72348189
0.012089043 0.014355749 0.72243434
0.011584726 0.013032824 0.7148248
0.01160848 0.012334049 0.7151832
0.011637152 0.011637181 0.71561587
0.011665967 0.010936886 0.71605057
0.011680624 0.010220557 0.71627176
0.011670277 0.0094821155 0.71611565
0.011624402 0.0087183118 0.71542341
0.011560924 0.0079481602 0.71446562
0.010990216 0.0068688989 0.7058543
0.010991346 0.0061826408 0.7058714
0.010998174 0.0054990947 0.7059744
0.01100501 0.0048146844 0.70607752
0.011011855 0.0041294396 0.70618087
0.01102028 0.003443867 0.70630801
0.011027494 0.0027568936 0.70641685
0.011015563 0.0020654202 0.70623678
0.010990694 0.0013738573 0.70586151
0.010957508 0.00068485737 0.70536077
0.010905921 2.9802322e-08 0.70458239
0.010850028 -0.00067812204 0.70373905
0.010794706 -0.0013493299 0.70290428
0.010754863 -0.0020164847 0.70230317
0.010782187 -0.0026955009 0.7027154
0.010821391 -0.0033816695 0.70330691
0.010860881 -0.0040728152 0.70390278
0.011310301 -0.0049481988 0.710684
0.011414098 -0.0057070255 0.71225017
0.01149286 -0.0064647198 0.71343863
0.011550501 -0.0072190464 0.71430832
0.011578357 -0.0079600811 0.71472865
0.011579369 -0.008684516 0.71474397
0.011559242 -0.0093918741 0.71444023
0.011518576 -0.010078728 0.71382666
0.011468819 -0.010752022 0.71307588
0.011414238 -0.0114142 0.71225232
0.011360175 -0.012070149 0.71143651
0.011306667 -0.012720019 0.71062917
0.011253615 -0.013363659 0.70982873
0.011200968 -0.014001191 0.70903432
0.011144431 -0.014627069 0.70818126
0.011080152 -0.015235186 0.70721138
0.011011549 -0.015829086 0.70617622
0.011014822 -0.016522199 0.70622557
0.011040501 -0.017250776 0.70661306
0.011068902 -0.017986923 0.70704156
0.011098778 -0.01872921 0.70749235
0.011129172 -0.019476026 0.70795095
0.011160808 -0.020228952 0.70842838
0.011192715 -0.020986319 0.70890981
0.011224759 -0.021747947 0.70939326
0.011256987 -0.022513986 0.70987958
0.011289447 -0.023284465 0.71036941
0.011322002 -0.024059236 0.71086061
0.0113547 -0.024838388 0.7113539
0.011387586 -0.02562204 0.71185017
0.011422493 -0.026414514 0.71237683
0.011466784 -0.027233601 0.71304512
0.011545943 -0.028143227 0.7142396
0.011705513 -0.029263765 0.71664733
0.011869454 -0.030415446 0.71912092
0.012038156 -0.031600147 0.72166646
0.012211723 -0.032819003 0.72428542
0.012382421 -0.034051657 0.72686112
0.01239888 -0.034871846 0.72710937
0.012385345 -0.035607874 0.72690523
0.012361002 -0.036310405 0.72653782
0.01234925 -0.037047714 0.72636056
0.012377679 -0.037906617 0.72678953
0.012420208 -0.038813144 0.72743124
0.012463701 -0.039728016 0.72808748
0.012508626 -0.04065302 0.72876537
0.012553989 -0.041585058 0.72944981
0.01259991 -0.042524666 0.73014271
0.012647032 -0.043474138 0.73085368
0.012695665 -0.044434786 0.73158759
0.01272059 -0.045317084 0.73196363
0.012704195 -0.046052694 0.73171628
0.012650773 -0.046649724 0.73091024
0.012588726 -0.047207683 0.72997397
0.012518202 -0.047725677 0.72890985
0.01246795 -0.04831329 0.72815162
0.012502943 -0.049230337 0.72867966
0.012558753 -0.050235003 0.72952169
0.012964988 0.016015589 0.72414386
0.012881751 0.015154988 0.72296184
0.012813958 0.014321476 0.72199911
0.01274462 0.013494372 0.72101438
0.01267282 0.012672842 0.71999466
0.012575854 0.011836112 0.71861768
0.012420841 0.010959566 0.7164163
0.012417185 0.010225922 0.71636438
0.012389994 0.0094747245 0.71597821
0.01232562 0.0087004602 0.71506405
0.012258451 0.0079319775 0.71411014
0.012192009 0.0071718097 0.71316659
0.012126333 0.0064198375 0.7122339
0.012052354 0.0056717098 0.71118331
0.011953288 0.0049219429 0.70977652
0.011793628 0.0041624606 0.7075091
0.011783183 0.0034656525 0.70736074
0.01175832 0.0027666986 0.70700765
0.011726388 0.0020693839 0.70655423
0.011682048 0.0013743937 0.70592451
0.011624985 0.00068384409 0.70511413
0.011565262 -0 0.70426595
0.011506104 -0.00067681074 0.70342588
0.011447548 -0.0013467669 0.70259434
0.011398201 -0.0020114183 0.70189351
0.011420944 -0.0026872456 0.70221651
0.011472628 -0.0033742785 0.70295048
0.011521859 -0.0040664971 0.70364958
0.011800414 -0.0048589706 0.70760548
0.011906737 -0.0056031644 0.70911539
0.012014995 -0.0063608587 0.71065277
0.012125238 -0.0071325004 0.7122184
0.012221421 -0.0079079568 0.7135843
0.012239452 -0.0086396039 0.71384037
0.012225469 -0.0093488693 0.71364176
0.01219664 -0.010044247 0.7132324
0.01215678 -0.010726541 0.71266627
0.012105309 -0.011393219 0.71193534
0.012048864 -0.012048841 0.71113372
0.011992164 -0.012697577 0.71032858
0.011959725 -0.013366729 0.70986784
0.011948597 -0.014057159 0.70970982
0.011843902 -0.014630705 0.7082231
0.011777827 -0.015241861 0.70728469
0.011744107 -0.015889049 0.70680583
0.011757384 -0.016598612 0.70699435
0.011776042 -0.017317683 0.7072593
0.011799282 -0.018045962 0.70758939
0.011824602 -0.018780202 0.70794898
0.012787606 -0.021061897 0.72162485
0.012723921 -0.021705478 0.72072041
0.01192308 -0.021040708 0.70934743
0.011950145 -0.021791428 0.70973182
0.011984524 -0.022559077 0.71022004
0.012019151 -0.023331285 0.71071184
0.012053929 -0.024107814 0.71120572
0.01208891 -0.024888933 0.71170253
0.012124044 -0.025674433 0.71220142
0.012159333 -0.026464373 0.71270257
0.012194828 -0.027258962 0.71320659
0.012230582 -0.02805838 0.71371436
0.012269857 -0.028870255 0.71427214
0.012322586 -0.029719174 0.7150209
0.012439727 -0.030733436 0.71668446
0.012613988 -0.031905949 0.71915925
0.012793366 -0.033112228 0.72170663
0.012977864 -0.034353167 0.72432673
0.013108732 -0.035470665 0.7261852
0.013113563 -0.036255151 0.72625381
0.013122885 -0.03705284 0.72638619
0.013165002 -0.037946165 0.72698438
0.013210284 -0.038853765 0.7276274
0.013255877 -0.039767623 0.72827494
0.013301788 -0.040687799 0.7289269
0.013348076 -0.041614532 0.72958422
0.013395965 -0.042551905 0.73026431
0.013444505 -0.043496907 0.73095357
0.01349352 -0.04444924 0.7316497
0.013509012 -0.045294911 0.7318697
0.013481633 -0.045996159 0.7314809
0.0134291 -0.046606869 0.73073488
0.013374793 -0.04720512 0.72996366
0.013316001 -0.047780931 0.72912872
0.013271782 -0.048402935 0.72850072
0.013302087 -0.049295962 0.72893113
0.013991608 -0.052674294 0.73872322
0.013534485 0.016542137 0.72155327
0.013534602 0.015790403 0.72155488
0.013533372 0.01503709 0.72153842
0.013513139 0.014263898 0.72126698
0.013461542 0.01346159 0.72057498
0.01339007 0.012646198 0.71961641
0.013314647 0.011835247 0.7186048
0.01321975 0.011016488 0.71733195
0.013152972 0.010230094 0.71643633
0.013095634 0.0094580054 0.71566731
0.01302397 0.0086826682 0.71470606
0.012953139 0.0079157948 0.71375608
0.012883074 0.0071572661 0.71281636
0.012813816 0.0064069331 0.71188742
0.012745246 0.0056645572 0.71096778
0.012674375 0.0049289465 0.71001732
0.012581672 0.004193902 0.70877391
0.012512002 0.0034755468 0.70783943
0.012467309 0.0027705431 0.70723999
0.012412479 0.002068758 0.70650464
0.012348761 0.0013720989 0.70565003
0.012285066 0.00068253279 0.70479572
0.012222025 -0 0.70395017
0.012159674 -0.00067552924 0.70311391
0.01209791 -0.0013441741 0.70228553
0.012036771 -0.0020060837 0.70146549
0.011998439 -0.0026662946 0.7009514
0.012061608 -0.0033504367 0.70179868
0.012143054 -0.0040476918 0.70289105
0.012228859 -0.004755646 0.70404184
0.012381764 -0.005502969 0.70609266
0.012492309 -0.0062461197 0.70757532
0.012604848 -0.0070026815 0.70908475
0.012719379 -0.0077729225 0.71062082
0.012829849 -0.0085532069 0.71210253
0.012861615 -0.0092889071 0.71252859
0.012852364 -0.0099962354 0.71240449
0.012824535 -0.010687113 0.71203125
0.012783958 -0.011363506 0.71148705
0.01273274 -0.012025356 0.71080005
0.012697894 -0.012697875 0.71033269
0.012717775 -0.013424307 0.7105993
0.012743065 -0.014158964 0.71093851
0.012765433 -0.014892995 0.71123856
0.013570135 -0.016585678 0.72203141
0.013613435 -0.01739493 0.72261214
0.012564687 -0.016752928 0.70854604
0.01255601 -0.017438889 0.70842969
0.013613732 -0.019664288 0.7226162
0.013578443 -0.020367652 0.72214288
0.013526465 -0.021041155 0.72144574
0.013465484 -0.021694362 0.72062784
0.013400283 -0.022333801 0.71975332
0.013324859 -0.022948384 0.71874171
0.01323676 -0.023532003 0.71756011
0.012756996 -0.02338782 0.71112537
0.012788768 -0.024156541 0.71155155
0.012825956 -0.024939328 0.71205032
0.01286336 -0.025726676 0.71255195
0.012900985 -0.026518703 0.71305662
0.012938776 -0.02731517 0.71356344
0.012976735 -0.028116226 0.71407259
0.013014917 -0.028922021 0.71458471
0.01305338 -0.029732704 0.71510059
0.013092455 -0.030549049 0.71562463
0.013138053 -0.031385332 0.71623623
0.013201612 -0.03227061 0.7170887
0.013358953 -0.033397406 0.71919906
0.013548793 -0.034624666 0.72174513
0.013744227 -0.035887688 0.72436643
0.013868078 -0.036981523 0.72602749
0.013938047 -0.037942439 0.72696602
0.013998252 -0.038884014 0.72777343
0.014050012 -0.039808363 0.7284677
0.014099103 -0.040730745 0.72912616
0.01414822 -0.04165861 0.72978485
0.014197615 -0.042592824 0.73044735
0.014247356 -0.043533593 0.73111451
0.014291828 -0.044463426 0.73171103
0.014293788 -0.045263648 0.73173726
0.01425424 -0.045930326 0.73120683
0.014209485 -0.046575546 0.73060668
0.014168155 -0.047227174 0.73005223
0.014115523 -0.047835916 0.72934633
0.014116542 -0.048623651 0.72936004
0.014152125 -0.049532413 0.7298373
0.014813169 -0.052669019 0.73870343
0.014209406 0.017948747 0.72057498
0.014193277 0.017181367 0.72036999
0.014177123 0.016415656 0.72016472
0.01417061 0.015662283 0.72008198
0.014170307 0.014916122 0.72007811
0.014169334 0.014169335 0.72006577
0.014149957 0.013405234 0.71981955
0.01409907 0.012614995 0.71917301
0.014025625 0.011811018 0.71823978
0.013947872 0.011011511 0.71725178
0.013870859 0.010220647 0.71627325
0.013794806 0.0094385743 0.71530694
0.013719469 0.0086649656 0.71434963
0.013645007 0.0078997314 0.71340352
0.013571349 0.0071428418 0.71246755
0.013498537 0.0063940585 0.71154237
0.013426447 0.0056532919 0.71062642
0.013355178 0.0049203336 0.70972079
0.013283486 0.0041947961 0.70880985
0.013212136 0.0034769177 0.70790327
0.013145629 0.0027675331 0.70705819
0.013077303 0.0020648241 0.70619005
0.013009631 0.0013694167 0.70533019
0.012942606 0.00068116188 0.70447856
0.012876317 2.9802322e-08 0.70363623
0.012810754 -0.00067421794 0.70280313
0.012745806 -0.0013416409 0.70197791
0.012681514 -0.0020023286 0.70116103
0.012635592 -0.0026600957 0.7005775
0.012651961 -0.0033294857 0.70078552
0.012694145 -0.0040086806 0.70132148
0.012747332 -0.0046963692 0.70199728
0.012840155 -0.0054063797 0.70317668
0.012952711 -0.0061354935 0.70460695
0.013067363 -0.0068775713 0.70606375
0.013183957 -0.007632792 0.70754522
0.01330265 -0.0084016621 0.7090534
0.013423554 -0.0091845393 0.71058965
0.013470993 -0.0099259615 0.71119237
0.013466817 -0.01063168 0.71113932
0.013441428 -0.011319071 0.71081674
0.013409703 -0.011998147 0.71041369
0.01341777 -0.012711555 0.7105161
0.013457429 -0.013457417 0.71102005
0.013497157 -0.014207512 0.71152484
0.014260726 -0.015761822 0.72122711
0.014318377 -0.016579181 0.72195959
0.014370676 -0.017396063 0.72262418
0.01439405 -0.01818195 0.72292113
0.014393485 -0.01893875 0.72291398
0.0143688 -0.019662559 0.72260034
0.014318129 -0.020346791 0.72195643
0.014254013 -0.021005899 0.72114176
0.01419047 -0.021659136 0.72033441
0.01412743 -0.022306472 0.71953332
0.014062671 -0.022944331 0.71871048
0.013992272 -0.023565888 0.717816
0.013910724 -0.024160713 0.71677977
0.013811891 -0.02471602 0.71552402
0.013600482 -0.025053501 0.71283776
0.013607377 -0.025782377 0.71292531
0.013645571 -0.026572943 0.71341062
0.013685682 -0.027371317 0.71392035
0.01372603 -0.02817449 0.71443301
0.013766501 -0.028982103 0.71494728
0.013807212 -0.029794455 0.71546453
0.013848222 -0.030611843 0.7159856
0.013889418 -0.03143394 0.7165091
0.01393086 -0.032260895 0.71703565
0.01397391 -0.033096075 0.71758264
0.01402628 -0.033958346 0.71824813
0.01410847 -0.03489992 0.71929246
0.014304665 -0.036138058 0.72178531
0.014511048 -0.037423223 0.72440779
0.014711136 -0.038713545 0.72695017
0.0148126 -0.039760113 0.72823942
0.014885475 -0.040739208 0.72916538
0.014947487 -0.041695595 0.72995329
0.015002309 -0.042638123 0.73064995
0.015054171 -0.04357785 0.73130894
0.015087887 -0.044469535 0.73173732
0.015076241 -0.04522869 0.73158932
0.015042508 -0.04591924 0.7311607
0.015065301 -0.046781719 0.73145032
0.01514201 -0.047816873 0.73242503
0.015436722 -0.049559981 0.73616976
0.015502694 -0.050587714 0.73700798
0.01556916 -0.05162406 0.73785257
0.015644794 -0.052698225 0.73881352
0.014924313 0.01940161 0.72017717
0.014893415 0.018616796 0.71980417
0.014862646 0.0178352 0.71943277
0.01483688 0.017062426 0.71912169
0.014820173 0.016302198 0.71892005
0.014803442 0.01554361 0.71871811
0.014796067 0.014796078 0.71862912
0.014795689 0.014055938 0.71862453
0.014795122 0.013315648 0.71861768
0.014776624 0.012560159 0.7183944
0.014732017 0.011785626 0.71785593
0.01465151 0.010988683 0.71688414
0.014570902 0.010199636 0.71591109
0.014491053 0.0094192028 0.71494728
0.014412136 0.0086472929 0.71399462
0.014334072 0.0078837872 0.71305227
0.014256909 0.0071284771 0.71212083
0.014180514 0.0063812435 0.71119875
0.014104991 0.0056419969 0.71028709
0.014030212 0.0049105883 0.70938438
0.013956165 0.0041868687 0.70849055
0.013882951 0.0034707785 0.70760679
0.013810501 0.0027621388 0.70673227
0.013738858 0.0020608604 0.70586747
0.013667899 0.0013668239 0.70501089
0.013597618 0.00067988038 0.70416254
0.013528108 2.9802322e-08 0.70332348
0.013459357 -0.00067296624 0.70249361
0.01339125 -0.0013391078 0.70167142
0.013341838 -0.0020012558 0.70107496
0.01333984 -0.0026679337 0.70105088
0.013364673 -0.0033411384 0.70135063
0.013389599 -0.0040168464 0.70165151
0.013415499 -0.0046954155 0.70196414
0.013448938 -0.0053795576 0.70236778
0.013492125 -0.0060714483 0.70288908
0.013544983 -0.0067724586 0.70352721
0.013632027 -0.0074975789 0.70457786
0.013752615 -0.008251518 0.70603347
0.013875356 -0.0090189576 0.70751512
0.014000363 -0.0098002553 0.70902413
0.014072601 -0.010554403 0.70989609
0.014082182 -0.011265695 0.71001172
0.014089378 -0.011975944 0.71009856
0.0141246 -0.012712121 0.71052372
0.014175135 -0.013466328 0.71113378
0.014225333 -0.014225304 0.71173966
0.014942347 -0.015689433 0.72039485
0.015024922 -0.016527414 0.72139162
0.015096598 -0.017361075 0.72225684
0.015126566 -0.018151879 0.72261858
0.015129662 -0.018912047 0.72265589
0.015099747 -0.019629657 0.72229487
0.015044177 -0.020309627 0.72162402
0.014979129 -0.020970762 0.72083884
0.014912464 -0.021623015 0.72003406
0.014846389 -0.022269547 0.71923655
0.014780835 -0.022910267 0.71844518
0.014715919 -0.023545504 0.71766168
0.014647682 -0.02416867 0.71683788
0.014570291 -0.024769485 0.7159037
0.014480486 -0.025340825 0.71481967
0.014383321 -0.025889963 0.71364683
0.014398102 -0.026636481 0.71382523
0.014437706 -0.027431607 0.71430331
0.014478736 -0.028233528 0.71479857
0.014521152 -0.029042274 0.71531057
0.014564245 -0.029856712 0.71583068
0.014607533 -0.030675799 0.7163533
0.014651078 -0.031499803 0.71687895
0.014694946 -0.032328904 0.71740848
0.014739016 -0.033162802 0.71794045
0.014783351 -0.034001708 0.71847564
0.014828143 -0.034846097 0.71901631
0.014876072 -0.035702586 0.71959484
0.014937658 -0.036597252 0.72033823
0.01506087 -0.037652135 0.72182554
0.015278145 -0.038959265 0.72444832
0.015501849 -0.04030478 0.72714865
0.015688377 -0.04157418 0.72940016
0.015781218 -0.042609245 0.7305209
0.015845483 -0.043575078 0.73129666
0.01586205 -0.044413716 0.73149657
0.015843172 -0.045153022 0.73126876
0.015854232 -0.045977265 0.73140228
0.015909329 -0.046932489 0.73206735
0.016181456 -0.048544377 0.73535222
0.016263632 -0.049604058 0.73634416
0.016333045 -0.050632417 0.73718208
0.016403211 -0.051670104 0.738029
0.016510693 -0.052834183 0.73932648
0.015276513 0.031280518 0.7156474
0.015627436 0.020092458 0.71968174
0.015584314 0.019294918 0.71918595
0.015544939 0.018505901 0.71873331
0.015513014 0.017729193 0.71836632
0.015481221 0.016955644 0.71800077
0.015454334 0.016190261 0.71769172
0.015437071 0.015437126 0.71749324
0.015419781 0.014685541 0.71729445
0.015416393 0.013948172 0.71725559
0.015431325 0.013226897 0.71742725
0.015451192 0.012508154 0.7176556
0.015433741 0.011759043 0.71745503
0.01538 0.010985732 0.71683717
0.015343649 0.010229141 0.71641922
0.015192796 0.0094050765 0.71468502
0.015101987 0.0086297095 0.71364105
0.015020353 0.0078677833 0.71270257
0.014939657 0.0071141422 0.71177489
0.014859764 0.0063685179 0.71085632
0.01478078 0.005630821 0.70994836
0.014702573 0.0049008727 0.70904928
0.01462519 0.0041786432 0.70815969
0.014550647 0.0034644902 0.70730269
0.014483699 0.0027588308 0.70653301
0.014404044 0.0020577312 0.70561737
0.01432363 0.0013641715 0.70469284
0.014250118 0.00067856908 0.70384777
0.014177412 -0 0.70301187
0.014105498 -0.00067168474 0.70218521
0.014052418 -0.0013383329 0.70157492
0.014049496 -0.0020070672 0.70154136
0.01407383 -0.0026807487 0.70182109
0.014098902 -0.0033568442 0.70210934
0.014124228 -0.0040354729 0.70240045
0.014149809 -0.0047165751 0.70269459
0.014175924 -0.0054003298 0.70299482
0.014202633 -0.0060867965 0.70330185
0.014229443 -0.0067759156 0.70361006
0.014262708 -0.0074709356 0.70399255
0.014306162 -0.008174926 0.70449209
0.014360389 -0.0088897347 0.70511544
0.014437617 -0.0096250772 0.70600331
0.014566448 -0.010404617 0.70748436
0.014689845 -0.011192232 0.70890296
0.014744641 -0.011936098 0.70953292
0.014798586 -0.012684494 0.7101531
0.014865213 -0.01344949 0.71091908
0.014929326 -0.01421839 0.71165609
0.015415481 -0.01541546 0.7172451
0.015569151 -0.016310513 0.71901172
0.015725983 -0.017223686 0.72081465
0.015813297 -0.018072307 0.72181845
0.01582228 -0.018836021 0.72192168
0.015796112 -0.019557089 0.72162092
0.015753211 -0.020254105 0.72112769
0.015697362 -0.020929784 0.72048569
0.015632056 -0.021587104 0.71973485
0.015562909 -0.022232741 0.7189399
0.01549437 -0.022872597 0.71815199
0.015437202 -0.023523331 0.71749479
0.015379482 -0.024167746 0.71683121
0.015292585 -0.024759412 0.71583217
0.015218463 -0.025364071 0.71498007
0.01515638 -0.02598232 0.71426636
0.015173778 -0.026734769 0.71446639
0.015206094 -0.027515769 0.71483791
0.015242814 -0.028308094 0.71526003
0.015283233 -0.029110909 0.71572471
0.015329015 -0.029928088 0.71625102
0.015371446 -0.030742913 0.71673882
0.015416003 -0.031566083 0.717251
0.015462194 -0.032396972 0.71778214
0.015508728 -0.033232957 0.71831703
0.015555477 -0.034073919 0.71885455
0.015602509 -0.034919888 0.71939516
0.015649892 -0.035771161 0.71993995
0.015697498 -0.036627471 0.72048718
0.015746074 -0.037490636 0.72104561
0.015799191 -0.038369447 0.72165632
0.01587184 -0.039301693 0.72249144
0.01604565 -0.040496141 0.72448963
0.016280646 -0.041864485 0.72719121
0.016522553 -0.04327336 0.72997224
0.016586475 -0.04423058 0.73070711
0.01659953 -0.045055836 0.73085719
0.016646639 -0.04597643 0.73139876
0.016734216 -0.04701516 0.7324056
0.017022396 -0.048635393 0.73571855
0.017092014 -0.049648196 0.73651886
0.017164949 -0.050677478 0.73735738
0.017235089 -0.051705241 0.73816371
0.015951136 0.031902313 0.71506768
0.015831549 0.030943483 0.71375537
0.015851049 0.030261129 0.71396935
0.015973 0.029767871 0.71530765
0.016344855 0.020802587 0.71938825
0.01629149 0.01999411 0.71880263
0.016240612 0.01919347 0.71824431
0.016196225 0.018404812 0.71775723
0.016155628 0.017624348 0.71731174
0.016122714 0.016855568 0.71695054
0.016089931 0.016089946 0.71659082
0.016078223 0.015347421 0.71646225
0.01608878 0.014626145 0.71657819
0.016111093 0.013914168 0.71682298
0.016142188 0.013207257 0.71716422
0.016167998 0.012493491 0.71744746
0.016161229 0.011753619 0.71737319
0.016185731 0.01103574 0.71764207
0.016210994 0.010316074 0.71791929
0.016235577 0.009593755 0.71818906
0.016260579 0.0088694096 0.71846348
0.015718976 0.0078595281 0.71252006
0.015624199 0.0071019232 0.71147996
0.015538955 0.006356895 0.71054453
0.015460012 0.0056218207 0.70967823
0.015389052 0.0048965514 0.7088995
0.015332997 0.0041817725 0.70828444
0.015314935 0.003480643 0.70808625
0.015312541 0.002784133 0.70805991
0.015303897 0.0020869374 0.70796514
0.015284681 0.0013895035 0.70775425
0.014906803 0.0006775558 0.7036075
0.014832469 -0 0.70279175
0.014781131 -0.00067186356 0.70222843
0.014781645 -0.0013437569 0.70223409
0.014797783 -0.0020178258 0.70241117
0.014819069 -0.0026943386 0.70264477
0.014843874 -0.0033735931 0.70291698
0.014869051 -0.004055202 0.70319325
0.014895533 -0.0047394931 0.70348382
0.0149224 -0.0054263175 0.70377868
0.014949716 -0.0061157644 0.70407844
0.014977131 -0.0068077743 0.70437926
0.015004588 -0.0075022876 0.70468056
0.015032384 -0.0081994832 0.70498562
0.015061053 -0.0088996887 0.70530021
0.015093348 -0.0096048117 0.70565462
0.015137822 -0.01032123 0.7061426
0.015191793 -0.011048585 0.7067349
0.015264171 -0.011794984 0.70752913
0.015394692 -0.012595654 0.70896149
0.015501835 -0.013387948 0.71013719
0.01558667 -0.014169663 0.71106821
0.015838962 -0.015118986 0.71383673
0.015994055 -0.015994042 0.71553868
0.016151942 -0.016886085 0.71727127
0.016313044 -0.01779604 0.7190392
0.016445775 -0.018688381 0.7204957
0.016457247 -0.019449443 0.72062159
0.016435733 -0.020171136 0.72038555
0.016395899 -0.020867497 0.71994841
0.01634234 -0.021542162 0.71936065
0.016277058 -0.022195965 0.71864432
0.016227167 -0.022865564 0.71809679
0.016242338 -0.023625195 0.71826327
0.016272003 -0.024407983 0.71858871
0.016285798 -0.025168955 0.71874017
0.017345082 -0.027594417 0.7303645
0.016003363 -0.02618733 0.7156409
0.016000014 -0.026909083 0.71560401
0.016014695 -0.027661711 0.71576524
0.017274998 -0.030623823 0.72959536
0.017227966 -0.031323552 0.72907925
0.017182505 -0.03202191 0.72858036
0.017136822 -0.032715738 0.72807902
0.017092755 -0.033408552 0.72759545
0.01624655 -0.032493085 0.71830946
0.016282121 -0.033304334 0.71869981
0.016330538 -0.034145623 0.71923119
0.01638037 -0.034994423 0.719778
0.016430153 -0.035847574 0.72032428
0.016480237 -0.036706001 0.72087389
0.016530702 -0.037569761 0.72142768
0.016581403 -0.038438648 0.72198403
0.016632417 -0.039312959 0.72254384
0.016685056 -0.040195793 0.72312152
0.016746389 -0.041104764 0.72379458
0.016834086 -0.042085201 0.72475696
0.017059721 -0.043424726 0.72723299
0.017292818 -0.044804066 0.72979093
0.017385239 -0.045833826 0.7308051
0.017745966 -0.047591448 0.73476362
0.017860902 -0.048711568 0.73602492
0.018087506 -0.050151706 0.73851162
0.018017504 -0.050776601 0.73774344
0.018080063 -0.05177471 0.7384299
0.016626989 0.031808168 0.71455127
0.016500929 0.030849576 0.71322805
0.016380725 0.029912621 0.7119664
0.016414573 0.029260784 0.71232164
0.016534658 0.028755933 0.71358216
0.017077653 0.021532714 0.71928173
0.017013159 0.02071169 0.7186048
0.016951162 0.019899219 0.71795398
0.016896188 0.01910007 0.71737695
0.016844053 0.018308729 0.71682972
0.016798379 0.017528772 0.71635032
0.016764833 0.016764849 0.71599811
0.016766028 0.016037107 0.71601069
0.01678321 0.015323818 0.71619111
0.016814921 0.014621675 0.71652389
0.016856415 0.013924867 0.71695948
0.01689833 0.01322481 0.71739942
0.016909128 0.012498051 0.71751279
0.016932415 0.01177907 0.71775723
0.016973484 0.011069685 0.71818829
0.017009538 0.010353655 0.71856678
0.017050182 0.0096370578 0.71899343
0.017093653 0.0089184642 0.71944964
0.017141461 0.0081980824 0.71995151
0.017185546 0.0074720085 0.72041422
0.017228449 0.0067415833 0.72086459
0.016373342 0.0056951046 0.71188891
0.016287517 0.0049570799 0.71098804
0.016246792 0.0042383075 0.71056044
0.01621666 0.0035253465 0.71024424
0.016200157 0.002817452 0.71007103
0.017481854 0.0022802651 0.72352445
0.017495172 0.0015213192 0.72366428
0.017490042 0.00076043606 0.7236104
0.017467488 2.9802322e-08 0.72337365
0.015637139 -0.00067985058 0.70416129
0.015591926 -0.0013558269 0.70368665
0.015587364 -0.0020331442 0.70363879
0.01559442 -0.0027120411 0.70371288
0.015614774 -0.0033944845 0.70392644
0.017005339 -0.0044361651 0.71852267
0.016921874 -0.0051501095 0.71764654
0.015678676 -0.0054534376 0.70459723
0.015705729 -0.0061456859 0.70488119
0.0157343 -0.0068410039 0.70518112
0.015763287 -0.0075389147 0.70548534
0.015792442 -0.0082395077 0.70579141
0.015821707 -0.0089426935 0.70609856
0.015851017 -0.0096484423 0.7064063
0.015880497 -0.010356814 0.7067157
0.015910089 -0.011067867 0.7070263
0.01594278 -0.011783779 0.70736945
0.015986281 -0.012510985 0.70782602
0.016041664 -0.013251781 0.70840734
0.016113533 -0.014011741 0.70916176
0.016246857 -0.014834076 0.71056116
0.016402714 -0.015689552 0.71219712
0.01656159 -0.016561598 0.7138648
0.016723575 -0.01745069 0.71556515
0.016888689 -0.018357247 0.71729827
0.017045235 -0.019268513 0.71894145
0.017083129 -0.020054102 0.71933913
0.017066712 -0.020776868 0.71916687
0.017030343 -0.02147302 0.71878511
0.016984595 -0.022153795 0.71830499
0.016990155 -0.022899777 0.71836329
0.017042473 -0.023711234 0.71891242
0.017086124 -0.024514854 0.7193706
0.018072313 -0.026715577 0.72972226
0.018142056 -0.027607471 0.73045433
0.018179694 -0.028455168 0.73084933
0.018156648 -0.029208511 0.73060745
0.01810687 -0.02991569 0.73008502
0.018056307 -0.030617177 0.72955424
0.018005699 -0.031314254 0.7290231
0.017957391 -0.032010972 0.72851598
0.017909745 -0.032704741 0.7280159
0.017862508 -0.033395112 0.72751999
0.017824741 -0.034099519 0.72712356
0.017824503 -0.034873992 0.72712106
0.017867701 -0.035735369 0.72757453
0.017172623 -0.035091847 0.72027856
0.017213976 -0.035924792 0.72071266
0.017265819 -0.036783695 0.72125685
0.017318726 -0.037649393 0.72181213
0.017372562 -0.038521737 0.72237718
0.0174262 -0.039398342 0.72294027
0.017480096 -0.040280193 0.72350597
0.017534403 -0.041167706 0.72407597
0.017589279 -0.042061299 0.72465205
0.017646525 -0.042965472 0.72525293
0.017716549 -0.043906242 0.72598797
0.017839223 -0.044985861 0.72727561
0.01810441 -0.046441734 0.73005921
0.018955773 -0.049449831 0.73899555
0.018882234 -0.050078928 0.73822367
0.018853104 -0.050821424 0.7379179
0.018971253 -0.05196473 0.73915803
0.017431648 0.032684356 0.71537358
0.017298868 0.031714618 0.7140379
0.017168097 0.030759543 0.71272248
0.017039288 0.029818743 0.71142679
0.016919328 0.028903842 0.7102201
0.016967591 0.028279334 0.71070552
0.01709062 0.027772278 0.71194309
0.017673848 0.027983636 0.71780992
0.017806688 0.027451992 0.71914625
0.017850598 0.023057014 0.71958792
0.017798176 0.022247732 0.71906054
0.017738361 0.02143386 0.71845889
0.017677445 0.020623684 0.71784616
0.017611144 0.019812524 0.71717924
0.017547851 0.019010186 0.71654248
0.017491391 0.018220186 0.71597457
0.01746048 0.017460495 0.71566367
0.017464137 0.016736478 0.71570045
0.017489117 0.016031712 0.71595168
0.017531324 0.015339941 0.71637619
0.017575737 0.014646471 0.71682304
0.017620448 0.013949513 0.71727276
0.017655065 0.013241291 0.71762109
0.017660299 0.012509376 0.71767366
0.017702889 0.011801928 0.7181021
0.017746514 0.01109159 0.71854091
0.017790355 0.010377705 0.71898198
0.017834488 0.0096603632 0.71942586
0.017878765 0.0089394152 0.71987122
0.017923262 0.0082148314 0.72031885
