# .PCD v0.7 - Point Cloud Data file format
VERSION 0.7
FIELDS x y z
SIZE 4 4 4
TYPE F F F
COUNT 1 1 1
WIDTH 1279
HEIGHT 1
VIEWPOINT 0 0 0 1 0 0 0
POINTS 1279
DATA ascii
-0.011309915 -0.0091556013 0.67004645
-0.011047451 -0.0094692111 0.66702908
-0.010780207 -0.0097535253 0.66395676
-0.010576668 -0.010072976 0.6616168
-0.010574889 -0.010574877 0.66159642
-0.010580287 -0.01108408 0.66165841
-0.010593743 -0.01160267 0.66181314
-0.010620634 -0.01213783 0.66212225
-0.010683956 -0.012718946 0.66285026
-0.01131002 -0.01400283 0.67004764
-0.011340394 -0.014580518 0.6703968
-0.010850051 0.020072609 0.67099649
-0.010803162 0.019445717 0.67043048
-0.010784485 0.018872857 0.670205
-0.010776425 0.018319935 0.67010772
-0.010774453 0.01777786 0.67008394
-0.010774453 0.017239153 0.67008388
-0.010774453 0.016700417 0.67008388
-0.010773451 0.01616019 0.67007178
-0.010755244 0.015595108 0.66985202
-0.01011807 0.014165312 0.66216063
-0.010090246 0.013621867 0.66182476
-0.010076698 0.0130997 0.66166127
-0.010071061 0.012588829 0.66159326
-0.010072784 0.012087345 0.66161406
-0.01034056 0.011891663 0.66484636
-0.010691342 0.011760473 0.66908067
-0.011163074 0.011721224 0.674775
-0.011658254 0.011658281 0.68075234
-0.011689867 0.011105359 0.68113393
-0.01170081 0.01053074 0.68126607
-0.011711577 0.0099548697 0.68139601
-0.011722838 0.0093782842 0.68153191
-0.011732535 0.0087994039 0.68164897
-0.011741852 0.0082193017 0.6817615
-0.011751144 0.0076382458 0.68187362
-0.011760491 0.0070563257 0.68198645
-0.011768498 0.006472677 0.68208307
-0.011775157 0.005887568 0.68216348
-0.011781826 0.0053018332 0.68224394
-0.0117885 0.0047154129 0.68232453
-0.011794182 0.0041279793 0.68239313
-0.011797907 0.0035394132 0.68243808
-0.011801633 0.0029504299 0.68248308
-0.011805282 0.0023610592 0.68252712
-0.011807007 0.0017710924 0.68254793
-0.011807689 0.001180768 0.68255615
-0.011808371 0.00059044361 0.68256444
-0.011806847 -0 0.68254602
-0.0118044 -0.00059020519 0.68251646
-0.011801914 -0.0011802018 0.68248647
-0.01179943 -0.0017699003 0.68245643
-0.011794263 -0.0023588538 0.68239409
-0.01178902 -0.0029472411 0.68233085
-0.011783144 -0.0035349429 0.68225992
-0.011776993 -0.0041219592 0.68218565
-0.011768059 -0.0047071874 0.68207777
-0.011759735 -0.0052918494 0.68197733
-0.011751582 -0.0058757663 0.68187886
-0.011743281 -0.0064588189 0.68177867
-0.011733843 -0.007040292 0.68166476
-0.011723747 -0.0076204538 0.68154293
-0.011712445 -0.0081986785 0.6814065
-0.011636858 -0.0087276101 0.68049407
-0.011342651 -0.0090741217 0.67694265
-0.011029731 -0.0093752742 0.67316544
-0.010733549 -0.0096601844 0.66959018
-0.010495259 -0.0099704862 0.66671371
-0.010235352 -0.010235339 0.66357636
-0.010072667 -0.010576278 0.66161263
-0.010070857 -0.01107794 0.66159075
-0.010078013 -0.011589706 0.66167712
-0.010093323 -0.012111992 0.66186196
-0.010125412 -0.012656748 0.66224927
-0.010755843 -0.013982594 0.66985923
-0.010782076 -0.014555752 0.67017591
-0.010289813 0.020038068 0.67077112
-0.010250829 0.019422621 0.67027575
-0.010237984 0.018859476 0.67011255
-0.010235731 0.018316597 0.67008394
-0.010235731 0.01777786 0.67008394
-0.010235731 0.017239153 0.67008388
-0.010235731 0.016700417 0.67008388
-0.010226123 0.016146541 0.66996181
-0.009625705 0.014691889 0.66233271
-0.0095916381 0.014135033 0.66189981
-0.0095748063 0.01360631 0.66168594
-0.0095672859 0.013092071 0.6615904
-0.0095682843 0.012589872 0.66160309
-0.0097144553 0.012270898 0.66346037
-0.0099656498 0.012063682 0.66665214
-0.010230179 0.011845499 0.67001337
-0.010515865 0.011622846 0.67364335
-0.010855212 0.011426538 0.67795527
-0.011114048 0.011114061 0.68124413
-0.011127723 0.010542065 0.68141794
-0.011138424 0.009965986 0.68155384
-0.011149184 0.0093888044 0.68169057
-0.011158719 0.0088095069 0.68181181
-0.011167591 0.008228749 0.68192446
-0.011176439 0.0076470375 0.68203688
-0.011185831 0.0070647001 0.68215626
-0.011195126 0.0064814389 0.68227434
-0.011201774 0.005895704 0.68235886
-0.011208392 0.0053092241 0.68244296
-0.011215018 0.0047221184 0.68252712
-0.011219935 0.0041336715 0.68258959
-0.011223712 0.0035443306 0.68263757
-0.011227529 0.002954632 0.68268609
-0.01123135 0.0023644865 0.68273467
-0.011233184 0.0017736554 0.68275797
-0.011233873 0.0011825264 0.68276668
-0.011234485 0.00059130788 0.68277442
-0.011233108 -0 0.68275696
-0.011230586 -0.00059103966 0.68272495
-0.011228026 -0.0011819005 0.68269241
-0.011225468 -0.0017724335 0.68265992
-0.011220126 -0.0023621023 0.68259203
-0.011214446 -0.0029511452 0.68251985
-0.011208773 -0.003539592 0.68244773
-0.011203028 -0.004127413 0.68237472
-0.011194518 -0.0047134459 0.68226659
-0.011186059 -0.0052986741 0.68215919
-0.011177612 -0.0058829486 0.68205184
-0.011169783 -0.0064667165 0.68195236
-0.011160341 -0.0070486367 0.68183243
-0.011150087 -0.0076289773 0.68170208
-0.011139665 -0.0082081854 0.6815697
-0.011128886 -0.0087859631 0.68143266
-0.011079728 -0.0093303025 0.68080807
-0.010735707 -0.0096056163 0.67643678
-0.010440564 -0.0098910332 0.67268658
-0.010161245 -0.010161251 0.66913748
-0.0099681783 -0.010492802 0.66668427
-0.0096861776 -0.010705769 0.66310108
-0.0095680896 -0.011078835 0.66160059
-0.0095685609 -0.011582971 0.66160661
-0.0095762778 -0.012096316 0.66170466
-0.0095954295 -0.012625545 0.66194803
-0.0096367765 -0.01318714 0.66247338
-0.010227961 -0.014534473 0.66998518
-0.010262876 -0.015124202 0.67042881
-0.0097222412 0.019444525 0.67042232
-0.0097014904 0.018864065 0.67014402
-0.0096970079 0.018316597 0.67008394
-0.0096970079 0.01777786 0.67008394
-0.0096970079 0.017239153 0.67008388
-0.0096940026 0.016695261 0.67004359
-0.0091472296 0.015245408 0.66271007
-0.0090947431 0.01465264 0.66200614
-0.0090745538 0.014115989 0.66173542
-0.0090660565 0.013599098 0.66162139
-0.0090644276 0.013093084 0.66159958
-0.0091386223 0.012692541 0.66259468
-0.0093764598 0.012501985 0.6657846
-0.0096235992 0.012296826 0.66909933
-0.00988412 0.01208061 0.67259347
-0.010159138 0.011852324 0.67628217
-0.010450039 0.011611193 0.68018377
-0.010542586 0.011128306 0.68142503
-0.010553296 0.0105533 0.68156868
-0.010563955 0.0099770725 0.68171167
-0.010574207 0.0093993247 0.68184918
-0.010583582 0.0088196397 0.68197489
-0.01059215 0.0082383454 0.68208981
-0.010601163 0.0076564252 0.68221068
-0.01061019 0.007073462 0.6823318
-0.010619126 0.0064894557 0.68245161
-0.010626415 0.0059035718 0.68254936
-0.010632701 0.0053163469 0.6826337
-0.010638996 0.0047284365 0.6827181
-0.010644971 0.0041397214 0.68279827
-0.010648813 0.0035496354 0.68284976
-0.010652441 0.002959013 0.68289846
-0.010655817 0.0023679733 0.68294376
-0.010657813 0.0017763078 0.68297052
-0.010658431 0.0011842847 0.68297881
-0.010658939 0.00059217215 0.68298566
-0.01065785 2.9802322e-08 0.682971
-0.010655599 -0.00059196353 0.68294084
-0.010653057 -0.0011836886 0.68290675
-0.010649793 -0.0017749667 0.68286294
-0.010644717 -0.0023654699 0.68279487
-0.010638923 -0.0029552281 0.6827172
-0.010633099 -0.0035443604 0.682639
-0.010627534 -0.0041329265 0.68256438
-0.01061945 -0.0047197342 0.68245602
-0.010611307 -0.0053056479 0.68234676
-0.010603139 -0.0058906376 0.68223721
-0.010594554 -0.0064744353 0.68212205
-0.010584729 -0.0070564449 0.68199027
-0.010574957 -0.0076374412 0.68185925
-0.010565026 -0.0082172155 0.68172604
-0.010554044 -0.0087949932 0.6815787
-0.010543085 -0.0093716085 0.68143171
-0.010480403 -0.0098981559 0.68059105
-0.010133231 -0.010133177 0.67593467
-0.0098556485 -0.010403186 0.67221165
-0.0095929271 -0.010658801 0.66868794
-0.0094435364 -0.011017442 0.66668433
-0.00911019 -0.011134624 0.66221333
-0.0090642171 -0.011582047 0.66159678
-0.0090674236 -0.012089908 0.66163975
-0.0090778731 -0.012608141 0.66177988
-0.0091008041 -0.013145596 0.66208744
-0.0091725029 -0.013758719 0.6630491
-0.0096991733 -0.015087575 0.67011297
-0.0097347097 -0.015683681 0.67058957
-0.0097816018 -0.018476337 0.67121851
-0.009805955 -0.019067138 0.67154515
-0.009192205 0.019465834 0.67056561
-0.0091666421 0.018872499 0.67020261
-0.0091585694 0.018317193 0.67008793
-0.0091582853 0.01777786 0.67008394
-0.009158087 0.017238766 0.67008108
-0.0091471672 0.016680151 0.66992599
-0.0086052464 0.015185744 0.66223007
-0.0085776802 0.014632523 0.66183859
-0.0085649947 0.014107078 0.66165841
-0.0085605262 0.013596147 0.66159499
-0.0085641751 0.01309818 0.66164678
-0.0087875146 0.012922823 0.66481853
-0.0090254899 0.012741894 0.66819805
-0.0092680678 0.012539178 0.6716429
-0.0095240436 0.012325257 0.67527819
-0.0097987875 0.012104392 0.67917979
-0.0099545717 0.011711299 0.68139219
-0.0099663287 0.011138856 0.68155915
-0.009976563 0.010563433 0.6817044
-0.0099867843 0.0099868178 0.6818496
-0.0099970605 0.0094090104 0.68199557
-0.01000746 0.0088301003 0.68214321
-0.010016046 0.0082485378 0.68226516
-0.010024579 0.0076658428 0.6823864
-0.010033127 0.0070822239 0.68250775
-0.010041723 0.0064975619 0.68262982
-0.010049479 0.0059114993 0.68273997
-0.010055467 0.0053234994 0.68282497
-0.010061701 0.0047349632 0.68291354
-0.01006736 0.0041453838 0.68299395
-0.010071857 0.0035547912 0.68305779
-0.010075534 0.0029633939 0.68311
-0.010078662 0.0023714602 0.6831544
-0.010081724 0.001779139 0.68319792
-0.010082929 0.0011862516 0.68321502
-0.010083549 0.00059315562 0.68322384
-0.010081724 -0 0.68319792
-0.010079007 -0.0005928576 0.68315929
-0.01007605 -0.0011853874 0.68311727
-0.010072269 -0.0017774403 0.68306363
-0.010067703 -0.0023688376 0.68299878
-0.010062215 -0.00295946 0.68292087
-0.010056562 -0.0035493672 0.68284053
-0.010050026 -0.0041382313 0.68274778
-0.01004203 -0.0047256351 0.68263417
-0.010034285 -0.005312264 0.6825242
-0.010026519 -0.005897969 0.68241394
-0.010017337 -0.0064817965 0.68228352
-0.010008036 -0.0070644617 0.68215144
-0.0099987192 -0.007646054 0.68201911
-0.0099882362 -0.0082255602 0.68187022
-0.0099777766 -0.0088039041 0.68172169
-0.0099673374 -0.0093809962 0.68157351
-0.00995625 -0.0099562407 0.68141598
-0.0098506855 -0.010430127 0.67991686
-0.0095351748 -0.010656953 0.67543626
-0.0092749074 -0.010911644 0.67174011
-0.0090285521 -0.011152893 0.6682415
-0.0087589789 -0.011335135 0.66441327
-0.0085618654 -0.011583716 0.66161406
-0.0085603269 -0.01208517 0.66159219
-0.0085662119 -0.012597352 0.66167569
-0.0085809454 -0.01312378 0.66188496
-0.0086114183 -0.013676941 0.66231775
-0.0091477623 -0.015066862 0.66993445
-0.0091659594 -0.015636027 0.6701929
-0.0091881724 -0.016214401 0.67050833
-0.0091990186 -0.016774654 0.6706624
-0.00919942 -0.01731655 0.67066807
-0.0091895163 -0.017838478 0.67052746
-0.0091814892 -0.018362939 0.67041337
-0.0091813747 -0.018902838 0.67041183
-0.0091951527 -0.019472063 0.67060745
-0.0086608678 0.019486994 0.67070711
-0.0086293034 0.018876612 0.67023087
-0.0086202044 0.018317968 0.6700936
-0.0086195627 0.01777786 0.67008394
-0.0086164372 0.017232895 0.67003673
-0.0081246682 0.015741587 0.66261655
-0.0080813728 0.015152574 0.66196328
-0.0080642113 0.01461637 0.6617043
-0.0080573158 0.014100283 0.66160029
-0.0080574797 0.013597012 0.66160274
-0.0082017863 0.013327926 0.66378015
-0.0084289992 0.013170332 0.66720855
-0.0086607868 0.01299119 0.67070597
-0.0088991234 0.012792528 0.67430216
-0.0091567989 0.012590617 0.67819023
-0.0093655679 0.012292355 0.68134022
-0.0093785236 0.011723191 0.68153572
-0.0093888184 0.011149228 0.68169105
-0.0093985638 0.010573387 0.68183815
-0.009408202 0.0099962652 0.68198353
-0.0094182435 0.0094182491 0.68213505
-0.0094286576 0.0088393688 0.68229222
-0.0094381655 0.0082584023 0.68243563
-0.0094465679 0.0076753497 0.68256247
-0.0094546648 0.0070909858 0.68268466
-0.0094627431 0.0065056682 0.68280649
-0.0094702225 0.00591892 0.68291938
-0.0094766477 0.005330652 0.68301636
-0.0094829192 0.0047414899 0.68311095
-0.0094897179 0.0041517615 0.68321353
-0.0095093902 0.0035660267 0.68351036
-0.0096264286 0.0030082464 0.68527639
-0.009740646 0.0024351776 0.68699974
-0.0098173618 0.0018407702 0.68815732
-0.009853798 0.0012317598 0.68870711
-0.0098639736 0.00061655045 0.6888606
-0.0098246131 5.9604645e-08 0.68826669
-0.0097499052 -0.00060939789 0.68713951
-0.0096523678 -0.001206547 0.68566775
-0.0095119616 -0.0017834902 0.68354917
-0.0094912732 -0.0023728013 0.68323702
-0.0094835339 -0.0029636025 0.68312025
-0.0094775846 -0.003554076 0.68303049
-0.0094708679 -0.0041435063 0.68292916
-0.0094630979 -0.0047315359 0.68281186
-0.0094557907 -0.0053188801 0.68270159
-0.0094476277 -0.0059047639 0.68257844
-0.0094387745 -0.0064891279 0.68244487
-0.0094300006 -0.0070724785 0.68231249
-0.0094201583 -0.0076538324 0.68216395
-0.0094102724 -0.0082339644 0.68201482
-0.0094004069 -0.0088128448 0.68186593
-0.0093900235 -0.0093899667 0.68170923
-0.0093792193 -0.0099654198 0.68154621
-0.0093673356 -0.01053825 0.68136692
-0.0092112944 -0.010938406 0.67901242
-0.008933357 -0.011166692 0.67481869
-0.0086483378 -0.01135093 0.6705181
-0.0084041776 -0.011555761 0.666834
-0.0081690783 -0.011743039 0.66328663
-0.0080573158 -0.012085944 0.66160029
-0.0080585303 -0.012591451 0.66161859
-0.0080663171 -0.013107777 0.66173613
-0.0080858395 -0.013644874 0.66203064
-0.0081363684 -0.014238596 0.66279304
-0.0086170519 -0.015618384 0.67004603
-0.008625715 -0.016173214 0.67017674
-0.0086294105 -0.01671946 0.67023247
-0.0086297849 -0.017259538 0.6702382
-0.0086275889 -0.0177944 0.670205
-0.0086231465 -0.018324167 0.67013794
-0.0086229052 -0.018862575 0.67013431
-0.0086306157 -0.019418865 0.67025065
-0.0086590601 -0.020024031 0.67067987
-0.0081160991 0.019478649 0.67065138
-0.0080893189 0.018875092 0.67022038
-0.0080813421 0.018317729 0.67009199
-0.0080808159 0.01777783 0.67008352
-0.0080714552 0.017219126 0.66993284
-0.0075925989 0.0156914 0.66222578
-0.0075678383 0.015135676 0.66182727
-0.0075567998 0.014609814 0.66164964
-0.0075534927 0.014099896 0.66159636
-0.0075910287 0.013663858 0.66220051
-0.0077959974 0.013513088 0.66549945
-0.0080362856 0.01339379 0.66936678
-0.0082856594 0.013257086 0.67338043
-0.0085238777 0.013069957 0.6772145
-0.0087701147 0.012862861 0.68117762
-0.008789666 0.012305558 0.68149233
-0.008800203 0.011733621 0.68166196
-0.0088102296 0.011159658 0.68182325
-0.008819472 0.010583401 0.68197203
-0.0088288244 0.010006011 0.68212259
-0.0088385567 0.0094278157 0.68227917
-0.0088483393 0.0088483393 0.68243665
-0.0088578733 0.0082673728 0.68259013
-0.0088665225 0.0076843202 0.6827293
-0.0088745542 0.0070996284 0.68285859
-0.0088823279 0.0065137446 0.68298364
-0.0088894479 0.005926311 0.68309832
-0.0088997399 0.0053398311 0.6832639
-0.0089930734 0.0047963262 0.68476605
-0.0092018265 0.0042941868 0.68812591
-0.0093821092 0.0037528574 0.69102752
-0.0095361546 0.0031787157 0.69350684
-0.0096684387 0.0025782585 0.69563591
-0.009749935 0.0019499958 0.69694757
-0.0097960774 0.0013061762 0.69769025
-0.0098083923 0.00065392256 0.69788843
-0.009766927 -0 0.69722104
-0.0096835634 -0.00064557791 0.69587934
-0.0095703695 -0.001276046 0.69405758
-0.0094148861 -0.0018829405 0.69155502
-0.0092276316 -0.0024606884 0.68854123
-0.009029123 -0.0030096769 0.68534631
-0.008900864 -0.0035603046 0.68328202
-0.0088902675 -0.0041487515 0.68311143
-0.0088827517 -0.004737407 0.68299043
-0.0088755516 -0.0053253174 0.68287462
-0.0088672163 -0.0059114695 0.68274045
-0.0088588968 -0.006496489 0.68260658
-0.0088497214 -0.0070797503 0.68245888
-0.0088404156 -0.0076616406 0.68230909
-0.0088311285 -0.0082423687 0.6821596
-0.0088212043 -0.0088212192 0.68199992
-0.0088110333 -0.0093984008 0.68183619
-0.0088008568 -0.0099742711 0.68167239
-0.0087908227 -0.010548979 0.68151093
-0.008773894 -0.011113614 0.68123847
-0.0085248537 -0.011366457 0.67723024
-0.0082481587 -0.011547387 0.67277688
-0.0079888618 -0.011716962 0.66860354
-0.007791243 -0.011946529 0.66542292
-0.007556296 -0.012090087 0.66164154
-0.0075533395 -0.012588888 0.66159391
-0.0075578741 -0.013100266 0.66166687
-0.0075706085 -0.013627082 0.66187185
-0.0075981333 -0.014183164 0.66231483
-0.0080720549 -0.015605986 0.6699425
-0.0080809658 -0.016161919 0.67008597
-0.0080815926 -0.016701967 0.67009604
-0.0080817174 -0.017240971 0.67009801
-0.0080812918 -0.017778844 0.67009115
-0.008080841 -0.018316537 0.67008388
-0.008080841 -0.018855274 0.67008394
-0.0080844006 -0.019402564 0.67014122
-0.0081023723 -0.019985825 0.67043048
-0.0075656241 0.019454479 0.67048925
-0.0075467746 0.018866926 0.67016423
-0.0075421175 0.018316597 0.67008394
-0.0075402237 0.01777339 0.67005128
-0.0071156775 0.016264439 0.66273022
-0.007072167 0.015659779 0.66197991
-0.007056287 0.015120625 0.66170603
-0.0070500895 0.014603794 0.66159922
-0.0070503349 0.014100671 0.66160345
-0.0071743191 0.013836175 0.66374147
-0.0073792674 0.01370436 0.66727567
-0.0076100547 0.013589412 0.67125547
-0.0078557692 0.013467073 0.67549264
-0.0081190728 0.013338476 0.68003315
-0.0082003977 0.012886345 0.68143559
-0.0082104178 0.012315631 0.68160838
-0.0082204351 0.011743486 0.68178111
-0.0082303379 0.011169761 0.68195182
-0.0082394825 0.010593653 0.68210953
-0.0082485918 0.010016173 0.68226659
-0.0082577216 0.009437412 0.68242407
-0.0082668429 0.0088573694 0.68258131
-0.0082760127 0.0082760453 0.6827395
-0.0082845259 0.0076927841 0.6828863
-0.0082925186 0.0071079135 0.68302417
-0.0083003575 0.0065217018 0.68315929
-0.0083404323 0.0059574544 0.68385041
-0.0085874619 0.0055205524 0.68811017
-0.008827921 0.0050445497 0.69225681
-0.0090562655 0.0045281351 0.69619441
-0.0092546418 0.0039663017 0.69961536
-0.0094349999 0.0033696592 0.70272553
-0.0095761176 0.002736032 0.70515901
-0.0096740024 0.0020730197 0.70684695
-0.0097309342 0.0013901591 0.70782876
-0.009742042 0.00069588423 0.70802021
-0.0097017847 5.9604645e-08 0.70732605
-0.0096088033 -0.00068631768 0.70572257
-0.0094783474 -0.0013540387 0.70347303
-0.0093119694 -0.0019954145 0.70060396
-0.0091027664 -0.0026007891 0.69699639
-0.0088750795 -0.0031696558 0.69307005
-0.0086311297 -0.0036990345 0.68886328
-0.008365849 -0.004182905 0.68428862
-0.0083017461 -0.0047438741 0.68318325
-0.0082932543 -0.0053313673 0.6830368
-0.0082854284 -0.0059181452 0.68290186
-0.0082769142 -0.0065032542 0.68275505
-0.0082681915 -0.0070869923 0.68260461
-0.0082594883 -0.0076695085 0.68245453
-0.0082500745 -0.0082500875 0.68229222
-0.0082405433 -0.0088291466 0.68212783
-0.0082310066 -0.0094068646 0.68196344
-0.0082214912 -0.0099832416 0.68179935
-0.0082113883 -0.010557473 0.68162507
-0.0082012545 -0.011130244 0.68145031
-0.0081338966 -0.011619836 0.68028879
-0.0078338832 -0.011750817 0.67511523
-0.0075834095 -0.011916757 0.67079598
-0.0073749493 -0.012115985 0.66720122
-0.0071588205 -0.012272239 0.6634742
-0.0070502125 -0.012589633 0.66160131
-0.0070511727 -0.013094991 0.66161788
-0.0070586009 -0.013612986 0.66174597
-0.0070771263 -0.014154226 0.66206539
-0.0071413326 -0.01479277 0.66317266
-0.0075407615 -0.01615873 0.67006052
-0.0075421175 -0.016700387 0.67008388
-0.0075421175 -0.017239094 0.67008394
-0.0075421175 -0.01777783 0.67008394
-0.0075421175 -0.018316537 0.67008388
-0.0075421175 -0.018855274 0.67008394
-0.0075441995 -0.019399345 0.67011976
-0.00755397 -0.019964069 0.67028832
-0.0075905095 -0.020602822 0.67091841
-0.0070646666 0.02010712 0.67122179
-0.0070178439 0.019434035 0.67035222
-0.0070056538 0.018861413 0.67012584
-0.0070033949 0.018316597 0.67008394
-0.0069980137 0.017764211 0.66998398
-0.0065852022 0.016209751 0.66231769
-0.0065607363 0.015644848 0.66186333
-0.0065497966 0.015114933 0.66166019
-0.0065463032 0.014603287 0.66159534
-0.0065752333 0.014162064 0.66213256
-0.0067431768 0.014005065 0.66525143
-0.0069505912 0.013901204 0.66910326
-0.0071711922 0.013790756 0.67320007
-0.0074062557 0.013673127 0.6775654
-0.0076076016 0.013459623 0.68130457
-0.0076199989 0.012895375 0.68153477
-0.0076293168 0.012324303 0.68170786
-0.0076386314 0.011751741 0.68188083
-0.0076479693 0.011177808 0.68205422
-0.0076578227 0.01060316 0.68223721
-0.007666999 0.010026097 0.68240762
-0.0076756496 0.0094469786 0.68256831
-0.0076841894 0.0088663995 0.68272686
-0.0076927217 0.0082844794 0.68288529
-0.0077009313 0.0077009499 0.68303776
-0.0077098692 0.0071168244 0.68320376
-0.0078303134 0.0066256523 0.68544054
-0.0081036212 0.006233573 0.69051605
-0.0083707729 0.0057951808 0.69547731
-0.0086382302 0.0053158402 0.70044422
-0.0088811303 0.0047821701 0.7049551
-0.0091118375 0.0042054653 0.70923954
-0.009311079 0.0035811961 0.71293962
-0.0094718002 0.0029144287 0.71592432
-0.0095878439 0.002212584 0.71807939
-0.0096568372 0.0014856756 0.71936065
-0.0096664261 0.00074356794 0.71953875
-0.0096228113 -0 0.71872878
-0.0095240036 -0.00073263049 0.71689385
-0.0093743429 -0.001442194 0.71411449
-0.0091849109 -0.002119571 0.71059662
-0.0089627896 -0.0027577579 0.70647156
-0.0087037431 -0.0033475757 0.70166081
-0.0084366556 -0.0038938224 0.69670081
-0.0081540579 -0.0043906271 0.69145274
-0.0078668883 -0.0048411489 0.68611974
-0.0077114487 -0.0053386986 0.68323308
-0.0077017718 -0.0059244335 0.68305343
-0.0076936125 -0.0065099895 0.68290186
-0.0076854965 -0.007094264 0.68275112
-0.0076765888 -0.0076765716 0.68258572
-0.0076676756 -0.0082574785 0.68242019
-0.0076588094 -0.0088371336 0.68225557
-0.007649601 -0.0094148517 0.6820845
-0.0076400526 -0.0099908113 0.68190718
-0.0076306569 -0.01056549 0.68173271
-0.0076212329 -0.011138737 0.68155777
-0.0076096524 -0.011707157 0.68134266
-0.0074047502 -0.01196152 0.67753744
-0.0071638906 -0.012123495 0.67306447
-0.006938207 -0.012275279 0.66887331
-0.0067414865 -0.012445807 0.66522008
-0.0065478217 -0.012591958 0.6616236
-0.0065461705 -0.013092339 0.6615929
-0.0065507842 -0.013605446 0.66167855
-0.0065631769 -0.014136076 0.66190869
-0.0065913331 -0.014703721 0.6624316
-0.0069987723 -0.016151011 0.66999805
-0.0070033949 -0.016700387 0.67008388
-0.0070033949 -0.017239094 0.67008394
-0.0070033949 -0.01777783 0.67008394
-0.0070033949 -0.018316537 0.67008388
-0.0070033949 -0.018855274 0.67008394
-0.0070039812 -0.01939562 0.67009479
-0.0070101549 -0.019951969 0.67020947
-0.0070324629 -0.02055642 0.67062378
-0.0064998828 0.020041317 0.67079228
-0.0064732633 0.019419819 0.67025679
-0.0064657149 0.018858343 0.67010492
-0.0064643715 0.018315703 0.67007786
-0.0064535257 0.017747194 0.66985971
-0.0060680327 0.016181439 0.66210419
-0.0060507385 0.015631109 0.66175628
-0.0060438975 0.015109748 0.66161859
-0.0060430565 0.014604062 0.66160172
-0.006139366 0.014325172 0.66353929
-0.0063123899 0.014202893 0.6670202
-0.0065094214 0.01410377 0.67098421
-0.0067191278 0.013998181 0.67520314
-0.006965436 0.013930887 0.6801585
-0.0070299311 0.013474047 0.68145609
-0.0070387605 0.012904406 0.68163371
-0.0070473501 0.012332886 0.68180645
-0.0070559601 0.011759937 0.68197972
-0.0070649986 0.011186272 0.68216157
-0.0070742043 0.010611326 0.68234676
-0.0070830006 0.010034233 0.68252373
-0.0070918188 0.0094558001 0.68270111
-0.0070999581 0.0088749826 0.68286484
-0.0071079945 0.008292675 0.68302661
-0.0071171182 0.0077102184 0.68321007
-0.0072573447 0.0072573721 0.68603128
-0.0075454838 0.0069167614 0.69182813
-0.0078300927 0.0065250993 0.69755405
-0.008126515 0.0060949028 0.70351762
-0.00840645 0.0056043267 0.70914948
-0.0086848894 0.005066216 0.71475118
-0.0089392299 0.0044696331 0.71986818
-0.009162616 0.0038177669 0.72436237
-0.0093504172 0.0031168163 0.72814065
-0.0094892448 0.0023723245 0.73093367
-0.0095666656 0.0015944541 0.7324912
-0.0095797209 0.00079831481 0.73275387
-0.0095313257 2.9802322e-08 0.73178023
-0.009424259 -0.0007853508 0.72962624
-0.0092558935 -0.0015426576 0.72623897
-0.0090394607 -0.0022598505 0.72188473
-0.0087866457 -0.0029289126 0.71679842
-0.0085120257 -0.0035466552 0.71127355
-0.0082094902 -0.0041047335 0.70518696
-0.0079089869 -0.0046135485 0.69914132
-0.0076001678 -0.0050667822 0.69292825
-0.0073000877 -0.0054750741 0.6868912
-0.0071185762 -0.0059321225 0.68323946
-0.0071089882 -0.006516546 0.68304658
-0.0071007321 -0.0071007013 0.68288046
-0.0070924703 -0.0076835155 0.68271422
-0.0070842523 -0.0082649291 0.68254888
-0.0070754047 -0.0088442266 0.6823709
-0.0070665553 -0.0094220638 0.68219286
-0.007057704 -0.0099984109 0.68201482
-0.0070489701 -0.010573447 0.68183911
-0.0070398063 -0.011146337 0.68165469
-0.0070306901 -0.011717767 0.68147135
-0.0069929115 -0.012237579 0.68071127
-0.00672956 -0.012337506 0.67541313
-0.0065139364 -0.012485027 0.67107505
-0.0063165398 -0.012633055 0.66710371
-0.0061213039 -0.012752682 0.66317588
-0.006042934 -0.013092995 0.66159916
-0.0060447739 -0.013600707 0.66163617
-0.0060530752 -0.014123827 0.66180325
-0.0060726637 -0.014675587 0.66219735
-0.0064543053 -0.016135722 0.66987532
-0.0064644516 -0.016699821 0.67007947
-0.0064646723 -0.017239094 0.67008394
-0.0064646723 -0.01777783 0.67008394
-0.0064646723 -0.018316537 0.67008388
-0.0064646723 -0.018855274 0.67008394
-0.0064646723 -0.01939401 0.67008394
-0.006468202 -0.019943595 0.67015493
-0.0064829253 -0.02052924 0.67045116
-0.0059511387 0.020017505 0.67063677
-0.0059319092 0.019413531 0.67021471
-0.0059262435 0.018856227 0.67009038
-0.0059241494 0.018311054 0.67004442
-0.0055868686 0.016760617 0.662642
-0.0055551846 0.016160548 0.66194654
-0.005543502 0.015622586 0.66169018
-0.0055390191 0.01510644 0.66159183
-0.0055403681 0.014606416 0.66162139
-0.0056944937 0.014495105 0.66500401
-0.0058692941 0.014406502 0.66884047
-0.0060551851 0.014312267 0.67292035
-0.0062532574 0.014211982 0.67726743
-0.0064365291 0.014043331 0.68128979
-0.0064480393 0.013482243 0.68154246
-0.0064566224 0.012913287 0.68173081
-0.0064645722 0.01234147 0.68190533
-0.0064725638 0.011768341 0.68208069
-0.0064811464 0.011194706 0.6822691
-0.0064896857 0.010619521 0.68245643
-0.0064977617 0.010042012 0.6826337
-0.0065058577 0.0094631016 0.68281138
-0.0065139742 0.0088827014 0.68298954
-0.0065222662 0.0083010793 0.68317151
-0.0066318582 0.007837683 0.6855768
-0.006922707 0.0075520575 0.69196016
-0.0072132912 0.0072132945 0.69833773
-0.0075248927 0.0068408251 0.70517659
-0.0078298636 0.0064062774 0.7118699
-0.008146856 0.0059249997 0.71882707
-0.0084463945 0.0053749681 0.7254011
-0.0087313019 0.0047625303 0.73165411
-0.0089918822 0.0040872395 0.73737311
-0.0092109153 0.0033494532 0.74218035
-0.0093662972 0.0025544465 0.74559057
-0.009458499 0.0017197728 0.7476142
-0.0094791893 0.00086173415 0.74806827
-0.0094254259 2.9802322e-08 0.74688834
-0.0093004769 -0.00084546208 0.74414605
-0.0091133602 -0.0016569197 0.74003929
-0.0088712526 -0.0024194121 0.73472571
-0.0085847303 -0.0031216741 0.72843719
-0.0082735447 -0.0037606955 0.72160757
-0.0079563092 -0.0043397844 0.71464503
-0.0076198224 -0.0048489869 0.70726001
-0.0072979392 -0.0053075552 0.70019555
-0.0069765104 -0.005708009 0.69314092
-0.0066754078 -0.0060685277 0.68653262
-0.0065232459 -0.0065232515 0.68319303
-0.0065149064 -0.0071071386 0.68300998
-0.0065070763 -0.0076901913 0.68283814
-0.0064989328 -0.0082713664 0.68265945
-0.0064907661 -0.0088510215 0.68248016
-0.0064826193 -0.009429276 0.6823014
-0.0064742961 -0.010005683 0.68211865
-0.006465666 -0.010580152 0.68192929
-0.0064571677 -0.011153251 0.68174279
-0.0064486917 -0.011724859 0.68155676
-0.0064383508 -0.012291402 0.68132985
-0.0062811677 -0.012562335 0.67788005
-0.0060723857 -0.012696832 0.67329782
-0.0058616251 -0.012788981 0.6686722
-0.0056693228 -0.012884796 0.6644516
-0.0055397097 -0.013093829 0.66160697
-0.005539244 -0.013596326 0.66159672
-0.0055443542 -0.01411289 0.66170889
-0.0055581247 -0.014653206 0.66201115
-0.0055954074 -0.01526019 0.6628294
-0.0059246453 -0.016696721 0.67005527
-0.0059259497 -0.017239094 0.67008394
-0.0059259497 -0.01777783 0.67008394
-0.0059259497 -0.018316537 0.67008388
-0.0059259497 -0.018855274 0.67008394
-0.0059259497 -0.01939401 0.67008394
-0.0059274752 -0.019937873 0.67011744
-0.0059376778 -0.020511985 0.67034131
-0.005981687 -0.02120778 0.67130721
-0.0054053115 0.019999683 0.67052054
-0.0053909211 0.019407332 0.67017311
-0.0053872266 0.018855304 0.67008388
-0.0053835209 0.01830399 0.66999447
-0.0050661308 0.016718239 0.662332
-0.0050467202 0.016149521 0.66186333
-0.0050381445 0.015618265 0.66165632
-0.0050356765 0.015107036 0.66159678
-0.005075796 0.014719844 0.66256529
-0.0052321735 0.014650106 0.66634059
-0.0054078186 0.014601141 0.67058104
-0.0055873347 0.014527082 0.67491496
-0.0057810624 0.014452666 0.67959189
-0.005857328 0.014057606 0.6814332
-0.0058652973 0.0134902 0.68162555
-0.0058732484 0.012921154 0.68181753
-0.0058809821 0.012350053 0.68200427
-0.0058885966 0.011777222 0.68218803
-0.0058964309 0.011203229 0.68237722
-0.0059042657 0.010627687 0.68256634
-0.005911659 0.01004982 0.6827448
-0.005919172 0.0094706714 0.68292618
-0.0059267036 0.0088900626 0.68310803
-0.0059680734 0.0083553195 0.68410683
-0.006248733 0.008123368 0.6908825
-0.0065337638 0.007840544 0.6977638
-0.0068454477 0.0075300038 0.70528841
-0.0071611577 0.0071611702 0.71291041
-0.0075002988 0.0067502856 0.72109795
-0.0078289881 0.0062631965 0.72903329
-0.0081653716 0.0057157576 0.73715425
-0.0084922984 0.0050954223 0.74504697
-0.0087803714 0.0043902099 0.75200164
-0.0089370543 -0.0017873645 0.75578433
-0.0086607905 -0.0025982261 0.74911469
-0.0083467662 -0.0033386946 0.74153358
-0.0080001215 -0.0040000379 0.73316479
-0.0076427017 -0.0045855641 0.72453588
-0.0072949035 -0.0051064193 0.71613932
-0.0069438061 -0.0055550337 0.70766306
-0.0066164248 -0.0059547722 0.69975942
-0.0062972475 -0.0062972307 0.69205379
-0.0060074064 -0.0066081285 0.68505639
-0.0059274919 -0.0071129501 0.68312705
-0.0059201196 -0.0076961517 0.68294907
-0.0059126653 -0.0082777143 0.68276912
-0.0059050084 -0.0088575184 0.68258429
-0.0058970912 -0.0094353259 0.68239313
-0.0058891154 -0.010011494 0.68220061
-0.0058809421 -0.010585666 0.68200326
-0.005873288 -0.011159241 0.68181849
-0.005865634 -0.011731237 0.68163371
-0.0058579603 -0.012301683 0.68144846
-0.0057938253 -0.012746423 0.67990011
-0.0055746059 -0.012821585 0.67460769
-0.0053792866 -0.012910277 0.66989219
-0.0051972074 -0.012993008 0.66549647
-0.0050510778 -0.013132781 0.66196853
-0.0050355745 -0.013595998 0.66159427
-0.0050388752 -0.014108837 0.66167396
-0.0050485386 -0.014640749 0.66190726
-0.005071721 -0.015215129 0.66246694
-0.0053841714 -0.01669091 0.67001015
-0.0053872266 -0.017239094 0.67008394
-0.0053872266 -0.01777783 0.67008394
-0.0053872266 -0.018316537 0.67008388
-0.0053872266 -0.018855274 0.67008394
-0.0053886469 -0.019399136 0.67011821
-0.0053941347 -0.019958287 0.67025071
-0.0054048747 -0.020538509 0.67050993
-0.0054368246 -0.021203607 0.67128134
-0.0048637972 0.0199956 0.67049414
-0.0048513324 0.019405335 0.67015982
-0.004848504 0.018855304 0.67008388
-0.004842333 0.018293262 0.66991836
-0.0045538745 0.016697556 0.6621806
-0.0045390027 0.016138673 0.66178167
-0.0045331465 0.015614212 0.66162455
-0.0045322664 0.015107572 0.66160101
-0.0046036029 0.014833838 0.66351461
-0.0047445921 0.014761001 0.66729653
-0.0049051307 0.014715374 0.6716029
-0.0050769304 0.014666677 0.67621136
-0.0052585825 0.014607161 0.68108416
-0.0052741203 0.014064342 0.68150091
-0.0052812994 0.013496697 0.68169343
-0.0052884086 0.012927204 0.68188417
-0.0052955369 0.012356251 0.68207538
-0.0053028283 0.011784077 0.682271
-0.0053098332 0.011209697 0.68245888
-0.0053169834 0.010633975 0.68265069
-0.0053244065 0.010057211 0.68284976
-0.005331269 0.0094777942 0.68303388
-0.0053408109 0.0089013577 0.68328983
-0.0055396389 0.0086172223 0.68862331
-0.0058095986 0.0083916783 0.69586486
-0.0061072409 0.0081430376 0.70384902
-0.0064176368 0.0078437924 0.71217525
-0.0067533301 0.0075036883 0.72118008
-0.0070979698 0.0070979893 0.73042488
-0.0074655348 0.0066360533 0.74028468
-0.0078275269 0.006088078 0.74999499
-0.0080480697 -0.0035769045 0.75591093
-0.0076682945 -0.0042601526 0.74572366
-0.0072891572 -0.0048594177 0.73555344
-0.0069042481 -0.0053699613 0.72522843
-0.0065457341 -0.0058184266 0.71561146
-0.0062002842 -0.006200254 0.7063449
-0.0058836625 -0.0065374076 0.6978516
-0.0055808439 -0.0068210363 0.68972862
-0.0053435853 -0.0071247816 0.68336427
-0.0053319596 -0.007701695 0.68305242
-0.0053248056 -0.0082829893 0.68286049
-0.0053176526 -0.0088627636 0.68266863
-0.0053105187 -0.0094409287 0.68247724
-0.0053032059 -0.010017157 0.68228108
-0.0052956804 -0.010591328 0.6820792
-0.005288695 -0.011165023 0.68189186
-0.0052818167 -0.011737347 0.68170732
-0.0052748499 -0.012307942 0.68152046
-0.0052622282 -0.012863189 0.68118185
-0.0050669438 -0.012948871 0.67594349
-0.0048877127 -0.013033926 0.67113566
-0.0047207274 -0.013113141 0.66665637
-0.0045815888 -0.013235688 0.66292405
-0.0045321742 -0.013596505 0.6615985
-0.0045338301 -0.014105231 0.66164291
-0.0045407689 -0.014631331 0.66182905
-0.0045571658 -0.015190512 0.66226888
-0.0048430227 -0.016681522 0.6699369
-0.004848504 -0.017239094 0.67008394
-0.004848504 -0.01777783 0.67008394
-0.004848504 -0.018316537 0.67008388
-0.0048499932 -0.018861055 0.67012382
-0.0048551885 -0.019420773 0.67026323
-0.004865462 -0.020002425 0.67053878
-0.0048929742 -0.020659208 0.67127681
-0.0043225149 0.019991666 0.67046815
-0.0043118675 0.019403428 0.67014688
-0.0043094875 0.018854022 0.67007506
-0.0043007932 0.01827836 0.66981268
-0.0040438487 0.016680896 0.66205871
-0.0040326207 0.016130477 0.66171986
-0.0040286346 0.015610963 0.66159958
-0.0040289266 0.015108466 0.66160834
-0.0041174884 0.014925897 0.66428101
-0.004249562 0.014873475 0.66826665
-0.0043944982 0.014831454 0.6726405
-0.004549684 0.014786482 0.67732358
-0.0046823425 0.014632344 0.68132693
-0.0046901796 0.014070541 0.68156344
-0.0046964395 0.01350227 0.68175232
-0.0047027166 0.012932479 0.68194175
-0.0047092494 0.012361795 0.68213892
-0.0047160084 0.011790007 0.68234289
-0.0047222408 0.011215329 0.682531
-0.004728796 0.010639817 0.68272883
-0.0047354987 0.010062963 0.68293107
-0.0047420906 0.0094842017 0.68312997
-0.0048166174 0.0090311766 0.68537903
-0.0050620907 0.0088586509 0.69278687
-0.0053339293 0.0086676478 0.70099026
-0.0056227329 0.0084341168 0.70970571
-0.0059380736 0.0081648529 0.71922201
-0.0062762573 0.0078453422 0.72942758
-0.0066416124 0.0074717999 0.74045312
-0.0070205005 0.0070205033 0.75188708
-0.006854686 -0.00514099 0.74688321
-0.0064594666 -0.0056520402 0.73495644
-0.0060826405 -0.0060826242 0.72358465
-0.0057356399 -0.0064525902 0.71311301
-0.0054135192 -0.0067668557 0.70339215
-0.0051226332 -0.0070436299 0.69461393
-0.0048477305 -0.0072715878 0.68631792
-0.0047427053 -0.0077068806 0.68314856
-0.0047360957 -0.0082881749 0.68294907
-0.0047296006 -0.0088680089 0.68275309
-0.0047232681 -0.0094465017 0.68256199
-0.0047166487 -0.010022879 0.6823622
-0.0047099353 -0.010597348 0.68215966
-0.0047035119 -0.011170834 0.68196571
-0.0046973443 -0.011743337 0.68177962
-0.0046907971 -0.012313336 0.68158209
-0.0046837311 -0.012880266 0.68136883
-0.0045490884 -0.01307857 0.67730564
-0.0043866341 -0.013159901 0.67240316
-0.0042353561 -0.01323548 0.66783792
-0.0041022366 -0.013332278 0.66382068
-0.0040287282 -0.013596922 0.66160238
-0.0040291953 -0.014102161 0.6616165
-0.0040340601 -0.014623463 0.66176331
-0.0040465216 -0.015174478 0.66213936
-0.0043020179 -0.016670316 0.66984963
-0.0043095946 -0.017238349 0.67007828
-0.0043097814 -0.01777783 0.67008394
-0.0043113055 -0.018323064 0.6701299
-0.0043161386 -0.018883079 0.67027575
-0.0043258108 -0.019466102 0.67056763
-0.003783118 0.019996494 0.6704998
-0.0037730127 0.019404054 0.67015135
-0.0037702522 0.01885125 0.6700561
-0.0035573808 0.017278761 0.66271442
-0.0035354462 0.016667128 0.66195792
-0.0035277035 0.016126662 0.66169089
-0.0035248406 0.015610009 0.66159219
-0.0035264962 0.015113562 0.66164923
-0.0036264593 0.015023917 0.66509682
-0.0037469501 0.014987826 0.66925246
-0.0038757601 0.014949381 0.67369497
-0.0040190476 0.014927924 0.67863673
-0.0040995767 0.014641345 0.68141413
-0.0041054725 0.014075935 0.68161744
-0.0041110511 0.013507754 0.68180978
-0.0041165478 0.012937725 0.68199944
-0.0041224225 0.012367278 0.68220204
-0.0041284682 0.01179561 0.68241054
-0.0041340678 0.011221051 0.68260366
-0.00413995 0.010645568 0.68280655
-0.0041458495 0.010068506 0.68300998
-0.0041531976 0.009493053 0.68326342
-0.0043123206 0.0092406869 0.6887514
-0.0045499187 0.0090998411 0.69694585
-0.0048044017 0.0089224577 0.70572263
-0.005085527 0.0087180734 0.71541834
-0.0053960364 0.008479476 0.72612745
-0.0057327882 0.008189708 0.73774159
-0.0061034146 0.0078472495 0.75052392
-0.0059376722 -0.0059376657 0.74480778
-0.0055558509 -0.0063495338 0.73163927
-0.005210775 -0.0066995621 0.71973789
-0.0048952946 -0.006993264 0.70885748
-0.0046097809 -0.0072439611 0.69901049
-0.0043554245 -0.0074664354 0.690238
-0.0041549145 -0.0077162385 0.68332261
-0.004146528 -0.0082930326 0.68303341
-0.0041408385 -0.0088732243 0.68283719
-0.0041349535 -0.0094512999 0.68263417
-0.004129183 -0.010028005 0.68243521
-0.0041234847 -0.010603249 0.6822387
-0.0041177049 -0.011176646 0.68203926
-0.004111941 -0.011748374 0.68184054
-0.004106096 -0.012318283 0.68163896
-0.0041002678 -0.012886524 0.68143791
-0.0040304624 -0.01324293 0.67903042
-0.0038757725 -0.013288349 0.67369539
-0.0037408532 -0.013360173 0.66904217
-0.0036158387 -0.013430238 0.66473055
-0.0035254741 -0.013598263 0.66161406
-0.0035248406 -0.01409936 0.66159219
-0.0035281845 -0.014616758 0.66170746
-0.0035372972 -0.015159845 0.66202176
-0.0035667184 -0.015795439 0.66303647
-0.0037704392 -0.017236292 0.67006254
-0.0037741368 -0.017792374 0.6701901
-0.003776985 -0.018345326 0.67028832
-0.0037859681 -0.018929839 0.67059809
-0.0032433385 0.020000637 0.67052662
-0.0032341813 0.019405127 0.67015815
-0.0032310737 0.018847972 0.6700331
-0.003044348 0.017251313 0.66251987
-0.0030291495 0.016660362 0.66190833
-0.003023237 0.01612395 0.66167045
-0.0030213706 0.015610427 0.66159534
-0.0030408667 0.01520434 0.6623798
-0.0031316744 0.015136451 0.66603357
-0.0032365511 0.015103906 0.67025352
-0.003348696 0.015069157 0.67476588
-0.0034808922 0.015083879 0.68008506
-0.00351525 0.014646888 0.68146747
-0.0035202121 0.014080852 0.68166715
-0.0035251644 0.013513148 0.68186641
-0.0035299035 0.01294297 0.68205714
-0.0035350749 0.012372792 0.68226522
-0.0035402735 0.011800945 0.68247437
-0.0035453788 0.011227041 0.68267977
-0.0035503418 0.010651022 0.68287945
-0.0035553186 0.010073423 0.68307978
-0.0035788524 0.0095435977 0.68402666
-0.0037755431 0.0094388723 0.6919409
-0.0039887214 0.0093069971 0.70051849
-0.0042269332 0.0091583431 0.71010339
-0.0044941842 0.0089883506 0.72085673
-0.0047857044 0.0087738037 0.73258662
-0.00511709 0.0085285306 0.74592054
-0.0053303167 -0.0062187016 0.75450015
-0.0049601616 -0.0066135228 0.73960626
-0.0046211146 -0.0069316328 0.72596407
-0.0043242685 -0.0072070956 0.71401989
-0.0040554483 -0.0074349642 0.70320344
-0.0038151601 -0.0076303184 0.69353491
-0.003601766 -0.0078037977 0.68494862
-0.0035559007 -0.0082970858 0.68310314
-0.0035507167 -0.0088768005 0.68289459
-0.0035454633 -0.0094545484 0.68268323
-0.0035404179 -0.010031193 0.68248022
-0.0035355305 -0.010606557 0.68228352
-0.0035303936 -0.011179566 0.68207681
-0.0035254625 -0.011751533 0.68187845
-0.0035205807 -0.012322009 0.68168199
-0.0035155821 -0.012890458 0.68148088
-0.0034930112 -0.013389856 0.68057269
-0.003354839 -0.01341933 0.67501307
-0.0032369432 -0.01348725 0.67026925
-0.0031270615 -0.013550609 0.66584802
-0.0030242282 -0.013609022 0.66171026
-0.0030213532 -0.014099658 0.66159469
-0.0030237283 -0.014614671 0.66169024
-0.0030303912 -0.015151948 0.66195828
-0.003049237 -0.015754372 0.66271657
-0.003231344 -0.017233849 0.670044
-0.0032366114 -0.017801344 0.6702559
-0.0032461057 -0.018394589 0.67063797
-0.0027040944 0.020010293 0.67058998
-0.0026954019 0.019406885 0.67017031
-0.0026921357 0.018844962 0.67001253
-0.0025338782 0.017230421 0.66237122
-0.0025235652 0.016655564 0.66187328
-0.0025190795 0.016122133 0.66165668
-0.0025178455 0.015610635 0.66159707
-0.0025457968 0.015274763 0.6629467
-0.0026294298 0.015250713 0.66698486
-0.0027181827 0.015221834 0.67127019
-0.0028131276 0.01519087 0.67585456
-0.0029187941 0.015177727 0.6809566
-0.0029300372 0.014650226 0.68149948
-0.0029342831 0.014084578 0.68170446
-0.0029385316 0.013517261 0.68190956
-0.0029427423 0.012948096 0.68211293
-0.0029468453 0.012376755 0.68231106
-0.0029509596 0.011803865 0.68250966
-0.0029552665 0.011230052 0.68271762
-0.0029596565 0.010654807 0.68292958
-0.0029639583 0.010077477 0.68313736
-0.0030280149 0.0096896887 0.68623024
-0.0031987338 0.0095961988 0.69447327
-0.0033898533 0.0094915926 0.70370138
-0.0036051574 0.0093734562 0.71409708
-0.0038420379 0.0092208982 0.72553474
-0.0041122562 0.0090469718 0.73858207
-0.0044175121 0.0088350475 0.75332111
-0.0042814128 -0.0068502426 0.74674964
-0.0039707143 -0.0071472824 0.73174775
-0.003696624 -0.0073932111 0.71851349
-0.0034570496 -0.0076054931 0.70694584
-0.0032427234 -0.0077825189 0.69659734
-0.0030511795 -0.0079330802 0.68734872
-0.002964454 -0.0083004236 0.68316126
-0.002959969 -0.0088798702 0.68294466
-0.002955558 -0.009457767 0.68273175
-0.0029512804 -0.010034323 0.68252522
-0.0029471552 -0.010609746 0.68232596
-0.0029426925 -0.011182189 0.68211049
-0.0029385216 -0.011754036 0.68190908
-0.0029344615 -0.012324721 0.6817131
-0.0029304128 -0.012893826 0.6815176
-0.0029226141 -0.013444006 0.68114102
-0.0028182019 -0.013527364 0.6760996
-0.0027142675 -0.013571352 0.67108119
-0.0026177187 -0.013612092 0.66641939
-0.0025332428 -0.013679504 0.66234052
-0.002517882 -0.014100134 0.66159886
-0.0025194667 -0.014612883 0.66167533
-0.0025245261 -0.01514715 0.66191965
-0.0025376459 -0.015733361 0.66255313
-0.0026923944 -0.017231286 0.67002505
-0.0026999845 -0.017819881 0.67039156
-0.0021657972 0.020033658 0.67074215
-0.0021567298 0.01941058 0.67019492
-0.0021532483 0.018840939 0.66998476
-0.0020259444 0.017220527 0.66230136
-0.0020182719 0.016650766 0.66183823
-0.0020150417 0.016120374 0.66164327
-0.0020143057 0.015610874 0.6615988
-0.002043158 0.015323699 0.66334027
-0.0021082279 0.015284657 0.66726756
-0.002181872 0.015273094 0.6717124
-0.0022608326 0.015260637 0.67647809
-0.0023389729 0.015203327 0.68119419
-0.0023445201 0.014653295 0.68152905
-0.0023478072 0.014086843 0.68172747
-0.0023510957 0.01351878 0.68192589
-0.0023544971 0.012949735 0.68213123
-0.0023579642 0.012379348 0.68234044
-0.0023612569 0.011806309 0.68253922
-0.0023647521 0.011232585 0.68275017
-0.0023683303 0.010657489 0.68296617
-0.0023720812 0.010081381 0.68319249
-0.0024511113 0.0098044574 0.68796241
-0.0025951476 0.0097317994 0.69665581
-0.0027565015 0.0096477568 0.70639437
-0.0029359721 0.0095419288 0.71722639
-0.0031404544 0.0094213784 0.72956795
-0.0033745684 0.0092800558 0.743698
-0.0035281247 -0.0070562363 0.75296593
-0.0032586902 -0.007332027 0.73670411
-0.0030207105 -0.0075517595 0.72234076
-0.002814942 -0.0077410638 0.70992148
-0.0026352494 -0.0079057515 0.69907618
-0.0024764242 -0.0080483556 0.6894902
-0.0023728344 -0.008304894 0.68323797
-0.002368758 -0.0088828206 0.68299198
-0.002365259 -0.0094610453 0.68278074
-0.0023617784 -0.010037541 0.6825707
-0.0023582843 -0.010612279 0.68235981
-0.0023547125 -0.011184871 0.68214422
-0.0023513264 -0.011756599 0.68193984
-0.002348077 -0.012327373 0.68174374
-0.0023447576 -0.01289615 0.68154335
-0.0023400991 -0.01345557 0.68126225
-0.0022579017 -0.013547391 0.67630118
-0.0021745192 -0.013590723 0.67126858
-0.0020970565 -0.013630837 0.66659331
-0.0020319631 -0.013715714 0.66266453
-0.0020142705 -0.014099896 0.66159678
-0.0020153397 -0.014611185 0.66166121
-0.0020190519 -0.015142888 0.66188532
-0.0020278718 -0.015715986 0.66241765
-0.0021535819 -0.017228633 0.6700049
-0.0021619904 -0.017836422 0.67051244
-0.0016284332 0.020084023 0.67107093
-0.0016181399 0.019417733 0.67024261
-0.001614706 0.018838227 0.66996628
-0.0015190596 0.017215997 0.66226923
-0.0015134796 0.016648263 0.66182023
-0.001511189 0.016119391 0.66163582
-0.0015107467 0.015611053 0.66160023
-0.0015335409 0.015335441 0.66343462
-0.0015821212 0.015293866 0.66734403
-0.0016374219 0.015282631 0.6717943
-0.0016967173 0.015270472 0.676566
-0.0017549442 0.015209526 0.68125176
-0.0017585561 0.014654636 0.68154246
-0.0017610219 0.014088213 0.68174088
-0.0017634947 0.013520151 0.6819399
-0.0017660641 0.012951165 0.68214661
-0.0017687671 0.012381375 0.68236411
-0.0017713158 0.011808783 0.68256927
-0.0017739625 0.011235118 0.68278223
-0.0017766473 0.010659933 0.6829983
-0.0017799176 0.010086209 0.68326145
-0.0018558962 0.0098980963 0.68937576
-0.0019664373 0.0098322034 0.69827139
-0.0020909051 0.0097575784 0.70828784
-0.0022318026 0.0096711516 0.71962637
-0.0023930608 0.0095722675 0.73260343
-0.0025785188 0.0094545782 0.74752796
-0.002488571 -0.0074656904 0.74028951
-0.0023019344 -0.0076730847 0.72527015
-0.0021388964 -0.0078426301 0.71214986
-0.0019974255 -0.0079897046 0.70076513
-0.001873508 -0.00811854 0.69079304
-0.001780629 -0.0083095729 0.68331873
-0.001776932 -0.0088846087 0.68302119
-0.0017743187 -0.0094629824 0.6828109
-0.001771641 -0.0100393 0.68259543
-0.0017691334 -0.010614783 0.68239361
-0.0017664531 -0.011187524 0.68217796
-0.0017638766 -0.011759162 0.6819706
-0.0017613849 -0.012329668 0.68177009
-0.0017588707 -0.012898386 0.68156773
-0.0017556772 -0.013460189 0.68131077
-0.0016959445 -0.013567537 0.67650384
-0.0016332197 -0.013610125 0.6714561
-0.0015749644 -0.013649672 0.66676807
-0.0015264089 -0.013737649 0.66286069
-0.0015107116 -0.014099985 0.66159749
-0.0015114344 -0.014610529 0.6616556
-0.0015141128 -0.0151411 0.66187114
-0.0015202515 -0.015709221 0.66236514
-0.0016150213 -0.017226875 0.66999161
-0.0016221134 -0.017843246 0.67056239
-0.0010795611 0.019432127 0.67033929
-0.0010763807 0.018836677 0.66995537
-0.0010125472 0.017213315 0.66224998
-0.0010089045 0.016646951 0.66181028
-0.0010074273 0.016118854 0.66163194
-0.0010071674 0.015611112 0.66160059
-0.0010228632 0.015342951 0.66349524
-0.0010553786 0.015303016 0.66742027
-0.0010922906 0.015292078 0.67187589
-0.0011318708 0.015280306 0.67665362
-0.0011702544 0.015213341 0.68128693
-0.0011724776 0.014656007 0.68155533
-0.0011741298 0.014089584 0.68175471
-0.0011757786 0.013521433 0.68195379
-0.0011774999 0.012952507 0.68216151
-0.0011793062 0.012382716 0.6823796
-0.00118111 0.011811137 0.68259734
-0.0011828349 0.011236936 0.68280554
-0.0011845607 0.010661066 0.68301392
-0.0011869441 0.01008904 0.68330157
-0.0012422316 0.0099378526 0.68997538
-0.0013175897 0.0098819435 0.69907194
-0.0014026813 0.0098187923 0.70934337
-0.0014995225 0.0097468793 0.72103316
-0.0016107345 0.0096644163 0.73445761
-0.0017381802 0.0095600188 0.74984163
-0.0016776955 -0.0075496137 0.74254054
-0.0015485338 -0.0077426732 0.72694933
-0.0014376774 -0.0079072118 0.71356779
-0.0013405717 -0.0080433786 0.70184606
-0.0012557582 -0.0081623793 0.69160813
-0.0011876905 -0.0083138049 0.68339169
-0.0011847102 -0.008885324 0.68303192
-0.0011829154 -0.00946334 0.68281531
-0.00118111 -0.010039419 0.6825974
-0.0011794423 -0.010614991 0.68239599
-0.0011777752 -0.011188835 0.68219483
-0.0011760889 -0.01176089 0.68199122
-0.0011743678 -0.01233086 0.6817835
-0.0011726439 -0.012899071 0.68157536
-0.0011706842 -0.013462871 0.68133885
-0.0011323097 -0.013587713 0.67670667
-0.0010903745 -0.013629675 0.67164463
-0.0010514281 -0.013668567 0.66694337
-0.0010187099 -0.01375258 0.66299391
-0.001007147 -0.014100045 0.66159815
-0.0010075762 -0.014609843 0.66165
-0.0010092854 -0.015139282 0.66185629
-0.0010132617 -0.015705556 0.66233623
-0.0010765941 -0.017225474 0.66998118
-0.0010809716 -0.017836004 0.67050958
-0.00054019672 0.019447118 0.67043978
-0.00053821033 0.018837392 0.6699602
-0.0005062205 0.017211527 0.66223717
-0.00050442736 0.016646117 0.66180432
-0.00050370343 0.016118526 0.6616295
-0.00050358515 0.015611142 0.66160095
-0.00051168463 0.01535055 0.6635564
-0.00052800681 0.015312225 0.66749686
-0.00054648548 0.015301615 0.67195803
-0.00056630065 0.015290141 0.67674184
-0.00058511936 0.015213132 0.68128502
-0.00058625662 0.014656454 0.68155962
-0.00058711646 0.014090806 0.68176717
-0.00058794499 0.013522774 0.6819672
-0.00058881176 0.012953907 0.68217647
-0.00058967713 0.012383223 0.68238539
-0.00059052085 0.011810422 0.68258911
-0.00059139932 0.011236578 0.68280125
-0.00059227837 0.010661006 0.68301344
-0.00059349841 0.010089487 0.68330795
-0.00062168029 0.0099469125 0.69011164
-0.00065967033 0.0098950863 0.6992833
