# .PCD v0.7 - Point Cloud Data file format
VERSION 0.7
FIELDS x y z
SIZE 4 4 4
TYPE F F F
COUNT 1 1 1
WIDTH 1331
HEIGHT 1
VIEWPOINT 0 0 0 1 0 0 0
POINTS 1331
DATA ascii
-0.043192998 0.016901612 0.69115102
-0.043288298 0.016311556 0.69148445
-0.043404438 0.015726238 0.69189084
-0.043509357 0.015133709 0.69225788
-0.043583862 0.014527947 0.69251865
-0.043562166 0.013889372 0.69244272
-0.042358913 0.012891859 0.68823272
-0.042369843 0.01228112 0.68827093
-0.042425774 0.011682481 0.68846655
-0.042536575 0.011096537 0.68885428
-0.043332424 0.010676086 0.69163889
-0.043459672 0.010077655 0.69208401
-0.04359163 0.0094764829 0.69254577
-0.043724392 0.0088716447 0.69301027
-0.043857966 0.0082630813 0.69347769
-0.043992199 0.0076508224 0.69394732
-0.044127416 0.0070348382 0.6944204
-0.047498219 0.0068838298 0.70621443
-0.047647931 0.0062149763 0.70673823
-0.047795542 0.0055415332 0.70725465
-0.047944263 0.0048639476 0.707775
-0.048093908 0.0041821003 0.70829868
-0.048244491 0.0034959912 0.70882547
-0.042267907 0.031700939 0.69008911
-0.04200685 0.030887425 0.68916225
-0.041900773 0.030193239 0.68878567
-0.041844524 0.02953735 0.68858594
-0.041803509 0.02889362 0.68844032
-0.041790646 0.028270155 0.68839467
-0.041787986 0.027653813 0.68838525
-0.041793305 0.027042776 0.68840408
-0.041807059 0.026436836 0.68845296
-0.041820973 0.025830656 0.68850231
-0.041842747 0.025228739 0.68857968
-0.041867808 0.024628133 0.68866861
-0.041894976 0.024027973 0.68876511
-0.04193126 0.023432195 0.68889391
-0.041967604 0.022835344 0.6890229
-0.042011779 0.022241533 0.68917978
-0.04205979 0.021648437 0.68935025
-0.042110465 0.021055222 0.68953013
-0.042170741 0.020465225 0.68974411
-0.042231191 0.0198735 0.68995875
-0.042297415 0.019282669 0.69019389
-0.042353369 0.018685311 0.69039249
-0.042390149 0.018078178 0.69052315
-0.042449243 0.017479122 0.6907329
-0.042542338 0.016891837 0.6910634
-0.042637069 0.016302437 0.69139975
-0.042704728 0.015700281 0.69163996
-0.042717855 0.015076905 0.69168651
-0.042094111 0.014237702 0.68947208
-0.041747082 0.013506413 0.68824005
-0.041591 0.012844294 0.68768585
-0.041650236 0.012250066 0.68789619
-0.041743245 0.011663586 0.6882264
-0.04185757 0.011079967 0.68863225
-0.042669408 0.010667354 0.69151455
-0.042809028 0.010072738 0.69201022
-0.042938791 0.0094718039 0.69247091
-0.043069497 0.0088672638 0.69293499
-0.043201007 0.0082590282 0.69340187
-0.043333322 0.0076470375 0.69387162
-0.043466449 0.0070313811 0.69434428
-0.043600235 0.0064118207 0.69481927
-0.046933878 0.0062118471 0.70665479
-0.047079388 0.0055387616 0.70717138
-0.047225617 0.004861474 0.70769054
-0.047373138 0.0041800141 0.70821428
-0.0475212 0.0034942031 0.70873994
-0.041570615 0.032263786 0.6898163
-0.04141546 0.031525224 0.68925726
-0.041327823 0.030841678 0.68894148
-0.041264974 0.030178905 0.68871498
-0.041236319 0.029542476 0.68861175
-0.041217629 0.028913885 0.68854439
-0.041210625 0.028293848 0.68851918
-0.041213252 0.027680546 0.68852866
-0.041215733 0.027067065 0.68853754
-0.041225512 0.026458174 0.68857282
-0.041239243 0.025851488 0.6886223
-0.041254152 0.0252451 0.688676
-0.041278727 0.024643987 0.68876457
-0.041303482 0.024042338 0.68885374
-0.041334573 0.02344352 0.6889658
-0.041370567 0.022846431 0.6890955
-0.041407213 0.022248656 0.68922752
-0.041454546 0.021655381 0.68939805
-0.041501991 0.021060705 0.68956906
-0.04155533 0.02046755 0.68976128
-0.041604195 0.019870669 0.68993729
-0.04163336 0.019263238 0.69004238
-0.041660182 0.01865384 0.69013906
-0.04173756 0.018065512 0.69041783
-0.041815676 0.017475218 0.69069934
-0.041879311 0.016876757 0.69092864
-0.041901927 0.016260445 0.69101012
-0.041777704 0.015588701 0.69056249
-0.041579526 0.014894158 0.68984842
-0.041378215 0.014204502 0.68912303
-0.041139551 0.013508528 0.68826306
-0.04096451 0.012839615 0.68763232
-0.040997408 0.012238055 0.68775082
-0.041106571 0.011657119 0.68814421
-0.041222595 0.011074752 0.68856227
-0.041346762 0.010490984 0.68900967
-0.042158857 0.010067791 0.69193596
-0.042286742 0.0094671845 0.69239676
-0.04241525 0.0088629127 0.69285977
-0.042544696 0.0082549751 0.69332623
-0.042674936 0.0076432824 0.6937955
-0.042805977 0.0070278645 0.69426769
-0.042937823 0.0064086616 0.6947428
-0.04622072 0.0062087774 0.70657206
-0.046363764 0.00553599 0.70708752
-0.046507884 0.00485906 0.70760679
-0.046652902 0.0041778684 0.70812935
-0.046798829 0.0034924746 0.70865512
-0.046945479 0.0028027296 0.70918363
-0.041206364 0.033714324 0.69075346
-0.040969033 0.03289941 0.68988532
-0.040844694 0.032180667 0.68943053
-0.040767148 0.031501919 0.68914694
-0.040713158 0.030843347 0.68894941
-0.040679649 0.030201554 0.6888268
-0.040657002 0.029568732 0.68874401
-0.040648501 0.028946668 0.68871295
-0.040639855 0.028324723 0.68868124
-0.040637407 0.027707338 0.6886723
-0.040639855 0.027093261 0.68868124
-0.04064288 0.026479453 0.68869233
-0.040656425 0.02587229 0.68874186
-0.040669981 0.02526471 0.68879145
-0.040689033 0.024660051 0.68886113
-0.040713303 0.024057895 0.68894994
-0.040737603 0.023455024 0.68903881
-0.040772803 0.022857487 0.68916756
-0.040808208 0.022259027 0.68929708
-0.040848915 0.021662354 0.68944597
-0.040888242 0.021063656 0.68958986
-0.040911295 0.020455658 0.6896742
-0.040921222 0.019840598 0.68971044
-0.040976498 0.019246548 0.68991262
-0.041042939 0.018655896 0.69015574
-0.041100461 0.018059283 0.69036615
-0.041124783 0.017446905 0.69045508
-0.041096926 0.016812384 0.69035316
-0.041058667 0.016174644 0.6902132
-0.041015193 0.01553607 0.69005418
-0.040923413 0.014881253 0.68971848
-0.040797174 0.014217198 0.68925667
-0.040624738 0.013541639 0.68862593
-0.040452041 0.012871116 0.68799424
-0.040392332 0.012240112 0.68777585
-0.040480886 0.011653602 0.6880998
-0.040591948 0.011070549 0.68850601
-0.040709544 0.010485798 0.68893617
-0.041493703 0.010059059 0.69180453
-0.041635178 0.0094625652 0.69232202
-0.041761793 0.0088585615 0.6927852
-0.04188903 0.008250922 0.6932506
-0.042017199 0.0076395273 0.69371945
-0.042146157 0.0070243776 0.6941911
-0.042275906 0.0064054728 0.69466579
-0.042406302 0.0057826936 0.69514275
-0.04564904 0.0055332482 0.70700437
-0.045790683 0.0048565567 0.70752251
-0.045933578 0.0041757822 0.70804518
-0.046076994 0.0034906864 0.70856977
-0.046221498 0.0028013289 0.7090984
-0.04059194 0.034347028 0.6907903
-0.040413845 0.033574581 0.69012886
-0.040303651 0.032863021 0.68971956
-0.040222544 0.032178044 0.68941826
-0.040174749 0.031521738 0.68924081
-0.040135626 0.030873567 0.6890955
-0.040113244 0.030239224 0.68901241
-0.040093165 0.029607266 0.68893778
-0.04007794 0.02897945 0.68888122
-0.040069405 0.02835682 0.68884951
-0.040061019 0.027734578 0.68881834
-0.040062867 0.027119517 0.68882525
-0.040065426 0.026504874 0.68883473
-0.040072817 0.025893211 0.6888622
-0.040086191 0.025285125 0.68891186
-0.040099427 0.024676591 0.68896103
-0.040122509 0.024073511 0.68904674
-0.04014647 0.023470253 0.68913573
-0.040174607 0.022868633 0.68924028
-0.040204931 0.022267371 0.68935287
-0.040222831 0.02165845 0.68941933
-0.040228561 0.021042645 0.68944061
-0.040253513 0.020436436 0.68953335
-0.040306527 0.019843221 0.68973023
-0.04035997 0.019248575 0.68992877
-0.040382627 0.018638134 0.69001287
-0.040365595 0.018009275 0.68994963
-0.040351462 0.017382175 0.68989718
-0.040369779 0.016769022 0.68996513
-0.040384073 0.016153634 0.6900183
-0.040376853 0.015529543 0.68999147
-0.040342383 0.014895648 0.68986344
-0.040269446 0.014249206 0.68959248
-0.040151183 0.01358965 0.68915325
-0.039984424 0.012918085 0.6885339
-0.039837446 0.012257695 0.68798798
-0.039856289 0.011650294 0.68805796
-0.039962068 0.011066467 0.68845087
-0.04007481 0.010481149 0.6888696
-0.040193766 0.0098938942 0.68931139
-0.040984251 0.0094578862 0.69224739
-0.041108828 0.0088542104 0.6927101
-0.041234165 0.008246839 0.69317567
-0.041360114 0.0076357126 0.69364345
-0.04148699 0.0070208907 0.69411469
-0.041614648 0.0064022541 0.69458884
-0.041743092 0.0057798326 0.69506598
-0.041894548 0.0051562786 0.6956284
-0.045074388 0.0048541725 0.70743889
-0.045214795 0.0041736662 0.70796043
-0.04535608 0.0034889281 0.70848519
-0.045498248 0.0027998984 0.70901316
-0.045641124 0.0021065474 0.70954388
-0.040314514 0.035905153 0.69209951
-0.040038548 0.035033762 0.69105852
-0.039881583 0.034273237 0.6904664
-0.039775155 0.033560306 0.69006491
-0.039703149 0.032879204 0.68979335
-0.039646238 0.032212585 0.68957865
-0.039608389 0.031562954 0.68943584
-0.039576668 0.030919284 0.68931621
-0.039547671 0.030278683 0.68920684
-0.039527848 0.02964592 0.68913203
-0.039508186 0.029013842 0.68905789
-0.039497659 0.028388947 0.68901819
-0.039489385 0.027765989 0.68898696
-0.039484896 0.027145892 0.68897003
-0.03948728 0.026530504 0.68897903
-0.039489806 0.025915205 0.68898851
-0.039501309 0.02530551 0.68903196
-0.039514504 0.024696589 0.68908167
-0.03953094 0.024089187 0.68914378
-0.039553016 0.023484617 0.68922698
-0.039565966 0.022874087 0.68927586
-0.039567936 0.022257 0.68928325
-0.039564136 0.021636665 0.68926895
-0.039604157 0.021039724 0.68941993
-0.039646521 0.020442724 0.68957973
-0.039671984 0.019836009 0.68967575
-0.039663777 0.019212157 0.68964481
-0.039623491 0.018573523 0.68949282
-0.039626881 0.017955929 0.68950564
-0.03966222 0.017352223 0.68963891
-0.039723288 0.016758263 0.68986928
-0.039768044 0.016155779 0.69003808
-0.039790243 0.015543073 0.69012189
-0.039782558 0.014918447 0.6900928
-0.039737344 0.014280617 0.68992233
-0.039652459 0.013630539 0.68960208
-0.039513238 0.012965292 0.68907696
-0.039348796 0.012296528 0.68845665
-0.039261404 0.011655718 0.68812698
-0.039335988 0.011063278 0.68840832
-0.039443437 0.010477185 0.68881363
-0.039556816 0.0098892152 0.68924129
-0.039708253 0.0093066394 0.68981254
-0.0404565 0.008849889 0.69263512
-0.040579788 0.0082427561 0.69310021
-0.040703829 0.0076319873 0.69356811
-0.040828481 0.0070174038 0.69403827
-0.04095405 0.0063990951 0.69451195
-0.041080389 0.005776912 0.69498861
-0.041207515 0.005150944 0.69546813
-0.044358626 0.0048517287 0.70735478
-0.044496734 0.0041716099 0.70787573
-0.044635702 0.0034871697 0.70839995
-0.044775546 0.0027984679 0.70892745
-0.044916265 0.0021055043 0.70945829
-0.045077417 0.0014086962 0.7100662
-0.039757106 0.036601782 0.69237739
-0.039527241 0.035762757 0.69149649
-0.039379057 0.035003603 0.69092864
-0.039269842 0.034283221 0.69051009
-0.039197277 0.033597678 0.69023204
-0.039136447 0.032924294 0.68999898
-0.039092276 0.032266647 0.68982971
-0.039048206 0.031610459 0.68966079
-0.039016191 0.030965269 0.68953812
-0.038985062 0.030321717 0.68941879
-0.038961194 0.029684752 0.68932736
-0.038941652 0.029051721 0.6892525
-0.038924754 0.028421253 0.68918777
-0.03891645 0.02779749 0.68915588
-0.03890815 0.027173966 0.68912411
-0.038908012 0.026556283 0.68912357
-0.038910501 0.025940329 0.68913317
-0.038915481 0.025325954 0.68915218
-0.038928494 0.024716526 0.68920207
-0.038934309 0.024102241 0.68922436
-0.038931817 0.02348271 0.68921477
-0.038910776 0.022852361 0.68913418
-0.038933754 0.022247881 0.68922222
-0.038969934 0.021649987 0.68936086
-0.038991034 0.021042764 0.68944168
-0.038985062 0.02042076 0.68941885
-0.038923509 0.019770712 0.68918294
-0.038887277 0.019135058 0.68904412
-0.038907319 0.018527299 0.68912095
-0.038955647 0.017931968 0.68930614
-0.039022312 0.017343283 0.68956161
-0.039103452 0.016758651 0.6898725
-0.039172444 0.016166419 0.69013691
-0.0392057 0.015557855 0.69026434
-0.039213005 0.014938295 0.69029236
-0.039201345 0.014311612 0.69024765
-0.039149746 0.013671339 0.69004989
-0.03903804 0.013012707 0.68962181
-0.038875673 0.012341499 0.68899965
-0.038719993 0.011677474 0.68840313
-0.038713969 0.011061132 0.68837994
-0.038813364 0.01047346 0.68876088
-0.038922399 0.0098850727 0.68917871
-0.039037067 0.0092945695 0.68961811
-0.039801199 0.0088447332 0.69254637
-0.03992606 0.008238703 0.69302481
-0.04004804 0.0076282322 0.69349229
-0.040170774 0.0070139468 0.69396257
-0.040294107 0.006395936 0.69443518
-0.040418349 0.0057740808 0.69491136
-0.040543362 0.005148381 0.69539034
-0.040674292 0.0045193732 0.6958921
-0.043779571 0.0041694939 0.70779186
-0.043916233 0.0034854114 0.70831543
-0.044053573 0.0027970672 0.7088418
-0.044191953 0.0021043718 0.7093721
-0.044331208 0.0014073551 0.70990568
-0.039759025 0.038476497 0.69484216
-0.039259087 0.037359476 0.69289547
-0.039040953 0.03652221 0.69204605
-0.038894907 0.035758257 0.69147736
-0.038789578 0.035035759 0.69106722
-0.038705807 0.034335822 0.690741
-0.038643323 0.033657134 0.6904977
-0.038586013 0.032984823 0.69027454
-0.038536455 0.032320946 0.6900816
-0.038492937 0.031663567 0.68991214
-0.038454048 0.031011343 0.68976074
-0.038423184 0.030366719 0.68964052
-0.03839292 0.029723585 0.68952268
-0.038373634 0.029089719 0.68944758
-0.038354505 0.028456599 0.68937302
-0.038342215 0.027829021 0.68932527
-0.038334165 0.027204901 0.68929386
-0.038327754 0.026582181 0.68926895
-0.038330074 0.025965542 0.68927795
-0.038328163 0.0253461 0.6892705
-0.038320936 0.024723172 0.68924236
-0.038297366 0.02409032 0.68915057
-0.038292058 0.023469329 0.68912995
-0.038319163 0.022867918 0.68923545
-0.038335528 0.022259325 0.68929923
-0.038334712 0.021640599 0.68929601
-0.038285524 0.020995319 0.6891045
-0.03820473 0.02033478 0.6887899
-0.038188204 0.019710064 0.68872553
-0.038198359 0.019099206 0.68876505
-0.038253028 0.018509567 0.68897796
-0.038323529 0.01792556 0.6892525
-0.038399078 0.017341524 0.6895467
-0.038481247 0.016757965 0.6898666
-0.038557697 0.016169399 0.69016433
-0.038620874 0.015572935 0.69041032
-0.038661908 0.014965892 0.69057006
-0.038671069 0.014345765 0.69060576
-0.038638886 0.013710588 0.69048041
-0.038550936 0.013057619 0.69013798
-0.038399078 0.012386799 0.6895467
-0.038238633 0.011718333 0.68892193
-0.038130749 0.011070222 0.68850183
-0.038186308 0.01047045 0.6887182
-0.03829015 0.0098813474 0.68912256
-0.038399216 0.0092901289 0.68954718
-0.038521569 0.0086984336 0.69002366
-0.039272971 0.0082346499 0.69294953
-0.0393929 0.0076244175 0.69341648
-0.039513562 0.0070104897 0.69388628
-0.039634965 0.0063927174 0.69435906
-0.039756972 0.0057711899 0.69483411
-0.039879877 0.005145818 0.69531268
-0.040003546 0.004516542 0.69579428
-0.043062951 0.0041673779 0.70770729
-0.043197311 0.0034836829 0.70823044
-0.04333251 0.0027956665 0.70875692
-0.043468557 0.0021033287 0.70928669
-0.043605283 0.00140661 0.70981908
-0.043747317 0.00070562959 0.71037209
-0.039191525 0.039191544 0.6951341
-0.038818005 0.038181633 0.69365585
-0.038595632 0.03733021 0.69277579
-0.038438287 0.036547899 0.69215298
-0.038328048 0.035814762 0.69171667
-0.038234711 0.035100728 0.6913473
-0.038162701 0.034409016 0.69106233
-0.038092058 0.033720851 0.69078273
-0.03803546 0.033047229 0.69055879
-0.037979029 0.032375574 0.69033545
-0.037935935 0.031716913 0.69016486
-0.037893072 0.031059921 0.68999523
-0.037859771 0.030411959 0.68986338
-0.0378295 0.029767454 0.68974364
-0.03780413 0.029127777 0.68964314
-0.037785258 0.028493792 0.68956852
-0.037766676 0.027860671 0.68949497
-0.037758742 0.027235836 0.68946356
-0.037749462 0.026610315 0.68942678
-0.037737228 0.025983006 0.68937838
-0.037710775 0.025346607 0.68927372
-0.037677526 0.024706602 0.68914211
-0.037694011 0.024099469 0.68920732
-0.03770541 0.023488611 0.6892525
-0.037702724 0.022868872 0.68924189
-0.037666947 0.022229671 0.68910027
-0.037557356 0.021549314 0.68866652
-0.037510429 0.020907462 0.68848085
-0.03750857 0.020291567 0.68847346
-0.037531685 0.019688755 0.68856496
-0.037575997 0.019096017 0.68874031
-0.037630167 0.018506646 0.68895471
-0.037701651 0.017923772 0.68923759
-0.037775829 0.017339736 0.68953121
-0.037858959 0.01675725 0.68986022
-0.037976854 0.016186863 0.69032681
-0.038112335 0.015619814 0.69086301
-0.0381759 0.015020043 0.69111454
-0.038186077 0.014398009 0.69115484
-0.038150061 0.013759077 0.69101226
-0.038066063 0.013104737 0.69067985
-0.037918966 0.012432486 0.69009769
-0.037759952 0.011761308 0.68946832
-0.037602261 0.011095732 0.68884426
-0.037568271 0.010469854 0.68870974
-0.037659854 0.0098779798 0.68907219
-0.037765197 0.0092865229 0.68948913
-0.0378756 0.008692801 0.68992603
-0.038611803 0.008228749 0.69283974
-0.038738403 0.0076206625 0.69334078
-0.038857002 0.0070070326 0.69381016
-0.03897633 0.0063895881 0.69428241
-0.039096393 0.0057683289 0.69475764
-0.039217051 0.005143255 0.69523513
-0.039338604 0.004514277 0.6957162
-0.039461058 0.0038813949 0.69620091
-0.042479288 0.0034819245 0.70814621
-0.042612001 0.0027942657 0.70867139
-0.042745717 0.002102226 0.70920068
-0.042880278 0.0014059246 0.70973319
-0.043015681 0.00070515275 0.71026909
-0.038793501 0.040086657 0.69611776
-0.038411822 0.03905201 0.69458199
-0.038181365 0.038181394 0.69365472
-0.038015246 0.037381679 0.69298631
-0.03788992 0.036626935 0.69248205
-0.037785947 0.035896659 0.69206369
-0.037697405 0.035184234 0.69170737
-0.037617277 0.034482509 0.69138503
-0.037546281 0.033791691 0.69109929
-0.037482962 0.033109963 0.69084454
-0.037427243 0.032436967 0.69062036
-0.037376918 0.031770408 0.69041783
-0.037334617 0.031112164 0.69024765
-0.037294544 0.030457228 0.69008636
-0.037264682 0.02981177 0.68996626
-0.037234865 0.029167295 0.68984628
-0.037214525 0.028531164 0.68976444
-0.037195936 0.027896971 0.68968964
-0.037175242 0.027261823 0.68960637
-0.037145436 0.026620924 0.68948644
-0.037095074 0.025966555 0.68928385
-0.037095204 0.025348365 0.68928432
-0.037099827 0.024733275 0.68930292
-0.037094414 0.02411139 0.68928111
-0.037066054 0.0234752 0.68916702
-0.036971401 0.022799015 0.68878621
-0.036875535 0.022125363 0.68840045
-0.036845814 0.021493435 0.68828082
-0.036841258 0.020876735 0.68826252
-0.03687384 0.020280629 0.68839359
-0.036919419 0.019690365 0.688577
-0.036968779 0.019100547 0.68877566
-0.037023269 0.018511653 0.68899488
-0.037088607 0.017926186 0.68925774
-0.037172988 0.017347395 0.68959731
-0.037390996 0.016825974 0.69047451
-0.037557915 0.016275138 0.69114614
-0.037652198 0.015688419 0.69152552
-0.037712816 0.015085131 0.69176942
-0.037735753 0.014465392 0.69186163
-0.037694544 0.013821334 0.69169587
-0.03758432 0.013154507 0.69125241
-0.037435308 0.012478471 0.69065285
-0.037277739 0.01180464 0.69001877
-0.037121493 0.011136502 0.68939012
-0.036996201 0.010482252 0.68888599
-0.037031818 0.0098751485 0.68902934
-0.037132073 0.0092830062 0.68943268
-0.037237525 0.0086887777 0.68985695
-0.037350133 0.0080925524 0.69031012
-0.038084693 0.007616967 0.69326568
-0.038201094 0.0070035458 0.69373411
-0.038318347 0.0063863993 0.69420588
-0.038436323 0.0057654381 0.69468063
-0.03855503 0.0051406622 0.69515824
-0.03867447 0.0045120716 0.69563878
-0.03879451 0.0038794875 0.69612187
-0.041761812 0.0034801662 0.70806128
-0.041892387 0.002792865 0.70858669
-0.042023778 0.0021011829 0.70911539
-0.042156 0.0014052093 0.70964742
-0.042288881 0.00070482492 0.71018207
-0.042422779 2.9802322e-08 0.71072084
-0.038582869 0.041198671 0.69790149
-0.038086984 0.040023625 0.69587243
-0.037809659 0.039091319 0.69473761
-0.037625082 0.038262784 0.69398236
-0.037480898 0.037480921 0.69339234
-0.037368719 0.036735356 0.69293332
-0.037253685 0.035990864 0.69246262
-0.03715834 0.035268962 0.69207251
-0.037071258 0.034557968 0.69171619
-0.036999401 0.033863872 0.6914221
-0.036929686 0.033174127 0.69113684
-0.036873359 0.032498568 0.69090641
-0.036818527 0.031826198 0.69068205
-0.036774278 0.031164646 0.69050097
-0.036732633 0.03050673 0.69033056
-0.036698177 0.029856145 0.69018954
-0.03666877 0.029210716 0.69006926
-0.036638625 0.028565735 0.68994582
-0.036604606 0.027918816 0.6898067
-0.03655057 0.027258068 0.68958557
-0.036522049 0.026617795 0.68946886
-0.036518015 0.02599588 0.68945235
-0.036510862 0.025371969 0.68942308
-0.036481753 0.024733394 0.68930399
-0.03640686 0.024065584 0.68899757
-0.036269795 0.023360223 0.68843669
-0.036221221 0.022715032 0.68823791
-0.036202669 0.02208975 0.68816203
-0.036208041 0.021479368 0.68818396
-0.036232229 0.020879596 0.68828297
-0.036266457 0.020284683 0.68842304
-0.036313351 0.019695401 0.6886149
-0.036362045 0.019105494 0.68881416
-0.036421865 0.01851961 0.6890589
-0.036542621 0.017961651 0.68955302
-0.036796719 0.01746285 0.69059277
-0.036915321 0.016893446 0.69107813
-0.0369974 0.016303957 0.69141388
-0.037069783 0.015707552 0.69171011
-0.037138686 0.015107274 0.69199204
-0.037190564 0.014498025 0.69220436
-0.037191913 0.013868213 0.6922099
-0.037105344 0.013207018 0.69185567
-0.036948055 0.012524784 0.691212
-0.036791965 0.011848301 0.69057333
-0.036637183 0.01117748 0.68993998
-0.036483832 0.010512292 0.68931252
-0.036422901 0.0098773837 0.68906319
-0.036501501 0.0092800558 0.68938476
-0.036603168 0.0086855292 0.68980074
-0.036709215 0.0080884993 0.69023472
-0.037417963 0.0076104403 0.69313484
-0.037545975 0.0070000887 0.69365865
-0.037661023 0.0063832402 0.69412941
-0.037776913 0.0057625771 0.69460356
-0.037893526 0.0051381588 0.69508082
-0.038010858 0.0045098066 0.69556087
-0.03812892 0.0038775206 0.69604403
-0.038247574 0.0032413602 0.69652951
-0.041173331 0.0027914345 0.70850146
-0.041302402 0.0021001399 0.70902956
-0.041432288 0.001404494 0.70956099
-0.041562989 0.0007044673 0.71009582
-0.041694351 -0 0.7106334
-0.037894547 0.041161329 0.69775844
-0.037523985 0.04011187 0.69621599
-0.037285171 0.039213747 0.6952219
-0.037109412 0.038389087 0.69449031
-0.036958743 0.037595987 0.69386315
-0.036840912 0.036840945 0.69337273
-0.036726646 0.036093444 0.69289708
-0.036616676 0.035354048 0.69243932
-0.036530789 0.034641266 0.69208187
-0.036450181 0.033936381 0.69174635
-0.036381222 0.033244908 0.69145936
-0.036317367 0.032560408 0.69119352
-0.036263257 0.031886667 0.69096828
-0.036212172 0.031217396 0.69075567
-0.036171097 0.030558378 0.69058466
-0.036129467 0.029900253 0.69041139
-0.036091421 0.029246509 0.69025302
-0.036033988 0.028578699 0.690014
-0.035974424 0.027911186 0.68976605
-0.035960302 0.027280271 0.68970728
-0.035944909 0.026648819 0.68964314
-0.035916083 0.026008219 0.68952322
-0.035855889 0.025346428 0.68927264
-0.035714068 0.024630398 0.68868232
-0.035621651 0.023952454 0.68829763
-0.035581399 0.023311973 0.68813008
-0.035570849 0.022691786 0.68808621
-0.035586424 0.02208814 0.688151
-0.035611704 0.021489859 0.68825626
-0.03563891 0.020891786 0.68836945
-0.035671208 0.02029568 0.68850398
-0.035716344 0.019705564 0.68869179
-0.035790686 0.019129544 0.6890012
-0.036054101 0.018648714 0.69009769
-0.03617863 0.018089294 0.69061607
-0.036263518 0.01750651 0.69096935
-0.036330462 0.01691246 0.691248
-0.036387134 0.016311496 0.69148391
-0.036449522 0.01571101 0.69174361
-0.03651914 0.015111387 0.69203341
-0.036587559 0.014508873 0.69231814
-0.03662413 0.013891935 0.69247037
-0.036591012 0.013248473 0.69233257
-0.03645717 0.012571454 0.69177538
-0.036302712 0.011892289 0.69113249
-0.036149297 0.011218756 0.69049394
-0.035997428 0.010551006 0.68986177
-0.035860099 0.0098924935 0.68929017
-0.035872612 0.0092774332 0.6893422
-0.03596916 0.0086822212 0.68974417
-0.036071524 0.0080850124 0.69017017
-0.036178887 0.0074852705 0.69061714
-0.036891356 0.0069966018 0.69358271
-0.037004482 0.0063800812 0.69405359
-0.037118163 0.005759716 0.69452679
-0.037232682 0.005135566 0.69500345
-0.037347913 0.0045075119 0.69548309
-0.037463855 0.0038756132 0.69596565
-0.037580382 0.0032397211 0.69645071
-0.040455163 0.0027900338 0.70841682
-0.040581919 0.002099067 0.70894444
-0.040709309 0.0014037788 0.70947468
-0.040837668 0.00070410967 0.71000898
-0.040966835 -0 0.71054661
-0.041096658 -0.00070852041 0.71108699
-0.037370209 0.041303933 0.69830483
-0.037030499 0.040278792 0.69686604
-0.036793441 0.039375454 0.69586205
-0.036602639 0.038529128 0.69505388
-0.037146065 0.038449466 0.69735551
-0.036309667 0.036946684 0.69381303
-0.036196593 0.036196619 0.69333404
-0.03608435 0.035451293 0.6928587
-0.035987575 0.034724861 0.69244879
-0.035903029 0.034013391 0.69209069
-0.035830542 0.033316106 0.69178367
-0.035762738 0.032625675 0.69149649
-0.035705876 0.031947374 0.69125569
-0.035652656 0.031274259 0.69103026
-0.035601385 0.03060475 0.69081306
-0.035539676 0.029928118 0.69055176
-0.035462931 0.029241383 0.69022667
-0.035428673 0.028591573 0.6900816
-0.035405874 0.027952015 0.68998498
-0.035377037 0.027308583 0.68986285
-0.035318241 0.026643574 0.68961388
-0.03519398 0.025932401 0.68908751
-0.03506463 0.025221914 0.68853968
-0.03500402 0.024564236 0.68828297
-0.034969166 0.023926318 0.68813533
-0.034963239 0.023308843 0.68811023
-0.034970894 0.022700429 0.68814266
-0.034991529 0.022099912 0.68823004
-0.035018381 0.021502525 0.68834382
-0.035047133 0.020905346 0.68846554
-0.03509184 0.020316362 0.68865496
-0.035325423 0.019831836 0.68964428
-0.035471186 0.019291341 0.69026166
-0.03555537 0.018713385 0.69061816
-0.035617393 0.018121123 0.69088089
-0.035663698 0.017519027 0.69107699
-0.035715789 0.016918033 0.69129765
-0.035771523 0.016316861 0.69153368
-0.035827301 0.015713751 0.69176996
-0.035894312 0.015113413 0.69205379
-0.035962876 0.014511317 0.69234419
-0.036024757 0.013904303 0.69260621
-0.036031965 0.013274968 0.69263679
-0.035961308 0.012618065 0.69233751
-0.035809554 0.011936545 0.69169474
-0.03565779 0.01126036 0.69105202
-0.035507433 0.010589957 0.69041514
-0.035358217 0.009925127 0.68978316
-0.035273831 0.0092826188 0.68942571
-0.035338279 0.0086795986 0.68969876
-0.03543628 0.0080819726 0.69011378
-0.035538144 0.007481724 0.6905452
-0.035676546 0.0068849623 0.69113141
-0.036348451 0.0063769519 0.69397724
-0.036460195 0.0057568848 0.69445056
-0.036572497 0.005133003 0.69492614
-0.036685623 0.0045052767 0.69540536
-0.036799457 0.0038736463 0.69588745
-0.036913995 0.0032380521 0.69637257
-0.037029114 0.0025985539 0.69686019
-0.039862007 0.0020980239 0.70885879
-0.039987236 0.0014030635 0.70938915
-0.040113252 0.00070375204 0.70992291
-0.0402399 2.9802322e-08 0.71045935
-0.040367514 -0.00070819259 0.71099985
-0.036987044 0.04161042 0.69947946
-0.0365844 0.040504187 0.69774359
-0.036314435 0.039556801 0.69657981
-0.037029132 0.039674044 0.6996609
-0.037126917 0.039115876 0.70008242
-0.039155424 0.040553868 0.70882756
-0.035663504 0.036300391 0.69377351
-0.035552599 0.035552591 0.69329542
-0.035442252 0.034809351 0.69281971
-0.035358269 0.034095496 0.69245768
-0.035277501 0.033387661 0.69210947
-0.035210598 0.032695562 0.69182098
-0.035143577 0.032005787 0.69153202
-0.035076298 0.031318128 0.69124198
-0.034990516 0.03061673 0.69087219
-0.034924947 0.029935688 0.69058955
-0.034890004 0.029282659 0.69043887
-0.034857128 0.028632641 0.69029719
-0.034799527 0.027963907 0.69004887
-0.034706794 0.027269632 0.68964905
-0.034517046 0.026504189 0.68883109
-0.034441166 0.025830895 0.68850398
-0.034400009 0.025185704 0.68832648
-0.034375455 0.024553925 0.68822062
-0.034369383 0.023935825 0.68819445
-0.034376793 0.023327112 0.6882264
-0.034390401 0.022722244 0.68828505
-0.034408037 0.022119462 0.68836111
-0.034434464 0.021521568 0.68847507
-0.034510314 0.020952672 0.688802
-0.034790441 0.020501524 0.69000971
-0.034880873 0.019931942 0.69039953
-0.034934979 0.019339025 0.69063282
-0.034971774 0.018734902 0.69079137
-0.03501419 0.018132389 0.69097424
-0.03505658 0.017528296 0.69115704
-0.035100847 0.016923636 0.69134784
-0.035155512 0.016322225 0.69158351
-0.035210345 0.015718907 0.69181991
-0.035269316 0.01511544 0.69207418
-0.035336696 0.014513314 0.69236463
-0.035404205 0.013908803 0.69265568
-0.03544677 0.013292551 0.69283915
-0.035427023 0.012652487 0.69275403
-0.035312839 0.011981159 0.69226182
-0.035162751 0.011302322 0.69161475
-0.03501381 0.010629237 0.69097263
-0.034866121 0.0099617541 0.69033593
-0.034723639 0.009300977 0.6897217
-0.034712367 0.0086781085 0.68967307
-0.03480152 0.0080789328 0.6900574
-0.034900643 0.007478714 0.69048476
-0.035003733 0.0068757534 0.69092917
-0.035690323 0.0063732862 0.69388914
-0.035802748 0.0057540238 0.69437379
-0.035913099 0.0051304698 0.69484955
-0.036024 0.0045029819 0.69532776
-0.036135722 0.0038716793 0.6958093
-0.03624814 0.0032364428 0.69629395
-0.036361258 0.0025972426 0.69678164
-0.036484662 0.0019545853 0.69731367
-0.039265726 0.0014023483 0.70930302
-0.039389405 0.00070342422 0.70983624
-0.039513867 -0 0.71037281
-0.039638955 -0.00070780516 0.71091205
-0.039765 -0.0014201701 0.71145546
-0.036797293 0.042149633 0.70154572
-0.036166105 0.0407691 0.69877511
-0.036269337 0.040225983 0.69922829
-0.036360286 0.039665788 0.69962746
-0.036451694 0.039102763 0.70002866
-0.03817964 0.040262192 0.70761347
-0.03512761 0.036405027 0.69421661
-0.0350178 0.035654515 0.69373465
-0.034908805 0.034908831 0.6932562
-0.034810878 0.034177989 0.69282639
-0.034728896 0.033466011 0.6924665
-0.034647297 0.032757431 0.69210833
-0.03455333 0.032040387 0.69169587
-0.034451425 0.031319469 0.6912486
-0.034404162 0.030651003 0.69104111
-0.034360245 0.029987127 0.69084829
-0.034302026 0.02931267 0.69059277
-0.03421678 0.02861768 0.69021857
-0.033944026 0.027772397 0.68902135
-0.033851549 0.027081281 0.68861544
-0.033817645 0.02643925 0.68846661
-0.033802692 0.025812984 0.68840098
-0.033792652 0.02519089 0.68835688
-0.033790261 0.024574727 0.68834639
-0.033792771 0.02396217 0.68835735
-0.03379827 0.02335152 0.68838155
-0.033810943 0.02274555 0.68843722
-0.033850949 0.022157013 0.68861282
-0.034130007 0.021719128 0.68983769
-0.034218129 0.021153063 0.69022453
-0.034274343 0.020564586 0.69047129
-0.034314591 0.019964844 0.6906479
-0.034343325 0.019357175 0.69077408
-0.034371741 0.018748254 0.69089878
-0.034407135 0.018141985 0.69105417
-0.03444894 0.017537624 0.69123769
-0.034490842 0.016931891 0.69142163
-0.034539092 0.01632759 0.6916334
-0.034592982 0.015724093 0.69186991
-0.03464717 0.015118748 0.6921078
-0.034710351 0.014515251 0.69238514
-0.034776926 0.01391077 0.69267738
-0.034839056 0.013302177 0.69295007
-0.034857612 0.012675494 0.69303155
-0.034804538 0.012023389 0.69279855
-0.034663759 0.011344522 0.69218063
-0.03451651 0.010668755 0.69153428
-0.034370381 0.0099986792 0.69089282
-0.034225482 0.0093342364 0.69025677
-0.034123059 0.0086858571 0.68980724
-0.034170162 0.008076638 0.69001395
-0.034264509 0.0074759126 0.69042814
-0.034362346 0.0068725049 0.69085753
-0.034472551 0.006267786 0.69134128
-0.035145957 0.005751133 0.69429719
-0.035254225 0.005127877 0.69477242
-0.035363168 0.0045008063 0.69525063
-0.035472654 0.003869772 0.69573122
-0.035582952 0.0032348037 0.69621539
-0.03569394 0.0025959611 0.69670254
-0.035805624 0.0019530356 0.69719279
-0.038545106 0.0014016926 0.70921767
-0.038666453 0.00070303679 0.70975035
-0.038788412 -0 0.71028566
-0.038911298 -0.00070747733 0.71082509
-0.039034966 -0.0014194548 0.71136796
-0.039177086 -0.0021369159 0.71199173
-0.035852123 0.041163564 0.70031118
-0.035598002 0.040212572 0.69917512
-0.035687238 0.039652497 0.69957411
-0.035776924 0.03908959 0.69997501
-0.035867061 0.038523883 0.700378
-0.034597285 0.036519378 0.69470114
-0.034472831 0.035749614 0.69414473
-0.03436663 0.035003036 0.69366992
-0.034258578 0.034258604 0.69318682
-0.034153689 0.033521205 0.69271785
-0.034030546 0.032770187 0.69216734
-0.03395234 0.032066107 0.6918177
-0.033895791 0.031385005 0.69156492
-0.033831131 0.030698627 0.69127584
-0.033745099 0.02999568 0.69089121
-0.033588041 0.029234052 0.690189
-0.033186335 0.028269857 0.68839312
-0.033170495 0.027642071 0.68832231
-0.033175305 0.02703172 0.68834376
-0.03318293 0.026423484 0.68837786
-0.03319855 0.02582109 0.68844771
-0.033211831 0.02521643 0.68850708
-0.033215709 0.024604231 0.68852448
-0.033218063 0.02399087 0.68853498
-0.033232536 0.023385882 0.68859959
-0.03346058 0.022926688 0.68961918
-0.033584915 0.022389948 0.69017506
-0.03364164 0.02180481 0.69042867
-0.033673394 0.021201789 0.69057065
-0.033690568 0.020588696 0.69064736
-0.033716358 0.019980073 0.6907627
-0.033744127 0.019371659 0.69088686
-0.033772066 0.018762261 0.69101179
-0.033800781 0.018152267 0.69114012
-0.033840649 0.017547011 0.69131833
-0.033881713 0.016940862 0.69150198
-0.033923123 0.016333371 0.69168711
-0.033975214 0.015729278 0.69191998
-0.034028448 0.015123755 0.69215798
-0.034083832 0.014517188 0.69240558
-0.034149215 0.013912678 0.69269788
-0.034214348 0.013305604 0.69298911
-0.034263708 0.012690306 0.69320977
-0.0342567 0.012053311 0.69317847
-0.03416115 0.01138705 0.69275129
-0.034015495 0.0107086 0.69210005
-0.03387095 0.010035872 0.69145381
-0.033727631 0.0093687773 0.69081312
-0.033585515 0.0087073743 0.69017774
-0.033548884 0.008076638 0.69001395
-0.033629458 0.0074732304 0.6903742
-0.033724964 0.0068699419 0.69080114
-0.033823568 0.0062636435 0.69124204
-0.034482587 0.0057470798 0.69418836
-0.034596011 0.0051253438 0.69469541
-0.034702867 0.0044985116 0.69517314
-0.034810383 0.0038678348 0.6956538
-0.034918439 0.0032332242 0.69613689
-0.035027299 0.00259462 0.69662362
-0.035136841 0.0019520521 0.69711334
-0.035249449 0.0013055503 0.69761682
-0.037944078 0.00070267916 0.70966387
-0.03806385 2.9802322e-08 0.71019936
-0.038184226 -0.0007071197 0.71073747
-0.038305521 -0.0014187098 0.71127975
-0.038427591 -0.0021348596 0.71182549
-0.035889309 0.041983724 0.70350486
-0.035001338 0.040284574 0.69946003
-0.035014648 0.039639205 0.69952065
-0.035099 0.039072484 0.69990486
-0.034230523 0.037459821 0.69594884
-0.034075473 0.036647201 0.69524264
-0.033940699 0.035861909 0.69462872
-0.033806492 0.035082221 0.69401741
-0.033668786 0.034304082 0.69339013
-0.033540141 0.033540159 0.6928041
-0.033465538 0.032834142 0.69246435
-0.033392236 0.032132149 0.69213039
-0.033301421 0.031416446 0.69171673
-0.033171494 0.03066799 0.69112492
-0.03246795 0.029404968 0.68792015
-0.032439813 0.028767377 0.68779194
-0.032458682 0.028171688 0.68787789
-0.032498088 0.027592719 0.68805748
-0.032539893 0.027014256 0.68824792
-0.032577764 0.026431024 0.68842041
-0.032611918 0.025843412 0.68857598
-0.032632258 0.025243819 0.68866861
-0.032643713 0.024636775 0.68872076
-0.032695409 0.024058908 0.68895626
-0.032967694 0.023637235 0.69019657
-0.033025868 0.023055822 0.69046152
-0.033053134 0.022451222 0.69058573
-0.03307296 0.021840632 0.69067609
-0.03308627 0.021225154 0.69073671
-0.033099711 0.02060926 0.69079792
-0.033116736 0.019995034 0.69087547
-0.033144031 0.019386142 0.69099981
-0.033171374 0.018776268 0.69112432
-0.033198882 0.018165469 0.69124967
-0.03323159 0.01755634 0.69139868
-0.033272058 0.016949952 0.69158298
-0.033312622 0.016342044 0.69176775
-0.033357397 0.015734643 0.69197166
-0.03340932 0.015128732 0.69220823
-0.033461768 0.014521182 0.69244713
-0.033521336 0.013914526 0.69271845
-0.033585526 0.013307482 0.69301087
-0.033647873 0.012697279 0.69329488
-0.033677038 0.012072891 0.69342768
-0.033640865 0.011425197 0.69326293
-0.033510722 0.010748744 0.69267011
-0.03336779 0.010073304 0.69201899
-0.033226077 0.0094035864 0.69137353
-0.033085559 0.0087395608 0.69073343
-0.032969344 0.0080868602 0.69020408
-0.032997109 0.0074710548 0.69033056
-0.033087816 0.0068672895 0.69074374
-0.033182491 0.0062608421 0.69117504
-0.033283003 0.0056518316 0.69163281
-0.033938449 0.0051228106 0.69461846
-0.034043219 0.0044962764 0.69509566
-0.034148641 0.0038658679 0.69557589
-0.034254719 0.0032316148 0.69605911
-0.034361325 0.0025933087 0.69654465
-0.034468729 0.0019510388 0.697034
-0.034576807 0.0013048053 0.69752622
-0.037222445 0.00070232153 0.70957744
-0.037339881 -0 0.71011239
-0.037458058 -0.00070673227 0.71065068
-0.037576985 -0.0014179945 0.71119243
-0.037696518 -0.0021337569 0.71173692
-0.037820846 -0.002854377 0.71230328
-0.034677994 0.040679991 0.70102489
-0.034213353 0.039476961 0.69886768
-0.033936646 0.038505018 0.69758308
-0.033727221 0.037618846 0.69661075
-0.033545878 0.036771446 0.69576883
-0.0333682 0.035934985 0.6949439
-0.033188131 0.035102814 0.69410795
-0.033085182 0.034357697 0.69362998
-0.032991186 0.033625633 0.69319355
-0.032891732 0.032891721 0.6927318
-0.032763973 0.032133907 0.69213861
-0.03185007 0.030625105 0.68789566
-0.031759601 0.029927313 0.68747562
-0.03173684 0.029295564 0.68737
-0.031757813 0.028704196 0.68746734
-0.03180141 0.028132051 0.68766975
-0.031864226 0.027574867 0.68796134
-0.031928752 0.02701664 0.68826091
-0.031979274 0.026444405 0.68849552
-0.032015763 0.025858909 0.68866491
-0.032071572 0.025287211 0.68892401
-0.032355625 0.024888963 0.69024277
-0.032429144 0.024321884 0.69058412
-0.032462705 0.023722738 0.69073993
-0.032473441 0.023106128 0.69078982
-0.032473322 0.022481561 0.69078928
-0.032481261 0.021862417 0.69082612
-0.032494463 0.021246374 0.69088739
-0.032507561 0.020629823 0.69094813
-0.032520782 0.020012796 0.69100952
-0.032543041 0.019400686 0.69111288
-0.032569904 0.018790334 0.69123769
-0.032596931 0.018179089 0.6913631
-0.032625303 0.017567515 0.69149482
-0.032661751 0.016959041 0.69166404
-0.032701474 0.016350746 0.69184852
-0.032741532 0.01574114 0.69203448
-0.032790016 0.015133858 0.69225961
-0.032841273 0.01452595 0.69249755
-0.032893289 0.013916433 0.69273901
-0.032956403 0.01330933 0.69303203
-0.033019282 0.012699723 0.69332397
-0.033074766 0.01208505 0.69358158
-0.033077069 0.011449784 0.69359225
-0.033002153 0.010789156 0.69324446
-0.032860864 0.010111034 0.69258845
-0.032720778 0.0094387233 0.6919381
-0.032581884 0.0087720752 0.6912933
-0.032444283 0.0081110597 0.69065446
-0.032383811 0.0074732006 0.69037366
-0.032452442 0.0068649948 0.69069231
-0.032544214 0.0062584877 0.69111836
-0.032638621 0.0056490004 0.69155669
-0.033270139 0.0051185489 0.69448864
-0.03338423 0.0044940412 0.69501835
-0.033487558 0.0038639605 0.69549811
-0.033591531 0.0032299459 0.69598079
-0.033696149 0.0025919974 0.69646651
-0.033801295 0.0019500852 0.69695461
-0.033907223 0.0013041496 0.69744641
-0.034013819 0.00065410137 0.69794136
-0.036616791 2.9802322e-08 0.7100262
-0.036732621 -0.00070640445 0.71056402
-0.036849037 -0.0014172196 0.71110451
-0.036966342 -0.0021326542 0.71164906
-0.037084248 -0.0028525889 0.71219647
-0.033807885 0.039773971 0.70006293
-0.033466432 0.038716078 0.69844651
-0.033199713 0.037756562 0.69718397
-0.032954115 0.036831111 0.69602138
-0.032771289 0.035984188 0.69515592
-0.032653656 0.035214782 0.69459903
-0.03253245 0.03444615 0.69402528
-0.03239128 0.033661544 0.69335699
-0.032191575 0.032822818 0.69241166
-0.031195775 0.03119579 0.68769783
-0.031122141 0.030511886 0.68734932
-0.031087309 0.029868215 0.68718439
-0.031095928 0.029266775 0.68722516
-0.031121377 0.028680503 0.68734562
-0.031179966 0.028123111 0.68762296
-0.03124572 0.027569771 0.68793428
-0.031315845 0.027017593 0.68826622
-0.031379949 0.026457638 0.68856966
-0.031550124 0.025982499 0.68937522
-0.031799115 0.025563985 0.6905539
-0.031873927 0.024999142 0.69090801
-0.031887691 0.024384737 0.69097316
-0.031889986 0.023761183 0.69098401
-0.031889528 0.023135543 0.69098186
-0.031888954 0.022509843 0.69097918
-0.031889528 0.021884978 0.69098186
-0.031901352 0.021267593 0.69103783
-0.031914338 0.020650446 0.69109929
-0.031927217 0.020032793 0.69116026
-0.031943217 0.019416481 0.69123602
-0.031967532 0.018804431 0.69135118
-0.031994082 0.018192738 0.69147682
-0.032020908 0.017580122 0.69160378
-0.032050677 0.016968012 0.69174469
-0.032089792 0.016359508 0.69192994
-0.032129008 0.015749514 0.69211549
-0.032170534 0.015139103 0.69231206
-0.032220487 0.014530838 0.69254857
-0.032270949 0.013920844 0.69278741
-0.032326993 0.013311148 0.69305271
-0.032388914 0.012701541 0.69334584
-0.032450832 0.01208958 0.69363892
-0.032486767 0.011465937 0.69380903
-0.032463081 0.010821015 0.69369692
-0.032350127 0.010149091 0.6931622
-0.032211702 0.0094740391 0.69250697
-0.032074459 0.0088047385 0.69185734
-0.031938497 0.0081412196 0.69121367
-0.031812128 0.0074852109 0.69061548
-0.031819783 0.0068630874 0.69065171
-0.03190618 0.0062561631 0.69106072
-0.031997666 0.0056466758 0.69149375
-0.032093164 0.0050342381 0.69194585
-0.03272602 0.004491806 0.69494164
-0.032827139 0.0038620234 0.69542032
-0.032929011 0.0032283366 0.69590247
-0.033031512 0.0025907159 0.69638771
-0.033134654 0.0019491613 0.69687593
-0.033238318 0.0013034642 0.69736677
-0.03334276 0.00065377355 0.69786108
-0.03589429 -0 0.70993948
-0.036007777 -0.00070601702 0.7104767
-0.036121983 -0.0014165044 0.71101725
-0.036236767 -0.0021315813 0.71156061
-0.036352433 -0.0028511584 0.71210814
-0.036468841 -0.0035753548 0.71265924
-0.033469997 0.040164024 0.7016322
-0.032944612 0.038874656 0.69909549
-0.032586221 0.037800044 0.69736499
-0.032405343 0.036942095 0.6964916
-0.03224428 0.03611362 0.69571388
-0.032079715 0.035287708 0.69491935
-0.031879693 0.034430087 0.69395351
-0.030761277 0.032606989 0.68855333
-0.030612869 0.031837404 0.68783677
-0.030532388 0.031143039 0.68744814
-0.030490592 0.030490607 0.68724632
-0.030482674 0.029873013 0.68720818
-0.030493267 0.02927354 0.68725926
-0.030524233 0.028692782 0.6874088
-0.030567413 0.028122067 0.6876173
-0.030629925 0.027566969 0.68791914
-0.030732002 0.027044177 0.68841195
-0.030976826 0.026640087 0.68959409
-0.031151118 0.026166946 0.69043565
-0.031278875 0.025648713 0.6910525
-0.031318344 0.025054723 0.69124311
-0.031312138 0.02442348 0.69121313
-0.031304125 0.023791134 0.69117445
-0.031303674 0.023164749 0.69117224
-0.031303223 0.022538334 0.6911701
-0.031302772 0.021911949 0.69116795
-0.031307623 0.0212892 0.69119132
-0.031319816 0.020671099 0.69125021
-0.031332579 0.02005288 0.69131184
-0.031345356 0.019434184 0.69137347
-0.03136437 0.018818647 0.69146538
-0.031390324 0.018206418 0.69159067
-0.031416319 0.017593145 0.69171619
-0.031444296 0.016979933 0.69185126
-0.031477451 0.01636827 0.69201136
-0.031515826 0.015757918 0.69219661
-0.03155452 0.015146166 0.69238347
-0.03159963 0.014535815 0.69260126
-0.031648789 0.013925463 0.69283861
-0.031698566 0.013313442 0.69307894
-0.031758249 0.0127033 0.69336712
-0.031819087 0.012091279 0.69366091
-0.03187548 0.011475176 0.69393319
-0.03188765 0.010841846 0.69399196
-0.031831563 0.010186136 0.69372118
-0.031698797 0.0095096231 0.69308007
-0.031563234 0.0088377297 0.69242555
-0.031428937 0.0081715286 0.69177711
-0.031295668 0.0075109899 0.69113356
-0.03121582 0.0068674982 0.6907481
-0.031270433 0.006254077 0.69101179
-0.03135848 0.0056445301 0.69143695
-0.031448737 0.0050318241 0.69187272
-0.031573214 0.0044202507 0.69247371
-0.032167505 0.003860116 0.69534326
-0.032267157 0.0032267272 0.69582438
-0.03236755 0.0025894642 0.69630909
-0.032468569 0.0019481182 0.69679689
-0.032570213 0.0013028383 0.69728762
-0.032672383 0.00065347552 0.69778097
-0.032775316 -0 0.69827795
-0.035283819 -0.00070568919 0.71039009
-0.035395525 -0.0014157891 0.71092945
-0.035508089 -0.0021304786 0.71147299
-0.035621226 -0.0028496981 0.71201926
-0.035735231 -0.0035735071 0.71256977
-0.033128001 0.040564924 0.70324528
-0.032381758 0.038990259 0.69956863
-0.032107212 0.038004458 0.6982159
-0.031871133 0.037074596 0.69705278
-0.031631328 0.036150128 0.69587123
-0.031301372 0.035134226 0.69424558
-0.030196417 0.03327772 0.68880153
-0.030075336 0.032530487 0.68820494
-0.029990889 0.031827092 0.68778884
-0.02993647 0.031158358 0.68752074
-0.029903241 0.030513525 0.68735701
-0.029901035 0.029901028 0.68734616
-0.029905552 0.029295266 0.68736839
-0.029928787 0.028707206 0.68748289
-0.029973678 0.028138578 0.68770409
-0.030144557 0.027683765 0.688546
-0.030341601 0.027245551 0.68951678
-0.030485788 0.0267528 0.69022727
-0.03060591 0.026233643 0.69081908
-0.030706702 0.025693387 0.69131565
-0.030741077 0.025094777 0.69148499
-0.030731533 0.024459779 0.69143802
-0.030720664 0.023824185 0.69138449
-0.030716453 0.023194075 0.69136369
-0.030715898 0.022566825 0.69136095
-0.030715454 0.021939635 0.6913588
-0.030715123 0.021312565 0.69135714
-0.030724213 0.020691872 0.6914019
-0.030736636 0.020072937 0.69146311
-0.030749181 0.019453585 0.69152498
-0.030764962 0.018835694 0.69160271
-0.030785544 0.018220067 0.69170409
-0.03081117 0.017606378 0.6918304
-0.030837623 0.016992182 0.69196069
-0.030865798 0.016377747 0.69209957
-0.030902101 0.015766382 0.69227839
-0.03093995 0.015154243 0.69246483
-0.030978343 0.014540881 0.69265401
-0.031026551 0.013930321 0.69289154
-0.031074911 0.013317823 0.69312978
-0.031127406 0.012705088 0.69338846
-0.031187046 0.012092948 0.69368231
-0.0312468 0.011478394 0.6939767
-0.031288948 0.010855377 0.69418436
-0.031277109 0.010212958 0.69412601
-0.031182019 0.0095455348 0.69365752
-0.031048166 0.0088709295 0.69299805
-0.030915566 0.0082021058 0.69234473
-0.030783985 0.0075389445 0.69169641
-0.030655617 0.0068818629 0.69106394
-0.03064028 0.0062531531 0.69098836
-0.030719556 0.0056423545 0.69137895
-0.030807937 0.0050298572 0.69181442
-0.03089896 0.004414171 0.69226289
-0.031506184 0.0038579106 0.69525468
-0.031606082 0.0032251179 0.69574684
-0.031704247 0.0025881231 0.69623053
-0.031803146 0.0019471645 0.6967178
-0.031902663 0.0013021827 0.69720805
-0.032002807 0.0006531477 0.69770151
-0.03210346 -0 0.69819742
-0.032223884 -0.00065761805 0.69879073
-0.034669962 -0.0014150739 0.71084249
-0.034780018 -0.0021293759 0.71138471
-0.03489092 -0.0028482378 0.71193111
-0.03500253 -0.0035716593 0.71248102
-0.035114713 -0.0042997599 0.71303374
-0.031980991 0.039309978 0.70087671
-0.031554788 0.038128734 0.69873309
-0.031170055 0.037014455 0.69679803
-0.030613154 0.035715371 0.69399703
-0.030559085 0.035015643 0.69372505
-0.029556887 0.033251524 0.6886844
-0.029473839 0.032544047 0.68826675
-0.02941676 0.03186819 0.68797958
-0.029369311 0.031204909 0.68774104
-0.029344715 0.030567437 0.6876173
-0.029324695 0.029935628 0.68751657
-0.029326037 0.029326051 0.68752337
-0.029361349 0.028749675 0.68770093
-0.029537102 0.028306395 0.68858492
-0.029687362 0.027831912 0.68934065
-0.029812383 0.027328014 0.68996948
-0.029919557 0.026802987 0.69050848
-0.030014753 0.026262909 0.69098735
-0.030096103 0.025707126 0.69139642
-0.030146584 0.025122166 0.69165033
-0.030149309 0.024496347 0.6916641
-0.03013863 0.023859769 0.69161034
-0.030127959 0.023223639 0.69155669
-0.030127198 0.022595406 0.69155288
-0.030126764 0.021967441 0.69155067
-0.030126328 0.021339506 0.69154853
-0.030129703 0.020714223 0.69156545
-0.030139612 0.020093083 0.69161528
-0.030151816 0.019473016 0.69167668
-0.030164467 0.0188528 0.69174033
-0.030182809 0.018235445 0.69183254
-0.030205112 0.01761964 0.69194472
-0.030230185 0.01700446 0.69207084
-0.030257717 0.016389638 0.6922093
-0.030287718 0.015774876 0.69236022
-0.030324833 0.015162438 0.6925469
-0.030362042 0.01454851 0.69273406
-0.030403884 0.013935149 0.69294447
-0.03045129 0.013322443 0.69318289
-0.030498955 0.012707889 0.69342268
-0.030554941 0.012094676 0.69370425
-0.030613491 0.011480063 0.69399875
-0.030669786 0.010862261 0.69428188
-0.030697897 0.010232657 0.69442326
-0.030656481 0.0095801651 0.69421494
-0.030529214 0.0089043975 0.69357479
-0.030398343 0.0082328916 0.69291663
-0.030268479 0.0075671077 0.69226348
-0.03013972 0.006907016 0.69161588
-0.030044273 0.0062592328 0.69113576
-0.030083399 0.0056406558 0.69133258
-0.030167742 0.0050279796 0.69175678
-0.030254534 0.0044121146 0.69219333
-0.030351764 0.0037939847 0.69268233
-0.030945547 0.0032235384 0.69566882
-0.03104173 0.0025868118 0.69615263
-0.031138398 0.0019461215 0.69663882
-0.031235786 0.001301527 0.69712865
-0.031333786 0.00065281987 0.69762152
-0.031432401 2.9802322e-08 0.69811749
-0.03153152 -0.00065687299 0.69861603
-0.03394499 -0.0014143288 0.71075487
-0.03405283 -0.0021282732 0.71129727
-0.034161218 -0.0028467774 0.71184242
-0.034270439 -0.0035698116 0.71239173
-0.034380358 -0.0042975247 0.71294463
-0.031372834 0.039382935 0.70117527
-0.029919147 0.036921501 0.69370818
-0.029880062 0.036237508 0.69350743
-0.029889468 0.035613 0.69355571
-0.029899318 0.034988612 0.69360632
-0.028975729 0.03329128 0.6888622
-0.028915806 0.032607168 0.68855441
-0.02886633 0.031937242 0.68830025
-0.028820992 0.031273842 0.68806738
-0.028781779 0.030618936 0.68786597
-0.028759072 0.029982865 0.68774933
-0.028765049 0.029377073 0.68778002
-0.028898306 0.028898329 0.68846446
-0.02902651 0.028408945 0.68912303
-0.029136192 0.027896345 0.68968648
-0.029231211 0.027365386 0.69017452
-0.029314427 0.026819617 0.69060194
-0.029390607 0.026263952 0.69099331
-0.02946325 0.025702 0.69136643
-0.029531661 0.025133371 0.6917178
