# .PCD v0.7 - Point Cloud Data file format
VERSION 0.7
FIELDS x y z
SIZE 4 4 4
TYPE F F F
COUNT 1 1 1
WIDTH 1347
HEIGHT 1
VIEWPOINT 0 0 0 1 0 0 0
POINTS 1347
DATA ascii
0.0097864531 0.0090874135 0.70878613
0.0097860992 0.0083881021 0.70877999
0.0097857052 0.0076888204 0.7087732
0.0097853504 0.0069895685 0.70876712
0.0097791739 0.0062866211 0.7086606
0.0092988685 0.0053136945 0.700378
0.0092902016 0.0046451092 0.70022857
0.0092902016 0.0039815307 0.70022857
0.0092902016 0.0033179522 0.70022857
0.0092902016 0.0026543438 0.70022857
0.0092902016 0.0019907951 0.70022851
0.0092902016 0.0013271868 0.70022851
0.0092902016 0.00066360831 0.70022851
0.0092902016 5.9604645e-08 0.70022857
0.0092902016 -0.00066360831 0.70022857
0.0092902016 -0.0013271272 0.70022857
0.0092902016 -0.0019907653 0.70022857
0.0092902016 -0.002654314 0.70022851
0.0092902016 -0.0033179522 0.70022857
0.0092902016 -0.0039815009 0.70022851
0.0092902016 -0.0046451092 0.70022857
0.0092902016 -0.0053086877 0.70022857
0.0092902016 -0.0059722662 0.70022857
0.0092902016 -0.0066358745 0.70022857
0.0092902016 -0.007299453 0.70022857
0.0092901662 -0.0079629719 0.70022792
0.0092901662 -0.0086265504 0.70022786
0.0092901662 -0.0092901587 0.70022792
0.0092901662 -0.0099537373 0.70022798
0.0092901662 -0.010617316 0.70022798
0.0092901662 -0.011280924 0.70022798
0.0092901662 -0.011944473 0.70022798
0.0092901662 -0.012608081 0.70022792
0.0092901662 -0.01327166 0.70022792
0.0092901662 -0.013935238 0.70022792
0.0092901662 -0.014598846 0.70022798
0.0092901662 -0.015262395 0.70022798
0.0092901662 -0.015926003 0.70022798
0.0092901662 -0.016589582 0.70022798
0.0092901662 -0.017253131 0.70022792
0.0092901662 -0.017916739 0.70022792
0.0092901662 -0.018580347 0.70022792
0.0092901662 -0.019243896 0.70022798
0.0092901662 -0.019907475 0.70022798
0.0092901662 -0.020571053 0.70022798
0.0092901662 -0.021234661 0.70022798
0.0092901662 -0.02189827 0.70022792
0.0092901662 -0.022561818 0.70022792
0.0092901662 -0.023225397 0.70022792
0.0092901662 -0.023888975 0.70022792
0.0092901662 -0.024552584 0.70022798
0.0092901662 -0.025216162 0.70022798
0.0092901662 -0.025879741 0.70022798
0.0092901662 -0.026543319 0.70022798
0.0092901662 -0.027206898 0.70022792
0.0092901662 -0.027870506 0.70022792
0.0092901662 -0.028534085 0.70022792
0.0092901662 -0.029197663 0.70022798
0.0092901662 -0.029861212 0.70022798
0.0092901662 -0.03052482 0.70022798
0.0092901662 -0.031188428 0.70022798
0.0092901662 -0.031851977 0.70022792
0.0092901662 -0.032515556 0.70022792
0.0092901662 -0.033179134 0.70022792
0.0092901662 -0.033842742 0.70022798
0.0092901662 -0.034506321 0.70022798
0.0092901662 -0.035169899 0.70022798
0.0092901662 -0.035833478 0.70022798
0.0092901662 -0.036497056 0.70022792
0.0092901662 -0.037160665 0.70022792
0.0092901662 -0.037824243 0.70022792
0.0092901662 -0.038487822 0.70022792
0.0092901662 -0.039151371 0.70022798
0.0092901662 -0.039814979 0.70022798
0.0092901662 -0.040478587 0.70022798
0.0092901662 -0.041142166 0.70022792
0.0092901662 -0.041805714 0.70022792
0.0092901662 -0.042469293 0.70022792
0.0092901662 -0.043132931 0.70022792
0.0092901662 -0.04379651 0.70022792
0.0092901662 -0.044460058 0.70022798
0.0092901662 -0.045123637 0.70022798
0.0092901662 -0.045787215 0.70022792
0.0092901662 -0.046450824 0.70022792
0.0092901662 -0.047114402 0.70022792
0.0092931129 -0.04779312 0.70027876
0.009323284 -0.048614234 0.70079899
0.0095650088 -0.050557911 0.70496744
0.0095892558 -0.051371008 0.70538557
0.0095924325 -0.052073181 0.70544034
0.0095950812 -0.052772939 0.705486
0.0095977699 -0.053473294 0.70553237
0.0096004596 -0.054174036 0.70557874
0.0096031129 -0.054874957 0.70562458
0.0096058054 -0.055576414 0.70567095
0.0096181883 -0.056335092 0.70588446
0.010417374 0.065976709 0.70768982
0.010375195 0.065017909 0.70701098
0.010364096 0.064257413 0.70683235
0.010361252 0.063549042 0.70678657
0.010361252 0.062858254 0.70678663
0.010361252 0.062167555 0.70678663
0.010361252 0.061476767 0.70678657
0.010361252 0.060786039 0.70678663
0.010361252 0.06009531 0.70678657
0.010361252 0.059404492 0.70678657
0.010361252 0.058713764 0.70678663
0.010361252 0.058023006 0.70678657
0.010361252 0.057332277 0.70678663
0.010361252 0.056641549 0.70678657
0.010361252 0.055950791 0.70678657
0.010361252 0.055260032 0.70678663
0.010361252 0.054569304 0.70678657
0.010361293 0.053878754 0.70678723
0.010361293 0.053187966 0.70678723
0.010361293 0.052497238 0.70678723
0.010361293 0.05180648 0.70678723
0.010361293 0.051115751 0.70678723
0.010361334 0.050425172 0.70678794
0.010361334 0.049734443 0.70678794
0.010361334 0.049043685 0.70678794
0.010361334 0.048352897 0.70678794
0.010361334 0.047662169 0.70678794
0.010361334 0.046971411 0.70678794
0.010361376 0.046280831 0.70678854
0.010361376 0.045590073 0.70678854
0.010361376 0.044899315 0.7067886
0.010361376 0.044208556 0.7067886
0.010361376 0.043517798 0.7067886
0.010361417 0.042827219 0.70678926
0.010361417 0.042136401 0.70678926
0.010361417 0.041445702 0.70678926
0.010361417 0.040754914 0.70678926
0.010361417 0.040064156 0.70678926
0.010361417 0.039373428 0.70678926
0.010361458 0.038682789 0.70678991
0.010361458 0.03799206 0.70678991
0.010361458 0.037301242 0.70678991
0.010361458 0.036610514 0.70678997
0.010361458 0.035919756 0.70678991
0.010361458 0.035228968 0.70678991
0.010361499 0.034538329 0.70679057
0.010361499 0.03384757 0.70679057
0.010371313 0.033188224 0.70694852
0.010478824 0.032833666 0.7086789
0.010505522 0.032216936 0.70910859
0.010506877 0.031520635 0.70913041
0.010506496 0.030819058 0.70912421
0.010506114 0.030117542 0.70911813
0.010505691 0.029415935 0.70911133
0.010505309 0.028714538 0.70910519
0.010504928 0.02801314 0.70909905
0.010504548 0.027311832 0.70909292
0.010504124 0.026610464 0.70908612
0.010503743 0.025909275 0.70907998
0.010503362 0.025208086 0.70907378
0.010502981 0.024506986 0.7090677
0.010502557 0.023805797 0.70906091
0.010502176 0.023104817 0.70905471
0.010501795 0.022403836 0.70904863
0.010501373 0.021702856 0.70904183
0.010500992 0.021001995 0.70903569
0.010500569 0.020301133 0.70902884
0.010500188 0.019600391 0.70902276
0.010499807 0.018899679 0.70901662
0.010499384 0.018198967 0.70900977
0.010499003 0.017498344 0.70900369
0.010498622 0.016797811 0.70899755
0.0104982 0.016097248 0.70899075
0.01049782 0.015396833 0.70898455
0.010497439 0.014696419 0.70897847
0.010497016 0.013996035 0.70897162
0.010496635 0.01329577 0.70896554
0.010496255 0.012595475 0.70895946
0.010495832 0.011895329 0.70895261
0.010495451 0.011195183 0.70894653
0.010495071 0.010495067 0.70894039
0.010494648 0.0097950101 0.70893359
0.010494268 0.0090950727 0.70892745
0.010493888 0.0083951354 0.70892131
0.010493466 0.0076951981 0.70891452
0.010493085 0.0069954097 0.70890844
0.010487216 0.0062923431 0.70881397
0.0099716885 0.0053182542 0.70051664
0.009962121 0.0046489835 0.70036268
0.009962121 0.0039848685 0.70036268
0.009962121 0.003320694 0.70036268
0.009962121 0.002656579 0.70036268
0.009962121 0.0019924045 0.70036268
0.009962121 0.0013283193 0.70036268
0.009962121 0.00066417456 0.70036268
0.009962121 2.9802322e-08 0.70036262
0.009962121 -0.00066408515 0.70036268
0.009962121 -0.0013282597 0.70036262
0.009962121 -0.0019924045 0.70036262
0.009962121 -0.002656579 0.70036268
0.009962121 -0.003320694 0.70036268
0.009962121 -0.0039848387 0.70036268
0.009962121 -0.0046489537 0.70036268
0.009962121 -0.0053131282 0.70036268
0.009962121 -0.0059772432 0.70036268
0.009962121 -0.0066414177 0.70036268
0.009962121 -0.0073055625 0.70036268
0.0099620828 -0.0079696476 0.70036209
0.0099620828 -0.0086337626 0.70036203
0.0099620828 -0.0092979372 0.70036203
0.0099620828 -0.0099620521 0.70036203
0.0099620828 -0.010626197 0.70036203
0.0099620828 -0.011290342 0.70036203
0.0099620828 -0.011954486 0.70036209
0.0099620828 -0.012618601 0.70036209
0.0099620828 -0.013282776 0.70036209
0.0099620828 -0.013946921 0.70036209
0.0099620828 -0.014611065 0.70036209
0.0099620828 -0.01527518 0.70036209
0.0099620828 -0.015939355 0.70036209
0.0099620828 -0.01660344 0.70036209
0.0099620828 -0.017267585 0.70036209
0.0099620828 -0.01793173 0.70036209
0.0099620828 -0.018595874 0.70036209
0.0099620828 -0.019260019 0.70036209
0.0099620828 -0.019924134 0.70036209
0.0099620828 -0.020588309 0.70036209
0.0099620828 -0.021252424 0.70036209
0.0099620828 -0.021916598 0.70036203
0.0099620828 -0.022580683 0.70036209
0.0099620828 -0.023244858 0.70036203
0.0099620828 -0.023908943 0.70036209
0.0099620828 -0.024573117 0.70036203
0.0099620828 -0.025237262 0.70036203
0.0099620828 -0.025901377 0.70036203
0.0099620828 -0.026565552 0.70036203
0.0099620828 -0.027229697 0.70036203
0.0099620828 -0.027893811 0.70036209
0.0099620828 -0.028557956 0.70036209
0.0099620828 -0.029222101 0.70036209
0.0099620828 -0.029886246 0.70036209
0.0099620828 -0.030550361 0.70036203
0.0099620828 -0.031214505 0.70036203
0.0099620828 -0.03187868 0.70036203
0.0099620828 -0.032542765 0.70036209
0.0099620828 -0.03320694 0.70036209
0.0099620828 -0.033871055 0.70036209
0.0099620828 -0.034535199 0.70036209
0.0099620828 -0.035199344 0.70036209
0.0099620828 -0.035863489 0.70036209
0.0099620828 -0.036527604 0.70036197
0.0099620828 -0.037191719 0.70036203
0.0099620828 -0.037855893 0.70036209
0.0099620828 -0.038520038 0.70036209
0.0099620828 -0.039184183 0.70036209
0.0099620828 -0.039848328 0.70036209
0.0099620828 -0.040512472 0.70036209
0.0099620828 -0.041176587 0.70036209
0.0099620828 -0.041840732 0.70036209
0.0099620828 -0.042504877 0.70036203
0.0099620828 -0.043169022 0.70036203
0.0099620828 -0.043833166 0.70036209
0.0099620828 -0.044497311 0.70036209
0.0099620828 -0.045161456 0.70036209
0.0099620828 -0.045825541 0.70036203
0.0099620828 -0.046489686 0.70036203
0.0099620828 -0.047153831 0.70036203
0.0099661211 -0.047837377 0.70042706
0.010003766 -0.048684984 0.70103288
0.010292178 -0.050774723 0.70567489
0.010308667 -0.051543325 0.70594025
0.010311726 -0.052246094 0.70598948
0.010314829 -0.052949458 0.70603943
0.010317891 -0.053653002 0.70608872
0.010320997 -0.05435726 0.70613873
0.010324064 -0.055061638 0.70618808
0.010328114 -0.055771798 0.70625323
0.010351046 -0.056585699 0.70662236
0.011209549 0.066556722 0.70916378
0.011126588 0.065368742 0.70791197
0.011102768 0.064534843 0.70755255
0.011095898 0.063801467 0.7074489
0.011095898 0.063107938 0.7074489
0.011095898 0.062414408 0.7074489
0.011095854 0.061720699 0.7074483
0.011095854 0.061027229 0.70744824
0.011095854 0.060333729 0.70744824
0.011095854 0.059640229 0.70744824
0.011095854 0.058946759 0.7074483
0.011095854 0.058253258 0.70744824
0.011095854 0.057559758 0.70744824
0.011095809 0.05686602 0.70744759
0.011095809 0.05617255 0.70744759
0.011095809 0.055479079 0.70744759
0.011095809 0.054785579 0.70744759
0.011095809 0.054092079 0.70744759
0.011095809 0.053398579 0.70744765
0.011095809 0.052705109 0.70744753
0.011095765 0.05201143 0.70744693
0.011095765 0.05131793 0.70744693
0.011095765 0.05062443 0.70744693
0.011095765 0.04993093 0.70744693
0.011095809 0.049237698 0.70744759
0.011095809 0.048544168 0.70744759
0.011095809 0.047850698 0.70744759
0.011095809 0.047157228 0.70744759
0.011095809 0.046463728 0.70744759
0.011095854 0.045770407 0.70744824
0.011095854 0.045076907 0.70744824
0.011095854 0.044383407 0.7074483
0.011095854 0.043689936 0.70744824
0.011095898 0.042996615 0.7074489
0.011095898 0.042303115 0.7074489
0.011095898 0.041609645 0.70744896
0.011095898 0.040916115 0.70744896
0.011095942 0.040222794 0.70744962
0.011095942 0.039529294 0.70744962
0.011095942 0.038835824 0.70744956
0.011095942 0.038142323 0.70744956
0.011095987 0.037448972 0.70745027
0.011095987 0.036755472 0.70745027
0.011095987 0.036061972 0.70745027
0.011095987 0.035368472 0.70745027
0.01109603 0.034675121 0.70745093
0.01109603 0.033981621 0.70745093
0.011100639 0.03330192 0.70752048
0.011184743 0.032855183 0.70878953
0.011215112 0.03224349 0.70924771
0.011216742 0.031547099 0.70927233
0.011216334 0.030844927 0.70926619
0.011215927 0.030142814 0.70926005
0.011215474 0.029440612 0.70925319
0.011215067 0.028738618 0.70924705
0.01121466 0.028036684 0.70924091
0.011214253 0.02733478 0.70923477
0.011213801 0.026632816 0.70922792
0.011213394 0.025930971 0.70922178
0.011212986 0.025229245 0.70921564
0.011212579 0.02452755 0.7092095
0.011212127 0.023825794 0.70920265
0.01121172 0.023124188 0.70919657
0.011211313 0.022422612 0.70919043
0.011210861 0.021721065 0.70918357
0.011210454 0.021019608 0.70917749
0.011210002 0.020318151 0.70917064
0.011209595 0.019616812 0.7091645
0.011209188 0.018915534 0.70915836
0.011208736 0.018214226 0.70915151
0.011208329 0.017513037 0.70914537
0.011207878 0.016811848 0.70913857
0.011207471 0.016110748 0.70913243
0.011207065 0.015409708 0.70912629
0.011206658 0.014708757 0.70912015
0.011206206 0.014007747 0.70911336
0.011205799 0.013306886 0.70910722
0.011205393 0.012606055 0.70910108
0.011204941 0.011905253 0.70909429
0.011204534 0.011204571 0.70908815
0.011204128 0.010503858 0.70908201
0.011203676 0.0098032355 0.70907521
0.01120327 0.0091026723 0.70906907
0.011202863 0.0084021389 0.70906293
0.011202413 0.0077016652 0.70905608
0.011202006 0.007001251 0.70905
0.01119587 0.0062976778 0.70895737
0.010645756 0.0053229034 0.70065683
0.010635165 0.0046528876 0.70049703
0.010635165 0.0039882064 0.70049703
0.010635165 0.0033234954 0.70049703
0.010635165 0.0026588142 0.70049697
0.010635165 0.001994133 0.70049703
0.010635165 0.001329422 0.70049703
0.010635165 0.000664711 0.70049703
0.010635165 -0 0.70049703
0.010635165 -0.00066465139 0.70049697
0.010635165 -0.0013293922 0.70049703
0.010635165 -0.0019940734 0.70049703
0.010635165 -0.0026587546 0.70049703
0.010635165 -0.0033234954 0.70049703
0.010635165 -0.0039881766 0.70049703
0.010635165 -0.0046528876 0.70049703
0.010635165 -0.005317539 0.70049703
0.010635165 -0.0059822798 0.70049703
0.010635165 -0.006646961 0.70049703
0.010635165 -0.0073116422 0.70049703
0.010635125 -0.0079763234 0.70049644
0.010635125 -0.0086410344 0.70049644
0.010635125 -0.0093056858 0.70049644
0.010635125 -0.0099704266 0.70049638
0.010635125 -0.010635108 0.70049638
0.010635125 -0.011299819 0.70049644
0.010635125 -0.0119645 0.70049644
0.010635125 -0.012629181 0.70049644
0.010635125 -0.013293862 0.70049638
0.010635125 -0.013958603 0.70049638
0.010635125 -0.014623284 0.70049644
0.010635125 -0.015287995 0.70049644
0.010635125 -0.015952647 0.70049644
0.010635125 -0.016617358 0.70049638
0.010635125 -0.017282069 0.70049638
0.010635125 -0.01794675 0.70049644
0.010635125 -0.018611461 0.70049644
0.010635125 -0.019276172 0.70049644
0.010635125 -0.019940883 0.70049644
0.010635125 -0.020605534 0.70049638
0.010635125 -0.021270245 0.70049644
0.010635125 -0.021934956 0.70049644
0.010635125 -0.022599638 0.70049638
0.010635125 -0.023264319 0.70049644
0.010635125 -0.023929 0.70049638
0.010635125 -0.024593711 0.70049644
0.010635125 -0.025258422 0.70049644
0.010635125 -0.025923103 0.70049638
0.010635125 -0.026587814 0.70049644
0.010635125 -0.027252465 0.70049638
0.010635125 -0.027917176 0.70049644
0.010635125 -0.028581887 0.70049644
0.010635125 -0.029246598 0.70049638
0.010635125 -0.02991128 0.70049644
0.010635125 -0.030575961 0.70049638
0.010635125 -0.031240672 0.70049644
0.010635125 -0.031905353 0.70049644
0.010635125 -0.032570064 0.70049638
0.010635125 -0.033234775 0.70049644
0.010635125 -0.033899426 0.70049638
0.010635125 -0.034564137 0.70049638
0.010635125 -0.035228819 0.70049644
0.010635125 -0.035893559 0.70049638
0.010635125 -0.036558211 0.70049644
0.010635125 -0.037222892 0.70049638
0.010635125 -0.037887633 0.70049644
0.010635125 -0.038552284 0.70049638
0.010635125 -0.039216995 0.70049638
0.010635125 -0.039881706 0.70049644
0.010635125 -0.040546417 0.70049644
0.010635125 -0.041211098 0.70049644
0.010635125 -0.04187578 0.70049644
0.010635125 -0.042540491 0.70049638
0.010635125 -0.043205202 0.70049644
0.010635125 -0.043869853 0.70049644
0.010635125 -0.044534594 0.70049644
0.010635125 -0.045199275 0.70049638
0.010635125 -0.045863956 0.70049638
0.010635125 -0.046528637 0.70049644
0.010635125 -0.047193378 0.70049644
0.010640376 -0.047881663 0.70057559
0.011001003 -0.050192058 0.70601714
0.011025 -0.050990611 0.70637918
0.011035987 -0.051731169 0.70654494
0.011039581 -0.052438021 0.70659912
0.011043133 -0.053145081 0.70665282
0.011046732 -0.053852797 0.70670712
0.011050333 -0.054560989 0.70676142
0.011053937 -0.055269659 0.70681584
0.011061766 -0.056000173 0.70693386
0.011114531 -0.056961983 0.70773005
0.011898056 0.065789282 0.70899206
0.011854455 0.064850867 0.70837295
0.01184376 0.064095646 0.70822102
0.011842525 0.063392371 0.70820349
0.011842477 0.062695473 0.70820278
0.011842477 0.061998874 0.70820284
0.01184243 0.061302006 0.70820218
0.011842382 0.060605168 0.70820141
0.011842382 0.059908539 0.70820147
0.011842335 0.059211671 0.70820081
0.011842287 0.058514893 0.7082001
0.011842287 0.057818234 0.7082001
0.01184224 0.057121396 0.70819938
0.011842192 0.056424588 0.70819879
0.011842192 0.055727959 0.70819879
0.011842145 0.055031151 0.70819807
0.011842097 0.054334372 0.70819741
0.01184205 0.053637505 0.70819676
0.01184205 0.052940965 0.70819676
0.011842002 0.052244127 0.70819604
0.011841955 0.051547348 0.70819533
0.011841955 0.050850779 0.70819539
0.011841907 0.050153941 0.70819473
0.01184186 0.049457192 0.70819402
0.01184186 0.048760593 0.70819402
0.011841812 0.048063844 0.70819336
0.011841765 0.047367096 0.70819271
0.011841765 0.046670526 0.70819271
0.011841717 0.045973748 0.70819199
0.01184167 0.045276999 0.70819134
0.01184167 0.04458043 0.70819134
0.011841622 0.043883681 0.70819068
0.011841575 0.043186933 0.70819002
0.011841527 0.042490214 0.70818937
0.011841527 0.041793644 0.70818931
0.01184148 0.041096956 0.70818865
0.011841432 0.040400207 0.70818794
0.011841432 0.039703637 0.708188
0.011841386 0.039006948 0.70818728
0.011841338 0.0383102 0.70818663
0.011841338 0.03761369 0.70818663
0.011841291 0.036916971 0.70818597
0.011841243 0.036220312 0.70818526
0.011841243 0.035523713 0.70818526
0.011841196 0.034827083 0.7081846
0.011841148 0.034130394 0.70818394
0.011841907 0.033436 0.70819473
0.011891302 0.032875955 0.70889616
0.011925584 0.032269269 0.70938301
0.011927799 0.031573594 0.70941454
0.011927365 0.030870855 0.70940834
0.011926884 0.030167997 0.70940149
0.011926451 0.029465377 0.70939529
0.011926018 0.028762728 0.70938921
0.011925584 0.028060198 0.70938301
0.011925151 0.027357727 0.70937687
0.011924669 0.026655167 0.70937002
0.011924236 0.025952756 0.70936382
0.011923802 0.025250405 0.70935774
0.011923369 0.024548143 0.70935154
0.011922888 0.023845762 0.70934474
0.011922454 0.023143619 0.70933861
0.011921974 0.022441357 0.70933175
0.011921541 0.021739304 0.70932555
0.011921108 0.021037251 0.70931947
0.011920626 0.020335168 0.70931262
0.011920193 0.019633293 0.70930648
0.01191976 0.018931419 0.70930028
0.01191928 0.018229455 0.70929348
0.011918847 0.017527699 0.70928735
0.011918365 0.016825944 0.70928049
0.011917933 0.016124308 0.70927435
0.0119175 0.015422672 0.70926821
0.011917067 0.014721125 0.70926207
0.011916586 0.014019549 0.70925522
0.011916153 0.013318092 0.70924908
0.011915721 0.012616664 0.70924294
0.01191524 0.011915237 0.70923615
0.011914807 0.011213988 0.70922995
0.011914374 0.01051271 0.70922381
0.011913894 0.009811461 0.70921701
0.011913462 0.0091103315 0.70921087
0.011913029 0.0084092021 0.70920473
0.011912596 0.0077081323 0.70919865
0.011912116 0.0070071518 0.70919174
0.011905681 0.0063030422 0.70910043
0.011436776 0.0053820014 0.70244139
0.011327122 0.0046640933 0.70088416
0.011327122 0.0039978623 0.7008841
0.011327122 0.0033315122 0.70088416
0.011327122 0.0026652217 0.7008841
0.011327122 0.0019989014 0.70088416
0.011327122 0.0013326406 0.7008841
0.011327122 0.00066629052 0.7008841
0.011327122 2.9802322e-08 0.7008841
0.011327122 -0.00066629052 0.70088416
0.011327122 -0.001332581 0.7008841
0.011327122 -0.0019989014 0.7008841
0.011327122 -0.0026651919 0.7008841
0.011327122 -0.0033314824 0.7008841
0.011327122 -0.0039978027 0.7008841
0.011327122 -0.0046640933 0.7008841
0.011327122 -0.005330354 0.7008841
0.011327122 -0.0059967041 0.7008841
0.011327122 -0.0066629946 0.7008841
0.011327122 -0.0073292851 0.70088416
0.011327122 -0.0079956055 0.7008841
0.011327122 -0.008661896 0.7008841
0.011327122 -0.0093281865 0.7008841
0.011327122 -0.0099945366 0.7008841
0.011327122 -0.010660797 0.7008841
0.011327122 -0.011327088 0.7008841
0.011327122 -0.011993438 0.7008841
0.011327122 -0.012659699 0.7008841
0.011327122 -0.013326019 0.7008841
0.011327122 -0.01399231 0.7008841
0.011327122 -0.01465863 0.70088416
0.011327122 -0.01532492 0.7008841
0.011327122 -0.015991241 0.7008841
0.011327122 -0.016657531 0.70088416
0.011327122 -0.017323822 0.70088416
0.011327122 -0.017990112 0.7008841
0.011327122 -0.018656403 0.7008841
0.011327122 -0.019322753 0.70088416
0.011327122 -0.019989014 0.70088416
0.011327122 -0.020655364 0.7008841
0.011327122 -0.021321625 0.7008841
0.011327122 -0.021987945 0.70088416
0.011327122 -0.022654235 0.70088416
0.011327122 -0.023320526 0.7008841
0.011327122 -0.023986846 0.70088416
0.011327122 -0.024653137 0.70088416
0.011327122 -0.025319457 0.7008841
0.011327122 -0.025985748 0.7008841
0.011327122 -0.026652068 0.70088416
0.011327122 -0.027318329 0.7008841
0.011327122 -0.027984679 0.7008841
0.011327122 -0.02865091 0.7008841
0.011327122 -0.02931726 0.70088416
0.011327122 -0.02998355 0.7008841
0.011327122 -0.030649841 0.7008841
0.011327122 -0.031316131 0.7008841
0.011327122 -0.031982481 0.70088416
0.011327122 -0.032648742 0.7008841
0.011327122 -0.033315063 0.7008841
0.011327122 -0.033981323 0.7008841
0.011327122 -0.034647644 0.7008841
0.011327122 -0.035313934 0.7008841
0.011327122 -0.035980254 0.7008841
0.011327122 -0.036646545 0.7008841
0.011327122 -0.037312865 0.7008841
0.011327122 -0.037979156 0.7008841
0.011327122 -0.038645476 0.7008841
0.011327122 -0.039311767 0.7008841
0.011327122 -0.039978027 0.7008841
0.011327122 -0.040644377 0.7008841
0.011327122 -0.041310638 0.7008841
0.011327122 -0.041976959 0.7008841
0.011327122 -0.042643279 0.7008841
0.011327122 -0.043309569 0.7008841
0.011327122 -0.04397586 0.7008841
0.011327122 -0.04464218 0.7008841
0.011327079 -0.045308292 0.70088351
0.011327079 -0.045974612 0.70088351
0.011327079 -0.046640903 0.70088357
0.011327079 -0.047307223 0.70088351
0.011727738 -0.049670398 0.70657337
0.011735007 -0.050391465 0.70667654
0.011769472 -0.051231802 0.70716608
0.011775572 -0.051951021 0.70725274
0.011779424 -0.052660942 0.70730734
0.01178323 -0.053371072 0.70736146
0.011787086 -0.054081917 0.70741618
0.011790944 -0.054793209 0.70747101
0.011794853 -0.055505186 0.70752645
0.011813016 -0.05628553 0.70778441
0.012642148 0.06531775 0.70958501
0.012612015 0.06446141 0.70918083
0.012604848 0.063724518 0.70908469
0.012604796 0.063024014 0.70908403
0.012604796 0.062323719 0.70908403
0.012604746 0.061623186 0.70908338
0.012604695 0.060922682 0.70908266
0.012604645 0.060222208 0.70908201
0.012604645 0.059521943 0.70908201
0.012604593 0.05882144 0.70908129
0.012604543 0.058120966 0.70908064
0.012604543 0.057420701 0.70908064
0.012604492 0.056720227 0.70907998
0.012604441 0.056019723 0.70907927
0.01260439 0.055319309 0.70907855
0.01260439 0.054619044 0.70907861
0.012604339 0.0539186 0.70907784
0.012604289 0.053218096 0.70907724
0.012604238 0.052517682 0.70907652
0.012604238 0.051817417 0.70907652
0.012604187 0.051116973 0.70907587
0.012604136 0.050416559 0.70907521
0.012604136 0.049716324 0.70907515
0.012604086 0.04901588 0.7090745
0.012604035 0.048315495 0.70907384
0.012603984 0.047615051 0.70907313
0.012603984 0.046914846 0.70907313
0.012603933 0.046214461 0.70907241
0.012603933 0.045514226 0.70907247
0.012603882 0.044813782 0.70907182
0.012603831 0.044113427 0.7090711
0.012603831 0.043413192 0.7090711
0.01260378 0.042712837 0.70907044
0.01260378 0.042012602 0.70907044
0.01260373 0.041312248 0.70906973
0.01260373 0.040612042 0.70906973
0.012603679 0.039911658 0.70906901
0.012603679 0.039211482 0.70906907
0.012603628 0.038511097 0.70906836
0.012603628 0.037810892 0.70906836
0.012603577 0.037110567 0.70906764
0.012603577 0.036410362 0.7090677
0.012603527 0.035709977 0.70906699
0.012603527 0.035009801 0.70906705
0.012603527 0.034309626 0.70906705
0.012603476 0.033609271 0.70906633
0.012609981 0.032926083 0.70915353
0.012637141 0.032294959 0.70951784
0.012640052 0.031600147 0.70955694
0.012639592 0.030896753 0.70955074
0.012639082 0.030193388 0.70954388
0.012638622 0.029490113 0.70953768
0.012638163 0.028786957 0.70953155
0.012637703 0.028083801 0.70952535
0.012637192 0.027380586 0.70951855
0.012636732 0.026677549 0.70951235
0.012636273 0.025974602 0.70950621
0.012635813 0.025271624 0.70950007
0.012635303 0.024568677 0.70949316
0.012634844 0.023865819 0.70948702
0.012634384 0.02316305 0.70948088
0.012633873 0.022460222 0.70947409
0.012633414 0.021757543 0.70946789
0.012632955 0.021054924 0.70946169
0.012632445 0.020352274 0.70945489
0.012631985 0.019649804 0.7094487
0.012631526 0.018947303 0.70944256
0.012631016 0.018244803 0.7094357
0.012630557 0.017542452 0.7094295
0.012630046 0.01684007 0.70942271
0.012629587 0.016137838 0.70941657
0.012629129 0.015435576 0.70941043
0.012628619 0.014733404 0.70940351
0.012628159 0.014031321 0.70939738
0.0126277 0.013329238 0.70939124
0.012627242 0.012627274 0.70938504
0.012626732 0.01192528 0.70937824
0.012626274 0.011223346 0.7093721
0.012625814 0.010521531 0.7093659
0.012625305 0.0098196864 0.70935911
0.012624846 0.0091179609 0.70935297
0.012624388 0.0084162652 0.70934683
0.012623928 0.0077146292 0.70934063
0.012623419 0.0070130229 0.70933384
0.012616594 0.0063083172 0.70924228
0.012197427 0.005421102 0.70362031
0.012165398 0.0047309697 0.70319068
0.012165635 0.0040552318 0.70319384
0.012165918 0.0033794343 0.70319772
0.012166156 0.0027036369 0.70320082
0.012166297 0.00202775 0.70320278
0.012166297 0.0013518035 0.70320278
0.012684555 0.00070473552 0.71015376
0.012686458 2.9802322e-08 0.71017927
0.012685996 -0.00070476532 0.71017313
0.012685533 -0.001409471 0.71016687
0.01268507 -0.0021141768 0.71016067
0.012684555 -0.0028187633 0.71015376
0.012684092 -0.0035233498 0.71014756
0.012683629 -0.0042278767 0.71014142
0.012683166 -0.0049323142 0.71013516
0.012682703 -0.0056367218 0.7101289
0.012181557 -0.0060907602 0.70340741
0.012165918 -0.0067588389 0.70319772
0.012165966 -0.0074347258 0.70319831
0.012166061 -0.0081106722 0.70319957
0.012166156 -0.0087866485 0.70320088
0.012166202 -0.009462595 0.70320153
0.012166202 -0.010138482 0.70320153
0.012166202 -0.010814399 0.70320147
0.012664059 -0.011960506 0.70987886
0.012679155 -0.01267913 0.71008134
0.012680748 -0.013385206 0.71010274
0.012680748 -0.014089704 0.71010274
0.012680748 -0.01479423 0.71010274
0.012680748 -0.015498638 0.71010268
0.012680748 -0.016203135 0.71010274
0.012680748 -0.016907632 0.71010274
0.012680748 -0.017612159 0.71010274
0.012680748 -0.018316627 0.71010268
0.012680748 -0.019021094 0.71010268
0.012674119 -0.01971525 0.71001381
0.012647107 -0.020375878 0.70965147
0.012587243 -0.020978689 0.70884854
0.012167197 -0.020954579 0.70321476
0.012166345 -0.021629035 0.70320338
0.012166345 -0.022304982 0.70320344
0.012166297 -0.02298075 0.70320272
0.01216625 -0.023656577 0.70320213
0.012166202 -0.024332374 0.70320153
0.01267972 -0.026063859 0.71008897
0.012680697 -0.026770353 0.71010202
0.012680697 -0.02747485 0.71010202
0.012680697 -0.028179318 0.71010202
0.012680697 -0.028883785 0.71010202
0.012680697 -0.029588252 0.71010202
0.012680697 -0.030292749 0.71010202
0.012680697 -0.030997247 0.71010208
0.012680697 -0.031701744 0.71010208
0.012680697 -0.032406241 0.71010202
0.012680697 -0.033110708 0.71010202
0.012680697 -0.033815145 0.71010196
0.012677819 -0.034511805 0.71006346
0.01264363 -0.035121143 0.70960486
0.012537284 -0.035522282 0.70817852
0.012486872 -0.036073178 0.70750242
0.012483682 -0.036757499 0.70745957
0.012483333 -0.037449986 0.70745492
0.012483034 -0.038142592 0.70745087
0.012482735 -0.038835198 0.70744693
0.012482387 -0.039527565 0.70744222
0.012482088 -0.040220052 0.70743823
0.012481789 -0.040912539 0.70743424
0.01248149 -0.041604966 0.70743018
0.012481191 -0.042297363 0.70742619
0.012481042 -0.042990208 0.70742422
0.012480943 -0.04368329 0.70742279
0.012480843 -0.044376284 0.70742154
0.012478153 -0.045060009 0.70738542
0.012445775 -0.045634508 0.70695114
0.012357544 -0.0459975 0.70576781
0.012166297 -0.045961559 0.70320272
0.012166013 -0.046636373 0.70319897
0.012165351 -0.047309697 0.70319009
0.012182317 -0.04805243 0.7034176
0.0124789 -0.049915552 0.70739543
0.012493058 -0.050666302 0.70758539
0.012525082 -0.051491976 0.70801485
0.012529599 -0.052206635 0.70807546
0.012534118 -0.052921802 0.70813608
0.012538641 -0.053637475 0.70819676
0.012543167 -0.054353714 0.70825744
0.012547647 -0.055070192 0.70831752
0.012554195 -0.055796385 0.70840538
0.012598348 -0.056692541 0.70899755
0.013535567 0.066253036 0.71201295
0.013406326 0.064914852 0.71037072
0.01339099 0.06413579 0.71017587
0.013388654 0.063419968 0.71014619
0.013388654 0.062715292 0.71014619
0.013388654 0.062010646 0.71014619
0.013388654 0.06130597 0.71014613
0.013388654 0.060601264 0.71014619
0.013388654 0.059896618 0.71014619
0.013388654 0.059191972 0.71014619
0.013388654 0.058487296 0.71014619
0.013388654 0.05778265 0.71014619
0.013388654 0.057077944 0.71014619
0.013388654 0.056373298 0.71014619
0.013388654 0.055668652 0.71014619
0.013388654 0.054963946 0.71014619
0.013388654 0.05425933 0.71014619
0.013388654 0.053554654 0.71014619
0.013388654 0.052849948 0.71014619
0.013388654 0.052145302 0.71014619
0.013388654 0.051440656 0.71014619
0.013388654 0.05073595 0.71014619
0.013388654 0.050031275 0.71014619
0.013388654 0.049326628 0.71014619
0.013388654 0.048621982 0.71014619
0.013388654 0.047917336 0.71014619
0.013388654 0.04721266 0.71014619
0.013388654 0.046507984 0.71014619
0.013388654 0.045803279 0.71014625
0.013388654 0.045098633 0.71014619
0.013388654 0.044393986 0.71014619
0.013388654 0.043689281 0.71014619
0.013388654 0.042984635 0.71014619
0.013388654 0.042279989 0.71014619
0.013388871 0.041575968 0.71014893
0.013389034 0.040871799 0.71015108
0.013389251 0.040167779 0.71015382
0.013389469 0.039463729 0.7101565
0.013389632 0.0387595 0.71015859
0.013389849 0.03805536 0.71016133
0.013390012 0.037351102 0.71016347
0.013390229 0.036646932 0.71016622
0.013390446 0.035942823 0.71016896
0.013390609 0.035238504 0.71017104
0.013390827 0.034534246 0.71017385
0.013391044 0.033830017 0.71017659
0.013391207 0.033125639 0.71017861
0.013391424 0.03242135 0.71018136
0.013391587 0.031716913 0.7101835
0.013391805 0.031012595 0.71018624
0.013391642 0.030307442 0.71018416
0.013391316 0.029601842 0.71018004
0.01339099 0.028896362 0.71017587
0.013390664 0.028190881 0.71017176
0.013390338 0.02748543 0.71016759
0.013390012 0.026780069 0.71016341
0.013389632 0.026074558 0.71015859
0.013389306 0.025369257 0.71015441
0.01338898 0.024663925 0.7101503
0.013388871 0.023959041 0.71014893
0.013388925 0.023254514 0.71014965
0.013388925 0.022549808 0.71014965
0.01338898 0.021845192 0.7101503
0.013389034 0.021140605 0.71015102
0.013389088 0.020435989 0.71015173
0.013389143 0.019731402 0.71015239
0.013389197 0.019026786 0.71015304
0.013389251 0.01832217 0.71015382
0.013389306 0.017617524 0.71015447
0.013389414 0.016912967 0.71015584
0.013389469 0.016208291 0.7101565
0.013389523 0.015503675 0.71015728
0.013389577 0.014798999 0.71015793
0.013389632 0.014094383 0.71015859
0.01338974 0.013389736 0.71016002
0.013389795 0.01268512 0.71016067
0.013389849 0.011980444 0.71016139
0.013389903 0.011275709 0.7101621
0.013389957 0.010571033 0.71016276
0.013390066 0.0098663867 0.71016413
0.01339012 0.0091616809 0.71016484
0.013390175 0.0084569454 0.71016556
0.013390229 0.0077522397 0.71016616
0.013390338 0.0070475936 0.71016753
0.01337829 0.0063371062 0.71001452
0.012931603 0.0054448843 0.70433873
0.012892913 0.0047500432 0.70384705
0.012892863 0.0040714741 0.70384645
0.012892812 0.0033928454 0.70384586
0.012892762 0.0027142465 0.7038452
0.012892762 0.0020357072 0.7038452
0.01290602 0.0013585389 0.70401365
0.013400503 0.00070533156 0.71029675
0.013402516 2.9802322e-08 0.71032238
0.013402026 -0.00070536137 0.71031612
0.013401536 -0.0014106929 0.71030986
0.013400992 -0.0021159351 0.71030295
0.013400503 -0.0028211176 0.71029675
0.013400014 -0.00352633 0.71029055
0.013399524 -0.0042314231 0.71028435
0.013399035 -0.0049364865 0.71027803
0.013398545 -0.0056414604 0.71027189
0.013392728 -0.0063439012 0.71019793
0.012900522 -0.0067897141 0.70394379
0.012894475 -0.0074652135 0.70386696
0.012893668 -0.0081433654 0.70385671
0.012892913 -0.0088214576 0.70384717
0.012892158 -0.0094994605 0.70383751
0.012891402 -0.010177433 0.70382792
0.012897447 -0.01086098 0.70390469
0.013379212 -0.011970878 0.7100262
0.013394902 -0.012689888 0.71022558
0.013396424 -0.013396442 0.71024489
0.013396424 -0.014101475 0.71024495
0.013396424 -0.014806569 0.71024489
0.013396424 -0.015511662 0.71024489
0.013396424 -0.016216725 0.71024489
0.013396424 -0.016921788 0.71024489
0.013396424 -0.017626882 0.71024495
0.013396424 -0.018331945 0.71024495
0.013396424 -0.019037008 0.71024489
0.013388925 -0.019731045 0.71014965
0.013359935 -0.020391464 0.70978129
0.013295042 -0.02099213 0.70895672
0.012907987 -0.021060407 0.70403868
0.01289246 -0.021713644 0.70384139
0.012892107 -0.022391528 0.70383686
0.012891705 -0.023069352 0.70383173
0.012891402 -0.023747325 0.70382792
0.013381219 -0.025353849 0.71005172
0.013395663 -0.026086271 0.71023524
0.013396424 -0.026792794 0.71024489
0.013396424 -0.027497947 0.71024489
0.013396424 -0.028202981 0.71024489
0.013396424 -0.028908074 0.71024495
0.013396424 -0.029613137 0.71024489
0.013396424 -0.03031823 0.71024495
0.013396424 -0.031023264 0.71024489
0.013396424 -0.031728357 0.71024489
0.013396424 -0.03243342 0.71024489
0.013396424 -0.033138484 0.71024489
0.013396424 -0.033843577 0.71024489
0.013394902 -0.034544736 0.71022552
0.013369783 -0.035183638 0.7099064
0.013285678 -0.035661548 0.70883775
0.01324256 -0.036242753 0.70828986
0.013240541 -0.036934137 0.70826423
0.013240594 -0.037631124 0.70826483
0.013240701 -0.03832832 0.70826626
0.013240807 -0.039025515 0.70826763
0.013240913 -0.039722741 0.70826894
0.013240966 -0.040419757 0.7082696
0.013241072 -0.041116983 0.70827091
0.013241178 -0.041814238 0.70827234
0.013241231 -0.042511314 0.70827299
0.013241338 -0.043208569 0.70827436
0.013241444 -0.043905824 0.70827568
0.013241497 -0.044602901 0.70827633
0.0132312 -0.045264632 0.70814556
0.013179746 -0.045782238 0.7074917
0.013044539 -0.045999169 0.70577371
0.01289236 -0.046141058 0.70384002
0.012892712 -0.046820909 0.70384455
0.012894273 -0.04750523 0.70386434
0.012925223 -0.048299491 0.70425761
0.013241285 -0.050177485 0.70827365
0.013282257 -0.051031768 0.70879424
0.013296113 -0.051784843 0.70897031
0.013301524 -0.05250597 0.70903903
0.013306887 -0.053227544 0.70910728
0.013312307 -0.053949863 0.70917606
0.013317731 -0.054672778 0.70924503
0.013323107 -0.05539608 0.70931333
0.013338935 -0.056163907 0.70951444
0.014222655 0.064713091 0.71170735
0.014204166 0.063918769 0.71148419
0.014204166 0.06320855 0.71148425
0.014204224 0.062498569 0.71148491
0.014204224 0.06178838 0.71148491
0.014204224 0.061078191 0.71148491
0.014204281 0.06036821 0.71148562
0.014204281 0.059657991 0.71148556
0.01420434 0.05894801 0.71148634
0.01420434 0.058237791 0.71148628
0.01420434 0.057527602 0.71148628
0.014204398 0.056817591 0.71148705
0.014204398 0.056107402 0.711487
0.014204456 0.055397421 0.71148771
0.014204456 0.054687142 0.71148771
0.014204514 0.053977191 0.71148843
0.014204514 0.053266943 0.71148849
0.014204514 0.052556723 0.71148843
0.014204572 0.051846713 0.71148908
0.014204572 0.051136494 0.71148914
0.01420463 0.050426453 0.7114898
0.01420463 0.049716234 0.7114898
0.014204688 0.049006194 0.71149051
0.014204688 0.048295945 0.71149051
0.014204688 0.047585696 0.71149051
0.014204746 0.046875685 0.71149123
0.014204746 0.046165437 0.71149123
0.014204804 0.045455396 0.71149194
0.014204804 0.044745177 0.71149188
0.014205037 0.044035643 0.71149468
0.014205269 0.04332608 0.71149755
0.014205443 0.042616338 0.71149963
0.014205676 0.041906744 0.71150243
0.014205907 0.041197151 0.71150523
0.014206082 0.040487349 0.71150738
0.014206314 0.039777696 0.71151012
0.014206489 0.039067864 0.71151221
0.014206721 0.038358122 0.71151507
0.014206953 0.03764841 0.71151787
0.014207128 0.036938578 0.71151996
0.014207359 0.036228776 0.71152282
0.014207592 0.035519004 0.71152556
0.014207766 0.034809023 0.71152765
0.014207999 0.034099221 0.71153045
0.014208173 0.033389211 0.71153259
0.014208405 0.032679349 0.71153539
0.014208638 0.031969458 0.7115382
0.014208812 0.031259447 0.71154034
0.014209044 0.030549467 0.71154314
0.014209277 0.029839516 0.71154588
0.014209451 0.029129386 0.71154797
0.014209684 0.028419405 0.71155083
0.014209858 0.027709216 0.71155292
0.014210091 0.026999205 0.71155572
0.014210265 0.026289016 0.71155787
0.014209858 0.025577784 0.71155286
0.01420951 0.02486667 0.71154869
0.014209161 0.024155587 0.71154451
0.014208812 0.023444593 0.71154028
0.014208464 0.022733539 0.71153605
0.014208115 0.022022605 0.71153188
0.014207766 0.021311671 0.71152765
0.014207359 0.020600677 0.71152276
0.014207011 0.019889832 0.71151859
0.014206663 0.019178987 0.71151435
0.014206314 0.018468231 0.71151018
0.014205965 0.017757446 0.71150595
0.014205617 0.01704675 0.71150172
0.014205211 0.016335994 0.71149683
0.014204863 0.015625328 0.7114926
0.014204514 0.014914751 0.71148843
0.014204456 0.014204472 0.71148765
0.014204456 0.013494253 0.71148777
0.014204456 0.012784034 0.71148771
0.014204456 0.012073785 0.71148771
0.014204456 0.011363566 0.71148771
0.014204456 0.010653347 0.71148765
0.014204456 0.0099431574 0.71148765
0.014204514 0.0092329979 0.71148837
0.014204863 0.0085229278 0.71149254
0.014205211 0.0078128874 0.71149683
0.014205559 0.0071028173 0.711501
0.014194012 0.0063872933 0.71136165
0.014077904 0.0056311488 0.7099601
0.01363422 0.0047719777 0.70460439
0.013634166 0.0040902793 0.70460367
0.013634166 0.0034085512 0.70460373
0.01363422 0.0027268827 0.70460433
0.013634701 0.0020452142 0.70461023
0.014100011 0.0014100075 0.71022689
0.014117656 0.00070589781 0.71043998
0.014119779 -0 0.71046555
0.014119263 -0.00070595741 0.71045935
0.014118689 -0.0014118552 0.71045238
0.014118172 -0.0021177232 0.71044618
0.014117656 -0.0028235316 0.71043992
0.01411714 -0.0035292804 0.71043372
0.014116623 -0.0042349696 0.71042752
0.014116107 -0.0049405992 0.7104212
0.014115592 -0.0056462288 0.71041501
0.014109401 -0.006349206 0.71034026
0.014078816 -0.0070394278 0.70997113
0.01363331 -0.0074982941 0.70459336
0.013632614 -0.0081795752 0.70458496
0.013632401 -0.0088610351 0.70458239
0.01363224 -0.0095425546 0.70458049
0.01363208 -0.010224015 0.70457852
0.014042118 -0.011233687 0.70952809
0.014095607 -0.011981249 0.71017379
0.014111865 -0.012700647 0.71037006
0.014113355 -0.013407677 0.710388
0.014113355 -0.014113337 0.71038806
0.014113355 -0.014818996 0.710388
0.014113355 -0.015524656 0.710388
0.014113355 -0.016230315 0.710388
0.014113355 -0.016936004 0.71038806
0.014113355 -0.017641693 0.71038806
0.014113355 -0.018347353 0.710388
0.014113355 -0.019053012 0.71038806
0.014104877 -0.01974678 0.71028566
0.014073855 -0.020407081 0.70991123
0.014003692 -0.021005511 0.70906425
0.013672471 -0.021192312 0.70506608
0.013631972 -0.021811187 0.70457721
0.013631759 -0.022492409 0.70457464
0.013631759 -0.023173988 0.70457464
0.013633952 -0.023859411 0.70460111
0.01409818 -0.025376707 0.71020484
0.014112783 -0.026108652 0.71038115
0.014113355 -0.026815385 0.710388
0.014113355 -0.027521014 0.71038806
0.014113355 -0.028226674 0.710388
0.014113355 -0.028932363 0.71038806
0.014113355 -0.029638022 0.710388
0.014113355 -0.030343682 0.71038806
0.014113355 -0.031049371 0.71038806
0.014113355 -0.03175503 0.710388
0.014113355 -0.03246069 0.710388
0.014113355 -0.033166409 0.71038806
0.014113355 -0.033872038 0.71038806
0.014113355 -0.034577698 0.710388
0.014101385 -0.035253465 0.71024352
0.014049102 -0.035825193 0.70961243
0.014027889 -0.036472499 0.70935637
0.014027889 -0.037173897 0.70935637
0.014027889 -0.037875265 0.70935637
0.014027889 -0.038576663 0.70935631
0.014027889 -0.03927806 0.70935637
0.014027889 -0.039979458 0.70935637
0.014027889 -0.040680856 0.70935631
0.014027209 -0.041380256 0.70934814
0.014026247 -0.042078733 0.70933652
0.014025341 -0.04277727 0.70932555
0.014024379 -0.043475568 0.70931399
0.014023473 -0.044173896 0.70930308
0.014021832 -0.04486987 0.70928323
0.01399388 -0.045480102 0.70894581
0.013913359 -0.045914054 0.70797384
0.013731148 -0.045999318 0.70577437
0.013633043 -0.046352357 0.70459014
0.01363315 -0.047034353 0.70459145
0.013640161 -0.047740579 0.70467603
0.014017137 -0.049760818 0.70922661
0.014022398 -0.050480604 0.70929003
0.014085151 -0.051410794 0.71004754
0.014091834 -0.052139759 0.71012825
0.014098466 -0.052869231 0.71020836
0.014105048 -0.053599179 0.71028781
0.014111636 -0.054329813 0.71036726
0.014118287 -0.055061311 0.71044755
0.014128448 -0.055807352 0.71057022
0.015106051 0.064740241 0.71368778
0.015073785 0.063884169 0.71331686
0.01507366 0.063165843 0.71331537
0.015073597 0.062447757 0.71331471
0.015073535 0.061729729 0.713314
0.015073473 0.061011702 0.71331322
0.015073349 0.060293406 0.71331179
0.015073286 0.059575349 0.71331108
0.015073224 0.058857352 0.71331036
0.015073099 0.058139116 0.71330899
0.015073037 0.057421118 0.71330822
0.015072974 0.05670312 0.7133075
0.015072974 0.055985361 0.7133075
0.015072913 0.055267394 0.71330678
0.015072851 0.054549396 0.71330607
0.015072788 0.053831398 0.71330535
0.015072726 0.053113461 0.71330464
0.015072726 0.052395701 0.71330464
0.015072663 0.051677734 0.71330392
0.015072601 0.050959766 0.71330321
0.015072539 0.050241798 0.71330249
0.015072539 0.049524069 0.71330249
0.015072539 0.04880631 0.71330249
0.015072539 0.04808858 0.71330249
0.015072539 0.047370851 0.71330249
0.015072539 0.046653092 0.71330255
0.015072539 0.045935392 0.71330249
0.015072539 0.045217633 0.71330255
0.015072539 0.044499844 0.71330255
0.015072539 0.043782175 0.71330249
0.015072539 0.043064415 0.71330249
0.015072539 0.042346656 0.71330255
0.015072539 0.041628927 0.71330249
0.015072539 0.040911198 0.71330249
0.015072539 0.040193468 0.71330255
0.015072539 0.039475739 0.71330249
0.015072539 0.03875795 0.71330249
0.015072539 0.038040221 0.71330249
0.015072539 0.037322521 0.71330249
0.015072539 0.036604762 0.71330249
0.015072539 0.035887003 0.71330255
0.015072539 0.035169303 0.71330249
0.015072539 0.034451514 0.71330249
0.015072539 0.033733815 0.71330249
0.015072601 0.033016145 0.71330321
0.015072601 0.032298476 0.71330321
0.015072601 0.031580687 0.71330321
0.015072601 0.030862957 0.71330327
0.015072601 0.030145228 0.71330321
0.015072601 0.029427469 0.71330321
0.015072601 0.028709739 0.71330321
0.015072601 0.02799201 0.71330321
0.015072601 0.027274251 0.71330321
0.015072601 0.026556492 0.71330321
0.015214655 0.026082307 0.71493626
0.015290022 0.02548337 0.71580273
0.015331914 0.024823129 0.71628433
0.015374037 0.024159193 0.71676868
0.015416328 0.023491561 0.71725482
0.015458917 0.022820324 0.71774441
0.015501743 0.022145361 0.7182368
0.015544873 0.021466732 0.71873254
0.015588176 0.020784259 0.71923041
0.015631722 0.020097941 0.71973103
0.01566259 0.019391805 0.72008586
0.015641976 0.018621415 0.71984887
0.015591307 0.01781866 0.71926636
0.0155409 0.017021 0.71868694
0.015490817 0.016228497 0.7181111
0.015441056 0.01544109 0.71753907
0.015391549 0.01465866 0.71696985
0.015342424 0.013881266 0.71640515
0.015293611 0.01310885 0.71584404
0.015245107 0.012341291 0.71528637
0.015194062 0.011576444 0.71469951
0.015072663 0.010766208 0.71330392
0.015073722 0.010049164 0.71331614
0.015074844 0.0093320906 0.71332896
0.015075902 0.0086148083 0.71334112
0.015076961 0.0078974366 0.71335334
0.015078083 0.0071800649 0.71336627
0.015067435 0.0064574778 0.71324384
0.014923525 0.0056851804 0.7115894
0.014402111 0.0048007071 0.70559514
0.014402793 0.0041150749 0.70560288
0.014403021 0.0034293234 0.70560557
0.014403078 0.0027434528 0.70560622
0.014761524 0.0021088123 0.70972699
0.014817459 0.0014111996 0.71037006
0.014836017 0.00070646405 0.71058345
0.014838189 2.9802322e-08 0.71060836
0.014837646 -0.00070652366 0.71060216
0.014837103 -0.0014130473 0.71059585
0.01483656 -0.0021194816 0.71058965
0.014836017 -0.0028259158 0.71058339
0.014835474 -0.0035322309 0.71057707
0.014834931 -0.0042385459 0.71057087
0.014834388 -0.0049448013 0.71056467
0.014833785 -0.0056509674 0.71055776
0.014827274 -0.0063545406 0.7104829
0.014794746 -0.0070450902 0.71010894
0.014713068 -0.007706821 0.70916992
0.014400292 -0.008228749 0.70557415
0.01439961 -0.0089140534 0.70556635
0.014401201 -0.0096007884 0.70558465
0.01440285 -0.010287762 0.7056036
0.014757882 -0.011244088 0.70968515
0.014813247 -0.01199162 0.71032161
0.014830107 -0.012711525 0.71051544
0.014831494 -0.013418943 0.71053135
0.014831494 -0.014125228 0.71053141
0.014831494 -0.014831454 0.71053135
0.014831494 -0.015537739 0.71053141
0.014831494 -0.016244024 0.71053141
0.014831494 -0.01695025 0.71053135
0.014831494 -0.017656535 0.71053141
0.014831494 -0.018362761 0.71053141
0.014831494 -0.019069046 0.71053141
0.014821974 -0.019762605 0.71042192
0.014788869 -0.020422697 0.71004134
0.014713245 -0.021018893 0.70917195
0.014432534 -0.021305144 0.70594484
0.014403021 -0.021947473 0.70560557
0.014402964 -0.022633225 0.70560491
0.014402964 -0.023319066 0.70560485
0.014438531 -0.024064183 0.7060138
0.014816375 -0.025399506 0.71035755
0.014831192 -0.026131153 0.71052796
0.014831494 -0.026837915 0.71053141
0.014831494 -0.0275442 0.71053135
0.014831494 -0.028250456 0.71053141
0.014831494 -0.028956711 0.71053135
0.014831494 -0.029662967 0.71053135
0.014831494 -0.030369222 0.71053135
0.014831494 -0.031075537 0.71053141
0.014831494 -0.031781763 0.71053141
0.014831494 -0.032488018 0.71053135
0.014831494 -0.033194304 0.71053141
0.014831433 -0.03390041 0.7105307
0.014831433 -0.034606636 0.7105307
0.01483089 -0.035311639 0.71052444
0.014822575 -0.035997689 0.71042889
0.014819084 -0.036694884 0.71038878
0.014819084 -0.037400544 0.71038872
0.014819084 -0.038106203 0.71038872
0.014819023 -0.038811684 0.71038806
0.014819023 -0.039517343 0.710388
0.014819023 -0.040223062 0.71038806
0.014819023 -0.040928721 0.71038806
0.014819023 -0.041634381 0.710388
0.014819023 -0.04234004 0.71038806
0.014819023 -0.0430457 0.710388
0.014819023 -0.043751389 0.71038806
0.014815834 -0.044447482 0.71035135
0.014793007 -0.045083433 0.71008891
0.014744939 -0.045639098 0.70953631
0.014633872 -0.045992166 0.70825946
0.014444762 -0.046085685 0.70608544
0.014402111 -0.046635389 0.70559508
0.014401485 -0.047319144 0.70558792
0.014432477 -0.04810822 0.70594418
0.014833363 -0.050150871 0.71055293
0.014900121 -0.051086068 0.71132028
0.014916508 -0.051852614 0.71150875
0.014924807 -0.052592129 0.71160412
0.014933115 -0.053332537 0.71169966
0.014941677 -0.054074615 0.71179807
0.014951902 -0.054823607 0.71191561
0.014962204 -0.05557391 0.71203405
0.015046308 -0.056602776 0.71300095
0.015873166 0.0057720542 0.71421206
0.015216832 0.0048417449 0.70700967
0.015218104 0.0041504204 0.70702362
0.015220043 0.0034591258 0.7070449
0.015227865 0.002768755 0.70713073
0.015487514 0.0021119416 0.70998007
0.015541104 0.0014128387 0.71056819
0.015556664 0.00070714951 0.7107389
0.015557931 -0 0.71075279
0.015557361 -0.0007071197 0.71074659
0.015556728 -0.0014142394 0.71073955
0.015556158 -0.0021212399 0.71073329
0.015555588 -0.0028282702 0.7107271
0.015555018 -0.0035352111 0.71072078
0.015554449 -0.0042420924 0.71071458
0.015553879 -0.0049489439 0.71070832
0.015553245 -0.0056557059 0.71070135
0.015547741 -0.0063604414 0.71064103
0.015517947 -0.0070536137 0.71031404
0.015436536 -0.0077182353 0.70942062
0.015218528 -0.0083009899 0.70702833
0.015218711 -0.0089928508 0.7070303
0.015220104 -0.0096855164 0.70704556
0.015218467 -0.010376215 0.70702755
0.015485192 -0.01126197 0.70995462
0.015537692 -0.012006372 0.7105307
0.015550525 -0.012723148 0.71067154
0.015550841 -0.013430268 0.71067494
0.015550841 -0.014137119 0.710675
