# .PCD v0.7 - Point Cloud Data file format
VERSION 0.7
FIELDS x y z
SIZE 4 4 4
TYPE F F F
COUNT 1 1 1
WIDTH 1305
HEIGHT 1
VIEWPOINT 0 0 0 1 0 0 0
POINTS 1305
DATA ascii
-0.008381879 -0.011874288 0.70865512
-0.0083748084 -0.012562215 0.70851296
-0.0083634192 -0.013242066 0.70828378
-0.0084595261 -0.014099151 0.7102173
-0.008768796 -0.015345365 0.71643931
-0.0087582236 -0.016056716 0.71622658
-0.0087476773 -0.016766369 0.71601444
-0.0087371552 -0.017474324 0.71580273
-0.0087490352 -0.01822713 0.71604168
-0.00775444 0.01903367 0.7102145
-0.007694867 0.018187881 0.70890707
-0.0071052401 0.016148299 0.69596624
-0.0070560258 0.015394956 0.69488615
-0.0070359968 0.014711648 0.69444656
-0.0070629623 0.014125943 0.69503844
-0.007095058 0.013545126 0.69574285
-0.0071274731 0.012959063 0.69645417
-0.0071601858 0.012367606 0.69717222
-0.0071890061 0.011763841 0.69780469
-0.0071960441 0.011121184 0.69795918
-0.0071689421 0.010427535 0.69736439
-0.0071267555 0.0097182989 0.69643849
-0.0070850626 0.0090173781 0.69552338
-0.0070438287 0.0083245337 0.69461846
-0.0070030973 0.0076397359 0.69372451
-0.0069628097 0.006962806 0.69284028
-0.0069230078 0.0062936544 0.69196677
-0.006883658 0.0056320727 0.69110316
-0.0068447287 0.0049779713 0.69024873
-0.0068234182 0.0043422282 0.68978101
-0.0068284892 0.0037246346 0.68989229
-0.006834521 0.0031066239 0.69002467
-0.0068405634 0.0024874806 0.69015729
-0.0068463469 0.0018672347 0.69028425
-0.0068535656 0.0012460947 0.69044268
-0.0068640518 0.00062400103 0.69067287
-0.0071843304 -0 0.69770211
-0.0072000837 -0.00065454841 0.69804788
-0.0072205681 -0.0013128221 0.69849741
-0.0072411969 -0.0019748509 0.69895017
-0.0072619161 -0.0026406944 0.69940495
-0.0072717806 -0.0033053458 0.69962144
-0.007257476 -0.0039585829 0.69930744
-0.007215552 -0.0045917034 0.69838738
-0.0070299665 -0.0051126778 0.69431418
-0.0070531094 -0.0057707131 0.69482219
-0.0070839333 -0.006439954 0.6954987
-0.0071162465 -0.0071162283 0.69620788
-0.0071528428 -0.0078030527 0.69701105
-0.0071928212 -0.0085006058 0.69788849
-0.0072368644 -0.0092105567 0.69885504
-0.0072875312 -0.0099375248 0.69996703
-0.007343424 -0.010681331 0.70119375
-0.0074172993 -0.011463076 0.70281512
-0.0076362942 -0.012495756 0.70762151
-0.0076477844 -0.01320976 0.7078737
-0.0077360454 -0.014065534 0.70981079
-0.0079828305 -0.015239954 0.71522713
-0.0079954881 -0.015990973 0.71550488
-0.0079872347 -0.016700536 0.71532375
-0.0079776654 -0.017405838 0.71511376
-0.0079957563 -0.018172175 0.71551079
-0.0076947282 0.020775795 0.72579193
-0.0070457458 0.018318921 0.71012414
-0.0069916463 0.017479151 0.70881796
-0.006459285 0.015502304 0.69596571
-0.0064228927 0.014772654 0.69508708
-0.0064369808 0.014161378 0.69542718
-0.0064663053 0.013579309 0.69613516
-0.0064959223 0.012991875 0.69685018
-0.006525788 0.012398988 0.69757122
-0.0065552117 0.011799365 0.69828159
-0.0065697376 0.01116854 0.6986323
-0.0065578097 0.010492504 0.69834429
-0.0065192007 0.0097788274 0.69741219
-0.0064808261 0.009073168 0.69648576
-0.0064428765 0.0083757639 0.69556957
-0.0064053927 0.007686466 0.69466466
-0.006368319 0.0070051551 0.69376957
-0.0063316957 0.006331712 0.6928854
-0.0062954905 0.0056659281 0.69201136
-0.0062596747 0.0050077736 0.69114667
-0.0062296428 0.004360795 0.69042164
-0.0062322351 0.003739357 0.69048423
-0.006237762 0.0031189024 0.69061762
-0.0062432764 0.0024973154 0.69075078
-0.0062488229 0.0018746555 0.69088471
-0.006254469 0.0012509227 0.69102097
-0.006544569 0.0006544888 0.69802463
-0.0065554343 2.9802322e-08 0.69828689
-0.0065673538 -0.00065672398 0.69857472
-0.0065856013 -0.0013171136 0.69901526
-0.0066043269 -0.0019812882 0.6994673
-0.006622503 -0.0026490092 0.69990611
-0.006624144 -0.0033120513 0.69994581
-0.0066082957 -0.0039649606 0.69956315
-0.0065870495 -0.0046109259 0.69905019
-0.0065633841 -0.0052506924 0.69847888
-0.0065332479 -0.0058799088 0.69775128
-0.0064704716 -0.0064704418 0.69623578
-0.0064897593 -0.0071387291 0.69670141
-0.0065217461 -0.0078260601 0.69747365
-0.0065574385 -0.0085246563 0.69833535
-0.0065971543 -0.0092360377 0.69929421
-0.0066415919 -0.0099623501 0.70036697
-0.0066924784 -0.010707945 0.70159549
-0.006751122 -0.011476904 0.70301127
-0.00682241 -0.012280315 0.70473224
-0.0069071446 -0.013123572 0.70677799
-0.0070291548 -0.014058292 0.70972359
-0.0072182231 -0.015158236 0.71428812
-0.0072388249 -0.015925407 0.71478546
-0.0072327373 -0.016635299 0.71463847
-0.0072245565 -0.017338902 0.71444094
-0.007266589 -0.018166482 0.71545571
-0.0069030286 0.02147612 0.72519571
-0.0068943235 0.020682961 0.72496217
-0.0063872007 0.018451959 0.71135879
-0.0063378043 0.017605036 0.71003383
-0.0058541666 0.015611112 0.69706035
-0.0058136377 0.014857113 0.69597322
-0.0058088861 0.014199495 0.69584578
-0.005834376 0.013613552 0.69652951
-0.0058611664 0.013024837 0.69724816
-0.0058881822 0.012430638 0.69797283
-0.0059154704 0.011830956 0.69870484
-0.0059355008 0.011211514 0.69924212
-0.0059339465 0.010549247 0.69920045
-0.0059040347 0.0098400414 0.69839811
-0.0058690645 0.0091296732 0.69746
-0.0058345064 0.0084276199 0.69653308
-0.0058003315 0.0077337623 0.6956163
-0.0057665757 0.0070480406 0.69471085
-0.0057331896 0.0063701868 0.69381529
-0.0057002082 0.0057002306 0.69293058
-0.005667605 0.005037874 0.692056
-0.0056354939 0.0043831766 0.69119459
-0.0056316783 0.0037544668 0.69109225
-0.0056362459 0.0031312704 0.69121474
-0.0056412686 0.0025072694 0.69134951
-0.0056463 0.0018821061 0.69148445
-0.0056513408 0.0012558401 0.69161975
-0.0056809899 0.00063124299 0.692415
-0.0059217885 -0 0.69887435
-0.0059316726 -0.00065907836 0.69913948
-0.0059461771 -0.0013213456 0.69952852
-0.0059631621 -0.0019877255 0.69998413
-0.0059755594 -0.0026558042 0.70031673
-0.0059703798 -0.0033168793 0.70017779
-0.0059523112 -0.0039681792 0.69969314
-0.0059332033 -0.004614681 0.6991806
-0.0059142401 -0.0052570701 0.69867188
-0.0058953753 -0.0058953464 0.69816577
-0.0058757914 -0.0065286458 0.69764048
-0.0058631664 -0.0071660876 0.69730186
-0.005887229 -0.0078496337 0.69794732
-0.005919233 -0.0085499883 0.69880575
-0.0059542609 -0.0092621744 0.69974542
-0.0059933332 -0.0099888742 0.7007935
-0.0060382797 -0.010734677 0.70199919
-0.0060891421 -0.0115017 0.70336354
-0.0061496841 -0.012299359 0.70498753
-0.0062244725 -0.013140559 0.70699376
-0.0063245767 -0.014054596 0.70967895
-0.0064666853 -0.015088916 0.71349096
-0.0064873444 -0.015857965 0.71404517
-0.0064841164 -0.016570508 0.71395856
-0.0064810524 -0.017282814 0.71387643
-0.0065446929 -0.018179715 0.71558344
-0.0061107473 0.021387637 0.72443289
-0.0061030197 0.020597696 0.72419965
-0.0057192603 0.018587619 0.71261871
-0.0056744753 0.017732739 0.71126723
-0.0052409661 0.015722871 0.69818491
-0.0052037034 0.014960676 0.69706041
-0.0051820511 0.014250636 0.69640696
-0.0051992456 0.013648033 0.69692588
-0.0052231611 0.013057888 0.69764763
-0.0052473173 0.012462407 0.6983766
-0.0052716983 0.011861295 0.69911236
-0.0052939462 0.011249661 0.69978374
-0.0053000026 0.01060003 0.69996649
-0.0052811326 0.0099021196 0.69939703
-0.0052496362 0.0091868639 0.69844657
-0.0052185329 0.0084801316 0.69750798
-0.0051877764 0.0077817142 0.69657981
-0.0051573999 0.0070914328 0.69566309
-0.0051273769 0.0064092278 0.69475704
-0.0050976826 0.0057348907 0.69386089
-0.0050683487 0.0050683618 0.69297576
-0.0050393324 0.0044094324 0.69210005
-0.0050264844 0.0037698448 0.69171238
-0.0050299587 0.0031437278 0.69181716
-0.0050344588 0.0025172532 0.69195294
-0.0050389674 0.0018896163 0.69208908
-0.0050434652 0.0012608767 0.69222474
-0.0050539365 0.00063174963 0.69254076
-0.0052834214 2.9802322e-08 0.69946611
-0.0052922731 -0.00066152215 0.6997332
-0.0053037438 -0.0013259351 0.70007938
-0.0053178067 -0.0019941926 0.70050377
-0.0053227758 -0.0026613772 0.70065367
-0.0053123594 -0.0033202171 0.70033944
-0.0052952571 -0.0039714277 0.69982326
-0.0052782446 -0.0046184659 0.69930989
-0.0052613411 -0.005261302 0.69879973
-0.0052445652 -0.0059001148 0.69829357
-0.0052278764 -0.0065348446 0.69778985
-0.0052255373 -0.0071851015 0.69771928
-0.0052491603 -0.007873714 0.69843221
-0.0052772225 -0.0085754991 0.69927907
-0.0053079166 -0.0092888474 0.70020527
-0.0053418833 -0.010016024 0.70123029
-0.0053807623 -0.010761499 0.70240366
-0.0054246541 -0.011527359 0.7037282
-0.0054785381 -0.012326688 0.70535433
-0.0055408492 -0.013159513 0.70723474
-0.0056235516 -0.014058858 0.70973039
-0.0057260226 -0.015030801 0.71282279
-0.0057440074 -0.015796006 0.71336555
-0.0057413029 -0.016506195 0.71328384
-0.0057383161 -0.017214924 0.71319377
-0.0058251363 -0.018203557 0.71581376
-0.0062456005 -0.020298213 0.72850245
-0.0053315973 0.022088081 0.72390497
-0.0053248741 0.021299511 0.72367305
-0.0053181909 0.020512998 0.72344255
-0.0053115482 0.019728601 0.72321349
-0.0050014309 0.01786229 0.71251792
-0.0049625118 0.017014354 0.71117568
-0.00458543 0.015066415 0.6981706
-0.0045555942 0.014317632 0.69714159
-0.0045608906 0.013682693 0.69732428
-0.0045819231 0.013091207 0.69804966
-0.004603168 0.012494326 0.69878232
-0.0046245935 0.011891842 0.6995213
-0.0046459707 0.0112831 0.70025849
-0.0046571791 0.010645002 0.70064509
-0.004649132 0.0099624395 0.70036757
-0.0046224138 0.0092448592 0.69944608
-0.0045948373 0.008533299 0.69849503
-0.0045676054 0.0078301728 0.69755578
-0.0045406772 0.0071353614 0.69662714
-0.0045140814 0.0064486861 0.69570982
-0.004487779 0.0057700276 0.69480276
-0.0044617974 0.0050991774 0.69390666
-0.0044361153 0.0044361353 0.69302088
-0.0044167498 0.0037858188 0.69235301
-0.0044188686 0.0031563342 0.69242609
-0.0044227736 0.0025272965 0.69256079
-0.0044267499 0.001897186 0.69269788
-0.0044307336 0.0012659431 0.69283527
-0.004435889 0.00063371658 0.69301307
-0.0046402272 -0 0.70006049
-0.0046480657 -0.00066399574 0.70033073
-0.0046571079 -0.0013305843 0.70064265
-0.0046674386 -0.0020003319 0.70099896
-0.00466529 -0.0026658773 0.70092487
-0.0046521197 -0.0033229291 0.70047063
-0.004637131 -0.0039746761 0.69995368
-0.0046222205 -0.004622221 0.69943941
-0.004607406 -0.0052655935 0.69892848
-0.0045927032 -0.0059049129 0.69842142
-0.0045790249 -0.0065414608 0.69794965
-0.0045865197 -0.0072073936 0.69820821
-0.0046071615 -0.0078979433 0.69892007
-0.0046312329 -0.0086008608 0.69975024
-0.0046578571 -0.0093156695 0.70066851
-0.0046870825 -0.01004374 0.70167643
-0.0047202092 -0.010789037 0.70281893
-0.0047800229 -0.011608601 0.70488191
-0.0048089991 -0.012365967 0.70588124
-0.0048554824 -0.013179153 0.70748436
-0.0049251909 -0.014071971 0.70988852
-0.0049935039 -0.014980495 0.71224457
-0.0050068256 -0.015735716 0.71270394
-0.0050042504 -0.016442508 0.71261519
-0.0049983268 -0.01713711 0.71241087
-0.0050009782 -0.017860621 0.7125023
-0.0054752831 -0.020336777 0.72886056
-0.0045517413 0.022000074 0.72317266
-0.0045455093 0.021212399 0.72292185
-0.0045398278 0.020429224 0.72269332
-0.0045341603 0.019648015 0.72246528
-0.0043184999 0.017993778 0.71378773
-0.0042846324 0.017138541 0.71242499
-0.0039583528 0.015173733 0.69929659
-0.003930354 0.0144113 0.69817001
-0.0039213053 0.013724595 0.69780588
-0.0039374055 0.013124734 0.69845372
-0.0039557093 0.012526423 0.6991902
-0.0039741681 0.011922479 0.69993293
-0.003992816 0.011312991 0.70068324
-0.0040071825 0.010685802 0.70126134
-0.0040047504 0.010011882 0.70116347
-0.0039872108 0.0093034804 0.70045775
-0.0039632893 0.0085871518 0.6994952
-0.0039396379 0.0078793168 0.69854355
-0.0039162817 0.0071798563 0.69760382
-0.0038931866 0.006488651 0.69667453
-0.0038703764 0.0058055818 0.69575667
-0.0038478179 0.00513044 0.69484901
-0.0038255348 0.0044631362 0.69395238
-0.003804147 0.003804177 0.69309175
-0.0038032865 0.0031694174 0.69305718
-0.0038061889 0.0025374591 0.693174
-0.0038096248 0.0019048452 0.69331217
-0.0038130668 0.0012710094 0.69345075
-0.0038166689 0.00063610077 0.69359565
-0.0039922348 2.9802322e-08 0.70065987
-0.0039990041 -0.00066649914 0.70093226
-0.0040065818 -0.0013354719 0.70123714
-0.0040107751 -0.0020053685 0.70140588
-0.0040037348 -0.0026691556 0.70112264
-0.0039907983 -0.0033256114 0.70060205
-0.0039779143 -0.0039779246 0.70008367
-0.0039651282 -0.0046259761 0.69956917
-0.0039524096 -0.0052698851 0.69905746
-0.003939772 -0.0059096217 0.69854891
-0.0039311247 -0.0065518618 0.69820106
-0.003944065 -0.0072307885 0.69872171
-0.0039613312 -0.0079226494 0.6994164
-0.0039816215 -0.0086268187 0.70023286
-0.0040039504 -0.0093425512 0.70113128
-0.0040287096 -0.010071754 0.70212746
-0.0042893398 -0.011438221 0.71261442
-0.0042747753 -0.012111843 0.71202838
-0.0042571081 -0.012771308 0.71131754
-0.0042262818 -0.01338321 0.71007717
-0.0042377245 -0.014125735 0.71053761
-0.0042672507 -0.014935374 0.71172559
-0.0042763711 -0.015680015 0.71209264
-0.0042728302 -0.016379148 0.71195018
-0.0042678271 -0.017071277 0.71174884
-0.004262818 -0.017761707 0.71154726
-0.004257821 -0.018450528 0.71134621
-0.0042612324 -0.019175529 0.71148354
-0.0037986748 0.02203235 0.723441
-0.003776775 0.021149933 0.72238362
-0.0037677817 0.020346016 0.72194934
-0.0037630971 0.019568115 0.7217232
-0.0037584244 0.018792152 0.72149754
-0.0035967981 0.017264664 0.7136935
-0.0035686053 0.016415596 0.71233231
-0.0032986149 0.01451394 0.699296
-0.0032808988 0.013779819 0.69844055
-0.0032895834 0.013158351 0.69885987
-0.0033049022 0.012558639 0.69959956
-0.0033203771 0.011953384 0.70034671
-0.0033359975 0.011342376 0.70110101
-0.003350731 0.010722339 0.70181239
-0.003354548 0.010063648 0.70199668
-0.0033438948 0.009362936 0.70148224
-0.0033237056 0.0086416304 0.70050746
-0.0033037458 0.0079290271 0.69954371
-0.0032840369 0.0072248876 0.69859207
-0.0032645494 0.0065291226 0.69765115
-0.0032453039 0.0058416128 0.69672185
-0.0032262721 0.0051620305 0.69580299
-0.003207474 0.0044904947 0.69489539
-0.0031888937 0.0038266778 0.69399816
-0.0031825963 0.0031826198 0.69369411
-0.0031846266 0.0025477111 0.6937921
-0.0031875011 0.0019125044 0.69393092
-0.0031903929 0.001276195 0.69407052
-0.003193313 0.00063869357 0.69421154
-0.0032021652 2.9802322e-08 0.69463897
-0.0033447188 -0.00066891313 0.70152211
-0.0033501494 -0.0013400316 0.70178431
-0.0033486772 -0.0020091832 0.7017132
-0.0033392031 -0.0026713312 0.7012558
-0.003328392 -0.003328383 0.70073378
-0.0033176378 -0.003981173 0.70021451
-0.003306953 -0.0046297312 0.69969857
-0.0032963492 -0.0052741468 0.69918662
-0.0032858008 -0.0059144199 0.69867724
-0.0032843968 -0.0065687597 0.69860947
-0.00329725 -0.0072539747 0.69923007
-0.003311567 -0.0079477429 0.69992137
-0.0033281497 -0.0086531937 0.70072204
-0.0033466001 -0.009370476 0.70161289
-0.0033669129 -0.010100693 0.70259368
-0.0035730088 -0.011433631 0.71254492
-0.0035646954 -0.012119949 0.71214342
-0.0035549796 -0.012797892 0.71167433
-0.0035438414 -0.013466567 0.71113652
-0.0035390912 -0.014156342 0.71090722
-0.003547387 -0.014899015 0.71130776
-0.0035505623 -0.015622437 0.71146107
-0.0035470538 -0.016316444 0.71129167
-0.0035429019 -0.01700592 0.71109122
-0.0035387597 -0.017693788 0.71089125
-0.0035346271 -0.018380046 0.71069169
-0.0035305042 -0.019064724 0.71049261
-0.003526391 -0.019747794 0.71029395
-0.0030628878 0.022205949 0.72488642
-0.0030372264 0.021260619 0.72333759
-0.0030127745 0.02033627 0.72186178
-0.0029988249 0.019492358 0.72101986
-0.0029945734 0.018716067 0.72076327
-0.0028987667 0.017392635 0.71498084
-0.0028758785 0.016536295 0.71359938
-0.0026578153 0.01461798 0.70043814
-0.0026393128 0.013856411 0.69932139
-0.0026387116 0.013193578 0.69928509
-0.0026507492 0.012591034 0.70001161
-0.0026631933 0.011984408 0.70076269
-0.0026757545 0.01137197 0.70152086
-0.0026884244 0.010753721 0.70228553
-0.0026954527 0.010107964 0.70270973
-0.002691173 0.0094190836 0.70245147
-0.0026759503 0.0086968541 0.70153266
-0.0026597888 0.007979393 0.70055723
-0.0026438111 0.007270515 0.69959283
-0.0026280342 0.0065701008 0.69864058
-0.0026124348 0.0058780015 0.69769913
-0.0025970291 0.0051940978 0.69676924
-0.0025817943 0.0045181513 0.6958499
-0.0025667469 0.0038501322 0.69494164
-0.0025567275 0.0031958818 0.69433695
-0.0025582146 0.0025582314 0.69442666
-0.0025603448 0.0019202828 0.69455528
-0.0025626768 0.0012813807 0.69469595
-0.002565013 0.00064125657 0.69483697
-0.0025688151 -0 0.69506645
-0.0026852665 -0.00067129731 0.70209491
-0.0026870731 -0.0013435185 0.70220399
-0.0026822817 -0.0020116866 0.70191479
-0.0026735619 -0.0026735365 0.70138848
-0.0026648885 -0.0033311248 0.70086497
-0.0026562812 -0.0039844215 0.70034558
-0.0026477193 -0.0046335161 0.69982874
-0.0026392126 -0.0052784085 0.69931531
-0.0026313181 -0.00592044 0.69883889
-0.0026356892 -0.0065892041 0.69910264
-0.0026463179 -0.0072773397 0.69974416
-0.0026577238 -0.0079731643 0.7004326
-0.0026708082 -0.0086801052 0.7012223
-0.0026853704 -0.0093987882 0.70210117
-0.00270132 -0.010129929 0.70306385
-0.0028500836 -0.011400312 0.71204245
-0.002846465 -0.012097448 0.71182412
-0.0028416463 -0.012787372 0.71153331
-0.0028355822 -0.013468981 0.71116734
-0.0028317578 -0.014158785 0.71093649
-0.0028320809 -0.014868408 0.71095598
-0.0028301086 -0.015565604 0.71083695
-0.0028268048 -0.016254097 0.71063745
-0.0028235083 -0.016941041 0.71043855
-0.0028202198 -0.017626315 0.71024013
-0.002816939 -0.0183101 0.71004206
-0.0028136657 -0.018992245 0.70984447
-0.0028104 -0.019672781 0.70964742
-0.0028124359 -0.020390183 0.70977026
-0.0022954864 0.021424592 0.72475123
-0.0022766362 0.020489752 0.7232343
-0.0022434359 0.019443125 0.72056258
-0.002236879 0.018640697 0.72003484
-0.0021903748 0.017522991 0.71629256
-0.0021728878 0.016658843 0.71488529
-0.002008053 0.014725745 0.70162034
-0.0019933614 0.013953567 0.70043802
-0.0019858803 0.013239235 0.69983608
-0.0019932089 0.012623668 0.70042586
-0.0020025906 0.012015522 0.70118082
-0.002012053 0.011401623 0.70194232
-0.0020216131 0.010781944 0.70271158
-0.0020292795 0.010146409 0.70332855
-0.0020285372 0.0094665289 0.70326883
-0.0020198738 0.0087527931 0.70257163
-0.002007589 0.008030355 0.70158303
-0.0019954601 0.0073167086 0.700607
-0.0019834696 0.0066115856 0.69964206
-0.0019716297 0.0059148967 0.69868928
-0.0019599227 0.0052264929 0.69774717
-0.0019483615 0.0045462251 0.6968168
-0.0019369286 0.0038738847 0.69589674
-0.0019265045 0.0032108724 0.69505787
-0.0019267111 0.0025689602 0.6950745
-0.0019280795 0.0019281209 0.69518459
-0.0019298358 0.0012865663 0.69532597
-0.0019316023 0.00064387918 0.69546807
-0.0019336231 -0 0.69563073
-0.0020211977 -0.0006737113 0.7026782
-0.0020194277 -0.0013462603 0.70253575
-0.0020133744 -0.0020133555 0.7020486
-0.0020068237 -0.0026757717 0.7015214
-0.0020003079 -0.0033338368 0.70099705
-0.0019938343 -0.0039876401 0.70047611
-0.00198741 -0.0046372712 0.69995916
-0.0019810195 -0.0052827299 0.69944489
-0.0019769468 -0.0059308112 0.69911718
-0.0019832205 -0.0066107213 0.69962204
-0.0019911758 -0.0073009729 0.70026219
-0.00199974 -0.0079989433 0.7009514
-0.0020093923 -0.0087073445 0.70172817
-0.0020201087 -0.0094271302 0.70259053
-0.0020319535 -0.010159761 0.70354378
-0.0021293627 -0.011356562 0.71138263
-0.0021268688 -0.012052268 0.711182
-0.002124381 -0.012746274 0.71098173
-0.0021219074 -0.013438731 0.71078265
-0.002119431 -0.014129519 0.71058339
-0.0021169605 -0.014818728 0.71038455
-0.0021144869 -0.015506238 0.71018559
-0.0021120363 -0.016192228 0.7099883
-0.002109583 -0.016876668 0.70979089
-0.0021071353 -0.017559439 0.70959389
-0.0021046931 -0.018240631 0.70939744
-0.0021022484 -0.018920213 0.70920062
-0.0020998176 -0.019598246 0.709005
-0.0021071779 -0.020369381 0.70959735
-0.0015422243 0.021591157 0.72618771
-0.0015294553 0.020647645 0.72464633
-0.0014872062 0.01933372 0.71954638
-0.0014852672 0.018565834 0.71931243
-0.0014804451 0.017765343 0.71873027
-0.0014593974 0.016783059 0.71618962
-0.0014478011 0.015925825 0.71478981
-0.0013385009 0.014054269 0.70159614
-0.0013299758 0.013299793 0.70056701
-0.0013322552 0.01265645 0.70084214
-0.0013385421 0.012046903 0.70160109
-0.0013448833 0.011431515 0.70236659
-0.0013512903 0.010810316 0.7031399
-0.0013574138 0.010180622 0.70387918
-0.001359565 0.0095169544 0.70413876
-0.001355296 0.0088094473 0.70362347
-0.0013470001 0.0080820024 0.70262212
-0.0013388103 0.0073634684 0.70163339
-0.0013307194 0.0066536069 0.70065677
-0.0013227208 0.0059522688 0.6996913
-0.0013148226 0.0052593052 0.69873786
-0.0013070133 0.0045745671 0.69779521
-0.001299301 0.0038979352 0.69686425
-0.0012916746 0.003229171 0.69594371
-0.0012898908 0.0025798082 0.6957283
-0.0012906527 0.0019359887 0.69582033
-0.0012918235 0.0012918711 0.69596159
-0.0012930108 0.00064653158 0.696105
-0.0012943209 -0 0.69626307
-0.0012991991 -0.00064960122 0.69685197
-0.0013477681 -0.0013477504 0.70271474
-0.0013433599 -0.0020150244 0.70218265
-0.0013389806 -0.0026779473 0.70165402
-0.0013346296 -0.0033365488 0.70112884
-0.0013303119 -0.0039909184 0.7006076
-0.001326017 -0.0046410561 0.70008916
-0.0013217648 -0.0052870214 0.69957584
-0.0013217648 -0.0059479177 0.6995759
-0.0013264776 -0.0066323578 0.70014477
-0.001331765 -0.0073246956 0.70078301
-0.0013549208 -0.0081295371 0.70357817
-0.0013481551 -0.0087630153 0.70276147
-0.0013508806 -0.0094561577 0.70309043
-0.0013586453 -0.010189801 0.70402777
-0.0013676776 -0.010941416 0.70511806
-0.0014125003 -0.012006223 0.71052861
-0.0014108543 -0.012697667 0.71032995
-0.0014092178 -0.013387561 0.71013236
-0.0014075794 -0.014075786 0.70993465
-0.0014059448 -0.014762402 0.7097373
-0.0014043141 -0.015447438 0.70954043
-0.0014026813 -0.016130835 0.70934337
-0.0014010638 -0.016812742 0.70914817
-0.0013994443 -0.017493039 0.70895255
-0.0013978286 -0.018171757 0.70875764
-0.0013962166 -0.018848896 0.70856303
-0.0013951177 -0.019531637 0.70843035
-0.00140681 -0.020398736 0.70984173
-0.00077067089 0.020808131 0.72608119
-0.00074056967 0.019254804 0.71881413
-0.00073966477 0.018491656 0.71859562
-0.00073722599 0.01769346 0.71800685
-0.00073365209 0.016873986 0.71714407
-0.0007292974 0.016044557 0.71609271
-0.00067412201 0.01415658 0.7027722
-0.00066930719 0.01338616 0.70160979
-0.00066808466 0.012693644 0.70131463
-0.0006710185 0.012078375 0.70202291
-0.00067420834 0.011461556 0.70279306
-0.00067742873 0.010838866 0.70357049
-0.0006806773 0.010210186 0.70435482
-0.00068263774 0.0095569193 0.70482814
-0.00068189023 0.0088646114 0.7046476
-0.0006778622 0.0081343353 0.70367521
-0.00067371159 0.0074108541 0.70267308
-0.00066961412 0.0066961944 0.70168388
-0.00066556362 0.0059901178 0.70070601
-0.00066156435 0.005292505 0.69974053
-0.00065761036 0.0046032965 0.69878596
-0.00065370585 0.0039222538 0.69784331
-0.00064984494 0.003249228 0.69691122
-0.0006476767 0.0025907159 0.69638771
-0.00064805843 0.0019441843 0.69647992
-0.00064856646 0.0012971163 0.69660258
-0.00064916263 0.00064918399 0.69674647
-0.00064980122 2.9802322e-08 0.69690061
-0.00065100892 -0.00065100193 0.69719219
-0.00067444128 -0.0013488531 0.70284927
-0.00067223352 -0.0020166934 0.70231628
-0.00067004026 -0.0026801229 0.70178676
-0.00066786376 -0.0033393204 0.7012614
-0.00066569878 -0.0039941669 0.70073861
-0.0006635504 -0.0046448112 0.70021999
-0.00066179619 -0.005294323 0.6997965
-0.00066319574 -0.0059687793 0.7001344
-0.00066552288 -0.006655246 0.70069623
-0.00068508193 -0.0075359046 0.70541811
-0.00068136875 -0.0081764162 0.70452166
-0.00067769294 -0.0088100135 0.70363432
-0.00067758985 -0.0094862282 0.70360947
-0.00068136875 -0.010220528 0.70452178
-0.00068559829 -0.010969549 0.70554286
-0.00070356741 -0.011960655 0.70988095
-0.00070275064 -0.012649506 0.70968378
-0.00070193573 -0.013336748 0.70948702
-0.00070112274 -0.01402241 0.70929074
-0.00070031162 -0.014706552 0.709095
-0.00069950242 -0.015389025 0.70889956
-0.00069869222 -0.016069859 0.70870399
-0.00069788954 -0.016749322 0.70851016
-0.00069708587 -0.017427146 0.70831621
-0.00069628406 -0.018103391 0.70812255
-0.00069557043 -0.01878038 0.70795035
-0.0006963957 -0.019499063 0.70814955
-0.00070442603 -0.02042836 0.71008825
0 0.02737841 0.69739914
0 0.019946516 0.71837693
0 0.019178063 0.71810126
0 0.018417984 0.71788454
0 0.017653883 0.71760899
0 0.016876638 0.71717167
0 0.016089737 0.71658856
0 0.015289217 0.71579313
0 0.013482422 0.70277154
0 0.012743771 0.70195168
0 0.012110025 0.70244765
0 0.011491746 0.7032218
0 0.010867536 0.70400274
0 0.010237336 0.70479178
0 0.0095930099 0.70545012
0 0.0089122653 0.70553303
0 0.0081873834 0.7047413
0 0.0074588656 0.70372689
0 0.006739229 0.70272422
0 0.0060284436 0.70173436
0 0.0053262115 0.70075589
0 0.0046323836 0.69978976
0 0.0039469004 0.6988346
0 0.0032695532 0.69789141
0 0.002602309 0.69708747
0 0.0019524693 0.6971457
0 0.0013025105 0.69724822
0 0.0006518364 0.69739389
0 2.9802322e-08 0.69754338
0 -0.0006532371 0.69773412
0 -0.0013499558 0.70298469
0 -0.0020183921 0.70245075
0 -0.0026823878 0.70192039
0 -0.0033420622 0.70139349
0 -0.0039974749 0.70087057
0 -0.0046486259 0.7003504
0 -0.0053071082 0.70018148
0 -0.0059897006 0.70069617
0 -0.0066786408 0.70126188
0 -0.0075798333 0.70638311
0 -0.0082238317 0.70547622
0 -0.0088608265 0.70457852
0 -0.0095211267 0.7042107
0 -0.010251582 0.70502198
0 -0.011001825 0.70602953
0 -0.011913747 0.70921504
0 -0.012601644 0.70904183
0 -0.013286352 0.70884657
0 -0.013969511 0.70865172
0 -0.01465106 0.70845747
0 -0.015336126 0.70831883
0 -0.016037136 0.70836002
0 -0.016731888 0.70833445
0 -0.017402947 0.70808285
0 -0.018078804 0.7078945
0 -0.018785298 0.70799398
0 -0.019554317 0.70862597
0 -0.020463854 0.71038383
0 -0.021553993 0.71347803
0.00064994465 0.027947634 0.6969353
0.00064889836 0.027253747 0.69668269
0.00064785546 0.026562095 0.69643086
0.00064681587 0.025872618 0.69617993
0.00073558104 0.019860685 0.71760976
0.00073468831 0.019101918 0.71739417
0.00073379773 0.018344969 0.71717918
0.00073290931 0.017589837 0.71696472
0.00073198293 0.01683563 0.71674103
0.00073062541 0.016073793 0.71641338
0.00072867644 0.015302211 0.71594286
0.00067905977 0.013581246 0.70396429
0.00067431561 0.012812018 0.70281899
0.00067456957 0.012142301 0.70288026
0.0006777696 0.011522114 0.70365286
0.00068102154 0.010896355 0.70443791
0.00068430748 0.010264635 0.70523119
0.00068748923 0.0096248686 0.70599937
0.00068876479 0.0089539289 0.70630729
0.00068675278 0.0082410574 0.70582157
0.00068249559 0.0075074732 0.70479375
0.00067828828 0.0067828894 0.70377803
0.00067413505 0.0060672164 0.70277536
0.0006700299 0.0053602457 0.70178425
0.00066597696 0.0046618581 0.70080584
0.00066197023 0.0039718151 0.69983846
0.00065801386 0.003290087 0.69888335
0.00065410207 0.0026164353 0.69793898
0.00065359764 0.0019607842 0.69781715
0.0006539888 0.0013079643 0.69791162
0.00065454812 0.00065454841 0.69804668
0.00065515778 2.9802322e-08 0.69819385
0.00065588742 -0.00065585971 0.69836998
0.00067472941 -0.0013494492 0.70291889
0.00067321555 -0.0020196438 0.70255339
0.00067114807 -0.0026845932 0.70205426
0.00066896185 -0.003344804 0.7015264
0.00066678977 -0.0040007234 0.701002
0.00066488102 -0.0046541691 0.7005412
0.00066577789 -0.0053262115 0.7007578
0.00066786888 -0.0060108304 0.70126259
0.0006704643 -0.0067046285 0.70188916
0.00069312286 -0.0076242983 0.70735943
0.00068931951 -0.0082718134 0.70644122
0.0006855604 -0.0089122653 0.70553368
0.00068292487 -0.0095609128 0.70489746
0.00068555772 -0.010283351 0.70553303
0.00068965612 -0.011034489 0.70652246
0.00069464435 -0.011808962 0.70772678
0.0006971418 -0.012548506 0.70832968
0.00069664704 -0.013236314 0.70821023
0.00069584622 -0.013916939 0.70801693
0.00069544511 -0.01460433 0.70792007
0.0006973237 -0.015341103 0.70837355
0.00069949112 -0.016088247 0.70889688
0.00070007175 -0.016801685 0.70903701
0.00069918146 -0.017479509 0.70882201
0.00069815875 -0.018152118 0.70857519
0.00069858547 -0.0188618 0.70867819
0.00070079754 -0.019622296 0.70921218
0.00070691394 -0.020500481 0.71068889
0.00071917794 -0.021575332 0.71364969
0.0012961846 0.028516084 0.69648814
0.0012941039 0.027823269 0.69623691
0.0012920348 0.027132779 0.69598716
0.0012899674 0.026444376 0.6957376
0.0012879019 0.025758028 0.69548827
0.0012858477 0.025074035 0.69524032
0.0012838001 0.024392247 0.69499314
0.0014653364 0.019782066 0.71690655
0.001463565 0.019026369 0.71669269
0.001461798 0.018272489 0.71647942
0.0014600351 0.017520428 0.71626657
0.0014582765 0.016770214 0.71605432
0.0014565221 0.016021758 0.71584249
0.0014545101 0.015272409 0.71559966
0.0013684263 0.013684273 0.70520848
0.0013581248 0.0129022 0.70396495
0.0013536698 0.012183011 0.7034272
0.0013591235 0.011552572 0.70408547
0.0013656672 0.010925353 0.70487535
0.0013722742 0.010292053 0.70567292
0.00137894 0.0096525848 0.70647752
0.0013832877 0.0089913905 0.70700228
0.0013821212 0.0082927644 0.70686156
0.0013739455 0.0075567365 0.70587462
0.0013654256 0.0068271458 0.7048462
0.0013570057 0.0061065257 0.70382982
0.0013486941 0.0053947866 0.7028265
0.0013404785 0.0046916902 0.7018348
0.0013323677 0.0039970875 0.70085573
0.0013243491 0.0033109188 0.69988787
0.0013164316 0.0026328862 0.69893211
0.0013128058 0.0019692183 0.69849443
0.0013135949 0.001313597 0.69858968
0.001314544 0.00065726042 0.69870424
0.0013157736 2.9802322e-08 0.69885266
0.0013172001 -0.00065857172 0.69902486
0.0013203133 -0.0013203323 0.69940066
0.0013447584 -0.0020171106 0.70235151
0.0013425399 -0.00268507 0.70208371
0.0013390064 -0.0033474863 0.70165706
0.0013346757 -0.0040040016 0.70113432
0.0013329247 -0.0046651959 0.70092297
0.0013364571 -0.0053457916 0.70134938
0.001340582 -0.0060326159 0.70184731
0.0013971821 -0.006985873 0.70867956
0.0013924231 -0.0076583326 0.70810509
0.0013864835 -0.0083189011 0.7073881
0.0013791261 -0.0089643002 0.70650005
0.0013722471 -0.0096057057 0.70566964
0.0013753921 -0.010315418 0.70604926
0.0013823193 -0.011058509 0.70688546
0.0013866939 -0.011786878 0.70741355
0.001388689 -0.01249817 0.70765436
0.0013880677 -0.013186634 0.70757937
0.0013864835 -0.013864815 0.7073881
0.0013890776 -0.014585286 0.70770121
0.0013996303 -0.015395939 0.70897508
0.0014046376 -0.016153276 0.70957947
0.0014063432 -0.016876131 0.7097854
0.0014051261 -0.017564058 0.70963848
0.001402704 -0.018235147 0.70934612
0.0014030552 -0.018941224 0.70938849
0.0014242826 -0.019939929 0.71195084
0.0014212648 -0.020608336 0.71158659
0.0014401563 -0.021602362 0.71386701
0.0019387514 0.029081315 0.69604337
0.0019356554 0.028389663 0.69579422
0.001932562 0.027700067 0.69554538
0.0019294785 0.027012736 0.69529724
0.0019264049 0.02632755 0.69504982
0.001923341 0.025644541 0.6948033
0.0019202868 0.024963737 0.69455755
0.0019172423 0.024285078 0.69431257
0.0019142075 0.023608565 0.69406831
0.0019111824 0.022934198 0.69382489
0.0019090194 0.022271901 0.69365072
0.0021893352 0.019704044 0.71620882
0.0021866991 0.018951386 0.71599668
0.0021840692 0.018200576 0.71578509
0.0021814457 0.017451584 0.71557397
0.0021788285 0.016704351 0.71536338
0.0021762175 0.015958935 0.71515322
0.0021736128 0.015215337 0.71494359
0.0021710142 0.014473468 0.71473444
0.002052211 0.012997359 0.70517397
0.0020396665 0.012238026 0.70416451
0.0020440982 0.011583269 0.70452106
0.002053966 0.010954529 0.70531517
0.0020639214 0.01031965 0.70611632
0.002073982 0.0096786022 0.70692587
0.0020826922 0.0090250075 0.70762688
0.0020842496 0.0083369911 0.70775223
0.0020745269 0.0076065958 0.70696974
0.0020615784 0.0068719387 0.70592785
0.0020487825 0.0061463416 0.70489812
0.0020361526 0.0054297447 0.70388162
0.0020236697 0.0047219098 0.70287716
0.0020113464 0.0040227175 0.7018854
0.0019991724 0.0033319592 0.70090574
0.0019871371 0.0026495159 0.69993722
0.0019778921 0.0019779205 0.69919324
0.0019788907 0.0013192892 0.69927359
0.0019800786 0.00066003203 0.69936919
0.0019819234 2.9802322e-08 0.69951761
0.0019839981 -0.00066131353 0.69968456
0.0019867129 -0.0013244748 0.69990313
0.0020087264 -0.0020087361 0.70167458
0.0020095706 -0.0026794374 0.70174247
0.0020072488 -0.0033454001 0.70155567
0.0020039533 -0.0040079057 0.70129043
0.0020065147 -0.0046818852 0.7014966
0.0020120996 -0.0053655803 0.70194602
0.0020184189 -0.0060552359 0.70245457
0.0020943414 -0.0069811344 0.70856434
0.0020895808 -0.0076617897 0.70818126
0.0020838496 -0.0083353817 0.70772004
0.0020770484 -0.0090005398 0.70717269
0.0020687054 -0.0096539855 0.70650136
0.0020686069 -0.010342985 0.70649338
0.0020740894 -0.011061788 0.70693457
0.0020766677 -0.011767775 0.707142
0.0020766594 -0.012459934 0.7071414
0.0020743287 -0.0131374 0.70695382
0.002071962 -0.013813049 0.70676339
0.002082584 -0.014578074 0.70761824
0.0021067094 -0.015449196 0.70955962
0.0022055944 -0.01690957 0.71751732
0.0021941185 -0.017552942 0.7165938
0.0021827612 -0.018189669 0.71567976
0.0021715208 -0.018819839 0.71477526
0.0021603957 -0.019443542 0.71387994
0.0021493749 -0.020060837 0.71299314
0.0021422456 -0.020708352 0.71241939
0.0021629329 -0.021629304 0.71408415
0.002577686 0.029643387 0.69560188
0.0025735716 0.028952718 0.69535351
0.0025694706 0.028264195 0.69510603
0.0025653918 0.027577996 0.69485986
0.0025613166 0.026893854 0.69461393
0.0025572544 0.026211858 0.69436872
0.002553205 0.025532067 0.69412434
0.0025491684 0.024854392 0.69388068
0.0025451446 0.024178863 0.69363785
0.0025411334 0.023505479 0.69339573
0.0025371348 0.022834241 0.69315434
0.0025343776 0.022175819 0.69298798
0.0025334905 0.021534681 0.69293445
0.0029076934 0.019626945 0.71551967
0.0029041574 0.018877029 0.71530616
0.0029006784 0.018129259 0.71509618
0.0028972079 0.017383248 0.71488672
0.0028937454 0.016639054 0.71467781
0.0028902914 0.015896618 0.71446931
0.0028868455 0.015155941 0.71426135
0.0028834078 0.014417052 0.71405387
0.0027567858 0.013094753 0.70641148
0.0027368201 0.01231572 0.70520645
0.0027332357 0.01161623 0.70499015
0.0027459473 0.010983825 0.70575732
0.0027592925 0.010347337 0.70656276
0.002772768 0.0097047091 0.70737612
0.0027860072 0.0090545416 0.70817518
0.0027919507 0.0083758533 0.70853388
0.0027844221 0.0076571703 0.70807952
0.0027669279 0.0069173276 0.70702362
0.0027496524 0.0061866939 0.70598102
0.0027325803 0.0054651797 0.70495057
0.0027157294 0.0047525465 0.70393354
0.0026990748 0.0040486157 0.7029283
0.0026826337 0.0033533275 0.70193607
0.0026663814 0.002666384 0.70095515
0.0026508302 0.0019881427 0.7000165
0.0026499508 0.0013249815 0.69996339
0.0026515482 0.00066289306 0.70005989
0.0026536644 -0 0.70018756
0.0026563625 -0.00066405535 0.7003504
0.0026594121 -0.00132972 0.70053446
0.0026654303 -0.0019990206 0.70089763
0.0026711982 -0.002671212 0.7012459
0.0026741382 -0.0033426583 0.70142323
0.002678911 -0.0040183365 0.7017113
0.0026856607 -0.0046999156 0.70211875
0.0026927474 -0.0053854585 0.70254648
0.0027871805 -0.0062711537 0.70824599
0.002783976 -0.0069599152 0.70805258
0.002780545 -0.0076464713 0.70784545
0.0027759357 -0.0083277822 0.70756733
0.0027699387 -0.0090022683 0.7072053
0.0027629568 -0.009670347 0.70678401
0.0027601584 -0.010350585 0.70661509
0.0027616171 -0.011046469 0.70670313
0.0027614415 -0.011736095 0.70669246
0.0027586024 -0.012413681 0.70652115
0.0027554743 -0.013088495 0.70633233
0.002752342 -0.013761699 0.70614326
0.0027492172 -0.014433354 0.70595467
0.0029728855 -0.016350865 0.71945429
0.0029572491 -0.017004162 0.71851051
0.0029417761 -0.017650664 0.71757662
0.0029264644 -0.018290401 0.71665251
0.0029113113 -0.018923521 0.71573794
0.0028963143 -0.019550115 0.71483278
0.0028814708 -0.020170271 0.71393692
0.0028692172 -0.020801842 0.71319735
0.0028881652 -0.021661222 0.71434098
0.003215024 0.029578239 0.69525981
0.00320285 0.0288257 0.69467205
0.0031977212 0.028139949 0.69442439
0.0031926557 0.02745685 0.69417983
0.0031876182 0.026776016 0.69393659
0.0031825847 0.026097238 0.69369352
0.0031775672 0.025420576 0.69345129
0.0031725655 0.024746031 0.69320977
0.0031675794 0.024073631 0.69296902
0.0031626089 0.023403347 0.692729
0.0031594804 0.022748262 0.69257796
0.0031583775 0.022108644 0.69252473
0.0031572869 0.021469593 0.69247204
0.0031561973 0.020830899 0.69241941
0.0036220837 0.019559264 0.71491444
0.0036160075 0.018803239 0.71462107
0.0036116927 0.018058479 0.71441269
0.0036073881 0.017315477 0.71420485
0.0036030938 0.016574234 0.71399748
0.0035988097 0.015834779 0.71379066
0.0035945356 0.015097082 0.7135843
0.003590272 0.014361084 0.71337843
0.0034769336 0.013212353 0.70790601
0.0034457911 0.012404859 0.70640224
0.0034298187 0.011661381 0.70563108
0.0034416409 0.011013269 0.70620191
0.0034584121 0.010375261 0.70701164
0.0034753478 0.0097309947 0.70782942
0.0034924499 0.0090803504 0.70865524
0.0035044539 0.008410722 0.70923477
0.003502405 0.007705301 0.70913583
0.0034816577 0.0069633126 0.70813406
0.0034597758 0.0062276125 0.7070775
0.0034381538 0.0055010617 0.70603353
0.0034168137 0.0047835708 0.70500314
0.0033957234 0.0040748715 0.7039848
0.0033749053 0.0033749342 0.70297956
0.0033543408 0.0026834905 0.70198667
0.0033340128 0.0020004213 0.7010051
0.0033268495 0.0013307333 0.70065928
0.003328864 0.00066578388 0.70075655
0.003331085 -0 0.70086378
0.0033343583 -0.00066688657 0.70102185
0.0033382149 -0.0013352633 0.70120806
0.0033426853 -0.0020056367 0.70142388
0.0033482641 -0.0026785731 0.70169324
0.003354535 -0.0033545196 0.70199603
0.003361688 -0.0040340126 0.70234144
0.0033701523 -0.0047181845 0.70275009
0.0033790013 -0.0054063499 0.70317733
0.0034709042 -0.0062476099 0.70761478
0.0034669284 -0.0069338381 0.70742285
0.0034629619 -0.0076185167 0.7072314
0.0034590182 -0.0083016157 0.70704091
0.003454891 -0.008982718 0.70684165
0.0034500335 -0.0096600652 0.7066071
0.0034462558 -0.010338753 0.70642471
0.0034432642 -0.011018425 0.70628023
0.0034393652 -0.011693805 0.706092
0.0034354613 -0.012367636 0.70590353
0.0034315665 -0.013039947 0.70571542
0.0034276803 -0.013710707 0.70552784
0.003423803 -0.014379948 0.70534062
0.0034199345 -0.015047699 0.70515382
0.0034163566 -0.015715241 0.70498103
0.0036978042 -0.017749459 0.71857053
0.0036784504 -0.018392265 0.71763611
0.0036592979 -0.019028306 0.71671128
0.0036403441 -0.01965785 0.71579611
0.0036215854 -0.020280838 0.71489036
0.0036038859 -0.020902544 0.71403575
0.0036156613 -0.021693945 0.71460432
0.0038964318 0.029872656 0.69680506
0.003854719 0.028910428 0.69512665
0.0038234163 0.028038412 0.69386715
0.0038144481 0.027336866 0.6935063
0.0038084418 0.026659101 0.6932646
0.0038024541 0.025983423 0.69302368
0.0037964992 0.02531004 0.69278407
0.0037905353 0.024638474 0.6925441
0.0037846039 0.023969203 0.69230545
0.0037812542 0.023317754 0.69217062
0.003779938 0.022679627 0.69211769
0.0037786225 0.022042006 0.69206476
0.0037773217 0.021404833 0.69201243
0.0037761177 0.020768672 0.69196397
0.0037853185 0.020188391 0.69233418
0.0043318518 0.019493341 0.71432507
0.0043223142 0.018730044 0.71394122
0.0043171765 0.017988235 0.71373457
0.004312051 0.017248213 0.71352828
0.004306938 0.01650992 0.71332258
0.0043018367 0.015773386 0.71311736
0.0042967657 0.015038699 0.71291327
0.0042916886 0.014305651 0.71270895
0.0042866236 0.013574332 0.7125051
0.0041659335 0.012497813 0.70764899
0.0041371975 0.011722058 0.70649278
0.0041410597 0.011042833 0.70664817
0.0041613104 0.010403275 0.70746297
0.0041817431 0.0097573698 0.70828509
0.004202378 0.0091051757 0.70911539
0.0042193881 0.008438766 0.70979989
0.0042205327 0.0077376366 0.7098459
0.0042049205 0.0070082247 0.70921767
0.0041793459 0.0062690377 0.70818871
0.0041530705 0.0055374503 0.70713139
0.0041271076 0.0048149824 0.7060867
0.0041014827 0.004101485 0.70505571
0.0040761586 0.0033968389 0.70403671
0.0040511615 0.0027007759 0.70303094
0.004026453 0.0020132363 0.70203668
0.0040096641 0.0013365448 0.70136118
0.0040121027 0.00066870451 0.70145929
0.0040145437 2.9802322e-08 0.70155752
0.0040180567 -0.00066965818 0.7016989
0.0040227394 -0.0013408959 0.70188725
0.0040276977 -0.0020138323 0.70208675
0.0040342445 -0.0026894808 0.70235026
0.0040416899 -0.0033680797 0.70264977
0.0040498395 -0.0040498376 0.70297766
0.0040600132 -0.0047366619 0.70338702
0.0041542621 -0.005539 0.70717937
0.0041495161 -0.0062242448 0.70698839
0.0041447808 -0.0069079697 0.70679784
0.004140073 -0.0075901151 0.70660841
0.0041353428 -0.0082706511 0.7064181
0.0041306396 -0.0089497268 0.70622891
0.0041259476 -0.0096271932 0.70604008
0.0041212658 -0.01030314 0.70585167
0.0041166111 -0.010977596 0.7056644
0.0041119508 -0.011650503 0.70547694
0.0041073007 -0.012321889 0.70528972
0.0041026613 -0.012991756 0.7051031
0.0040980163 -0.013660043 0.70491618
0.0040934137 -0.01432693 0.70473105
0.0040888055 -0.014992267 0.70454562
0.0040856325 -0.015661567 0.70441788
0.0040951185 -0.016380459 0.70479959
0.0044388575 -0.018495232 0.71863061
0.0044156173 -0.019134343 0.71769547
0.0043926197 -0.019766778 0.71677011
0.0043698596 -0.020392656 0.71585429
0.0043473342 -0.021012127 0.714948
0.0043498739 -0.021749347 0.71505016
0.0044273199 -0.022874475 0.71816635
0.0045430181 0.029205143 0.69670779
0.0044943965 0.028250486 0.69503093
0.0044468208 0.027316213 0.69339013
0.0044243988 0.026546419 0.69261682
0.0044169584 0.02587077 0.69236022
0.004410055 0.025200307 0.6921221
0.0044031735 0.02453199 0.69188476
0.0043997006 0.023884118 0.69176507
0.0043981732 0.02324751 0.69171232
0.0043966467 0.02261132 0.69165969
0.0043951375 0.021975696 0.69160759
0.0043938993 0.021341801 0.69156492
0.0044059013 0.020770699 0.69197887
0.0044267983 0.02023682 0.69269955
0.0050291037 0.019397974 0.71347231
0.0050231423 0.018657386 0.71326673
0.0050171949 0.017918557 0.71306157
0.0050112614 0.017181486 0.71285695
0.005005342 0.016446143 0.7126528
0.0049994569 0.015712589 0.71244985
0.0049935654 0.014980733 0.71224666
0.0049876878 0.014250547 0.71204388
0.0049818237 0.013522118 0.7118417
0.004898272 0.012595564 0.70896012
0.0048608389 0.011804879 0.70766908
0.0048470451 0.011078954 0.70719332
0.0048680184 0.010431468 0.70791674
0.0048919865 0.0097839832 0.70874333
0.0049128355 0.0091238618 0.70946234
0.004924573 0.0084421039 0.70986718
0.0049267672 0.0077420473 0.70994288
0.0049146223 0.0070208907 0.70952404
0.0048978776 0.0062972903 0.70894653
0.0048761773 0.0055727959 0.70819807
0.0048467941 0.0048468113 0.70718467
0.0048165033 0.0041284561 0.70613998
0.0047865887 0.0034190118 0.70510834
0.0047570253 0.0027182996 0.70408869
0.0047278428 0.0020262003 0.70308226
0.004701124 0.0013431907 0.70216072
0.004701342 0.00067165494 0.70216823
0.0047042156 2.9802322e-08 0.70226729
0.0047077117 -0.00067251921 0.70238793
0.0047130389 -0.0013465881 0.70257163
0.0047188178 -0.002022326 0.70277095
0.0047258404 -0.002700448 0.70301318
0.0047345981 -0.0033818185 0.70331514
0.004743536 -0.0040658712 0.70362341
0.0047552953 -0.0047552586 0.70402896
0.0048261173 -0.0055155456 0.70647162
0.0048230742 -0.0062010884 0.70636666
0.004817591 -0.0068822801 0.70617753
0.00481212 -0.0075618923 0.70598888
0.0048066615 -0.0082399845 0.70580059
0.0048012151 -0.008916527 0.70561278
0.0047958004 -0.0095915794 0.70542604
0.0047903596 -0.010265023 0.7052384
0.0047849691 -0.010937065 0.7050525
0.0047795721 -0.011607498 0.70486629
0.0047741872 -0.012276471 0.70468056
0.0047688144 -0.012943894 0.70449531
0.0047634346 -0.013609767 0.70430976
0.0047580861 -0.014274269 0.70412529
0.0047541428 -0.014941573 0.70398927
0.0047626141 -0.015648574 0.70428145
0.0047925874 -0.016431749 0.70531523
0.0051984573 -0.018565893 0.71931314
0.0051782266 -0.019233406 0.71861541
0.0051532784 -0.019876927 0.71775496
0.0051264288 -0.020505697 0.716829
0.0050998582 -0.021127969 0.71591258
0.0050934716 -0.021829128 0.71569228
0.0051718405 -0.02290383 0.71839511
0.0052454956 0.029505938 0.69832158
0.0051888032 0.028538436 0.69661075
0.0051333038 0.027591527 0.69493592
0.0050789984 0.026664764 0.69329715
0.0050326544 0.025792331 0.69189852
0.0050183353 0.025091678 0.69146645
0.0050148768 0.02444756 0.69136202
0.0050131404 0.023812443 0.69130963
0.0050114053 0.023177773 0.69125736
0.0050096712 0.02254355 0.69120497
0.0050084619 0.021912038 0.69116849
0.0050235954 0.021350324 0.69162512
0.005047366 0.020820409 0.69234252
0.0050722142 0.020288885 0.69309235
0.005544784 0.020099849 0.70735335
0.0055648754 0.019477099 0.70795971
0.0055978447 0.018892735 0.70895463
0.0057185544 0.018585324 0.71259743
0.0057118335 0.017849475 0.7123946
0.0057050809 0.017115265 0.71219081
0.0056983912 0.016382903 0.71198893
0.0056916946 0.01565218 0.71178687
0.0056850128 0.014923215 0.71158516
0.0056783468 0.014195889 0.711384
0.0056706788 0.013467878 0.71115261
0.005632394 0.012672901 0.7099973
0.0055964924 0.011892587 0.70891386
0.0055637616 0.011127561 0.70792603
0.0055785673 0.01045984 0.70837283
0.0056014545 0.0098025501 0.70906359
0.0056144423 0.0091234744 0.70945549
0.0056205043 0.0084307492 0.70963848
0.0056188004 0.0077258646 0.70958704
0.0056078276 0.0070097744 0.70925599
0.0055968305 0.0062964559 0.70892406
0.0055826004 0.0055826306 0.70849466
0.0055637392 0.004868269 0.70792544
0.005539414 0.0041545928 0.70719135
0.0055063418 0.0034414828 0.70619333
0.0054721106 0.0027360618 0.70516026
0.0054383236 0.0020393729 0.70414072
0.0054049301 0.0013512671 0.70313293
0.0053966613 0.00067460537 0.70288348
0.0053999741 2.9802322e-08 0.70298338
0.005403291 -0.00067541003 0.70308352
0.0054092212 -0.0013523102 0.70326245
0.005415882 -0.0020309389 0.70346344
0.00542313 -0.0027115643 0.70368218
0.005433179 -0.0033957064 0.70398539
0.0054433285 -0.0040825009 0.70429176
0.0054568993 -0.0047747791 0.7047013
0.0054762284 -0.0054762363 0.7052846
0.0054889885 -0.0061751306 0.70566964
0.0054854141 -0.0068567395 0.70556176
0.0054792077 -0.0075338781 0.70537448
0.0054730154 -0.0082094967 0.70518762
0.005466837 -0.0088835657 0.70500118
0.0054606944 -0.0095562041 0.7048158
0.0054552504 -0.010228574 0.70465147
0.0054488131 -0.010897636 0.70445728
0.005442284 -0.011564821 0.70426023
0.005436175 -0.01223138 0.70407581
0.0054300795 -0.012896448 0.70389193
0.005423998 -0.013559967 0.70370835
0.0054196408 -0.014226526 0.70357686
0.0054286374 -0.014928728 0.70384836
0.0054594073 -0.015695781 0.70477694
0.0054948912 -0.016484648 0.7058478
0.0059473738 -0.018585533 0.71950263
0.0059293848 -0.019270509 0.71895981
0.0059096697 -0.019945115 0.71836483
0.0058875647 -0.020606428 0.71769774
0.0058607277 -0.021245092 0.71688783
0.0058451016 -0.021919131 0.71641624
0.0059182504 -0.022933185 0.71862376
0.0058974875 0.028832167 0.69822246
0.0058337664 0.027872443 0.69651318
0.0057714288 0.026933342 0.69484097
0.0057103881 0.026014 0.69320357
0.0056506461 0.025114 0.69160104
0.005627098 0.024384141 0.69096935
0.0056228889 0.023741066 0.69085646
0.0056209685 0.023108453 0.69080496
0.0056201201 0.022480488 0.69078219
0.0056384206 0.021927208 0.69127309
0.0056650382 0.021401286 0.69198716
0.0056919088 0.020870328 0.6927079
0.0061577 0.021894038 0.70520258
0.0061608301 0.021220654 0.7052865
0.0061674882 0.020558327 0.70546514
0.0061760144 0.019900531 0.70569384
0.006187893 0.019251257 0.70601249
0.0062078908 0.01862371 0.70654887
0.0062300777 0.01799801 0.70714408
0.0062758881 0.017433047 0.70837283
0.0063765212 0.017004043 0.71107239
0.0063838107 0.016314209 0.71126795
0.0063786283 0.015592217 0.71112889
0.0063711689 0.014866114 0.7109288
0.0063637272 0.014141649 0.71072912
0.0063549331 0.013415992 0.71049327
0.0063370341 0.012674063 0.71001309
0.0063168858 0.011931896 0.70947266
0.0062905322 0.011183202 0.70876575
0.0062875221 0.010479212 0.70868498
0.006300976 0.0098015368 0.70904589
0.0063069742 0.0091100931 0.70920676
0.0063048126 0.0084064305 0.70914882
0.0062975502 0.007697016 0.70895398
0.0062902537 0.0069891512 0.70875823
0.0062825452 0.006282568 0.70855153
0.0062698233 0.0055731833 0.70821023
0.0062578041 0.0048672259 0.70788783
0.0062425141 0.0041616559 0.70747769
0.0062215752 0.0034564435 0.70691597
0.0061947573 0.0027532279 0.70619661
0.0061580883 0.0020527542 0.70521295
0.0061200536 0.0013599694 0.70419276
0.0060981186 0.0006775856 0.70360434
0.0061019026 2.9802322e-08 0.70370579
0.006105667 -0.00067839026 0.70380682
0.0061113229 -0.001358062 0.70395857
0.0061188801 -0.0020396113 0.70416123
0.006126456 -0.0027228594 0.70436448
0.0061353026 -0.0034084916 0.70460176
0.0061412062 -0.004094094 0.70476007
0.0061457199 -0.0047799647 0.70488119
0.0061520068 -0.0054684579 0.70504987
0.0061541377 -0.00615412 0.70510703
0.0061483057 -0.0068314075 0.70495057
0.0061413748 -0.0075061023 0.70476472
0.0061344597 -0.0081792474 0.70457911
0.0061353506 -0.0088621676 0.70460308
