# .PCD v0.7 - Point Cloud Data file format
VERSION 0.7
FIELDS x y z
SIZE 4 4 4
TYPE F F F
COUNT 1 1 1
WIDTH 1323
HEIGHT 1
VIEWPOINT 0 0 0 1 0 0 0
POINTS 1323
DATA ascii
0 0.013230145 0.69972652
0 0.012524784 0.6991697
0 0.011824399 0.69861668
0 0.011128753 0.69806695
0 0.010437995 0.69752157
0 0.0097519457 0.69697988
0 0.0090706646 0.69644195
0 0.0083939731 0.69590771
0 0.0077218711 0.69537657
0 0.007053107 0.69482213
0 0.0063842237 0.69415379
0 0.0057108402 0.69321477
0 0.0050024688 0.69098675
0 0.0043471754 0.68995285
0 0.0037142336 0.68947369
0 0.003085345 0.68899757
0 0.0024604499 0.68852443
0 0.0018393695 0.68804598
0 0.0012225807 0.68760431
0 0.00061127543 0.68760538
0 -0 0.69190073
0 -0.00064903498 0.69671249
0 -0.0013163686 0.69892484
0 -0.0019781888 0.69921798
0 -0.0026378632 0.69923556
0 -0.0032943189 0.69908941
0 -0.003726542 0.68996894
0 -0.0043360591 0.68956959
0 -0.0049422681 0.68917179
0 -0.0055457354 0.68878782
0 -0.0061565042 0.68865597
0 -0.0067864358 0.68896997
0 -0.0074285865 0.68947738
0 -0.0080752075 0.68998826
0 -0.0087261796 0.69050252
0 -0.0093816519 0.69101989
0 -0.010041624 0.69154131
0 -0.010698885 0.69196236
0 -0.011343896 0.69217288
0 -0.011979491 0.69224083
0 -0.012606055 0.69219381
0 -0.01322192 0.69202733
0 -0.013824195 0.69172716
0 -0.01441282 0.69131017
0 -0.014997363 0.69088686
0 -0.015578598 0.69046533
0 -0.016156673 0.69004667
0 -0.016731441 0.68962985
0 -0.017303109 0.68921584
0 -0.017871618 0.68880361
0 -0.018436968 0.68839413
0 -0.018999159 0.68798649
0 -0.0195584 0.68758148
0 -0.020114541 0.68717867
0 -0.020667642 0.68677813
0 -0.021217614 0.68637872
0 -0.021764725 0.68598247
0 -0.022308886 0.68558836
0 -0.022850096 0.68519592
0 -0.023388445 0.68480605
0 -0.023923814 0.68441784
0 -0.024456412 0.68403208
0 -0.024986178 0.68364847
0 -0.025512993 0.68326634
0 -0.026037157 0.68288678
0 -0.026558399 0.68250871
0 -0.027077079 0.68213314
0 -0.027605027 0.68182141
0 -0.028245896 0.68209076
0 -0.028967053 0.68274438
0 -0.031430542 0.69178486
0 -0.031975597 0.69138932
0 -0.032530278 0.69105363
0.0007925923 0.02298522 0.73137343
0.00070836087 0.019834101 0.71103817
0.00070161541 0.018943638 0.70940965
0.00069662189 0.018112183 0.70820421
0.00069840852 0.017460257 0.70863545
0.0007033993 0.016881585 0.70984036
0.00070608943 0.01624009 0.71048981
0.00067489716 0.014847726 0.70295936
0.00066264684 0.013915569 0.7000019
0.00065999612 0.013199925 0.69936192
0.0006576975 0.012496263 0.698807
0.00065541733 0.011797518 0.69825643
0.00065315288 0.01110363 0.6977098
0.00065090402 0.010414481 0.69716692
0.00064866821 0.009730041 0.69662708
0.00064645009 0.0090503097 0.69609165
0.00064424705 0.0083752275 0.6955598
0.00064205902 0.0077047348 0.69503152
0.00063988578 0.0070387721 0.69450688
0.00063762191 0.0063762069 0.69396031
0.00063490728 0.0057141781 0.69330496
0.00063110411 0.0050488412 0.69238681
0.00062288833 0.0043602586 0.69040328
0.00061760069 0.003705591 0.68912673
0.00061563542 0.0030781925 0.68865234
0.00061368477 0.0024547577 0.6881814
0.00061174651 0.001835227 0.68771344
0.00060978188 0.0012195706 0.68723911
0.00060794468 0.00060793757 0.68679559
0.00060764275 2.9802322e-08 0.6867227
0.00061999861 -0.00061997771 0.68970567
0.00064355024 -0.0012870729 0.69539154
0.00065413164 -0.0019623935 0.69794607
0.0006216825 -0.0024867058 0.69011223
0.00062063651 -0.0031031668 0.68985963
0.0006192252 -0.0037153065 0.68951893
0.00061777415 -0.0043244064 0.68916863
0.00061613537 -0.0049290657 0.68877304
0.00061546965 -0.0055392385 0.68861222
0.00061679381 -0.0061679482 0.688932
0.00061889214 -0.0068078041 0.68943852
0.00062100473 -0.0074520409 0.68994856
0.00062313635 -0.0081007183 0.69046313
0.0006252781 -0.008753866 0.6909802
0.00062743691 -0.0094115734 0.69150144
0.00062927773 -0.010068446 0.69194585
0.00063024333 -0.010714114 0.69217896
0.00063058647 -0.011350542 0.69226176
0.00063044229 -0.011978388 0.69222701
0.00062982523 -0.012596458 0.69207799
0.00062866067 -0.013201863 0.6917969
0.00062697951 -0.013793528 0.69139099
0.00062522409 -0.014380157 0.6909672
0.00062347623 -0.014963418 0.6905452
0.00062174036 -0.015543491 0.69012618
0.00062001188 -0.016120285 0.68970889
0.00061829522 -0.01669392 0.6892944
0.00061658584 -0.017264366 0.68888175
0.00061488803 -0.017831743 0.68847191
0.00061319745 -0.018395931 0.68806374
0.00061151822 -0.018957049 0.68765831
0.00060984609 -0.019515038 0.68725467
0.00060818729 -0.020070165 0.68685412
0.00060653326 -0.020622134 0.68645489
0.00060488819 -0.021171093 0.68605769
0.00060325203 -0.021717042 0.68566269
0.00060162682 -0.022260189 0.68527031
0.00060000824 -0.022800297 0.68487954
0.00059840037 -0.023337632 0.6844914
0.00059680117 -0.023872048 0.68410528
0.00059520837 -0.024403542 0.68372077
0.00059362617 -0.024932295 0.68333882
0.00059205026 -0.025458127 0.6829583
0.00059048476 -0.025981307 0.68258041
0.00058892753 -0.026501745 0.68220443
0.00058737647 -0.027019322 0.68182999
0.00058583554 -0.027534276 0.681458
0.00058435771 -0.028049111 0.6811012
0.00058432034 -0.028631687 0.68109214
0.00058683881 -0.029341936 0.68170017
0.00058976922 -0.030078202 0.68240762
0.00062403386 -0.032449722 0.69067985
0.00062246207 -0.032990456 0.69030041
0.00062232831 -0.033605725 0.6902681
0.0015816994 0.022143781 0.73095274
0.0014077049 0.019004017 0.70994979
0.0013998445 0.018197984 0.70900089
0.0014060643 0.0175758 0.70975173
0.0014117428 0.016940951 0.71043718
0.0014162021 0.016286343 0.71097547
0.0014195694 0.015615284 0.71138191
0.0013410788 0.014081329 0.70190728
0.0013175247 0.013175249 0.69906408
0.0013124091 0.012467921 0.69844657
0.0013078693 0.011770815 0.69789857
0.0013033609 0.011078596 0.69735432
0.0012988786 0.010391057 0.69681329
0.0012944317 0.0097082555 0.69627649
0.0012900153 0.0090301335 0.69574338
0.0012856289 0.008356601 0.69521391
0.0012812675 0.0076876283 0.69468743
0.0012769403 0.0070231855 0.69416511
0.0012726422 0.0063632131 0.69364631
0.0012681831 0.0057068467 0.69310796
0.0012628596 0.005051434 0.69246542
0.0012554225 0.0043939948 0.69156766
0.0012409759 0.0037229359 0.68982381
0.0012284718 0.0030712187 0.68831444
0.0012245408 0.0024490952 0.68783987
0.0012206819 0.0018310547 0.68737411
0.0012168474 0.0012168586 0.68691123
0.0012129522 0.00060647726 0.68644106
0.0012092628 2.9802322e-08 0.6859957
0.0012081569 -0.00060403347 0.68586218
0.0012298588 -0.0012298226 0.68848181
0.0012352277 -0.0018528104 0.68912995
0.0012361901 -0.0024723709 0.68924612
0.0012357548 -0.0030893683 0.68919355
0.0012344378 -0.003703326 0.68903464
0.001231799 -0.0043112934 0.68871605
0.0012306909 -0.0049227178 0.6885823
0.0012332679 -0.0055496693 0.68889344
0.0012374624 -0.0061873198 0.68939966
0.0012416899 -0.0068292916 0.68990999
0.001245942 -0.0074756145 0.69042325
0.0012502278 -0.0081264973 0.69094062
0.0012545431 -0.0087817907 0.6914615
0.0012583458 -0.009437561 0.69192052
0.0012604684 -0.010083735 0.69217676
0.0012613194 -0.010721207 0.69227946
0.0012611637 -0.011350453 0.69226068
0.0012600616 -0.01197055 0.6921277
0.0012578857 -0.012578845 0.69186503
0.0012546291 -0.01317358 0.69147187
0.0012511101 -0.013762206 0.69104713
0.0012476151 -0.014347583 0.69062525
0.0012441352 -0.014929622 0.69020516
0.0012406791 -0.015508473 0.68978792
0.0012372377 -0.016084075 0.68937254
0.0012338198 -0.016656548 0.68895996
0.0012304162 -0.017225832 0.68854916
0.0012270359 -0.017791986 0.68814105
0.0012236696 -0.018355042 0.68773472
0.0012203261 -0.018915057 0.68733114
0.0012170008 -0.019472003 0.68692976
0.0012136936 -0.020025939 0.68653047
0.0012104043 -0.020576835 0.6861335
0.0012071286 -0.02112478 0.68573809
0.0012038664 -0.021669596 0.68534422
0.0012006301 -0.022211641 0.68495363
0.0011974112 -0.022750795 0.68456507
0.0011942054 -0.023286998 0.68417805
0.0011910207 -0.02382037 0.68379366
0.001187849 -0.024350911 0.68341082
0.0011846981 -0.024878651 0.68303043
0.0011815638 -0.025403619 0.68265212
0.0011784423 -0.025925726 0.68227535
0.0011753411 -0.02644518 0.68190098
0.0011722521 -0.026961774 0.68152809
0.0011691834 -0.027475774 0.68115759
0.0011661306 -0.027987123 0.68078911
0.0011630899 -0.028495669 0.68042207
0.0011612863 -0.029032141 0.68020439
0.001165153 -0.029711396 0.68067116
0.0011705501 -0.03043431 0.68132263
0.0012422404 -0.032919347 0.68997645
0.0012390421 -0.03345415 0.68959033
0.0012368369 -0.034013033 0.68932414
0.0021227456 0.019104689 0.71085012
0.0021097879 0.018284857 0.7098074
0.0021169605 0.017641366 0.71038455
0.0021238097 0.016990483 0.71093583
0.0021293715 0.016325176 0.71138334
0.0021323333 0.01563713 0.7116217
0.0021329529 0.014930665 0.71167159
0.0019987123 0.013324767 0.70086873
0.001964777 0.012443602 0.69813782
0.0019573688 0.011744261 0.69754159
0.0019506366 0.011053622 0.69699991
0.0019439505 0.010367721 0.69646186
0.0019373102 0.0096865892 0.69592738
0.0019307078 0.0090099573 0.69539613
0.0019241575 0.0083380044 0.69486904
0.0019176515 0.0076706111 0.69434541
0.0019111894 0.0070076883 0.69382542
0.0019047706 0.0063492358 0.69330889
0.0018983948 0.005695194 0.69279575
0.0018918006 0.0050448179 0.69226509
0.0018839708 0.004395932 0.69163501
0.0018730636 0.0037461221 0.69075727
0.0018543181 0.0030905306 0.68924874
0.0018327162 0.0024436414 0.68751037
0.0018268258 0.0018268526 0.6870364
0.0018211002 0.001214087 0.68657559
0.0018154104 0.00060516596 0.68611771
0.001809618 2.9802322e-08 0.68565154
0.0018041246 -0.00060135126 0.68520945
0.0018018044 -0.0012011826 0.68502277
0.0018327741 -0.0018327534 0.68751502
0.0018419587 -0.0024559498 0.68825412
0.0018438288 -0.0030730367 0.68840468
0.0018439789 -0.0036879182 0.68841672
0.0018440376 -0.0043027401 0.68842143
0.0018474299 -0.0049264431 0.68869442
0.0018547667 -0.0055643022 0.68928492
0.0018620092 -0.0062066913 0.68986768
0.0018684239 -0.0068508983 0.69038391
0.0018748491 -0.007499367 0.69090092
0.0018813187 -0.0081523657 0.69142157
0.0018872042 -0.0088069737 0.69189519
0.0018907025 -0.0094535053 0.69217682
0.0018921921 -0.010091692 0.69229662
0.0018921646 -0.01072225 0.69229442
0.0018907163 -0.011344284 0.69217783
0.0018876758 -0.011955291 0.69193316
0.0018829431 -0.012552947 0.69155234
0.0018776656 -0.013143659 0.69112766
0.0018724176 -0.013731062 0.6907053
0.0018671922 -0.014315099 0.69028479
0.0018620025 -0.014896005 0.68986714
0.001856835 -0.015473604 0.68945134
0.0018517027 -0.016048074 0.68903828
0.0018465921 -0.016619295 0.688627
0.0018415161 -0.017187476 0.68821853
0.0018364616 -0.017752439 0.68781179
0.0018314411 -0.018314391 0.68740773
0.0018264416 -0.018873245 0.6870054
0.0018214757 -0.019429028 0.68660581
0.0018165368 -0.019981891 0.68620837
0.0018116245 -0.020531744 0.68581307
0.0018067324 -0.021078527 0.68541932
0.0018018667 -0.02162239 0.68502778
0.0017970272 -0.022163302 0.68463838
0.0017922197 -0.022701442 0.68425143
0.0017874318 -0.023236603 0.6838662
0.0017826754 -0.023768991 0.68348336
0.0017779443 -0.024298549 0.68310267
0.0017732322 -0.024825245 0.68272352
0.0017685511 -0.02534923 0.6823467
0.0017638885 -0.025870353 0.68197155
0.0017592565 -0.026388824 0.68159878
0.0017546488 -0.026904613 0.68122804
0.0017500592 -0.02741757 0.68085861
0.0017454996 -0.027927965 0.68049169
0.0017409576 -0.028435647 0.68012619
0.0017364451 -0.028940707 0.67976302
0.0017326007 -0.029454172 0.67945367
0.0017353119 -0.030078739 0.67967182
0.0017429662 -0.030792385 0.68028784
0.0017523657 -0.03154254 0.68104428
0.0018499545 -0.033915818 0.68889761
0.0018455655 -0.034450561 0.68854439
0.0028551775 0.019272447 0.71234995
0.0028244264 0.018358767 0.71049398
0.0028310772 0.017694235 0.71089542
0.0028389532 0.017033756 0.71137077
0.0028435998 0.016350716 0.71165121
0.0028451015 0.015648067 0.71174181
0.0028439374 0.014930665 0.71167159
0.0026793859 0.013396949 0.70173997
0.0026479717 0.012577832 0.699844
0.0026045237 0.011720359 0.69722164
0.0025950118 0.011028826 0.69664758
0.002586137 0.010344595 0.69611192
0.0025773132 0.009664923 0.69557941
0.0025685588 0.0089900196 0.69505095
0.0025598637 0.0083195567 0.6945262
0.0025512273 0.0076537132 0.69400495
0.0025426396 0.0069922507 0.69348663
0.0025341189 0.0063353181 0.69297236
0.0025256549 0.0056827068 0.69246155
0.0025172476 0.0050345063 0.69195408
0.0025085879 0.0043900609 0.6914314
0.002498352 0.0037475228 0.6908136
0.0024841344 0.0031051636 0.68995553
0.0024604928 0.0024605095 0.68852866
0.0024304518 0.001822859 0.68671548
0.0024225977 0.0012113154 0.68624145
0.0024150459 0.00060376525 0.68578571
0.002407541 2.9802322e-08 0.68533278
0.0023998837 -0.00059995055 0.68487054
0.0023926373 -0.0011963248 0.68443322
0.0023889772 -0.0017917156 0.68421227
0.0024303498 -0.0024303198 0.6867094
0.0024447048 -0.0030558705 0.68757576
0.0024502731 -0.0036754012 0.68791181
0.0024555631 -0.0042972267 0.68823111
0.0024655559 -0.0049311221 0.68883419
0.0024774924 -0.0055743456 0.68955469
0.0024887517 -0.0062218606 0.69023418
0.0024986845 -0.0068713427 0.69083369
0.0025077641 -0.0075232685 0.69138169
0.0025158443 -0.008176446 0.69186938
0.0025209277 -0.008823216 0.69217616
0.0025232157 -0.0094620585 0.69231427
0.0025234355 -0.010093719 0.69232756
0.0025217785 -0.010717571 0.69222754
0.0025180413 -0.011331201 0.692002
0.0025119339 -0.011931688 0.69163334
0.0025048899 -0.012524456 0.69120824
0.0024978761 -0.013113827 0.69078493
0.0024909105 -0.013699979 0.69036454
0.0024839747 -0.014282852 0.68994594
0.0024770861 -0.014862508 0.68953013
0.002470227 -0.015438914 0.68911618
0.0024634146 -0.016012192 0.68870503
0.0024566308 -0.016582221 0.68829554
0.0024498929 -0.01714924 0.68788886
0.0024431834 -0.01771307 0.68748397
0.0024365191 -0.01827392 0.68708169
0.0024298825 -0.018831551 0.68668115
0.0024232904 -0.019386321 0.68628329
0.0024167341 -0.019938022 0.68588758
0.0024100542 -0.020485431 0.68548441
0.002403436 -0.021030039 0.68508494
0.0023972595 -0.021575302 0.68471217
0.0023908429 -0.02211526 0.68432486
0.0023844605 -0.022652358 0.6839397
0.0023781043 -0.023186505 0.68355608
0.0023717897 -0.02371788 0.68317497
0.0023655086 -0.024246484 0.68279588
0.0023592531 -0.024772137 0.68241829
0.0023530382 -0.025295138 0.68204319
0.0023468479 -0.025815308 0.68166959
0.0023406981 -0.026332825 0.68129838
0.0023345726 -0.026847571 0.68092865
0.0023284869 -0.027359694 0.68056136
0.0023224249 -0.027869076 0.68019551
0.0023164023 -0.028375894 0.67983198
0.0023104032 -0.02888003 0.67946988
0.002304221 -0.029378831 0.67909682
0.0022962799 -0.029851615 0.67861754
0.0022978059 -0.030445904 0.67870963
0.0023072427 -0.031147778 0.67927915
0.0023185352 -0.031879812 0.67996073
0.0024552247 -0.034373134 0.68821061
0.0024490124 -0.0348984 0.68783575
0.0024465036 -0.0354743 0.6876843
0.0035470685 0.018444747 0.71129239
0.0035484158 0.017742097 0.71135741
0.0035551107 0.017064512 0.71168065
0.0035577167 0.016365498 0.71180654
0.0035569302 0.015650511 0.71176851
0.0035526534 0.014921159 0.71156204
0.0035435378 0.014174163 0.71112192
0.003326684 0.0126414 0.70065123
0.0032885622 0.011838824 0.69881064
0.0032370803 0.011006057 0.69632483
0.0032254455 0.010321468 0.69576299
0.0032144766 0.0096434355 0.6952334
0.0032035823 0.008970052 0.69470739
0.0031927496 0.0083011389 0.69418436
0.0031820019 0.0076368153 0.69366539
0.0031713261 0.0069769323 0.69314992
0.0031607219 0.0063214898 0.69263792
0.0031501881 0.0056703687 0.69212925
0.0031397245 0.0050235689 0.6916241
0.00312933 0.0043810606 0.69112217
0.0031186459 0.0037423968 0.6906063
0.0031061117 0.0031061172 0.69000113
0.003088739 0.0024710298 0.68916225
0.0030600145 0.0018360317 0.68777531
0.0030217792 0.0012087226 0.68592918
0.0030119619 0.00060239434 0.6854552
0.0030026233 -0 0.68500423
0.0029933425 -0.00059866905 0.68455613
0.0029838625 -0.0011934936 0.68409836
0.0029748904 -0.0017849207 0.68366516
0.0029696124 -0.0023756623 0.68341029
0.0030209804 -0.003020972 0.68589061
0.0030498512 -0.0036597848 0.68728459
0.0030633381 -0.0042886436 0.68793577
0.0030808188 -0.0049292743 0.68877989
0.0030990972 -0.0055783391 0.68966246
0.0031152347 -0.0062304735 0.69044161
0.0031302434 -0.0068865418 0.69116628
0.0031431667 -0.0075435936 0.69179022
0.0031511481 -0.0081929862 0.69217563
0.0031543863 -0.0088323057 0.69233203
0.0031549935 -0.009465009 0.6923613
0.0031532643 -0.010090441 0.69227779
0.0031489662 -0.010706484 0.69207031
0.0031415981 -0.011309743 0.69171458
0.0031327833 -0.011904567 0.69128889
0.0031240068 -0.012496024 0.69086516
0.0031152905 -0.013084173 0.69044429
0.0031066115 -0.013669074 0.69002521
0.0030979919 -0.014250755 0.68960905
0.0030894091 -0.014829159 0.68919468
0.0030808845 -0.015404403 0.68878299
0.0030723959 -0.015976459 0.68837315
0.0030639649 -0.016545385 0.68796605
0.0030555693 -0.017111182 0.68756068
0.00304723 -0.01767391 0.68715811
0.0030389258 -0.018233538 0.68675703
0.0030306771 -0.018790185 0.68635881
0.0030222943 -0.019342661 0.68595403
0.0030100625 -0.019866407 0.68536341
0.0029878137 -0.020317107 0.68428922
0.0029883275 -0.02091825 0.68431395
0.002987341 -0.021508843 0.68426639
0.0029818241 -0.02206549 0.68399996
0.0029741367 -0.022603422 0.6836288
0.0029662356 -0.023136646 0.68324727
0.0029583664 -0.023666888 0.68286729
0.0029505487 -0.024194449 0.68248981
0.0029427621 -0.024719208 0.68211395
0.0029350268 -0.025241196 0.6817404
0.0029273219 -0.025760442 0.68136835
0.0029196672 -0.026276976 0.68099868
0.0029120524 -0.026790887 0.6806311
0.0029044678 -0.027301997 0.68026489
0.002896932 -0.027810514 0.679901
0.0028894255 -0.028316349 0.67953855
0.0028818049 -0.028818011 0.67917067
0.0028715925 -0.029290229 0.67867756
0.002849868 -0.029638618 0.67762852
0.0028469823 -0.030177981 0.67748922
0.0028528164 -0.030810416 0.67777085
0.0028634616 -0.031498045 0.67828488
0.002876461 -0.03221634 0.67891264
0.0030549353 -0.034826249 0.6875301
0.0030472088 -0.035347611 0.68715703
0.0030411172 -0.035885185 0.68686289
0.0043090922 0.018672734 0.71340925
0.004270887 0.017795384 0.71187198
0.0042712544 0.017085046 0.71188676
0.0042707296 0.016371131 0.71186566
0.0042664646 0.015643746 0.711694
0.0042569339 0.014899254 0.71131057
0.0042424332 0.01414144 0.71072704
0.0039944681 0.012649149 0.70074981
0.0039685247 0.011905611 0.69970584
0.0039198897 0.011106372 0.6977489
0.0038625032 0.01030001 0.69543993
0.0038488123 0.0096220374 0.69488907
0.0038357829 0.0089501739 0.69436479
0.0038228554 0.0082828403 0.69384456
0.0038100146 0.0076200664 0.6933279
0.0037972599 0.0069616735 0.69281471
0.0037845764 0.0063076615 0.69230431
0.003771991 0.0056580007 0.69179797
0.0037594892 0.0050126612 0.69129491
0.0037470697 0.0043716133 0.69079518
0.0037347323 0.0037347376 0.6902988
0.0037221035 0.0031017661 0.68979067
0.0037073568 0.0024715662 0.68919724
0.0036869794 0.0018435121 0.68837732
0.0036534723 0.0012178719 0.68702912
0.0036068009 0.00060114264 0.68515122
0.0035950211 -0 0.68467724
0.0035839342 -0.00059729815 0.68423116
0.0035728908 -0.0011909008 0.68378675
0.0035616353 -0.0017808378 0.68333387
0.0035509707 -0.0023673177 0.68290478
0.003543824 -0.0029531419 0.68261719
0.0035967082 -0.0035966933 0.68474513
0.0036601173 -0.0042701364 0.68729651
0.0036886756 -0.0049182475 0.68844563
0.003715788 -0.0055736899 0.68953651
0.0037391263 -0.0062318444 0.69047558
0.0037602757 -0.0068938136 0.69132662
0.0037767333 -0.0075534582 0.69198877
0.0037841643 -0.0081990063 0.6922878
0.0037868174 -0.0088358819 0.6923945
0.0037851536 -0.009462893 0.69232762
0.0037804451 -0.010081142 0.69213808
0.0037719365 -0.010687143 0.69179577
0.0037613341 -0.011283994 0.69136918
0.0037508046 -0.011877537 0.69094551
0.0037403204 -0.012467712 0.69052362
0.003729908 -0.013054669 0.69010466
0.0037195403 -0.013638288 0.68968749
0.0037092431 -0.014218748 0.68927318
0.0036989897 -0.014795929 0.6888606
0.003688806 -0.015369982 0.68845081
0.003678665 -0.015940845 0.68804276
0.0036685928 -0.016508609 0.68763751
0.0036585757 -0.017073363 0.68723446
0.0036486001 -0.017634928 0.68683314
0.0036386915 -0.018193454 0.68643439
0.0035661436 -0.018425077 0.68351531
0.0035610148 -0.018992066 0.68330896
0.0035609175 -0.019585013 0.68330503
0.0035618057 -0.020183533 0.68334073
0.0035637906 -0.020788729 0.6834206
0.0035657899 -0.0213947 0.68350101
0.0035662656 -0.021991938 0.6835202
0.0035605768 -0.022550315 0.68329132
0.0035518296 -0.023086876 0.68293935
0.0035424391 -0.023616284 0.68256152
0.003533086 -0.024142742 0.68218517
0.003523794 -0.024666548 0.68181127
0.003514539 -0.025187492 0.68143886
0.0035053443 -0.025705844 0.6810689
0.0034961859 -0.026221365 0.68070036
0.0034870869 -0.026734293 0.68033427
0.0034780235 -0.027244508 0.67996961
0.0034690185 -0.027752131 0.67960727
0.0034600026 -0.028256685 0.67924452
0.0034484193 -0.02873677 0.67877841
0.0034244482 -0.029107779 0.67781389
0.0033956014 -0.029428542 0.67665321
0.0033949821 -0.029989004 0.67662829
0.0033968405 -0.03057155 0.6767031
0.0034024396 -0.031189024 0.6769284
0.0034126653 -0.03185156 0.67733985
0.0034269474 -0.032556027 0.6779145
0.0034446018 -0.033297777 0.67862481
0.0036399749 -0.035793066 0.68648601
0.0036312637 -0.03631267 0.68613553
0.0050611459 0.019521564 0.71457744
0.0050347876 0.018700659 0.71366835
0.0049994569 0.017855227 0.71244991
0.0049886289 0.01710391 0.71207643
0.0049819462 0.016369224 0.71184593
0.0049715801 0.01562497 0.71148843
0.0049554752 0.014866441 0.71093303
0.0049381102 0.014108896 0.71033406
0.0046635014 0.012658089 0.70086318
0.0046330146 0.011913449 0.6998117
0.0046027498 0.011178106 0.69876796
0.0045428486 0.010383666 0.696702
0.0044808839 0.0096019208 0.69456494
0.0044652051 0.0089304447 0.69402421
0.0044501894 0.008264631 0.6935063
0.004435258 0.0076033175 0.69299132
0.0044204425 0.0069464147 0.69248033
0.0044057257 0.0062938929 0.69197279
0.0043911068 0.0056457222 0.69146866
0.0043765847 0.0050017834 0.69096774
0.004362158 0.0043621659 0.69047022
0.0043478105 0.0037267208 0.68997538
0.0043335725 0.0030954182 0.6894843
0.0043190592 0.0024680793 0.68898374
0.0043021915 0.0018438101 0.688402
0.004278956 0.0012225807 0.68760061
0.0042409804 0.00060585141 0.68629092
0.0041856025 2.9802322e-08 0.68438101
0.0041718758 -0.00059595704 0.68390763
0.004159078 -0.0011882782 0.6834662
0.0041462877 -0.0017769635 0.68302512
0.0041333092 -0.0023618937 0.68257749
0.0041209976 -0.0029435754 0.68215287
0.0041120523 -0.0035246015 0.68184435
0.0041634636 -0.004163444 0.68361753
0.0042711115 -0.0048812628 0.68733013
0.0043207319 -0.0055552125 0.6890415
0.0043557365 -0.0062224567 0.69024873
0.0043854383 -0.0068913698 0.69127309
0.0044048796 -0.0075511932 0.69194365
0.0044131759 -0.0081958771 0.69222969
0.0044150986 -0.0088301897 0.69229603
0.004411879 -0.0094540119 0.69218498
0.004402807 -0.010063529 0.69187212
0.004390568 -0.010662794 0.69145
0.0043782704 -0.011258394 0.69102591
0.0043660258 -0.011850655 0.69060361
0.0043538655 -0.012439579 0.69018418
0.0043417569 -0.013025254 0.68976653
0.0043297308 -0.01360774 0.6893518
0.0043177558 -0.014186889 0.6889388
0.0043058624 -0.014762938 0.6885286
0.0042940341 -0.015335828 0.68812066
0.0042822557 -0.015905499 0.68771446
0.0042705564 -0.016472131 0.68731099
0.0042589065 -0.017035633 0.6869092
0.0041414164 -0.017157257 0.6828571
0.0041347984 -0.01772055 0.68262881
0.0041329018 -0.018302798 0.68256342
0.004131638 -0.01888746 0.68251979
0.0041317083 -0.019477993 0.68252224
0.0041317781 -0.020068616 0.68252468
0.0041320873 -0.0206604 0.68253535
0.0041344753 -0.021262974 0.68261772
0.0041367817 -0.021865845 0.68269724
0.0041381614 -0.022464246 0.6827448
0.0041336464 -0.023030281 0.68258911
0.0041240021 -0.023565739 0.68225646
0.0041131508 -0.024091274 0.68188226
0.0041023423 -0.024614066 0.68150949
0.0040916046 -0.025134146 0.68113917
0.0040809088 -0.025651425 0.68077028
0.0040702829 -0.026166052 0.68040383
0.0040596989 -0.026678026 0.68003875
0.0040491829 -0.027187347 0.67967606
0.0040387074 -0.027693987 0.67931479
0.0040259259 -0.028181463 0.6788739
0.0039609028 -0.028292149 0.67663139
0.0039501344 -0.028779507 0.67625999
0.0039448682 -0.029304713 0.67607838
0.0039412249 -0.029840678 0.67595273
0.0039417101 -0.030407488 0.67596948
0.0039446251 -0.030993462 0.67607003
0.0039542061 -0.031633615 0.67640042
0.003967687 -0.03230831 0.67686534
0.0039840778 -0.03301096 0.67743069
0.0040031592 -0.033740878 0.67808878
0.0042265947 -0.036227942 0.68579477
0.0042102505 -0.036689281 0.68523109
0.004188024 -0.037093908 0.68446451
0.0057932804 0.020276487 0.71485245
0.0057718446 0.01947999 0.71420562
0.0057489257 0.018684 0.71351391
0.0057222038 0.0178819 0.71270758
0.0057037231 0.017111182 0.71214986
0.0056884796 0.016354382 0.71168983
0.005670262 0.015593231 0.7111401
0.0056503685 0.014832228 0.7105397
0.0056306142 0.014076531 0.70994359
0.005333663 0.012667477 0.70098221
0.0052977195 0.011919886 0.69989753
0.0052642506 0.01118654 0.69888759
0.0052318713 0.010463774 0.69791043
0.0051575722 0.0096704364 0.69566828
0.0050923591 0.0089116096 0.69370031
0.0050747516 0.0082465112 0.69316888
0.0050577801 0.007586658 0.69265676
0.0050409227 0.0069312751 0.69214803
0.0050241766 0.0062802136 0.69164276
0.0050075236 0.0056335032 0.69114017
0.0049909982 0.0049910247 0.6906414
0.0049745818 0.0043527782 0.69014597
0.0049582724 0.0037187338 0.68965387
0.0049420702 0.0030888021 0.68916494
0.0049259737 0.0024630129 0.68867916
0.0049095997 0.0018411279 0.68818504
0.0048907343 0.0012226999 0.68761569
0.0048647658 0.00060811639 0.68683207
0.0048226169 2.9802322e-08 0.68556011
0.0047583091 -0.00059476495 0.68361944
0.0047426247 -0.0011856258 0.68314612
0.0047281524 -0.0017730594 0.68270946
0.0047136415 -0.0023568273 0.68227148
0.0046989801 -0.0029368401 0.68182898
0.0046850415 -0.0035137534 0.68140841
0.0046743113 -0.0040900111 0.68108457
0.0047214869 -0.0047214925 0.68250823
0.0048615327 -0.0054692328 0.6867345
0.0049530249 -0.0061912537 0.6894955
0.0049992199 -0.0068739057 0.69088948
0.0050247214 -0.0075370669 0.69165909
0.0050348602 -0.0081816316 0.69196504
0.0050364109 -0.008813709 0.69201195
0.0050317431 -0.0094345212 0.69187105
0.0050199847 -0.010039955 0.69151616
0.0050063869 -0.010638535 0.69110578
0.0049923966 -0.011232853 0.6906836
0.004978484 -0.011823893 0.69026381
0.0049646311 -0.012411594 0.68984574
0.0049508722 -0.012996048 0.68943048
0.0049371724 -0.013577223 0.68901712
0.0049235653 -0.014155239 0.6886065
0.0049100332 -0.014730096 0.68819809
0.0048965579 -0.015301734 0.68779147
0.0048831739 -0.015870303 0.68738753
0.0047222087 -0.015937448 0.68253005
0.0047098398 -0.016484439 0.6821568
0.0047056777 -0.017058074 0.68203115
0.0047023348 -0.017633706 0.68193024
0.0047001718 -0.018213153 0.68186498
0.0046980269 -0.018792093 0.68180025
0.0046962807 -0.019372135 0.68174756
0.0046963603 -0.019959509 0.68174994
0.0046964395 -0.020546883 0.68175232
0.0046965666 -0.021134526 0.68175614
0.0046987734 -0.021731824 0.68182278
0.0047014118 -0.022331655 0.68190241
0.0047036237 -0.022930145 0.68196917
0.0047003468 -0.023501724 0.68187034
0.0046907337 -0.024039984 0.68158019
0.0046784338 -0.024561763 0.68120897
0.0046662139 -0.025080889 0.68084025
0.004654042 -0.025597215 0.68047291
0.0046419492 -0.026110947 0.68010795
0.0046299188 -0.026622027 0.67974496
0.004617935 -0.027130365 0.67938328
0.0046039843 -0.027623892 0.67896229
0.0045264955 -0.027724773 0.67662382
0.0045087864 -0.028179914 0.67608947
0.0044995323 -0.028684497 0.67581016
0.004493292 -0.029206365 0.67562187
0.0044897357 -0.029744506 0.67551452
0.0044903303 -0.030309707 0.67553246
0.0044963881 -0.030912638 0.67571527
0.0045064036 -0.031544775 0.67601752
0.0045214738 -0.032215476 0.67647225
0.0045400537 -0.032915384 0.67703301
0.0045596547 -0.03362745 0.67762452
0.0048155827 -0.036116868 0.6853478
0.0047369832 -0.036119491 0.68297589
0.0047355308 -0.036700368 0.68293208
0.0047413786 -0.037338316 0.68310845
0.006501344 0.020226419 0.71442074
0.0064780987 0.019434303 0.71379715
0.0064550191 0.01864785 0.71317804
0.0064312043 0.017864466 0.7125392
0.0064092712 0.017091393 0.7119509
0.0063867569 0.016321748 0.71134686
0.0063643227 0.01555723 0.71074516
0.006342046 0.014798135 0.71014756
0.0063199243 0.014044285 0.7095542
0.0060116518 0.012691259 0.70128489
0.005965278 0.011930555 0.70004094
0.0059249075 0.011191517 0.69895804
0.0059127416 0.010511577 0.69863164
0.0059511107 0.0099185705 0.6996609
0.0057642371 0.0089666247 0.69464803
0.0056970101 0.0082290173 0.69284475
0.005677586 0.0075701475 0.69232368
0.0056586829 0.0069161952 0.69181657
0.0056399256 0.0062666237 0.69131351
0.0056212917 0.005621314 0.69081366
0.0056027812 0.0049802959 0.69031709
0.0055843918 0.0043434501 0.68982381
0.0055661029 0.0037107468 0.6893332
0.0055479533 0.0030822158 0.68884635
0.0055299215 0.0024577677 0.68836272
0.0055120066 0.001837343 0.68788213
0.0054938598 0.0012208521 0.68739533
0.0054728617 0.00060811639 0.68683207
0.0054444298 2.9802322e-08 0.68606937
0.0053984518 -0.00059983134 0.68483603
0.0053250594 -0.001183331 0.68286729
0.0053073643 -0.0017691255 0.68239266
0.0052912543 -0.0023516417 0.68196046
0.0052750455 -0.0029305518 0.68152571
0.0052587418 -0.0035057962 0.68108839
0.0052432236 -0.0040780306 0.68067211
0.0052305954 -0.0046494007 0.68033332
0.0052709202 -0.0052708983 0.68141508
0.0054260464 -0.0060289502 0.68557632
0.0055779372 -0.0068174601 0.68965065
0.0056297113 -0.0075062811 0.6910395
0.0056439969 -0.0081524253 0.6914227
0.005646239 -0.0087830126 0.69148278
0.0056413296 -0.0094021857 0.69135112
0.0056317593 -0.010011971 0.6910944
0.0056187063 -0.010613084 0.69074428
0.0056037651 -0.011207521 0.6903435
0.0055881636 -0.011797249 0.68992501
0.0055726692 -0.012383729 0.68950933
0.0055572405 -0.012966871 0.6890955
0.0055419165 -0.013546914 0.68868446
0.0055266768 -0.014123738 0.68827564
0.0055115013 -0.014697313 0.6878686
0.0054964283 -0.015267849 0.68746424
0.0052871746 -0.015274048 0.68185109
0.0052803899 -0.015841156 0.68166912
0.0052751703 -0.016411602 0.68152905
0.0052706003 -0.016983002 0.6814065
0.0052660382 -0.017553449 0.68128419
0.0052622459 -0.018125474 0.68118238
0.0052595376 -0.01870057 0.68110973
0.0052571325 -0.019276142 0.68104523
0.0052548535 -0.019851655 0.68098414
0.005254942 -0.02043587 0.6809864
0.00525503 -0.021020085 0.68098879
0.0052551716 -0.021604568 0.68099254
0.0052566733 -0.022194862 0.6810329
0.0052597853 -0.022792369 0.6811164
0.0052626887 -0.023389727 0.68119425
0.0052609709 -0.02396664 0.68114817
0.0052515706 -0.024507314 0.68089604
0.0052383933 -0.025027871 0.68054253
0.0052247751 -0.025543302 0.68017727
0.0052112103 -0.026056051 0.67981333
0.0051977332 -0.026566178 0.67945182
0.00518271 -0.027065247 0.67904884
0.0051574782 -0.02750656 0.67837203
0.0050729276 -0.027619243 0.67610401
0.0050605484 -0.02811417 0.67577195
0.0050505283 -0.028619647 0.67550313
0.0050433124 -0.029139102 0.67530954
0.0050421576 -0.02969268 0.67527854
0.0050448743 -0.030269235 0.6753515
0.005053597 -0.030883104 0.67558551
0.0050667138 -0.031526208 0.67593735
0.0050851693 -0.032206059 0.67643237
0.0051059425 -0.032904953 0.67698961
0.0054211556 -0.035538673 0.68544507
0.0053162244 -0.035441458 0.6826303
0.005307328 -0.03597188 0.6823917
0.0053009945 -0.036517948 0.68222183
0.0053011025 -0.037107706 0.68222475
0.0053104283 -0.037763 0.68247485
0.0053419056 -0.038580418 0.68331921
0.0072326469 0.020974696 0.71463633
0.0072067254 0.020178854 0.71401048
0.0071810484 0.019388855 0.71339059
0.0071555241 0.018604368 0.7127744
0.007130181 0.017825484 0.71216255
0.0071050161 0.017052084 0.711555
0.0070800288 0.016284049 0.71095181
0.0070552165 0.015521497 0.71035272
0.0070305769 0.01476422 0.70975792
0.0070061097 0.014012247 0.70916724
0.0066945413 0.012719661 0.70164526
0.0066388254 0.011949897 0.70030022
0.0065971795 0.01121524 0.69929475
0.006609201 0.010574728 0.69958502
0.0066341609 0.0099512935 0.70018756
0.0066555343 0.0093177557 0.70070356
0.0063630012 0.0082719028 0.69364119
0.0062949662 0.0075539947 0.69199872
0.00627378 0.006901145 0.69148725
0.0062530283 0.0062530637 0.69098622
0.0062324139 0.0056091845 0.69048858
0.0062119127 0.0049695373 0.68999362
0.0061915675 0.0043340921 0.68950242
0.0061713555 0.0037028193 0.68901449
0.0061512752 0.0030756593 0.68852967
0.0061313249 0.0024525225 0.68804806
0.0061115036 0.0018334687 0.6875695
0.0060918103 0.0012183487 0.68709409
0.0060719252 0.00060722232 0.68661404
0.0060488186 2.9802322e-08 0.68605614
0.0060177897 -0.00060176849 0.68530703
0.0059686066 -0.0011937022 0.68411964
0.0058861827 -0.0017658174 0.6821298
0.0058661886 -0.0023464262 0.68164706
0.0058484748 -0.0029242635 0.68121946
0.0058305943 -0.0034983456 0.6807878
0.0058127055 -0.0040689111 0.68035591
0.0057956032 -0.0046364665 0.67994297
0.0057809856 -0.0052028596 0.67959011
0.005811986 -0.0058119595 0.6803385
0.0059816968 -0.0065798461 0.68443573
0.0061616162 -0.0073939264 0.68877935
0.0062287049 -0.0080973208 0.69039893
0.0062394869 -0.0087352395 0.69065928
0.0062405625 -0.0093608201 0.69068527
0.0062352768 -0.0099764466 0.69055766
0.0062252232 -0.010582864 0.69031489
0.0062113572 -0.011180401 0.68998021
0.0061951224 -0.011770755 0.68958819
0.0061779614 -0.012355924 0.68917394
0.0061609168 -0.012937903 0.68876249
0.0061439443 -0.013516694 0.6883527
0.0061270869 -0.014092296 0.68794572
0.005875791 -0.014101923 0.68187892
0.0058583156 -0.014645785 0.68145704
0.0058511142 -0.015212834 0.68128312
0.0058439504 -0.015778631 0.6811102
0.0058368039 -0.016343027 0.68093765
0.0058305552 -0.016908616 0.68078685
0.0058255307 -0.017476559 0.68066549
0.0058205146 -0.018043578 0.68054444
0.0058164224 -0.018612534 0.68044567
0.0058129975 -0.019182891 0.68036294
0.0058103148 -0.019755065 0.68029815
0.0058076927 -0.020326912 0.68023491
0.0058075176 -0.020907044 0.68023062
0.0058076344 -0.021488249 0.68023348
0.0058077895 -0.022069573 0.68023717
0.0058083916 -0.022652715 0.68025172
0.0058118501 -0.023247391 0.68033522
0.0058151959 -0.023842305 0.68041605
0.0058159162 -0.024426848 0.68043339
0.005806955 -0.024969876 0.68021703
0.0057930909 -0.025489539 0.67988229
0.0057781013 -0.026001424 0.67952043
0.0057616602 -0.026503623 0.67912352
0.005735999 -0.026959181 0.67850399
0.0056361295 -0.027053416 0.67609298
0.0056240875 -0.027557999 0.67580223
0.0056113177 -0.028056562 0.67549396
0.0056023248 -0.028571844 0.67527682
0.0055985516 -0.029112458 0.6751858
0.0055988403 -0.029673815 0.67519271
0.0056057232 -0.030270875 0.67535889
0.0056184311 -0.030901372 0.67566574
0.0056388918 -0.031577766 0.67615962
0.0056615304 -0.0322707 0.67670619
0.0056957193 -0.033035159 0.6775316
0.0059065744 -0.034848779 0.68262213
0.005892551 -0.0353553 0.68228352
0.005879947 -0.035867631 0.68197924
0.0058725337 -0.036409706 0.68180025
0.0058743209 -0.037008196 0.68184346
0.0058800066 -0.037632048 0.68198067
0.005899875 -0.038349181 0.68246031
0.0059596184 -0.039333463 0.68390262
0.0079657938 0.021724939 0.71485317
0.0079371771 0.020925283 0.71422517
0.0079088295 0.020131588 0.71360296
0.007880684 0.019343525 0.71298528
0.0078527704 0.018561125 0.71237266
0.0078250226 0.017784178 0.71176362
0.0077974373 0.017012626 0.71115822
0.0077700778 0.016246557 0.71055776
0.0077429409 0.015485883 0.70996219
0.0077159307 0.014730394 0.7093693
0.0076891393 0.013980269 0.70878136
0.0073905941 0.012765616 0.70222902
0.007319882 0.011978 0.7006771
0.0072786491 0.011248827 0.69977218
0.0072957939 0.010612071 0.7001484
0.0073192655 0.0099808276 0.70066357
0.007342916 0.0093455315 0.7011826
0.0073667206 0.0087061524 0.70170504
0.006954018 0.007586211 0.69264734
0.006886337 0.0068863332 0.69116193
0.0068634604 0.0062395036 0.69065988
0.0068408819 0.0055971146 0.69016433
0.0068184519 0.004958868 0.68967205
0.0067961682 0.0043248534 0.68918294
0.0067740055 0.0036949217 0.6886965
0.0067520114 0.0030691326 0.68821383
0.0067301588 0.0024473369 0.68773425
0.0067084478 0.0018295944 0.68725771
0.0066868765 0.0012158453 0.68678427
0.0066654435 0.00060597062 0.68631387
0.0066438932 2.9802322e-08 0.6858409
0.0066187433 -0.00060167909 0.68528891
0.0065851943 -0.0011972785 0.68455261
0.0065331468 -0.0017817616 0.68341035
0.0064415191 -0.0023423731 0.68139935
0.0064191902 -0.0029177964 0.68090928
0.0063999072 -0.0034908354 0.68048608
0.0063803783 -0.0040602386 0.68005747
0.0063609253 -0.0046260953 0.67963052
0.0063423067 -0.0051891506 0.67922187
0.0063255965 -0.0057505369 0.67885512
0.0063448758 -0.0063448846 0.67927825
0.0065287058 -0.0071222186 0.68331283
0.0067235054 -0.0079459846 0.68758821
0.006812958 -0.0086710453 0.68955147
0.0068265381 -0.0093088746 0.6898495
0.0068282452 -0.0099319816 0.68988693
0.0068229306 -0.010544538 0.68977034
0.0068125939 -0.011147857 0.68954343
0.0067980294 -0.011742055 0.68922377
0.0067805671 -0.012328297 0.68884057
0.0067618778 -0.012909055 0.68843043
0.0067433151 -0.013486624 0.68802297
0.0064438214 -0.013473421 0.68144989
0.0064309845 -0.014031231 0.68116808
0.0064209155 -0.014592975 0.68094712
0.006410921 -0.01515305 0.68072778
0.0064030597 -0.015716553 0.68055522
0.0063952599 -0.016278833 0.68038404
0.0063876077 -0.016840041 0.68021607
0.0063804635 -0.017401218 0.68005931
0.0063746958 -0.017965049 0.67993277
0.0063692355 -0.01852867 0.67981291
0.0063648657 -0.019094586 0.67971706
0.0063611157 -0.019661635 0.67963469
0.0063576666 -0.020228922 0.67955899
0.0063548125 -0.020797551 0.67949641
0.0063541997 -0.021373183 0.67948294
0.0063543478 -0.021951377 0.67948616
0.0063545168 -0.022529602 0.67948985
0.0063546859 -0.023107946 0.67949355
0.0063577932 -0.023697197 0.67956179
0.0063615604 -0.024289578 0.67964447
0.0063636787 -0.024876148 0.6796909
0.0063570319 -0.025428116 0.67954504
0.0063412334 -0.025941372 0.67919827
0.0062061246 -0.025952876 0.67623305
0.0061918078 -0.026455909 0.67591882
0.0061818538 -0.026975363 0.67570037
0.0061713136 -0.027490377 0.67546904
0.0061627161 -0.028012335 0.67528033
0.0061578117 -0.02854985 0.67517269
0.0061570774 -0.02910617 0.67515659
0.0061624777 -0.029691935 0.67527509
0.00617602 -0.030318618 0.67557228
0.0061996016 -0.030997992 0.67608988
0.0062254719 -0.03169331 0.67665768
0.0062515591 -0.032394439 0.67723018
0.0064856336 -0.034196973 0.68236756
0.0064791911 -0.034752011 0.68222612
0.006467679 -0.035278231 0.68197346
0.0064565348 -0.035804421 0.6817289
0.006452132 -0.036366522 0.68163222
0.0064528072 -0.036956996 0.68164712
0.0064624958 -0.037599981 0.68185973
0.0064838291 -0.038313538 0.68232793
0.0065263645 -0.039158165 0.68326145
0.0087271705 0.021817923 0.71560186
0.0086384313 0.020876229 0.71381658
0.008607652 0.0200845 0.71319735
0.0085770916 0.019298464 0.71258247
0.0085467463 0.018517971 0.711972
0.0085166162 0.017742991 0.71136582
0.0084866965 0.016973406 0.71076393
0.0084569873 0.016209215 0.71016622
0.0084274849 0.015450418 0.70957261
0.0083982218 0.014696896 0.70898396
0.0083690938 0.0139485 0.70839792
0.0083402004 0.013205349 0.7078166
0.0080130715 0.012019604 0.70123529
0.007964734 0.011283398 0.70026278
0.0079826964 0.010643601 0.70062417
0.0080084847 0.01001063 0.70114303
0.0080344407 0.0093735456 0.70166522
0.0080571696 0.0087286234 0.70212245
0.0080696754 0.008069694 0.7023741
0.0075374362 0.0069093406 0.69166625
0.0074712848 0.0062260926 0.69033539
0.0074467598 0.0055851042 0.68984199
0.0074223951 0.0049482882 0.6893518
0.0073981634 0.0043156147 0.68886429
0.0073741153 0.0036870837 0.68838048
0.0073502231 0.0030626357 0.68789983
0.0073264851 0.0024422109 0.68742228
0.0073029003 0.0018257499 0.6869477
0.0072794668 0.0012132823 0.68647629
0.0072561828 0.00060468912 0.68600792
0.0072330222 2.9802322e-08 0.68554187
0.0072098346 -0.00060078502 0.6850754
0.0071827099 -0.0011971295 0.68452972
0.0071467366 -0.001786679 0.683806
0.0070921327 -0.0023640096 0.68270743
0.0069911997 -0.0029129684 0.68067682
0.00696646 -0.003483206 0.68017912
0.0069456645 -0.0040516555 0.67976075
0.0069244872 -0.0046163201 0.6793347
0.0069035068 -0.0051776171 0.67891258
0.0068834033 -0.0057361722 0.67850816
0.0068650665 -0.0062929392 0.67813921
0.00687224 -0.0068722069 0.67828351
0.0070672976 -0.0076562166 0.68220782
0.0072764941 -0.0084892511 0.68641657
0.0073892218 -0.0092365146 0.68868446
0.0074067316 -0.0098755956 0.68903673
0.0074094692 -0.010496765 0.6890918
0.0074044433 -0.01110664 0.68899065
0.0073939655 -0.011707097 0.68877983
0.0073788133 -0.012298018 0.68847507
0.0073601874 -0.012880296 0.68810028
0.0070163747 -0.012863338 0.68118334
0.0070024938 -0.013421416 0.68090403
0.0069908011 -0.013981581 0.68066877
0.0069798944 -0.014541417 0.68044937
0.0069690449 -0.015099585 0.68023109
0.0069582523 -0.015656024 0.68001395
0.0069493689 -0.016215205 0.67983526
0.0069409241 -0.016773909 0.67966539
0.006932823 -0.017332047 0.67950237
0.0069251084 -0.017889857 0.67934716
0.0069181453 -0.018448353 0.67920709
0.0069122505 -0.019008696 0.67908853
0.0069076242 -0.019571602 0.67899537
0.0069035757 -0.020135403 0.67891395
0.0068995543 -0.020698637 0.67883307
0.0068961997 -0.021263272 0.67876559
0.0068951049 -0.021834493 0.67874354
0.0068952646 -0.022409588 0.67874682
0.0068954467 -0.022984833 0.67875046
0.0068956292 -0.023560047 0.67875415
0.0068977512 -0.024142116 0.67879683
0.006901816 -0.024731487 0.67887855
0.0069051534 -0.025318891 0.67894572
0.0067418776 -0.025282055 0.67566085
0.0067372588 -0.025826156 0.67556798
0.0067306031 -0.026361525 0.67543405
0.0067231148 -0.026892453 0.67528343
0.0067181536 -0.027432442 0.67518353
0.0067159031 -0.02798295 0.67513829
0.006716379 -0.028544605 0.67514789
0.0067215976 -0.029126912 0.67525285
0.0067352778 -0.029747456 0.67552805
0.0067610303 -0.030424625 0.67604619
0.0067892564 -0.031117409 0.67661405
0.0068177194 -0.031816006 0.67718667
0.0068502016 -0.032538444 0.67784011
0.0070374063 -0.034014136 0.68160647
0.0070413044 -0.034619719 0.68168485
0.0070390692 -0.035195321 0.68163991
0.0070365034 -0.035768896 0.68158829
0.0070356489 -0.036350846 0.68157107
0.0070415419 -0.036968052 0.68168962
0.0070578475 -0.037641853 0.68201768
0.0070866845 -0.038386226 0.68259782
0.0071256566 -0.039191097 0.68338192
0.0093738763 0.020910949 0.71410584
0.0093031777 0.020037651 0.71279287
0.0092702247 0.019253552 0.71218091
0.0092375036 0.018475026 0.71157324
0.0092050126 0.017701983 0.71096987
0.009172787 0.016934425 0.71037143
0.0091407122 0.016172022 0.70977581
0.0091088982 0.015415102 0.70918489
0.0090773404 0.014663428 0.70859885
0.009045965 0.01391685 0.70801628
0.0090147695 0.013175458 0.70743692
0.0087278252 0.012084693 0.70210814
0.0086553451 0.011318535 0.70076209
0.0086737266 0.010675371 0.70110339
0.0087018311 0.010040581 0.70162535
0.0087278923 0.0093992949 0.70210934
0.0087436717 0.0087437034 0.70240235
0.0087494636 0.0080764294 0.70250994
0.008747261 0.007401526 0.70246899
0.0081134019 0.0062411129 0.69069773
0.0080500133 0.0055731237 0.68952054
0.0080237314 0.0049377084 0.68903244
0.0079976209 0.0043064058 0.68854761
0.0079716798 0.0036792457 0.68806583
0.0079458775 0.0030561388 0.68758667
0.0079202699 0.0024370253 0.68711114
0.0078948271 0.0018219054 0.68663859
0.0078695472 0.0012107193 0.68616915
0.0078444285 0.00060343742 0.68570268
0.00781947 -0 0.68523914
0.0077946694 -0.00059956312 0.68477857
0.007769892 -0.0011953413 0.68431842
0.0077408119 -0.0017863214 0.68377841
0.0077025071 -0.0023699701 0.68306702
0.0076456908 -0.002940625 0.6820119
0.00753529 -0.0034778118 0.67996168
0.0075081112 -0.0040428042 0.67945695
0.0074857892 -0.0046066046 0.6790424
0.0074630077 -0.0051666796 0.67861933
0.0074405363 -0.0057234466 0.67820197
0.0074189552 -0.0062775612 0.67780125
0.0073990012 -0.0068298578 0.67743069
0.0073994617 -0.0073994696 0.67743921
0.0075976211 -0.0081820488 0.6811192
0.0078207422 -0.0090239346 0.6852628
0.0079588415 -0.0097954869 0.68782747
0.0079806931 -0.010436267 0.6882332
0.0079845581 -0.011055529 0.68830502
0.0079799602 -0.01166299 0.68821961
0.0079694577 -0.012260705 0.68802452
0.0075908033 -0.012262076 0.6809926
0.007576264 -0.012821317 0.68072259
0.0075620078 -0.013378918 0.68045783
0.0075478056 -0.013934374 0.68019408
0.0075349379 -0.014490247 0.67995512
0.0075232671 -0.015046507 0.6797384
0.0075116321 -0.015601069 0.67952234
0.007500058 -0.016153932 0.6793074
0.007490084 -0.016708642 0.67912215
0.0074810288 -0.017263889 0.67895401
0.0074725142 -0.017819077 0.67879587
0.0074642166 -0.01837343 0.6786418
0.0074560111 -0.018926769 0.67848945
0.0074496907 -0.019483805 0.67837203
0.0074448036 -0.020043671 0.67828125
0.0074404627 -0.020604342 0.67820066
0.0074361512 -0.021164417 0.67812061
0.0074319425 -0.021724164 0.67804247
0.0074302801 -0.022290826 0.67801154
0.0074304757 -0.022863001 0.67801523
0.0074306712 -0.023435146 0.67801875
0.0074308668 -0.02400744 0.6780225
0.0072683739 -0.024041533 0.67500484
0.0072676018 -0.024598032 0.67499048
0.0072668302 -0.025154412 0.67497611
0.0072651939 -0.025707603 0.67494571
0.0072640493 -0.026262313 0.67492449
0.0072653107 -0.026825756 0.67494792
0.0072673913 -0.027392447 0.6749866
0.0072718607 -0.027968675 0.67506957
0.0072796657 -0.028558671 0.67521453
0.0072948546 -0.029179394 0.67549658
0.0073221466 -0.029851794 0.67600334
0.0073527051 -0.030542016 0.67657089
0.0073834965 -0.031237841 0.67714274
0.0074145468 -0.031939536 0.67771935
0.0074588917 -0.032704353 0.67854291
0.0075534848 -0.033700138 0.68029952
0.0075936359 -0.034463435 0.68104517
0.0076110628 -0.035127938 0.68136883
0.0076182252 -0.035747051 0.68150187
0.0076263025 -0.036371589 0.68165189
0.0076421467 -0.037035048 0.6819461
0.0076728077 -0.037773788 0.6825155
0.0077063707 -0.03853184 0.68313879
0.0077411835 -0.039301366 0.68378532
0.010013033 0.020026088 0.71269333
0.0099601801 0.019208938 0.71178192
0.0099251047 0.018432349 0.71117711
0.009890276 0.017661214 0.71057647
0.0098556904 0.016895503 0.70998007
0.009821346 0.016135097 0.70938778
0.009787241 0.015379965 0.70879972
0.0097533716 0.014630079 0.70821565
0.0097197741 0.013885438 0.70763624
0.0096863685 0.013145804 0.70706022
0.0094859991 0.012196302 0.70360494
0.0093561709 0.011361063 0.70136619
0.0093688564 0.010707319 0.70158494
0.0093985423 0.010069877 0.70209682
0.009417939 0.0094179511 0.70243132
0.0094260415 0.0087527633 0.70257103
0.009425384 0.0080789328 0.70255971
0.0094162254 0.0073985159 0.70240176
0.0093967989 0.0067120194 0.70206678
0.0086820563 0.0055813491 0.68974143
0.0086225318 0.0049271882 0.68871498
0.0085945316 0.0042972863 0.68823218
0.0085666832 0.0036714375 0.68775189
0.0085390443 0.0030496716 0.68727529
0.0085115824 0.0024318993 0.68680173
0.0084842974 0.0018181205 0.68633121
0.0084571866 0.0012081563 0.68586373
0.0084302491 0.00060218573 0.68539917
0.008403453 -0 0.68493712
0.0083768554 -0.00059831142 0.68447846
0.0083504254 -0.0011929274 0.68402272
0.0083241342 -0.0017837286 0.68356931
0.0082931127 -0.0023694336 0.68303436
0.0082525937 -0.0029473305 0.68233562
0.0081938505 -0.0035116673 0.68132269
0.0080738757 -0.0040369332 0.6792537
0.0080441833 -0.0045966506 0.67874169
0.0080203898 -0.0051559508 0.67833149
0.0079960264 -0.0057114363 0.67791128
0.0079720989 -0.0062637925 0.67749864
0.0079490934 -0.0068134665 0.67710197
0.0079274857 -0.007361263 0.67672932
0.0079247225 -0.0079247355 0.6766817
0.0081198858 -0.0086998343 0.68004715
0.008356479 -0.0095502436 0.68412709
0.0085215429 -0.010347575 0.68697345
0.0085484674 -0.010990858 0.68743777
0.0085536083 -0.011608452 0.68752646
0.0081686154 -0.011669427 0.68088752
0.0081504406 -0.012225658 0.68057406
0.0081332717 -0.012780845 0.680278
0.0081179887 -0.013336688 0.68001449
0.0081027895 -0.013890505 0.67975235
0.0080876751 -0.014442265 0.67949176
0.0080736075 -0.014993817 0.67924917
0.008061165 -0.015546501 0.67903453
0.0080487616 -0.016097516 0.67882067
0.0080364216 -0.016646832 0.67860782
0.0080253119 -0.017197073 0.67841625
0.0080156848 -0.017749012 0.67825031
0.0080067394 -0.01830107 0.67809606
0.0079979198 -0.018852234 0.67794394
0.0079890927 -0.019402057 0.67779171
0.0079816217 -0.019954026 0.67766291
0.007976491 -0.020510942 0.6775744
0.0079718642 -0.021068454 0.67749465
0.0079672681 -0.0216254 0.67741537
0.0079626776 -0.02218172 0.67733622
0.0079598632 -0.02274245 0.6772877
0.0077972678 -0.022834837 0.6744839
0.0077929958 -0.023378998 0.67441016
0.0077887531 -0.023922563 0.67433697
0.0077869827 -0.024473369 0.67430651
0.0077891774 -0.025036633 0.6743443
0.0077940444 -0.025608987 0.67442822
0.007800994 -0.026189059 0.67454809
0.0078097857 -0.026776403 0.67469972
