# .PCD v0.7 - Point Cloud Data file format
VERSION 0.7
FIELDS x y z
SIZE 4 4 4
TYPE F F F
COUNT 1 1 1
WIDTH 408
HEIGHT 1
VIEWPOINT 0 0 0 1 0 0 0
POINTS 408
DATA ascii
0.01939282 -0.019392788 0.74288791
0.01939282 -0.018353894 0.74288785
0.01939282 -0.0155835 0.74288791
0.017621316 -0.010365814 0.74251461
0.020188112 -0.0045249164 0.74374282
0.021803349 -0.019693345 0.74547917
0.021803349 -0.012659997 0.74547917
0.022623548 -0.018381655 0.74636078
-0.0063674334 0.022639781 0.74648315
-0.0074422769 0.024452507 0.74679106
-0.0049656527 0.029439226 0.74693859
-0.0049656527 0.029439226 0.74693859
-0.0074417768 0.040397018 0.74677932
-0.0049656322 0.042562574 0.74693781
-0.0049656322 0.042562574 0.74693781
-0.0073233228 0.048427474 0.74677324
-0.0042747403 0.020661265 0.74768162
-0.008521907 0.022370011 0.74712688
-0.0042747227 0.024579659 0.7476809
-0.0042747227 0.03455402 0.7476809
-0.0042747227 0.045597047 0.7476809
-0.0092522623 0.04697305 0.74750185
0.024338607 -0.0093059242 0.74849874
0.013576206 -0.0035727024 0.74818385
0.00071775186 -0.0025120974 0.7489599
0.0086149434 0.0093328953 0.74899858
0.0043040393 0.024389595 0.74886048
-0.0035777919 0.039355725 0.74843037
-0.0035777919 0.040429085 0.74843037
0.0025095721 0.048399478 0.74878526
0.0086149434 0.048100144 0.74899864
0.0093362508 -0.0025135875 0.74906164
0.0093362508 -0.0025135875 0.74906164
-0.00072125898 -0.0014425218 0.74980664
0.0093362508 0.0014363527 0.7490617
-0.0026391293 0.0055199764 0.74949139
0.0028718379 0.0086155236 0.74901009
-0.00071947579 0.0093532205 0.74937618
0.0055083539 0.010537297 0.74913037
0.0064769993 0.011514664 0.74942219
-0.0014439987 0.012273997 0.7499854
-0.0024019461 0.018500041 0.74969447
0.0075544557 0.018706858 0.74938059
0.0043125506 0.025156558 0.74920297
-0.0026383535 0.030468753 0.74944055
0.010102156 0.031388849 0.74988472
0.0075544557 0.034535721 0.74938053
-0.002638353 0.035506956 0.74944055
0.010102156 0.03643994 0.74988472
0.010102156 0.03643994 0.74988472
-0.0014420929 0.046868026 0.74975532
0.0075540831 0.047484145 0.74937153
0.0075540831 0.047484145 0.74937153
-0.014494863 0.003623724 0.75064784
0.010875411 0.0065252781 0.75071645
-0.015246446 0.017424524 0.75095636
-0.015246446 0.017424524 0.75095636
-0.015246254 0.019602329 0.75095415
0.010875411 0.032626212 0.75071645
-0.00072614261 0.037759423 0.75098568
-0.014491054 0.040574968 0.75060183
-0.014491054 0.042386353 0.75060177
-0.014491054 0.047458217 0.75060183
0.011654718 0.00036427379 0.75153542
-0.016034918 0.0065597296 0.75164169
-0.0007284077 0.0065556765 0.75153244
-0.013478411 0.0094718337 0.75157976
-0.013478411 0.0094718337 0.75157976
-0.016035188 0.011661947 0.75164467
-0.016035188 0.011661947 0.75164467
-0.016035188 0.016399622 0.75164461
0.011656038 0.016391307 0.75155532
0.011656038 0.016391307 0.75155532
0.011656038 0.02039808 0.75155532
0.00036437035 0.021512702 0.75173628
0.011656038 0.023312062 0.75155538
-0.016034951 0.024416879 0.75164205
-0.013478326 0.025500968 0.75157857
0.011656087 0.039339304 0.75155616
0.011656087 0.039339304 0.75155616
0.0014535853 0.041427195 0.75114256
0.0025466939 0.043655053 0.75133365
0.011656087 0.04735288 0.75155604
-0.0014529593 0.051580071 0.75106698
-0.001455979 0.053507283 0.75143152
-0.0014567787 0.055357605 0.75152802
-0.00072833133 0.055353194 0.75151408
-0.0055002724 -0.063433841 0.75272286
0.0014619395 -0.062497899 0.75215101
0.00036531888 -0.06136401 0.75204343
-0.0036564486 -0.060697049 0.75222832
-0.0043914909 -0.056357473 0.7523793
-0.0043914909 -0.056357473 0.7523793
0.00036531428 -0.056615122 0.75204194
0.0044032144 -0.055407092 0.75285101
0.00036531119 -0.053327605 0.75204122
0.0044032144 -0.052471638 0.75285101
-0.0036564178 -0.05045855 0.75222677
-0.0036564178 -0.05045855 0.75222677
-0.0036564178 -0.048630357 0.75222683
-0.0036564178 -0.044608325 0.75222683
-0.0036564178 -0.044608325 0.75222683
0.0025614277 -0.043541521 0.7523492
-0.002557504 -0.04164952 0.75208426
-0.0054983916 -0.04031986 0.75266266
-0.0036564178 -0.039489329 0.75222683
-0.0054983809 -0.036654353 0.75266224
0.0014619088 -0.03654772 0.75214732
-0.0014608331 -0.014608294 0.75201744
-0.0014608331 -0.014608294 0.75201744
0.00036540494 -0.014612436 0.75206715
0.0014673849 -0.0095380247 0.75280833
-0.0054985117 -0.008430697 0.75266641
0.0014659462 -0.005497545 0.7526347
0.0014659462 -0.005497545 0.7526347
-0.013150816 -0.00073057413 0.75206196
0.014673917 0.00036710501 0.75280911
-0.013147997 0.0025565624 0.75202417
-0.012467927 0.0036670864 0.75273955
-0.010981734 0.0095174909 0.7524277
0.015398631 0.010632396 0.75270593
0.014682963 0.020556152 0.75291836
0.014682963 0.021290332 0.75291836
0.013220533 0.030480653 0.75299704
-0.012463034 0.032623842 0.75267005
0.013220365 0.034519851 0.75299478
-0.012463034 0.035556301 0.75267005
-0.0088094799 0.0374403 0.7529124
-0.0088094799 0.0374403 0.7529124
0.012444288 0.04172498 0.75240386
0.0054840297 0.042407677 0.7521987
0.01322003 0.045535684 0.75299037
0.014682064 0.046615541 0.75290751
0.014682064 0.046615541 0.75290751
-0.010628378 0.04947795 0.7526421
0.0043866672 0.052640021 0.75218517
-0.005604466 0.054580789 0.75215673
-0.005604466 0.054580789 0.75215673
-0.005604466 0.054580789 0.75215673
0.001462161 0.057755381 0.75217777
0.0066397395 -0.062708646 0.75378764
0.0066397395 -0.060495377 0.7537877
0.0066397395 -0.060495377 0.7537877
-0.0081102783 -0.059721142 0.7536788
-0.0066117481 -0.059505731 0.75303674
-0.0073583345 -0.056659162 0.75332528
0.0066397395 -0.05643779 0.75378764
-0.0081101581 -0.053453311 0.75367618
-0.0081101581 -0.053453311 0.75367618
0.0066397395 -0.052380174 0.75378764
-0.0073583033 -0.043413967 0.75332445
-0.0066114962 -0.043342024 0.75303
-0.0073583033 -0.036423609 0.75332451
0.0055175917 -0.035310477 0.75327724
-0.0073583345 -0.033480406 0.75332522
0.002214375 -0.030263126 0.75387847
-0.0073586772 -0.024283648 0.75333357
-0.0073586772 -0.024283648 0.75333357
0.013593244 0.0025716871 0.75306678
-0.011045596 0.012518346 0.75345552
0.00073476293 0.016532168 0.75306678
-0.011778673 0.018404186 0.75340581
0.013717263 0.024494996 0.75308704
0.016206594 0.024309903 0.75352561
-0.011778673 0.027606264 0.75340581
0.0014761308 0.027308434 0.75386405
-0.011424921 0.040541723 0.75363642
0.0081199612 0.052410662 0.75389135
-0.0073888465 -0.065021843 0.75406194
-0.0088670123 -0.048399091 0.75406981
0.0081556179 -0.0455973 0.75467384
0.0081556179 -0.0455973 0.75467384
0.0081556877 -0.036329836 0.75467539
0.0029628472 -0.016295642 0.75450295
-0.0096393628 -0.011863798 0.75469071
0.0022250195 0.00037094951 0.75473505
-0.010386838 0.0074191988 0.75479388
0.0022241932 0.014457256 0.75466859
-0.010388124 0.026712328 0.75481606
-0.011088599 0.031417698 0.75414765
-0.010357601 0.053267688 0.75428969
0.008635303 0.054522745 0.75436258
-0.01036939 0.056290954 0.75449306
-0.01118075 -0.057394505 0.75563073
0.0089232372 -0.055398419 0.75520098
-0.010400739 -0.047546238 0.75503361
-0.011180462 -0.046585247 0.75562614
0.0096994508 -0.038424745 0.75580657
0.0096995132 -0.032829106 0.7558077
-0.0044703246 -0.023841709 0.75555134
0.0037220779 -0.022332489 0.75539708
-0.0089332936 -0.019355476 0.75540328
0.0037204518 -0.016369998 0.75531864
-0.010423158 -0.0085618645 0.75542021
-0.012007943 -0.064542711 0.75686526
0.010486137 -0.05055815 0.75650626
-0.011970454 -0.037407637 0.7562995
-0.0094812252 -0.029443514 0.75640094
0.0044889399 -0.028429955 0.75630027
-0.0092447158 -0.027486017 0.75665563
-0.011970505 -0.023566931 0.75630033
-0.0044866018 -0.023180753 0.75620615
0.010505454 -0.022511691 0.75683939
0.010505454 -0.021386087 0.75683939
0.0044859839 -0.01943922 0.75618136
0.0044853664 -0.017567664 0.7561565
-0.011970505 -0.016459405 0.75630027
0.004483765 -0.012704015 0.75609207
0.010505454 -0.012381405 0.75683939
0.0052533848 -0.0082553327 0.75686204
0.0037426203 0.0026198477 0.75638902
-0.013516527 0.052564323 0.75696695
-0.013593317 -0.056638777 0.75799692
-0.013593317 -0.056638777 0.75799692
-0.012773338 -0.052596092 0.75707674
-0.012773172 -0.044330418 0.75707442
0.011286211 -0.043640047 0.75732815
-0.012773117 -0.041324794 0.75707358
0.011286529 -0.039502844 0.75733328
0.0060401484 -0.027558163 0.75795692
0.009420692 -0.026379615 0.75763953
-0.012773006 -0.02141355 0.75707209
-0.0075120716 -0.017277747 0.75703675
-0.0052791531 -0.017345816 0.75775087
0.011285772 -0.015423864 0.75732112
0.011285674 -0.014295161 0.75731957
0.0060326112 -0.010557055 0.75772947
0.0094207134 -0.0075370669 0.75763994
0.0045104511 0.0063897967 0.75716591
0.0045094267 0.018413484 0.75712466
0.0045087636 0.020289481 0.75709796
0.0045094267 0.02931127 0.75712466
0.0045094267 0.030438662 0.7571246
0.012035238 0.053406388 0.75727701
0.012035238 0.053406388 0.75727701
0.012042277 0.054566637 0.75738323
0.012102465 -0.058621332 0.75829148
0.012102413 -0.057486445 0.75829065
-0.0075622303 -0.0083184242 0.75824767
-0.0075622303 -0.0083184242 0.75824767
0.0083308546 -0.0064374655 0.75851989
-0.02119223 -0.0034058839 0.75840282
-0.020420687 -0.0015126169 0.75827157
-0.020417044 0.0015123785 0.75823897
-0.020407362 0.019651562 0.75815243
0.0064411121 0.019701689 0.758618
-0.020407362 0.024564415 0.75815237
-0.021191124 0.03254351 0.75839323
-0.019728435 0.035662949 0.75886643
-0.020407362 0.039303064 0.75815237
-0.020407362 0.039303064 0.75815237
-0.021191124 0.04049018 0.75839323
-0.014377562 0.056753546 0.75836623
0.01294493 -0.063201696 0.75951356
0.0129413 -0.062422752 0.75946206
0.01294011 -0.040342689 0.75944513
-0.014435785 -0.03646937 0.75910604
-0.012954355 -0.032004863 0.75964749
-0.019011416 -0.0022813678 0.75926977
-0.019051526 0.0045723617 0.75965714
-0.019045593 0.027425647 0.7595998
-0.019045677 0.031615838 0.75960064
-0.019004302 0.047510728 0.75920111
-0.015313225 -0.039431572 0.7605263
-0.014542181 -0.031380475 0.76045787
-0.014514877 -0.027501851 0.76011097
-0.018356374 0.013767302 0.76033014
-0.018357344 0.014532954 0.76033992
-0.022245452 0.025313824 0.76086986
-0.022246433 0.046794236 0.76087809
-0.013412537 -0.030437162 0.76249778
-0.014719008 -0.005422771 0.76270473
0.014757966 -0.059420213 0.76319975
-0.016402073 -0.021478891 0.7642417
-0.016402073 -0.021478891 0.7642417
-0.015669063 -0.016452461 0.76482165
-0.016402073 -0.015621006 0.76424176
-0.016402073 -0.012496799 0.76424176
-0.014946676 -0.018486649 0.76559758
-0.014218401 -0.018562898 0.76638079
-0.014218401 -0.018562898 0.76638079
-0.014218401 -0.018562898 0.76638079
0.014328499 -0.028656989 0.76785743
0.014320232 -0.021480322 0.76774657
0.014320232 -0.021480322 0.76774657
0.014314726 -0.016700506 0.76767266
0.019519558 0.023586184 0.77203083
0.018934578 0.0024697185 0.77442765
0.018895628 0.026289582 0.77401876
0.019873461 0.01656121 0.7755909
0.019873366 0.039746732 0.77558994
0.021397464 -0.014994886 0.7450428
0.014893269 -0.0090435371 0.74691558
0.014893269 -0.0090435371 0.74691558
-0.0088869799 -0.0030214339 0.74731255
0.018355861 -0.0028239787 0.74612153
-0.0069050076 0.010976315 0.74664134
-0.0069050076 0.010976315 0.74664134
-0.0049652811 0.021050908 0.74698937
-0.0069045755 0.030979447 0.74663013
-0.0030476495 0.0089684054 0.74889338
0.0075544557 0.04101117 0.74938059
0.0089755971 0.041107945 0.74903011
0.0030474705 0.04732509 0.74878973
-0.0042853546 0.049281597 0.74810869
0.010666158 -0.0048816055 0.75025415
0.010837985 -0.0030707717 0.75011408
-0.013822924 0.00090939552 0.75131875
-0.0010896653 0.0030896515 0.75118774
-0.0010896653 0.0030896515 0.75118774
0.011265725 0.0030887648 0.75113595
-0.014868854 0.015049823 0.75078034
-0.013534421 0.023064051 0.75151831
0.011265749 0.027072061 0.7511363
0.011265749 0.032976825 0.75113618
0.01126576 0.045059148 0.75113648
-0.0048567434 0.051294923 0.75154179
0.0028780818 0.052851044 0.75180596
-0.0010992619 -0.064855389 0.75259835
-0.0010992619 -0.064855389 0.75259835
0.0049604019 -0.057034995 0.7530641
-0.0031374486 -0.03895621 0.75215852
-0.0049448367 -0.034976155 0.75251687
-0.0049447985 -0.028932936 0.75251555
-0.0010957642 -0.025019579 0.75203729
-0.0010956986 -0.021000586 0.75202668
0.0022115563 -0.01290074 0.75365162
0.0022046629 0.0084494501 0.75309688
0.0029429381 0.02206251 0.75322455
-0.011778673 0.029078633 0.75340581
0.0065993401 0.037029177 0.75270391
-0.010875914 0.038896766 0.75369847
0.01321003 0.039076693 0.75284278
0.0051976703 0.051243216 0.75213099
-0.0092485389 -0.056967955 0.7542941
-0.0092485389 -0.056967955 0.7542941
0.0089260675 -0.049022418 0.75522655
0.0073946961 -0.046956301 0.75420308
-0.009248375 -0.043095246 0.75429082
-0.0092483573 -0.038933501 0.75429034
0.0073946961 -0.037158333 0.75420308
-0.010790359 -0.021021377 0.75532585
0.0033427961 -0.020980041 0.75497222
0.0033408315 -0.012988843 0.75486696
-0.010608676 0.013076534 0.75437248
-0.012773738 -0.061050959 0.75708246
-0.011970454 -0.049004048 0.7562995
-0.013183111 -0.044913251 0.75753391
0.0097130276 -0.032127708 0.75605875
-0.013183061 -0.022974513 0.75753313
0.0094154058 -0.022975199 0.75753832
-0.004898286 -0.019026808 0.75759971
-0.0091758016 -0.010861591 0.75652248
0.0060310205 -0.0069733784 0.75768143
0.0060310205 -0.0069733784 0.75768143
0.0045116274 0.0028197244 0.75721323
-0.0089833727 0.031067535 0.75641084
0.0037407347 0.031048119 0.75629795
0.012520998 -0.040973268 0.75886393
-0.014435785 -0.033050343 0.75910598
0.0083263246 -0.030844703 0.75842047
-0.013658684 -0.025421098 0.75887364
0.0083223917 -0.017022684 0.75833416
-0.013597514 -0.01491949 0.75805318
-0.0071828272 -0.0052925944 0.75821477
-0.020799635 0.010966964 0.75827622
0.0064412383 0.028984785 0.75862157
-0.019387055 0.034973726 0.75923353
-0.015314355 -0.054940246 0.76053995
-0.015312701 -0.033113711 0.76051998
-0.016252615 -0.042953342 0.76252353
-0.013694733 -0.0071049235 0.76282775
0.013265106 -0.031992286 0.7640605
0.014321839 -0.022875197 0.76776814
0.019505 0.01304921 0.77464306
0.01940402 0.016925871 0.77500927
0.019403972 0.040972572 0.7750088
0.020188112 -0.020536169 0.74374282
0.0059345006 -0.0043149181 0.74929935
0.0059345006 -0.0043149181 0.74929935
0.0137471 -0.002095086 0.75006264
-0.016035188 0.010021999 0.75164461
-0.0020690651 0.018011143 0.75005257
0.0063993908 0.022423698 0.74927795
-0.0020764517 0.034004159 0.75004447
-0.0020764517 0.034004159 0.75004447
-0.0020946413 0.053991109 0.75152433
-0.0093843527 -0.062017724 0.75445688
-0.0059649837 -0.054030847 0.75285083
0.0020133262 -0.054020271 0.75229084
0.0089260712 -0.045985512 0.75522655
0.0089260712 -0.045985512 0.75522655
-0.0059648613 -0.038045589 0.75284702
-0.0059648613 -0.038045589 0.75284702
-0.012820339 -0.0043956637 0.75254822
0.0016878783 0.0059865229 0.75410938
-0.012447285 0.010067444 0.75244641
0.0022171973 0.0082322117 0.75367945
-0.010590929 0.050536186 0.75351363
0.0060839728 0.051116664 0.75246692
-0.013809856 -0.054020878 0.75832522
-0.013565412 -0.021904163 0.75801414
0.0060345018 -0.0099388659 0.75763464
0.0037402676 0.027304024 0.75627542
-0.020799242 0.033940181 0.75827289
-0.011958866 0.057552099 0.75612468
-0.022245549 0.012273401 0.7608707
0.015201925 -0.030002587 0.76884079
