# .PCD v0.7 - Point Cloud Data file format
VERSION 0.7
FIELDS x y z
SIZE 4 4 4
TYPE F F F
COUNT 1 1 1
WIDTH 1287
HEIGHT 1
VIEWPOINT 0 0 0 1 0 0 0
POINTS 1287
DATA ascii
-0.011943195 -0.03209731 0.75588822
-0.011977158 -0.032937169 0.7564007
-0.012005713 -0.033766061 0.75683159
-0.012032164 -0.03459245 0.75723064
-0.012058731 -0.035422474 0.75763148
-0.012081214 -0.036243647 0.75797081
-0.012103571 -0.037067175 0.75830817
-0.012125958 -0.037893623 0.75864589
-0.012146411 -0.038716674 0.75895452
-0.0121656 -0.039538175 0.75924408
-0.012184798 -0.040362149 0.75953376
-0.01220411 -0.041188836 0.75982511
-0.012220474 -0.042007864 0.76007205
-0.01223672 -0.04282853 0.76031721
-0.012253064 -0.043651521 0.76056379
-0.012268855 -0.044474602 0.76080203
-0.012283602 -0.045295775 0.76102453
-0.012298438 -0.046119153 0.76124841
-0.012313256 -0.046944261 0.76147199
-0.012328164 -0.047771633 0.76169693
-0.012343054 -0.048600763 0.76192158
-0.012358034 -0.049432099 0.76214767
-0.012372996 -0.050265253 0.76237345
-0.012437324 -0.051303953 0.76334405
-0.012706866 -0.05321002 0.76741117
-0.012727986 -0.054093927 0.76772982
-0.012749177 -0.054980844 0.7680496
-0.012770497 -0.05587092 0.76837122
-0.012791829 -0.056763768 0.76869309
-0.012834412 -0.057754815 0.76933563
-0.011201896 0.032112122 0.75597113
-0.01111532 0.031122893 0.7545777
-0.011080772 0.030287445 0.75402164
-0.011057874 0.029487669 0.75365317
-0.011043067 0.028712004 0.75341481
-0.011035491 0.027956605 0.75329292
-0.011027926 0.027202249 0.75317109
-0.011019719 0.026447356 0.753039
-0.011010686 0.025691658 0.75289363
-0.011001669 0.024937123 0.75274849
-0.010994243 0.024187326 0.75262892
-0.010989837 0.02344501 0.75255811
-0.010994057 0.022721052 0.752626
-0.011003062 0.022006154 0.75277096
-0.011013757 0.021293253 0.75294304
-0.011024707 0.020579517 0.75311929
-0.011035631 0.019864172 0.75329518
-0.011046625 0.019147485 0.75347203
-0.011057639 0.018429428 0.75364935
-0.011068677 0.017709911 0.75382692
-0.011079688 0.016988873 0.75400424
-0.011090769 0.016266495 0.75418252
-0.011101873 0.015542626 0.75436127
-0.011112997 0.014817327 0.75454026
-0.011124098 0.014090568 0.7547189
-0.011135268 0.013362348 0.75489879
-0.011146461 0.012632668 0.75507891
-0.011157676 0.011901528 0.75525939
-0.011168865 0.011168867 0.75543952
-0.011180125 0.010434806 0.75562072
-0.011191408 0.0096992254 0.75580227
-0.011202666 0.0089621544 0.75598353
-0.011213995 0.0082235932 0.75616586
-0.011225346 0.0074835718 0.75634849
-0.01123672 0.0067420304 0.7565316
-0.011248069 0.0059989989 0.75671422
-0.01125696 0.0052532554 0.7568574
-0.01124147 0.0044966042 0.75660807
-0.011162311 0.0037207901 0.75533396
-0.01102163 0.0029391348 0.75306976
-0.010909556 0.0021819174 0.751266
-0.010906314 0.0014542043 0.75121379
-0.010916823 0.00072780252 0.75138295
-0.010927809 2.9802322e-08 0.75155973
-0.011408595 -0.00076055527 0.75929791
-0.011420795 -0.0015227497 0.75949419
-0.01143297 -0.002286613 0.75969023
-0.011445172 -0.003052026 0.75988662
-0.011457399 -0.0038191378 0.76008344
-0.011469653 -0.0045878589 0.76028061
-0.011481932 -0.0053582191 0.76047826
-0.011494289 -0.0061302781 0.7606771
-0.01150327 -0.0069019794 0.7608217
-0.01149718 -0.0076647699 0.76072365
-0.011470915 -0.0084119737 0.76030087
-0.011412293 -0.0091298223 0.75935739
-0.011297269 -0.009790957 0.75750613
-0.011151516 -0.010408074 0.75516027
-0.010792583 -0.010792553 0.74938333
-0.010798128 -0.011518031 0.74947262
-0.010808384 -0.01224947 0.74963766
-0.010820501 -0.012984604 0.74983263
-0.0108326 -0.013721257 0.75002736
-0.010844726 -0.01445964 0.75022256
-0.01085688 -0.015199631 0.75041819
-0.010869015 -0.015941203 0.75061351
-0.010881223 -0.016684502 0.75080997
-0.010893459 -0.017429531 0.7510069
-0.010905676 -0.018176109 0.75120354
-0.010917966 -0.018924445 0.75140136
-0.010930284 -0.01967448 0.75159955
-0.01094263 -0.020426214 0.75179827
-0.010954958 -0.021179587 0.75199676
-0.01096736 -0.021934718 0.75219631
-0.01097979 -0.022691548 0.75239635
-0.010992202 -0.023450047 0.75259614
-0.011006222 -0.024213672 0.7528218
-0.011022422 -0.024984121 0.75308251
-0.011041195 -0.025762767 0.75338465
-0.011063414 -0.026552171 0.75374222
-0.011092705 -0.027362019 0.75421369
-0.011123908 -0.02818054 0.75471592
-0.011153616 -0.028999388 0.75519407
-0.01117792 -0.029807776 0.75558519
-0.011202377 -0.0306198 0.75597888
-0.011225152 -0.031430423 0.75634539
-0.01124569 -0.032237649 0.75667596
-0.011266353 -0.033047944 0.75700855
-0.011286798 -0.033860415 0.75733757
-0.011304473 -0.034667075 0.75762206
-0.011322154 -0.035476089 0.75790662
-0.011339939 -0.036287814 0.7581929
-0.011356593 -0.037098169 0.75846088
-0.011371559 -0.037905186 0.7587018
-0.011386613 -0.038714468 0.75894409
-0.011401707 -0.039525896 0.75918698
-0.011415642 -0.040335298 0.75941133
-0.01142926 -0.041145325 0.7596305
-0.01144296 -0.041957557 0.75985104
-0.011456643 -0.042771459 0.76007122
-0.01147041 -0.043587536 0.76029277
-0.011484159 -0.044405431 0.76051408
-0.011497991 -0.045225412 0.7607367
-0.011511806 -0.04604724 0.76095909
-0.011525706 -0.046871185 0.76118279
-0.011539588 -0.047696948 0.76140618
-0.011553555 -0.048524916 0.76163101
-0.011567503 -0.049354672 0.76185548
-0.011581538 -0.050186664 0.76208138
-0.011604797 -0.051061094 0.7624557
-0.011903003 -0.053166717 0.76725519
-0.011923644 -0.054053843 0.76758748
-0.011944356 -0.054944009 0.76792085
-0.011965141 -0.055837303 0.76825535
-0.011985998 -0.056733727 0.76859105
-0.012015065 -0.057672292 0.76905888
-0.010341438 0.036195099 0.75401103
-0.010285244 0.035263717 0.75304198
-0.010256143 0.034431338 0.75254023
-0.010236116 0.033632994 0.75219488
-0.01022308 0.032859921 0.75196999
-0.010215695 0.032106489 0.75184262
-0.010208706 0.031355321 0.75172222
-0.01020177 0.030605316 0.75160259
-0.010194843 0.029856324 0.75148308
-0.010187925 0.029108375 0.75136381
-0.010179866 0.028358251 0.75122482
-0.010176715 0.027622521 0.75117046
-0.010182039 0.026909709 0.75126231
-0.010191084 0.026205659 0.75141835
-0.010201128 0.025502831 0.75159144
-0.010211149 0.024798512 0.7517643
-0.010221234 0.024092942 0.7519381
-0.010231337 0.023385912 0.75211245
-0.010241418 0.022677451 0.75228626
-0.010251561 0.021967649 0.75246119
-0.010261726 0.021256447 0.75263643
-0.01027191 0.020543844 0.75281209
-0.010282114 0.01982978 0.7529881
-0.010292339 0.019114345 0.75316441
-0.01030254 0.018397421 0.75334024
-0.010312806 0.017679125 0.75351727
-0.010323091 0.016959399 0.75369471
-0.010333397 0.016238242 0.75387239
-0.010343681 0.015515536 0.75404972
-0.010354028 0.014791518 0.75422817
-0.010364396 0.014065951 0.75440693
-0.010374785 0.013339013 0.7545861
-0.010385151 0.012610555 0.75476485
-0.010395582 0.011880636 0.75494468
-0.010406033 0.011149317 0.75512493
-0.010416506 0.010416508 0.75530553
-0.010426955 0.0096821785 0.75548571
-0.01043747 0.0089464188 0.75566709
-0.010448006 0.0082091689 0.75584877
-0.010458519 0.0074703693 0.75603002
-0.010469098 0.0067301095 0.75621247
-0.010479698 0.0059883893 0.75639522
-0.010489685 0.0052448511 0.75656748
-0.010484079 0.0044932067 0.7564708
-0.010436306 0.0037272573 0.755647
-0.010311669 0.002946198 0.75349772
-0.010182935 0.0021820664 0.75127774
-0.010157038 0.0014509857 0.75083119
-0.010167185 0.00072625279 0.75100613
-0.010177395 2.9802322e-08 0.7511822
-0.010193219 -0.00072810054 0.75145507
-0.010640244 -0.0015200078 0.75916374
-0.010651567 -0.0022824705 0.759359
-0.010662914 -0.0030465424 0.75955468
-0.010674285 -0.0038122535 0.75975078
-0.010685728 -0.0045795739 0.75994802
-0.010697148 -0.005348593 0.76014501
-0.010708592 -0.0061191916 0.76034236
-0.010719022 -0.0068908334 0.76052225
-0.0099976808 -0.0071412027 0.74808317
-0.010005125 -0.0078611672 0.7482115
-0.0100153 -0.0085845292 0.74838698
-0.0100262 -0.0093100369 0.74857497
-0.010037412 -0.010037392 0.74876833
-0.010048899 -0.010766655 0.7489664
-0.010060079 -0.011497259 0.74915922
-0.010071285 -0.012229413 0.74935234
-0.010082473 -0.012963176 0.74954534
-0.010093728 -0.013698608 0.74973947
-0.010105008 -0.014435709 0.74993396
-0.010116314 -0.015174448 0.75012898
-0.010127603 -0.015914798 0.75032359
-0.010138959 -0.016656846 0.75051939
-0.01015034 -0.017400593 0.75071567
-0.010161705 -0.018145889 0.75091171
-0.010173138 -0.018892974 0.75110888
-0.01018528 -0.019643009 0.75131816
-0.010199075 -0.02039814 0.75155616
-0.010215137 -0.021159917 0.75183308
-0.01023392 -0.02192983 0.75215697
-0.010257831 -0.022713751 0.75256932
-0.010286419 -0.023511797 0.75306231
-0.010315167 -0.024314314 0.75355804
-0.010339064 -0.025109142 0.75397009
-0.010361482 -0.025903732 0.75435674
-0.010383998 -0.026701719 0.75474501
-0.010403051 -0.027493775 0.75507355
-0.010421951 -0.028288156 0.75539947
-0.010440965 -0.029085487 0.75572729
-0.010458428 -0.029881239 0.75602853
-0.010474643 -0.030675739 0.75630808
-0.010490953 -0.031472832 0.75658929
-0.010507314 -0.032272458 0.75687146
-0.010521404 -0.033067286 0.75711441
-0.010535211 -0.033863187 0.75735253
-0.010549056 -0.034661174 0.75759131
-0.010562616 -0.035460204 0.75782508
-0.010575154 -0.036257684 0.75804132
-0.010587675 -0.037056863 0.75825721
-0.010600272 -0.037858099 0.75847447
-0.010612853 -0.038661093 0.75869143
-0.01062551 -0.039466202 0.75890964
-0.01063815 -0.040272981 0.75912768
-0.010650868 -0.041081905 0.75934696
-0.010663569 -0.041892588 0.75956595
-0.010676347 -0.042705387 0.75978637
-0.010689109 -0.043519944 0.76000643
-0.010701949 -0.044336647 0.7602278
-0.010714771 -0.045155108 0.76044893
-0.010727673 -0.045975715 0.76067138
-0.010740558 -0.04679814 0.76089358
-0.010753521 -0.04762271 0.76111716
-0.010766468 -0.048449099 0.76134044
-0.010779494 -0.049277663 0.76156509
-0.010792504 -0.050108075 0.76178944
-0.01080713 -0.050947875 0.76204157
-0.011103383 -0.05313763 0.76715028
-0.011123543 -0.05402863 0.76749796
-0.011142856 -0.054918349 0.76783103
-0.011162186 -0.055810899 0.76816428
-0.011182302 -0.056710273 0.76851118
-0.011206259 -0.057632178 0.76892436
-0.0095121311 0.040243655 0.75232792
-0.0094699739 0.03933686 0.75154495
-0.0094458535 0.038510025 0.75109708
-0.009427717 0.037710845 0.75076026
-0.0094165932 0.036942035 0.75055367
-0.009409179 0.036189109 0.75041598
-0.0094028329 0.035441428 0.75029814
-0.0093964562 0.034694612 0.75017971
-0.0093901278 0.033948898 0.75006217
-0.0093838079 0.033204257 0.74994481
-0.0093774954 0.03246057 0.74982762
-0.0093739536 0.031727225 0.74976182
-0.0093722427 0.031000495 0.74973005
-0.0093886834 0.030332685 0.75003541
-0.009400798 0.029648721 0.75026029
-0.0094099632 0.028953731 0.75043052
-0.0094191851 0.028257549 0.75060183
-0.0094284257 0.027560055 0.75077337
-0.0094376449 0.026861012 0.75094461
-0.0094469208 0.026160717 0.75111693
-0.0094561754 0.025458962 0.75128877
-0.0094654886 0.024755925 0.75146174
-0.0094748205 0.024051487 0.75163502
-0.00948417 0.023345679 0.75180864
-0.0094935382 0.02263844 0.75198269
-0.0095029259 0.02192983 0.75215697
-0.0095123313 0.02121982 0.75233161
-0.0095217153 0.020508319 0.7525059
-0.009531158 0.019795477 0.75268126
-0.0095406193 0.019081235 0.75285697
-0.0095500993 0.018365592 0.75303298
-0.0095595988 0.017648518 0.75320941
-0.0095690759 0.016929924 0.75338542
-0.0095786136 0.01620999 0.75356251
-0.0095881689 0.015488595 0.75373995
-0.0095977439 0.014765769 0.75391781
-0.0096072974 0.014041424 0.75409526
-0.0096169105 0.013315707 0.75427377
-0.0096265431 0.012588561 0.75445265
-0.0096361954 0.011859953 0.75463188
-0.0096458253 0.011129826 0.75481069
-0.0096555157 0.010398269 0.7549907
-0.0096652266 0.0096652508 0.755171
-0.0096749142 0.0089306831 0.75535095
-0.0096846633 0.0081947446 0.75553197
-0.0096944328 0.0074572861 0.75571346
-0.0097041791 0.0067183077 0.75589442
-0.0097139878 0.0059778392 0.75607657
-0.0097238161 0.0052358806 0.75625908
-0.0097254487 0.0044886768 0.75628936
-0.0096922275 0.0037277937 0.75567245
-0.0095982747 0.0029533207 0.75392771
-0.0094781602 0.0021872818 0.75169706
-0.0094136884 0.0014482737 0.75049973
-0.0094192242 0.00072455406 0.75060254
-0.0094270092 -0 0.75074703
-0.0094347671 -0.00072574615 0.75089115
-0.0098624947 -0.0015173256 0.75883448
-0.0098730139 -0.0022783875 0.75902987
-0.0092121093 -0.0028344989 0.74675626
-0.009215191 -0.003544271 0.74681348
-0.0092235832 -0.0042569935 0.74696934
-0.0092335008 -0.0049718618 0.74715352
-0.009243439 -0.0056882501 0.747338
-0.0092535503 -0.006406337 0.74752581
-0.0092638368 -0.0071260333 0.74771684
-0.0092743356 -0.0078474879 0.74791181
-0.009284935 -0.0085706711 0.74810869
-0.009295214 -0.0092951953 0.7482996
-0.0093055163 -0.010021329 0.74849087
-0.0093158027 -0.010748982 0.7486819
-0.0093261506 -0.011478335 0.74887407
-0.0093365209 -0.012209296 0.74906671
-0.0093468763 -0.012941837 0.749259
-0.0093572931 -0.013675988 0.74945235
-0.0093677333 -0.014411896 0.74964631
-0.0093781967 -0.015149355 0.74984062
-0.009390167 -0.015891016 0.75006288
-0.0094040856 -0.016637951 0.75032139
-0.0094201285 -0.017390996 0.75061929
-0.0094391834 -0.018152267 0.75097317
-0.0094642593 -0.018928528 0.75143886
-0.0094904667 -0.019710958 0.75192559
-0.0095150964 -0.020494044 0.75238299
-0.0095355436 -0.021271586 0.75276268
-0.0095560802 -0.022052497 0.75314409
-0.0095751612 -0.022833049 0.75349844
-0.0095924446 -0.023612171 0.75381941
-0.0096097505 -0.024393976 0.75414079
-0.0096270768 -0.025178492 0.75446254
-0.0096418727 -0.025958866 0.75473732
-0.0096567543 -0.026741773 0.7550137
-0.0096716825 -0.027527094 0.75529093
-0.0096858684 -0.028312564 0.75555438
-0.0096984701 -0.029095411 0.75578845
-0.0097111054 -0.029880285 0.75602305
-0.0097237322 -0.030667156 0.75625747
-0.0097356355 -0.03145358 0.75647861
-0.0097471066 -0.032240421 0.75669163
-0.0097585609 -0.03302899 0.75690436
-0.009770086 -0.033819497 0.75711834
-0.0097815953 -0.034611791 0.75733209
-0.0097931735 -0.035406083 0.75754714
-0.0098047378 -0.036202103 0.7577619
-0.0098163709 -0.037000149 0.7579779
-0.0098279901 -0.037799925 0.75819367
-0.0098396791 -0.038601786 0.75841069
-0.0098513523 -0.039405406 0.75862753
-0.0098630972 -0.040211111 0.75884569
-0.0098748272 -0.041018516 0.75906348
-0.009886628 -0.041828036 0.75928265
-0.009898413 -0.042639315 0.75950152
-0.0099102706 -0.04345271 0.7597217
-0.0099221123 -0.044267893 0.75994158
-0.0099340267 -0.045085222 0.76016289
-0.0099459253 -0.045904279 0.76038384
-0.0099578965 -0.046725512 0.76060617
-0.0099698529 -0.047548503 0.7608282
-0.0099818828 -0.048373699 0.76105154
-0.0099938959 -0.049200714 0.7612747
-0.010005984 -0.050029874 0.76149917
-0.0100181 -0.05086112 0.76172417
-0.010053596 -0.051814675 0.76238346
-0.010326501 -0.054015517 0.76745147
-0.010345137 -0.054908782 0.76779759
-0.010363935 -0.055805773 0.76814663
-0.010382755 -0.056705803 0.76849616
-0.010403463 -0.057619184 0.76888072
-0.0087032709 0.044241637 0.75077558
-0.0086683864 0.043341935 0.75007379
-0.0086487522 0.042523026 0.74967873
-0.0086323507 0.041723073 0.74934882
-0.0086229257 0.040958911 0.7491591
-0.0086156204 0.040206224 0.74901223
-0.0086098565 0.039461851 0.74889624
-0.0086040646 0.038718313 0.74877977
-0.0085983155 0.037975878 0.74866408
-0.0085925749 0.037234515 0.74854857
-0.0085877962 0.036498129 0.74845243
-0.0085850731 0.035771161 0.74839771
-0.0085836593 0.035049945 0.74836922
-0.0085827056 0.034330815 0.74835002
-0.0085822111 0.033613682 0.74834007
-0.0085822819 0.032898724 0.74834144
-0.0085823517 0.032183826 0.74834293
-0.0085835885 0.03147316 0.74836779
-0.0085857809 0.030765772 0.74841189
-0.0086471383 0.030265003 0.74964631
-0.0086628394 0.029598057 0.74996221
-0.008671307 0.028904378 0.7501325
-0.0086797914 0.028209329 0.75030327
-0.0086882552 0.027512848 0.75047344
-0.0086967722 0.026815057 0.7506448
-0.0087053059 0.026115954 0.75081652
-0.0087138563 0.025415421 0.7509886
-0.0087224236 0.024713516 0.75116098
-0.0087309713 0.024010181 0.75133288
-0.0087395729 0.023305565 0.75150597
-0.0087481905 0.022599518 0.7516793
-0.0087568257 0.021892041 0.75185311
-0.0087654777 0.021183252 0.75202715
-0.0087741474 0.020473003 0.75220156
-0.0087827966 0.019761294 0.75237548
-0.0087914988 0.019048274 0.7525506
-0.0088002197 0.018333822 0.75272608
-0.0088089583 0.017617941 0.75290191
-0.0088177137 0.016900629 0.75307798
-0.0088264868 0.016181916 0.75325447
-0.0088352393 0.015461683 0.7534306
-0.0088440469 0.014740109 0.75360781
-0.0088528721 0.014017075 0.75378537
-0.0088617159 0.013292581 0.75396329
-0.0088705383 0.012566626 0.75414073
-0.0088794166 0.011839241 0.75431937
-0.0088883126 0.011110425 0.75449842
-0.0088971891 0.010380089 0.75467694
-0.0089061214 0.0096483231 0.75485665
-0.0089150704 0.0089150965 0.75503671
-0.0089240381 0.0081804097 0.75521708
-0.0089329863 0.0074441731 0.75539708
-0.0089419903 0.0067064762 0.75557828
-0.008951012 0.0059673488 0.75575984
-0.0089600142 0.0052266717 0.75594085
-0.0089659095 0.0044829547 0.75605953
-0.0089479387 0.0037283003 0.75569791
-0.0088814218 0.0029604733 0.75435972
-0.0087700505 0.0021925271 0.75211906
-0.0086740851 0.0014456809 0.75018847
-0.0086589903 0.00072157383 0.74988472
-0.0084678419 2.9802322e-08 0.74603909
-0.0084537975 -0.0007044673 0.74575657
-0.008462823 -0.0014104247 0.74593812
-0.0084718671 -0.0021179914 0.7461201
-0.0084809316 -0.0028269887 0.74630249
-0.0084901871 -0.0035375655 0.74648869
-0.0084995674 -0.0042497814 0.7466774
-0.0085090036 -0.0049635768 0.74686724
-0.0085187731 -0.0056791604 0.74706376
-0.0085284961 -0.0063963532 0.74725938
-0.0085378913 -0.0071148872 0.74744844
-0.008547307 -0.0078350008 0.74763781
-0.0085567087 -0.0085566938 0.74782705
-0.0085661663 -0.0092799962 0.74801725
-0.0085756443 -0.010004908 0.74820799
-0.0085851084 -0.010731369 0.7483983
-0.0085954089 -0.011460543 0.74860561
-0.0086071901 -0.012193531 0.7488426
-0.0086207855 -0.012931168 0.74911612
-0.0086366786 -0.013674736 0.74943584
-0.0086570485 -0.014428407 0.74984568
-0.0086807664 -0.015191317 0.75032282
-0.0087046521 -0.015958548 0.75080335
-0.008724249 -0.016721487 0.75119764
-0.0087428717 -0.017485738 0.75157225
-0.0087615736 -0.018253237 0.75194854
-0.0087773614 -0.019017607 0.75226617
-0.0087930933 -0.019784451 0.75258267
-0.0088088466 -0.020553946 0.75289965
-0.0088234609 -0.021323323 0.75319362
-0.0088369623 -0.022092402 0.75346529
-0.0088505046 -0.022863775 0.75373769
-0.0088640517 -0.023637444 0.75401026
-0.0088760145 -0.024409026 0.75425094
-0.0088874791 -0.025181204 0.75448161
-0.0088989744 -0.025955319 0.75471288
-0.0089104222 -0.026731253 0.75494313
-0.0089207925 -0.027505785 0.75515187
-0.0089312261 -0.028282195 0.75536168
-0.008941683 -0.029060453 0.75557214
-0.0089521268 -0.02984041 0.75578219
-0.0089626331 -0.030622333 0.7559936
-0.0089731254 -0.031405896 0.75620466
-0.0089836819 -0.032191515 0.75641704
-0.0089942235 -0.032978833 0.75662917
-0.0090048285 -0.033768088 0.75684249
-0.0090154205 -0.034559101 0.75705552
-0.0090260757 -0.035352141 0.75726992
-0.0090367179 -0.036146879 0.75748402
-0.0090474235 -0.036943644 0.75769943
-0.009058116 -0.037742138 0.75791454
-0.0090688728 -0.038542718 0.75813097
-0.0090796156 -0.039344966 0.75834709
-0.0090904236 -0.040149331 0.75856453
-0.0091012176 -0.040955484 0.75878167
-0.0091120778 -0.041763663 0.75900018
-0.009122923 -0.042573631 0.75921834
-0.0091338344 -0.043385684 0.7594378
-0.0091447318 -0.044199526 0.75965714
-0.0091556953 -0.045015514 0.75987768
-0.0091666449 -0.0458332 0.76009798
-0.0091776615 -0.046653092 0.76031965
-0.0091886641 -0.047474742 0.76054096
-0.0091997329 -0.048298568 0.76076365
-0.0092107886 -0.049124181 0.76098609
-0.0092219114 -0.049952 0.76120985
-0.0092330202 -0.050781578 0.7614333
-0.0092492821 -0.051641792 0.76176047
-0.0095313694 -0.054011106 0.76743573
-0.0095488317 -0.054905772 0.76778698
-0.0095668845 -0.055806845 0.76815021
-0.0095850062 -0.056711286 0.76851475
-0.0096038161 -0.05762288 0.76889312
-0.0079107285 0.048183501 0.74929923
-0.0078805871 0.0472835 0.74863768
-0.0078644361 0.046471655 0.74828321
-0.0078498032 0.045671612 0.747962
-0.0078418152 0.044912249 0.7477867
-0.0078347102 0.044159293 0.74763083
-0.0078295106 0.043418199 0.74751669
-0.007824285 0.042677909 0.74740201
-0.0078190994 0.041938812 0.74728823
-0.0078142714 0.041202515 0.74718225
-0.0078107584 0.040473938 0.74710518
-0.0078085246 0.039752483 0.74705613
-0.007807408 0.039037079 0.74703157
-0.0078065787 0.038323253 0.74701339
-0.0078059728 0.03761059 0.7470001
-0.0078060366 0.036901265 0.74700153
-0.0078062918 0.036192834 0.74700707
-0.0078073759 0.035488069 0.74703091
-0.0078085246 0.034783453 0.74705613
-0.0078096734 0.034078568 0.74708134
-0.0078107906 0.033373386 0.74710584
-0.0078130253 0.032672644 0.74715495
-0.0078154858 0.031972468 0.74720883
-0.0078179156 0.031271696 0.74726224
-0.007820379 0.030570567 0.7473163
-0.0079055578 0.030184835 0.74918574
-0.0079274308 0.029547721 0.74966574
-0.0079351664 0.028855175 0.74983549
-0.0079429168 0.028161258 0.75000566
-0.0079506822 0.027465999 0.75017613
-0.0079584299 0.02676928 0.75034612
-0.007966226 0.02607131 0.75051719
-0.007974037 0.025371969 0.75068867
-0.0079818638 0.024671257 0.75086039
-0.0079897055 0.023969144 0.75103259
-0.0079975631 0.02326563 0.75120503
-0.0080054356 0.022560805 0.75137776
-0.0080132904 0.02185446 0.7515502
-0.0080211945 0.021146804 0.75172365
-0.0080291135 0.020437777 0.75189745
-0.0080370484 0.019727319 0.75207156
-0.0080449656 0.019015372 0.75224537
-0.0080529321 0.018302113 0.75242019
-0.0080609145 0.017587453 0.75259542
-0.0080689127 0.016871393 0.7527709
-0.0080769267 0.016153842 0.75294679
-0.0080849566 0.015434951 0.75312304
-0.0080929678 0.014714509 0.75329888
-0.0081010303 0.013992697 0.75347584
-0.0081091076 0.013269454 0.75365305
-0.0081172017 0.012544781 0.75383073
-0.0081252782 0.011818588 0.754008
-0.008133404 0.011091024 0.75418633
-0.0081415456 0.010361969 0.75436509
-0.0081497049 0.0096314847 0.75454414
-0.0081578456 0.0088994801 0.75472283
-0.0081660375 0.0081660151 0.7549026
-0.0081742452 0.0074311495 0.75508273
-0.0081824353 0.0066947341 0.75526243
-0.0081906766 0.0059568584 0.75544339
-0.0081989337 0.0052175224 0.75562453
-0.0082062921 0.00447613 0.75578606
-0.0082003064 0.0037274361 0.75565463
-0.0081605623 0.0029675066 0.75478244
-0.0080585014 0.0021977425 0.75254244
-0.0079584634 0.0014469624 0.7503469
-0.0078733144 0.00071576238 0.74847811
-0.0077656261 -0 0.74611461
-0.007736797 -0.00070333481 0.74548185
-0.0077445097 -0.0014080703 0.74565113
-0.0077530243 -0.002114445 0.74583805
-0.0077617466 -0.0028224587 0.74602944
-0.0077706147 -0.0035320818 0.74622405
-0.007779472 -0.0042433441 0.74641848
-0.0077879997 -0.0049559772 0.74660563
-0.0077965148 -0.0056702197 0.74679255
-0.0078050802 -0.006385982 0.74698055
-0.0078138243 -0.0071034431 0.74717242
-0.0078236768 -0.0078236759 0.74738872
-0.0078353528 -0.0085476339 0.7476449
-0.0078487713 -0.0092758238 0.74793941
-0.0078646634 -0.010009587 0.74828821
-0.0078856917 -0.010753244 0.74874973
-0.0079071932 -0.011501372 0.74922162
-0.0079271356 -0.012251049 0.7496593
-0.0079439068 -0.012999088 0.75002742
-0.0079607507 -0.013750374 0.75039709
-0.0079763997 -0.014502555 0.75074053
-0.0079905409 -0.015254676 0.75105089
-0.0080047315 -0.01600945 0.75136232
-0.0080190068 -0.016766995 0.75167561
-0.0080312053 -0.017522603 0.75194335
-0.0080434084 -0.018280447 0.75221115
-0.0080556134 -0.019040525 0.75247908
-0.0080674822 -0.019802004 0.75273955
-0.0080778142 -0.020561695 0.75296628
-0.0080881389 -0.021323293 0.7531929
-0.0080985241 -0.022086889 0.75342083
-0.0081084538 -0.02285108 0.7536388
-0.0081178574 -0.023615569 0.7538451
-0.008127247 -0.024381727 0.75405127
-0.0081366943 -0.025149763 0.75425851
-0.0081461268 -0.025919497 0.75446558
-0.0081556169 -0.026691109 0.7546739
-0.008165095 -0.02746442 0.75488186
-0.0081746299 -0.028239608 0.75509113
-0.0081841517 -0.029016495 0.75530016
-0.0081937313 -0.029795349 0.75551033
-0.0082032979 -0.030575931 0.75572038
-0.0082129221 -0.031358391 0.75593156
-0.0082225334 -0.032142639 0.75614256
-0.0082322033 -0.032928824 0.75635481
-0.0082418602 -0.033716708 0.7565667
-0.0082515748 -0.034506559 0.75677985
-0.0082612773 -0.035298198 0.75699282
-0.0082710385 -0.036091805 0.75720704
-0.0082807867 -0.036887139 0.75742108
-0.0082905935 -0.0376845 0.75763625
-0.0083003873 -0.03848359 0.75785118
-0.0083102416 -0.039284766 0.75806749
-0.008320082 -0.0400877 0.7582835
-0.0083299829 -0.040892661 0.75850075
-0.0083398698 -0.04169935 0.75871778
-0.0083498182 -0.042508155 0.75893611
-0.0083597526 -0.043318719 0.75915408
-0.0083697475 -0.044131398 0.75937349
-0.0083797304 -0.044945806 0.75959253
-0.0083897728 -0.04576239 0.75981301
-0.0083998032 -0.046580702 0.76003313
-0.0084098941 -0.04740122 0.76025462
-0.0084199728 -0.048223495 0.76047575
-0.0084301867 -0.049048364 0.76069999
-0.0084417304 -0.049882948 0.76095331
-0.0084556248 -0.050733715 0.76125824
-0.0084755002 -0.051623493 0.76169449
-0.008739287 -0.054024667 0.76748395
-0.0087557836 -0.054922611 0.76784593
-0.0087723425 -0.055823982 0.76820934
-0.0087889638 -0.05672875 0.76857424
-0.0088056475 -0.057636976 0.76894033
-0.0071316441 0.052061021 0.74785239
-0.0071061784 0.051164508 0.74723768
-0.0070926016 0.050357491 0.74690986
-0.0070798267 0.049558818 0.74660146
-0.0070729959 0.048803657 0.74643648
-0.0070661493 0.048049808 0.74627125
-0.0070614964 0.047312051 0.74615896
-0.0070568211 0.04657504 0.74604607
-0.0070521808 0.04583919 0.74593401
-0.00704889 0.045112908 0.74585456
-0.0070457743 0.044388413 0.7457794
-0.0070440029 0.04367286 0.74573654
-0.0070431177 0.042963058 0.74571526
-0.0070423754 0.042254269 0.74569732
-0.0070416904 0.041545987 0.74568081
-0.0070417477 0.040842146 0.74568218
-0.0070421188 0.040140092 0.74569112
-0.0070430893 0.039441288 0.74571455
-0.0070441174 0.038742661 0.74573934
-0.0070451172 0.038043648 0.74576348
-0.0070461459 0.037344605 0.74578834
-0.0070480607 0.036649913 0.74583459
-0.0070502632 0.035956353 0.74588776
-0.0070524667 0.035262346 0.74594092
-0.0070546432 0.034567744 0.74599349
-0.0070568495 0.033872902 0.74604678
-0.0070590288 0.033177465 0.74609935
-0.0070616971 0.032483816 0.74616379
-0.0070649995 0.031792521 0.74624354
-0.0070682764 0.031100422 0.74632263
-0.0070715849 0.030407846 0.7464025
-0.0070806057 0.029738575 0.74662024
-0.0071941023 0.029495835 0.74936032
-0.0072015277 0.02880615 0.74953955
-0.0072085494 0.028113365 0.74970907
-0.0072155851 0.027419209 0.74987894
-0.0072226343 0.026723742 0.75004911
-0.0072296974 0.026026934 0.7502197
-0.0072367443 0.025328636 0.75038981
-0.0072438349 0.024629086 0.75056094
-0.00725094 0.023928106 0.75073248
-0.0072580585 0.023225784 0.75090432
-0.0072651911 0.022522122 0.75107652
-0.0072723376 0.021817029 0.75124907
-0.0072794678 0.021110505 0.75142121
-0.0072866427 0.02040261 0.75159442
-0.0072938316 0.019693345 0.75176799
-0.0073010344 0.018982679 0.75194192
-0.0073082522 0.018270642 0.75211608
-0.0073154527 0.017557114 0.75229001
-0.0073226988 0.016842216 0.75246489
-0.0073299585 0.016125947 0.75264013
-0.0073372331 0.015408218 0.75281578
-0.0073445225 0.014689058 0.7529918
-0.0073518259 0.013968498 0.75316811
-0.0073591131 0.013246387 0.75334406
-0.0073664458 0.012522966 0.75352103
-0.0073737931 0.011798084 0.75369841
-0.0073811552 0.011071771 0.75387621
-0.0073885005 0.010343879 0.75405353
-0.0073958919 0.0096146762 0.75423193
-0.0074032978 0.0088839829 0.75441074
-0.0074106874 0.0081517696 0.7545892
-0.0074181235 0.0074181259 0.75476867
-0.0074255741 0.006682992 0.75494862
-0.0074330401 0.0059464276 0.7551288
-0.0074404888 0.0052083433 0.75530863
-0.007447985 0.0044687986 0.75548959
-0.0074477931 0.0037238896 0.75548494
-0.0074209115 0.0029683709 0.75483596
-0.0073428461 0.0022028983 0.75295126
-0.0072487616 0.0014497638 0.75067985
-0.0071630175 0.00071629882 0.74860984
-0.0070760204 2.9802322e-08 0.74650955
-0.0070252609 -0.00070250034 0.74528414
-0.0070297522 -0.0014059246 0.74539256
-0.0070377542 -0.0021112859 0.74558568
-0.0070454027 -0.0028181672 0.74577039
-0.0070538986 -0.003526926 0.74597549
-0.0070636496 -0.0042381883 0.74621093
-0.007074839 -0.0049523711 0.74648106
-0.007087972 -0.0056703687 0.74679816
-0.0071047838 -0.0063942969 0.74720395
-0.0071239825 -0.0071239471 0.74766743
-0.0071432851 -0.0078576505 0.74813348
-0.0071588852 -0.0085906386 0.74851012
-0.0071739317 -0.0093261003 0.74887335
-0.0071890415 -0.010064632 0.74923813
-0.0072017964 -0.010802686 0.74954605
-0.0072144764 -0.011543185 0.74985218
-0.0072272015 -0.012286246 0.75015938
-0.0072391266 -0.01303041 0.75044727
-0.0072500017 -0.013774991 0.75070977
-0.00726094 -0.014521867 0.75097394
-0.0072719115 -0.015271008 0.75123882
-0.007281756 -0.016019851 0.75147653
-0.0072910152 -0.01676929 0.75169998
-0.0073002675 -0.017520607 0.75192332
-0.0073095742 -0.01827392 0.75214803
-0.007318072 -0.019026995 0.75235319
-0.0073264968 -0.01978153 0.75255656
-0.0073349099 -0.020537734 0.7527597
-0.0073433737 -0.021295756 0.75296402
-0.0073518259 -0.022055477 0.75316811
-0.0073603289 -0.022817016 0.75337344
-0.0073688203 -0.023580194 0.75357836
-0.0073773628 -0.024345309 0.75378466
-0.0073858933 -0.025112033 0.75399059
-0.0073944754 -0.025880635 0.75419778
-0.0074030454 -0.026650965 0.75440466
-0.0074116676 -0.027423143 0.7546128
-0.0074202777 -0.02819705 0.7548207
-0.0074289399 -0.028972864 0.7550298
-0.0074375905 -0.029750347 0.75523865
-0.0074462928 -0.030529767 0.7554487
-0.0074549839 -0.031310886 0.75565851
-0.0074637271 -0.032094032 0.75586963
-0.0074724588 -0.032878816 0.75608045
-0.0074812435 -0.033665597 0.75629252
-0.0074900161 -0.034454048 0.7565043
-0.0074988417 -0.035244524 0.75671732
-0.0075076562 -0.03603673 0.75693017
-0.0075165234 -0.036830932 0.75714427
-0.0075253793 -0.037626892 0.75735807
-0.0075342888 -0.03842485 0.75757319
-0.0075431862 -0.039224565 0.757788
-0.0075521381 -0.040026337 0.75800407
-0.0075610778 -0.040829808 0.75821984
-0.0075700721 -0.041635364 0.75843698
-0.0075790547 -0.042442679 0.75865388
-0.0075880913 -0.04325214 0.75887203
-0.0075971168 -0.04406327 0.75908989
-0.0076064635 -0.044878125 0.75931561
-0.0076170685 -0.045702428 0.75957155
-0.0076298467 -0.046542048 0.75988013
-0.0076455609 -0.047402471 0.76025951
-0.0076649897 -0.048289388 0.76072854
-0.0076855035 -0.049187243 0.76122379
-0.0077060936 -0.050089598 0.7617209
-0.0077268286 -0.050997049 0.76222146
-0.0079170372 -0.05304414 0.76681352
-0.0079477141 -0.054044455 0.7675541
-0.0079633789 -0.054947317 0.7679323
-0.0079791052 -0.055853724 0.76831198
-0.0079948939 -0.056763768 0.76869309
-0.008010745 -0.057677358 0.76907587
-0.008056324 -0.058811128 0.77017617
-0.0064106639 0.05698368 0.74764282
-0.0063654371 0.055874377 0.74642962
-0.0063449284 0.054989398 0.74587941
-0.006332953 0.054181933 0.7455582
-0.0063221729 0.053387254 0.745269
-0.0063161203 0.052634329 0.7451067
-0.0063100792 0.051882863 0.74494469
-0.0063055246 0.051144809 0.7448225
-0.0063013826 0.050411075 0.74471134
-0.0062980321 0.049684495 0.7446214
-0.0062952684 0.048963219 0.74454731
-0.0062925066 0.048242569 0.74447328
-0.006291165 0.047533244 0.74443728
-0.006290507 0.046829343 0.74441969
-0.0062898234 0.046125382 0.74440122
-0.0062891911 0.045421958 0.74438429
-0.0062891408 0.044722795 0.74438298
-0.0062896213 0.044027358 0.74439585
-0.0062904814 0.043334454 0.74441892
-0.0062913676 0.042641491 0.7444427
-0.0062922537 0.041948348 0.74446648
-0.006293165 0.041255236 0.74449098
-0.0062948121 0.040566593 0.74453509
-0.0062967385 0.039879382 0.74458677
-0.0062986915 0.039191872 0.74463922
-0.0063006207 0.038503826 0.7446909
-0.006302576 0.037815481 0.74474341
-0.0063045835 0.037127018 0.74479723
-0.0063068722 0.036439747 0.74485862
-0.0063097738 0.035755396 0.74493641
-0.0063127032 0.035070568 0.74501503
-0.0063156099 0.034384996 0.74509299
-0.006318545 0.033698916 0.74517179
-0.0063214572 0.033012033 0.74524981
-0.0063243974 0.032324731 0.74532872
-0.0063274428 0.031637192 0.74541044
-0.0063311579 0.030952334 0.7455101
-0.0063349027 0.030266732 0.74561054
-0.0063387034 0.029580623 0.74571252
-0.0064621153 0.029438525 0.74902296
-0.006470405 0.028757393 0.74924535
-0.0064766766 0.028065592 0.74941361
-0.0064829872 0.027372599 0.74958283
-0.0064893099 0.026678324 0.7497524
-0.0064956453 0.025982589 0.74992234
-0.0065019927 0.025285572 0.75009263
-0.0065083527 0.024587095 0.75026327
-0.0065147253 0.023887366 0.75043416
-0.0065210829 0.023186088 0.75060469
-0.0065274802 0.022483557 0.75077635
-0.00653389 0.021779627 0.75094831
-0.0065403129 0.021074355 0.75112057
-0.0065467204 0.020367593 0.75129241
-0.0065531684 0.019659549 0.75146544
-0.006559629 0.018950015 0.75163871
-0.0065661022 0.01823917 0.75181234
-0.0065725883 0.017526895 0.75198632
-0.0065790871 0.016813248 0.75216067
-0.0065855714 0.016098082 0.75233459
-0.0065920958 0.015381575 0.75250959
-0.0065986332 0.014663607 0.75268501
-0.0066051842 0.013944298 0.75286067
-0.0066117477 0.013223529 0.7530368
-0.0066183242 0.012501329 0.75321317
-0.0066248858 0.01177758 0.75338924
-0.0066314884 0.011052489 0.75356632
-0.0066381046 0.010325968 0.75374383
-0.0066447337 0.0095979571 0.75392163
-0.006651348 0.0088684857 0.75409901
-0.0066580037 0.0081375539 0.75427759
-0.0066646724 0.0074051917 0.75445646
-0.0066713262 0.0066713393 0.75463498
-0.0066780215 0.0059360564 0.75481451
-0.0066847308 0.0051992238 0.75499451
-0.0066914535 0.0044609606 0.75517482
-0.0066948058 0.0037193596 0.75526476
-0.0066825598 0.0029700398 0.75493628
-0.0065441448 0.0021814108 0.75122339
-0.0065219803 0.0014493465 0.75062883
-0.006461875 0.00071796775 0.74901652
-0.0063832114 -2.9802322e-08 0.7469064
-0.0063229143 -0.00070253015 0.74528891
-0.0063248067 -0.0014055073 0.74533969
-0.0063377274 -0.0021125674 0.74568623
-0.0063546752 -0.0028243065 0.7461409
-0.0063717403 -0.0035398602 0.74659866
-0.0063873832 -0.0042582452 0.74701834
-0.0064006923 -0.0049782991 0.74737531
-0.0064140563 -0.0057013631 0.74773383
-0.0064264466 -0.0064264238 0.74806613
-0.0064376914 -0.0071530044 0.74836779
-0.0064489492 -0.0078820288 0.7486698
-0.0064602466 -0.008613646 0.74897277
-0.0064700036 -0.0093455613 0.74923456
-0.0064796829 -0.010079533 0.74949419
-0.006489391 -0.01081565 0.74975455
-0.0064989659 -0.011553705 0.75001144
-0.0065071611 -0.012291282 0.75023127
-0.0065153497 -0.013030678 0.75045091
-0.0065235859 -0.013772011 0.75067186
-0.0065315976 -0.014514655 0.7508868
-0.0065390272 -0.015257716 0.75108612
-0.0065465015 -0.016002536 0.75128657
-0.0065539652 -0.016748995 0.75148672
-0.006561473 -0.017497241 0.75168812
-0.0065689711 -0.018247128 0.75188935
-0.0065765139 -0.018998802 0.75209159
-0.0065840459 -0.019752145 0.75229371
-0.0065916236 -0.020507276 0.75249696
-0.0065991902 -0.021264046 0.75269997
-0.0066068028 -0.022022635 0.75290412
-0.0066144047 -0.022782922 0.75310802
-0.0066220518 -0.023545057 0.75331318
-0.0066296891 -0.02430886 0.75351804
-0.0066373721 -0.025074512 0.7537241
-0.0066450443 -0.025841832 0.75392997
-0.0066527626 -0.02661103 0.75413698
-0.0066604707 -0.027381897 0.75434375
-0.0066682254 -0.028154731 0.75455177
-0.0066759689 -0.028929204 0.75475955
-0.0066837594 -0.029705614 0.75496846
-0.0066915397 -0.030483693 0.7551772
-0.0066993665 -0.031263709 0.75538713
-0.0067071831 -0.032045454 0.75559682
-0.0067150467 -0.032829106 0.7558077
-0.0067228996 -0.033614486 0.7560184
-0.0067308 -0.034401864 0.75623029
-0.0067386902 -0.03519091 0.75644201
-0.0067466279 -0.035981983 0.75665486
-0.0067545553 -0.036774814 0.75686753
-0.0067625302 -0.037569582 0.75708145
-0.0067704953 -0.038366169 0.75729513
-0.006778508 -0.039164722 0.75751007
-0.0067865103 -0.039965034 0.75772476
-0.0067949449 -0.040769666 0.75795102
-0.0068046441 -0.041583925 0.75821114
-0.0068162428 -0.042412132 0.75852221
-0.0068305652 -0.043260217 0.75890648
-0.0068481257 -0.044132352 0.75937748
-0.0068662893 -0.045012355 0.75986475
-0.0068845795 -0.045897216 0.76035535
-0.0069029373 -0.046786547 0.76084781
-0.0069214236 -0.047680914 0.76134372
-0.0069384696 -0.048569262 0.76180094
-0.0069552595 -0.049459606 0.76225132
-0.0069700484 -0.050339222 0.76264805
-0.0069846511 -0.051220775 0.76303971
-0.007129427 -0.053074628 0.76692331
-0.0071579851 -0.054082543 0.76768941
-0.007172103 -0.054986119 0.76806808
-0.0071862768 -0.055893272 0.76844835
-0.0072008385 -0.056806594 0.76883888
-0.0072157593 -0.057726055 0.76923913
-0.0072543919 -0.058841199 0.77027547
-0.0056409203 0.060639918 0.74590909
-0.0056117903 0.059625328 0.74503005
-0.0055956813 0.058754683 0.74454397
-0.0055852029 0.057946503 0.74422771
-0.0055762618 0.057156712 0.74395794
-0.0055709425 0.056405813 0.74379736
-0.0055656554 0.055656582 0.7436378
-0.0055613127 0.054917961 0.74350679
-0.0055579767 0.054190308 0.74340612
-0.0055555552 0.053472221 0.74333298
-0.0055531356 0.05275479 0.74326003
-0.0055507184 0.052038014 0.74318707
-0.0055498318 0.051335931 0.74316031
-0.0055492558 0.050636947 0.74314296
-0.0055486578 0.049937934 0.74312484
-0.0055480818 0.049239218 0.74310756
-0.005547971 0.048544794 0.7431041
-0.0055485028 0.047855824 0.74312019
-0.0055492558 0.047168702 0.74314296
-0.0055500092 0.046481371 0.74316567
-0.005550785 0.04579401 0.7431891
-0.0055515831 0.04510659 0.74321318
-0.0055529582 0.044423699 0.74325472
-0.0055546672 0.043743044 0.74330622
-0.0055563548 0.043061733 0.74335718
-0.0055580656 0.042380273 0.7434088
-0.0055598221 0.041698694 0.74346173
-0.00556158 0.041016638 0.7435149
-0.0055635166 0.040335506 0.74357331
-0.0055660564 0.039658159 0.7436499
-0.0055686212 0.038980365 0.74372733
-0.0055711656 0.038301766 0.7438041
-0.0055737351 0.03762275 0.74388164
-0.0055762841 0.036942899 0.74395859
-0.0055788583 0.036262572 0.7440362
-0.0055814572 0.035581797 0.7441147
-0.0055847312 0.034904599 0.74421346
-0.0055879871 0.034226477 0.74431175
-0.0055912468 0.033547491 0.74441016
-0.0055945325 0.032867908 0.74450928
-0.0055977996 0.032187372 0.74460787
-0.0056010708 0.031506032 0.74470657
-0.0056043454 0.030823916 0.7448054
-0.0056077149 0.030141443 0.74490714
-0.0056116087 0.029460967 0.74502462
-0.0057313591 0.029373229 0.74863839
-0.0057417294 0.028708696 0.74895132
-0.005747309 0.028018147 0.7491197
-0.0057528997 0.027326286 0.74928844
-0.0057585007 0.026633084 0.74945748
-0.0057640891 0.025938392 0.7496261
-0.0057697124 0.025242478 0.74979579
-0.0057753464 0.024545252 0.74996579
-0.0057809912 0.023846567 0.75013626
-0.0057866476 0.0231466 0.7503069
-0.0057923147 0.022445202 0.75047785
-0.0057979687 0.021742404 0.7506485
-0.0058036582 0.021038264 0.75082016
-0.0058093588 0.020332783 0.75099224
-0.0058150464 0.019625813 0.75116384
-0.0058207694 0.018917501 0.75133657
-0.0058265035 0.018207818 0.75150955
-0.0058322493 0.017496735 0.751683
-0.0058380063 0.016784281 0.75185668
-0.0058437744 0.016070366 0.75203085
-0.0058495542 0.01535508 0.75220525
-0.0058553205 0.014638305 0.7523793
-0.0058611231 0.013920188 0.75255436
-0.0058669373 0.013200611 0.75272989
-0.0058727632 0.012479633 0.75290561
-0.0058786003 0.011757225 0.7530818
-0.005884449 0.011033326 0.75325829
-0.0058902847 0.010308027 0.7534343
-0.0058961567 0.0095812678 0.75361156
-0.0059020407 0.0088530779 0.75378919
-0.0059079113 0.008123368 0.75396633
-0.0059138183 0.0073922873 0.75414461
-0.0059197377 0.0066597164 0.75432318
-0.0059256689 0.0059256852 0.75450218
-0.0057827714 0.0050599277 0.7501899
-0.0057862862 0.0043397546 0.75029594
-0.0057917112 0.0036198795 0.75045967
-0.0057977512 0.0028989017 0.75064194
-0.0058007757 0.0021753013 0.7507332
-0.0057948986 0.0014487505 0.75055587
-0.0057574273 0.00071969628 0.74942505
-0.0056871995 2.9802322e-08 0.74730575
-0.005644036 -0.00070551038 0.74600315
-0.0056524137 -0.0014131069 0.74625599
-0.0056641386 -0.0021240413 0.74660981
-0.005674012 -0.0028370321 0.74690777
-0.0056838505 -0.0035523772 0.74720466
-0.0056937463 -0.0042702854 0.74750328
-0.0057030441 -0.0049901307 0.7477839
-0.0057115047 -0.0057114661 0.74803919
-0.00571999 -0.0064349771 0.74829525
-0.0057285009 -0.0071606338 0.74855214
-0.0057362793 -0.0078873634 0.74878681
-0.0057434379 -0.0086151361 0.74900287
-0.0057506384 -0.0093447864 0.74922019
-0.0057578566 -0.010076255 0.74943805
-0.0057645673 -0.010808587 0.74964052
-0.0057710777 -0.011542141 0.74983698
-0.0057776268 -0.012277454 0.75003469
-0.005784167 -0.013014376 0.75023198
-0.0057907458 -0.013752997 0.75043046
-0.0057973159 -0.014493287 0.75062883
-0.005803925 -0.015235305 0.75082827
-0.0058105248 -0.015978903 0.75102741
-0.0058171637 -0.016724318 0.75122774
-0.0058237938 -0.017471403 0.75142783
-0.005830463 -0.018220216 0.75162911
-0.0058371234 -0.018970668 0.7518301
-0.0058438238 -0.019722879 0.75203228
-0.0058505144 -0.020476788 0.75223422
-0.0058572455 -0.021232516 0.75243735
-0.0058639669 -0.021989852 0.75264019
-0.0058707288 -0.022749066 0.75284427
-0.0058774818 -0.02350992 0.753048
-0.0058842748 -0.024272621 0.75325304
-0.0058910586 -0.025036991 0.75345773
-0.0058978833 -0.025803208 0.75366366
-0.0059046983 -0.026571184 0.75386935
-0.0059115547 -0.027340919 0.75407624
-0.0059184018 -0.028112411 0.75428289
-0.0059252898 -0.028885782 0.75449079
-0.0059321686 -0.029660821 0.75469828
-0.0059390888 -0.030437827 0.75490719
-0.0059459996 -0.031216502 0.75511575
-0.0059529524 -0.031997114 0.75532556
-0.0059598954 -0.032779425 0.75553513
-0.0059668804 -0.033563703 0.75574589
-0.0059738564 -0.03434965 0.75595641
-0.0059808744 -0.035137594 0.75616819
-0.0059878826 -0.035927296 0.75637972
-0.0059953993 -0.036721766 0.75660646
-0.0060041272 -0.037525803 0.75686985
-0.006014572 -0.038342863 0.75718504
-0.0060274568 -0.039178461 0.7575739
-0.006043076 -0.040035367 0.75804526
-0.0060589877 -0.040898144 0.75852549
-0.0060750102 -0.04176566 0.759009
-0.0060910909 -0.042637646 0.7594943
-0.0061072032 -0.043513775 0.75998044
-0.0061220792 -0.044385076 0.76042938
-0.0061371634 -0.045261592 0.76088464
-0.0062692645 -0.047019482 0.76487112
-0.006278554 -0.047873974 0.76515144
-0.0062766825 -0.048644274 0.76509494
-0.0062514995 -0.049230546 0.76433504
-0.0061967862 -0.049574286 0.76268387
-0.0062065823 -0.05042845 0.76297951
-0.0062177717 -0.051296622 0.76331723
-0.0063422141 -0.053116053 0.76707256
-0.006368367 -0.054131091 0.76786184
-0.0063814959 -0.055040389 0.76825798
-0.0063946787 -0.055953413 0.76865578
-0.0064079459 -0.05687049 0.7690562
-0.0064212382 -0.057791144 0.76945734
-0.0064580562 -0.058929741 0.77056843
-0.0048597511 0.061788291 0.74328613
-0.004841777 0.060868084 0.74266624
-0.0048372126 0.060119659 0.74250883
-0.004832638 0.059372425 0.74235106
-0.0048285895 0.05863288 0.7422114
-0.0048264046 0.05791688 0.74213606
-0.004824318 0.057202637 0.74206412
-0.0048222328 0.05648905 0.74199218
-0.0048202258 0.055776924 0.74192297
-0.0048196339 0.055081546 0.74190253
-0.004819137 0.05438742 0.74188542
-0.0048186216 0.053693235 0.74186766
-0.0048181252 0.052999377 0.7418505
-0.0048179342 0.052309006 0.74184394
-0.004818507 0.051626861 0.74186367
-0.0048191561 0.050945371 0.74188608
-0.0048198057 0.050263703 0.74190843
-0.0048204553 0.049581856 0.74193084
-0.0048211431 0.048900157 0.74195457
-0.00482229 0.048222929 0.74199414
-0.0048237438 0.047548354 0.74204433
-0.0048252176 0.046873569 0.74209511
-0.0048267115 0.046198517 0.74214661
-0.0048282444 0.045523465 0.74219942
-0.0048297783 0.044847935 0.74225247
-0.0048313518 0.044172376 0.74230665
-0.00483356 0.043502063 0.74238282
-0.0048357509 0.042830944 0.7424584
-0.0048379633 0.042159408 0.74253464
-0.0048401584 0.041487068 0.74261039
-0.0048423936 0.040814459 0.74268752
-0.0048446315 0.040141255 0.74276471
-0.0048468518 0.039467245 0.74284124
-0.0048495964 0.038796782 0.74293596
-0.004852402 0.038126022 0.74303269
-0.0048552305 0.037454665 0.74313021
-0.0048580426 0.036782324 0.74322724
-0.0048608584 0.036109209 0.74332428
-0.0048636966 0.035435528 0.74342215
-0.0048665185 0.034760863 0.74351954
-0.0048693633 0.034085572 0.74361765
-0.0048726997 0.033412814 0.74373269
-0.0048760599 0.032739282 0.74384862
-0.0048794053 0.032064676 0.74396396
-0.0048827748 0.031389296 0.74408019
-0.004886149 0.030712932 0.74419659
-0.0048895278 0.030035675 0.74431312
-0.0048928917 0.029357374 0.74442905
-0.0048987651 0.028692782 0.74463165
-0.0050155185 0.028660119 0.74865842
-0.0050203842 0.027970731 0.74882621
-0.0050252592 0.027279973 0.74899429
-0.005030144 0.026587933 0.74916279
-0.0050350376 0.025894493 0.74933159
-0.0050399415 0.025199711 0.74950069
-0.0050448338 0.024503469 0.74966943
-0.0050497558 0.023806006 0.74983919
-0.0050546881 0.023107171 0.75000924
-0.0050596301 0.022406965 0.75017977
-0.0050645815 0.021705389 0.75035048
-0.0050695217 0.021002322 0.75052083
-0.0050744927 0.020298004 0.75069231
-0.0050794734 0.019592255 0.75086415
-0.0050844429 0.018885106 0.75103545
-0.0050894432 0.018176615 0.75120789
-0.0050944532 0.017466664 0.75138074
-0.0050994731 0.016755402 0.75155383
-0.0051045031 0.016042739 0.75172728
-0.005109543 0.015328646 0.75190115
-0.0051145926 0.014613152 0.75207531
-0.0051196311 0.013896137 0.75224906
-0.0051247007 0.013177842 0.75242394
-0.0051297806 0.012458056 0.75259912
-0.0051348708 0.0117369 0.75277466
-0.0051399707 0.011014283 0.75295055
-0.0051450809 0.010290205 0.75312686
-0.0050221882 0.0093269348 0.74888837
-0.0050232876 0.0086113811 0.74892628
-0.0050274404 0.0079002976 0.74906951
-0.0050325585 0.0071893632 0.749246
-0.0050377701 0.0064771473 0.74942577
-0.0050429925 0.0057634413 0.74960589
-0.0050482256 0.0050482154 0.74978638
-0.0050535956 0.0043316782 0.74997163
-0.0050589987 0.0036135316 0.75015795
-0.005064413 0.0028939545 0.75034463
-0.005069057 0.0021724403 0.75050485
-0.0050672614 0.0014477968 0.75044298
-0.0050473036 0.00072106719 0.74975461
-0.0049879332 2.9802322e-08 0.74770695
-0.0049507748 -0.00070726871 0.74642545
-0.004956081 -0.0014160275 0.74660838
-0.0049633826 -0.0021271706 0.74686027
-0.0049707061 -0.0028403997 0.74711281
-0.0049780309 -0.0035557449 0.74736547
-0.0049842126 -0.0042721927 0.74757862
-0.0049904101 -0.0049904287 0.74779236
-0.0049966224 -0.005710423 0.74800664
-0.0050027478 -0.006432116 0.74821788
-0.005008372 -0.0071547925 0.74841189
-0.0050139884 -0.0078791082 0.74860561
-0.0050196382 -0.008605063 0.7488004
-0.0050252802 -0.0093326569 0.74899501
-0.0050309552 -0.01006192 0.74919075
-0.0050366228 -0.010792762 0.74938619
-0.0050423234 -0.011525303 0.74958283
-0.0050480161 -0.012259454 0.74977916
-0.0050537428 -0.012995303 0.74997669
-0.0050594825 -0.01373288 0.75017464
-0.0050652144 -0.014472038 0.75037235
-0.0050709592 -0.015212864 0.75057048
-0.0050767381 -0.015955478 0.75076973
-0.005082509 -0.016699672 0.75096869
-0.0050883144 -0.017445624 0.75116903
-0.0050941119 -0.018193245 0.751369
-0.0050999438 -0.018942654 0.75157011
-0.0051057888 -0.019693762 0.75177169
-0.0051116263 -0.020446479 0.75197297
-0.0051174769 -0.021200955 0.75217479
-0.0051233624 -0.021957248 0.75237775
-0.00512924 -0.022715181 0.7525804
-0.0051351525 -0.023474962 0.75278437
-0.005141079 -0.0242365 0.75298882
-0.005146997 -0.024999708 0.7531929
-0.0051529505 -0.025764763 0.75339824
-0.0051588961 -0.026531428 0.75360328
-0.0051648556 -0.027299941 0.7538088
-0.005170851 -0.028070331 0.75401562
-0.005176838 -0.02884239 0.7542221
-0.0051828609 -0.029616356 0.75442982
-0.0051888977 -0.03039214 0.75463802
-0.0051949266 -0.031169534 0.75484592
-0.0052009919 -0.031948954 0.75505513
-0.0052075619 -0.032733232 0.75528169
-0.005215311 -0.033527017 0.75554895
-0.0052245194 -0.034332514 0.75586653
-0.0052359458 -0.035155594 0.75626063
-0.0052496199 -0.035997391 0.75673223
-0.0052633425 -0.036843419 0.75720549
-0.0052771601 -0.037694007 0.75768209
-0.0052910275 -0.038548917 0.75816035
-0.0053048059 -0.039407134 0.75863552
-0.005317633 -0.040262043 0.75907791
-0.0053306622 -0.041122228 0.75952727
-0.0054457393 -0.042787939 0.76349616
-0.0054546301 -0.043637037 0.76380277
-0.0054633045 -0.04448691 0.76410192
-0.005471834 -0.045338035 0.76439613
-0.0054804645 -0.046192467 0.76469374
-0.0054894444 -0.047052413 0.7650035
-0.0054985033 -0.047915518 0.76531589
-0.0054988763 -0.048704326 0.76532882
-0.0054812552 -0.049331278 0.76472104
-0.0054327245 -0.049670607 0.76304728
-0.0054359785 -0.050476938 0.76315951
-0.0054456661 -0.051344812 0.7634936
