# .PCD v0.7 - Point Cloud Data file format
VERSION 0.7
FIELDS x y z
SIZE 4 4 4
TYPE F F F
COUNT 1 1 1
WIDTH 493
HEIGHT 1
VIEWPOINT 0 0 0 1 0 0 0
POINTS 493
DATA ascii
-0.0028041967 -0.00070104003 0.74492753
-0.0042077387 0.0035064518 0.7449857
-0.0028033315 0.0073587596 0.74487531
-0.0042080106 0.011572033 0.74499655
-0.0028032013 0.01752001 0.74486756
-0.0042079766 0.020338565 0.74499524
-0.0035043268 0.02943638 0.74488324
-0.0028032013 0.042398423 0.7448675
-0.0056178919 -0.0035111904 0.74521422
0.0045708814 -0.003515929 0.74544311
0.006348277 -0.0035268366 0.7459693
-0.0070483042 -0.002466917 0.74584043
0.005635431 0.00035224855 0.74574351
0.0056357742 0.005635798 0.74575388
-0.0049122209 0.0084209442 0.74509579
0.004570947 0.010547906 0.74544513
0.0035133408 0.011594042 0.74531847
-0.0056224824 0.015461862 0.74535269
-0.0056224824 0.015461862 0.74535269
0.0044578291 0.01947408 0.74561191
-0.0049121911 0.025613591 0.74509472
0.004570947 0.025314972 0.74544519
-0.0049120123 0.032629833 0.74508858
0.0056355912 0.032404661 0.7457484
0.0056355912 0.032404661 0.7457484
-0.0056224824 0.034437686 0.74535275
-0.0049119033 0.036488444 0.74508482
-0.0056224824 0.037600338 0.74535275
-0.0049118735 0.037540779 0.74508375
0.0056354422 0.038391471 0.74574381
-0.0056178919 0.046347618 0.74521422
-0.0056178919 0.046347618 0.74521422
-0.0056178919 0.046347618 0.74521422
0.0028235542 0.012000144 0.7460959
0.0014161587 0.024428785 0.74662483
0.0035443332 0.02622807 0.74681485
0.0035443332 0.02622807 0.74681485
-0.0078213075 -0.0014220178 0.74733663
-0.0064057796 0.018505633 0.74751174
-0.0064057796 0.019573241 0.74751174
-0.0085548833 0.022813052 0.74779022
-0.0021408291 0.024262756 0.74795991
-0.0071103671 0.025597334 0.74733877
0.003557411 0.029526547 0.7474463
0.003557411 0.038420022 0.74744636
0.003557411 0.041621715 0.7474463
-0.0064057796 0.044484571 0.74751174
0.0021441847 0.008576721 0.74822998
0.0021441847 0.008576721 0.74822998
0.0021511582 0.046608418 0.74879116
0.011495951 -0.0035924911 0.74913985
0.012988755 0.014431953 0.74988836
0.012988755 0.018400759 0.74988836
0.012988755 0.030307114 0.7498883
-0.0072124102 0.03461957 0.74980235
0.012988809 0.035358459 0.74988908
0 0.041512653 0.74997556
0 0.042595297 0.74997449
0.012988809 0.043296039 0.74988902
0.012988809 0.043296039 0.74988902
-0.0072124102 0.044716954 0.74980235
-0.00072072155 0.046486124 0.74967694
0.011499303 0.048512787 0.74919039
0 -0.063176781 0.7509923
-0.00072601211 -0.062437028 0.75095415
0 -0.060628578 0.75097322
-0.00072600605 -0.058443502 0.75095272
0 -0.057360947 0.75097245
-0.000726 -0.054449975 0.75095117
-0.0021784459 -0.053371921 0.75098705
0 -0.05046311 0.75097251
0 -0.05046311 0.75097251
-0.0021784278 -0.04937768 0.75098568
-0.0021784278 -0.048651516 0.75098562
0 -0.044291317 0.75097251
-0.00072597875 -0.041380793 0.7509461
0 -0.037393689 0.75097322
0.010110302 -0.0036107898 0.75002521
0.014518059 0.010525599 0.75092781
0.012326135 0.013051182 0.75072592
0.0087053422 0.024665177 0.75081724
0.00072221243 0.038638383 0.75003684
0.0021673399 0.039373368 0.75009334
0.014515512 0.040643454 0.75089705
0.0014451127 0.04443723 0.75011981
-0.00072334765 0.052442804 0.7503109
0.00036202121 0.053572789 0.75045788
0.0036307739 0.053009301 0.7509886
-0.0036254853 0.056557566 0.75073326
0.0014534699 -0.060319006 0.75112867
0.0043785968 -0.059475929 0.75186044
0.0043785968 -0.059475929 0.75186044
-0.0043645082 -0.058557153 0.75129354
-0.0029057486 -0.048671246 0.75105679
-0.0043644076 -0.047281057 0.75128955
0.0014534576 -0.047600701 0.75112718
0.0043784864 -0.046703845 0.75185609
-0.0054640463 -0.044439122 0.75155723
0.00072635361 -0.04249166 0.75103664
-0.0029057241 -0.04068014 0.75105524
-0.0043643527 -0.038551748 0.75128728
-0.0043643527 -0.038551748 0.75128728
-0.0065698824 -0.037594303 0.75191379
0.0014534516 -0.036336303 0.75112647
-0.0043643159 -0.035641938 0.75128585
-0.0043643159 -0.034550801 0.75128579
-0.0043642796 -0.030549943 0.75128436
-0.0043642796 -0.030549943 0.75128436
0.0043784683 -0.028460026 0.75185525
-0.0054639541 -0.026590206 0.75155455
-0.0058353348 -0.022611886 0.7517761
0.0014535306 -0.020349413 0.75113595
0.0014537221 -0.015627503 0.75115913
-0.0036346021 -0.010176867 0.75117344
-0.0036346021 -0.010176867 0.75117344
-0.012400191 -0.0025529563 0.75177759
0.012354597 0.00072675943 0.75113004
0.0021829349 0.001455307 0.75134838
0.012354597 0.019622058 0.7511301
-0.012400087 0.022611946 0.7517761
-0.011634718 0.022542238 0.75123364
-0.011634718 0.022542238 0.75123364
-0.01240118 0.024437666 0.7517916
-0.0083785094 0.03934066 0.75156224
-0.0083785094 0.041526258 0.75156224
-0.0083785094 0.041526258 0.75156224
-0.0072899759 0.055403858 0.75167489
-0.0054510413 0.056688428 0.75113827
-0.0021987373 -0.065962106 0.75261998
0.0054868395 -0.050475806 0.75228715
0.0054867901 -0.042428568 0.75228572
-0.0073129586 -0.036564797 0.75222975
0.0066033155 -0.036685079 0.7528106
0.002194599 -0.025603652 0.75228703
0.0054867654 -0.023408771 0.75228494
-0.0084333019 -0.019432388 0.7527132
-0.0084333075 -0.015399247 0.7527132
-0.0084333261 -0.014665991 0.75271356
-0.0083083659 -0.010507038 0.7526561
0.011742996 0.0014678836 0.75286746
-0.010280898 0.0088122189 0.752967
-0.0080408361 0.018274635 0.75215471
0.011742947 0.018348366 0.75286669
0.001468439 0.026431918 0.75293559
-0.010259476 0.03847304 0.75259769
0.0084340656 0.042534485 0.75272644
0.0085602105 0.044510555 0.75280857
0.011742996 0.044403225 0.75286746
0.0084343571 0.051336467 0.7527324
-0.0095356051 0.055379912 0.75276387
0.0014624686 0.055573821 0.75221491
0.0065850448 0.056338727 0.75232041
0.0055270242 -0.065578848 0.75356853
0.0066234549 -0.064762652 0.75335085
-0.010330809 -0.059402138 0.75382769
0.0081118271 -0.057520241 0.75371277
0.0081117237 -0.052357465 0.75371051
0.0081115169 -0.040557593 0.75370598
0.0081115169 -0.040557593 0.75370598
-0.010330458 -0.038370252 0.75382173
-0.010330458 -0.037632346 0.75382173
0.0073543163 -0.03640385 0.75322819
0.0073543163 -0.035300702 0.75322819
-0.0029432715 -0.024281979 0.75332147
0.0073543163 -0.024269223 0.75322819
-0.011443174 0.022148103 0.75391328
0.011071358 0.037642598 0.75387013
0.010338581 0.043569773 0.75396174
0.0095769688 0.044569761 0.75353199
-0.011136458 -0.064591467 0.75491792
0.0096487934 -0.055666089 0.75486577
0.0096487114 -0.04638803 0.75486434
-0.011103339 -0.044413358 0.75438488
-0.011103339 -0.044413358 0.75438488
0.0096485876 -0.035625547 0.75486201
-0.011103481 -0.034420788 0.75438714
0.0089041824 -0.030422598 0.75481761
0.0088776592 -0.011466965 0.75428402
0.0088776592 -0.011466965 0.75428402
0.0014807165 -0.0066632032 0.7544176
0.011119115 0.0055595785 0.75463879
-0.0088919532 0.017413422 0.75457156
0.00074184407 0.029673785 0.75477636
0.00049392949 0.034579478 0.75457096
-0.012578505 0.039585292 0.75430989
0.010384087 0.053403914 0.7547465
-0.011842957 0.055513859 0.75437576
0.010393984 0.055682063 0.75491714
0.010435903 -0.06336081 0.75564003
-0.011885289 -0.058683604 0.75501454
-0.011885238 -0.054597795 0.7550137
-0.012680819 -0.036550581 0.75576288
0.010432054 -0.03241387 0.75557363
-0.0096607618 -0.02749601 0.75508815
0.010432054 -0.027570397 0.75557363
0.00037272522 -0.007456392 0.75569296
-0.012687301 -0.0014926195 0.75585496
0 0.0067004263 0.75541484
-0.0014898781 0.015643716 0.7555235
-0.0014898781 0.015643716 0.7555235
-0.0014896608 0.018620789 0.75549728
0.010435859 0.026089698 0.7556392
-0.0014889523 0.028290123 0.75541174
-0.00074424018 0.031258076 0.75535482
-0.013373351 0.046063811 0.75504673
-0.013435403 0.055607706 0.75587893
-0.012637412 0.05649668 0.75514644
0.011228852 -0.053524166 0.756405
0.011228587 -0.040422857 0.7564007
0.011228562 -0.03855139 0.75640035
0.011228538 -0.032562762 0.75639999
0.011228538 -0.025451332 0.75639999
-0.0037377491 -0.017567426 0.75615382
0.010482679 0.0037438571 0.75644666
0.010482634 0.029576018 0.75644588
-0.014322976 -0.049753487 0.75767261
-0.014322976 -0.049753487 0.75767261
0.011294478 -0.013553351 0.75746119
0.0090317465 -0.006021142 0.757384
0.0098153055 -0 0.75795817
0.009802185 0.026390493 0.75771439
-0.0097667063 0.03230527 0.75705558
-0.014346818 0.036244601 0.75797558
-0.014360611 -0.064244837 0.75815082
-0.015182351 -0.062247634 0.75894654
0.012882258 -0.048497885 0.7586236
-0.015182682 -0.033401906 0.75895053
0.0075675007 -0.02951324 0.75837493
0.012884281 -0.019705355 0.75865227
0.012884281 -0.019705355 0.75865227
0.012879898 -0.0083340406 0.75858998
0.0094631221 0.0045426488 0.75846076
0.0094631221 0.0045426488 0.75846076
0.0083376877 0.012885541 0.75866985
0.009456466 0.020427376 0.7583313
-0.014478334 -0.032004714 0.75964665
0.0076263305 -0.021353722 0.75979519
-0.010658899 0.00038096309 0.75948548
-0.02206976 0.019406199 0.75940728
-0.02206976 0.023591846 0.75940728
-0.02206976 0.03538771 0.75940728
-0.020583412 0.036592722 0.75972652
-0.02206976 0.040334374 0.75940728
-0.020583503 0.044597581 0.75972736
-0.019842917 0.044265002 0.75992948
-0.017521486 0.046470016 0.75959504
0.013754867 -0.062661082 0.76016372
0.013754867 -0.062661082 0.76016372
-0.016094314 -0.055563688 0.76070368
-0.016094314 -0.055563688 0.76070368
0.013754142 -0.054252446 0.76015395
-0.011455512 -0.022529185 0.76005298
-0.019478859 0.00038196892 0.76009727
-0.019478859 0.00038196892 0.76009727
-0.017615566 0.0045953691 0.76058251
0.017560216 0.0091618299 0.76000154
0.017560216 0.0091618299 0.76000154
-0.017570408 0.012986839 0.76010859
-0.018350961 0.013763249 0.76027572
-0.014579498 0.013044834 0.76093209
-0.011512927 0.016501874 0.76097703
-0.019100705 0.017572641 0.76013201
-0.019100705 0.028269053 0.76013207
-0.019100705 0.028269053 0.76013207
-0.017611451 0.032542899 0.76053935
-0.017611451 0.032542899 0.76053935
-0.015392832 -0.030400842 0.76148725
-0.013884334 -0.022369176 0.76190013
-0.016150562 -0.020764977 0.76135027
-0.013884334 -0.017741084 0.76190019
-0.016150562 -0.013458803 0.76135027
-0.013884334 -0.0092561841 0.76190013
-0.013884334 -0.0092561841 0.76190013
-0.013884334 -0.0092561841 0.76190013
-0.014639435 -0.0084754527 0.76169366
-0.012316285 0.0034639686 0.7615177
-0.013478786 0.005391553 0.7616269
-0.01347558 0.006545268 0.76158297
-0.014613059 0.030764341 0.7613585
-0.012303719 0.034604251 0.7613281
0.014709171 -0.046450019 0.76257974
0.019552384 0.0054746568 0.76449388
0.019552384 0.011731416 0.76449382
0.019552384 0.021507606 0.76449382
0.016436951 0.04618004 0.76464266
0.018053943 0.0062796474 0.76518399
0.018114259 0.014570177 0.76581711
0.018114178 0.019689322 0.76581621
0.01732417 0.039373159 0.76578951
0.016502712 0.040470943 0.76539868
0.020407328 0.040422216 0.76517034
0.020407328 0.046308964 0.76517028
0.020700704 -0.0047770739 0.76789439
0.016654544 2.9802322e-08 0.7671442
0.017479453 0.01350686 0.76749355
0.016694019 0.036567867 0.76759803
0.028809724 -0.016405523 0.76888168
0.020758545 -0.007185638 0.76843148
0.023186047 -0.0075954348 0.76870024
0.031337123 -0.016472057 0.76966524
0.028097073 -0.012442961 0.76948595
0.029649736 -0.0096161067 0.76914096
0.027242688 -0.0048075318 0.76911956
0.031337705 -0.0032141209 0.76966888
0.014549895 -0.026674777 0.77082682
0.027510526 -0.017800927 0.77102137
0.025568737 -0.012371957 0.77480316
-0.0031538755 0.016995739 0.74488074
0.0051047062 0.044884179 0.74565601
-0.0063937558 0.0071029766 0.74718922
0.001064728 0.009594582 0.74725956
-0.0064057796 0.016904145 0.74751174
-0.0021408291 0.024262756 0.74795991
-0.0021408291 0.024262756 0.74795991
-0.0064057796 0.030961305 0.74751174
0.003557411 0.035040498 0.7474463
0.003557411 0.035040498 0.7474463
-0.0021412161 0.048534244 0.74799109
-0.0021412161 0.048534244 0.74799109
-0.0093513466 -0.0030570924 0.74934196
0.012780929 -0.0010797977 0.7495113
0.012780929 -0.0010797977 0.7495113
0.012592353 0.0089942589 0.74939251
0.00011919051 0.023015499 0.74841928
-0.0072124102 0.029029958 0.74980235
-0.0021659259 0.039167196 0.74997956
-0.0010827936 0.042950861 0.74995244
-0.0029061497 -0.06096378 0.75106728
-0.0065697446 -0.058945194 0.75191003
-0.0010889958 -0.054994341 0.75095081
-0.0049141939 -0.040947221 0.75142217
0.0043784683 -0.037034519 0.75185525
0.0043784683 -0.034845322 0.75185525
-0.0029790525 -0.031169176 0.75108564
-0.001089507 -0.026785854 0.75104624
0.0021829349 0.0049116164 0.75134838
-0.011070278 0.011069005 0.75090826
-0.0080198478 0.013123393 0.75169408
0.013045083 0.01902689 0.75066942
-0.011067075 0.02303829 0.75085884
0.013044626 0.035062391 0.75066364
0.0010836637 0.040995259 0.7500782
-0.012402404 0.048515394 0.751809
-0.012402404 0.048515394 0.751809
0.0069297329 0.050879143 0.75178355
0.0069297329 0.050879143 0.75178355
0.0069297329 0.050879143 0.75178355
-0.0080320667 0.054946758 0.7519623
-0.0089996886 -0.059041239 0.7530213
0.0069789467 -0.059041861 0.75302297
-0.0089995302 -0.048940029 0.75301826
0.0069788387 -0.047012221 0.75302005
-0.009030818 -0.045026336 0.75303388
0.0081115346 -0.042954259 0.7537064
0.0021958426 -0.028911933 0.75238705
-0.0044007977 -0.024937838 0.75275379
-0.0073126894 -0.01883015 0.75222325
0.0003664995 -0.016521931 0.75296426
0.0003664995 -0.016521931 0.75296426
0.0066080038 -0.016152889 0.75293636
0.0054868385 -0.014996439 0.75228715
0.0081191678 -0.0095953643 0.75387394
0.0021958472 -0.0058555901 0.7523874
0.011742996 0.0031192601 0.75286746
-0.0080408026 0.0065788329 0.75215399
-0.010838585 0.0088175684 0.75307488
0.011386664 0.013039477 0.75304341
0.0090381447 0.022135057 0.75380826
0.0090381447 0.022135057 0.75380826
0.0088984575 0.037059121 0.75319695
0.0090055224 0.038955793 0.75312948
0.0090368753 0.045054905 0.75314641
0.010432054 -0.057003707 0.75557363
-0.011494303 -0.048940364 0.75469947
0.0092623252 -0.046956606 0.75455689
0.0092623252 -0.046956606 0.75455689
0.0092621222 -0.035008393 0.75455284
-0.0096635837 -0.029176638 0.75514048
-0.0037085393 -0.024476379 0.75474352
-0.0096463617 -0.018921718 0.7548207
-0.0026132728 -0.019038871 0.75592983
-0.0044647716 -0.011161894 0.75532782
0.01043211 -0.0091280788 0.75557464
-0.0011150369 0.020998873 0.75514048
-0.0011150369 0.020998873 0.75514048
-0.0011150369 0.020998873 0.75514048
-0.014183154 0.051134065 0.75589597
-0.013018042 -0.064837545 0.7569887
-0.013018042 -0.064837545 0.7569887
-0.014322976 -0.054841928 0.75767255
0.012042524 -0.05513218 0.75738698
0.012042524 -0.05513218 0.75738698
-0.013491802 -0.04516004 0.75663543
0.011228683 -0.045101851 0.75640225
0.012042081 -0.038948603 0.75738031
-0.014323038 -0.03505373 0.75767338
0.011228538 -0.027135618 0.75639987
-0.0037376324 -0.017006233 0.75614816
0.011294478 -0.016941711 0.75746119
-0.0048662052 -0.015159503 0.75641167
-0.0048662052 -0.015159503 0.75641167
0.0052731102 -0.0088511854 0.75754237
0.012042303 -0.0088435262 0.75738358
-0.015699998 -0.0014952123 0.75617045
0.010480141 0.00093596429 0.75640285
-0.0097666644 0.0028173104 0.75705481
-0.015015734 0.038853213 0.7569353
0.011985732 0.055059537 0.75653005
0.0069976375 -0.029126633 0.75832176
0.010642642 -0.022995591 0.7592051
0.0073602181 -0.020809731 0.75947732
-0.011404802 -0.0053222477 0.75923681
0.016729314 -0.0015208125 0.75926179
-0.019849196 0.0028628558 0.75998777
0.0075933486 0.0028475001 0.75899899
-0.020957462 0.0049536377 0.75966585
-0.017421566 0.010983184 0.75854617
-0.016936723 0.012179449 0.75945282
-0.019207029 0.02111504 0.75993055
-0.02206976 0.027016431 0.75940728
0.0075825281 0.029003158 0.7587378
-0.018864412 0.048588444 0.75968438
-0.015010155 -0.02886562 0.76151448
0.0092040086 -0.017065313 0.76084459
-0.015016093 -0.010973446 0.76159
-0.018826624 0.00095589273 0.76025736
-0.012897265 0.0050048493 0.76156807
0.017196817 0.022801166 0.76019859
-0.012972604 0.035000421 0.76098686
-0.018728802 0.038986824 0.76023376
-0.017600358 0.040939987 0.76042295
-0.018723723 0.044898864 0.76018316
0.014709269 -0.045095496 0.76258099
0.014709269 -0.045095496 0.76258099
-0.012738786 -0.030495673 0.76206684
0.017288437 2.9802322e-08 0.76539743
0.020407328 0.015109286 0.76517028
0.018805616 0.032977674 0.76486754
0.018805616 0.03500241 0.76486766
0.018793089 0.044962656 0.76473635
0.017171737 0.00079279148 0.76701778
0.029233251 -0.020423077 0.7690345
0.02885218 -0.0090164375 0.76916957
0.022638336 -0.0031959713 0.7685734
0.016846256 0.017046832 0.7693482
0.01684686 0.02908089 0.76935506
0.026632741 -0.020580009 0.77051914
0.02274343 -0.0097471774 0.77177751
0.02711229 -0.0087238904 0.7700994
0.027071111 -0.0050513297 0.77076638
0.025414182 -0.020495296 0.77359951
0.026056923 -0.019135013 0.77226365
-0.0056598508 0.042040143 0.74632418
0.0057260944 0.045978256 0.74579668
-0.0026489741 0.048645243 0.74651659
0.0019748518 -0.064469114 0.75162911
0.0019748518 -0.064469114 0.75162911
-0.0019826526 -0.01001859 0.75105917
-0.010020276 -0.0043296441 0.74989116
-0.0072112698 0.0019834265 0.74977481
-0.01240371 0.010306433 0.7518276
-0.0072967922 0.01405425 0.74966693
-0.0095110219 0.022375761 0.75042337
-0.0072124102 0.033988502 0.74980235
-0.0016260731 0.037758455 0.75014985
-0.008378474 0.041981414 0.75156152
-0.010274824 -0.049998444 0.75384754
-0.010280026 -0.045975894 0.75384992
-0.0073128585 -0.037935436 0.75222731
0.0015312348 -0.03031975 0.75368637
0.0089858463 -0.0098732496 0.75451148
-0.0084656458 0.0020696651 0.75334799
0.00092151522 0.0020343838 0.75425994
0.0073524178 0.0088229179 0.75318235
-0.0016760676 0.017970115 0.7555089
0.007382724 0.022148192 0.75391406
0.007382724 0.022148192 0.75391406
-0.014335073 -0.062040459 0.75778574
0.011228755 -0.050061535 0.75640345
0.0074928058 -0.021461692 0.75962496
-0.010209016 0.0059525985 0.75820124
-0.01021638 0.03002551 0.75833219
-0.021511331 0.046045661 0.75951654
0.014835231 0.04976856 0.7577433
-0.013751203 -0.0099285319 0.76185095
0.01765996 0.0096358107 0.76161259
-0.013905118 0.021002488 0.76090908
0.018158631 0.022454506 0.7622149
0.019877832 -0.0047706664 0.76763666
0.015628116 0.055479795 0.76432747
0.027280279 -0.013893092 0.77082413
0.027280279 -0.013893092 0.77082413
0.014549895 -0.0072749555 0.77082682
