# .PCD v0.7 - Point Cloud Data file format
VERSION 0.7
FIELDS x y z
SIZE 4 4 4
TYPE F F F
COUNT 1 1 1
WIDTH 364
HEIGHT 1
VIEWPOINT 0 0 0 1 0 0 0
POINTS 364
DATA ascii
-0.010483345 0.018416606 0.71248567
-0.0096584363 0.021021307 0.71284127
-0.015769992 0.018620133 0.71328902
-0.0037096748 0.023686484 0.71347272
-0.017495645 0.01606147 0.71416414
-0.012335164 0.016064584 0.71419108
-0.020412419 0.017537199 0.71449429
-0.0091710882 0.017195791 0.71406037
-0.016494036 0.015047118 0.71539831
-0.011308765 0.015078545 0.71569008
-0.008297625 0.016401967 0.71543944
-0.022590796 0.018536031 0.71552289
-0.022590796 0.018536031 0.71552289
-0.0054049892 0.018339783 0.71550357
-0.0054049892 0.018339783 0.71550357
-0.0029027788 0.020900011 0.71583784
-0.0005806454 0.026419133 0.71585953
-0.005544656 0.011381477 0.71658987
-0.0013622425 0.013618241 0.71658516
-0.025157589 0.018721968 0.71692532
-0.00058420835 0.024536759 0.71671969
-0.002326281 0.029660106 0.71608281
-0.01057875 0.00999102 0.7175647
-0.010572051 0.011453286 0.71747482
-0.010572051 0.011453286 0.71747482
-0.010565204 0.013499975 0.71738303
-0.0064541148 0.015255183 0.71733034
-0.023492994 0.0164451 0.71747208
-0.0014715346 0.016480684 0.7177788
-0.012696303 0.0094483197 0.71824324
-0.0011872726 0.011872739 0.71899581
-0.015681772 0.012426957 0.71854287
-0.020408712 0.014197052 0.7184906
-0.0011794583 0.020050794 0.71805251
-0.00059191522 0.020420685 0.71858031
0.00059153826 0.032534629 0.71848929
-0.027916316 0.020491689 0.71907496
-0.021526251 0.0071754456 0.72003752
-0.019844409 0.0078175068 0.72085696
-0.0029994508 0.0095982552 0.7205056
-0.0029994508 0.0095982552 0.7205056
0.0017950466 0.011368662 0.72013354
-0.022533853 0.013820469 0.72074693
-0.018098002 0.0090490282 0.72132075
0 0.010248393 0.72121924
-0.0036564197 0.0067034364 0.72280228
-0.017692925 0.0079313219 0.72297072
-0.0032413732 0.0074960492 0.72241735
0.0024329019 0.029499352 0.72251791
-0.022618214 0.0061130226 0.72326094
-0.025114592 0.012863606 0.72356224
-0.029710149 0.02664718 0.72357297
-0.0036618016 0.039059222 0.72301888
-0.00061667996 0.0080168545 0.72455901
-0.00061667996 0.0080168545 0.72455901
-0.025559206 0.012625545 0.72436804
-0.03135718 0.026438415 0.72411644
-0.0061883256 0.0049506724 0.7250787
-0.012384857 0.0080501735 0.72517776
-0.029488618 0.014589474 0.72555566
-0.020017257 0.0031277239 0.7266978
-0.029629197 0.015594184 0.7262699
-0.0046784747 0.039610133 0.72627306
-0.0056169503 0.040566862 0.72635174
-0.0084514031 0.043194681 0.72681141
-0.0031342641 0.0031342804 0.72701502
-0.026342835 0.011289805 0.72710127
-0.028377831 0.024594128 0.72792405
-0.030211568 0.033358604 0.72763181
-0.015825836 0.0044312775 0.7285071
-0.010465125 0.0057082772 0.72880143
-0.012624376 0.0063121915 0.72806907
-0.029054169 0.029369965 0.72816408
-0.029043715 0.030622169 0.72810912
-0.027568791 0.03644231 0.72868568
-0.033871282 0.018533349 0.72996712
-0.0038244964 0.037607551 0.7295652
0.0019174468 0.037070632 0.72998351
-0.0086050611 0.041428998 0.72955382
-0.014439746 0.043531537 0.72947693
-0.015962282 0.044055879 0.72982478
-0.015424408 0.0025707483 0.73083687
-0.014549417 0.0036371849 0.73064727
0.0076844702 0.028496012 0.73027891
-0.022450767 0.040731579 0.7305392
-0.0076972838 0.040410757 0.7305367
0.0035439311 0.0035433024 0.73122513
-0.034229249 0.021312594 0.73159766
-0.033547778 0.021613047 0.7314322
0.0058034961 0.025148511 0.73135579
-0.027042532 0.034125119 0.73112327
-0.026405122 0.035421491 0.73116124
0.001288155 0.038644671 0.7311734
0.0038604005 0.039247423 0.73100984
-0.023691021 0.040274732 0.731668
-0.017495295 -0.00064796209 0.73211402
-0.016576871 -0.00032503903 0.73262095
0 0.00065091252 0.73281908
0.0013018764 0.001952827 0.73282969
-0.027223598 0.031436548 0.73216403
-0.02555505 0.035301268 0.73253477
-0.024688762 0.03865692 0.73253179
-0.024688762 0.03865692 0.73253179
-0.0084183542 0.040149093 0.73201549
-0.011561302 0.003708174 0.73367262
0.0094718989 0.027433813 0.73337221
-0.013692531 0.041077614 0.73309219
-0.0016457842 -0.0019742101 0.73455203
0.0072335498 0.023673445 0.73443693
0.0072335498 0.023673445 0.73443693
-0.026937656 0.027594686 0.73429698
-0.026937656 0.027594686 0.73429698
-0.024648104 0.03680867 0.73436499
-0.016518226 -0.0026428998 0.73519349
-0.011226972 0.0026416481 0.73511636
-0.011226972 0.0026416481 0.73511636
-0.025124425 0.0046282113 0.73529965
-0.002648355 0.034428626 0.73552167
-0.006605708 0.037652552 0.73515522
-0.01436525 -0.0023384988 0.73698533
-0.01436525 -0.0023384988 0.73698533
0.0035523041 0.00044347844 0.7364859
0.0035523041 0.00044347844 0.7364859
-0.023746692 0.035731278 0.73641843
-0.020345684 0.036689624 0.7367276
-0.017318159 0.038299099 0.73648596
-0.0026730888 -0.0026730597 0.73701447
-0.02443869 0.0033478439 0.73732781
-0.0073666926 0.0043524057 0.73735905
0.0067196316 0.019486904 0.73790562
0.0093637714 0.023409426 0.73715174
-0.010818442 -0.0013523102 0.73891699
0.0064057596 -0.0013486445 0.73847622
-0.011448702 -0.00067344308 0.73826534
-0.0094309393 0.0013472736 0.73831004
-0.019583339 0.035452008 0.73870814
-0.011467289 0.037436455 0.73852921
0.0081601674 -0.001360029 0.73984921
-0.0074465186 -0.00067692995 0.73911095
-0.024427533 0.0013570786 0.73949403
-0.0064526843 0.0023772717 0.73966658
0.0095060933 0.021049201 0.73960602
-0.0064547071 0.035328835 0.73970115
-0.016289638 0.036311641 0.73954046
0.00068355358 -0.0061519742 0.74070376
-0.010266998 -0.0034223497 0.74092412
-0.020524293 0.033523053 0.74084604
-0.0095394617 0.036113679 0.74018145
-0.011681723 -0.0041229427 0.74157441
-0.024068886 0.025444239 0.74170053
0.0013859859 -0.0076229274 0.74298263
0.0076076286 -0.0041496158 0.74264693
0.0055180108 0.013449788 0.74220002
0.011397483 0.020377234 0.74244088
-0.01868346 0.032523066 0.74273807
-0.013436001 0.035140455 0.74202549
-0.012523376 -0.0069574416 0.74364662
-0.022579607 -0.00069475174 0.74341345
-0.02219153 -0 0.74310154
0.0076266034 0.014559895 0.74306345
0.0093780588 0.014588118 0.743388
-0.017382093 0.032678366 0.74353564
-0.017382093 0.032678366 0.74353564
-0.013615677 -0.0083789676 0.74425149
0.0013986331 -0.0083917677 0.74450922
0.0048893117 -0.0055877864 0.74430561
0.012617969 0.015421987 0.74491525
-0.017504828 0.026607364 0.74472088
-0.013310593 0.028372765 0.74480885
-0.009446064 0.031486124 0.74459976
-0.009446064 0.031486124 0.74459976
-0.019683316 0.028470755 0.74539262
-0.019705635 0.030613393 0.74558508
-0.011930449 0.030878842 0.7451067
-0.011390646 -0.0096116215 0.7475509
-0.009988484 -0.0085615516 0.74792457
-0.0043057459 -0.0093290806 0.74892914
-0.00071913627 -0.01078704 0.74929416
0.0014404309 -0.010803193 0.74955475
-0.0043170336 -0.0086340606 0.74938333
0.007552376 -0.007911399 0.74931467
-0.0043321941 -0.0050542057 0.74999332
0.010099805 -0.00072139502 0.74984425
0.0043490939 -0.012322426 0.75067329
-0.0075932434 -0.0094009787 0.75026369
-0.020421356 -0.0065639913 0.75175619
0.013123112 0.0036453307 0.75169039
0.013123112 0.0036453307 0.75169039
0.015395595 -0.021626711 0.752671
0.015395595 -0.021626711 0.752671
0.0065866252 -0.011709541 0.75236285
-0.019107632 -0.0066141486 0.753102
-0.019107632 -0.0066141486 0.753102
0.0084537137 0.0044105649 0.75314635
0.0084537137 0.0044105649 0.75314635
0.018490044 -0.021448463 0.75423497
0.012587002 -0.011106163 0.75443053
0.014432327 0.0085117891 0.75436127
0.014432327 0.0085117891 0.75436127
0.016359476 0.01264143 0.75520331
0.0084928405 -0.014737765 0.75659406
0.010491586 -0.014613256 0.75660026
0.014287947 -0.016543895 0.75722742
-0.007520949 -0.015041858 0.75725108
0.018056922 0.009780854 0.7573179
-0.0015253999 -0.016779393 0.7598114
0.019508766 -0.026394188 0.7603786
0.023000246 -0.02300024 0.76077098
0.0015316195 -0.013784528 0.76056212
-0.0061569279 -0.017701149 0.76148105
-0.01621682 -0.012355655 0.76211202
0.0185434 0.0084990561 0.76221156
0.016354574 -0.0015575588 0.76369566
0.01754074 -0.00077959895 0.76388979
0.019415945 0.0085430443 0.76317626
0.017270597 0.0035323352 0.76520169
0.0041627437 -0.023311347 0.77667439
0.0049953884 -0.022479236 0.77667826
0.0074935132 -0.019982666 0.77668977
0.0066947816 -0.02175802 0.77771223
0.019399529 -0.0092779994 0.77930808
0.0076888073 -0.024774998 0.78192848
-0.00085664564 -0.023129433 0.78249186
0.005165189 -0.028408527 0.78351045
0.010306122 -0.02318877 0.78302252
0.019784991 -0.012903214 0.78335404
0.011293087 -0.028667063 0.78540182
0.012214921 -0.029664785 0.78631806
0.021871231 -0.013997585 0.78688669
0.011573639 -0.032940358 0.79061186
0.015998067 -0.031107366 0.79025018
-0.0026708946 -0.027599245 0.79061633
0.0026835599 -0.032202721 0.79163551
0.016102687 -0.032205373 0.79165334
0.0073309965 -0.036654949 0.79691166
0.018383829 -0.035848439 0.79759175
0.0092162956 -0.037786812 0.79818034
0.018508289 -0.037016571 0.79909408
0.014520252 -0.04028137 0.80183715
0.021982515 -0.041097701 0.80642056
0.021982515 -0.041097701 0.80642056
0.002886195 -0.039444685 0.80794239
0.023196818 -0.042527467 0.80902129
0.0077664927 -0.043686509 0.810054
-0.0031801551 0.021178886 0.715294
-0.0027808747 0.022690676 0.71466279
-0.0050890683 0.013102601 0.71689075
-0.0050890683 0.013102601 0.71689075
-0.025593981 0.020592704 0.71772254
-0.011795064 0.012384802 0.71805829
-0.023025246 0.015299205 0.71912855
-0.019535994 0.00745143 0.72155344
-0.001052859 0.010532077 0.72098577
0.0018011741 0.02686765 0.72062659
-0.0010513871 0.036970053 0.7208041
-0.0048129698 0.0053480305 0.72325242
-0.024304943 0.011544853 0.72237265
-0.01553478 0.0074567199 0.72569638
-0.0011544066 0.0069734873 0.72511864
-0.02800698 0.023027956 0.72593451
-0.029779742 0.029004835 0.72545987
0.0018670049 0.034228444 0.72592425
-0.0024972926 0.0043702722 0.72640425
0 0.0056657791 0.72766101
-0.0019119326 0.0019119382 0.72953975
-0.027891379 0.02345413 0.72871512
-0.0092952382 0.042246424 0.7286706
0.0033212537 0.0037510942 0.73093623
0.0033212537 0.0037510942 0.73093623
-0.014086307 0.0044820011 0.73025823
-0.026261531 0.0083268583 0.73031574
0.0070229666 0.026989276 0.7309773
-0.014067695 0.044760853 0.7300539
-0.025511516 0.0058872998 0.733603
-0.011017364 0.004824427 0.73308831
-0.025360314 0.034823444 0.7332167
-0.025299918 0.037284814 0.73314124
-0.0088166874 0.039618954 0.73334408
-0.015908562 -0.0026513934 0.73570704
-0.021228952 0.037427485 0.7352941
-0.0039410377 0.036126196 0.73425448
-0.01736623 0.039113697 0.73539531
-0.011489082 0.040047169 0.73417509
-0.0065648011 -0.0028348402 0.73776662
-0.024061223 0.0040102005 0.73703748
-0.02266149 0.036658935 0.73659855
-0.0070081409 0.037044469 0.73682892
0.0040792692 -0.0020396113 0.73981643
-0.0067372466 0.0040423572 0.73833084
-0.012270701 -0.0034085512 0.74025762
0.0034117945 0.012964845 0.74041533
-0.011095172 0.03618598 0.74051076
0.0051773367 -0.0034511387 0.74231637
-0.02157953 2.9802322e-08 0.74373603
-0.021390382 -0.0010527074 0.74499899
0.013266075 0.020596936 0.74424326
0.013266075 0.020596936 0.74424326
0.0070602912 -0.0056481957 0.74612981
-0.006850373 -0.0088934554 0.74976695
0.020633923 -0.01842314 0.75358891
0.006618184 -0.012500972 0.75320941
0.009071961 0.0032081865 0.75266731
0.011537969 0.0090826955 0.75347751
0.011537969 0.0090826955 0.75347751
0.015030732 -0.024867274 0.75488645
0.015030732 -0.024867274 0.75488645
-0.0092020473 -0.014779996 0.75520444
0.011926644 -0.012672067 0.75563854
0.0089956922 -0.015293351 0.75666612
0.01903121 -0.025090706 0.75854248
0.017067479 -0.028765954 0.76086926
-0.0045899418 -0.015299797 0.76036429
0.011683571 -0.0035048425 0.76372349
0.0030307397 -0.022871107 0.77524722
0.0058878828 -0.023551524 0.77874517
0.019109128 -0.011041559 0.78071511
0.019883737 -0.013832152 0.78439057
0.0069966363 -0.030612051 0.78683394
0.012654087 -0.026472002 0.78637093
0.0031224675 -0.032127544 0.79113138
0.01117085 -0.036476269 0.79583323
0.0036898456 -0.035975963 0.79838121
0.025840444 -0.017534584 0.79848063
0.011240345 -0.040277898 0.80181766
0.018903809 -0.040643156 0.80386847
0.0065819928 -0.039491951 0.80268419
0.020355081 -0.044587314 0.80968654
0.0086850366 -0.043425173 0.80865186
0.01077071 -0.046020299 0.81206834
-0.0020531777 0.018013086 0.71796072
-0.022652436 0.013345019 0.72127092
0.00460207 0.028532103 0.72381228
-0.0042903228 0.039838731 0.72364724
-0.004603087 0.04050456 0.72384083
-0.0018477888 0.0056487131 0.72576249
-0.028360331 0.0077346265 0.73128819
-0.013590813 0.0052530193 0.72944599
-0.027754776 0.023448937 0.72972763
0.0045109969 0.038183197 0.73125803
-0.013860862 0.0015655775 0.73349214
0.0065516531 0.022875194 0.73410988
-0.010437655 0.04031558 0.73309457
0.0081422329 -0.0010185391 0.73948842
0.0069306595 0.0060393489 0.73958588
-0.017690023 0.037278172 0.73762542
0.0059202663 0.014054346 0.74183214
-0.013987171 0.036164023 0.74041075
-0.0098185781 -0.0063085943 0.74578339
0.010720097 -0.0014122014 0.75078666
0.0035726205 -0.014045845 0.7540952
-0.0083076647 -0.011484991 0.75265503
-0.0083076647 -0.011484991 0.75265503
0.020540059 -0.024343759 0.75933886
0.013874911 -0.017783539 0.75774062
0.013967619 -0.014050662 0.75698298
0.0091235247 -0.020487692 0.77893841
0.0021749404 -0.029042119 0.78601217
0.014737795 -0.03080116 0.78914458
0.0045840004 -0.035755217 0.79701447
0.017534144 -0.042437565 0.80572796
0.021761274 -0.041480403 0.80676824
0.0056761149 -0.039732784 0.80406857
0.028422441 -0.037609875 0.81048816
0.0049353023 -0.043430626 0.81397676
