# .PCD v0.7 - Point Cloud Data file format
VERSION 0.7
FIELDS x y z
SIZE 4 4 4
TYPE F F F
COUNT 1 1 1
WIDTH 1317
HEIGHT 1
VIEWPOINT 0 0 0 1 0 0 0
POINTS 1317
DATA ascii
0.00072900369 -0.014580071 0.75167638
0.00072716683 -0.015270472 0.75123292
0.00072810543 -0.016018301 0.75145948
0.0007331568 -0.016862601 0.75267899
0.00073834771 -0.017720312 0.75393224
0.00074367627 -0.018591881 0.75521863
0.00074908882 -0.019476295 0.75652534
0.00076109287 -0.020549506 0.75942338
0.00079115579 -0.022152364 0.76668119
0.00083025708 -0.024077445 0.77612114
0.00083323556 -0.024997056 0.77684021
0.00083320361 -0.025829315 0.77683252
0.00083217392 -0.026629567 0.77658391
0.00083070964 -0.027413398 0.77623034
0.00083439605 -0.028369427 0.77712035
0.00089133048 -0.031196564 0.79086554
0.00089043967 -0.032055825 0.79065049
0.00089069986 -0.032955915 0.79071331
0.00090085121 -0.034232348 0.79316407
0.0009133204 -0.035619467 0.79617441
0.0009226721 -0.036906868 0.79843211
0.00092471507 -0.037913293 0.79892528
0.00092336844 -0.038781464 0.7986002
0.0009197219 -0.039548039 0.79771984
0.00092488242 -0.040694803 0.79896575
0.001227426 0.031913072 0.7238428
0.0012147545 0.030976236 0.72231317
0.0012091956 0.030229867 0.72164214
0.0012061315 0.029550225 0.72127223
0.001203729 0.028889477 0.72098231
0.0012029205 0.028268635 0.72088468
0.0012021547 0.027649581 0.72079223
0.0012022919 0.027051598 0.72080874
0.0012026957 0.026459336 0.7208575
0.0012033121 0.025871217 0.72093195
0.0012045719 0.025296032 0.721084
0.0012059264 0.024721503 0.72124749
0.0012075525 0.024151087 0.72144377
0.0012091871 0.02357915 0.72164112
0.001210995 0.023008913 0.72185934
0.0012129311 0.022439271 0.72209305
0.0012150221 0.021870404 0.72234547
0.0012175041 0.021306306 0.72264504
0.0012200006 0.020740032 0.72294641
0.0012225546 0.020172119 0.72325474
0.0012253743 0.019606024 0.72359508
0.0012283677 0.01903969 0.72395641
0.0012313755 0.018470645 0.72431952
0.0012344685 0.017899811 0.72469282
0.001237749 0.017328501 0.72508883
0.0012412375 0.016756713 0.72551
0.0012447368 0.016181588 0.72593236
0.0012482426 0.015603036 0.72635555
0.0012519305 0.015023202 0.72680068
0.0012557899 0.01444158 0.72726661
0.0012597418 0.013857156 0.72774363
0.0012637324 0.013269216 0.72822529
0.0012678547 0.012678534 0.72872293
0.0012721298 0.012085259 0.72923899
0.00127649 0.011488408 0.7297653
0.0012809464 0.01088807 0.73030323
0.0012855149 0.010284126 0.73085469
0.0012901687 0.0096763074 0.7314164
0.0012949625 0.009064734 0.73199511
0.001356116 0.0088147521 0.73937702
0.0013578808 0.0081472993 0.73959005
0.0013595757 0.0074776709 0.73979455
0.0013594906 0.0067974627 0.7397843
0.0013575519 0.0061089993 0.73955029
0.00135396 0.0054158866 0.73911673
0.0013479617 0.0047178864 0.73839271
0.0013379185 0.004013747 0.73718035
0.0013431575 0.0033578873 0.73781282
0.0013491655 0.0026983321 0.73853803
0.0013552274 0.002032876 0.73926973
0.0013614134 0.0013613999 0.74001646
0.0013678231 0.0006839335 0.74079013
0.0013742771 -0 0.74156928
0.0013808745 -0.0006904304 0.7423656
0.0013876687 -0.0013876557 0.74318576
0.0013945804 -0.002091825 0.74402004
0.0014017194 -0.0028034151 0.74488181
0.0014090464 -0.0035226047 0.74576628
0.0014164445 -0.0042493343 0.74665934
0.0014239324 -0.004983753 0.74756318
0.0014975965 -0.0059903562 0.75645524
0.0014974094 -0.0067383349 0.75643265
0.0014941256 -0.0074706078 0.75603628
0.0014902423 -0.0081962943 0.75556749
0.0014863728 -0.0089182258 0.75510037
0.0014825234 -0.0096364021 0.75463569
0.0014787001 -0.010350913 0.75417417
0.0014748964 -0.011061698 0.7537151
0.0014711062 -0.011768818 0.75325751
0.0014673414 -0.012472391 0.75280309
0.0014635898 -0.013172299 0.75235021
0.0014598634 -0.01386869 0.75190043
0.001456156 -0.014561564 0.75145292
0.0014529532 -0.015255988 0.75106627
0.0014578606 -0.016036451 0.75165868
0.0014678249 -0.016879976 0.75286144
0.0014780711 -0.017736852 0.7540983
0.0014885378 -0.018606722 0.75536168
0.0014992831 -0.019490659 0.75665885
0.001510211 -0.020387799 0.75797784
0.0015216392 -0.021302938 0.75935739
0.0015585149 -0.022598445 0.76380867
0.0016337119 -0.024505675 0.7728858
0.0016585406 -0.025707364 0.77588284
0.0016595228 -0.026552349 0.77600145
0.0016604189 -0.027396917 0.77610964
0.0016707178 -0.028402209 0.77735281
0.0017794383 -0.031140178 0.7904765
0.0017777359 -0.03199929 0.7902711
0.0017766997 -0.032868922 0.79014599
0.0017876686 -0.033965707 0.79146999
0.0018115938 -0.035326064 0.79435802
0.0018368086 -0.036736161 0.79740179
0.0018493416 -0.037911475 0.79891455
0.0018486725 -0.038822114 0.79883385
0.0018425847 -0.039615571 0.79809904
0.0018404863 -0.040490717 0.79784572
0.001858908 0.030362189 0.72527272
0.0018441095 0.029505759 0.72408181
0.0018360993 0.028765559 0.72343719
0.0018322137 0.028093964 0.7231245
0.0018292814 0.027439237 0.72288853
0.0018280688 0.026811689 0.72279096
0.0018272613 0.026190758 0.72272593
0.0018277034 0.025587887 0.72276151
0.0018283317 0.024987191 0.72281212
0.0018298016 0.024397373 0.72293043
0.0018317372 0.023812592 0.72308618
0.0018341739 0.023232877 0.72328222
0.0018366881 0.022652507 0.72348458
0.0018392093 0.022070527 0.72368747
0.001842076 0.021490902 0.7239182
0.0018450626 0.02091071 0.72415847
0.0018486291 0.020334929 0.72444552
0.0018524663 0.019759655 0.72475433
0.0018563193 0.019181997 0.72506434
0.001860474 0.018604755 0.72539866
0.0018649809 0.01802817 0.72576141
0.0018696035 0.017449617 0.72613347
0.0018742761 0.016868532 0.72650945
0.0018792296 0.016286671 0.72690809
0.0018844682 0.015703917 0.72732955
0.0018898594 0.015118867 0.72776341
0.0018952609 0.014530331 0.72819811
0.0019008112 0.013939321 0.72864479
0.0019066591 0.013346612 0.72911537
0.0019126973 0.012751341 0.72960132
0.0019187953 0.012152404 0.73009205
0.0019251313 0.011550784 0.73060191
0.0019316382 0.010945946 0.73112559
0.0019382685 0.010337442 0.73165911
0.0019451259 0.0097256601 0.73221099
0.0020199914 0.0094266236 0.73823571
0.0020225467 0.0087643862 0.73844135
0.0020251006 0.0081004202 0.73864686
0.0020276769 0.007434845 0.73885417
0.0020302518 0.0067675114 0.73906142
0.0020315654 0.0060946941 0.73916709
0.0020295719 0.0054121912 0.73900664
0.0020251872 0.0047254562 0.73865378
0.0020189662 0.0040379465 0.73815322
0.0020227586 0.0033712685 0.7384584
0.0020315258 0.0027087331 0.73916388
0.0020404812 0.0020405054 0.73988456
0.0020497416 0.0013664961 0.74062979
0.0020590702 0.00068637729 0.74138045
0.0020685662 2.9802322e-08 0.74214464
0.0020784235 -0.00069278479 0.74293792
0.0020883335 -0.0013922453 0.74373543
0.0020984989 -0.0020984709 0.74455345
0.0021089516 -0.0028119385 0.74539471
0.0021196122 -0.0035326779 0.74625254
0.0021305378 -0.0042610466 0.74713176
0.0021419465 -0.0049978793 0.74804991
0.0022442669 -0.0059847236 0.75628394
0.0022430499 -0.0067291558 0.75618601
0.0022382627 -0.0074608922 0.75580078
0.0022324529 -0.0081856251 0.75533324
0.0022266638 -0.0089066625 0.75486737
0.0022209138 -0.0096239448 0.75440466
0.0022151843 -0.010337532 0.75394362
0.0022094937 -0.011047453 0.75348562
0.0022038321 -0.011753768 0.75303006
0.0021981902 -0.012456387 0.75257599
0.0021925864 -0.01315552 0.75212508
0.0021870111 -0.013851047 0.75167644
0.0021814548 -0.014543056 0.75122929
0.0021787556 -0.015251279 0.75101209
0.0021897124 -0.016057879 0.7518937
0.0022044193 -0.016900539 0.75307733
0.002219429 -0.017755419 0.75428522
0.0022350184 -0.01862514 0.75553972
0.0022508574 -0.019507408 0.75681436
0.0022672382 -0.020405143 0.75813258
0.0022838591 -0.021316022 0.75947011
0.0023007151 -0.022240222 0.76082659
0.0023194412 -0.023194402 0.76233351
0.0024053198 -0.024854988 0.76924455
0.002479255 -0.026445389 0.77519435
0.0024888325 -0.027377188 0.77596509
0.0025084286 -0.028428853 0.77754211
0.0026647088 -0.031088263 0.79011858
0.0026622179 -0.03194657 0.78991807
0.0026599898 -0.032806545 0.78973877
0.0026684331 -0.033800125 0.79041821
0.0026992506 -0.035090238 0.79289818
0.0027329358 -0.036439121 0.795609
0.0027674725 -0.037822098 0.79838836
0.0027709892 -0.038793832 0.79867131
0.0027650795 -0.039632827 0.79819578
0.0027574871 -0.040443122 0.79758477
0.0025053052 0.028811038 0.72688788
0.0024888585 0.027999669 0.72589523
0.0024797113 0.027276844 0.72534311
0.0024745723 0.026601672 0.72503293
0.002471501 0.025950789 0.72484761
0.0024698584 0.02531606 0.72474843
0.0024693494 0.024693489 0.72471774
0.0024701743 0.02408421 0.72476757
0.0024712549 0.023476928 0.72483277
0.002473762 0.022882342 0.72498405
0.0024768037 0.022291213 0.72516769
0.0024802336 0.021702051 0.7253747
0.0024836815 0.02111131 0.72558278
0.0024871395 0.020518929 0.72579151
0.0024911873 0.019929528 0.72603571
0.0024954721 0.019339949 0.7262944
0.0025006623 0.018754989 0.72660768
0.0025059285 0.018168002 0.72692549
0.0025113893 0.017579764 0.72725505
0.0025173298 0.016992003 0.72761357
0.0025236099 0.016403466 0.72799271
0.0025299676 0.015812308 0.72837639
0.0025365702 0.01521942 0.72877491
0.0025435239 0.014625281 0.72919452
0.0025508811 0.01402986 0.72963864
0.0025582903 0.013431042 0.73008585
0.002565752 0.012828767 0.7305361
0.0025736578 0.012224883 0.73101336
0.0025818041 0.011618137 0.73150504
0.0025901566 0.011008173 0.73200905
0.0025987481 0.01039499 0.73252761
0.0026732842 0.010024816 0.73702633
0.0026779508 0.0093728304 0.73730797
0.0026813191 0.0087143183 0.73751128
0.0026846961 0.0080541074 0.73771507
0.0026880815 0.0073922276 0.73791945
0.0026914859 0.0067287385 0.73812485
0.0026948883 0.0060635209 0.73833025
0.0026977654 0.0053955615 0.73850387
0.002697001 0.0047197938 0.73845768
0.0026979642 0.0040469766 0.73851585
0.0027085638 0.0033857226 0.73915559
0.0027199921 0.0027200282 0.73984534
0.002731689 0.0020487905 0.74055135
0.0027436819 0.0013718605 0.74127513
0.0027559006 0.00068897009 0.74201262
0.0027685487 -0 0.74277604
0.0027813131 -0.00069531798 0.74354637
0.0027942634 -0.0013971329 0.74432808
0.0028077657 -0.0021058023 0.74514294
0.002821319 -0.0028212965 0.74596095
0.0028352237 -0.0035440028 0.74680018
0.0028495113 -0.0042742491 0.74766254
0.0029002065 -0.0050753355 0.75072229
0.0029639467 -0.0059278607 0.75456929
0.0029799733 -0.0067049265 0.75553662
0.0029784152 -0.0074460506 0.75544256
0.0029727074 -0.0081749558 0.75509816
0.0029650468 -0.008895129 0.75463569
0.0029573876 -0.0096114874 0.75417346
0.0029497806 -0.01032421 0.75371432
0.0029422124 -0.011033297 0.75325757
0.0029346829 -0.011738718 0.75280309
0.0029274633 -0.012441725 0.75236738
0.002920009 -0.013140023 0.75191736
0.0029124706 -0.013834208 0.75146246
0.002907414 -0.014537036 0.75115728
0.0029132764 -0.015294701 0.7515111
0.0029273522 -0.016100407 0.75236064
0.0029444688 -0.016930699 0.75339371
0.0029776876 -0.017866075 0.75539869
0.0029853883 -0.018658668 0.75586343
0.0030043088 -0.019527972 0.75700539
0.0030256954 -0.020423442 0.75829619
0.003047803 -0.021334589 0.7596305
0.0030703307 -0.022259891 0.7609902
0.0030931805 -0.023198843 0.76236928
0.003116275 -0.024151117 0.76376313
0.0031492922 -0.025194347 0.76575595
0.0032978612 -0.027207345 0.77472287
0.0033400867 -0.028390706 0.77727139
0.0035445367 -0.031014681 0.78961098
0.0035440666 -0.031896591 0.78958267
0.0035408703 -0.032753021 0.78938973
0.0035441208 -0.033669114 0.78958595
0.0035813437 -0.0349181 0.79183257
0.0036229799 -0.036229789 0.7943455
0.0036673555 -0.037590384 0.79702383
0.003687555 -0.038719326 0.79824299
0.0036830404 -0.039592683 0.79797047
0.0036740641 -0.040414691 0.79742873
0.0036835482 -0.041439921 0.79800117
0.00322071 0.028342277 0.73118895
0.0031659747 0.027227402 0.72854608
0.0031497541 0.026457965 0.72776288
0.0031401445 0.025749177 0.72729886
0.0031337782 0.02507022 0.72699147
0.0031310334 0.024422079 0.72685897
0.0031290709 0.023780912 0.7267642
0.0031293191 0.023157001 0.72677624
0.0031304015 0.0225389 0.72682846
0.0031325351 0.021927774 0.72693145
0.0031360521 0.021325171 0.72710133
0.0031404626 0.020727098 0.72731423
0.0031448849 0.020127296 0.7275278
0.0031493201 0.019525796 0.72774196
0.0031538594 0.018923163 0.72796112
0.0031591242 0.018322915 0.72821534
0.0031651556 0.017724842 0.72850657
0.0031719168 0.017128378 0.72883296
0.0031787534 0.01652953 0.72916311
0.0031860869 0.015930444 0.72951722
0.0031939708 0.01533106 0.72989786
0.0032021063 0.014729708 0.73029077
0.0032104377 0.014125943 0.73069298
0.0032191942 0.013520628 0.73111576
0.0032284185 0.012913674 0.73156118
0.0032379131 0.012304097 0.73201954
0.0032474515 0.011690855 0.73248017
0.0032574006 0.011075199 0.73296052
0.0032677425 0.010456771 0.73345989
0.0032953864 0.0098861456 0.73479468
0.0033261999 0.009313345 0.73628247
0.0033326186 0.0086648166 0.73659241
0.0033368303 0.0080084205 0.73679572
0.0033421325 0.00735268 0.73705178
0.0033486385 0.0066972971 0.7373659
0.0033560516 0.0060408711 0.73772383
0.0033643574 0.0053829849 0.73812485
0.0033742108 0.0047239363 0.73860061
0.0033875534 0.0040650666 0.73924482
0.0034012548 0.0034012794 0.73990643
0.0034154167 0.0027323365 0.74059021
0.0034297376 0.0020578504 0.74128169
0.0034441929 0.001377672 0.74197972
0.0034591286 0.00069183111 0.74270087
0.0034744721 -0 0.74344164
0.0034900927 -0.00069802999 0.74419594
0.0035062223 -0.0014024973 0.74497467
0.0035226874 -0.0021135807 0.74576968
0.0035392502 -0.0028313398 0.7465694
0.0035565663 -0.0035565794 0.74740553
0.0035739793 -0.0042887628 0.74824625
0.0035920241 -0.0050287843 0.74911755
0.0036158871 -0.0057854354 0.75026983
0.0036734571 -0.0066122413 0.75304961
0.0037079854 -0.0074159801 0.75471669
0.0037075896 -0.008156687 0.75469756
0.0037011602 -0.0088827908 0.75438714
0.0036919739 -0.0095991194 0.75394356
0.0036824893 -0.010310978 0.75348568
0.0036730533 -0.01101917 0.75303006
0.0036696708 -0.011742949 0.75286674
0.0036770336 -0.012501895 0.75322223
0.0036820835 -0.013255477 0.75346613
0.0036692056 -0.013942957 0.75284421
0.0036589589 -0.014635831 0.7523495
0.0036660158 -0.015397251 0.7526902
0.0039269165 -0.017278433 0.76528764
0.003914794 -0.018008053 0.76470232
0.0038998204 -0.018719137 0.76397932
0.0038800151 -0.01940006 0.76302302
0.0037726909 -0.019618005 0.75784099
0.0037874291 -0.020452112 0.75855261
0.0038133997 -0.021355063 0.75980657
0.0038412907 -0.022279471 0.76115322
0.0038699205 -0.023219526 0.76253563
0.0038989277 -0.024173349 0.76393622
0.0039281952 -0.025140435 0.76534939
0.003958086 -0.026123345 0.76679265
0.0040510804 -0.02754733 0.77128279
0.0042546759 -0.029782742 0.78111333
0.0044162096 -0.031796724 0.78891277
0.004419018 -0.032700747 0.78904837
0.0044208174 -0.033598214 0.78913528
0.0044596498 -0.034785271 0.79101026
0.0045069205 -0.036055356 0.79329264
0.0045594596 -0.03738755 0.79582953
0.0045985607 -0.038627893 0.79771751
0.0045979521 -0.039542407 0.79768813
0.0045873169 -0.040368378 0.79717457
0.0045922641 -0.041330367 0.79741347
0.0038839467 0.026540339 0.73195732
0.0038454761 0.025636524 0.73040926
0.0038273048 0.024877518 0.72967815
0.0038183047 0.024182588 0.729316
0.0038113242 0.023503184 0.72903514
0.003808609 0.022851676 0.72892594
0.0038071205 0.022208244 0.72886604
0.003807802 0.021577567 0.72889346
0.0038094022 0.020951748 0.72895783
0.0038129275 0.020335615 0.72909969
0.0038180109 0.019726425 0.72930419
0.0038234584 0.019117326 0.72952342
0.0038289216 0.018506467 0.72974324
0.0038344003 0.017893881 0.72996372
0.003840206 0.017280906 0.73019725
0.00384681 0.016669542 0.73046303
0.0038549188 0.01606217 0.73078924
0.003863262 0.015453041 0.731125
0.0038720299 0.014842778 0.7314778
0.0038814303 0.01423192 0.73185599
0.0038913265 0.013619661 0.73225421
0.0039014339 0.01300481 0.73266089
0.0039120195 0.012388051 0.73308682
0.0039230911 0.011769295 0.73353231
0.0039347601 0.011148483 0.73400187
0.0039465139 0.010524064 0.73447478
0.0039594052 0.0098985434 0.73499352
0.0039769583 0.0092795789 0.73569977
0.0039892099 0.0086432993 0.73619276
0.0040002014 0.0080004036 0.73663503
0.0040130294 0.0073572099 0.73715115
0.0040271375 0.00671193 0.73771882
0.0040413607 0.0060620308 0.73829114
0.0040556854 0.0054075718 0.73886746
0.0040700953 0.0047484636 0.73944724
0.0040857932 0.004085809 0.74007893
0.0041018706 0.003418237 0.74072587
0.0041180914 0.0027454197 0.74137855
0.0042640036 0.0021319985 0.7472496
0.0042304848 0.0014101863 0.74590087
0.0041974881 0.00069957972 0.74457318
0.0041882461 2.9802322e-08 0.7442013
0.0042057694 -0.00070098042 0.74490643
0.004224638 -0.0014082193 0.74566561
0.0042438498 -0.0021218956 0.74643862
0.0042636725 -0.0028423965 0.74723625
0.0042839278 -0.0035699308 0.74805129
0.0043043238 -0.0043042898 0.74887192
0.0043255608 -0.0050464869 0.74972647
0.0043471167 -0.0057961345 0.75059378
0.0043693469 -0.0065539777 0.75148821
0.0043982537 -0.0073303878 0.75265133
0.0044296533 -0.0081209838 0.75391477
0.0044321958 -0.008864373 0.75401706
0.0044246707 -0.0095867813 0.75371432
0.0044132997 -0.010297686 0.75325674
0.0044071237 -0.01101777 0.75300831
0.0044239382 -0.01179713 0.75368482
0.0044436455 -0.012590289 0.7544778
0.004750093 -0.014250249 0.76680827
0.004742831 -0.01501894 0.76651609
0.0047308207 -0.015769362 0.76603281
0.0047189132 -0.016516209 0.76555371
0.004707023 -0.017259032 0.76507527
0.0046952139 -0.017998338 0.76460016
0.0046819914 -0.018727928 0.76406813
0.004665792 -0.01944077 0.76341629
0.0046456223 -0.020131022 0.76260471
0.0046167755 -0.020775467 0.76144397
0.0045905281 -0.021422476 0.76038796
0.0046143439 -0.022302628 0.76134622
0.0046480251 -0.023240119 0.76270139
0.0046829591 -0.024195254 0.76410705
0.0047182082 -0.0251638 0.7655254
0.0047539491 -0.02614671 0.76696348
0.0047899708 -0.02714318 0.76841289
0.0048294724 -0.028171927 0.77000231
0.0050074826 -0.030044883 0.77716482
0.0052670515 -0.03248015 0.78760916
0.0052955481 -0.033538461 0.78875571
0.0053366749 -0.034688413 0.79041058
0.0053913812 -0.035942554 0.79261172
0.0054480461 -0.037228286 0.79489177
0.0055039381 -0.038527548 0.79714066
0.0055097272 -0.039486319 0.79737365
0.0054981899 -0.040320069 0.79690945
0.0055011204 -0.041258425 0.79702735
0.0045803189 0.024864614 0.7336489
0.0045436975 0.024016708 0.73238581
0.0045243595 0.023268163 0.73171884
0.0045148027 0.022574008 0.73138928
0.0045082252 0.021897107 0.73116243
0.0045050024 0.02123788 0.73105133
0.0045042848 0.02059105 0.73102647
0.0045055696 0.019953281 0.73107088
0.0045081084 0.019320488 0.73115844
0.0045135962 0.018699199 0.73134768
0.004520122 0.018080503 0.73157275
0.0045266668 0.017459989 0.73179847
0.0045332303 0.016837746 0.73202479
0.0045398134 0.016213626 0.73225188
0.0045469934 0.015589714 0.73249948
0.0045556799 0.014968693 0.73279905
0.0045655998 0.014349043 0.73314118
0.0045758034 0.013727427 0.73349315
0.0045866924 0.013104826 0.73386872
0.0045982776 0.012481064 0.73426831
0.0046103578 0.011855245 0.73468488
0.0046228357 0.011226892 0.73511523
0.0046358756 0.010596335 0.73556495
0.004649505 0.0099632144 0.73603505
0.0046635726 0.0093271732 0.73652017
0.0046778154 0.008687377 0.73701143
0.0046927612 0.0080447793 0.73752683
0.0047084223 0.007398963 0.73806703
0.0047250511 0.0067501068 0.73864055
0.0047417982 0.0060966015 0.73921812
0.0047586639 0.0054384768 0.73979974
0.0050675576 0.0050675571 0.75045311
0.0050769295 0.0043516755 0.75077641
0.0050768871 0.0036263168 0.75077486
0.0050440803 0.0028823316 0.74964345
0.0050038593 0.0021445155 0.74825621
0.0049642944 0.0014183521 0.74689174
0.0049253507 0.00070363283 0.74554861
0.0049113678 2.9802322e-08 0.74506634
0.0049297432 -0.00070425868 0.74570012
0.0049504926 -0.0014144182 0.74641562
0.0049724136 -0.0021310449 0.74717176
0.0049949395 -0.002854228 0.74794859
0.00501794 -0.0035842359 0.74874187
0.0050416547 -0.0043214262 0.74955976
0.0050657634 -0.005065769 0.7503913
0.0050903596 -0.0058175325 0.75123954
0.0051156473 -0.0065772533 0.75211173
0.0051414268 -0.0073448718 0.75300074
0.0051597725 -0.0081082284 0.7536335
0.0051635844 -0.008851856 0.75376493
0.0051554851 -0.0095745027 0.75348568
0.0051422748 -0.010284513 0.75303006
0.0051458431 -0.0110268 0.75315309
0.0051780506 -0.011835545 0.75426388
0.0055294791 -0.013428718 0.76638424
0.0055318433 -0.014224738 0.76646578
0.0055241794 -0.014994174 0.76620138
0.0055123358 -0.015749514 0.76579297
0.005498454 -0.016495347 0.76531422
0.005484642 -0.017237455 0.76483786
0.0054708994 -0.017975807 0.76436383
0.0054572253 -0.018710464 0.76389229
0.0054429369 -0.019439042 0.76339948
0.0054261559 -0.020154268 0.76282072
0.0054052705 -0.02084893 0.76210046
0.0053804005 -0.021521598 0.76124269
0.0053915158 -0.022336215 0.76162601
0.005429402 -0.023268819 0.76293266
0.0054685129 -0.024217695 0.76428157
0.005509689 -0.025187135 0.76570165
0.0055514388 -0.026171058 0.76714158
0.0055938517 -0.027170122 0.76860434
0.0056366301 -0.028183132 0.77007973
0.0056803338 -0.029213101 0.77158701
0.0057383883 -0.030331463 0.77358925
0.0060231294 -0.032696992 0.7834096
0.0062075616 -0.034584969 0.78977042
0.0062728799 -0.035845011 0.79202318
0.006337076 -0.037117153 0.79423726
0.0064032404 -0.038419425 0.79651916
0.0064183464 -0.039426982 0.7970401
0.0064069177 -0.040272057 0.796646
0.0064159082 -0.041245103 0.79695606
0.0052946522 0.023164123 0.73545963
0.0052601867 0.022355825 0.73441947
0.005241401 0.02162078 0.73385262
0.005230336 0.02092135 0.73351866
0.0052247127 0.020245761 0.73334891
0.0052215527 0.019580841 0.7332536
0.0052216505 0.018928498 0.73325652
0.0052237506 0.018283129 0.73331994
0.0052279946 0.017644495 0.73344803
0.0052355765 0.017015636 0.73367685
0.0052432599 0.016385198 0.73390871
0.0052509657 0.015752912 0.73414117
0.0052586938 0.015118748 0.7343744
0.0052664448 0.014482707 0.73460835
0.0052751596 0.013847291 0.73487139
0.005286355 0.013215929 0.73520917
0.0052981437 0.012583137 0.73556495
0.0053106546 0.011948973 0.73594248
0.0053238971 0.011313289 0.73634219
0.0053378008 0.010675609 0.73676169
0.0053521893 0.010035366 0.73719591
0.0053672567 0.0093927085 0.73765063
0.0053828885 0.0087471902 0.73812234
0.0053991987 0.0080988109 0.73861456
0.0057519954 0.0079089999 0.74926114
0.0057815206 0.0072269142 0.75015217
0.0058061318 0.0065318942 0.75089484
0.0058249659 0.0058249831 0.75146323
0.0058389385 0.0051090717 0.75188488
0.0058516478 0.0043887496 0.75226843
0.0058422522 0.0036514103 0.75198483
0.005798961 0.0028994977 0.75067842
0.0057524713 0.0021571815 0.74927557
0.0057066977 0.001426667 0.74789417
0.0056616697 0.00070771575 0.74653536
0.0056414702 5.9604645e-08 0.74592572
0.0056625465 -0.00070783496 0.74656183
0.0056850594 -0.0014212728 0.7472412
0.0057090186 -0.0021408498 0.7479642
0.0060100206 -0.003004998 0.75704777
0.0060048536 -0.0037530363 0.75689179
0.0059826248 -0.0044869483 0.756221
0.0058144145 -0.0050875843 0.75114477
0.0058408771 -0.005840838 0.75194341
0.0058692419 -0.0066028833 0.75279933
0.0058941068 -0.0073676109 0.7535497
0.0059020161 -0.0081152916 0.75378841
0.0058967825 -0.0088451505 0.75363052
0.0058844248 -0.0095621943 0.75325751
0.0058693658 -0.0102714 0.75280315
0.0058776811 -0.01102066 0.75305408
0.0059225634 -0.011845112 0.75440854
0.0062814769 -0.013348103 0.76523966
0.006295817 -0.01416555 0.76567239
0.0062955888 -0.014952004 0.76566553
0.006288155 -0.015720367 0.76544112
0.0062755491 -0.016473323 0.76506072
0.0062603136 -0.017215848 0.76460099
0.0062446469 -0.017953336 0.76412821
0.0062290304 -0.018687069 0.76365697
0.0062135472 -0.019417316 0.76318967
0.0061980579 -0.020143658 0.76272225
0.0061806389 -0.020859629 0.7621966
0.0061630164 -0.021570563 0.76166481
0.0061811334 -0.022406608 0.7622115
0.0062170769 -0.023314059 0.76329625
0.0062658451 -0.024280131 0.76476789
0.0063089631 -0.025235862 0.76606917
0.0063504437 -0.026195586 0.76732099
0.0063989777 -0.027195632 0.7687856
0.0064482889 -0.028211236 0.77027363
0.0064980322 -0.029241145 0.77177483
0.0065485178 -0.030286908 0.77329832
0.0066007972 -0.031353772 0.774876
0.0067498586 -0.032905549 0.77937424
0.0071038562 -0.035519272 0.79005712
0.0072232522 -0.037019134 0.79366028
0.007296782 -0.038308114 0.79587919
0.0073231943 -0.039362192 0.79667628
0.0073132529 -0.040222883 0.79637629
0.0073352917 -0.041261017 0.7970413
0.0060255518 0.021424204 0.73731232
0.0059955395 0.02065134 0.73650724
0.0059785065 0.019928336 0.73605031
0.0059660971 0.019224107 0.73571748
0.0059616389 0.018547356 0.73559785
0.0059595029 0.017878503 0.73554063
0.005960207 0.017218411 0.73555946
0.0059633441 0.016564846 0.73564363
0.0059706308 0.015921712 0.73583913
0.0059795128 0.015280992 0.73607731
0.0059884209 0.014638364 0.73631632
0.005997356 0.013993829 0.73655593
0.0060062944 0.013347328 0.73679578
0.0060152831 0.012698919 0.73703682
0.0060265507 0.012053102 0.73733914
0.0060399361 0.011408806 0.73769814
0.0060539674 0.010762632 0.73807454
0.0060688411 0.010114759 0.73847347
0.0060845455 0.0094648898 0.73889482
0.0062969667 0.009095639 0.74459291
0.0063838372 0.0085118115 0.74692315
0.0064589395 0.0078942776 0.74893779
0.0065076491 0.0072307289 0.75024438
0.0065485304 0.0065485537 0.75134099
0.0065841852 0.0058526099 0.7522974
0.0066152164 0.0051451623 0.75312984
0.0066311792 0.0044207871 0.75355804
0.0066156085 0.0036753416 0.75314033
0.0065628784 0.0029168427 0.75172591
0.0065099518 0.0021699965 0.75030613
0.0064578722 0.001435101 0.74890912
0.0064066197 0.00071185827 0.74753428
0.0063787326 -0 0.74678624
0.0064024222 -0.00071138144 0.74742174
0.0064288513 -0.0014286041 0.74813068
0.0067719324 -0.0022572875 0.75733364
0.0067647542 -0.0030065477 0.75714111
0.0067499485 -0.0037499368 0.75674403
0.0067319018 -0.0044879019 0.75625986
0.0067088814 -0.0052179992 0.75564241
0.0066720382 -0.0059306622 0.75465405
0.0066314042 -0.0066314042 0.75356412
0.0066421935 -0.0073802173 0.75385344
0.0066400496 -0.0081156194 0.75379598
0.0066284807 -0.0088379383 0.75348562
0.0066114962 -0.0095499456 0.75303
0.0065945708 -0.010258198 0.75257599
0.0065876804 -0.010979444 0.75239116
0.0066472478 -0.011817306 0.75398898
0.0068758912 -0.012987763 0.76012236
0.0070223878 -0.014044762 0.76405203
0.0070508239 -0.014885068 0.76481485
0.0070525096 -0.015672266 0.76486003
0.0070456453 -0.016439825 0.76467592
0.0070328424 -0.01719138 0.76433247
0.007016432 -0.017930865 0.76389229
0.0070044566 -0.018678486 0.76357102
0.0070091668 -0.019469917 0.76369739
0.0070098895 -0.020250767 0.76371682
0.0069707013 -0.020912051 0.76266551
0.0069744634 -0.021698326 0.76276648
0.0069950875 -0.022539675 0.76331973
0.0074532581 -0.02484417 0.77560991
0.007426884 -0.025581479 0.77490252
0.0073929974 -0.026286185 0.77399349
0.0071850885 -0.026345313 0.7684164
0.0072095711 -0.027236164 0.76907313
0.0072611975 -0.028237969 0.77045798
0.0073176068 -0.029270411 0.77197117
0.0073745875 -0.030317754 0.77349961
0.0074324263 -0.031381339 0.77505112
0.0074914671 -0.032463044 0.77663493
0.00755481 -0.033576936 0.77833402
0.0078316443 -0.035677493 0.78576005
0.0081795501 -0.038171232 0.79509246
0.0082137091 -0.039243281 0.79600871
0.0082179829 -0.040176779 0.79612339
0.0082640667 -0.041320324 0.79735953
0.0072393985 0.020270348 0.75045389
0.0072621242 0.019607753 0.75100243
0.0072923317 0.018960059 0.75173175
0.007322853 0.018307149 0.75246859
0.0073536313 0.017648727 0.75321168
0.0073846378 0.016984671 0.75396025
0.006725667 0.014796466 0.73805124
0.0067357845 0.014145136 0.73829556
0.0067462726 0.013492554 0.73854876
0.0067565837 0.012837529 0.73879766
0.0067668208 0.012180299 0.73904479
0.0067770886 0.011521041 0.73929274
0.0067874677 0.010859936 0.73954332
0.0068018436 0.010202765 0.73989034
0.0068181269 0.0095453858 0.74028343
0.0068848371 0.0089503229 0.74189401
0.0069596893 0.008351624 0.74370104
0.0070552169 0.0077607632 0.74600726
0.0071534035 0.0071534216 0.7483778
0.0072505772 0.0065255463 0.75072372
0.0073142517 0.0058514178 0.75226104
0.0073625129 0.0051537752 0.75342607
0.0073786164 0.0044271648 0.75381488
0.0073686019 0.0036842823 0.75357312
0.0073356535 0.0029342473 0.7527777
0.0072764498 0.0021829903 0.75134832
0.0072178938 0.0014435947 0.74993467
0.0071602724 0.0007160306 0.74854362
0.0071293036 -0 0.74779594
0.0071525495 -0.00071525574 0.74835712
0.0071809599 -0.0014361739 0.74904305
0.0075278254 -0.0022583008 0.75741708
0.0075097661 -0.0030039251 0.75698113
0.007490146 -0.0037450492 0.7565074
0.0074706278 -0.0044823885 0.75603628
0.0074511794 -0.0052158237 0.75556672
0.0074285911 -0.0059428513 0.75502133
0.00739983 -0.0066598654 0.75432706
0.0073863962 -0.0073863864 0.75400269
0.0073742317 -0.0081116259 0.75370908
0.0073555303 -0.0088266432 0.75325751
0.0073366761 -0.009537667 0.75280237
0.0073179486 -0.010245115 0.75235021
0.0072993175 -0.010948956 0.75190043
0.0072924541 -0.011667907 0.75173473
0.007403614 -0.012586147 0.75441837
0.0075745611 -0.013634205 0.7585454
0.0077379448 -0.014702082 0.76248986
0.0077990103 -0.015598029 0.76396412
0.0078030038 -0.0163863 0.7640605
0.0077970503 -0.017153472 0.76391679
0.0077894996 -0.017915845 0.76373446
0.0078153238 -0.018756777 0.76435792
0.0078518456 -0.019629627 0.76523966
0.008354554 -0.02172184 0.77737612
0.0083358344 -0.022506714 0.77692413
0.0083152475 -0.023282677 0.77642709
0.0082948022 -0.024054915 0.7759335
0.0082744565 -0.024823338 0.77544236
0.0082527595 -0.025583565 0.77491856
0.0082266945 -0.026325405 0.77428925
0.0081941793 -0.02704078 0.77350432
0.0081492476 -0.027707398 0.77241957
0.0080986107 -0.028345108 0.77119708
0.0081389779 -0.029300302 0.77217168
0.008202265 -0.030348361 0.77369952
0.0082667395 -0.031413615 0.7752561
0.0083321165 -0.03249523 0.77683443
0.0083985347 -0.033594161 0.77843785
0.0084673008 -0.034715921 0.78009802
0.0085519506 -0.035918206 0.78214169
0.0089834519 -0.038628817 0.79255909
0.0091136098 -0.040099859 0.79570127
0.009419824 -0.042389184 0.80309403
0.0080877962 0.018381357 0.75318539
0.0081180297 0.017712057 0.75384891
0.0081523824 0.017045885 0.75460291
0.008187063 0.016374141 0.75536394
0.0082220398 0.015696615 0.75613171
0.0082573164 0.015013307 0.75690585
0.0075122332 0.012975663 0.74055332
0.0075237378 0.012311578 0.74080575
0.0075356639 0.011646062 0.74106747
0.0075475983 0.010978311 0.74132943
0.0075595705 0.010308504 0.74159223
0.0075715804 0.0096365809 0.74185574
0.0075862478 0.0089655817 0.74217772
0.0076180305 0.0083105862 0.74287522
0.0076608136 0.007660836 0.74381423
0.0077210749 0.0070191622 0.74513686
0.0078262724 0.006403327 0.74744558
0.0079361219 0.0057717264 0.74985653
0.0080490997 0.005122155 0.75233608
0.0080985241 0.0044173896 0.75342083
0.0080965683 0.0036802888 0.75337791
0.0080809221 0.002938509 0.75303453
0.0080494042 0.0021953285 0.75234276
0.007987001 0.0014522374 0.75097322
0.0079228627 0.00072026253 0.7495656
0.0078882957 -0 0.74880683
0.0079153813 -0.00071957707 0.74940133
0.007945261 -0.0014445782 0.7500571
0.0082716122 -0.0022558868 0.75721967
0.0082499376 -0.0029999912 0.75674403
0.0082283765 -0.0037401319 0.75627077
0.0082069626 -0.0044765174 0.75580084
0.0081856605 -0.0052090585 0.75533324
0.0081644682 -0.0059377551 0.75486815
0.0081430729 -0.0066625178 0.75439858
0.0081223426 -0.0073839426 0.75394356
0.0081014764 -0.0081014633 0.75348562
0.0080806836 -0.0088152885 0.75302929
0.0080600306 -0.0095255077 0.75257599
0.0080394829 -0.010232061 0.75212508
0.0080190403 -0.010935038 0.75167638
0.0079986677 -0.011634439 0.75122929
0.0079885703 -0.01234597 0.75100768
0.0080919061 -0.013241291 0.75327557
0.0082613137 -0.014269501 0.75699365
0.0084380042 -0.015341818 0.76087159
0.0085376343 -0.016299129 0.76305819
0.0085517699 -0.017103493 0.76336837
0.008569832 -0.017918706 0.7637648
0.0086249467 -0.018818051 0.76497442
0.009176109 -0.020854771 0.77707106
0.0091710016 -0.021676898 0.77695894
0.0091560623 -0.022473961 0.77663106
0.009135535 -0.023254067 0.77618051
0.0091130566 -0.024025321 0.77568716
0.0090907319 -0.02479288 0.77519721
0.0090685161 -0.025556713 0.77470964
0.0090462798 -0.026316464 0.7742216
0.0090206172 -0.02706182 0.77365839
0.0089888806 -0.027783811 0.77296185
0.0089496057 -0.02847603 0.77209991
0.0089680431 -0.029349923 0.77250451
0.0090339212 -0.030386835 0.77395034
0.0091026388 -0.031445473 0.77545857
0.0091748312 -0.032528937 0.77704304
0.009248089 -0.033629388 0.77865076
0.0093224812 -0.034747422 0.78028351
0.0093984483 -0.035885006 0.78195077
0.0094773099 -0.037047625 0.78368151
0.0096815526 -0.038726211 0.7881642
0.010067323 -0.041184515 0.79663086
0.0096708629 0.018535852 0.77024204
0.0089652939 0.016436398 0.75604707
0.0090022245 0.015753895 0.7567901
0.0090409899 0.015068352 0.75756991
0.0090800514 0.01437676 0.75835586
0.009119492 0.013679266 0.75914931
0.0083139259 0.011778086 0.74294263
0.0083234189 0.011097908 0.7431336
0.0083364323 0.010420561 0.74339539
0.008349821 0.0097414851 0.74366474
0.008363286 0.0090602636 0.74393564
0.0083767613 0.0083767474 0.74420679
0.0083910562 0.0076918006 0.74449432
0.0084165642 0.0070138276 0.74500751
0.0084585324 0.0063439012 0.74585181
0.0085135205 0.0056757033 0.74695814
0.0086104963 0.0050227642 0.74890912
0.008732398 0.004366219 0.75136161
0.0088029709 0.0036679208 0.75278139
0.0088035278 0.0029345453 0.7527926
0.0087888315 0.0021972358 0.75249696
0.0087587023 0.0014598072 0.75189084
0.0086945239 0.00072455406 0.75059962
0.0086616883 -0 0.74993902
0.0086907176 -0.00072422624 0.75052309
0.0087227887 -0.0014537871 0.75116825
0.0090079429 -0.0022519529 0.75690508
0.0089881364 -0.0029960275 0.75650668
0.0089647155 -0.0037352741 0.75603545
0.0089414157 -0.004470706 0.75556672
0.0089182369 -0.0052022934 0.75510043
0.0088951783 -0.0059301257 0.75463653
0.0088722007 -0.0066541433 0.75417417
0.0088493414 -0.0073744357 0.75371432
0.0088266367 -0.0080910623 0.75325751
0.0088040112 -0.0088039935 0.75280231
0.0087815383 -0.0095133185 0.75235021
0.0087591438 -0.010218978 0.75189966
0.0087369354 -0.01092118 0.75145292
0.0087147309 -0.011619627 0.75100625
0.0087137111 -0.01234442 0.75098568
0.0087575614 -0.013136327 0.75186789
0.0088172667 -0.01396066 0.75306898
0.008936625 -0.014894336 0.75547034
0.0091260383 -0.015970528 0.75928104
0.0092876852 -0.017027408 0.76253307
0.009335177 -0.01789239 0.76348859
0.0094140032 -0.018828005 0.76507443
0.0099532865 -0.020736039 0.77592403
0.009969946 -0.021601528 0.77625912
0.009965037 -0.02242136 0.77616042
0.0099506732 -0.023218244 0.77587146
0.0099293469 -0.023995936 0.77544236
0.0099050049 -0.024762481 0.77495265
0.0098808287 -0.025525451 0.77446628
0.0098572364 -0.026285946 0.77399158
0.0098334327 -0.027041912 0.77351266
0.0098076202 -0.027788252 0.77299333
0.0097844219 -0.028537899 0.77252668
0.0098187979 -0.029456377 0.77321827
0.0098776454 -0.030456066 0.77440226
0.010506181 -0.033269554 0.78704733
0.010033038 -0.032607406 0.77752846
0.010099528 -0.033665061 0.77886611
0.010180706 -0.034784079 0.78049934
0.010263352 -0.035921693 0.78216201
0.010347351 -0.037077993 0.78385192
0.010434249 -0.03825891 0.78560019
0.010525382 -0.039470196 0.78743368
0.010907608 -0.041812509 0.79512346
0.010462064 0.018509835 0.76996893
0.010432729 0.017655402 0.7694242
0.010403655 0.016805917 0.7688843
0.0098450836 0.015146285 0.75851107
0.0098735318 0.014430553 0.7590394
0.0099161007 0.01372999 0.75983
0.0099595217 0.013023973 0.76063639
0.010003325 0.012311786 0.76144981
0.010047469 0.011593223 0.76226962
0.0091497861 0.0098536015 0.74559885
0.0091604367 0.0091604292 0.74579662
0.0091749858 0.008469224 0.74606687
0.0091899931 0.007776171 0.74634552
0.0092050126 0.0070807338 0.74662447
0.0092208721 0.0063836873 0.74691892
0.0092403758 0.0056863725 0.74728113
0.0092792893 0.0049965382 0.74800384
0.0093327789 0.0043074489 0.74899721
0.0094094137 0.003619045 0.75042033
0.0095016072 0.002923578 0.75213248
0.0095055662 0.0021936297 0.75220597
0.0094922632 0.0014603734 0.75195891
0.0094629908 0.00072792172 0.75141537
0.0094487397 -0 0.75115067
0.009481106 -0.00072929263 0.75175172
0.0095136538 -0.0014636219 0.75235617
0.0097262459 -0.0022445023 0.75630414
0.0097190468 -0.0029904544 0.75617051
0.0096991379 -0.0037304163 0.75580084
0.0096739624 -0.0044648945 0.7553333
0.0096489172 -0.0051955879 0.75486815
0.0096239606 -0.0059224367 0.75440472
0.0095991325 -0.0066455603 0.75394356
0.009574513 -0.0073649585 0.75348639
0.0095499391 -0.0080807209 0.75303006
0.0095254909 -0.0087927878 0.75257599
0.0095011676 -0.0095011592 0.75212425
0.0094770081 -0.010205984 0.75167561
0.0094530107 -0.010907292 0.75123
0.0094393408 -0.011617601 0.75097609
0.0094737085 -0.012388706 0.75161433
0.0095242057 -0.013187349 0.75255215
0.0095755281 -0.013994992 0.75350529
0.0096278163 -0.014812022 0.75447625
0.0096901907 -0.015653372 0.75563467
0.0098024402 -0.016588718 0.75771916
0.010012903 -0.017715126 0.76162767
0.010158094 -0.01875335 0.76432395
0.010492099 -0.020177126 0.77052683
0.010725174 -0.021450341 0.7748552
0.010752696 -0.022332519 0.77536625
0.010752031 -0.023158193 0.77535391
0.010739045 -0.023956329 0.77511275
0.010717133 -0.024731845 0.77470589
0.010702964 -0.025522441 0.77444267
0.010729556 -0.026411176 0.7749365
0.010752184 -0.02729398 0.77535677
0.01072273 -0.028044075 0.77480978
0.010687364 -0.028773665 0.77415299
0.010713117 -0.029667109 0.77463126
0.011394098 -0.032429367 0.7872777
0.011426552 -0.033400655 0.78788036
0.011487869 -0.034463614 0.78901911
0.011036752 -0.03395924 0.78064144
0.011049549 -0.034848571 0.78087914
0.011130961 -0.035961568 0.78239101
0.011221714 -0.037117958 0.78407639
0.011314415 -0.038294941 0.78579789
0.011409063 -0.039492905 0.78755558
0.011507359 -0.040718347 0.78938103
0.011623015 -0.042021692 0.79152888
0.011169055 0.017551392 0.76828277
0.011170492 0.01675579 0.76830751
0.011154763 0.015935391 0.76803637
0.011126189 0.015099823 0.76754355
0.011095432 0.014265567 0.76701319
0.010772955 0.013081461 0.76145232
0.010813233 0.01235798 0.76214683
0.01086118 0.011637002 0.76297367
0.010905593 0.010905594 0.76373953
0.010919007 0.010139108 0.76397085
0.010002738 0.0085738003 0.74817038
0.010012662 0.0078670979 0.7483415
0.010024464 0.0071603358 0.74854499
0.010040727 0.0064547658 0.74882543
0.010057376 0.0057471097 0.74911255
0.010074914 0.0050374568 0.74941498
0.010094566 0.0043262541 0.74975383
0.010124695 0.0036159754 0.75027347
0.010176416 0.0029075742 0.75116533
0.010209993 0.0021878481 0.75174433
0.010215954 0.0014594495 0.75184715
0.010224801 0.00073036551 0.75199974
0.010255409 2.9802322e-08 0.75252759
0.010288683 -0.00073489547 0.75310129
0.010324319 -0.0014748871 0.75371587
0.010410444 -0.0022307932 0.75520104
0.010437203 -0.0029820204 0.75566238
0.010430355 -0.0037251413 0.7555443
0.01040461 -0.0044591427 0.75510043
0.010377708 -0.0051888227 0.75463647
0.010350901 -0.0059147775 0.75417423
0.010324231 -0.0066369772 0.75371432
0.010297786 -0.0073555708 0.75325829
0.01027139 -0.0080703795 0.75280309
0.010245129 -0.0087815523 0.75235021
0.010219001 -0.0094890296 0.75189972
0.010193006 -0.01019302 0.75145143
0.010171608 -0.010898143 0.75108242
0.010193177 -0.01164934 0.75145435
0.010245905 -0.012441427 0.75236362
0.010299793 -0.013242543 0.75329286
0.010354866 -0.014053047 0.75424266
0.010410711 -0.014872462 0.75520563
0.010467296 -0.015700936 0.75618136
0.010524956 -0.016539216 0.75717568
0.010590902 -0.017399341 0.75831294
0.010693573 -0.018331856 0.76008338
0.010928868 -0.019515783 0.7641409
0.0111928 -0.020786613 0.76869226
0.011469687 -0.022120118 0.773467
0.011528399 -0.023056775 0.77447945
0.011531077 -0.023885787 0.77452564
0.011527743 -0.024702281 0.77446812
0.011572058 -0.025623828 0.77523232
0.011640455 -0.026606739 0.77641177
0.012305145 -0.029004961 0.78787392
0.01229339 -0.029855371 0.78767127
0.012281658 -0.030704141 0.78746891
0.012269886 -0.031551152 0.78726596
0.012268154 -0.03242296 0.78723603
0.012333285 -0.033476055 0.78835922
0.012425525 -0.034613937 0.78994983
0.012511235 -0.035746396 0.79142785
0.012576247 -0.036830395 0.79254889
0.01205169 -0.036155045 0.78350329
0.012102482 -0.03717187 0.78437918
0.01219881 -0.038339108 0.78604031
0.012299855 -0.039535224 0.78778273
0.012403095 -0.040753007 0.789563
0.012510076 -0.041998118 0.79140788
0.0126199 -0.043268234 0.7933017
0.011854975 0.019758284 0.76648223
0.011858589 0.018973738 0.76654041
0.011866527 0.018195331 0.7666682
0.01188612 0.017433017 0.76698351
0.011906102 0.016668558 0.76730514
0.011915248 0.015887022 0.76745236
0.011901209 0.015074849 0.7672264
0.0118715 0.014245808 0.76674819
0.011838818 0.013417333 0.76622224
0.011795094 0.012581438 0.76551849
0.011708187 0.01170817 0.76411974
0.011704243 0.010923952 0.76405627
0.011701773 0.010141522 0.76401651
0.011677914 0.0093423128 0.76363254
0.011646288 0.0085406303 0.76312345
0.011614832 0.0077432394 0.76261723
0.010890819 0.006534487 0.7509644
0.010903851 0.0058153868 0.75117421
0.010916915 0.0050945878 0.75138438
0.010934917 0.0043739974 0.75167412
0.010954176 0.0036514103 0.75198412
0.010975907 0.0029269457 0.75233388
0.010998512 0.0021997094 0.75269771
0.011024522 0.0014699399 0.75311637
0.011053653 0.00073695183 0.75358516
0.011084543 -0 0.75408232
0.011115606 -0.00074106455 0.75458229
0.01114751 -0.0014863312 0.75509578
0.011171116 -0.0022342205 0.7554757
0.011176099 -0.0029802918 0.75555593
0.011162264 -0.0037207305 0.75533324
0.011133366 -0.004453361 0.75486815
0.01110457 -0.0051821172 0.75440466
0.011081857 -0.005910337 0.75403917
0.011081809 -0.0066491067 0.75403833
0.011094547 -0.0073963702 0.75424337
0.011002041 -0.0080681741 0.75275445
0.010963301 -0.0087706149 0.75213093
0.010935239 -0.0094771981 0.75167936
0.010914263 -0.010186642 0.7513417
0.010924375 -0.010924369 0.75150448
0.010973596 -0.01170513 0.75229663
0.01102704 -0.012497336 0.75315684
0.011083742 -0.013300478 0.75406945
0.011141839 -0.014112949 0.75500453
0.011201751 -0.014935672 0.75596881
0.01126275 -0.015767843 0.7569505
0.011324466 -0.016609192 0.75794387
0.011386813 -0.01745978 0.75894731
0.011449849 -0.018319786 0.7599619
0.01151883 -0.01919806 0.76107216
0.011620115 -0.020141512 0.76270223
0.011880375 -0.021384656 0.76689112
0.012171575 -0.022720277 0.77157789
0.012306244 -0.023792058 0.77374536
0.012339808 -0.024679631 0.7742855
0.012428139 -0.025684804 0.77570724
0.013178883 -0.028114915 0.78779024
0.013175685 -0.028986484 0.7877388
0.01316304 -0.029836208 0.78753525
0.013150222 -0.030683875 0.7873289
0.01313789 -0.031530917 0.78713042
0.013151283 -0.032439798 0.78734601
0.013239745 -0.033540666 0.78876978
0.013338888 -0.034681082 0.79036546
0.013439597 -0.035838902 0.79198635
0.013541486 -0.037013412 0.79362625
0.013600639 -0.038081765 0.79457831
0.013582563 -0.038936675 0.79428732
0.013122146 -0.038491637 0.78687704
0.013195566 -0.039586693 0.78805876
0.013305109 -0.0408023 0.7898218
0.013417247 -0.042040706 0.79162663
0.013531923 -0.043302149 0.79347235
0.012596712 0.021256953 0.76574904
0.012583369 0.020447999 0.76554775
0.012581945 0.01965934 0.76552618
0.012583882 0.018875867 0.76555538
0.012592262 0.018101364 0.76568192
0.012600653 0.017325908 0.76580846
0.012620217 0.016564071 0.76610374
0.01264128 0.015801609 0.76642156
0.012653422 0.015025944 0.76660478
0.012641395 0.014221609 0.76642329
0.012610713 0.013398916 0.76596034
0.012576082 0.012576103 0.76543778
0.012534742 0.011751324 0.76481396
0.012499065 0.010936707 0.76427567
0.012473377 0.010134608 0.76388812
0.012439552 0.0093296468 0.76337767
0.012405908 0.0085290968 0.76287001
0.012372446 0.0077328086 0.7623651
0.01233911 0.0069407523 0.7618621
0.012306007 0.0061530173 0.76136255
0.01181728 0.0051701069 0.75398833
0.011810401 0.0044289231 0.75388449
0.01182477 0.0036952496 0.75410128
0.011839123 0.0029597878 0.75431788
0.011859833 0.0022237301 0.75463039
0.011884425 0.0014855266 0.75500143
0.011909577 0.00074437261 0.75538099
0.011934837 2.9802322e-08 0.7557621
0.011951052 -0.0007469058 0.75600678
0.011948277 -0.0014935434 0.75596493
0.011936067 -0.0022380054 0.7557807
0.011919637 -0.0029799044 0.7555328
0.011890931 -0.0037159026 0.75509959
0.011860187 -0.0044475496 0.75463569
0.011833277 -0.0051770508 0.75422972
0.011855938 -0.0059279501 0.75457168
0.011909832 -0.0066992939 0.7553848
0.012743976 -0.0079649687 0.76797104
0.012737144 -0.0087567866 0.76786804
0.012711399 -0.0095335543 0.76747954
0.01173343 -0.0095334053 0.7527231
0.011724621 -0.010259032 0.75259018
0.01174513 -0.011011064 0.75289965
0.011781919 -0.011781901 0.75345474
0.012548719 -0.013333023 0.76502484
0.012505026 -0.014068156 0.76436555
0.012447852 -0.014781833 0.7635029
0.012003329 -0.015004158 0.75679553
0.012065222 -0.015835583 0.75772947
0.012131515 -0.016680837 0.75872982
0.012198594 -0.017535448 0.7597419
0.012266474 -0.018399686 0.76076609
0.012334839 -0.019273192 0.76179767
0.012403971 -0.020156443 0.76284075
0.012477353 -0.02105552 0.76394802
0.012585135 -0.022023976 0.7655744
0.012860123 -0.023308963 0.76972359
0.01311279 -0.024586469 0.77353603
0.013236546 -0.025645792 0.77540344
0.013870402 -0.027740777 0.78496754
0.014027326 -0.02893135 0.78733534
0.01403108 -0.029816031 0.78739196
0.014018979 -0.03066653 0.78720939
0.0140105 -0.031523615 0.78708148
0.014057546 -0.032508045 0.78779131
0.014157422 -0.033623874 0.7892983
0.014258727 -0.034755647 0.79082692
0.01436409 -0.035910249 0.79241669
0.014473584 -0.037088543 0.79406881
0.014530098 -0.038141489 0.79492152
0.014511968 -0.039000869 0.79464799
0.014458076 -0.039759696 0.79383487
0.014379248 -0.040441602 0.79264545
0.014234195 -0.040923297 0.79045671
0.014329584 -0.042093158 0.79189599
0.01445101 -0.043353021 0.79372823
0.012791372 0.031602263 0.75733286
0.012784451 0.030833066 0.75723457
0.013332291 0.021959066 0.76501459
0.013321226 0.021157265 0.76485741
0.01331246 0.020360261 0.76473296
0.01331084 0.019574791 0.76470995
0.01330934 0.018789679 0.76468867
0.01331054 0.018008411 0.76470572
0.013319364 0.017236859 0.76483101
0.013328199 0.016464263 0.76495647
0.013347534 0.015703022 0.76523101
0.01336977 0.014942706 0.76554686
0.013385099 0.014172465 0.76576459
0.013374673 0.013374716 0.76561654
0.013343795 0.012558848 0.76517802
0.013307362 0.011741817 0.76466054
0.013271007 0.010929078 0.7641443
0.013234969 0.010120869 0.76363248
0.013199126 0.0093170404 0.76312351
0.013163477 0.0085175633 0.76261723
0.01312802 0.0077223778 0.76211369
0.013092695 0.0069314241 0.76161206
0.013057617 0.006144762 0.76111388
0.013022727 0.0053623319 0.76061839
0.012986138 0.0045833886 0.76009876
0.012934952 0.0038044155 0.75937194
0.012745501 0.0029989481 0.75668144
0.012761196 0.0022519827 0.75690436
0.012767982 0.0015021265 0.75700068
0.012761196 0.0007506609 0.7569043
0.012749462 -0 0.75673771
0.012731382 -0.00074890256 0.75648093
0.012710616 -0.0014953613 0.75618601
0.012682943 -0.0022381544 0.75579304
0.012650565 -0.0029765666 0.75533319
0.01261776 -0.0037110746 0.75486737
0.012585178 -0.0044418275 0.75440466
0.012572428 -0.005176872 0.75422359
0.01263779 -0.0059471726 0.75515187
0.01344971 -0.0071204305 0.76668209
0.013490809 -0.0079357922 0.7672658
0.013492967 -0.0087307096 0.76729643
0.013479296 -0.0095148087 0.76710224
0.013453631 -0.01028806 0.76673782
0.013420985 -0.011052579 0.76627421
0.013387101 -0.01181218 0.76579303
0.013353388 -0.012567878 0.76531422
0.013319905 -0.01331988 0.7648387
0.013284915 -0.014066368 0.76434183
0.01324304 -0.014801055 0.76374716
0.013189106 -0.015516579 0.76298118
0.013112283 -0.016197503 0.76189017
0.012951856 -0.016761214 0.75961196
0.013017389 -0.017611772 0.76054263
0.013089794 -0.018479705 0.76157087
0.013163066 -0.019357443 0.76261139
0.013237105 -0.020244986 0.76366282
0.01331204 -0.021142632 0.764727
0.013387647 -0.022050202 0.76580077
0.013467311 -0.022973686 0.76693213
0.013580258 -0.02396515 0.76853603
0.01386927 -0.025290996 0.77264035
0.014174726 -0.02668184 0.77697825
0.014588297 -0.028318465 0.78285146
0.014867423 -0.02973485 0.7868154
0.014881806 -0.030639023 0.78701961
0.014893964 -0.031540126 0.78719229
0.014981753 -0.032607347 0.78843904
0.015084053 -0.033717304 0.7898919
0.015189166 -0.03484571 0.79138452
0.015298288 -0.03599599 0.79293424
0.015407544 -0.037159324 0.79448581
0.015437906 -0.038140684 0.79491699
0.01541285 -0.038985461 0.79456115
0.015372259 -0.039786994 0.79398471
0.015320667 -0.040554672 0.79325211
0.015252703 -0.041272014 0.79228687
0.015250891 -0.042164236 0.79226112
0.013520326 0.031547457 0.75701791
0.013475233 0.030693591 0.7564131
0.013452221 0.029893875 0.75610453
0.014085261 0.022692919 0.76459509
