# .PCD v0.7 - Point Cloud Data file format
VERSION 0.7
FIELDS x y z
SIZE 4 4 4
TYPE F F F
COUNT 1 1 1
WIDTH 1340
HEIGHT 1
VIEWPOINT 0 0 0 1 0 0 0
POINTS 1340
DATA ascii
0.0070717293 -0.045259029 0.74640596
0.0070673856 -0.045937985 0.74630111
0.0070673856 -0.046644747 0.74630105
0.0070673856 -0.04735148 0.74630111
0.0070763668 -0.048119247 0.7465179
0.007307637 -0.050422668 0.7521013
0.0073244893 -0.051271439 0.75250816
0.0073276712 -0.05202648 0.75258493
0.0073300828 -0.052776575 0.75264317
0.0073319389 -0.053523153 0.75268793
0.007333796 -0.054270059 0.75273281
0.0073348484 -0.055011332 0.7527582
0.0073373886 -0.055764139 0.75281954
0.0073521999 -0.056611925 0.75317717
0.0081444262 0.065895796 0.75442827
0.0081202714 0.064962208 0.75389808
0.0081139971 0.064174324 0.7537604
0.0081129633 0.06342864 0.75373775
0.0081129633 0.062691092 0.75373769
0.0081129288 0.061953306 0.75373697
0.0081129288 0.061215729 0.75373697
0.0081128944 0.060477972 0.7537362
0.0081128944 0.059740394 0.75373626
0.0081128599 0.059002638 0.75373542
0.0081128599 0.05826509 0.75373554
0.0081128255 0.057527333 0.75373471
0.0081128255 0.056789815 0.75373471
0.008112791 0.056052029 0.75373399
0.008112791 0.055314511 0.75373393
0.0081127565 0.054576725 0.75373322
0.0081127565 0.053839236 0.75373322
0.0081127221 0.05310145 0.75373244
0.0081127221 0.052363962 0.75373244
0.0081126876 0.051626176 0.75373173
0.0081126876 0.050888658 0.75373173
0.0081126532 0.050150961 0.75373095
0.0081126532 0.049413443 0.75373095
0.0081126187 0.048675746 0.75373018
0.0081126187 0.047938228 0.75373018
0.0081126187 0.047200739 0.75373018
0.0081125842 0.046463013 0.75372946
0.0081125842 0.045725465 0.7537294
0.0081125842 0.044988006 0.75372946
0.0081125842 0.044250488 0.7537294
0.0081125842 0.04351294 0.7537294
0.0081125842 0.042775482 0.7537294
0.0081125507 0.042037785 0.75372863
0.0081125507 0.041300267 0.75372869
0.0081125507 0.040562779 0.75372863
0.0081125507 0.039825231 0.75372869
0.0081125507 0.039087772 0.75372869
0.0081125507 0.038350195 0.75372869
0.0081125507 0.037612766 0.75372863
0.0081125507 0.036875248 0.75372869
0.0081125507 0.03613776 0.75372863
0.0081125507 0.035400212 0.75372869
0.0081125507 0.034662753 0.75372863
0.0081125507 0.033925235 0.75372869
0.0081184776 0.033211917 0.7538588
0.0081607373 0.032642961 0.75478625
0.0081737218 0.031951845 0.75507128
0.0081737218 0.031208754 0.75507122
0.0081737218 0.030465692 0.75507122
0.0081737218 0.029722661 0.75507128
0.0081737218 0.02897957 0.75507128
0.0081737218 0.028236508 0.75507122
0.0081737218 0.027493447 0.75507122
0.008172743 0.026747137 0.75504977
0.008135031 0.025884211 0.75422204
0.0081126187 0.025075406 0.75373018
0.0081127221 0.024338186 0.75373244
0.0081128944 0.023601145 0.75373626
0.0081131356 0.022864282 0.7537415
0.0081134457 0.022127569 0.7537483
0.0081137214 0.021390736 0.75375438
0.0081149964 0.020656377 0.75378239
0.0081274202 0.019949138 0.75405502
0.0081401942 0.019240499 0.7543354
0.0081238272 0.018463254 0.75397623
0.0081139281 0.017703116 0.75375891
0.0081133079 0.016964227 0.75374532
0.0081131356 0.016226292 0.7537415
0.0081129977 0.015488476 0.75373852
0.0081128255 0.0147506 0.75373471
0.0081126187 0.014012694 0.75373024
0.0081125507 0.013275087 0.75372869
0.0081428997 0.012584478 0.75439477
0.0081722541 0.011886895 0.75503904
0.0081737563 0.011146039 0.755072
0.0081737218 0.010402918 0.75507128
0.0081737218 0.0096598566 0.75507128
0.0081737218 0.0089167953 0.75507128
0.0081737218 0.0081737339 0.75507122
0.0081737218 0.0074306428 0.75507122
0.0081731277 0.0066871345 0.75505823
0.0081528695 0.0059293807 0.75461352
0.0077968333 0.0049616694 0.74679947
0.0077965152 0.0042526424 0.7467925
0.0077961655 0.0035437346 0.74678481
0.0077963243 0.0028350651 0.74678838
0.0080954367 0.0022078753 0.75335306
0.0081399167 0.0014799833 0.75432932
0.0081541566 0.00074127316 0.75464189
0.0081557576 -0 0.75467694
0.0081553394 -0.00074139237 0.75466776
0.0081549222 -0.0014826655 0.75465864
0.0081545049 -0.0022239387 0.7546494
0.0081540868 -0.0029651225 0.75464028
0.0081536695 -0.003706187 0.75463116
0.0081532523 -0.0044472218 0.75462198
0.0081528351 -0.0051881969 0.7546128
0.0081515834 -0.0059284568 0.75458539
0.008139397 -0.0066595078 0.75431788
0.0081036063 -0.0073668957 0.75353235
0.0077993791 -0.0077993572 0.74685532
0.0077959108 -0.0085046291 0.74677926
0.0077960384 -0.0092134774 0.74678206
0.0077961972 -0.009922415 0.74678552
0.0077963565 -0.010631353 0.74678904
0.0081345467 -0.011832058 0.75421143
0.0081492197 -0.012594223 0.75453353
0.0081510264 -0.013338029 0.75457317
0.0081510264 -0.014079005 0.75457311
0.0081510264 -0.014820069 0.75457311
0.0081510264 -0.015561044 0.75457311
0.0081510264 -0.016302049 0.75457317
0.0081510264 -0.017043054 0.75457317
0.008150992 -0.01778397 0.75457233
0.008150992 -0.018524975 0.75457239
0.0081499144 -0.019263446 0.75454879
0.0081381146 -0.019975334 0.75428975
0.0081065968 -0.020634949 0.75359797
0.008018435 -0.021139532 0.75166309
0.0077963565 -0.021262795 0.74678898
0.0077958792 -0.021970212 0.74677861
0.0077960701 -0.022679448 0.74678272
0.0077962289 -0.023388654 0.74678624
0.007797088 -0.024100095 0.74680507
0.0081492886 -0.02592954 0.75453502
0.0081509575 -0.02667588 0.75457162
0.008150992 -0.027416945 0.75457239
0.008150992 -0.028157949 0.75457233
0.008150992 -0.028898984 0.75457239
0.008150992 -0.029639989 0.75457239
0.008150992 -0.030380934 0.75457233
0.008150992 -0.031121939 0.75457239
0.008150992 -0.031862944 0.75457239
0.008150992 -0.032603949 0.75457239
0.008150992 -0.033344984 0.75457239
0.00814988 -0.03408131 0.75454795
0.0081347199 -0.034757406 0.75421524
0.0080984207 -0.035338581 0.75341862
0.008063159 -0.035917729 0.75264466
0.0080579575 -0.036627054 0.75253046
0.0080579575 -0.037359595 0.75253052
0.0080579575 -0.038092166 0.75253052
0.0080579575 -0.038824677 0.75253046
0.0080579575 -0.039557248 0.75253052
0.0080579575 -0.04028976 0.75253052
0.0080579575 -0.041022331 0.75253052
0.0080579575 -0.041754842 0.75253046
0.0080579575 -0.042487383 0.75253046
0.0080579575 -0.043219924 0.75253052
0.0080579575 -0.043952495 0.75253052
0.0080574816 -0.044682413 0.75252008
0.0080499472 -0.045372397 0.75235474
0.0080167865 -0.045914322 0.75162691
0.0079454593 -0.046228111 0.75006151
0.0077965152 -0.046070307 0.74679255
0.0077963881 -0.046778321 0.74678975
0.007797915 -0.047496378 0.74682331
0.0078263041 -0.048380762 0.7474463
0.0080606425 -0.050562203 0.75258946
0.0080776438 -0.051403165 0.75296259
0.0080794878 -0.052149415 0.753003
0.0082209781 -0.054557353 0.75610834
0.0081108976 -0.054564208 0.75369245
0.0080882069 -0.055146873 0.75319445
0.0080927964 -0.055913836 0.75329512
0.0081195123 -0.056836575 0.75388151
0.0089291995 0.066224933 0.75532091
0.008890816 0.065199286 0.75454873
0.0088792285 0.064374417 0.75431561
0.008876469 0.063614726 0.75426006
0.0088764308 0.062874734 0.75425935
0.0088764308 0.062135011 0.75425935
0.0088763935 0.061395049 0.75425863
0.0088763935 0.060655385 0.75425863
0.0088763554 0.059915394 0.7542578
0.0088763554 0.05917573 0.7542578
0.0088763554 0.058436066 0.7542578
0.0088763181 0.057696104 0.75425702
0.0088763181 0.056956381 0.75425702
0.0088763181 0.056216687 0.75425708
0.0088762799 0.055476785 0.75425631
0.0088762799 0.054737091 0.75425625
0.0088762799 0.053997368 0.75425631
0.0088762799 0.053257674 0.75425625
0.0088762799 0.05251804 0.75425625
0.0088762799 0.051778287 0.75425631
0.0088762427 0.051038414 0.75425553
0.0088762427 0.050298721 0.75425553
0.0088762427 0.049558997 0.75425553
0.0088762427 0.048819333 0.75425553
0.0088762427 0.048079669 0.75425553
0.0088762427 0.047340006 0.75425553
0.0088762045 0.046600103 0.75425476
0.0088762045 0.04586038 0.75425476
0.0088762045 0.045120716 0.75425482
0.0088762045 0.044381022 0.7542547
0.0088762045 0.043641388 0.75425476
0.0088762045 0.042901665 0.75425482
0.0088762045 0.042161971 0.75425476
0.0088762045 0.041422278 0.75425476
0.0088762045 0.040682644 0.7542547
0.0088762045 0.03994292 0.75425476
0.0088762045 0.039203227 0.75425482
0.0088762045 0.038463563 0.75425476
0.0088762045 0.037723869 0.75425476
0.0088762045 0.036984235 0.75425476
0.0088762045 0.036244512 0.75425476
0.0088762045 0.035504818 0.75425476
0.0088762045 0.034765154 0.7542547
0.0088762045 0.034025431 0.75425482
0.0088762045 0.033285767 0.75425476
0.0088822171 0.032568157 0.7543757
0.0088864956 0.031843275 0.75446182
0.0088865338 0.031102896 0.75446254
0.0088864956 0.030362219 0.75446177
0.0088864956 0.029621661 0.75446177
0.0088864956 0.028881133 0.75446182
0.0088864956 0.028140604 0.75446177
0.0088864956 0.027400017 0.75446177
0.0088860029 0.026658028 0.75445193
0.0088772252 0.02589193 0.75427532
0.0088762045 0.025149286 0.7542547
0.0088762045 0.024409592 0.75425476
0.0088762045 0.023669869 0.75425476
0.0088762045 0.022930205 0.75425476
0.0088762045 0.022190511 0.75425476
0.0088762045 0.021450818 0.75425482
0.0088762045 0.020711154 0.75425482
0.0088762045 0.01997149 0.75425482
0.0088762045 0.019231796 0.75425476
0.0088762045 0.018492103 0.75425476
0.0088762045 0.017752379 0.75425476
0.0088762045 0.017012745 0.75425476
0.0088762045 0.016273081 0.75425482
0.0088762045 0.015533328 0.75425476
0.0088762045 0.014793664 0.75425482
0.0088762045 0.014054 0.75425476
0.0088762045 0.013314337 0.75425476
0.0088782459 0.012577504 0.75429583
0.008886192 0.011848271 0.75445569
0.0088865338 0.01110819 0.7544626
0.0088865338 0.010367662 0.75446248
0.0088865338 0.0096271038 0.75446254
0.0088865338 0.0088865161 0.75446254
0.0088865338 0.008145988 0.7544626
0.0088865338 0.0074054599 0.7544626
0.0088858511 0.0066643953 0.75444877
0.0088697849 0.005913198 0.7541256
0.0087286318 0.0050917268 0.75128579
0.0087276092 0.0043638349 0.75126523
0.0087275729 0.0036364794 0.75126451
0.0087281568 0.0029093921 0.75127625
0.0087948749 0.0021987259 0.75261855
0.0088426601 0.0014737844 0.75357991
0.0088580269 0.00073820353 0.75388908
0.0088597583 2.9802322e-08 0.75392389
0.0088593066 -0.00073823333 0.75391477
0.0088588549 -0.0014764667 0.75390571
0.0088584032 -0.0022145808 0.75389659
0.0088579515 -0.0029526651 0.75388753
0.0088574998 -0.0036906302 0.75387841
0.0088570481 -0.0044285059 0.75386941
0.0088565964 -0.005166322 0.75386024
0.0088554677 -0.0059036016 0.75383753
0.0088428473 -0.0066321194 0.75358367
0.008805871 -0.0073382258 0.7528398
0.0087332027 -0.0080054402 0.75137782
0.0087266592 -0.0087266564 0.75124609
0.0087266592 -0.0094538629 0.75124615
0.0087266592 -0.010181099 0.75124609
0.0087641878 -0.010955244 0.75200117
0.0088343788 -0.011779159 0.75341332
0.0088521596 -0.012540549 0.75377101
0.0088546034 -0.013281882 0.75382012
0.0088546034 -0.014019758 0.75382018
0.0088546034 -0.014757663 0.75382018
0.0088546034 -0.015495539 0.75382018
0.0088546034 -0.016233444 0.75382018
0.0088546034 -0.01697129 0.75382018
0.0088546034 -0.017709196 0.75382012
0.0088546034 -0.018447071 0.75382018
0.0088541517 -0.019183993 0.75381112
0.0088428855 -0.019896477 0.75358444
0.0088129435 -0.020563513 0.75298202
0.0087469062 -0.02113834 0.75165349
0.0087266592 -0.021816641 0.75124615
0.0087266592 -0.022543848 0.75124615
0.0087266592 -0.023271084 0.75124621
0.0087370453 -0.024026871 0.75145513
0.0088299643 -0.025018215 0.75332445
0.0088517079 -0.025817484 0.75376195
0.0088545652 -0.026563704 0.75381935
0.0088545652 -0.02730158 0.75381941
0.0088545652 -0.028039426 0.75381941
0.0088545652 -0.028777301 0.75381941
0.0088545652 -0.029515207 0.75381935
0.0088545652 -0.030253083 0.75381941
0.0088546034 -0.030991077 0.75382018
0.0088546034 -0.031729013 0.75382018
0.0088546034 -0.032466888 0.75382018
0.0088546034 -0.033204764 0.75382018
0.0088546034 -0.03394258 0.75382018
0.0088506183 -0.034664899 0.75374001
0.00883161 -0.035326451 0.75335759
0.0088138375 -0.035989851 0.75300002
0.0088108573 -0.036711901 0.75294006
0.0088108573 -0.037446141 0.75294006
0.0088108573 -0.038180381 0.75294006
0.0088108573 -0.038914591 0.75294006
0.0088108573 -0.039648861 0.75294012
0.0088108573 -0.040383101 0.75294006
0.0088108573 -0.04111734 0.75294006
0.0088108201 -0.041851372 0.75293934
0.0088108201 -0.042585641 0.75293934
0.0088108201 -0.043319881 0.75293934
0.0088108201 -0.044054091 0.75293934
0.0088062054 -0.044764876 0.75284648
0.0087903505 -0.045416802 0.75252753
0.0087505775 -0.045940518 0.75172734
0.0087266956 -0.046542376 0.75124693
0.0087273167 -0.04727298 0.75125945
0.0087302774 -0.048016518 0.75131893
0.0087691275 -0.048960954 0.75210059
0.0088138748 -0.049945295 0.75300086
0.0088251419 -0.050744563 0.75322753
0.0088372622 -0.051550686 0.75347131
0.0088390615 -0.052297771 0.75350749
0.008968302 -0.054557145 0.75610757
0.0088482518 -0.054564208 0.75369245
0.0088494159 -0.055308849 0.75371587
0.0088559194 -0.056087494 0.7538467
0.0089146905 -0.057202607 0.75502902
0.0097511895 0.066758156 0.75676739
0.0096737137 0.0654836 0.75532866
0.0096544437 0.064610541 0.75497079
0.0096489992 0.063831836 0.75486964
0.0096489992 0.063089639 0.7548697
0.0096489582 0.062347114 0.75486887
0.0096489582 0.061604887 0.75486887
0.0096489172 0.060862392 0.75486815
0.0096489172 0.060120195 0.75486815
0.0096488763 0.05937773 0.75486737
0.0096488763 0.058635503 0.75486732
0.0096488763 0.057893276 0.75486732
0.0096488344 0.057150781 0.7548666
0.0096488344 0.056408554 0.7548666
0.0096487934 0.055666149 0.75486583
0.0096487934 0.054923922 0.75486588
0.0096487524 0.054181457 0.75486511
0.0096487524 0.05343926 0.75486505
0.0096487524 0.052697062 0.75486505
0.0096487114 0.051954597 0.75486434
0.0096487114 0.05121243 0.75486428
0.0096486695 0.050469965 0.75486356
0.0096486695 0.049727768 0.7548635
0.0096486285 0.048985362 0.75486279
0.0096486285 0.048243195 0.75486279
0.0096486285 0.047500938 0.75486279
0.0096486285 0.046758771 0.75486279
0.0096486285 0.046016544 0.75486279
0.0096486285 0.045274347 0.75486279
0.0096486285 0.04453215 0.75486279
0.0096486285 0.043789953 0.75486279
0.0096486285 0.043047726 0.75486279
0.0096486285 0.042305529 0.75486279
0.0096486285 0.041563332 0.75486279
0.0096486285 0.040821135 0.75486279
0.0096486285 0.040078908 0.75486279
0.0096486285 0.039336711 0.75486279
0.0096486285 0.038594544 0.75486279
0.0096486285 0.037852287 0.75486279
0.0096486285 0.03711012 0.75486273
0.0096486285 0.036367923 0.75486279
0.0096486285 0.035625726 0.75486279
0.0096486285 0.034883559 0.75486273
0.0096486285 0.034141332 0.75486279
0.0096486285 0.033399075 0.75486279
0.0096486285 0.032656908 0.75486279
0.0096486285 0.031914711 0.75486279
0.0096486285 0.031172484 0.75486279
0.0096486285 0.030430287 0.75486279
0.0096486285 0.02968806 0.75486279
0.0096486285 0.028945923 0.75486279
0.0096486285 0.028203726 0.75486279
0.0096486285 0.027461499 0.75486279
0.0096486285 0.026719272 0.75486279
0.0096486285 0.025977105 0.75486279
0.0096486285 0.025234908 0.75486279
0.0096486285 0.024492681 0.75486279
0.0096486285 0.023750484 0.75486279
0.0096486285 0.023008257 0.75486279
0.0096486285 0.02226609 0.75486279
0.0096486285 0.021523893 0.75486279
0.0096486285 0.020781666 0.75486279
0.0096486285 0.020039469 0.75486279
0.0096486285 0.019297272 0.75486279
0.0096486285 0.018555075 0.75486279
0.0096486285 0.017812848 0.75486279
0.0096486285 0.017070681 0.75486273
0.0096486285 0.016328454 0.75486279
0.0096485876 0.015586168 0.75486195
0.0096485456 0.014843911 0.75486124
0.0096485047 0.014101654 0.75486046
0.0096484637 0.013359427 0.75485969
0.0096484227 0.012617201 0.75485897
0.0096483808 0.011874914 0.7548582
0.0096483398 0.011132717 0.75485748
0.0096483398 0.01039052 0.75485742
0.0096483398 0.0096483231 0.75485742
0.0096483398 0.0089061558 0.75485742
0.0096483398 0.0081639886 0.75485742
0.0096482988 0.0074217618 0.75485665
0.0096465684 0.0066784024 0.75482452
0.0096242474 0.0059226751 0.75440997
0.0094786389 0.0051039159 0.75170588
0.0094774058 0.0043742061 0.75168306
0.0094770472 0.0036450624 0.75167632
0.0094770873 0.002916038 0.7516771
0.0094993291 0.0021921694 0.75209016
0.0095395725 0.0014676452 0.75283754
0.0095560001 0.00073510408 0.7531426
0.00955786 -0 0.75317717
0.0095573748 -0.00073516369 0.75316817
0.0095568895 -0.0014702678 0.75315917
0.0095564043 -0.0022052824 0.75315011
0.0095559191 -0.0029402375 0.75314111
0.0095554339 -0.003675133 0.7531321
0.0095549487 -0.0044099391 0.75312304
0.0095544634 -0.0051446557 0.75311399
0.0095534939 -0.0058790445 0.75309604
0.0095405392 -0.0066049695 0.75285548
0.0095076468 -0.0073135495 0.75224459
0.0094780819 -0.0080198944 0.75169557
0.0094741452 -0.0087453425 0.75162244
0.0094745029 -0.0094744861 0.75162911
0.0094745029 -0.010203332 0.75162917
0.0094871987 -0.010946751 0.75186491
0.0095278211 -0.011726499 0.75261933
0.0095490906 -0.012487262 0.75301433
0.0095523223 -0.0132263 0.75307429
0.0095523223 -0.013961077 0.75307429
0.0095523223 -0.014695853 0.75307429
0.0095523223 -0.015430689 0.75307423
0.0095522813 -0.016165406 0.75307351
0.0095522813 -0.016900152 0.75307351
0.0095522813 -0.017634958 0.75307351
0.0095522813 -0.018369764 0.75307351
0.0095522813 -0.01910454 0.75307351
0.0095421523 -0.019818306 0.7528854
0.0095139351 -0.02049157 0.75236142
0.0094824992 -0.021153271 0.75177765
0.0094745029 -0.021864265 0.75162911
0.0094745029 -0.022593051 0.75162911
0.0094745429 -0.023321956 0.75162989
0.0094807474 -0.024066508 0.75174505
0.0095199505 -0.02489832 0.75247312
0.009548082 -0.025706351 0.75299555
0.0095522413 -0.026452363 0.7530728
0.0095522413 -0.027187109 0.7530728
0.0095522413 -0.027921945 0.75307286
0.0095522813 -0.028656811 0.75307351
0.0095522813 -0.029391646 0.75307357
0.0095523223 -0.030126542 0.75307423
0.0095523223 -0.030861348 0.75307429
0.0095522813 -0.031596005 0.75307357
0.0095522813 -0.032330781 0.75307357
0.0095522813 -0.033065587 0.75307351
0.0095522413 -0.033800215 0.7530728
0.0095522413 -0.034534991 0.75307274
0.0095503423 -0.035262793 0.75303757
0.0095448941 -0.035976917 0.75293636
0.0095435232 -0.036705852 0.75291091
0.0095435232 -0.037439972 0.75291091
0.0095435232 -0.038174063 0.75291091
0.0095435232 -0.038908213 0.75291085
0.0095435232 -0.039642334 0.75291085
0.0095435232 -0.040376455 0.75291085
0.0095435232 -0.041110545 0.75291085
0.0095435232 -0.041844696 0.75291085
0.0095435232 -0.042578816 0.75291085
0.0095435232 -0.043312907 0.75291085
0.0095434021 -0.044046432 0.75290865
0.0095359068 -0.044745386 0.75276947
0.0095118508 -0.045364201 0.75232273
0.0094831754 -0.04595691 0.75179017
0.0094746621 -0.046644479 0.75163209
0.0094746221 -0.047373086 0.75163132
0.0094803497 -0.048130989 0.75173771
0.009555676 -0.049248487 0.75313658
0.0095767453 -0.05009374 0.75352788
0.0095952582 -0.050928652 0.75387162
0.0096040713 -0.051714242 0.75403529
0.0097157024 -0.054557353 0.75610834
0.0096150693 -0.054731935 0.75423962
0.0096185096 -0.055491418 0.75430346
0.0096318405 -0.056309223 0.75455093
0.01047478 0.065841466 0.75631046
0.010441145 0.064884275 0.75573039
0.010431831 0.064081252 0.75556982
0.010431384 0.063333422 0.75556207
0.010431339 0.062588036 0.75556129
0.010431339 0.061842948 0.75556129
0.010431294 0.061097622 0.75556052
0.010431294 0.060352504 0.75556052
0.010431249 0.059607118 0.7555598
0.010431249 0.058862031 0.7555598
0.010431204 0.058116734 0.75555909
0.010431204 0.057371646 0.75555897
0.010431159 0.05662626 0.75555825
0.010431159 0.055881232 0.75555819
0.010431159 0.055136144 0.75555819
0.010431115 0.054390848 0.75555748
0.010431115 0.05364573 0.75555742
0.01043107 0.052900434 0.7555567
0.01043107 0.052155375 0.75555664
0.010431025 0.051410079 0.75555587
0.010431025 0.050664991 0.75555587
0.01043098 0.049919665 0.75555515
0.01043098 0.049174607 0.75555515
0.010430936 0.04842934 0.75555432
0.010430936 0.047684282 0.75555438
0.010430936 0.046939194 0.75555438
0.010430891 0.046193957 0.7555536
0.010430891 0.045448899 0.7555536
0.010430846 0.044703633 0.75555289
0.010430846 0.043958575 0.75555283
0.010430802 0.043213367 0.75555205
0.010430802 0.04246828 0.75555211
0.010430802 0.041723222 0.75555205
0.010430802 0.040978163 0.75555205
0.010430802 0.040233105 0.75555199
0.010430802 0.039488047 0.75555205
0.010430802 0.038742959 0.75555205
0.010430802 0.037997901 0.75555211
0.010430802 0.037252873 0.75555205
0.010430802 0.036507815 0.75555205
0.010430802 0.035762787 0.75555199
0.010430802 0.035017699 0.75555205
0.010430802 0.034272641 0.75555205
0.010430802 0.033527583 0.75555205
0.010430802 0.032782525 0.75555205
0.010430802 0.032037497 0.75555205
0.010430802 0.031292439 0.75555205
0.010430802 0.030547351 0.75555205
0.010430802 0.029802293 0.75555205
0.010430802 0.029057235 0.75555205
0.010430802 0.028312206 0.75555205
0.010430802 0.027567148 0.75555199
0.010430802 0.02682206 0.75555205
0.010430802 0.026077002 0.75555205
0.010430802 0.025331974 0.75555205
0.010430802 0.024586916 0.75555205
0.010430802 0.023841858 0.75555205
0.010430802 0.02309677 0.75555205
0.010430802 0.022351712 0.75555205
0.010430802 0.021606654 0.75555205
0.010430802 0.020861596 0.75555205
0.010430757 0.020116478 0.75555122
0.010430712 0.019371301 0.7555505
0.010430668 0.018626213 0.75554973
0.010430623 0.017881066 0.75554895
0.010430578 0.017135978 0.75554812
0.010430578 0.01639092 0.75554824
0.010430578 0.015645891 0.75554824
0.010430578 0.014900833 0.75554818
0.010430578 0.014155805 0.75554818
0.010430578 0.013410777 0.75554824
0.010430578 0.012665719 0.75554818
0.010430578 0.011920661 0.75554818
0.010430578 0.011175632 0.75554818
0.010430578 0.010430604 0.75554818
0.010430578 0.0096855462 0.75554818
0.010430533 0.0089404583 0.7555474
0.010430444 0.0081953704 0.75554585
0.010430355 0.0074502528 0.75554436
0.010428923 0.0067043304 0.75551969
0.010404254 0.0059452653 0.75509423
0.010211836 0.0051059127 0.7517761
0.010210893 0.0043760836 0.75175989
0.010210807 0.0036467016 0.7517584
0.010210379 0.0029172897 0.75175101
0.010219731 0.0021899641 0.75191224
0.010238099 0.0014626086 0.75222903
0.010249489 0.00073209405 0.75242543
0.010250137 2.9802322e-08 0.75243658
0.010249618 -0.00073209405 0.75242764
0.010249101 -0.0014641583 0.75241876
0.010248582 -0.0021961033 0.75240982
0.010248064 -0.0029279888 0.75240082
0.010247546 -0.0036598444 0.75239193
0.010247071 -0.0043916106 0.75238371
0.010246553 -0.0051232576 0.75237477
0.010246035 -0.0058548748 0.75236589
0.01023853 -0.0065819025 0.75223649
0.010221406 -0.0073010027 0.7519412
0.010207336 -0.0080200434 0.75169855
0.01020558 -0.0087476373 0.75166827
0.01020558 -0.0094766319 0.75166827
0.01020558 -0.010205537 0.75166821
0.010211322 -0.010940671 0.75176728
0.010228713 -0.011689961 0.75206721
0.010241893 -0.012436569 0.75229448
0.01024418 -0.013171047 0.75233388
0.01024418 -0.013902813 0.75233388
0.01024418 -0.01463455 0.75233382
0.01024418 -0.015366256 0.75233382
0.01024418 -0.016097963 0.75233382
0.01024418 -0.016829699 0.75233382
0.01024418 -0.017561466 0.75233388
0.01024418 -0.018293172 0.75233388
0.01024418 -0.019024909 0.75233388
0.010239694 -0.019747972 0.75225657
0.010224715 -0.02044943 0.75199825
0.010209478 -0.021148205 0.75173545
0.01020558 -0.021869093 0.75166827
0.01020558 -0.022598058 0.75166821
0.01020558 -0.023326993 0.75166821
0.010208493 -0.024062872 0.75171852
0.010224843 -0.024831742 0.75200045
0.010240383 -0.02560094 0.75226843
0.01024418 -0.026342154 0.75233388
0.01024418 -0.02707389 0.75233388
0.01024418 -0.027805597 0.75233388
0.010244136 -0.028537244 0.75233316
0.01024418 -0.02926904 0.75233388
0.010244136 -0.030000687 0.75233316
0.010244136 -0.030732393 0.75233316
0.01024418 -0.031464249 0.75233382
0.01024418 -0.032195985 0.75233388
0.01024418 -0.032927722 0.75233388
0.01024418 -0.033659428 0.75233394
0.01024418 -0.034391165 0.75233388
0.01024418 -0.035122901 0.75233388
0.01024418 -0.035854638 0.75233388
0.01024418 -0.036586374 0.75233388
0.01024418 -0.037318051 0.75233388
0.01024418 -0.038049787 0.75233388
0.01024418 -0.038781524 0.75233388
0.01024418 -0.03951323 0.75233382
0.01024418 -0.040244967 0.75233382
0.01024418 -0.040976703 0.75233388
0.01024418 -0.04170844 0.75233388
0.01024418 -0.042440146 0.75233388
0.01024418 -0.043171883 0.75233394
0.01024418 -0.043903619 0.75233388
0.010239478 -0.044614851 0.75225282
0.010224457 -0.045279711 0.75199378
0.010210807 -0.045948625 0.7517584
0.010205751 -0.04665485 0.7516712
0.010206223 -0.047385991 0.75167936
0.010218271 -0.048171848 0.75188708
0.010339593 -0.049482316 0.75397921
0.010349447 -0.050268769 0.7541492
0.010374654 -0.051132202 0.75458384
0.0103801 -0.051900506 0.75467777
0.010463064 -0.054557353 0.75610834
0.010393362 -0.054936349 0.75490642
0.010397582 -0.055701315 0.75497919
0.010423471 -0.056584567 0.75542563
0.011323236 0.066429704 0.75792408
0.01125006 0.065250337 0.75674629
0.011230377 0.0643875 0.75642955
0.011226119 0.063614696 0.75636101
0.011226119 0.062866271 0.75636101
0.011226071 0.062117606 0.75636017
0.011226071 0.061369181 0.75636023
0.011226023 0.060620517 0.75635946
0.011225974 0.059871912 0.75635862
0.011225974 0.059123486 0.75635862
0.011225926 0.058374882 0.75635791
0.011225926 0.057626456 0.75635785
0.011225877 0.056877822 0.75635707
0.011225829 0.056129158 0.75635636
0.011225829 0.055380762 0.75635636
0.01122578 0.054632157 0.75635552
0.01122578 0.053883791 0.75635552
0.011225732 0.053135186 0.75635475
0.011225685 0.052386522 0.75635397
0.011225685 0.051638186 0.75635397
0.011225636 0.050889552 0.7563532
0.011225588 0.050140947 0.75635242
0.011225588 0.049392581 0.75635242
0.011225539 0.048644006 0.75635165
0.011225539 0.04789567 0.75635165
0.011225491 0.047147065 0.75635087
0.011225442 0.046398491 0.7563501
0.011225442 0.045650154 0.7563501
0.011225394 0.04490158 0.75634933
0.011225394 0.044153243 0.75634933
0.011225346 0.043404669 0.75634849
0.011225346 0.042656362 0.75634855
0.011225297 0.041907817 0.75634772
0.011225297 0.041159451 0.75634772
0.011225249 0.040410936 0.75634694
0.011225249 0.03966254 0.75634694
0.0112252 0.038914055 0.75634623
0.0112252 0.038165689 0.75634623
0.011225152 0.037417203 0.75634539
0.011225152 0.036668837 0.75634539
0.011225104 0.035920352 0.75634468
0.011225104 0.035171986 0.75634468
0.011225056 0.03442347 0.75634384
0.011225056 0.033675194 0.7563439
0.01126236 0.033036262 0.75694424
0.011457853 0.032845825 0.76009071
0.011524025 0.032267272 0.76115566
0.01155909 0.031594872 0.76172006
0.011572076 0.030858874 0.76192904
0.011562629 0.030062824 0.76177704
0.011523057 0.029191762 0.76114011
0.011470007 0.028292716 0.76028633
0.011417443 0.027401894 0.7594403
0.01136536 0.026519179 0.75860202
0.011225056 0.025443465 0.75634384
0.011225056 0.024695128 0.75634384
0.011225056 0.023946822 0.75634384
0.011225007 0.023198366 0.75634313
0.011225007 0.02245003 0.75634307
0.011225007 0.021701694 0.75634307
0.011225007 0.020953357 0.75634313
0.011225056 0.02020511 0.75634384
0.011823617 0.020494282 0.76597756
0.011230764 0.018717974 0.75643575
0.011225056 0.017960072 0.7563439
0.011225056 0.017211765 0.75634384
0.011225056 0.016463399 0.7563439
0.011225056 0.015715063 0.75634396
0.011225056 0.014966756 0.7563439
0.011225056 0.01421845 0.75634384
0.011225056 0.013470083 0.75634384
0.011247924 0.012747645 0.75671196
0.011361593 0.012119025 0.75854146
0.011404053 0.011404097 0.75922477
0.011446781 0.010683656 0.75991249
0.011489881 0.0099579096 0.76060617
0.011533257 0.0092266202 0.76130426
0.01157696 0.0084897876 0.76200771
0.011621048 0.0077473819 0.76271725
0.011652745 0.0069916546 0.7632274
0.011641813 0.006208986 0.76305145
0.010929231 0.0051003397 0.75158262
0.010928085 0.0043712556 0.7515642
0.010927443 0.0036424994 0.75155383
0.010926848 0.0029138625 0.75154436
0.010930927 0.002186209 0.75160992
0.010935606 0.0014581084 0.75168526
0.010937212 0.00072914362 0.75171107
0.010936662 -0 0.75170225
0.01093611 -0.00072905421 0.75169337
0.01093556 -0.0014580786 0.75168449
0.010935055 -0.0021870136 0.75167638
0.010934505 -0.0029158592 0.75166756
0.010933954 -0.0036446452 0.75165868
0.010933404 -0.0043733716 0.7516498
0.010932899 -0.0051020086 0.75164169
0.010932349 -0.0058305562 0.75163281
0.010931798 -0.0065590739 0.75162399
0.01092671 -0.0072844625 0.75154203
0.010921627 -0.0080091953 0.75146025
0.010918836 -0.0087350607 0.75141531
0.010920529 -0.0094644427 0.75144255
0.010920529 -0.010192484 0.75144255
0.010923321 -0.010923296 0.75148749
0.010927581 -0.011656076 0.7515561
0.010930285 -0.012387663 0.75159961
0.010930285 -0.0131163 0.75159961
0.010930285 -0.013844997 0.75159955
0.010930285 -0.014573723 0.75159961
0.010930285 -0.01530239 0.75159961
0.010930285 -0.016031057 0.75159961
0.010930285 -0.016759753 0.75159961
0.010930285 -0.01748842 0.75159961
0.010930285 -0.018217146 0.75159961
0.010930285 -0.018945813 0.75159961
0.010930285 -0.01967448 0.75159955
0.010926985 -0.020397007 0.75154644
0.010922497 -0.021116823 0.75147426
0.010920575 -0.021841139 0.75144327
0.010920575 -0.02256918 0.75144333
0.010920529 -0.023297101 0.75144261
0.010921856 -0.024028063 0.75146395
0.010926252 -0.024766147 0.7515347
0.010930285 -0.025503993 0.75159961
0.010930331 -0.026232779 0.75160038
0.010930331 -0.026961476 0.75160033
0.010930331 -0.027690172 0.75160038
0.010930331 -0.028418869 0.75160033
0.010930331 -0.029147536 0.75160038
0.010930331 -0.029876232 0.75160038
0.010930331 -0.030604899 0.75160033
0.010930331 -0.031333625 0.75160038
0.010930331 -0.032062322 0.75160038
0.010930331 -0.032790959 0.75160033
0.010930331 -0.033519685 0.75160038
0.010930331 -0.034248382 0.75160038
0.010930331 -0.034977049 0.75160033
0.010930331 -0.035705715 0.75160033
0.010930331 -0.036434412 0.75160038
0.010930285 -0.03716296 0.75159961
0.010930285 -0.037891656 0.75159955
0.010930285 -0.038620323 0.75159961
0.010930285 -0.039349049 0.75159967
0.010930285 -0.040077657 0.75159955
0.010930285 -0.040806413 0.75159961
0.010930285 -0.04153505 0.75159961
0.010930285 -0.042263746 0.75159955
0.010930285 -0.042992443 0.75159961
0.010930285 -0.04372111 0.75159961
0.010930285 -0.044449806 0.75159955
0.010927627 -0.045167506 0.75155681
0.010922863 -0.045876056 0.75148016
0.010920712 -0.046595007 0.75144553
0.010920804 -0.047323465 0.75144702
0.010933816 -0.048108786 0.75165641
0.011128232 -0.049706131 0.75478554
0.011132082 -0.050465435 0.75484747
0.011164751 -0.051357836 0.75537324
0.011168148 -0.052118003 0.75542796
0.011335894 -0.053656578 0.75812781
0.011335056 -0.054408252 0.75811428
0.011210376 -0.054557145 0.75610757
0.011183245 -0.055170655 0.75567091
0.011191409 -0.055957019 0.75580227
0.011257106 -0.057035983 0.75685972
0.01208936 0.065735906 0.75809371
0.01204713 0.064753324 0.75745654
0.012037114 0.063947141 0.75730538
0.012037062 0.063194603 0.75730455
0.012037062 0.062442273 0.75730455
0.01203701 0.061689705 0.75730377
0.012036958 0.060937136 0.757303
0.012036906 0.060184538 0.75730217
0.012036906 0.059432238 0.75730222
0.012036853 0.05867967 0.75730139
0.012036801 0.057927102 0.75730067
0.012036801 0.057174832 0.75730062
0.012036749 0.056422293 0.75729984
0.012036697 0.055669755 0.75729901
0.012036645 0.054917216 0.75729835
0.012036645 0.054164916 0.75729829
0.012036593 0.053412408 0.75729746
0.012036541 0.052659899 0.75729668
0.012036541 0.051907599 0.75729668
0.012036488 0.051155061 0.75729591
0.012036436 0.050402582 0.75729513
0.012036384 0.049650103 0.75729436
0.012036384 0.048897833 0.75729436
0.012036332 0.048145354 0.75729352
0.01203628 0.047392875 0.75729281
0.012036228 0.046640366 0.75729197
0.012036228 0.045888126 0.75729197
0.012036175 0.045135677 0.7572912
0.012036175 0.044383407 0.7572912
0.012036175 0.043631166 0.7572912
0.012036123 0.042878717 0.75729036
0.012036123 0.042126417 0.75729042
0.012036123 0.041374177 0.75729042
0.012036071 0.040621758 0.75728965
0.012036071 0.039869487 0.75728965
0.012036071 0.039117247 0.75728959
0.012036019 0.038364798 0.75728881
0.012036019 0.037612557 0.75728881
0.012036019 0.036860317 0.75728881
0.012035967 0.036107898 0.7572881
0.012035967 0.035355687 0.75728804
0.012035967 0.034603417 0.75728804
0.012035916 0.033851027 0.75728726
0.012058942 0.033162117 0.7576347
0.012187364 0.032753527 0.75957245
0.012250203 0.032156795 0.76052058
0.01228306 0.031475335 0.76101637
0.012293762 0.03073439 0.76117784
0.012279479 0.029931247 0.76096237
0.012232575 0.029052377 0.76025462
0.012176526 0.028158218 0.75940889
0.012120935 0.027272105 0.75857013
0.012074603 0.026413202 0.75787103
0.012037896 0.025580525 0.75731713
0.012035916 0.024824083 0.75728726
0.012035863 0.024071723 0.75728655
0.012035863 0.023319513 0.75728643
0.012035916 0.022567362 0.75728726
0.012036906 0.021816909 0.75730217
0.012571191 0.021999627 0.76536393
0.012571191 0.021213859 0.76536399
0.012571191 0.02042821 0.76536399
0.012571191 0.019642502 0.76536399
0.012571191 0.018856794 0.76536393
0.012571191 0.018071115 0.76536393
0.012040608 0.016555846 0.75735813
0.012040034 0.015802562 0.75734937
0.01203946 0.015049368 0.75734073
0.012037843 0.014294952 0.75731635
0.012036384 0.013540953 0.7572943
0.012044677 0.012797475 0.75741947
0.012078171 0.012078166 0.75792485
0.012117343 0.011360049 0.75851583
0.01216262 0.01064235 0.75919914
0.012208184 0.0099191666 0.75988662
0.012254091 0.0091905892 0.76057929
0.012300343 0.0084564984 0.76127714
0.012347002 0.0077168941 0.76198119
0.012379169 0.0069632828 0.76246655
0.012366337 0.0061831474 0.76227295
0.01162241 0.0050848126 0.75104797
0.011620953 0.0043579042 0.75102592
0.01162037 0.0036313832 0.75101715
0.011619836 0.0029049814 0.75100911
0.011619253 0.0021786094 0.75100029
0.01161867 0.0014523566 0.75099146
0.011618087 0.00072616339 0.7509827
0.011617505 -0 0.75097394
0.011616922 -0.00072601438 0.75096512
0.01161634 -0.0014520288 0.75095636
0.011615757 -0.0021779239 0.75094759
0.011615175 -0.0029037595 0.75093877
0.011614641 -0.0036295652 0.75093073
0.011614058 -0.0043552518 0.75092196
0.011613476 -0.0050808787 0.75091314
0.011612894 -0.0058064759 0.75090438
0.01161236 -0.0065319538 0.75089633
0.011611778 -0.0072573721 0.75088751
0.011611148 -0.0079826415 0.75087798
0.011610711 -0.00870803 0.75087142
0.011610759 -0.0094337165 0.75087219
0.011610759 -0.010159403 0.75087214
0.011610711 -0.01088503 0.75087142
0.011610711 -0.011610717 0.75087142
0.011610711 -0.012336373 0.75087148
0.011610711 -0.01306203 0.75087142
0.011610711 -0.013787717 0.75087142
0.011610711 -0.014513403 0.75087148
0.011610711 -0.01523906 0.75087142
0.011610711 -0.015964687 0.75087148
0.011610711 -0.016690403 0.75087142
0.011610711 -0.01741606 0.75087142
0.011610759 -0.018141806 0.75087214
0.011610759 -0.018867493 0.75087214
0.011610759 -0.019593149 0.75087219
0.011610759 -0.020318836 0.75087219
0.011610759 -0.021044493 0.75087214
0.011610759 -0.021770149 0.75087219
0.011610759 -0.022495866 0.75087219
0.011610759 -0.023221493 0.75087214
0.011610759 -0.023947179 0.75087214
0.011610759 -0.024672836 0.75087214
0.011610759 -0.025398523 0.75087214
0.011610759 -0.026124209 0.75087214
0.011610759 -0.026849866 0.75087214
0.011610808 -0.027575672 0.75087297
0.011610808 -0.028301328 0.75087291
0.011610808 -0.029027015 0.75087291
0.011610808 -0.029752702 0.75087291
0.011610808 -0.030478328 0.75087285
0.011610808 -0.031204045 0.75087291
0.011610808 -0.031929731 0.75087291
0.011610808 -0.032655388 0.75087285
0.011610808 -0.033381075 0.75087285
0.011610759 -0.034106612 0.75087214
0.011610759 -0.034832239 0.75087214
0.011610759 -0.035557956 0.75087214
0.011610759 -0.036283612 0.75087214
0.011610759 -0.037009269 0.75087214
0.011610759 -0.037734956 0.75087214
0.011610759 -0.038460642 0.75087214
0.011610759 -0.039186269 0.75087214
0.011610759 -0.039911985 0.75087214
0.011610759 -0.040637642 0.75087219
0.011610759 -0.041363329 0.75087214
0.011610759 -0.042088985 0.75087214
0.011610759 -0.042814672 0.75087219
0.011610759 -0.043540329 0.75087214
0.011610759 -0.044265985 0.75087214
0.011610759 -0.044991732 0.75087214
0.011610759 -0.045717329 0.75087214
0.011610759 -0.046443015 0.75087214
0.011610759 -0.047168702 0.75087214
0.011621244 -0.047937632 0.75103039
0.011926797 -0.049943477 0.7556408
0.011948277 -0.050780147 0.75596488
0.011966898 -0.051607221 0.75624591
0.012038156 -0.052666932 0.75732112
0.012038209 -0.05341953 0.75732183
0.012038209 -0.05417195 0.75732189
0.011984182 -0.054677814 0.75650662
0.011988419 -0.055446416 0.75657064
0.01200758 -0.056285501 0.75685972
0.012906803 0.065293282 0.75897211
0.012875968 0.064379871 0.75853419
0.012870356 0.063594729 0.75845456
0.012870301 0.062837362 0.75845373
0.012870245 0.062079996 0.75845301
0.012870189 0.061322689 0.75845212
0.012870189 0.060565591 0.75845218
0.012870132 0.059808284 0.75845134
0.012870076 0.059050947 0.75845057
0.01287002 0.058293641 0.75844979
0.012869964 0.057536334 0.75844896
0.012869964 0.056779295 0.75844902
0.012869908 0.056021988 0.75844818
0.012869852 0.055264682 0.75844735
0.012869796 0.054507375 0.75844651
0.01286974 0.053750128 0.75844574
0.01286974 0.052993059 0.7584458
0.012869684 0.052235782 0.75844496
0.012869627 0.051478505 0.75844419
0.012869571 0.050721258 0.75844342
0.012869515 0.049964011 0.75844264
0.012869515 0.049206972 0.75844258
0.01286946 0.048449725 0.75844187
0.012869404 0.047692508 0.75844097
0.012869347 0.04693526 0.7584402
0.012869291 0.046178073 0.75843942
0.012869291 0.045421034 0.75843942
0.012869235 0.044663817 0.75843859
0.012869179 0.043906629 0.75843787
0.012869123 0.043149412 0.75843704
0.012869123 0.042392403 0.75843704
0.012869067 0.041635215 0.7584362
0.012869067 0.040878236 0.75843626
0.012869067 0.040121228 0.7584362
0.012869011 0.03936407 0.75843543
0.012869011 0.038607001 0.75843543
0.012868955 0.037849873 0.75843465
0.012868955 0.037092894 0.75843465
0.012868899 0.036335737 0.75843382
0.012868899 0.035578758 0.75843388
0.012868899 0.034821749 0.75843382
0.012868843 0.034064561 0.75843304
0.01287103 0.033313274 0.7584641
0.012919167 0.032677948 0.7591477
0.012970626 0.032045096 0.75987852
0.013000887 0.031355083 0.76030827
0.013007815 0.030606657 0.76040661
0.012989051 0.029798448 0.76014018
0.012939486 0.028923571 0.75943625
0.012901615 0.028080016 0.75889844
0.012877596 0.027270228 0.75855738
0.012873162 0.026503563 0.75849438
0.012872376 0.025744796 0.75848317
0.012871647 0.024986148 0.75847292
0.012870918 0.024227619 0.75846255
0.013301908 0.024256408 0.76458311
0.013301908 0.023473978 0.76458311
0.013301908 0.022691518 0.76458311
0.013301908 0.021908998 0.76458317
0.013301908 0.021126568 0.76458311
0.013301908 0.020344108 0.76458311
0.013301908 0.019561678 0.76458311
0.013301908 0.018779188 0.76458311
0.013301908 0.017996728 0.76458317
0.013301908 0.017214239 0.76458311
0.013301908 0.016431779 0.76458311
0.013301908 0.015649348 0.76458311
0.012869964 0.014384091 0.75844896
0.012869404 0.013626456 0.75844097
0.01286974 0.012869745 0.7584458
0.01287002 0.012112945 0.75844979
0.012873498 0.011359006 0.75849921
0.012894237 0.010618806 0.75879371
0.012926517 0.0098849833 0.75925213
0.012969373 0.009154886 0.75986069
0.013018135 0.0084235072 0.76055324
0.013067265 0.0076866448 0.76125097
0.013099663 0.0069351196 0.76171094
0.013084922 0.0061576068 0.76150167
0.012297702 0.0050637722 0.75032216
0.012296422 0.0043399036 0.75030398
0.012295808 0.0036164224 0.75029522
0.012295194 0.0028930008 0.75028652
0.012294579 0.0021696389 0.75027782
0.012293966 0.0014463663 0.75026911
0.012293351 0.00072312355 0.75026035
0.012292737 2.9802322e-08 0.75025165
0.012292123 -0.00072303414 0.75024289
0.012291561 -0.0014460683 0.75023496
0.012290947 -0.002169013 0.7502262
0.012290333 -0.0028918386 0.7502175
0.01228972 -0.0036146343 0.75020874
0.012289106 -0.0043373406 0.75020009
0.012288492 -0.0050599575 0.75019133
0.01228793 -0.0057825446 0.7501834
0.012287316 -0.0065050423 0.75017458
0.012286703 -0.0072274804 0.75016594
0.012286089 -0.0079497993 0.75015724
0.012285579 -0.0086721778 0.75014997
0.012285579 -0.0093948245 0.75014997
0.012285579 -0.010117501 0.75014997
0.012285579 -0.010840178 0.75014991
0.012285579 -0.011562914 0.75014997
0.012285579 -0.01228556 0.75014997
0.012285579 -0.013008296 0.75014997
0.012285579 -0.013730943 0.75014997
0.012285579 -0.01445362 0.75014997
0.012285579 -0.015176326 0.75014997
0.012285579 -0.015898973 0.75014991
0.012285579 -0.016621649 0.75014997
0.012285579 -0.017344326 0.75014997
0.012285579 -0.018067032 0.75014997
0.012285579 -0.018789679 0.75014991
0.012285579 -0.019512385 0.75014997
0.012285579 -0.020235062 0.75014997
0.012285579 -0.020957738 0.75014997
0.012285579 -0.021680415 0.75014997
0.012285579 -0.022403121 0.75014997
0.012285579 -0.023125768 0.75014997
0.012285579 -0.023848444 0.75014991
0.012285579 -0.024571151 0.75014997
0.012285579 -0.025293827 0.75014997
0.012285579 -0.026016504 0.75014997
0.012285579 -0.02673915 0.75014997
0.012285579 -0.027461886 0.75014997
0.012285579 -0.028184563 0.75014997
0.012285579 -0.02890721 0.75014997
0.012285579 -0.029629916 0.75014997
0.012285579 -0.030352592 0.75014997
0.012285579 -0.031075269 0.75014997
0.012285579 -0.031797945 0.75014997
0.012285579 -0.032520622 0.75014997
0.012285579 -0.033243328 0.75015002
0.012285579 -0.033966005 0.75014997
0.012285579 -0.034688711 0.75014997
0.012285579 -0.035411388 0.75015002
0.012285579 -0.036134064 0.75014997
0.012285579 -0.036856711 0.75014997
0.012285579 -0.037579417 0.75014997
0.012285579 -0.038302094 0.75014997
0.012285579 -0.03902477 0.75014997
0.012285579 -0.039747447 0.75014997
0.012285579 -0.040470123 0.75014997
0.012285579 -0.04119283 0.75014997
0.012285579 -0.041915476 0.75014997
0.012285579 -0.042638183 0.75014997
0.012285579 -0.043360829 0.75014997
0.012285579 -0.044083536 0.75014997
0.012285579 -0.044806212 0.75014997
0.012285579 -0.045528889 0.75014997
0.012285579 -0.046251595 0.75015002
0.012285579 -0.046974242 0.75014997
0.012289208 -0.047711015 0.75020146
0.012354855 -0.048692644 0.7511338
0.012778864 -0.051115423 0.75715518
0.012787219 -0.051901072 0.75727385
0.012795806 -0.052688628 0.75739586
0.012801352 -0.053464472 0.75747454
0.012806959 -0.05424124 0.75755423
0.012810903 -0.055011481 0.7576102
0.012816518 -0.05578953 0.75768995
0.012894012 -0.056885332 0.75879049
0.013758861 0.064972401 0.76021725
0.013737767 0.064109594 0.75993437
0.013736379 0.063339949 0.75991571
0.013736319 0.062576562 0.75991488
0.013736258 0.061813176 0.7599141
0.013736258 0.061050028 0.7599141
0.013736199 0.060286641 0.75991333
0.013736138 0.059523225 0.75991249
0.013736078 0.058759868 0.75991166
0.013736017 0.057996511 0.75991082
0.013736017 0.057233423 0.75991088
0.013735957 0.056470066 0.75991005
0.013735897 0.05570671 0.75990927
0.013735836 0.054943323 0.75990844
0.013735776 0.054180056 0.7599076
0.013735776 0.053416938 0.75990766
0.013735715 0.052653581 0.75990689
0.013735656 0.051890284 0.75990599
0.013735595 0.051126927 0.75990522
0.013735535 0.05036366 0.75990438
0.013735474 0.049600333 0.75990361
0.013735414 0.048837036 0.75990278
0.013735354 0.048073739 0.759902
0.013735293 0.047310501 0.75990111
0.013735233 0.046547174 0.75990033
0.013735172 0.045783907 0.75989956
0.013735113 0.04502061 0.75989872
0.013735052 0.044257373 0.75989795
0.013734992 0.043494165 0.75989711
0.013734931 0.042730927 0.75989628
0.013734871 0.04196766 0.7598955
0.013734871 0.041204631 0.75989544
0.013734811 0.040441394 0.75989473
0.013734811 0.039678365 0.75989467
0.013734811 0.038915306 0.75989467
0.013734811 0.038152277 0.75989467
0.013734811 0.037389249 0.75989467
0.01373475 0.036626041 0.75989389
0.01373475 0.035862952 0.75989389
0.01373475 0.035099924 0.75989389
0.01373475 0.034336865 0.75989389
0.01373469 0.033573657 0.75989306
0.01373469 0.032810628 0.75989306
0.013737949 0.032055229 0.75993675
0.013750271 0.031320065 0.76010209
0.013753536 0.030563444 0.76014578
0.013744228 0.029779166 0.76002097
0.01373457 0.028995216 0.75989139
0.01373457 0.028232187 0.75989145
0.01373457 0.027469188 0.75989145
0.01373457 0.0267061 0.75989151
0.01373475 0.025943458 0.75989389
0.013977356 0.025625139 0.76314777
0.014019025 0.024922699 0.76370668
0.014026633 0.024157017 0.76380867
0.014026633 0.023377746 0.76380867
0.014026633 0.022598475 0.76380867
0.014026633 0.021819204 0.76380873
0.014026633 0.021039963 0.76380867
0.014026633 0.020260721 0.76380873
0.014026633 0.019481421 0.76380873
0.014026633 0.018702209 0.76380873
0.014026633 0.017922968 0.76380867
0.014026633 0.017143667 0.76380873
0.014026633 0.016364396 0.76380867
0.014026633 0.015585154 0.76380873
0.014026633 0.014805913 0.76380867
0.014026633 0.014026642 0.76380873
0.014026633 0.013247401 0.76380873
0.013737103 0.012210786 0.75992548
0.013736379 0.011447012 0.75991571
0.013735595 0.010683239 0.75990522
0.013734871 0.0099196434 0.75989544
0.013738492 0.0091589987 0.75994408
0.013762858 0.0084106326 0.76027083
0.013796252 0.0076645911 0.76071876
0.013820397 0.0069102049 0.76104259
0.013807583 0.0061367154 0.7608707
0.012979644 0.0050476193 0.74976617
0.012978998 0.0043263435 0.74975753
0.012978729 0.0036051869 0.74975395
0.012978406 0.0028840899 0.7497496
0.012978083 0.002162993 0.74974525
0.012977759 0.0014419556 0.74974096
0.012977436 0.00072097778 0.74973655
0.012977113 2.9802322e-08 0.7497322
0.01297679 -0.00072091818 0.7497279
0.012976467 -0.0014418066 0.74972355
0.012976144 -0.0021626353 0.74971914
0.01297582 -0.0028834939 0.74971491
0.012975497 -0.0036042631 0.74971056
0.012975175 -0.0043250322 0.74970627
0.012974852 -0.0050457418 0.74970186
0.012974529 -0.0057664514 0.74969757
0.012974205 -0.0064870715 0.74969321
0.012973936 -0.0072077513 0.74968964
0.012973613 -0.0079283118 0.74968529
0.012973344 -0.0086488724 0.74968165
0.012973291 -0.0093695819 0.74968094
0.012973291 -0.010090351 0.749681
0.012973291 -0.010811061 0.74968094
0.012973291 -0.0115318 0.74968094
0.012973291 -0.012252539 0.749681
0.012973291 -0.012973249 0.74968094
0.012973291 -0.013693988 0.74968094
0.012973291 -0.014414787 0.749681
0.012973291 -0.015135497 0.749681
0.012973291 -0.015856236 0.74968094
0.012973291 -0.016576976 0.749681
0.012973291 -0.017297715 0.74968094
0.012973291 -0.018018425 0.74968094
0.012973291 -0.018739164 0.749681
0.012973291 -0.019459963 0.749681
0.012973291 -0.020180672 0.74968094
0.012973291 -0.020901412 0.74968094
0.012973291 -0.021622151 0.749681
0.012973291 -0.022342891 0.74968094
0.012973291 -0.0230636 0.74968094
0.012973291 -0.023784339 0.749681
0.012973291 -0.024505079 0.74968094
0.012973291 -0.025225818 0.74968094
0.012973291 -0.025946558 0.749681
0.012973291 -0.026667297 0.749681
0.012973291 -0.027388066 0.74968094
0.012973291 -0.028108746 0.749681
0.012973291 -0.028829545 0.749681
0.012973291 -0.029550254 0.74968094
0.012973291 -0.030270994 0.74968094
0.012973291 -0.030991733 0.749681
0.012973291 -0.031712472 0.749681
0.012973291 -0.032433212 0.74968094
0.012973291 -0.033153951 0.74968094
0.012973291 -0.03387472 0.749681
0.012973291 -0.03459543 0.74968094
0.012973291 -0.035316169 0.74968094
0.012973291 -0.036036909 0.749681
0.012973291 -0.036757648 0.749681
0.012973291 -0.037478387 0.74968094
0.012973291 -0.038199127 0.749681
0.012973291 -0.038919866 0.749681
0.012973291 -0.039640576 0.74968094
0.012973291 -0.040361345 0.74968094
0.012973291 -0.041082054 0.74968088
0.012973291 -0.041802794 0.74968094
0.012973291 -0.042523563 0.74968094
0.012973291 -0.043244302 0.749681
0.012973291 -0.043965042 0.74968094
0.012973291 -0.044685751 0.74968094
0.012973291 -0.045406491 0.749681
0.012973291 -0.04612723 0.74968094
0.012973291 -0.046847969 0.74968094
0.012975067 -0.047575235 0.74970478
0.013011291 -0.04843089 0.75019062
0.013629099 -0.051487714 0.75847691
0.013635636 -0.052269936 0.75856453
0.013641585 -0.053050578 0.75864428
0.013647597 -0.053832173 0.75872499
0.013653556 -0.054614216 0.75880492
0.013659997 -0.055398852 0.75889122
0.013690436 -0.056282878 0.75929952
0.014718353 0.065070659 0.76269639
0.014669623 0.064083099 0.76207727
0.01466858 0.06330651 0.76206398
0.014668515 0.062534183 0.76206315
0.01466845 0.061761886 0.76206231
0.014668385 0.060989588 0.76206148
0.014668319 0.060217321 0.7620607
0.014668254 0.059445024 0.76205981
0.014668189 0.058672756 0.76205903
0.014668059 0.05790022 0.7620573
0.014667993 0.057127953 0.76205659
0.014667928 0.056355715 0.76205564
0.014667863 0.055583507 0.76205492
0.014667798 0.054811299 0.76205403
0.014667733 0.054039031 0.76205325
0.014667667 0.053266823 0.76205236
0.014667537 0.052494347 0.76205075
