# .PCD v0.7 - Point Cloud Data file format
VERSION 0.7
FIELDS x y z
SIZE 4 4 4
TYPE F F F
COUNT 1 1 1
WIDTH 438
HEIGHT 1
VIEWPOINT 0 0 0 1 0 0 0
POINTS 438
DATA ascii
0.002609326 0.035551906 0.7331661
0.011528002 0.035453867 0.73321342
0.00065597409 0.034110665 0.73404545
0.0039429311 0.04140079 0.73433059
0.010615144 0.027864724 0.7358495
0.00033016739 0.030390307 0.73517644
0.0039739101 0.035433248 0.73557711
0.01387109 0.039631695 0.73514497
0.011285184 0.044476897 0.73594308
0.0046457755 0.045130402 0.73590636
0.013604812 0.046454757 0.73589599
0.0086744288 0.024354964 0.73677105
0.0093476549 0.024370432 0.73687387
-0.0056482735 0.038540393 0.73610127
0.014697861 0.040085107 0.73696917
0.0097499695 0.041658781 0.73616838
0.010646204 0.041586712 0.73631811
0.0033303828 0.051287889 0.73648441
0.008392795 0.021485344 0.73777366
0 0.024065018 0.73706287
0 0.024065018 0.73706287
0.0026831722 0.028844118 0.7376231
0.0094069391 0.036955833 0.7378962
-0.0073685101 0.037512422 0.73739892
0.016348276 0.038742941 0.73787701
-0.0023458686 0.041554481 0.73748779
0.016763225 0.048948616 0.73755932
-0.0013456021 0.021529645 0.73810786
-0.0074310275 0.03039968 0.73877102
0.0087436382 0.036319762 0.7380563
0.0087436382 0.036319762 0.7380563
0.014867431 0.036492765 0.73883003
0.00033729002 0.038483769 0.73867571
-0.0020293663 0.040587336 0.73899007
0.016621243 0.043349296 0.7383548
-0.0022496253 0.049479358 0.73857182
-0.0022496253 0.049479358 0.73857182
-0.0033968124 0.018342793 0.73969191
0.0027156605 0.027495265 0.73958397
0.0074428353 0.033154428 0.73903024
0 0.036596447 0.73929334
-0.0025065192 0.013442567 0.74069875
0.0095541067 0.015354425 0.74043405
-0.0040924018 0.017392606 0.74034488
-0.0085242158 0.026593909 0.74030328
-0.0054776096 0.033550382 0.74098086
0.021614177 0.038449764 0.74045867
0.020461926 0.040241808 0.74034417
-0.0043259775 0.047351878 0.74056113
-0.0024038111 0.010644533 0.74147689
0.0054971729 0.028860182 0.74157119
-0.0024029471 0.032606401 0.74140376
-0.0024029471 0.032606401 0.74140376
0.017166987 0.03639403 0.74145842
0.021290073 0.045670316 0.74148184
0.021290073 0.045670316 0.74148184
-0.0047972947 0.051399559 0.74113214
0.0075784558 0.009645313 0.74200672
-0.010363933 0.022455066 0.74248427
0.01585152 0.033081442 0.74206603
-0.0024305873 0.0055573285 0.74338675
0.010444471 0.016014844 0.74378055
0.02256326 0.035407498 0.74328965
0.019476078 0.036517233 0.74360579
-0.0063030333 0.0028013587 0.74475563
0.0045358492 0.0020934194 0.74414349
-0.0048834221 0.003488183 0.74410248
-0.0090896152 0.016780823 0.74448144
0.011197403 0.01749596 0.74463505
-0.0070053632 0.051489636 0.74480379
-0.0045650303 -0.00070227683 0.74522626
0.0035114093 -0.00070226192 0.74522519
0.0035114093 -0.00070226192 0.74522519
-0.010526825 0.011228591 0.74510604
-0.010526825 0.011228591 0.74510604
0.021423791 0.029502153 0.74526131
0.021482397 0.034513354 0.74572545
0.026001982 0.038651586 0.74533975
0.023939032 0.046469897 0.74566144
-0.0070422897 0.054225624 0.74569523
0.0046035154 -0.0046036169 0.74665523
0.0045926264 -0.0035326332 0.74625081
-0.00070605782 0.0091787875 0.74613672
0.0063688853 0.0275985 0.74652207
0.0049389726 0.02822268 0.74601841
0.020487927 0.033557564 0.74623871
0.00071333128 -0.0092732906 0.7478928
-0.0049794009 -0.0074694306 0.74741274
0.0071359207 2.9802322e-08 0.74795568
0.0074693598 0.025609478 0.74742031
0.003580906 -0.010384917 0.74858081
0.0042914413 -0.009298116 0.74835354
-0.0043003107 -0.0064504743 0.74871045
-0.0093242452 0.007531032 0.74883866
-0.014354206 0.0093302727 0.74894989
0.010028969 0.010745317 0.74862266
0.017526723 0.015380666 0.74838257
0.005716179 0.019292146 0.74818027
-0.0064447755 0.022557437 0.74855781
0.0035706148 0.022137821 0.74808389
0.0071436083 0.023573965 0.74814129
0.02429756 0.042878062 0.74820727
-0.014394642 0.0014394522 0.74943805
-0.011519054 0.0035997033 0.74948841
-0.0086229611 0.015090168 0.74915993
0.020482481 0.017607421 0.74918407
-0.0035931545 0.028385699 0.74917215
-0.013738769 -0.0043385625 0.75024951
0.010145388 0.0050727427 0.75063026
-0.0043377466 0.025303543 0.75021672
-0.0036360624 -0.0087265372 0.75124395
-0.01454638 -0.0072731972 0.7512697
0.01457463 0.0036436617 0.7516107
0.017520495 0.0087602735 0.75192183
0.017520495 0.0087602735 0.75192183
0.026539594 0.031629048 0.75121921
0.002201793 -0.0066053569 0.75286591
-0.012468038 -0.002567187 0.7527411
-0.012468038 -0.002567187 0.7527411
0.014674218 0.0014674366 0.7528128
0.0014650831 0.0095230341 0.75253046
0.0043965122 0.010624677 0.7525813
-0.0073277727 0.016487107 0.75258738
0.025704851 0.026439279 0.75298506
0.025704851 0.026439279 0.75298506
0.0066218041 -0.0084614903 0.75330651
0.016481802 0.0027057827 0.75384486
0.019152272 0.019152284 0.75351655
-0.0022213492 -0.0051831007 0.75443965
-0.0073961439 0.0096150041 0.75423801
0.021478901 0.014072388 0.75448853
0.015512684 0.019206196 0.75401711
0.01409931 0.020777971 0.7548306
0.019613421 0.025534712 0.75436527
-0.011491517 0.050412625 0.75466001
0.00037314149 -0.013427898 0.75577843
-0.00074441481 0.00037181377 0.75539696
0.016421257 0.020153373 0.75588119
0.017919643 0.021652907 0.75593698
-0.014180351 0.048511744 0.75586033
-0.0014989079 -0.016487956 0.75661349
-0.0075033437 -0.015756994 0.75682604
0.0022479836 -0.014237225 0.75658309
0.0022479836 -0.014237225 0.75658309
0.010477305 -0.0074837804 0.75635397
0.013467455 -0.0074819028 0.75630885
0.013456908 -0.0067284703 0.75616741
0.0022523259 -0.0052554011 0.7569325
-0.00074798911 -0.0014959574 0.75625986
0.017560164 0.02092284 0.75608009
-0.012439784 -0.0082928389 0.75768632
-0.012434512 -0.007535845 0.75761116
0.00037599049 -0.004509747 0.75713801
0.0015052455 -0.0045157373 0.75737846
-0.010530422 0.0015043616 0.75726998
-0.0094754938 -0.01970768 0.75867403
0.0022764772 -0.019729465 0.75887603
0.0053045913 -0.01553525 0.75862813
-0.0083370712 0.00037877262 0.75865632
0.015544954 0.013649344 0.75874853
-0.012143386 0.035671204 0.75890887
-0.012143386 0.035671204 0.75890887
-0.013599109 0.040041834 0.75807464
-0.0076067629 -0.024341643 0.75932276
-0.010674122 -0.022491977 0.75974792
0.0045749145 -0.019062132 0.75975966
-0.0098803993 -0.011400431 0.75916696
-0.014490218 -0.01067698 0.75979763
0.01296294 0.0076252818 0.75976938
0.013736559 0.010684013 0.75991809
0.01671892 0.011399269 0.75914764
-0.0084175989 -0.027548492 0.76042366
0.00307029 -0.023794711 0.7609877
0.022964984 -0.019520432 0.76048726
0.022937186 -0.018349737 0.7602635
0.020720428 0.002302289 0.7609517
-0.012988822 0.032090038 0.7601369
-0.013074553 -0.024610907 0.76135439
0.020747555 -0.014600128 0.76119423
0.019281911 -0.0015425682 0.76188195
-0.014598389 0.028428435 0.76117212
-0.0054242192 -0.034869969 0.76275396
-0.00077379099 -0.031725436 0.76248902
-0.016277377 -0.018602729 0.7628082
0.0092871469 -0.0023217797 0.76252234
-0.0062306775 -0.038162887 0.76370668
-0.0085425954 -0.036500156 0.76316702
-0.0015575448 -0.03543447 0.76369166
-0.0015575448 -0.03543447 0.76369166
-0.0085359951 -0.034143955 0.76302218
-0.015548324 -0.025654733 0.7633642
-0.0015531089 -0.020190418 0.76315618
-0.0015531089 -0.020190418 0.76315618
0.0015555703 -0.018666834 0.76345325
0.010515951 -0.0015578568 0.76372921
0.011682834 -0.00077882409 0.76371169
0.011682834 -0.00077882409 0.76371169
-0.0175317 0.023375332 0.76378936
-0.0093687419 -0.039427042 0.76416385
-0.0046897354 -0.039472282 0.76437974
-0.010923763 -0.038233161 0.76405287
-0.014846978 -0.033601046 0.7643308
-0.0078366157 -0.03134647 0.76487195
-0.016412441 -0.028526515 0.7643609
-0.0015635571 -0.027362257 0.76441741
-0.0007805457 -0.021855265 0.76411974
0.023425221 -0.010541573 0.76419091
-0.018787879 0.00078287721 0.76467073
-0.018034386 0.019602597 0.76497871
-0.018415563 0.020374432 0.7648648
-0.008660323 -0.044482857 0.76575083
-0.0062997551 -0.044098258 0.76579124
-0.01333205 -0.039211899 0.76501119
-0.0076013785 -0.033550691 0.7655229
-0.018110564 -0.027559549 0.7657783
-0.018123295 0.014971405 0.76591194
-0.013454187 -0.045507029 0.76674569
-0.015780501 -0.039451241 0.76616681
0.0023660436 -0.034701943 0.76608384
-0.018182423 -0.032412112 0.7665326
-0.015806992 -0.023710489 0.76648659
-0.015784301 -0.02130875 0.76621264
0.0063161305 -0.019737929 0.76628542
-0.014623316 -0.018181309 0.76652122
-0.013514142 -0.048491895 0.76759714
-0.01831216 -0.039809048 0.76789439
0.0031839502 -0.038207412 0.76784778
-0.012737552 -0.031843901 0.76787412
-0.0142904 -0.019451112 0.76734638
0.0095466021 -0.011933237 0.76774216
-0.018263783 0.0015881956 0.76738656
-0.01357555 -0.051507488 0.76846915
0.0024004562 -0.041607887 0.76885313
0.0048004263 -0.036803216 0.76883352
0.0080029219 -0.016005814 0.76888692
0.0095854942 -0.015576661 0.76852459
0.0095854942 -0.015576661 0.76852459
0.010383357 -0.015575305 0.76850736
-0.016804587 0.004801333 0.76886916
-0.020746434 0.010373205 0.76831901
-0.021530338 0.011562392 0.76819354
-0.013676724 -0.056315899 0.76990598
-0.013639712 -0.054558873 0.76938039
-0.0064284252 -0.054641604 0.7696743
-0.0032190962 -0.052310288 0.76996893
-0.00080125179 -0.047273844 0.76911861
-0.020055808 -0.039309382 0.7693553
-0.020377094 0.004557997 0.76986736
-0.018445509 0.0044108778 0.76929408
-0.018445509 0.0044108778 0.76929408
-0.012531921 -0.059829593 0.77087039
-0.016562467 -0.056553602 0.77072573
-0.01941856 -0.051782787 0.77101493
-0.01941856 -0.051782787 0.77101493
0.0048699719 -0.034089804 0.77163184
-0.0073270365 -0.061872751 0.77222407
-0.0065168058 -0.06150271 0.77234131
-0.0056966706 -0.06022197 0.77215052
-0.020429272 -0.058019161 0.77296185
-0.020429272 -0.058019161 0.77296185
-0.004070919 -0.058621198 0.77224064
-0.00081360427 -0.053697854 0.77210081
0.0065559307 -0.029501677 0.77352202
-0.0016436421 -0.05917111 0.77408445
0.0016464849 -0.053510755 0.77442765
0.0082224496 -0.032889813 0.77418685
-0.0057958732 -0.066238552 0.77557182
0.0041458765 -0.049750477 0.77585989
0.0041314429 -0.048750997 0.77516299
-0.022413407 -0.027394176 0.77608955
-0.020765953 -0.016612768 0.77621317
0.0025202427 -0.057965547 0.77849275
-0.020987814 -0.02686435 0.77835554
0.0025296365 -0.059024811 0.77924871
0.0039739101 0.035433248 0.73557711
-0.00065715023 0.039429039 0.73432946
0.010925825 0.048727531 0.73522156
0.0086227804 0.02127656 0.73788857
0.0050830678 0.037182096 0.73713613
0.0091931419 0.041755851 0.73611581
0.0091931419 0.041755851 0.73611581
-0.0020413762 0.0156506 0.7399565
0.0071503352 0.016897183 0.73922199
0.0071503352 0.016897183 0.73922199
0.018331271 0.042942472 0.73958898
-0.0027541586 0.04891013 0.73907495
0.0055071488 0.010325938 0.74187225
0.010268753 0.017455742 0.74095237
0.002042552 0.024510652 0.74005127
-0.0091436934 0.027000025 0.74070489
0.017028905 0.036879249 0.74094629
0.01937256 0.041364741 0.74074256
-0.0041818102 0.003484875 0.74394238
0.0072810031 0.0089282813 0.74220723
-0.0089848936 0.020909511 0.74256289
0.0013818574 0.020036936 0.74248427
0.003450061 0.02829051 0.74226296
0.01600267 0.029918045 0.74365258
0.015866388 0.032767236 0.74222213
0.023428034 0.038587362 0.74203306
0.0098213861 0.012627512 0.74504304
-0.011561124 0.014713059 0.74482846
0.021737069 0.032782651 0.74496293
0.019408008 0.034793347 0.74452317
-0.0069123274 -0.006912285 0.74755955
0.0045670336 -0.0068806438 0.74750745
-0.0063608205 -0.0030042678 0.74630576
0.0063856095 -0.0021285415 0.74697071
0.02103826 0.024991557 0.74664366
-0.0047298609 0.030983558 0.7469815
-0.0028377841 0.030977687 0.74695003
0.026712831 0.040958017 0.74764967
-0.01443462 -0.0010827184 0.74992061
-0.0021592821 0.0010785908 0.74944496
-0.010840261 0.005221657 0.74888873
0.013641116 0.017948836 0.74900866
0.020973768 0.019001205 0.74878776
-0.0032405909 0.021603063 0.74952734
0.0048360964 0.020955073 0.74863541
0.023799866 0.026684731 0.74979436
0.023799866 0.026684731 0.74979436
-0.013548516 -0.0047179116 0.75092149
0.0072429292 -0.0014485717 0.75053912
0.0007257075 0.0072531006 0.75079316
0.014528926 0.026514009 0.75105894
-0.011805736 -0.0036892891 0.7538141
0.015213498 0.0027487651 0.75268126
0.012861105 0.0051442534 0.75309789
0.020523883 0.011727959 0.75264025
0.010801677 -0.010428667 0.75551575
0.0022376857 -0.00596717 0.75575435
0.0074095181 -0.0037047267 0.75456089
0.00090088544 0.0010555561 0.75563067
-0.0070492839 0.010945085 0.75482428
0.011130464 0.010388464 0.75482142
-0.012245899 -0.0088543072 0.75760829
-0.012245899 -0.0088543072 0.75760829
0.01807414 -0.0015061498 0.75749111
0.011254821 0.0075032115 0.75682294
0.020270932 0.0075077116 0.7569325
0.021433212 0.010905117 0.75722998
-0.012321316 0.039729547 0.75779772
-0.0070406641 -0.024927564 0.7594313
0.023664581 -0.018320948 0.759974
0.023492143 -0.010987014 0.75863111
0.023492143 -0.010987014 0.75863111
0.023492143 -0.010987014 0.75863111
0.012930591 -0.0060849786 0.75930995
0.017543485 -0.0053393245 0.75982594
0.021460507 0.0088363588 0.75853908
-0.0088614821 -0.031208552 0.76171219
-0.012264309 -0.023762107 0.76073343
0.021058396 -0.016500501 0.76168072
0.021048799 -0.014993902 0.76131129
-0.0086825807 -0.012513965 0.76064765
0.012242379 -0.0061211884 0.76040256
0.0092133936 -0.0015355647 0.76103848
-0.010901516 -0.036856346 0.76366299
-0.016379906 -0.026519835 0.76398689
0.0029660314 -0.027207449 0.7624588
0.0029660314 -0.027207449 0.7624588
-0.0046308045 -0.0223822 0.76200849
0.021717791 -0.012797192 0.76293421
0.0077348785 -0.011602312 0.76241577
0.019022038 -0.0050467029 0.76311779
-0.016643181 0.013934314 0.76257014
-0.016643181 0.013934314 0.76257014
-0.016373362 0.021831155 0.76391166
-0.016373362 0.021831155 0.76391166
-0.0090544876 -0.044485271 0.76576114
-0.0050951671 -0.041154973 0.76492912
-0.0023431005 -0.037489593 0.76423746
-0.01498154 -0.03291294 0.76472133
-0.0078366157 -0.03134647 0.76487195
-0.018082436 -0.024961814 0.76548302
-0.014074356 -0.013292402 0.76444876
0.027312718 -0.0093643367 0.7640757
-0.01730088 0.00078636408 0.76553398
-0.0090746041 -0.045767501 0.76618373
0.0055370312 -0.022939146 0.76664472
-0.015944557 -0.047435284 0.76814717
-0.017287835 -0.045213323 0.76830542
-0.019131402 -0.037067205 0.76812637
-0.019935496 -0.029105902 0.76819348
0.021577572 -0.023975074 0.7686159
-0.020080378 0.0016064644 0.76959258
-0.019015789 -0.05300007 0.77102745
-0.0012110368 -0.051294491 0.77069485
-0.020639258 -0.047043394 0.77107465
-0.015120184 -0.064565778 0.77299023
-0.019157123 -0.059100457 0.77248013
-0.0027150409 -0.057015263 0.77231669
-0.021957137 -0.043914258 0.77200979
-0.021957137 -0.043914258 0.77200979
-0.021389719 -0.061290026 0.77429223
-0.024015024 -0.055069044 0.77560139
-0.0013901046 -0.064530782 0.77713269
0.0011110916 -0.0585563 0.77667606
0.01304169 0.034407463 0.73441261
-0.0057050493 0.042115368 0.73558688
0.0016643489 0.033636991 0.7380476
0.011524843 0.021756042 0.74176741
-0.0041742637 0.037699468 0.74058628
0.021534059 0.041942656 0.74246693
0.019769169 0.044650748 0.74025518
-0.0054360442 0.049986929 0.74202371
-0.0035341128 -0.0017711446 0.74632138
0.0052959612 0.018601421 0.74619603
0.012706504 0.023115449 0.74610269
-0.0063527501 0.02623325 0.74615371
0.021946758 0.026324598 0.74640059
0.021599289 0.033284657 0.74528861
0.021599289 0.033284657 0.74528861
-0.0088064373 0.041850835 0.74687487
-0.0057345303 -0.009420312 0.74886578
0.010118421 0.0099342167 0.75016522
-0.0079976637 0.015995353 0.75120717
-0.0053278152 0.02541546 0.74936926
0.018319059 0.0084281992 0.75218952
0.0021440859 -0.014030697 0.75652349
0.00159717 -0.0048839208 0.757092
0.0096600149 -0.0065887603 0.75795257
-0.016792767 0.010402779 0.75717962
0.0014884147 -0.029799005 0.7627849
-0.010198787 -0.025961161 0.76047015
0.0014572156 -0.017598212 0.76293695
0.026029401 -0.0099282227 0.76210761
-0.011616848 -0.029819952 0.76743424
-0.010197164 -0.061896451 0.77165222
-0.017592873 -0.057569664 0.77143449
-0.014413163 -0.050333779 0.76839113
0.00045652947 -0.049826242 0.77127188
-0.018371101 -0.042629614 0.76850069
-0.019922875 -0.027891994 0.76807159
0.012841112 -0.013643652 0.76943678
0.0046280995 -0.045952097 0.77422732
0.0061736815 -0.030321723 0.77366322
-0.019692741 -0.016997837 0.77585685
