# .PCD v0.7 - Point Cloud Data file format
VERSION 0.7
FIELDS x y z
SIZE 4 4 4
TYPE F F F
COUNT 1 1 1
WIDTH 461
HEIGHT 1
VIEWPOINT 0 0 0 1 0 0 0
POINTS 461
DATA ascii
0.036647283 0.028592926 0.72151726
0.036417969 0.029375833 0.72140521
0.041180003 0.029068232 0.72188127
0.038291633 0.032245588 0.72164333
0.040362887 0.024581648 0.72221291
0.035988752 0.025619119 0.72294122
0.037393764 0.03465718 0.72246855
0.03436343 0.035580255 0.72251308
0.035550863 0.035551153 0.72239256
0.044349246 0.022480905 0.7237004
0.033407863 0.026665032 0.72366893
0.041639816 0.030617565 0.72351372
0.039512485 0.021299243 0.7247287
0.039641537 0.022125542 0.7240566
0.032536618 0.024505448 0.72482622
0.030548502 0.03147465 0.72467244
0.030871693 0.034576327 0.72474098
0.041540947 0.020460457 0.72536397
0.045378763 0.020513684 0.72575337
0.031707559 0.03947942 0.725775
0.036519617 0.019664034 0.72639108
0.036519617 0.019664034 0.72639108
0.027550064 0.028489277 0.7268424
0.03465591 0.041526064 0.7264331
0.045501657 0.01945582 0.72719681
0.028239716 0.023532942 0.7271831
0.026446525 0.026446551 0.72769731
0.031476654 0.041549206 0.72766209
0.043466851 0.017767414 0.72887313
0.024761476 0.024761468 0.7289601
0.030331343 0.040441781 0.72823423
0.033395551 0.016538769 0.72924912
0.040479347 0.016574189 0.72957766
0.029587412 0.017497689 0.72929376
0.043360204 0.017216563 0.72962165
0.027579065 0.016354695 0.73052061
0.022472233 0.022472262 0.73068726
0.02302902 0.025587827 0.73011535
0.023774374 0.032127529 0.7308048
0.030217314 0.042432815 0.73089427
0.037119254 0.042879164 0.73018587
0.037119254 0.042879164 0.73018587
0.032563806 0.014186263 0.73135459
0.037424155 0.014517203 0.73145503
0.027363669 0.015452519 0.73111951
0.023699641 0.016589701 0.73172367
0.02474409 0.013674378 0.73288327
0.029471317 0.013602197 0.7320534
0.042754475 0.015547067 0.73207086
0.021459661 0.016582251 0.73267388
0.04653674 0.016386181 0.73391819
0.04653674 0.016386181 0.73391819
0.022201441 0.033302158 0.73332345
0.021429591 0.01186882 0.73486722
0.030548854 0.011168391 0.7342844
0.053131297 0.025581747 0.7340377
0.017781865 0.026343495 0.73467642
0.030478852 0.0099387467 0.73564118
0.031357355 0.01056245 0.73505437
0.018536367 0.012578279 0.73550344
0.03972457 0.012579471 0.73551863
0.015560098 0.019533493 0.73553675
0.017913057 0.029191643 0.73584944
0.018585799 0.03053382 0.73592961
0.022360161 0.0086770952 0.73682082
0.024582442 0.0093014836 0.73607731
0.028572936 0.0093028247 0.73610061
0.037222795 0.011299759 0.73615038
0.015296335 0.023609713 0.73623854
0.023251615 0.037202597 0.73606324
0.026212547 0.0073933005 0.7379427
0.054418705 0.027545273 0.73787481
0.022587754 0.0067426115 0.73846054
0.029524866 0.006787315 0.73953831
0.029524866 0.006787315 0.73953831
0.010889046 0.015653044 0.73998237
0.010889046 0.015653044 0.73998237
0.010621819 0.018532347 0.73936737
0.015608126 0.029859066 0.73951125
0.016355418 0.0054518282 0.74020207
0.010458592 0.015232812 0.74034756
0.010938682 0.023586959 0.74073124
0.01295317 0.026588112 0.74026728
0.016344966 0.031327844 0.74009705
0.013768583 0.011703342 0.74188077
0.0075747017 0.013772219 0.74192429
0.0082383966 0.018536389 0.74142301
0.043510295 0.044425916 0.74153757
0.016544852 0.0096511543 0.74210763
0.016544852 0.0096511543 0.74210763
0.054652926 0.031823248 0.74269682
0.0097554456 0.0020904839 0.74390596
0.0097554456 0.0020904839 0.74390596
0.012496953 0.0020828247 0.74329221
0.012479499 0.0055464506 0.74305809
0.012479499 0.0055464506 0.74305809
0.013548675 0.0093795359 0.74342167
0.0066080573 0.011476979 0.74361229
0.004872778 0.01531446 0.74373543
0.0069554225 0.020518944 0.74359804
0.0028031224 0.011562958 0.74486274
0.046454083 0.041563861 0.74432641
0.046454083 0.041563861 0.74432641
0.022488838 0.004216671 0.74534452
0.023519579 0.0042124689 0.74517655
0.010543303 0.0073798597 0.74537122
0.0063190302 0.0091274977 0.74518478
0.0063840197 -0.0014186502 0.7469281
0.018450407 0.002838552 0.74699938
0.0099214036 0.0046065748 0.74676776
0.017651159 0.0042362809 0.74613398
0.0084896004 0.0063672364 0.74647689
0.023510687 0.00071242452 0.74767876
0.0035686349 0.0057098269 0.74798822
0.0046328623 0.0057021976 0.74775779
0.0014220553 0.0074653327 0.74733663
0.0078295423 0.025623977 0.74751735
0.048304237 0.039069623 0.7471745
0 -0.0092945695 0.7482875
0.0042896573 0.0050046146 0.74828184
-0.0064691375 -0.0025160313 0.74921131
-0.0064806379 0.00036081672 0.74951977
0.00035907916 0.0050293803 0.74913633
-0.010830035 0.006498009 0.74998611
-0.0036024293 0.0075652003 0.74961996
-0.0036024293 0.0075652003 0.74961996
0.0064938921 0.025254041 0.74987537
0.016641879 -0.0014471114 0.75036216
0.011598261 -0.00072488189 0.75068361
-0.012343289 0.0043564737 0.75096953
-0.0036197747 0.0043437481 0.75045753
0.0014511268 0.019590199 0.75084579
0.0043773833 -0.011673003 0.75181162
0.0021893536 -0.0087574124 0.75186491
-0.00072649482 -0.0050854683 0.75107074
-0.00073009427 -0.004380554 0.75193965
0.016789488 -0.0036498606 0.75191152
0.01456501 -0.002549395 0.75149453
0.01235098 -0.001453042 0.75107872
0.0025507631 0.00036398321 0.7516374
-0.0058153151 0.0054519624 0.75117195
-0.0036493521 0.013137668 0.75188565
0.015350622 -0.0036548972 0.75215399
0.00036599615 0.016461521 0.75230974
0.00036599615 0.016461521 0.75230974
-0.010334891 -0.017716974 0.75389814
-0.00073705718 -0.016215235 0.75362062
0.011441126 -0.0051670074 0.75388336
0 0.019904077 0.75365239
-0.012623153 -0.018563449 0.75494397
-0.0044552116 -0.007425338 0.75494319
-0.0026015979 -0.017838523 0.75512111
0.0044714366 -0.0081976354 0.75559604
0.0074545364 -0.006709069 0.75564778
-0.018589042 0.0037178099 0.75519103
-0.012693517 0.014186889 0.75594324
-0.0074950899 -0.018737704 0.75662678
-0.0067402883 -0.018723011 0.75648487
-0.012724197 -0.012724161 0.75637889
0.0097587304 -0.00900805 0.75690746
-0.017213944 -0.0086071491 0.75636685
-0.013494712 -0.0089964271 0.75667441
-0.015748112 -0.0059992671 0.7567237
-0.017619867 -0.0037490278 0.75669873
-0.011259781 -0.0015013218 0.75690281
-0.021005826 0.0045012534 0.75679553
-0.009735343 0.011233091 0.75647318
-0.01425894 0.013508469 0.75685894
-0.015455764 -0.018471479 0.75769401
-0.010535531 -0.011288047 0.75735807
0.0090616997 -0.010571957 0.75798661
-0.01841706 0.00037555397 0.75716281
-0.017390555 -0.021927208 0.75822067
-0.0053042509 -0.021974772 0.75861645
-0.011357533 -0.020443559 0.75847602
-0.014386585 -0.0060575008 0.75848085
-0.01661839 -0.0022661388 0.75804448
-0.018997777 -0.022797316 0.75913805
-0.0083743744 -0.022459179 0.75947499
-0.012566691 -0.0064738542 0.7595551
-0.012566691 -0.0064738542 0.7595551
-0.01065404 0.015220076 0.75940168
-0.012616628 -0.022558331 0.76028782
-0.016579978 0.012498438 0.76042289
-0.014511622 0.012220353 0.76006961
-0.0099501759 0.015307933 0.76046276
-0.02313881 -0.025452703 0.76188612
-0.015413897 -0.023891509 0.76174152
-0.017664235 -0.019200265 0.76109338
0.011559347 -0.014641821 0.76172423
0.012321061 -0.014631212 0.76158977
-0.028500034 -0.0023107827 0.76163918
-0.011630487 -0.026362419 0.76286918
-0.019294504 -0.020066261 0.76200354
0.01239794 -0.016272277 0.76274979
-0.026380686 -0.015518069 0.76299882
-0.026380686 -0.015518069 0.76299882
0.012400208 -0.011625201 0.762784
-0.026371971 -0.0054295361 0.76293689
-0.017778587 0.010048777 0.7622937
-0.020279156 -0.026518911 0.76398015
-0.012415993 -0.026383996 0.76302218
-0.015518188 -0.025604963 0.76300043
-0.022525316 -0.016311437 0.76319975
-0.022525316 -0.016311437 0.76319975
0.0093254903 -0.016319603 0.76329368
0.0093254903 -0.016319603 0.76329368
0.015529285 -0.015529275 0.76313436
-0.024486329 -0.013603851 0.76334834
-0.027628936 -0.0093395114 0.76357651
-0.027298866 -0.0070196986 0.76398015
-0.024475461 -0.0066049397 0.76326621
-0.021736434 0.008539319 0.76309496
-0.021740125 0.0093171895 0.76312685
-0.015623831 -0.027341694 0.76427567
-0.023412587 -0.024192989 0.76408935
-0.014829303 -0.014048785 0.76410621
0.01326171 -0.011701494 0.76401228
-0.021154569 -0.01018554 0.76483357
-0.021495681 -0.009379819 0.76438725
-0.032924779 -0.005487442 0.76493514
-0.016517058 -0.014550596 0.76556361
-0.018506281 -0.012599871 0.76579696
-0.021960357 -0.010195851 0.76502568
-0.033015653 -0.0047165155 0.76545751
-0.0078595886 0.017291129 0.76542664
-0.029349882 -0.029349893 0.76718444
0.007538151 -0.021424562 0.76724786
0.0047579417 -0.020617723 0.76712406
-0.03331852 -0.009519577 0.76719844
-0.036601346 -0.0079568028 0.76777381
-0.025424426 0.0047670901 0.76749182
-0.025424426 0.0047670901 0.76749182
-0.028678285 -0.032661378 0.76800013
-0.026339879 -0.031128913 0.76837659
-0.024820378 -0.023219049 0.76897514
0.0015947224 -0.021528751 0.76817936
0.0024077198 -0.023274601 0.76943767
-0.028969722 -0.015289575 0.76995462
-0.031297173 -0.013642341 0.76941788
-0.038539898 -0.01124078 0.76951998
-0.038539898 -0.01124078 0.76951998
-0.030574901 0.0016092062 0.76992756
-0.022559486 -0.033839196 0.77019155
-0.022559486 -0.033839196 0.77019155
-0.029837456 -0.028224617 0.77036577
-0.029923571 -0.027497321 0.77092767
-0.0044441535 -0.023431957 0.77074742
-0.034651194 -0.013699323 0.77022672
-0.029551035 0.0005375644 0.77025187
-0.026795613 -0.034915507 0.77171063
-0.032456473 -0.026776582 0.77157146
-0.030389301 -0.02512221 0.77132595
-0.035699788 -0.019472569 0.77155864
-0.035736337 -0.018680334 0.77175921
-0.030448627 -0.017457813 0.77170718
0.018688481 -0.011375576 0.77184445
-0.035780665 -0.036593854 0.77200246
-0.036640167 -0.035011709 0.77225077
-0.026472196 -0.035839021 0.77232277
-0.034981053 -0.025218904 0.77207869
-0.0057003824 -0.025244534 0.77227849
-0.03258935 -0.020368338 0.77237344
-0.031432971 -0.018778011 0.77278435
-0.034360774 -0.031906426 0.77318943
-0.0057374951 -0.027048171 0.7735585
-0.035989378 -0.026991993 0.77314758
-0.0032712687 -0.02698797 0.77311784
-0.028635463 -0.023726493 0.77319968
-0.037603837 -0.022889286 0.77303517
-0.037603837 -0.022889286 0.77303517
-0.03521305 -0.00081893802 0.77338123
-0.030471236 -0.037883133 0.77450109
-0.0024679499 -0.028792739 0.7742846
-0.0024679499 -0.028792739 0.7742846
-0.042869549 -0.026381254 0.77471054
-0.038667846 -0.026327014 0.77430153
-0.046099614 -0.015640944 0.77441919
-0.037224591 -0.031434089 0.77538627
-0.039674684 -0.028516173 0.77522755
-0.038826887 -0.028913617 0.77511847
-0.042588077 -0.025635913 0.77532637
-0.042588077 -0.025635913 0.77532637
-0.042401671 -0.022447944 0.7763983
-0.042907819 -0.03281185 0.77879429
-0.041494019 -0.036413103 0.78011894
-0.016540637 -0.033929154 0.78045982
-0.046652459 -0.031384379 0.78045934
-0.045916993 -0.0085031092 0.78096348
-0.044907767 -0.0076258779 0.78023958
-0.023060188 -0.036725461 0.78187269
-0.012808445 -0.036717504 0.78182817
-0.01714991 -0.036872298 0.78269708
-0.025032934 -0.040570647 0.78407538
-0.023357237 -0.038063645 0.78452879
-0.020869646 -0.040000141 0.78561175
-0.022728458 -0.041086048 0.78672302
0.039034307 0.030955778 0.72149897
0.033102527 0.027177077 0.72367609
0.036974929 0.021068713 0.72528809
0.032160018 0.037238188 0.72427595
0.037154537 0.01901347 0.72685939
0.027365293 0.033027612 0.72755659
0.044780567 0.01768893 0.72957373
0.025228247 0.019639835 0.72987366
0.048737198 0.019387847 0.72915018
0.02671825 0.034843531 0.72890282
0.036695614 0.041757107 0.72842252
0.02179959 0.028905101 0.73161876
0.023072159 0.0311449 0.73113793
0.034934364 0.044869289 0.73042786
0.027015343 0.011788592 0.73379153
0.044787299 0.015691623 0.73352468
0.023042805 0.0099466816 0.7357685
0.018401083 0.027109332 0.73433697
0.02300813 0.0073895007 0.73785949
0.015660398 0.0131611 0.73656601
0.013185872 0.020785114 0.73754996
0.017423898 0.030492455 0.73746783
0.019389456 0.03301397 0.7371031
0.025013294 0.0064216666 0.73888952
0.033335686 0.0084454864 0.73881263
0.03661285 0.0094922185 0.73936683
0.040989913 0.045053452 0.73924506
0.01371933 0.0061737001 0.74128628
0.01371933 0.0061737001 0.74128628
0.0075747017 0.013772219 0.74192429
0.053310659 0.029191554 0.74111235
0.025495922 0.004134506 0.74203765
0.013336482 0.0090446677 0.74366212
0.014922202 0.01069545 0.74227268
0.0089737754 0.0075659789 0.74559951
0.0053886836 0.019447207 0.74538177
0.006938755 -0.0023135021 0.74750268
0.024764016 0.0012422018 0.74711084
0.016866751 0.0030169189 0.74713504
0.016866751 0.0030169189 0.74713504
0.043974493 0.041846693 0.74691129
0.0030879432 -0.002944693 0.74909115
0.0010822362 0.0036080182 0.74988878
0.0010822362 0.0036080182 0.74988878
0.0030809836 -0.013051185 0.75070786
-0.0065547349 -0.011652827 0.7515074
-0.00072298787 -0.0065068603 0.75022399
-0.0064991014 -0.004332751 0.75001508
-0.0064991014 -0.004332751 0.75001508
0.017038275 -0.002911903 0.75134277
0.017038275 -0.002911903 0.75134277
0.012278735 2.9802322e-08 0.75005275
0.012278735 2.9802322e-08 0.75005275
-0.011036205 0.0047938079 0.75038409
0.0022044752 -0.016166121 0.75308174
-0.014805885 0.0052407533 0.75329447
-0.0055023422 0.011248331 0.75277555
0.00091676379 0.015026566 0.75264305
0.0081784092 -0.014126331 0.7551741
-0.0071701705 -0.010629913 0.75473201
-0.0067044515 -0.0096842051 0.7555235
0.0033452488 -0.0070599541 0.75510615
0.0070416545 -0.0051901592 0.75463068
-0.011221321 0.00095996138 0.75529075
-0.018996084 0.0033517182 0.75552315
-0.013526642 -0.01653257 0.75710267
-0.0091421213 -0.011145547 0.75709146
0.014342704 -0.0083036423 0.75792325
-0.018767845 -0.0063811243 0.75691766
-0.010959456 -0.0011244938 0.75658822
-0.012775879 0.011272848 0.75711286
-0.014266401 0.013139933 0.75695372
-0.014539113 0.014538407 0.75722635
-0.012324885 -0.020857692 0.75877953
-0.019251149 -0.024901599 0.76065135
-0.01844627 -0.01998347 0.76123452
0.011244878 -0.011244009 0.76076168
-0.024871921 -0.0029952766 0.76100647
-0.024871921 -0.0029952766 0.76100647
-0.016866483 -0.025203299 0.7628926
-0.016866483 -0.025203299 0.7628926
-0.02319162 -0.015288904 0.76336575
-0.02083436 -0.0085671693 0.76370656
-0.019207336 -0.00908498 0.76366901
-0.028954286 -0.0069953632 0.76334172
-0.022545975 0.0089414567 0.76337171
-0.019040015 0.008936584 0.76329678
-0.0077889757 0.015577942 0.76372182
-0.025843816 -0.026626945 0.7647475
-0.020793941 -0.027463838 0.76511812
-0.020793941 -0.027463838 0.76511812
-0.023151679 -0.023151666 0.76513934
0.0068370113 -0.017191179 0.76433021
0.011125064 -0.01795686 0.7641651
0.014898398 -0.012937084 0.76496595
-0.020931982 -0.013033405 0.76637542
-0.031584315 -0.031183466 0.76872683
-0.025183126 -0.031178996 0.76868647
0.0032182916 -0.024137139 0.76992041
-0.030971039 -0.014479846 0.76988763
-0.03455399 -0.033202939 0.77119935
-0.03137397 -0.023260087 0.77156925
-0.040900066 -0.012959844 0.77120578
-0.036813296 -0.013313744 0.77047282
-0.032521322 -0.00094064575 0.77033854
-0.027100811 -0.035862073 0.7724492
-0.031731982 -0.028884172 0.77210951
-0.037223119 -0.024951637 0.77318096
-0.037406705 -0.015450597 0.77200061
-0.0070355819 -0.029383972 0.77550316
-0.040863603 -0.018988263 0.77497858
-0.0071216184 -0.032675281 0.77794904
-0.045118529 -0.019791445 0.77615762
-0.042522296 -0.034919165 0.77963471
-0.014819436 -0.03387256 0.78011853
-0.043459002 -0.010225654 0.78140348
-0.025773587 -0.0403786 0.7830891
-0.026591811 -0.039458811 0.78277063
-0.016393475 -0.038826644 0.78398114
-0.018722294 -0.04092741 0.78590798
-0.020722469 -0.037991166 0.78413129
0.031907562 0.030066136 0.72381723
0.041487016 0.029423926 0.72242594
0.029833879 0.026017314 0.72574508
0.037827648 0.015488314 0.73040569
0.026075099 0.010880757 0.73466635
0.018131657 0.017792067 0.73409766
0.018131657 0.017792067 0.73409766
0.015927643 0.024555117 0.73589909
0.011224415 0.015646383 0.73991257
0.054233655 0.026991958 0.73807687
0.014181367 0.0032188836 0.74226046
0.016700709 0.010027339 0.74166548
0.040469464 0.010974765 0.74127585
0.011090793 0.025751444 0.74219251
0.012518729 0.02636447 0.74072278
0.0024922895 0.0067613898 0.74755156
0.0023391701 0.01324854 0.74554509
-0.0019543127 -0.006002035 0.74998009
0.0043162648 -0.0043162405 0.7493524
0.014377949 -0.001538054 0.75080293
-0.010155164 -0.011827324 0.755548
-0.016723812 -0.0063720569 0.75578809
-0.010105859 0.0096899802 0.75433409
-0.0062103663 0.009971777 0.75290334
-0.009664977 -0.021339541 0.75888669
-0.011956243 2.9802322e-08 0.7560851
-0.026320809 -0.0024403157 0.76109219
-0.02235364 0.0065990007 0.76332712
-0.029170774 -0.030300159 0.76675719
0.0017612058 -0.020926591 0.76670951
0.0017612058 -0.020926591 0.76670951
-0.017913781 -0.013992289 0.7659874
0.016476143 -0.014906943 0.76509321
-0.0072810533 0.017462738 0.76632011
-0.025973139 -0.033522189 0.7705338
-0.040682457 -0.010321625 0.77113211
-0.03822137 -0.018210554 0.77325433
-0.030370316 -0.018753095 0.77251232
-0.047342528 -0.014950275 0.77619684
-0.047180757 -0.030133346 0.78060204
-0.035326384 -0.042278856 0.78540421
-0.022111237 -0.041117117 0.78661984
-0.017931014 -0.039468959 0.78471398
