# .PCD v0.7 - Point Cloud Data file format
VERSION 0.7
FIELDS x y z
SIZE 4 4 4
TYPE F F F
COUNT 1 1 1
WIDTH 1337
HEIGHT 1
VIEWPOINT 0 0 0 1 0 0 0
POINTS 1337
DATA ascii
-0.046710987 0.037368834 0.7731719
-0.046554316 0.034915745 0.77222621
-0.046427533 0.032499284 0.77146101
-0.0462473 0.030060738 0.77037328
-0.045839291 0.02750358 0.76791072
-0.045526482 0.025039583 0.76602274
-0.045377221 0.022688657 0.76512182
-0.045412231 0.020435512 0.76533318
-0.04620865 0.01848346 0.77013993
-0.046469137 0.01626417 0.77171218
-0.046663508 0.013999075 0.77288526
-0.046952285 0.011738092 0.77462828
-0.047392335 0.0094785094 0.77728415
-0.04819971 0.007229954 0.78215712
-0.048531655 0.068966091 0.79957712
-0.048232988 0.066003054 0.7976796
-0.047817163 0.062917322 0.79503781
-0.047063921 0.059449166 0.79025233
-0.046474013 0.056258023 0.78650451
-0.045984637 0.053245425 0.78339541
-0.045568049 0.050364703 0.78074878
-0.045214362 0.0475941 0.77850175
-0.044907238 0.044907242 0.77655047
-0.044639651 0.042290211 0.77485043
-0.044407364 0.039732933 0.77337468
-0.044207267 0.037227154 0.77210343
-0.044036891 0.034765989 0.77102101
-0.043894973 0.032343686 0.77011937
-0.043782171 0.029956251 0.76940274
-0.043577667 0.027522743 0.76810348
-0.043168068 0.024992049 0.7655012
-0.042917646 0.022588253 0.76391023
-0.042808842 0.020277858 0.763219
-0.04287371 0.018052131 0.76363111
-0.043703273 0.016101241 0.76890147
-0.043872081 0.013854355 0.76997393
-0.044071395 0.011597753 0.77124023
-0.044358257 0.0093385875 0.77306271
-0.044806913 0.0070748329 0.77591306
-0.045687839 0.0048092604 0.78150982
-0.046100441 0.069150686 0.80040252
-0.045555037 0.065801769 0.79674494
-0.045315746 0.062938571 0.79514021
-0.044765715 0.059687644 0.79145163
-0.044110816 0.056363821 0.78705984
-0.043588638 0.053275019 0.78355795
-0.043153603 0.050345898 0.7806406
-0.042785618 0.047539592 0.77817285
-0.042466268 0.044825494 0.77603126
-0.042189162 0.042189181 0.7741729
-0.041947864 0.039617479 0.7725547
-0.041738883 0.037101269 0.77115321
-0.04155919 0.034632653 0.76994824
-0.041406911 0.032205373 0.76892698
-0.041280702 0.029813826 0.76808065
-0.041170496 0.027446985 0.76734161
-0.040928397 0.025011808 0.76571804
-0.040563233 0.022535175 0.76326925
-0.040348623 0.020174354 0.76182997
-0.04028311 0.017903626 0.76139063
-0.040400747 0.015711397 0.76217949
-0.041165981 0.013722032 0.76731133
-0.041312132 0.011475623 0.76829147
-0.04150939 0.0092243254 0.76961422
-0.041798934 0.0069665313 0.77155596
-0.042251308 0.0046946108 0.77458966
-0.043251418 0.0024028718 0.78129649
-0.043014631 0.065787077 0.79667705
-0.042657193 0.062731177 0.79413897
-0.042413861 0.059878409 0.79241121
-0.041790802 0.056540519 0.78798705
-0.041226704 0.053352237 0.78398162
-0.040767509 0.050359845 0.78072107
-0.040383317 0.047509789 0.77799296
-0.040052261 0.04476428 0.7756424
-0.039765038 0.042104185 0.77360284
-0.039516017 0.039516032 0.77183461
-0.039299488 0.036987782 0.77029717
-0.03911192 0.034510523 0.76896536
-0.038951442 0.03207767 0.76782584
-0.038815822 0.029682696 0.76686287
-0.038704373 0.027320772 0.7660715
-0.038593568 0.02497232 0.76528472
-0.038316622 0.022539228 0.76331818
-0.038000461 0.020117909 0.76107323
-0.037832964 0.017803729 0.75988394
-0.037791111 0.015561074 0.75958669
-0.037954848 0.013395846 0.7607494
-0.038649328 0.01136744 0.76568067
-0.038785025 0.0091258883 0.76664412
-0.038976789 0.0068782866 0.76800573
-0.039266832 0.0046195984 0.77006531
-0.039723441 0.0023367107 0.77330744
-0.042590767 2.9802322e-08 0.79366726
-0.040068574 0.062607169 0.79354018
-0.039820049 0.059730083 0.7916652
-0.039515398 0.056803405 0.78936678
-0.0389021 0.0534904 0.78473985
-0.038410101 0.050413281 0.78102791
-0.038007103 0.047508895 0.7779876
-0.037663437 0.044725329 0.77539486
-0.037366699 0.042037576 0.77315611
-0.037110172 0.039429575 0.77122074
-0.036887206 0.036887228 0.76953858
-0.036693115 0.034399778 0.76807427
-0.036525872 0.03196016 0.76681256
-0.036382951 0.029561132 0.7657342
-0.036262974 0.027197242 0.7648291
-0.036165174 0.024863571 0.76409131
-0.036043547 0.022527218 0.76317364
-0.035749968 0.020109385 0.76095879
-0.035482503 0.017741293 0.75894094
-0.035354953 0.015467793 0.75797868
-0.035341688 0.013253152 0.75787854
-0.035592616 0.011122674 0.7597717
-0.036155377 0.0090388954 0.76401734
-0.036287792 0.0068039894 0.76501638
-0.036480598 0.0045600832 0.76647103
-0.036764562 0.0022978187 0.76861328
-0.037235484 -2.9802322e-08 0.77216619
-0.039866649 -0.002491653 0.79201674
-0.037677813 0.062796354 0.79445374
-0.037225939 0.059561521 0.79081732
-0.037031978 0.056782395 0.78925645
-0.036621802 0.053711981 0.78595561
-0.036082007 0.050514787 0.78161168
-0.035656713 0.047542334 0.77818918
-0.035298184 0.044711053 0.77530396
-0.034995835 0.041995049 0.77287084
-0.034734111 0.039365351 0.77076465
-0.034506071 0.036806494 0.76892954
-0.034307025 0.034307033 0.76732773
-0.034133371 0.031857818 0.76593029
-0.033983145 0.029452115 0.76472133
-0.033854689 0.027083755 0.76368761
-0.033747524 0.024748206 0.76282519
-0.033662308 0.022441536 0.7621395
-0.033523977 0.020114362 0.76102626
-0.033227589 0.017721415 0.75864106
-0.033015795 0.015407383 0.75693673
-0.03291199 0.013164848 0.75610131
-0.032932639 0.010977566 0.75626755
-0.033454642 0.0089212358 0.76046824
-0.033691321 0.0067382157 0.76237297
-0.033819906 0.0045093596 0.76340771
-0.034012869 0.0022675693 0.76496053
-0.034296677 -0 0.7672444
-0.034767743 -0.002317816 0.77103525
-0.037172101 -0.0049562752 0.79038405
-0.034742314 0.059558272 0.79080099
-0.03444862 0.056594193 0.78826869
-0.034263439 0.053842545 0.78667206
-0.033787481 0.050681233 0.78256822
-0.033332493 0.047617853 0.77864516
-0.032957524 0.04472813 0.7754122
-0.032647405 0.04197523 0.77273828
-0.032379992 0.039318562 0.77043259
-0.032147143 0.036739588 0.76842487
-0.031944398 0.034226179 0.76667678
-0.031767514 0.031767547 0.76515162
-0.03161354 0.029355437 0.76382411
-0.031480558 0.026983351 0.76267755
-0.031367224 0.024645686 0.76170033
-0.031272702 0.022337675 0.76088536
-0.031194575 0.020053655 0.76021171
-0.031037701 0.017735839 0.75885916
-0.030756023 0.015378028 0.75643045
-0.030585611 0.013108134 0.75496107
-0.030510608 0.010896683 0.75431442
-0.030552529 0.0087293088 0.75467587
-0.03112057 0.0066687167 0.75957364
-0.031256933 0.0044652522 0.7607494
-0.031385355 0.0022417903 0.76185668
-0.031572219 -0 0.76346779
-0.031852886 -0.0022751987 0.7658878
-0.032345455 -0.0046207607 0.77013481
-0.034556359 -0.0074049532 0.78919768
-0.031934138 0.056498855 0.78776848
-0.031731773 0.05369994 0.78588951
-0.031515304 0.05090937 0.78387952
-0.031035924 0.047747612 0.77942818
-0.03064003 0.044781595 0.77575219
-0.030319544 0.041980922 0.77277637
-0.030045748 0.039290607 0.77023405
-0.029808918 0.03668794 0.76803493
-0.029603122 0.034157455 0.76612401
-0.02942395 0.031687349 0.76446033
-0.029267725 0.029267728 0.76300973
-0.029131927 0.026890993 0.76174879
-0.029015103 0.024551243 0.76066405
-0.028915785 0.022242963 0.75974178
-0.028833495 0.019961685 0.75897771
-0.028756632 0.017696381 0.75826401
-0.028577985 0.015388191 0.75660515
-0.028334243 0.013077348 0.7543419
-0.028191302 0.01084283 0.75301468
-0.028146898 0.0086605847 0.7526024
-0.028217964 0.006511867 0.75326228
-0.028752057 0.0044234395 0.75822151
-0.028851403 0.0022193491 0.75914395
-0.028979942 -0 0.76033753
-0.029160528 -0.0022431016 0.76201439
-0.029436998 -0.0045287609 0.76458144
-0.029946294 -0.0069106817 0.76931053
-0.029587919 0.056710154 0.78887761
-0.029213911 0.053558856 0.78511542
-0.029060921 0.05085665 0.78357637
-0.028770583 0.047951013 0.78065586
-0.028343987 0.044877976 0.77636462
-0.028011033 0.042016566 0.77301538
-0.027730182 0.039284438 0.77019018
-0.027489848 0.036653101 0.76777267
-0.027282624 0.034103274 0.76568812
-0.027102701 0.031619817 0.76387823
-0.026944829 0.029190212 0.76229018
-0.026806727 0.026806802 0.76090097
-0.026687935 0.024463981 0.75970602
-0.026585955 0.022154957 0.75868011
-0.026499715 0.019874811 0.75781262
-0.026428679 0.017619163 0.75709808
-0.026350966 0.015371412 0.75631636
-0.026155256 0.013077676 0.75434762
-0.025950421 0.01081267 0.75228715
-0.025842194 0.0086140931 0.75119853
-0.025813865 0.0064534843 0.7509135
-0.025914246 0.004319042 0.75192332
-0.026391855 0.002199322 0.7567277
-0.026478911 2.9802322e-08 0.75760341
-0.026601385 -0.0022167563 0.75883538
-0.026779111 -0.004463166 0.76062322
-0.027051538 -0.0067628622 0.7633636
-0.027589386 -0.0091964602 0.76877391
-0.026782285 0.053564578 0.78514683
-0.026552301 0.05069077 0.78262305
-0.026417844 0.048032433 0.7811476
-0.026075415 0.045039356 0.77738982
-0.025720939 0.042088836 0.77349991
-0.025432136 0.039304227 0.77033073
-0.025190031 0.036640078 0.76767391
-0.024983643 0.034068614 0.76540905
-0.024803501 0.03156811 0.76343226
-0.02464623 0.029127389 0.76170635
-0.024508279 0.026736319 0.76019251
-0.02438763 0.024387687 0.75886858
-0.024282724 0.022075206 0.75771737
-0.024192639 0.019793987 0.75672877
-0.024118006 0.017540425 0.7559098
-0.02405739 0.015309215 0.75524467
-0.02397095 0.013075083 0.75429606
-0.023774633 0.01080665 0.75214177
-0.023607699 0.0085846186 0.75030988
-0.023526164 0.0064162612 0.74941516
-0.023514906 0.0042754412 0.74929166
-0.023657521 0.0021506846 0.75085664
-0.024051189 -0 0.75517654
-0.02413366 -0.0021939576 0.75608158
-0.024249235 -0.0044089258 0.75734991
-0.02442204 -0.006660521 0.75924623
-0.02468702 -0.0089770854 0.76215404
-0.025290152 -0.011495531 0.76877266
-0.024105662 0.050621867 0.78222722
-0.023948748 0.047897518 0.7803331
-0.023798505 0.045217186 0.77851945
-0.0234493 0.042208731 0.77430421
-0.023150396 0.039355695 0.77069616
-0.022906424 0.03665027 0.76775116
-0.022699831 0.034049749 0.76525736
-0.02252093 0.031529307 0.76309776
-0.022364801 0.029074252 0.76121318
-0.022228485 0.026674211 0.75956768
-0.022109147 0.024320066 0.75812715
-0.022004915 0.022004902 0.75686896
-0.021914419 0.019722968 0.75577658
-0.02183695 0.017469585 0.75484139
-0.021771673 0.015240192 0.75405341
-0.02171894 0.013031393 0.7534169
-0.021625072 0.010812551 0.75228381
-0.021433596 0.0085734427 0.74997252
-0.021306004 0.0063918233 0.7484324
-0.021241605 0.0042483211 0.74765497
-0.02125225 0.0021252632 0.74778354
-0.021481816 2.9802322e-08 0.75055456
-0.021737149 -0.0021736622 0.75363672
-0.021814957 -0.0043629706 0.75457597
-0.021927286 -0.0065781474 0.75593185
-0.022089042 -0.0088356137 0.75788438
-0.022351913 -0.011175931 0.76105756
-0.023940383 -0.014364213 0.78023213
-0.021791155 0.05084601 0.78351557
-0.021501182 0.047780395 0.77962637
-0.021388136 0.045152754 0.77811015
-0.021196853 0.042393714 0.77554458
-0.020883959 0.039447546 0.771348
-0.020636093 0.03668642 0.76802355
-0.020429755 0.03404963 0.76525605
-0.020252794 0.031504363 0.76288259
-0.020099303 0.02903235 0.76082397
-0.019965546 0.026620746 0.75902998
-0.019848768 0.024259597 0.75746369
-0.019746587 0.021940678 0.75609314
-0.019657457 0.019657493 0.75489771
-0.019580362 0.017404824 0.75386369
-0.019514518 0.015177995 0.75298065
-0.019459452 0.012972951 0.75224209
-0.019411054 0.010783911 0.75159299
-0.019307109 0.0085809529 0.75019884
-0.019138649 0.0063795745 0.74793935
-0.019037353 0.0042305291 0.74658078
-0.01899207 0.0021102428 0.74597335
-0.019015728 -0 0.74629074
-0.019353077 -0.002150327 0.75081533
-0.019449955 -0.004322201 0.75211465
-0.019522469 -0.0065074563 0.75308728
-0.01963038 -0.0087245703 0.75453466
-0.019785715 -0.01099205 0.75661802
-0.020038933 -0.013359278 0.7600143
-0.021433946 -0.016670823 0.77872455
-0.019119648 0.04779914 0.77973932
-0.018950474 0.045007378 0.77718669
-0.018859934 0.042434871 0.77582049
-0.018632647 0.039594412 0.77239102
-0.018377131 0.03675428 0.76853561
-0.018171571 0.034071684 0.76543397
-0.017997302 0.031495303 0.76280451
-0.01784876 0.029004246 0.76056314
-0.017719813 0.026579738 0.7586174
-0.017606718 0.024209261 0.75691098
-0.017507227 0.021884054 0.75540972
-0.017419839 0.019597352 0.7540912
-0.017344659 0.017344624 0.75295687
-0.017279819 0.015119851 0.7519784
-0.017224645 0.012918472 0.75114596
-0.017178888 0.010736823 0.75045556
-0.017132787 0.0085664093 0.74975991
-0.017020307 0.0063826144 0.74806273
-0.016882408 0.0042206347 0.74598199
-0.016801132 0.0021001399 0.74475563
-0.016775502 -0 0.74436891
-0.016811505 -0.0021014214 0.74491215
-0.017128093 -0.0042819977 0.7496891
-0.017189143 -0.0064459145 0.75061023
-0.017258659 -0.0086292922 0.75165915
-0.017357672 -0.010848552 0.75315315
-0.017504241 -0.013128161 0.75536472
-0.017749591 -0.015530884 0.75906676
-0.018953525 -0.018953502 0.77723265
-0.01656441 0.044960558 0.77688915
-0.016453758 0.042309701 0.77498102
-0.016359309 0.039729744 0.77335227
-0.016127823 0.036863625 0.76936048
-0.015923038 0.034120798 0.76582909
-0.015753306 0.031506598 0.76290214
-0.0156114 0.028992623 0.76045501
-0.015488312 0.026551396 0.75833249
-0.015380645 0.024169594 0.75647593
-0.015286265 0.021837533 0.75484836
-0.015203257 0.019547045 0.7534169
-0.015130422 0.017291903 0.75216091
-0.015066832 0.015066832 0.75106436
-0.015012071 0.01286751 0.75011998
-0.014966653 0.01069051 0.74933678
-0.014929333 0.0085310638 0.74869323
-0.01488258 0.0063782334 0.74788707
-0.014770302 0.0042200983 0.74595088
-0.014660378 0.0020943582 0.74405527
-0.014602558 2.9802322e-08 0.7430582
-0.014586684 -0.0020837784 0.7427845
-0.01463728 -0.0041820705 0.74365699
-0.014907601 -0.0063889623 0.74831849
-0.014955151 -0.0085457861 0.74913847
-0.015019796 -0.010728419 0.7502532
-0.015109535 -0.012951046 0.75180078
-0.015244216 -0.015244216 0.75412321
-0.01548304 -0.017694861 0.75824153
-0.016524788 -0.021246135 0.7762059
-0.014270347 0.04518947 0.77834332
-0.014071294 0.042213887 0.77433872
-0.013996311 0.039656252 0.77283013
-0.013885291 0.037027448 0.77059656
-0.013681971 0.03420493 0.76650608
-0.013517973 0.031541973 0.76320672
-0.013383109 0.028996766 0.76049346
-0.013267247 0.026534498 0.7581625
-0.013166643 0.024138868 0.75613844
-0.013078653 0.021797746 0.75436831
-0.013001565 0.019502372 0.75281739
-0.01293379 0.017245054 0.75145388
-0.012874441 0.015020221 0.75025988
-0.012822698 0.012822717 0.74921882
-0.012778052 0.0106484 0.7483207
-0.012740257 0.0084935129 0.74756026
-0.012710161 0.0063551068 0.74695474
-0.012661593 0.0042205155 0.74597776
-0.012557471 0.0020929575 0.74388295
-0.012474715 -0 0.74221802
-0.012433229 -0.0020721853 0.74138337
-0.012426128 -0.0041420162 0.7412405
-0.012489506 -0.006244719 0.74251556
-0.012706933 -0.0084712803 0.74688989
-0.012747724 -0.010623038 0.74771047
-0.012804923 -0.012804925 0.74886125
-0.012886986 -0.015034825 0.75051224
-0.013010185 -0.017346859 0.75299084
-0.013239339 -0.019858986 0.75760102
-0.011734934 0.042245775 0.77455246
-0.011627111 0.039532214 0.77194941
-0.011573752 0.037036031 0.77066123
-0.011445509 0.034336537 0.76756519
-0.011287188 0.031604141 0.76374292
-0.011161348 0.029019505 0.76070487
-0.011054525 0.026530892 0.75812596
-0.010962682 0.024117917 0.75590867
-0.010882805 0.02176562 0.75398028
-0.010812957 0.019463331 0.75229394
-0.010751802 0.017202884 0.7508176
-0.010698101 0.014977366 0.74952108
-0.010651052 0.012781292 0.74838525
-0.010610173 0.010610193 0.74739832
-0.0105751 0.0084600747 0.74655157
-0.010545501 0.0063273311 0.74583709
-0.010520579 0.0042082071 0.74523538
-0.010471524 0.0020943284 0.7440511
-0.010380283 2.9802322e-08 0.74184835
-0.010322548 -0.0020644963 0.74045455
-0.010292566 -0.0041169822 0.73973066
-0.010296421 -0.0061778128 0.7398237
-0.010374472 -0.0082995594 0.74170804
-0.010529301 -0.01052928 0.74544591
-0.010564606 -0.012677521 0.74629825
-0.010613728 -0.0148592 0.74748415
-0.010686266 -0.01709801 0.74923539
-0.010795506 -0.019431919 0.75187266
-0.011014907 -0.022029817 0.75716949
-0.0092948209 0.039503008 0.77174211
-0.0092312861 0.036925167 0.7698248
-0.0091822846 0.034433573 0.76834607
-0.0090577016 0.031701982 0.76458645
-0.0089431219 0.029065162 0.76112872
-0.0088476855 0.026543051 0.75824863
-0.0087671494 0.024109691 0.75581825
-0.0086979959 0.021744996 0.75373131
-0.0086373361 0.019434005 0.75190079
-0.008584029 0.017168045 0.75029212
-0.0085369423 0.014939666 0.74887121
-0.0084954156 0.012743175 0.74761796
-0.0084596509 0.010574579 0.74653864
-0.008428691 0.0084287226 0.7456044
-0.0084022237 0.0063017011 0.74480569
-0.0083800601 0.0041900277 0.74413681
-0.0083591305 0.0020897985 0.74350512
-0.0083116414 2.9802322e-08 0.74207205
-0.0082421573 -0.0020605326 0.73997527
-0.0082004508 -0.0041002035 0.7387166
-0.008181545 -0.0061361492 0.73814607
-0.0081907194 -0.0081906915 0.73842293
-0.0083265798 -0.010408223 0.7425229
-0.0083760973 -0.012564123 0.74401718
-0.0084053995 -0.014709413 0.74490148
-0.0084474394 -0.016894847 0.7461701
-0.0085071512 -0.019141078 0.74797213
-0.0086006653 -0.021501631 0.75079417
-0.0088209743 -0.02425766 0.75744259
-0.0070111318 0.039729744 0.77335227
-0.0069089648 0.03684783 0.76924145
-0.0068716127 0.034358084 0.76773846
-0.0068232603 0.031841904 0.76579291
-0.0067247404 0.029140592 0.76182878
-0.0066436059 0.026574463 0.75856417
-0.0065772347 0.024116516 0.75589359
-0.0065203235 0.021734416 0.7536037
-0.0064708255 0.019412518 0.75161201
-0.0064274087 0.017139763 0.74986506
-0.006389244 0.014908254 0.74832946
-0.0063555911 0.012711167 0.74697542
-0.0063259145 0.010543197 0.74578124
-0.0062998957 0.0083998442 0.74473429
-0.0062775542 0.0062775314 0.74383545
-0.0062588654 0.0041726232 0.74308342
-0.0062433239 0.002081126 0.74245805
-0.0062259738 2.9802322e-08 0.74175996
-0.0061834259 -0.0020611286 0.74004793
-0.0061359331 -0.0040906072 0.73813701
-0.0061078449 -0.0061078072 0.73700678
-0.0060986876 -0.0081315637 0.73663843
-0.0061096344 -0.010182709 0.73707885
-0.0062225931 -0.012445152 0.74162394
-0.0062469617 -0.014576256 0.74260443
-0.0062698186 -0.01671952 0.74352413
-0.0063033877 -0.01891014 0.74487484
-0.006350751 -0.021169156 0.74678063
-0.0064265002 -0.023563832 0.74982858
-0.0068766181 -0.027506441 0.76793987
-0.0046110707 0.036888599 0.76954883
-0.0045677973 0.034258515 0.76693702
-0.0045470004 0.031829029 0.76568186
-0.0045009241 0.029256046 0.76290095
-0.0044383816 0.026630312 0.75912613
-0.0043888614 0.024138719 0.75613737
-0.0043469388 0.021734744 0.75360709
-0.0043108175 0.019398689 0.75142694
-0.0042793318 0.017117351 0.74952662
-0.0042517325 0.014881074 0.74786085
-0.0042274846 0.012682468 0.74639738
-0.0042061089 0.010515332 0.74510723
-0.0041872947 0.0083746016 0.74397177
-0.0041708206 0.0062562823 0.74297738
-0.0041565457 0.0041565299 0.74211586
-0.0041444269 0.0020722449 0.74138433
-0.0041347858 -0 0.74080253
-0.0041209091 -0.0020604432 0.73996502
-0.0040895687 -0.0040895641 0.73807341
-0.0040606284 -0.006090939 0.73632669
-0.0040454604 -0.0080909133 0.73541123
-0.0040410985 -0.010102719 0.73514801
-0.0040535554 -0.012160629 0.73589981
-0.0041283723 -0.014449298 0.74041545
-0.0041414937 -0.016565979 0.74120736
-0.0041579963 -0.018710971 0.74220341
-0.0041809971 -0.020904958 0.74359167
-0.0042145764 -0.023180127 0.74561828
-0.0042684348 -0.025610596 0.748869
-0.004561509 -0.029649764 0.76655757
-0.0022825857 0.034238815 0.76677859
-0.0022666205 0.031732708 0.76485139
-0.0022552905 0.02931878 0.76348376
-0.0022266074 0.026719302 0.76002139
-0.002198152 0.024179697 0.75658655
-0.0021747637 0.021747649 0.75376332
-0.0021548425 0.019393593 0.75135857
-0.0021376731 0.017101377 0.74928606
-0.0021227277 0.01485911 0.74748206
-0.002109536 0.012657225 0.7458896
-0.0020979755 0.010489881 0.74449414
-0.0020878031 0.0083512068 0.74326628
-0.0020788598 0.006236583 0.74218673
-0.0020710556 0.0041421056 0.74124467
-0.0020643054 0.0020643175 0.74042976
-0.0020585726 -0 0.73973781
-0.0020538575 -0.0020538568 0.7391687
-0.0020455867 -0.0040911734 0.73817027
-0.0020286923 -0.0060860515 0.73613095
-0.0020161446 -0.008064568 0.73461628
-0.0020096826 -0.010048389 0.73383623
-0.0020083596 -0.012050152 0.73367661
-0.0020171038 -0.014119744 0.73473209
-0.0020533097 -0.016426474 0.73910248
-0.0020595216 -0.018535703 0.73985237
-0.0020681706 -0.020681649 0.7408964
-0.0020800352 -0.022880375 0.74232858
-0.0020977377 -0.02517283 0.74446547
-0.0021276833 -0.027659863 0.74808013
-0.0022698594 -0.031778008 0.7652424
0 0.034456521 0.76853055
0 0.031671733 0.76432574
0 0.029248655 0.76283246
0 0.026827365 0.76110816
0 0.024245322 0.75730658
0 0.02177614 0.75410718
0 0.019400299 0.75144827
0 0.017095625 0.74919897
0 0.014845043 0.74723876
0 0.012638569 0.74551439
0 0.010469168 0.743994
0 0.0083307028 0.74264735
0 0.0062184632 0.74145591
0 0.0041285753 0.74042773
0 0.0020568967 0.73953557
0 -0 0.73876631
0 -0.0020451248 0.73811781
0 -0.0040807724 0.73754299
0 -0.0060907602 0.73631972
0 -0.0080522299 0.73424423
0 -0.010011971 0.73295766
0 -0.011980802 0.73228145
0 -0.013981223 0.73234397
0 -0.016083926 0.73393476
0 -0.018378913 0.73775005
0 -0.020485252 0.73852515
0 -0.022632003 0.73960292
0 -0.024841458 0.7411319
0 -0.02715376 0.7433809
0 -0.029699504 0.74732125
0 -0.033930898 0.76430094
0.0022655225 0.03171733 0.76471889
0.0022438318 0.029169858 0.76210058
0.0022335949 0.026803166 0.76086485
0.0022131151 0.024344265 0.75839275
0.0021824662 0.021824658 0.75469309
0.0021578441 0.019420624 0.75172096
0.0021372715 0.017098218 0.74923754
0.0021195086 0.01483658 0.74709344
0.0021040097 0.012624055 0.74522257
0.0020903763 0.010451913 0.74357688
0.0020783592 0.0083135068 0.74212623
0.0020677177 0.0062031746 0.74084175
0.0020583102 0.0041166246 0.7397061
0.0020500203 0.0020500124 0.73870546
0.0020429224 2.9802322e-08 0.7378487
0.0020369345 -0.0020369291 0.73712587
0.0020319053 -0.0040637553 0.73651874
0.0020267777 -0.0060802996 0.73589981
0.0020145699 -0.00805825 0.73442614
0.001998533 -0.0099926591 0.73249036
0.0019888494 -0.011933059 0.73132151
0.0019844086 -0.013890833 0.73078543
0.0019864016 -0.015891224 0.73102605
0.0020131839 -0.01811865 0.73425889
0.0020309817 -0.020309806 0.73640728
0.0020376563 -0.022414207 0.73721302
0.0020468505 -0.02456221 0.73832285
0.0020603018 -0.026783913 0.73994654
0.0020801562 -0.029122144 0.74234319
0.0021173917 -0.031760842 0.74683791
0.0044857925 0.029157668 0.76198763
0.0044537303 0.026722401 0.76005256
0.0044327588 0.024380177 0.7587868
0.0043800636 0.021900326 0.75560635
0.0043235379 0.01945594 0.7521947
0.0042776493 0.017110646 0.74942505
0.0042385142 0.014834821 0.74706304
0.0042046951 0.012614101 0.74502188
0.0041751359 0.010437846 0.74323785
0.0041491352 0.0082983077 0.74166852
0.0041262107 0.0061893463 0.74028498
0.0041059456 0.0041059256 0.73906183
0.0040880484 0.0020440519 0.73798168
0.0040722941 -0 0.73703086
0.004058586 -0.0020292699 0.73620343
0.0040470306 -0.0040470064 0.73550606
0.0040376582 -0.0060564876 0.73494035
0.0040258653 -0.0080516934 0.73422855
0.0039976249 -0.0099940598 0.7325241
0.0039684079 -0.011905223 0.73076075
0.0039511258 -0.013828933 0.72971767
0.0039452841 -0.015781105 0.72936505
0.003951204 -0.017780393 0.72972232
0.0040218369 -0.020109177 0.73398536
0.0040399404 -0.022219658 0.7350781
0.0040537855 -0.024322689 0.73591369
0.0040734876 -0.026477635 0.73710287
0.0041011497 -0.028708011 0.73877239
0.00414326 -0.031074464 0.74131405
0.0042309165 -0.033847302 0.74660456
0.0066688415 0.026675403 0.7595796
0.0066321585 0.02431792 0.75810355
0.0065934421 0.02197817 0.75654572
0.006503684 0.019511044 0.75293416
0.0064257025 0.017135233 0.74979639
0.0063604116 0.01484099 0.74716926
0.0063049765 0.012609959 0.74493879
0.006257013 0.010428369 0.74300885
0.00621471 0.0082862973 0.74130678
0.0061773187 0.0061773658 0.73980218
0.0061442456 0.0040961802 0.73847151
0.0061153094 0.0020384789 0.73730713
0.0060897809 2.9802322e-08 0.73627996
0.0060673808 -0.0020224154 0.73537868
0.0060479222 -0.0040319264 0.73459572
0.0060312524 -0.0060312152 0.73392498
0.0060177599 -0.0080236793 0.73338205
0.0059962696 -0.0099937618 0.73251736
0.0059503233 -0.011900634 0.73066866
0.0059102606 -0.013790578 0.7290566
0.0058893445 -0.01570493 0.72821498
0.0058830664 -0.017649174 0.72796237
0.0058990186 -0.019663393 0.72860432
0.0060073324 -0.022026867 0.73296249
0.0060272324 -0.024108887 0.73376322
0.0060489946 -0.026212335 0.73463893
0.0060802838 -0.028374672 0.7358979
0.0061237421 -0.030618668 0.73764646
0.0061918437 -0.033023149 0.74038666
0.006362245 -0.036052674 0.74724305
0.0089074997 0.026722491 0.76005375
0.0088205859 0.024256647 0.75743085
0.0087800724 0.021950215 0.75620818
0.0087078726 0.019592702 0.75402945
0.008587786 0.017175615 0.75040543
0.0084898295 0.014857203 0.7474494
0.0084090373 0.012613595 0.74501127
0.0083391387 0.010423928 0.74290192
0.0082780542 0.0082781017 0.74105847
0.0082241734 0.0061681271 0.73943251
0.0081765307 0.0040882826 0.73799479
0.0081341946 0.0020335615 0.73671716
0.0080966158 2.9802322e-08 0.73558313
0.0080641238 -0.0020160079 0.73460257
0.0080358256 -0.0040178895 0.73374861
0.008011315 -0.006008476 0.73300892
0.0079904608 -0.0079904497 0.73237962
0.0079725739 -0.0099657178 0.73183972
0.0079379808 -0.011906952 0.73079586
0.0078731859 -0.013778031 0.72884047
0.0078274915 -0.015655011 0.72746158
0.0078032906 -0.017557383 0.72673124
0.007798152 -0.019495338 0.72657621
0.0078289304 -0.021529555 0.72750503
0.0079703191 -0.02391094 0.73177177
0.0079932055 -0.02597791 0.73246241
0.0080245808 -0.028086007 0.73340929
0.0080674719 -0.030253023 0.73470366
0.008129173 -0.032516688 0.73656565
0.0082262699 -0.034961671 0.73949575
0.0087947333 -0.039576262 0.75665063
0.011022817 0.024250239 0.75736046
0.010942448 0.021884918 0.75542015
0.010893514 0.019608349 0.75423878
0.010773239 0.017237186 0.75133514
0.010632854 0.014886051 0.7479459
0.010520314 0.012624383 0.74522895
0.01042414 0.010424137 0.74290717
0.010340896 0.0082727671 0.74089742
0.010268023 0.0061608255 0.73913813
0.010203739 0.0040814877 0.7375862
0.010146918 0.0020293891 0.73621434
0.010096426 2.9802322e-08 0.73499537
0.010051643 -0.0020103157 0.73391426
0.01001202 -0.0040047765 0.73295766
0.0099781575 -0.0059868395 0.73214012
0.0099492688 -0.0079593956 0.73144281
0.0099248774 -0.0099248588 0.73085386
0.009901545 -0.011881858 0.73029053
0.0098500466 -0.013790071 0.7290473
0.0097692348 -0.015630752 0.72709632
0.0097196288 -0.017495334 0.72589874
0.0096934177 -0.019386828 0.72526592
0.0096948827 -0.021328717 0.72530127
0.0097499313 -0.02339983 0.72663027
0.0099105267 -0.025767356 0.73050737
0.0099397423 -0.027831286 0.73121274
0.0099936621 -0.029980958 0.73251444
0.010060172 -0.032192558 0.73412013
0.010146465 -0.034497947 0.73620343
0.010295447 -0.037063628 0.73980021
0.010940725 -0.041574717 0.7553786
0.013109836 0.021849751 0.7549957
0.013037361 0.019556075 0.7535376
0.012967477 0.017289966 0.75213164
0.012797007 0.014929861 0.74870205
0.012644049 0.012644082 0.74562478
0.012515851 0.010429889 0.74304563
0.012406152 0.0082708001 0.74083859
0.012311016 0.0061555207 0.73892462
0.012227631 0.0040759146 0.73724699
0.012154069 0.0020256937 0.73576713
0.012089075 2.9802322e-08 0.73445952
0.012031373 -0.0020052195 0.7332986
0.011980192 -0.003993392 0.73226899
0.011934994 -0.0059674978 0.73135972
0.011895365 -0.007930249 0.73056239
0.011862324 -0.0098852515 0.72989762
0.011834966 -0.011834949 0.72934723
0.011803742 -0.013770998 0.72871906
0.011729632 -0.015639484 0.72722805
0.011640896 -0.01746133 0.72544289
0.011586892 -0.019311488 0.72435641
0.011670037 -0.021395057 0.72602916
0.011788957 -0.023577899 0.72842157
0.011824198 -0.02561906 0.72913063
0.011850897 -0.027652085 0.72966778
0.011888959 -0.029722393 0.73043346
0.011941023 -0.031842709 0.73148096
0.012016636 -0.034047127 0.73300219
0.012127115 -0.036381334 0.73522484
0.012326282 -0.039033234 0.73923177
0.013071193 -0.043570638 0.75421822
0.015326668 0.02189526 0.75554508
0.015174474 0.019510061 0.75292051
0.015104127 0.017261863 0.75170755
0.014993178 0.014993191 0.74979424
0.014787888 0.012675375 0.74625409
0.014619197 0.010442317 0.74334514
0.01447863 0.0082735419 0.74092114
0.01435832 0.0061535537 0.73884648
0.014252913 0.0040722787 0.73702884
0.014159798 0.0020228326 0.73542309
0.014077164 2.9802322e-08 0.73399806
0.014003602 -0.0020005405 0.73272955
0.013939509 -0.0039827228 0.73162436
0.013882712 -0.0059497356 0.73064488
0.013832654 -0.0079043508 0.72978169
0.013788925 -0.0098492205 0.72902763
0.013751191 -0.011786729 0.72837692
0.013721186 -0.013721198 0.7278595
0.013678051 -0.015632033 0.72711557
0.013581098 -0.017461419 0.72544378
0.013658422 -0.019512028 0.7267772
0.013682859 -0.021501631 0.7271986
0.013686442 -0.023462445 0.72726035
0.013698325 -0.025439739 0.72746527
0.013719681 -0.027439356 0.72783351
0.013753243 -0.029471248 0.72841233
0.013799245 -0.031541109 0.72920561
0.013864248 -0.033670306 0.73032653
0.013955172 -0.035884738 0.73189449
0.014092004 -0.038249701 0.734254
0.014356142 -0.041017532 0.73880887
0.017340077 0.019507587 0.75288767
0.017211242 0.017211258 0.75094372
0.017137554 0.014995366 0.74983191
0.016963037 0.012722254 0.74719858
0.016741265 0.010463297 0.74385232
0.016563235 0.0082816184 0.741166
0.016411997 0.0061545074 0.73888403
0.016280895 0.0040702522 0.73690587
0.01616583 0.0020207465 0.73516971
0.016064169 2.9802322e-08 0.73363566
0.015973972 -0.0019967258 0.73227477
0.015893549 -0.0039733648 0.73106122
0.015821869 -0.0059331656 0.72997969
0.015759764 -0.0078798831 0.72904253
0.015705597 -0.0098159909 0.72822529
0.015658412 -0.011743784 0.72751331
0.015617847 -0.013665617 0.72690123
0.015583918 -0.015583932 0.72638929
0.015581067 -0.017528683 0.72634625
0.01556253 -0.019453138 0.72606659
0.015551526 -0.021383345 0.72590053
0.015548566 -0.023322821 0.72585583
0.015554246 -0.025275648 0.72594154
0.015569795 -0.027247101 0.72617614
0.015596001 -0.029242456 0.72657156
0.01563566 -0.031271309 0.72716999
0.015690882 -0.033343107 0.72800326
0.015769387 -0.035481125 0.72918773
0.015877599 -0.037709296 0.7308206
0.016044917 -0.040112257 0.73334515
0.016412064 -0.043081641 0.73888505
0.019334963 0.017186642 0.75057244
0.019226983 0.014954358 0.74912411
0.019131169 0.012754142 0.74783909
0.018892709 0.010495931 0.74464071
0.018664917 0.0082955658 0.74158549
0.018475996 0.0061587095 0.73905164
0.018314146 0.0040698349 0.7368809
0.018173568 0.0020192862 0.73499542
0.018050024 2.9802322e-08 0.73333836
0.017940862 -0.0019933879 0.73187435
0.017843965 -0.0039653182 0.73057467
0.017757699 -0.0059192181 0.72941768
0.017680796 -0.0078581274 0.72838622
0.017612476 -0.0097846985 0.72746992
0.017554255 -0.011702806 0.72668904
0.017504172 -0.013614357 0.72601724
0.01748582 -0.015542924 0.72577119
0.01744991 -0.017449886 0.72528946
0.017423848 -0.019359797 0.72493994
0.017405126 -0.021272898 0.72468877
0.017394839 -0.023193091 0.7245509
0.017393563 -0.025124013 0.7245338
0.017401965 -0.027069688 0.72464645
0.017421421 -0.029035687 0.7249074
0.017452478 -0.031026632 0.72532398
0.017499002 -0.033053637 0.72594792
0.017565554 -0.035131097 0.72684062
0.017656464 -0.037274748 0.72805989
0.017786246 -0.039524972 0.72980052
0.017988019 -0.041972041 0.73250681
0.02153405 0.017227232 0.75118506
0.021316534 0.014921606 0.74855947
0.021215934 0.012729585 0.74734509
0.02107599 0.010538012 0.74565583
0.020792574 0.0083170831 0.74223465
0.020555872 0.006166786 0.73937744
0.02035675 0.0040713549 0.73697388
0.020186499 0.0020186901 0.73491871
0.020038074 -0 0.73312706
0.019906614 -0.0019906461 0.7315402
0.019790478 -0.0039580762 0.73013836
0.019687846 -0.0059063435 0.72889942
0.019596472 -0.0078386068 0.72779649
0.019515073 -0.0097575486 0.72681391
0.019462394 -0.011677414 0.72617799
0.019406386 -0.013584435 0.72550189
0.019353615 -0.015482873 0.72486496
0.019309176 -0.017378241 0.72432846
0.019271769 -0.019271761 0.72387695
0.019244714 -0.021169156 0.72355038
0.019226227 -0.023071468 0.72332716
0.01921707 -0.024982184 0.72321665
0.019217808 -0.026904911 0.72322553
0.019229403 -0.028844088 0.72336555
0.019253155 -0.030805051 0.72365224
0.0192896 -0.03279227 0.72409213
0.019345084 -0.034821123 0.72476196
0.019421902 -0.036901593 0.72568917
0.019526422 -0.039052844 0.72695088
0.019678708 -0.041325301 0.72878915
0.019918261 -0.043820173 0.73168081
0.023448586 0.014921814 0.74856383
0.02327122 0.012693405 0.74661744
0.023174997 0.010534137 0.74556148
0.022959128 0.008348763 0.74319267
0.022659775 0.0061799586 0.73990768
0.022415953 0.0040756464 0.73723203
0.022211511 0.0020192564 0.73498857
0.02203385 -2.9802322e-08 0.7330389
0.021877779 -0.0019888878 0.73132622
0.021739516 -0.0039526224 0.72980905
0.021616483 -0.0058953762 0.72845888
0.021506425 -0.0078205168 0.72725117
0.021439573 -0.00974527 0.7265175
0.021355305 -0.011648297 0.72559273
0.021279512 -0.01354149 0.72476101
0.021213161 -0.015427738 0.724033
0.021155922 -0.017309397 0.72340482
0.021110319 -0.019191206 0.72290438
0.021071767 -0.021071792 0.72248137
0.021044133 -0.022957206 0.7221781
0.021026285 -0.024849266 0.72198224
0.021018658 -0.026750952 0.7218985
0.021021789 -0.028666049 0.72193283
0.021036973 -0.030599236 0.72209954
0.021065315 -0.032555461 0.72241056
0.021109266 -0.034542441 0.72289282
0.021173012 -0.036571532 0.72359228
0.021260276 -0.038655013 0.72455001
0.021381853 -0.040819913 0.72588408
0.021556037 -0.043112069 0.7277956
0.021848511 -0.045683265 0.73100513
0.025357625 0.012678862 0.74632412
0.025211751 0.010504901 0.74485672
0.025093636 0.0083645582 0.74366862
0.024799904 0.0062000155 0.74071389
0.024497565 0.004082948 0.73767263
0.024250116 0.0020208657 0.73518348
0.024037698 -0 0.73304665
0.023852918 -0.0019877553 0.73118794
0.023690293 -0.0039483607 0.72955203
0.023546198 -0.0058865249 0.72810256
0.023451747 -0.0078172088 0.72715247
0.023336627 -0.0097236037 0.72599447
0.023233416 -0.011616707 0.72495621
0.023144217 -0.01350078 0.72405893
0.0230658 -0.015377164 0.72327018
0.022997418 -0.017248034 0.72258228
0.022938292 -0.019115239 0.72198749
0.022889499 -0.020982027 0.7214967
0.022852125 -0.022852093 0.72112072
0.022823805 -0.024725795 0.72083586
0.022806033 -0.026607007 0.72065711
0.02280006 -0.02850005 0.72059697
0.022805948 -0.030407906 0.72065622
0.022824846 -0.032335162 0.7208463
0.022858215 -0.034287304 0.72118199
0.022910459 -0.03627485 0.72170758
0.022982718 -0.038304508 0.7224344
0.023081938 -0.040393353 0.72343248
0.023221912 -0.042573512 0.72484058
0.023424119 -0.044896185 0.72687447
0.023769915 -0.04753983 0.730353
0.027539963 0.01271075 0.74696672
0.027257223 0.010483563 0.74434131
0.027126389 0.0083465874 0.74312645
0.026964683 0.0062226355 0.74162495
0.026610905 0.0040940046 0.73834002
0.026308678 0.0020237565 0.73553371
0.026053982 -0 0.73316872
0.025835119 -0.0019873083 0.73113644
0.025644347 -0.0039452314 0.72936505
0.025513887 -0.0058878064 0.72815371
0.025365638 -0.007804811 0.7267772
0.025231628 -0.0097044706 0.72553277
0.025111912 -0.011590093 0.72442114
0.025005048 -0.013464212 0.72342891
0.024910435 -0.01532951 0.72255039
0.024829421 -0.017189592 0.72179818
0.024759483 -0.01904574 0.72114873
0.024699502 -0.020899594 0.72059178
0.024649238 -0.022753119 0.72012508
0.024611559 -0.024611562 0.7197752
0.024584027 -0.026475102 0.7195195
0.024567684 -0.028347313 0.7193678
0.024563322 -0.030231744 0.71932727
0.024571953 -0.032132536 0.71940744
0.024595087 -0.034054726 0.71962225
0.024634395 -0.036004096 0.71998721
0.024693312 -0.037989706 0.72053432
0.024775421 -0.040021807 0.72129667
0.024888324 -0.042118669 0.72234511
0.025046257 -0.044312596 0.72381157
0.025278891 -0.046668708 0.7259717
0.025704747 -0.049432188 0.72992587
0.029358484 0.010485202 0.74438053
0.029132485 0.0083236098 0.74243194
0.029016033 0.0062177181 0.7414279
0.028770303 0.0041100383 0.73930919
0.028396167 0.0020283163 0.73608327
0.028088512 -2.9802322e-08 0.73343062
0.027831281 -0.0019879341 0.73121274
0.027631043 -0.003947258 0.72948623
0.027455706 -0.0058833659 0.72797453
0.02727982 -0.0077942014 0.72645795
0.027124228 -0.0096871853 0.72511637
0.026986402 -0.011565566 0.72392797
0.026863454 -0.013431728 0.72286797
0.02675388 -0.015287906 0.72192311
0.026656449 -0.017136276 0.72108316
0.026571514 -0.018979609 0.7203508
0.026499944 -0.020821363 0.71973372
0.026439432 -0.022662342 0.719212
0.026388537 -0.024503618 0.71877313
0.026350616 -0.026350617 0.7184462
0.026324077 -0.028204381 0.71821737
0.026309546 -0.03006804 0.71809208
0.026307866 -0.031945229 0.71807754
0.02632012 -0.03384015 0.71818328
0.026347743 -0.035757631 0.7184214
0.026392613 -0.037703723 0.71880829
0.026459204 -0.039688766 0.71938241
0.026550766 -0.041722655 0.72017193
0.026679393 -0.043830425 0.72128099
0.026855318 -0.046037674 0.72279781
0.027120551 -0.048429549 0.72508472
0.027653512 -0.051356494 0.72968
0.031186009 0.0083162487 0.74221176
0.031001799 0.006200403 0.74072933
0.030864876 0.0041153431 0.73962748
0.030526677 0.002035141 0.73690581
0.030150689 2.9802322e-08 0.73388016
0.02984662 -0.0019897521 0.73143315
0.029637188 -0.0039515793 0.72974777
0.029405994 -0.0058811903 0.72788727
0.029202677 -0.0077873468 0.72625113
0.029022451 -0.0096741319 0.72480077
0.028861629 -0.011544615 0.72350657
0.028717957 -0.013401687 0.72235036
0.028591815 -0.015248924 0.72133529
0.028480066 -0.017088026 0.72043604
0.028380986 -0.0189206 0.71963859
0.028293895 -0.020748883 0.71893787
0.028219428 -0.022575557 0.71833855
0.028158551 -0.024404079 0.71784866
0.028107511 -0.026233673 0.71743786
0.02806988 -0.028069884 0.71713501
0.028044494 -0.029914111 0.71693081
0.028032135 -0.031769723 0.71683133
0.028033393 -0.033640057 0.71684146
0.028049527 -0.035529375 0.71697128
0.028082166 -0.037442893 0.7172339
0.028133323 -0.0393866 0.71764559
0.028207548 -0.041371077 0.71824294
0.02831204 -0.043411821 0.71908379
0.028454801 -0.045527667 0.72023261
0.028654255 -0.047757089 0.7218377
0.028959181 -0.050195903 0.72429156
0.029671166 -0.053408056 0.73002118
0.033354189 0.0083385408 0.74288404
0.033006281 0.0061886907 0.74025929
0.032845948 0.0041057467 0.73904967
0.032666087 0.0020416379 0.73769271
0.032251295 2.9802322e-08 0.73456335
0.031950619 -0.0019969046 0.73229498
0.031636611 -0.0039545596 0.72992587
0.031366765 -0.0058812499 0.72789007
0.031131597 -0.0077828765 0.72611582
0.030924516 -0.0096638799 0.72455359
0.030740699 -0.011527747 0.72316682
0.030576795 -0.013377309 0.72193021
0.030429659 -0.015214801 0.72082013
0.030298945 -0.017043144 0.71983397
0.03018425 -0.018865138 0.71896869
0.030083982 -0.020682752 0.71821225
0.029996062 -0.022497028 0.71754897
0.029919943 -0.024309933 0.71697462
0.029857231 -0.026125073 0.71650147
0.029806875 -0.027943909 0.71612161
0.029769743 -0.029769719 0.71584147
0.029745962 -0.031605035 0.71566212
0.029735906 -0.033452839 0.71558619
0.029740326 -0.035316616 0.71561956
0.029760668 -0.037200838 0.71577305
0.029798774 -0.039110899 0.71606052
0.029856231 -0.041052341 0.71649396
0.029940754 -0.043039829 0.71713167
0.030056875 -0.045085311 0.71800768
0.030214783 -0.047210574 0.71919906
0.030439841 -0.049464732 0.72089696
0.030788107 -0.051954925 0.72352445
0.0350793 0.006190449 0.74033111
0.034808557 0.0040951371 0.73840874
0.034668393 0.0020393133 0.73741353
0.034404352 -0 0.7355386
0.034034602 -0.0020020008 0.73291314
0.033659387 -0.003959924 0.73024899
0.033342604 -0.0058839917 0.72799957
0.033069607 -0.0077810585 0.72606105
0.032831684 -0.0096563399 0.72437167
0.032621533 -0.011513472 0.72287953
0.032435071 -0.013355613 0.72155547
0.032268714 -0.015185267 0.72037429
0.032119449 -0.0170044 0.71931434
0.031985868 -0.018815219 0.71836591
0.031868309 -0.020620644 0.71753109
0.031765841 -0.02242294 0.71680349
0.031677704 -0.024224132 0.71617776
0.031601444 -0.026024699 0.71563625
0.031537589 -0.027827293 0.71518284
0.031488553 -0.029636264 0.71483469
0.031451762 -0.031451732 0.71457338
0.031428635 -0.033277363 0.71440911
0.031421091 -0.035117656 0.71435559
0.031428985 -0.036975265 0.71441162
0.031453736 -0.038854599 0.71458739
0.031497534 -0.040761501 0.71489835
0.031564154 -0.042704403 0.71537143
0.031657901 -0.0446935 0.71603709
0.031786732 -0.046745181 0.71695185
0.031960867 -0.048881322 0.71818835
0.032211769 -0.051159859 0.71996993
0.032612029 -0.053713918 0.72281206
0.036829595 0.0040921867 0.73823088
0.036606256 0.0020337105 0.73673308
0.036753546 -0 0.73772085
0.036170799 -0.0020094514 0.73381287
0.035715386 -0.0039683878 0.73075885
0.035340086 -0.0058900118 0.72824204
0.035025634 -0.0077834725 0.72613323
0.034752361 -0.0096534193 0.72430062
0.034511462 -0.011503816 0.72268516
0.034297504 -0.01333791 0.7212503
0.034106579 -0.015158474 0.71996993
0.033937961 -0.016968966 0.71883917
0.033787221 -0.018770665 0.71782821
0.033652391 -0.020565331 0.71692407
0.033532232 -0.022354841 0.71611834
0.033428434 -0.024142712 0.71542215
0.033339217 -0.025930494 0.71482384
0.033263244 -0.027719349 0.71431434
0.033199854 -0.029510975 0.7138893
0.033151094 -0.031309366 0.71356231
0.03311599 -0.033115953 0.71332681
0.033095423 -0.034934044 0.71318895
0.033089954 -0.036766589 0.71315223
0.033101019 -0.038617849 0.71322644
0.033130486 -0.040492803 0.71342409
0.03318065 -0.042397499 0.7137605
0.033255629 -0.044340819 0.71426332
0.033359963 -0.046333253 0.71496296
0.033500552 -0.048389673 0.71590585
0.033695575 -0.050543338 0.71721363
0.033973426 -0.052847564 0.71907693
0.034439672 -0.055486143 0.72220367
0.038985524 0.0041037202 0.73892868
0.039026659 0.0020540655 0.73918998
0.039303526 -0 0.74094903
0.038395084 -0.0020207763 0.73517752
0.037819106 -0.0039809644 0.73151827
0.037370879 -0.0059006512 0.72867048
0.037003592 -0.0077902079 0.72633708
0.036688004 -0.0096547306 0.72433209
0.036412444 -0.01149866 0.72258145
0.036169454 -0.013325542 0.72103763
0.035953462 -0.015138268 0.71966547
0.035760209 -0.016939044 0.71843761
0.035587121 -0.018730074 0.71733803
0.035433393 -0.020514041 0.71636134
0.035298016 -0.022293478 0.71550131
0.035177462 -0.024068773 0.71473539
0.035071179 -0.025841922 0.71406013
0.034981232 -0.027616739 0.7134887
0.03490584 -0.029394358 0.71300966
0.034843024 -0.031175315 0.7126106
0.034795329 -0.032964021 0.71230757
0.034761995 -0.034761965 0.7120958
0.034743957 -0.036572576 0.71198124
0.03474205 -0.0383991 0.71196908
0.034757547 -0.040245593 0.7120676
0.034792274 -0.04211694 0.71228814
0.034848772 -0.04401949 0.71264708
0.034931749 -0.045962811 0.71317428
0.03504584 -0.04795742 0.71389914
0.035200126 -0.050021201 0.71487927
0.035416894 -0.052193314 0.7162565
0.035728626 -0.054533124 0.71823692
0.036267422 -0.057264328 0.72166002
0.040784016 -0.0020391941 0.73739946
0.039989505 -0.0039989352 0.73260415
0.039442889 -0.0059164166 0.72930497
0.039008848 -0.0078017712 0.72668529
0.038641464 -0.0096603334 0.72446799
0.038324922 -0.011497468 0.72255749
0.038048208 -0.0133169 0.72088736
0.037804004 -0.015121579 0.71941352
0.037586756 -0.01691404 0.71810228
0.037391964 -0.01869598 0.71692657
0.037217021 -0.020469338 0.71587068
0.037061408 -0.022236824 0.71493155
0.036923435 -0.024000198 0.71409875
0.036802582 -0.025761753 0.71336931
0.036696773 -0.027522564 0.71273077
0.036604557 -0.029283643 0.71217418
0.036529198 -0.031049818 0.71171927
0.036467429 -0.032820702 0.71134657
0.036421373 -0.034600258 0.71106857
0.036390383 -0.036390334 0.71088147
0.036375172 -0.038193911 0.71078968
0.036376759 -0.040014416 0.71079928
0.036396869 -0.041856349 0.71092063
0.036437158 -0.043724597 0.71116382
0.036500417 -0.045625538 0.71154559
0.036591575 -0.047569036 0.71209586
0.036715757 -0.049566269 0.71284533
0.036888454 -0.051643819 0.71388763
0.037123691 -0.053829312 0.71530741
0.037471771 -0.056207627 0.7174083
0.03811647 -0.059080541 0.72129941
0.042293195 -0.0040279031 0.73435283
0.041574147 -0.005939126 0.7302196
0.041051462 -0.0078192949 0.72721517
0.040619653 -0.0096713305 0.72473311
0.040255658 -0.01150158 0.72264075
0.039940596 -0.013313502 0.72082978
0.039663188 -0.015109777 0.71923518
0.039417237 -0.016893059 0.71782136
0.039198287 -0.01866585 0.71656287
0.039002594 -0.020429909 0.71543795
0.038826622 -0.022186637 0.71442652
0.038669303 -0.023938149 0.7135222
0.038530622 -0.025687069 0.7127251
0.038408794 -0.027434826 0.71202475
0.038303085 -0.029183269 0.71141708
0.038211849 -0.03093338 0.71089268
0.038134739 -0.032686889 0.71044946
0.038074356 -0.034448236 0.71010238
0.038029157 -0.036218226 0.70984256
0.038000826 -0.038000822 0.70967972
0.037988871 -0.039797872 0.709611
0.037994366 -0.041612834 0.70964259
0.038019251 -0.043450564 0.70978564
0.038065251 -0.045315772 0.71004999
0.038135707 -0.047215611 0.710455
0.038235486 -0.049159914 0.71102858
0.038373586 -0.051164776 0.71182239
0.038562723 -0.053253263 0.71290952
0.038820025 -0.055457175 0.71438861
0.039207939 -0.057878375 0.7166183
0.040008426 -0.06096521 0.72121966
0.044887848 -0.004080683 0.73753893
0.043808144 -0.0059738457 0.73161477
0.043147221 -0.0078448951 0.72798836
0.042632535 -0.0096891522 0.72516441
0.042212218 -0.011512399 0.72285825
0.041851439 -0.013316363 0.72087872
0.041536704 -0.015104234 0.71915174
0.041258652 -0.016878486 0.71762609
0.041011173 -0.018641442 0.71626824
0.040789455 -0.020394713 0.71505165
0.040591963 -0.022141039 0.7139681
0.040416103 -0.02388221 0.7130031
0.040258389 -0.02561897 0.71213782
0.040118266 -0.027353317 0.71136892
0.039996549 -0.029088408 0.71070117
0.039890889 -0.03082478 0.71012139
0.039800458 -0.032564014 0.70962524
0.039724763 -0.034307718 0.70920992
0.039665218 -0.03605929 0.70888317
0.039621528 -0.037820518 0.7086435
0.039594024 -0.039594024 0.70849252
0.039585195 -0.041384488 0.70844412
0.039595019 -0.043194562 0.70849806
0.03962481 -0.04502818 0.70866144
0.039677083 -0.046891093 0.70894825
0.03975489 -0.048790067 0.70937514
0.039866038 -0.050738603 0.70998508
0.040018801 -0.052752048 0.71082318
0.040222492 -0.05484885 0.71194088
0.04050906 -0.057080925 0.71351314
0.040944513 -0.05955562 0.71590245
0.042035226 -0.063052833 0.72188705
0.046235699 -0.0060307384 0.73390448
0.04532199 -0.0078820586 0.72910905
0.044694316 -0.0097161233 0.72581482
0.044200957 -0.011530638 0.72322559
0.043784741 -0.01332581 0.72104114
0.043425556 -0.015104562 0.71915609
0.043111585 -0.016869724 0.7175082
0.042833667 -0.018623292 0.71604967
0.042586237 -0.020367295 0.71475106
0.042364098 -0.022103012 0.7135852
0.04216449 -0.023832083 0.71253765
0.041986201 -0.025556773 0.71160185
0.041828558 -0.027279496 0.71077454
0.041688398 -0.02900061 0.7100389
0.041565236 -0.030722111 0.70939255
0.04146041 -0.032447249 0.7088424
0.041370984 -0.034176022 0.70837307
0.041296903 -0.035910338 0.70798421
0.041239187 -0.037653148 0.70768136
0.041197851 -0.039406657 0.7074644
0.041173384 -0.041173398 0.70733595
0.041167054 -0.042956918 0.70730269
0.041180309 -0.044761181 0.70737231
0.041214969 -0.046590805 0.70755422
0.041274093 -0.048452199 0.70786452
0.041362062 -0.050353795 0.70832622
0.041484471 -0.052306503 0.70896864
0.04164917 -0.054325014 0.70983309
0.041867819 -0.056430519 0.71098053
0.042184893 -0.058691978 0.71264464
0.042670242 -0.061222494 0.71519196
0.047643002 -0.007940501 0.73087186
0.0468265 -0.0097554922 0.72676522
0.046231762 -0.011557937 0.72377396
0.045746036 -0.013342559 0.72133088
0.045333292 -0.015111059 0.71925497
0.044978589 -0.016866952 0.717471
0.04466591 -0.018610775 0.71589828
0.044388372 -0.020344645 0.71450233
0.044140533 -0.022070259 0.71325582
0.043918081 -0.023788929 0.71213698
0.043718219 -0.025502264 0.71113175
0.043539897 -0.027212411 0.71023488
0.043381035 -0.02892065 0.70943588
0.043240603 -0.030628771 0.70872957
0.043118104 -0.03233856 0.70811343
0.043011542 -0.034050822 0.70757753
0.042923603 -0.035769641 0.7071352
0.042851459 -0.037495017 0.70677233
0.042796027 -0.039229691 0.7064935
0.042757474 -0.040975899 0.70629966
0.042736474 -0.042736441 0.70619398
0.042734195 -0.044514775 0.70618248
0.042752147 -0.046314776 0.70627278
0.042792674 -0.048141718 0.70647663
0.042858955 -0.050002128 0.70681
0.042955387 -0.05190438 0.707295
0.043087784 -0.053859711 0.7079609
0.043316878 -0.05595094 0.70911312
0.043685775 -0.058247685 0.71096861
0.044189587 -0.060760677 0.71350259
0.045058753 -0.063833207 0.71787411
0.050344385 -0.0080551207 0.7343303
0.049066324 -0.0098132491 0.72815925
0.048321053 -0.011597037 0.7245608
0.047745608 -0.013368756 0.72178233
0.047270898 -0.015126675 0.71949017
