# .PCD v0.7 - Point Cloud Data file format
VERSION 0.7
FIELDS x y z
SIZE 4 4 4
TYPE F F F
COUNT 1 1 1
WIDTH 1338
HEIGHT 1
VIEWPOINT 0 0 0 1 0 0 0
POINTS 1338
DATA ascii
-0.023014961 0.051783681 0.72275877
-0.023146717 0.050151229 0.72408414
-0.023281071 0.048502237 0.72543561
-0.023417907 0.04683584 0.72681206
-0.023557194 0.045151293 0.72821313
-0.023698241 0.043446809 0.72963202
-0.023842879 0.041725039 0.73108697
-0.023995334 0.039992243 0.73262048
-0.024151986 0.038240671 0.73419631
-0.0243106 0.036465913 0.73579186
-0.024474699 0.034672529 0.73744261
-0.024578189 0.032770932 0.73848367
-0.02466421 0.030830294 0.73934889
-0.024840843 0.02898097 0.7411257
-0.025029201 0.027114958 0.74302042
-0.025220329 0.025220305 0.74494302
-0.025397096 0.02328071 0.74672115
-0.025555998 0.02129668 0.74831963
-0.025706772 0.019280106 0.74983627
-0.025852542 0.01723507 0.7513026
-0.025999865 0.01516661 0.75278455
-0.02614603 0.013073027 0.75425488
-0.026290048 0.010954171 0.75570357
-0.02643566 0.0088118911 0.75716835
-0.026579719 0.0066449344 0.75861746
-0.026724163 0.0044540465 0.76007044
-0.026869588 0.0022391677 0.76153326
-0.027016604 -0 0.76301217
-0.027165851 -0.0022638142 0.76451349
-0.027317008 -0.0045527816 0.76603395
-0.027469726 -0.0068674088 0.76757026
-0.027624292 -0.0092080832 0.76912498
-0.027780477 -0.011575192 0.77069616
-0.027938565 -0.013969272 0.77228642
-0.02809847 -0.016390771 0.77389491
-0.028268991 -0.018846005 0.77561021
-0.028441733 -0.02133128 0.77734786
-0.028616734 -0.023847282 0.77910823
-0.028793901 -0.026394397 0.78089035
-0.028974814 -0.028974801 0.78271019
-0.029176859 -0.031608224 0.78474265
-0.029381597 -0.034278482 0.78680217
-0.029600315 -0.037000388 0.7890023
-0.021480404 0.083968878 0.72696555
-0.020755585 0.079248607 0.71901166
-0.020725027 0.077247828 0.71867633
-0.019631356 0.071386755 0.7066747
-0.019594036 0.06946978 0.70626521
-0.019647546 0.067873359 0.70685232
-0.01974212 0.066405326 0.70789021
-0.019837612 0.064923108 0.70893812
-0.019934103 0.063426673 0.70999694
-0.020031465 0.061915457 0.71106541
-0.020129783 0.06038937 0.71214426
-0.020229366 0.058849066 0.71323711
-0.020329867 0.057293266 0.71433997
-0.020432431 0.055724829 0.71546549
-0.020536574 0.054141879 0.71660823
-0.020641705 0.052542537 0.71776193
-0.020747997 0.050926924 0.71892834
-0.020855309 0.049294382 0.72010601
-0.020964136 0.047645777 0.72130024
-0.021074189 0.045980096 0.72250783
-0.0211854 0.044296741 0.72372836
-0.021297792 0.042595595 0.72496164
-0.021411382 0.040876299 0.72620809
-0.021527708 0.039141297 0.7274847
-0.021646069 0.037388682 0.72878355
-0.021766255 0.035617501 0.73010242
-0.021887783 0.03382659 0.73143607
-0.022010677 0.032015562 0.73278463
-0.022125881 0.030171663 0.7340489
-0.022192346 0.028244823 0.73477823
-0.022318963 0.026376963 0.73616767
-0.022447128 0.024487793 0.7375741
-0.02257668 0.02257669 0.73899579
-0.022708578 0.020644158 0.74044317
-0.022845725 0.018691957 0.74194825
-0.02298444 0.016715974 0.74347043
-0.023124851 0.014715821 0.74501121
-0.02326699 0.01269111 0.74657106
-0.023410887 0.010641307 0.74815011
-0.02355849 0.008566767 0.74976981
-0.023712968 0.0064672232 0.75146502
-0.023869488 0.0043399632 0.75318265
-0.024027986 0.0021843612 0.75492197
-0.024188703 2.9802322e-08 0.75668567
-0.024359459 -0.0022144616 0.75855947
-0.024536248 -0.0044611394 0.76049948
-0.024715621 -0.0067406297 0.76246792
-0.024903046 -0.0090556443 0.76452458
-0.025109589 -0.011413425 0.76679111
-0.025319703 -0.013810724 0.76909697
-0.025510998 -0.016234249 0.77119607
-0.025689486 -0.018683255 0.7731548
-0.025852505 -0.021152049 0.77494371
-0.026013056 -0.023648202 0.77670556
-0.026175242 -0.026175231 0.77848536
-0.026336815 -0.028731048 0.78025836
-0.026495676 -0.031313062 0.78200161
-0.026652981 -0.033921957 0.78372782
-0.026812162 -0.036562026 0.78547472
-0.026973255 -0.039233774 0.78724247
-0.027135229 -0.041936249 0.78901994
-0.027299564 -0.044671953 0.79082328
-0.027466038 -0.047441334 0.79265016
-0.027634695 -0.050244868 0.79450089
-0.027805438 -0.053083062 0.79637456
-0.027978158 -0.055956334 0.79826999
-0.028153183 -0.058865726 0.80019063
-0.028335955 -0.061823905 0.80219626
-0.028525546 -0.06483075 0.80427682
-0.028717695 -0.067878187 0.8063854
-0.028912449 -0.070966899 0.80852258
-0.029112019 -0.074103296 0.81071264
-0.019615218 0.08434546 0.72802275
-0.019697068 0.0827277 0.72901076
-0.019779682 0.081096709 0.73000801
-0.017940432 0.071761757 0.70780629
-0.017671775 0.068919927 0.70456332
-0.017692521 0.067231596 0.70481372
-0.017774792 0.065766752 0.70580685
-0.017857835 0.064288229 0.70680928
-0.017941719 0.062796026 0.70782185
-0.018026395 0.061289728 0.70884401
-0.018111875 0.059769183 0.70987576
-0.018198699 0.058235824 0.71092385
-0.018286761 0.056689024 0.71198684
-0.018375678 0.055127054 0.71306014
-0.018465463 0.053549856 0.71414399
-0.018556131 0.05195719 0.71523845
-0.018647695 0.050348818 0.7163437
-0.018740166 0.048724473 0.71745992
-0.018833701 0.047084272 0.71858901
-0.018928172 0.045427591 0.71972936
-0.019023526 0.043754101 0.72088039
-0.019119916 0.042063862 0.72204399
-0.01921729 0.040356308 0.72321939
-0.019315662 0.03863135 0.72440678
-0.019415045 0.03688857 0.72560644
-0.019516749 0.035130173 0.72683412
-0.019619524 0.033353209 0.72807473
-0.019723544 0.031557679 0.72933036
-0.019828752 0.029743165 0.7306003
-0.019886756 0.027841479 0.73130047
-0.019993875 0.025992066 0.73259354
-0.020102154 0.024122596 0.73390061
-0.020211615 0.022232801 0.73522192
-0.020322271 0.020322263 0.7365576
-0.020434147 0.018390745 0.73790807
-0.020547263 0.016437829 0.73927349
-0.020661635 0.014463156 0.74065411
-0.020777293 0.012466401 0.74205017
-0.020895731 0.01044786 0.74347991
-0.021016324 0.0084065497 0.74493557
-0.021138316 0.0063415468 0.7464081
-0.021261733 0.0042523742 0.74789792
-0.021386508 0.0021387041 0.74940407
-0.021512849 2.9802322e-08 0.75092918
-0.02164069 -0.0021640658 0.75247228
-0.021769967 -0.0043539703 0.75403285
-0.021901852 -0.006570518 0.75562483
-0.022037577 -0.0088149905 0.75726318
-0.022175092 -0.011087507 0.75892317
-0.022314234 -0.013388544 0.76060277
-0.022455133 -0.015718609 0.76230353
-0.022597926 -0.018078357 0.76402724
-0.022742443 -0.020468175 0.76577169
-0.022891648 -0.022891641 0.76757276
-0.023044946 -0.025349408 0.76942319
-0.023200419 -0.027840495 0.77129996
-0.023357894 -0.030365258 0.77320081
-0.023517521 -0.032924533 0.77512771
-0.023681028 -0.035521537 0.7771014
-0.023852848 -0.038164526 0.77917546
-0.024027063 -0.04084602 0.78127843
-0.02420396 -0.043567121 0.78341377
-0.024384314 -0.046330184 0.78559083
-0.024579322 -0.049158633 0.78794485
-0.024777599 -0.052032918 0.79033816
-0.024978973 -0.054953694 0.79276901
-0.025206868 -0.057975769 0.79551995
-0.025439862 -0.06105563 0.79833239
-0.02564851 -0.064121276 0.80085099
-0.025851257 -0.067213237 0.80329835
-0.026028905 -0.070278019 0.80544275
-0.026207637 -0.073381364 0.80760026
-0.017654318 0.08434844 0.7280311
-0.017726803 0.082725108 0.72900331
-0.017800799 0.081092507 0.72999573
-0.017875984 0.079448819 0.73100412
-0.015803294 0.068480998 0.70320457
-0.015804071 0.066728324 0.703215
-0.015876394 0.065269619 0.70418507
-0.015949382 0.063797534 0.7051639
-0.016022986 0.06231162 0.70615113
-0.01609733 0.060812175 0.70714831
-0.016172366 0.059298694 0.70815474
-0.016248049 0.057770878 0.70916975
-0.016324501 0.056228876 0.71019518
-0.016401676 0.054672271 0.71123028
-0.016479526 0.053100735 0.71227437
-0.016558176 0.051514387 0.71332932
-0.016637584 0.049912781 0.71439433
-0.016717754 0.048295736 0.7154696
-0.016798764 0.046663284 0.71655613
-0.016880501 0.045014679 0.71765244
-0.016963037 0.043350011 0.71875942
-0.017046705 0.041669756 0.71988153
-0.017131595 0.039973766 0.7210201
-0.0172174 0.038260907 0.72217095
-0.017304003 0.036530703 0.72333252
-0.017391615 0.034783214 0.72450757
-0.017480051 0.033017904 0.72569382
-0.017569391 0.031234473 0.72689199
-0.017659718 0.029432893 0.72810352
-0.01775091 0.027612537 0.72932661
-0.01780664 0.025720745 0.73007411
-0.017899573 0.023866087 0.7313205
-0.017993407 0.021991938 0.73257911
-0.018088305 0.02009815 0.73385191
-0.018184209 0.018184215 0.73513812
-0.018281134 0.016249895 0.7364381
-0.0183791 0.014294863 0.73775202
-0.01847812 0.01231876 0.73908013
-0.018578365 0.010321349 0.74042463
-0.018680712 0.0083025694 0.74179733
-0.018784272 0.0062614679 0.74318635
-0.018888906 0.0041975379 0.74458975
-0.018994793 0.0021105707 0.74600995
-0.019101793 2.9802322e-08 0.74744511
-0.019210087 -0.0021344125 0.74889749
-0.019319534 -0.0042932332 0.75036538
-0.019430317 -0.0064767301 0.75185132
-0.019542295 -0.0086854696 0.75335318
-0.019655656 -0.010919809 0.75487357
-0.019770253 -0.013180166 0.75641066
-0.019887425 -0.015467972 0.75798219
-0.020006526 -0.017783552 0.75957954
-0.020127153 -0.020127147 0.76119745
-0.020249151 -0.022499025 0.76283371
-0.020372638 -0.02489987 0.76449001
-0.020497639 -0.02733019 0.76616657
-0.020624185 -0.029790461 0.76786387
-0.020752303 -0.032281369 0.76958215
-0.020882023 -0.034803361 0.77132201
-0.021014452 -0.037358999 0.77309817
-0.021150062 -0.039950103 0.77491713
-0.021287434 -0.042574853 0.77675951
-0.021426603 -0.045233905 0.77862608
-0.021567499 -0.047927767 0.78051585
-0.021710366 -0.050657511 0.78243196
-0.021855138 -0.053423673 0.78437376
-0.022001853 -0.056226969 0.78634155
-0.022154039 -0.059077442 0.78838265
-0.022308456 -0.061967909 0.79045373
-0.022465039 -0.064898998 0.79255396
-0.022623951 -0.067871869 0.7946853
-0.02278501 -0.070886701 0.7968455
-0.022948381 -0.073944747 0.79903662
-0.02311945 -0.077064842 0.8013311
-0.016059786 0.088328809 0.73356962
-0.016055921 0.086300611 0.73351127
-0.016125584 0.084659338 0.73456234
-0.016195852 0.083003759 0.73562264
-0.016266735 0.081333667 0.73669225
-0.013972254 0.068114758 0.70207113
-0.013966307 0.06633997 0.70198143
-0.014026404 0.064872116 0.70288825
-0.014089649 0.063403428 0.70384252
-0.014153416 0.061921209 0.70480466
-0.014217764 0.06042549 0.70577562
-0.014282699 0.058916152 0.7067554
-0.014348436 0.057393759 0.70774728
-0.014414988 0.055858105 0.7087515
-0.014482162 0.054308146 0.70976502
-0.014550016 0.052743852 0.71078885
-0.014618455 0.051164597 0.71182162
-0.014687543 0.049570471 0.71286404
-0.014757285 0.047961235 0.7139163
-0.014827693 0.046336561 0.71497869
-0.014898777 0.044696361 0.71605128
-0.014970547 0.043040335 0.71713424
-0.015043009 0.041368276 0.71822762
-0.015116177 0.039680004 0.71933156
-0.015190059 0.037975192 0.72044647
-0.015264669 0.036253601 0.72157222
-0.015340015 0.034515083 0.72270906
-0.015416108 0.032759249 0.72385728
-0.015493019 0.030986041 0.72501773
-0.015570642 0.029194981 0.7261889
-0.015649047 0.027385831 0.72737199
-0.015699929 0.025512367 0.72813976
-0.015779769 0.02366963 0.72934443
-0.015860423 0.021808088 0.73056144
-0.015941972 0.019927472 0.73179191
-0.016024811 0.018027931 0.73304176
-0.016108647 0.016108692 0.73430681
-0.016193429 0.014169276 0.73558611
-0.01627904 0.012209296 0.73687792
-0.016365565 0.010228485 0.73818338
-0.01645308 0.0082265735 0.73950392
-0.016541468 0.0062030554 0.74083757
-0.016630879 0.0041577518 0.74218667
-0.016721193 0.0020901561 0.74354947
-0.016812494 2.9802322e-08 0.74492705
-0.016904868 -0.0021130741 0.7463209
-0.01699819 -0.004249543 0.747729
-0.017092621 -0.0064097047 0.74915385
-0.017188035 -0.0085940063 0.75059348
-0.017284518 -0.010802805 0.75204933
-0.017382167 -0.013036638 0.75352281
-0.017481843 -0.015296578 0.7550267
-0.017582666 -0.017582655 0.75654805
-0.017684661 -0.019895226 0.75808704
-0.017787846 -0.022234768 0.75964391
-0.017892241 -0.024601847 0.7612192
-0.01799787 -0.026996762 0.76281297
-0.018104753 -0.029420197 0.76442575
-0.018212913 -0.0318726 0.76605773
-0.018322371 -0.034354389 0.76770931
-0.018433155 -0.036866307 0.76938093
-0.018545287 -0.039408714 0.77107286
-0.018658791 -0.041982293 0.77278554
-0.018774308 -0.044588953 0.7745285
-0.018891979 -0.047229916 0.77630401
-0.019011226 -0.049904436 0.77810335
-0.019131893 -0.052612722 0.77992409
-0.019254103 -0.055355519 0.78176814
-0.019377979 -0.0581339 0.78363717
-0.019503364 -0.060947984 0.78552914
-0.019630382 -0.063798726 0.78744572
-0.019759163 -0.066687196 0.7893889
-0.019889547 -0.069613397 0.79135615
-0.020022461 -0.07258141 0.79336178
-0.020158386 -0.075593889 0.7954126
-0.020296166 -0.078647643 0.79749167
-0.020435842 -0.08174333 0.79959911
-0.01405237 0.088329196 0.73357058
-0.014061848 0.086379915 0.73373401
-0.014118873 0.08471325 0.73471731
-0.014176361 0.083032995 0.73570871
-0.01423432 0.081338972 0.73670816
-0.012172104 0.067815989 0.70114654
-0.012169523 0.066063136 0.70110208
-0.012212507 0.06455186 0.70184326
-0.012267 0.063087463 0.70278299
-0.012321937 0.061609685 0.70373034
-0.012377412 0.060118884 0.70468694
-0.01243339 0.058614552 0.70565224
-0.012489875 0.057096601 0.7066263
-0.012546831 0.055564553 0.70760846
-0.012604355 0.054018676 0.7086004
-0.012662408 0.052458555 0.70960152
-0.012720952 0.050883859 0.71061105
-0.012780087 0.049294651 0.71163082
-0.012839774 0.04769063 0.71266007
-0.012899974 0.046071351 0.71369821
-0.012960982 0.044437647 0.71475023
-0.013022664 0.042788744 0.71581393
-0.013084937 0.041124135 0.71688777
-0.013147859 0.039443612 0.71797282
-0.013211339 0.037746698 0.71906751
-0.013275433 0.036033362 0.72017276
-0.013340154 0.034303278 0.7212888
-0.013405508 0.032556266 0.7224158
-0.013471507 0.030792028 0.72355396
-0.013538157 0.029010385 0.72470325
-0.013605471 0.027210951 0.72586405
-0.013656983 0.025362998 0.7267524
-0.013718605 0.023517638 0.72781497
-0.013787839 0.021666646 0.72900891
-0.013857774 0.019796818 0.73021489
-0.013928424 0.017907977 0.73143315
-0.013999796 0.015999764 0.73266393
-0.014071961 0.014071971 0.73390841
-0.014144816 0.012124151 0.73516476
-0.014218429 0.010156035 0.7364341
-0.014292813 0.0081673563 0.73771685
-0.014367979 0.0061577559 0.73901308
-0.01444394 0.0041268766 0.74032295
-0.014520709 0.0020743906 0.74164677
-0.014598357 2.9802322e-08 0.74298573
-0.01467715 -0.0020967126 0.74434447
-0.014756922 -0.004216224 0.74572009
-0.014837565 -0.0063589215 0.74711072
-0.014919158 -0.0085252225 0.74851781
-0.01500159 -0.010715395 0.7499392
-0.015084937 -0.012929946 0.75137657
-0.015169282 -0.015169263 0.75283098
-0.015254508 -0.017433703 0.75430071
-0.015340765 -0.019723833 0.75578809
-0.015427934 -0.02203989 0.75729132
-0.0155161 -0.024382412 0.75881165
-0.015605279 -0.026751876 0.76034951
-0.015695559 -0.029148847 0.76190633
-0.015786821 -0.031573623 0.76348007
-0.015879149 -0.034026742 0.76507223
-0.015972637 -0.036508858 0.76668435
-0.016067155 -0.039020211 0.76831424
-0.016163025 -0.041562051 0.7699675
-0.016260576 -0.044135809 0.77164966
-0.016359385 -0.046741068 0.77335364
-0.016459325 -0.049377978 0.77507704
-0.016560573 -0.052047491 0.77682292
-0.016662994 -0.054749817 0.77858913
-0.016766692 -0.057485759 0.78037733
-0.016871769 -0.060256302 0.78218931
-0.016978087 -0.063061446 0.78402275
-0.017085757 -0.065902203 0.78587937
-0.017194884 -0.068779498 0.78776121
-0.017305328 -0.07169348 0.78966582
-0.017417286 -0.074645489 0.79159641
-0.017530616 -0.077635556 0.79355073
-0.017646139 -0.080668032 0.7955429
-0.012168208 0.089233547 0.7360515
-0.012218026 0.087562531 0.73705381
-0.012268255 0.085877776 0.73806435
-0.012318848 0.084178746 0.73908222
-0.01236991 0.082466096 0.74010944
-0.010395803 0.067572683 0.7003935
-0.010394903 0.065834403 0.70037544
-0.010425515 0.064290702 0.70099127
-0.010471624 0.062829733 0.7019189
-0.010518144 0.061355889 0.70285481
-0.010565117 0.059868991 0.70379984
-0.010612474 0.058368653 0.70475256
-0.010660255 0.056854725 0.70571387
-0.010708509 0.055327326 0.70668471
-0.010757162 0.053785801 0.70766354
-0.010806261 0.052230269 0.7086513
-0.010855847 0.05066064 0.70964891
-0.010905852 0.049076378 0.71065491
-0.010956319 0.047477424 0.71167028
-0.011007296 0.045863718 0.71269584
-0.01105871 0.044234842 0.71373022
-0.011110605 0.042590678 0.71477419
-0.011163031 0.040931106 0.71582896
-0.011215912 0.039255708 0.71689284
-0.011269297 0.037564337 0.71796685
-0.011323236 0.035856903 0.71905202
-0.011377649 0.034132957 0.72014678
-0.011432589 0.032392323 0.72125202
-0.011488281 0.030635446 0.72237253
-0.011544519 0.028861344 0.72350389
-0.011601355 0.027069837 0.72464734
-0.011658753 0.025260627 0.72580206
-0.011697502 0.023395002 0.72658169
-0.01175595 0.021552593 0.72775757
-0.011814938 0.019691586 0.7289443
-0.011874569 0.017811865 0.73014396
-0.011934756 0.015913039 0.73135489
-0.011995606 0.013994873 0.73257905
-0.012057031 0.012057036 0.73381484
-0.012119136 0.010099292 0.73506427
-0.012181834 0.0081212521 0.73632568
-0.012245237 0.0061226487 0.73760116
-0.01230925 0.0041030943 0.7388891
-0.012373989 0.0020623505 0.74019158
-0.012439359 -0 0.74150676
-0.012505424 -0.0020842254 0.74283582
-0.012572249 -0.004190743 0.7441802
-0.012639738 -0.0063198805 0.745538
-0.012708007 -0.0084719658 0.74691153
-0.012776964 -0.010647416 0.74829876
-0.012846731 -0.012846738 0.74970239
-0.012917207 -0.015070051 0.75112021
-0.012988516 -0.01731801 0.75255483
-0.01306056 -0.019590825 0.7540043
-0.013133408 -0.021888971 0.75546986
-0.013207131 -0.024213046 0.75695312
-0.013281921 -0.026563823 0.75845772
-0.013357683 -0.028941631 0.75998193
-0.013434314 -0.031346709 0.76152366
-0.013511828 -0.033779562 0.7630831
-0.013590243 -0.036240608 0.76466066
-0.013669573 -0.038730443 0.76625663
-0.013749834 -0.041249484 0.76787144
-0.013831045 -0.043798298 0.76950526
-0.013913284 -0.046377629 0.77115977
-0.013996442 -0.048987508 0.77283275
-0.014080599 -0.051628858 0.77452588
-0.014165775 -0.054302126 0.77623951
-0.014252056 -0.057008237 0.77797538
-0.014339325 -0.059747189 0.77973104
-0.01442767 -0.062519878 0.78150845
-0.01451711 -0.065326959 0.78330779
-0.014607666 -0.068169117 0.78512967
-0.01469943 -0.071047217 0.78697574
-0.014792283 -0.073961377 0.78884387
-0.01488661 -0.076914132 0.79074156
-0.014982522 -0.079906762 0.7926712
-0.015079604 -0.082937777 0.79462427
-0.010180984 0.089592665 0.73703682
-0.010223211 0.087919623 0.73805624
-0.01026579 0.086232632 0.73908424
-0.010308726 0.084531575 0.74012077
-0.010352021 0.082816184 0.741166
-0.0086544482 0.067504704 0.70018297
-0.0086379535 0.065648437 0.69978482
-0.0086595705 0.064080834 0.70030659
-0.0086976234 0.062622905 0.70122534
-0.0087360134 0.061152101 0.70215213
-0.0087747425 0.059668273 0.70308715
-0.008813818 0.058171213 0.70403045
-0.0088532418 0.056660771 0.70498228
-0.0088930195 0.05513674 0.70594257
-0.0089331577 0.05359894 0.70691162
-0.008973659 0.052047253 0.70788944
-0.0090145292 0.050481409 0.70887607
-0.0090557737 0.04890117 0.70987183
-0.0090973973 0.047306448 0.7108767
-0.0091394046 0.045697033 0.71189082
-0.0091818366 0.044072837 0.7129153
-0.009224629 0.042433321 0.71394837
-0.0092678238 0.040778428 0.71499121
-0.0093114236 0.039108008 0.71604383
-0.0093554715 0.037421912 0.71710718
-0.0093999021 0.035719663 0.71817982
-0.0094447574 0.034001172 0.71926272
-0.0094900783 0.032266259 0.72035682
-0.0095357997 0.030514598 0.7214607
-0.0095819645 0.028745919 0.72257519
-0.0096285781 0.026960015 0.72370052
-0.0096756853 0.025156796 0.72483778
-0.0097083515 0.023300052 0.72562641
-0.009756282 0.021463841 0.72678357
-0.0098046875 0.019609362 0.72795224
-0.0098535763 0.017736465 0.72913253
-0.009902955 0.015844762 0.73032457
-0.009952832 0.013933957 0.73152876
-0.010003173 0.012003779 0.7327441
-0.010054067 0.010054111 0.73397267
-0.010105644 0.0080845058 0.73521793
-0.010157753 0.0060946643 0.73647594
-0.010210444 0.0040841699 0.73774803
-0.010263642 0.0020527542 0.73903239
-0.010317397 2.9802322e-08 0.74033016
-0.010371719 -0.002074331 0.74164158
-0.010426616 -0.0041706264 0.74296689
-0.010482097 -0.0062892437 0.74430633
-0.010538172 -0.0084305108 0.74566007
-0.01059485 -0.010594815 0.74702847
-0.010652185 -0.012782604 0.74841267
-0.0107101 -0.014994144 0.74981081
-0.010768647 -0.017229795 0.75122428
-0.010827838 -0.019490093 0.75265324
-0.010887683 -0.021775335 0.75409806
-0.010948194 -0.024085999 0.75555891
-0.011009381 -0.026422501 0.75703609
-0.011071305 -0.028785378 0.75853109
-0.011133879 -0.031174839 0.76004177
-0.011197165 -0.033591509 0.76156962
-0.011261174 -0.036035746 0.76311493
-0.01132592 -0.038508087 0.764678
-0.011391414 -0.041009098 0.76625919
-0.01145767 -0.043539137 0.7678588
-0.011524703 -0.046098799 0.76947707
-0.011592576 -0.048688829 0.77111566
-0.011661201 -0.051309258 0.77277243
-0.011730642 -0.053960949 0.77444887
-0.011800916 -0.05664438 0.77614534
-0.011872318 -0.059361547 0.77786922
-0.011944588 -0.062111855 0.77961397
-0.012017803 -0.064896107 0.78138155
-0.012091861 -0.067714393 0.78316945
-0.012166838 -0.070567667 0.78497964
-0.012242812 -0.073456854 0.78681368
-0.012319678 -0.076381981 0.78866947
-0.012397578 -0.079344481 0.79055011
-0.012476407 -0.082344264 0.79245323
-0.0081701893 0.089872092 0.73780334
-0.0082042832 0.088196069 0.73883224
-0.0082386294 0.086505622 0.73986876
-0.0082732979 0.084801316 0.740915
-0.0083082253 0.083082318 0.74196899
-0.0083434833 0.081348956 0.74303305
-0.0068949605 0.065502167 0.69931996
-0.0069099334 0.063916892 0.69977182
-0.0069401478 0.062461317 0.70068359
-0.0069706282 0.060992986 0.70160341
-0.0070013772 0.059511691 0.70253134
-0.0070323981 0.058017284 0.70346749
-0.0070636957 0.056509554 0.70441198
-0.0070952731 0.054988354 0.70536488
-0.0071271593 0.053453714 0.70632714
-0.0071593076 0.051904976 0.70729733
-0.0071917474 0.050342262 0.70827627
-0.0072244834 0.048765302 0.70926416
-0.0072575174 0.047173887 0.71026105
-0.007290856 0.04556787 0.71126717
-0.0073245014 0.043947011 0.71228248
-0.0073584863 0.042311311 0.7133081
-0.0073927604 0.040660203 0.71434242
-0.0074273557 0.038993627 0.71538639
-0.0074622761 0.037311405 0.7164402
-0.0074975267 0.035613269 0.71750402
-0.0075331116 0.033899009 0.71857786
-0.007569036 0.032168418 0.71966195
-0.0076053049 0.030421197 0.72075653
-0.0076419516 0.028657317 0.72186244
-0.0076789241 0.026876241 0.72297817
-0.0077162562 0.025077879 0.7241047
-0.0077423449 0.023227066 0.72489202
-0.0077803275 0.021395922 0.72603828
-0.0078187156 0.019546807 0.72719669
-0.0078574531 0.017679304 0.72836572
-0.0078966077 0.015793234 0.72954732
-0.0079361554 0.013888299 0.73074079
-0.0079760682 0.011964113 0.73194528
-0.0080164168 0.010020554 0.73316288
-0.0080571435 0.0080571771 0.73439193
-0.0080983192 0.0060737729 0.73563451
-0.008139885 0.0040699542 0.73688889
-0.0081819128 0.0020455122 0.73815721
-0.0082243429 2.9802322e-08 0.73943758
-0.008267249 -0.0020667613 0.74073243
-0.0083105713 -0.0041552782 0.7420398
-0.0083543845 -0.0062657893 0.74336195
-0.0083986279 -0.0083985925 0.74469709
-0.008443377 -0.010554224 0.74604756
-0.0084885694 -0.012732834 0.74741137
-0.0085343216 -0.014935046 0.74879205
-0.0085806428 -0.01716125 0.7501899
-0.0086274697 -0.019411772 0.75160307
-0.0086748106 -0.021686971 0.75303173
-0.0087226741 -0.023987353 0.75447613
-0.0087710684 -0.026313215 0.7559365
-0.0088200029 -0.028665006 0.75741327
-0.0088694468 -0.031043053 0.75890535
-0.0089194877 -0.0334481 0.76041549
-0.0089700976 -0.035880387 0.76194274
-0.0090212841 -0.038340449 0.76348746
-0.0090730581 -0.040828764 0.76504993
-0.0091254311 -0.043345779 0.76663035
-0.0091784112 -0.045892 0.76822919
-0.0092320098 -0.048468053 0.76984668
-0.0092862388 -0.051074296 0.77148312
-0.0093410639 -0.053711116 0.77313763
-0.0093965856 -0.056379497 0.77481318
-0.0094527705 -0.059079796 0.77650869
-0.0095096314 -0.061812609 0.77822465
-0.0095671806 -0.064578474 0.77996135
-0.0096254312 -0.067378014 0.78171921
-0.0096843485 -0.07021153 0.78349715
-0.0097440388 -0.073080301 0.78529847
-0.0098044686 -0.075984597 0.78712213
-0.0098656537 -0.078925192 0.78896856
-0.0099276062 -0.081902742 0.79083818
-0.0099903429 -0.084917903 0.79273134
-0.0061402749 0.090057373 0.73831171
-0.0061660525 0.088380128 0.73934889
-0.006192022 0.08668831 0.74039382
-0.0062182373 0.084982574 0.74144864
-0.0062446748 0.083262324 0.74251246
-0.0062713381 0.081527412 0.74358529
-0.0051625767 0.065392673 0.69897211
-0.0051726992 0.06379661 0.69937944
-0.0051952032 0.062342435 0.70028496
-0.0052179215 0.060875773 0.70119905
-0.0052408208 0.059396029 0.70212042
-0.0052639409 0.057903379 0.70305073
-0.0052872659 0.056397527 0.70398927
-0.0053107985 0.054878265 0.70493615
-0.0053345417 0.053345472 0.70589149
-0.0053584785 0.051798642 0.70685464
-0.005382651 0.050238073 0.70782727
-0.0054070423 0.048663408 0.70880866
-0.0054316553 0.047074348 0.70979905
-0.0054564937 0.045470774 0.7107985
-0.0054815602 0.043852508 0.71180713
-0.0055068382 0.042219132 0.71282417
-0.0055323709 0.040570736 0.71385151
-0.0055581615 0.03890714 0.71488929
-0.0055841734 0.037227839 0.71593589
-0.0056104297 0.035532773 0.71699232
-0.0056369342 0.033821613 0.71805882
-0.0056637111 0.032094419 0.71913624
-0.0056907223 0.030350536 0.72022307
-0.0057179932 0.028589964 0.72132039
-0.0057455259 0.026812494 0.7224282
-0.0057733473 0.025017858 0.7235477
-0.0057866341 0.02314657 0.72408229
-0.0058153071 0.021322787 0.725236
-0.0058441744 0.019480586 0.72639751
-0.0058732829 0.017619908 0.72756875
-0.0059026605 0.015740424 0.72875082
-0.0059323567 0.013842165 0.72994572
-0.0059623295 0.011924684 0.7311517
-0.0059926072 0.0099876821 0.73236996
-0.0060232179 0.0080309808 0.73360169
-0.0060541183 0.0060541332 0.73484504
-0.0060853618 0.0040569305 0.73610216
-0.0061169048 0.0020389855 0.73737133
-0.0061487514 -0 0.73865283
-0.0061808545 -0.0020602643 0.73994452
-0.0062132697 -0.004142195 0.74124879
-0.0062460261 -0.0062460601 0.74256676
-0.00627913 -0.0083721578 0.74389875
-0.0063126129 -0.010521024 0.74524599
-0.0063464278 -0.012692839 0.74660665
-0.0063806074 -0.014888078 0.74798197
-0.0064151301 -0.01710698 0.74937093
-0.0064500277 -0.019350052 0.75077522
-0.0064853351 -0.02161777 0.75219584
-0.0065210029 -0.023910344 0.753631
-0.006557066 -0.026228249 0.75508201
-0.0065935291 -0.028571963 0.75654924
-0.0066304295 -0.030941993 0.75803405
-0.0066677164 -0.033338577 0.7595343
-0.0067054243 -0.03576225 0.76105154
-0.006743561 -0.038213491 0.76258606
-0.0067821657 -0.040692985 0.76413935
-0.006821183 -0.043200821 0.76570934
-0.0068605891 -0.045737267 0.76729494
-0.0069004535 -0.048303157 0.76889896
-0.0069407518 -0.05089888 0.77052039
-0.0069815558 -0.053525209 0.7721622
-0.0070227766 -0.056182176 0.77382082
-0.0070645204 -0.058871031 0.77550048
-0.0071067298 -0.061591625 0.77719885
-0.0071494807 -0.06434527 0.77891898
-0.0071927146 -0.067132026 0.7806586
-0.0072365096 -0.069952935 0.78242075
-0.0072808415 -0.072808415 0.78420448
-0.0073256833 -0.075698704 0.78600883
-0.0073711169 -0.078625262 0.78783703
-0.0074170819 -0.081587911 0.78968644
-0.0074636606 -0.08458814 0.79156059
-0.0040817289 0.089798063 0.73760021
-0.0040990668 0.088129938 0.73864669
-0.0041165524 0.086447597 0.73970199
-0.0041341712 0.084750533 0.74076539
-0.0041519585 0.083039165 0.74183899
-0.0034617912 0.067504942 0.70018369
-0.0034379105 0.065320313 0.69874233
-0.0034441459 0.063716739 0.69911873
-0.0034590869 0.062263608 0.70002043
-0.0034741578 0.060797781 0.70093012
-0.003489373 0.059319347 0.70184845
-0.0035047219 0.05782792 0.70277482
-0.0035202068 0.056323349 0.70370936
-0.0035358414 0.054805577 0.70465297
-0.0035516026 0.053274035 0.70560431
-0.0035675177 0.051728994 0.70656484
-0.0035835637 0.050169885 0.7075333
-0.0035997673 0.048596859 0.70851129
-0.0036161051 0.047009379 0.70949733
-0.0036326051 0.045407593 0.71049327
-0.0036492432 0.043790936 0.71149743
-0.0036660475 0.042159557 0.71251166
-0.0036829941 0.040512919 0.71353447
-0.0037001115 0.038851172 0.71456766
-0.003717375 0.037173778 0.71560955
-0.0037348142 0.035480738 0.71666217
-0.0037524039 0.033771634 0.71772373
-0.0037701742 0.032046527 0.71879625
-0.0037880994 0.030304819 0.7198782
-0.0038062104 0.028546572 0.72097123
-0.0038244806 0.026771367 0.72207391
-0.0038429417 0.024979115 0.72318816
-0.0038423957 0.023054391 0.72315526
-0.0038286212 0.021057427 0.72232389
-0.0038475811 0.019237936 0.72346818
-0.0038667447 0.017400384 0.72462475
-0.0038860848 0.015544355 0.72579205
-0.0039056197 0.01366967 0.72697115
-0.0039253673 0.011776119 0.728163
-0.0039452999 0.0098632872 0.729366
-0.003965436 0.0079308748 0.73058134
-0.0039857947 0.0059787035 0.73181009
-0.0040063472 0.004006356 0.73305053
-0.0040271292 0.0020135939 0.7343049
-0.0040481114 -0 0.73557127
-0.0040693134 -0.0020346344 0.73685086
-0.0040907389 -0.0040907264 0.73814404
-0.004112408 -0.0061685741 0.73945189
-0.0041342909 -0.0082685947 0.7407726
-0.0041564074 -0.010390997 0.74210751
-0.0041787624 -0.012536258 0.74345666
-0.0042013763 -0.014704794 0.74482161
-0.0042242189 -0.016896874 0.74620026
-0.004247311 -0.019112825 0.747594
-0.0042706574 -0.021353275 0.74900305
-0.0042943903 -0.023619175 0.75043553
-0.0043185195 -0.025911093 0.75189185
-0.0043429206 -0.028228968 0.75336456
-0.0043675993 -0.030573159 0.75485402
-0.0043925601 -0.032944202 0.75636059
-0.0044178083 -0.035342455 0.75788438
-0.0044433479 -0.037768424 0.75942588
-0.0044691847 -0.040222675 0.76098531
-0.0044953236 -0.042705536 0.76256287
-0.0045217704 -0.045217663 0.76415908
-0.0045485301 -0.047759563 0.76577419
-0.0045756083 -0.050331712 0.76740849
-0.0046030106 -0.052934617 0.7690624
-0.0046307435 -0.055568904 0.77073622
-0.0046588127 -0.058235168 0.7724303
-0.0046872236 -0.060933918 0.77414507
-0.0047160061 -0.063666075 0.77588224
-0.0047451211 -0.066431671 0.77763951
-0.0047745979 -0.069231659 0.77941859
-0.0048044436 -0.072066694 0.78121996
-0.004834665 -0.074937284 0.78304392
-0.0048652687 -0.077844292 0.78489107
-0.0048962622 -0.080788314 0.78676164
-0.0049276771 -0.083770484 0.78865778
-0.0049594739 -0.0867908 0.79057688
-0.0020305612 0.08934471 0.7363565
-0.0020391094 0.087681711 0.73738843
-0.0020477383 0.086005002 0.73843002
-0.0020564322 0.08431375 0.73947942
-0.0020652085 0.082608372 0.74053884
-0.0017308956 0.067504942 0.70018369
-0.0017179342 0.06528154 0.69861907
-0.0017209003 0.063673347 0.69897717
-0.0017283605 0.062220991 0.69987768
-0.0017358797 0.060755789 0.70078534
-0.0017434707 0.059278011 0.70170164
-0.0017511284 0.05778724 0.70262599
-0.0017588536 0.056283325 0.7035585
-0.0017666472 0.054766089 0.7044993
-0.0017745165 0.053235531 0.70544922
-0.0017824564 0.051691264 0.70640761
-0.0017904674 0.050133109 0.70737463
-0.0017985509 0.048560888 0.70835042
-0.0018067077 0.046974391 0.70933509
-0.0018149387 0.04537347 0.71032858
-0.0018232452 0.043757886 0.71133131
-0.0018316281 0.04212746 0.71234322
-0.0018400883 0.040481925 0.71336442
-0.0018486271 0.038821191 0.71439517
-0.0018572456 0.037144899 0.7154355
-0.0018659447 0.035452932 0.71648556
-0.0018747257 0.03374505 0.71754551
-0.0018835898 0.032021016 0.71861553
-0.0018925308 0.030280501 0.71969479
-0.0019015645 0.028523475 0.72078526
-0.0019106849 0.026749611 0.72188616
-0.0019198931 0.024958611 0.72299773
-0.0019211904 0.023054302 0.72315431
-0.0019032932 0.020936251 0.72099394
-0.0019126057 0.019126028 0.72211802
-0.0019220097 0.017298102 0.72325325
-0.0019315066 0.015452057 0.72439957
-0.0019410977 0.013587713 0.72555733
-0.0019507846 0.011704713 0.72672659
-0.0019605686 0.0098028779 0.72790766
-0.0019704513 0.0078818202 0.72910064
-0.0019804342 0.0059413016 0.73030573
-0.0019905188 0.0039811134 0.73152298
-0.0020007065 0.0020007193 0.73275274
-0.0020109992 -0 0.7339952
-0.0020213982 -0.0020214021 0.73525047
-0.0020319053 -0.0040637553 0.73651874
-0.0020425222 -0.0061275661 0.73780042
-0.0020532508 -0.0082129836 0.73909539
-0.0020640926 -0.010320485 0.74040413
-0.0020750493 -0.012450278 0.7417267
-0.0020861232 -0.01460287 0.74306345
-0.0020973159 -0.016778499 0.74441457
-0.0021086293 -0.018977642 0.74578017
-0.0021200653 -0.021200657 0.74716061
-0.0021316262 -0.023447901 0.74855614
-0.0021433136 -0.025719762 0.74996698
-0.0021551303 -0.028016657 0.75139332
-0.0021670777 -0.030339092 0.75283551
-0.0021791584 -0.032687366 0.7542938
-0.0021913745 -0.035061985 0.75576842
-0.0022037285 -0.037463367 0.75725967
-0.0022162225 -0.039891988 0.75876784
-0.0022288589 -0.042348295 0.76029319
-0.0022416401 -0.044832796 0.76183605
-0.0022545692 -0.047345966 0.76339668
-0.002267648 -0.049888223 0.76497543
-0.0022808793 -0.052460223 0.76657259
-0.0022942659 -0.055062383 0.76818854
-0.0023078108 -0.05769524 0.76982349
-0.0023215166 -0.060359418 0.77147794
-0.0023353861 -0.063055396 0.77315211
-0.0023494223 -0.065783799 0.77484649
-0.002363628 -0.068545192 0.77656126
-0.0023780069 -0.071340203 0.77829695
-0.0023925616 -0.074169397 0.78005385
-0.0024072956 -0.07703343 0.78183234
-0.0024222122 -0.079933017 0.78363299
-0.0024373149 -0.082868665 0.78545606
-0.002452607 -0.085841209 0.78730202
0 0.089232832 0.73604953
0 0.087571472 0.73707885
0 0.085896075 0.7381168
0 0.084206849 0.73916459
0 0.082502782 0.74022031
0 0.067504942 0.70018369
0 0.065274775 0.69859773
0 0.063665658 0.69895214
0 0.06221348 0.69985247
0 0.060748667 0.7007606
0 0.059271187 0.70167744
0 0.057780594 0.70260155
0 0.056276828 0.70353389
0 0.054759681 0.70447445
0 0.053229094 0.70542336
0 0.051684797 0.70638084
0 0.050126821 0.70734757
0 0.048554778 0.70832312
0 0.04696849 0.70930743
0 0.045367748 0.7103008
0 0.043752342 0.71130317
0 0.042122066 0.71231484
0 0.040476739 0.71333587
0 0.038816154 0.71436632
0 0.037140101 0.7154063
0 0.035448343 0.71645617
0 0.03374064 0.71751583
0 0.032016784 0.71858561
0 0.030276626 0.71966547
0 0.028519809 0.72075558
0 0.026746154 0.72185624
0 0.024955392 0.72296745
0 0.023054302 0.72315431
0 0.020917982 0.72079396
0 0.019109458 0.72191787
0 0.017283082 0.72305197
0 0.015438676 0.72419721
0 0.013575941 0.72535384
0 0.011694551 0.72652209
0 0.0097943544 0.72770202
0 0.0078749955 0.72889376
0 0.0059361458 0.73009771
0 0.0039775968 0.73131382
0 0.001998961 0.7325424
0 -0 0.73378468
0 -0.0020196438 0.7350387
0 -0.0040602684 0.73630583
0 -0.0061222315 0.7375862
0 -0.0082058311 0.73887992
0 -0.010311484 0.74018741
0 -0.01243943 0.74150878
0 -0.014590144 0.74284422
0 -0.016763896 0.74419397
0 -0.018961072 0.74555826
0 -0.02118215 0.74693745
0 -0.023427516 0.74833274
0 -0.02569741 0.74974221
0 -0.027992308 0.75116724
0 -0.030312717 0.75260806
0 -0.032658905 0.75406492
0 -0.035031468 0.75553811
0 -0.037430733 0.75702792
0 -0.039857239 0.75853461
0 -0.04231137 0.76005852
0 -0.044793665 0.76159984
0 -0.047304809 0.76316023
0 -0.049844891 0.76473749
0 -0.052414596 0.7663331
0 -0.055014431 0.76794744
0 -0.057644993 0.76958084
0 -0.060306817 0.77123374
0 -0.063000441 0.7729063
0 -0.065726399 0.77459902
0 -0.068485349 0.77631211
0 -0.071277827 0.77804607
0 -0.074104875 0.77980268
0 -0.076966405 0.78157955
0 -0.079863399 0.78337842
0 -0.082796514 0.78519976
0 -0.085766405 0.78704387
0.002028865 0.089270085 0.73615181
0.0020374986 0.08761245 0.73719394
0.0020461974 0.085940331 0.738244
0.0020549709 0.084253788 0.73930305
0.0020638285 0.082553148 0.7403723
0.0017308895 0.067504704 0.70018297
0.0017184416 0.065300792 0.6986804
0.0017214628 0.063694149 0.69904506
0.0017289339 0.062241673 0.69994688
0.00173647 0.060776472 0.70085663
0.0017440723 0.059298486 0.7017743
0.0017517414 0.057807505 0.70269996
0.0017594782 0.056303293 0.7036339
0.0017672837 0.054785788 0.70457613
0.0017751588 0.053254753 0.70552671
0.0017831043 0.051710039 0.70648581
0.0017911212 0.050151438 0.70745361
0.0017992107 0.04857868 0.70843005
0.0018073734 0.046991706 0.70941544
0.0018156104 0.045390278 0.71040964
0.0018239232 0.043774188 0.71141309
0.001832319 0.042143375 0.71242654
0.0018407924 0.040497452 0.71344942
0.0018493377 0.038836092 0.71448094
0.0018579698 0.037159413 0.71552289
0.0018666825 0.035466999 0.71657467
0.0018754776 0.03375861 0.71763635
0.0018843558 0.032034099 0.71870798
0.0018933116 0.030292988 0.71978909
0.0019023599 0.028535396 0.72088128
0.0019114951 0.026760966 0.72198397
0.0019207186 0.024969399 0.72309732
0.0019211904 0.023054302 0.72315431
0.0019082074 0.020990312 0.72158718
0.0019175975 0.019175977 0.72272062
0.0019270878 0.017343819 0.72386616
0.0019366725 0.015493363 0.72502315
0.0019463757 0.013624638 0.7261945
0.0019562074 0.011737257 0.72738123
0.0019661309 0.0098306537 0.72857916
0.0019761636 0.0079046786 0.72979021
0.0019862992 0.005958885 0.73101366
0.0019965393 0.003993094 0.73224974
0.0020068856 0.0020069182 0.73349857
0.0020173397 -0 0.73476058
0.002027903 -0.0020278692 0.7360357
0.0020385778 -0.0040771663 0.73732424
0.0020493655 -0.0061480999 0.73862642
0.0020602678 -0.0082410574 0.73994243
0.002071287 -0.010356426 0.74127257
0.0020824245 -0.012494534 0.74261701
0.0020936828 -0.014655739 0.743976
0.0021050628 -0.016840518 0.74534976
0.0021165677 -0.019049108 0.74673843
0.002128199 -0.021281987 0.74814248
0.0021399588 -0.023539513 0.74956203
0.0021518492 -0.025822133 0.7509973
0.0021638726 -0.028130323 0.75244862
0.002176031 -0.030464441 0.75391626
0.002188327 -0.032824904 0.75540054
0.0022007625 -0.035212189 0.75690168
0.0022133403 -0.037626773 0.75841987
0.0022260626 -0.040069103 0.75995564
0.0022389321 -0.042539686 0.76150906
0.002251951 -0.045039028 0.76308072
0.0022651225 -0.047567546 0.76467061
0.002278449 -0.050125897 0.76627922
0.0022919332 -0.052714437 0.7679069
0.0023055777 -0.055333853 0.76955396
0.0023193858 -0.05798465 0.77122074
0.0023333603 -0.060667366 0.77290761
0.0023475043 -0.063382596 0.77461493
0.0023618205 -0.066130936 0.77634305
0.0023763126 -0.068913072 0.7780925
0.002390984 -0.071729511 0.77986336
0.0024058372 -0.074580938 0.78165632
0.0024208762 -0.077468067 0.78347176
0.0024361045 -0.080391407 0.78530991
0.0024515255 -0.08335188 0.78717142
0.0024671431 -0.086349994 0.78905666
0.0040974384 0.090143681 0.7385484
0.0041145892 0.088463694 0.73958349
0.0041319011 0.086769938 0.74062842
0.0041493415 0.08506152 0.74168098
0.0041669477 0.083338976 0.74274361
0.0034617912 0.067504942 0.70018369
0.0034399785 0.065359622 0.6988672
0.0034464591 0.063759476 0.69925833
0.0034614438 0.062306017 0.70016271
0.0034765718 0.06084004 0.70107579
0.0034918203 0.059360981 0.70199609
0.0035072153 0.057869077 0.70292526
0.0035227346 0.056363791 0.70386195
0.0035384041 0.054845273 0.7048077
0.003554201 0.053313017 0.70576113
0.0035701524 0.05176723 0.70672387
0.0035862478 0.050207436 0.70769536
0.0036024756 0.048633456 0.70867473
0.0036188643 0.047045261 0.70966387
0.0036353895 0.045442402 0.71066129
0.00365208 0.043825001 0.71166861
0.0036689104 0.042192489 0.71268445
0.0036859105 0.040545046 0.71371049
0.0037030689 0.038882226 0.71474612
0.0037203738 0.037203729 0.71579051
0.0037378555 0.035509646 0.71684563
0.003755488 0.03379944 0.71790981
0.0037733016 0.032073081 0.71898508
0.003791271 0.030330211 0.72006953
0.0038094269 0.028570712 0.72116542
0.0038277572 0.026794314 0.72227162
0.0038462798 0.02500084 0.72338963
0.0038440342 0.023064226 0.72325408
0.0038632813 0.021248072 0.72441572
0.0038827227 0.01941362 0.72558916
0.0039023755 0.017560661 0.72677541
0.0039222133 0.015688837 0.72797263
0.0039422535 0.013797939 0.72918218
0.0039625154 0.01188755 0.73040509
0.0039829705 0.0099574625 0.73163962
0.0040036384 0.0080072582 0.73288709
0.0040245377 0.0060367882 0.7341485
0.0040456401 0.0040456653 0.73542207
0.0040669651 0.0020335019 0.73670918
0.0040884661 -0 0.73800683
0.0041100266 -0.0020549595 0.73930812
0.0041318154 -0.004131794 0.74062324
0.0041538542 -0.0062307715 0.74195337
0.0041761119 -0.0083522201 0.74329674
0.0041986089 -0.010496497 0.74465454
0.0042213681 -0.012664109 0.74602818
0.0042443569 -0.014855236 0.74741566
0.0042675976 -0.017070353 0.7488184
0.0042910939 -0.019309938 0.75023657
0.0043148324 -0.02157414 0.75166929
0.0043388535 -0.023863703 0.75311905
0.0043631434 -0.026178837 0.75458509
0.004387707 -0.028520077 0.75606763
0.0044125295 -0.030887693 0.7575658
0.0044376538 -0.033282369 0.7590822
0.0044630654 -0.035704494 0.76061594
0.0044887704 -0.038154542 0.76216739
0.0045146309 -0.040631652 0.76372814
0.0045407489 -0.043137103 0.76530451
0.0045671924 -0.04567191 0.76690054
0.0045939246 -0.048236221 0.76851398
0.0046209074 -0.050830007 0.77014256
0.0046481444 -0.053453654 0.77178639
0.0046757041 -0.056108445 0.77344984
0.0047035706 -0.058794647 0.7751317
0.0047317939 -0.061513305 0.77683514
0.0047603576 -0.064264804 0.77855909
0.0047892681 -0.067049742 0.78030401
0.0048185093 -0.069868356 0.78206885
0.0048481324 -0.072721988 0.78385687
0.0048781228 -0.075610906 0.78566682
0.0049084863 -0.078535795 0.78749949
0.0049392302 -0.081497312 0.78935498
0.0049703368 -0.084495693 0.79123247
0.0061333505 0.089955807 0.73803306
0.0061589438 0.088278204 0.73906291
0.0061847512 0.086586505 0.74010128
0.006210776 0.08488059 0.74114841
0.0062370207 0.083160311 0.74220443
0.006263488 0.081425339 0.74326944
0.0051673218 0.065452754 0.69916308
0.0051780702 0.06386289 0.69959557
0.0052006748 0.06240809 0.70050514
0.0052234777 0.060940564 0.70142257
0.0052464814 0.059460133 0.70234823
0.0052696699 0.057966381 0.70328122
0.0052930829 0.056459546 0.70422333
0.005316705 0.05493927 0.70517379
0.0053405203 0.053405195 0.70613205
0.0053645684 0.051857531 0.70709968
0.0053888345 0.05029583 0.70807606
0.0054133208 0.048719913 0.70906132
0.0054380307 0.047129631 0.71005559
0.0054629478 0.045524567 0.71105814
0.005488114 0.04390496 0.7120707
0.005513513 0.042270243 0.71309274
0.0055391486 0.040620416 0.7141242
0.005565003 0.038955033 0.71516454
0.0055911201 0.037274152 0.71621537
0.0056174845 0.035577416 0.71727622
0.0056440975 0.033864617 0.71834707
0.0056710076 0.032135725 0.71942985
0.0056981971 0.030390382 0.72052389
0.0057256483 0.02862826 0.72162843
0.0057533653 0.026849031 0.72274363
0.0057813521 0.025052547 0.7238698
0.0058010584 0.023204267 0.72466266
0.0058295578 0.02137506 0.72580934
0.0058583384 0.019527823 0.72696745
0.0058874041 0.017662257 0.7281369
0.0059167603 0.015778065 0.7293182
0.0059464099 0.013875008 0.73051119
0.0059763356 0.011952698 0.7317152
0.0060065868 0.010010988 0.73293257
0.0060371463 0.0080495477 0.73416215
0.0060680187 0.0060680211 0.73540437
0.0060992083 0.0040661693 0.73665929
0.0061306953 0.002043575 0.73792624
0.0061625335 -0 0.73920733
0.0061947056 -0.0020648539 0.74050182
0.0062272139 -0.0041514337 0.74180984
0.0062600663 -0.0062600374 0.74313176
0.0062932665 -0.0083910227 0.74446762
0.0063267942 -0.010544628 0.74581665
0.0063607083 -0.01272139 0.7471813
0.0063949875 -0.014921635 0.74856055
0.0064296382 -0.017145693 0.74995476
0.0064646667 -0.019393951 0.75136417
0.0065000509 -0.021666825 0.75278801
0.0065358528 -0.023964763 0.75422847
0.0065720514 -0.026288182 0.75568503
0.0066086533 -0.028637499 0.75715774
0.0066456646 -0.031013101 0.75864702
0.0066830935 -0.033415437 0.76015306
0.0067209159 -0.035844862 0.76167494
0.0067591998 -0.038302153 0.7632153
0.0067979214 -0.040787548 0.76477343
0.0068370905 -0.043301553 0.76634938
0.0068767127 -0.045844734 0.76794362
0.0069167647 -0.04841736 0.76955521
0.0069573191 -0.051020294 0.77118701
0.0069983508 -0.053654015 0.772838
0.0070398701 -0.056318939 0.7745086
0.0070818849 -0.059015721 0.77619922
0.0071243704 -0.061744571 0.77790868
0.0071674031 -0.06450659 0.7796402
0.0072109583 -0.067302257 0.78139263
0.0072550466 -0.070132077 0.78316665
0.007299677 -0.072996765 0.78496242
0.0073448601 -0.075896889 0.78678048
0.0073906058 -0.078833103 0.78862119
0.0074369255 -0.081806183 0.79048491
0.0074837911 -0.084816277 0.79237056
0.008153514 0.089688689 0.73730016
0.0081871673 0.088012069 0.7383157
0.0082210656 0.086321205 0.7393387
0.0082552461 0.084616303 0.74037021
0.0082897115 0.082897156 0.74141032
0.0069235824 0.067504942 0.70018369
0.0069033075 0.065581441 0.69957185
0.0069196327 0.064006567 0.70006454
0.0069499807 0.062549859 0.70098031
0.0069805961 0.061080217 0.70190424
0.0070114578 0.059597433 0.70283556
0.007042618 0.058101594 0.70377594
0.0070740571 0.056592464 0.70472467
0.0071057775 0.055069774 0.70568192
0.0071377587 0.053533196 0.70664704
0.0071700546 0.051982939 0.70762163
0.0072026439 0.050418526 0.70860511
0.0072355047 0.048839658 0.70959675
0.0072686933 0.047246486 0.71059835
0.0073021874 0.04563868 0.71160913
0.0073359921 0.044015944 0.71262932
0.0073701655 0.042378485 0.71366048
0.0074046855 0.040725768 0.71470225
0.0074395589 0.039057702 0.71575463
0.0074747615 0.037373841 0.71681702
0.0075102714 0.035673797 0.71788859
0.0075461487 0.03395769 0.71897125
0.0075823409 0.032224953 0.72006351
0.0076189116 0.030475676 0.72116709
0.0076558073 0.028709292 0.7222805
0.0076930919 0.026925832 0.72340572
0.0077307113 0.025124818 0.72454095
0.0077571981 0.02327162 0.72534025
0.0077954191 0.021437407 0.72649372
0.0078339865 0.019584984 0.72765762
0.0078729698 0.017714173 0.72883397
0.0079123415 0.015824705 0.73002213
0.0079521099 0.013916194 0.73122227
0.0079922806 0.011988431 0.73243451
0.0080328584 0.010041088 0.73365903
0.0080738179 0.0080738366 0.73489511
0.0081152963 0.0060864687 0.73614681
0.0081573352 0.004078716 0.73741549
0.0081998119 0.0020499825 0.73869729
0.0082427347 -0 0.73999268
0.0082861083 -0.0020715296 0.74130154
0.0083299764 -0.0041649342 0.74262536
0.0083742747 -0.0062806606 0.74396217
0.0084190471 -0.0084190369 0.74531335
0.0084643019 -0.010580361 0.74667907
0.0085100457 -0.01276508 0.74805945
0.0085562849 -0.014973491 0.74945486
0.0086030308 -0.017206073 0.75086558
0.008650328 -0.019463211 0.75229287
0.0086981095 -0.021745265 0.75373483
0.0087464219 -0.02405265 0.75519276
0.0087952744 -0.026385814 0.75666702
0.0088446755 -0.028745174 0.75815779
0.0088946344 -0.031131178 0.75966543
0.0089452006 -0.033544511 0.76119149
0.008996306 -0.035985202 0.7627337
0.0090479972 -0.038453966 0.76429355
0.0091002863 -0.040951252 0.76587152
0.0091531835 -0.043477595 0.76746792
0.0092066992 -0.046033472 0.76908284
0.0092608444 -0.048619419 0.77071685
0.0093156733 -0.051236182 0.77237141
0.0093711112 -0.05388388 0.77404445
0.0094272587 -0.056563526 0.77573878
0.0094840815 -0.059275508 0.7774536
0.0095415488 -0.062020063 0.7791878
0.009599762 -0.064798385 0.78094453
0.009658644 -0.067610502 0.78272152
0.0097182998 -0.070457667 0.7845217
0.009778697 -0.073340207 0.78634435
0.0098398011 -0.076258451 0.78818834
0.0099019185 -0.079215318 0.7900629
0.0099650249 -0.082211435 0.79196727
0.010028889 -0.08524552 0.79389465
0.010037366 0.088328809 0.73356962
0.010053056 0.086456299 0.73394835
0.010094349 0.084792554 0.7349453
0.010135982 0.083115101 0.73595035
0.010177961 0.0814237 0.73696381
0.0086544482 0.067504704 0.70018297
0.0086510666 0.065748125 0.70010132
0.0086748842 0.064194143 0.70067632
0.0087131336 0.062734574 0.70159978
0.0087517519 0.06126225 0.70253211
0.008790683 0.059776664 0.70347202
0.0088299932 0.058277994 0.70442098
0.0088696256 0.056765616 0.70537776
0.0089096474 0.055239826 0.70634401
0.0089499997 0.05370003 0.70731819
0.0089907506 0.052146375 0.70830208
0.0090320064 0.05057922 0.70929801
0.0090736402 0.04899767 0.71030319
0.0091156615 0.047401428 0.71131766
0.009158073 0.045790404 0.71234155
0.0092008822 0.04416427 0.71337503
0.0092440918 0.042522877 0.71441823
0.0092877103 0.040865928 0.71547127
0.0093317423 0.039193332 0.71653438
0.0093761934 0.037504792 0.7176075
0.0094210701 0.03580007 0.71869087
0.0094664143 0.034079075 0.71978563
0.0095121609 0.032341361 0.72089005
0.0095583517 0.030586749 0.72200513
0.0096049933 0.028815001 0.72313112
0.0096520921 0.027025878 0.72426826
0.0096996557 0.025219113 0.72541654
0.0097335828 0.02336058 0.72623557
0.0097819539 0.021520287 0.7274034
0.0098308474 0.019661695 0.72858375
0.0098801935 0.017784357 0.72977507
0.009930077 0.015888155 0.73097938
0.0099804262 0.01397258 0.7321949
0.010031329 0.012037575 0.73342389
0.010082754 0.010082752 0.73466533
0.010134668 0.0081077218 0.73591864
0.010187161 0.0061123371 0.7371859
0.010240159 0.0040960908 0.73846543
0.010293753 0.0020587742 0.73975921
0.010347867 2.9802322e-08 0.74106574
0.010402598 -0.0020805001 0.74238706
0.010457911 -0.0041831732 0.74372244
0.010513946 -0.006308347 0.74507529
0.01057081 -0.0084566474 0.74644804
0.010628247 -0.010628223 0.74783468
0.010686357 -0.012823641 0.7492376
0.01074506 -0.01504308 0.75065482
