# .PCD v0.7 - Point Cloud Data file format
VERSION 0.7
FIELDS x y z
SIZE 4 4 4
TYPE F F F
COUNT 1 1 1
WIDTH 190
HEIGHT 1
VIEWPOINT 0 0 0 1 0 0 0
POINTS 190
DATA ascii
0.018851046 0.028276592 0.68087298
0.017223455 0.031315386 0.68025112
0.014091917 0.032881141 0.68025112
0.026832519 0.028410912 0.68177384
0.01436977 0.027142882 0.68397778
0.015912538 0.02705133 0.68332744
0.0080212159 0.030480593 0.6848954
0.0080212159 0.030480593 0.6848954
0.012933132 0.0258663 0.68639201
0 0.045326054 0.68665081
0 0.042304009 0.68765163
0.019581081 0.022844613 0.68821657
0.019581081 0.022844613 0.68821657
0.039147608 0.030991912 0.68814337
0 0.034875751 0.69171619
0.043268502 0.036611825 0.69212961
0.025129255 0.020103425 0.69347072
0.0067081419 0.023478538 0.69368219
0.0016752612 0.058634162 0.69346797
0.0168726 0.018559903 0.69491637
0.011774134 0.020184249 0.69428372
0.0085558305 0.018822879 0.69780207
0.020735957 0.015551984 0.69983375
0.042473163 0.042473137 0.70486963
0.015869902 0.068769604 0.70409799
0.0071358751 0.012487799 0.70659024
0.041038308 0.057096779 0.70662701
0.023428742 0.066681832 0.70879227
0.028871564 0.063156545 0.70906526
0.028871564 0.063156545 0.70906526
0.020006707 0.0090939701 0.71079367
0 0.012767494 0.71141398
0.038644273 0.038644254 0.71337831
0.036746494 0.051445097 0.71303087
0.012973127 0.0055599213 0.71495962
0.0037058252 0.0074116588 0.71491247
-0.0018688649 0.0093443394 0.71683806
-0.0074745384 0.016817719 0.71681029
0.026188074 0.059858471 0.71704471
-0.0094256131 0.018851221 0.71880054
0.031961229 0.056402206 0.71819091
0.024629453 0.058731794 0.71994132
0.0094852922 0.0018970668 0.72024131
0.011399207 0.0018998981 0.72058046
-0.0095295161 0.015247226 0.72130895
0.030640811 0.053621441 0.72241318
-0.0019344337 0.0019344687 0.72475296
0.0077347145 0.054143012 0.72466183
0.029270329 0.050735265 0.72679555
0.01793129 0.051801503 0.7317459
0.028218294 0.044343054 0.73454964
0.016102167 0.050319284 0.734209
0.018255938 0.048682481 0.7361002
0.0041500987 -0.014525354 0.7417267
-0.01921968 -0.0021354854 0.74902618
-0.0086617079 -0.017323375 0.75263625
-0.019480836 -0.0064935684 0.75252885
-0.013018028 -0.015187681 0.75314862
-0.0021977948 -0.021977931 0.7565434
-0.0223023 -0.011151135 0.76045865
-0.013452433 -0.022420675 0.76188815
-0.0022554838 -0.029321253 0.76350707
-0.015806057 -0.022580057 0.76381183
-0.0068179918 -0.027271956 0.76558089
-0.016172206 -0.02772373 0.77012575
-0.027960295 -0.01398012 0.77250499
-0.0071091531 -0.037915498 0.77729636
-0.0263958 -0.028795391 0.78090566
-0.033598039 -0.016799003 0.78093481
-0.029198281 -0.029198259 0.78495812
-0.029463202 -0.031918466 0.78762305
-0.01982365 -0.042125225 0.79036188
-0.010066113 -0.050330579 0.79501802
-0.040130157 -0.045480847 0.81418872
-0.037982225 -0.054260314 0.81873614
-0.040874541 -0.051774383 0.82017899
0.0063359193 0.034847587 0.6824494
0.03365016 0.028843015 0.68467152
0.0047942991 0.035158187 0.6841538
0.0016041042 0.044914931 0.68487859
0.022590939 0.024204612 0.68602949
0.041036144 0.032828927 0.68938613
0.0050257328 0.025128663 0.69346601
0.0033292766 0.028298885 0.6921857
-0.0016686725 0.039212525 0.69267273
-0.0016686725 0.039212525 0.69267273
0.0168726 0.018559903 0.69491637
0.028750604 0.020294577 0.69539344
0.0050425483 0.058829755 0.69414258
0.0050425483 0.058829755 0.69414258
0.0068189888 0.02045697 0.69702733
-0.0017172267 0.029192865 0.69853371
0.027729344 0.017330855 0.70044786
0.0017394039 0.020872891 0.70121074
-0.0017371092 0.026056647 0.70093375
0.019215807 0.013975173 0.70211458
0.015012374 0.012363285 0.70444322
0.015011585 0.067109987 0.70442736
0.037556272 0.062593818 0.70712435
0.010867557 0.0090563297 0.70988452
0.012663323 0.0090452433 0.70961738
0.001811653 0.012681574 0.70993197
-0.0071981368 0.037790269 0.70846909
0.039778594 0.041586727 0.70950526
0.03102977 0.014602274 0.711577
0.040149871 0.038324893 0.71154243
0.019070871 0.061752841 0.71048808
0.018384388 0.0073537827 0.71316528
0 0.011036634 0.71328521
0.0055361455 0.0073815286 0.71400344
0.02229183 0.007430613 0.71548462
0.026033325 0.0092976391 0.7157104
-0.007387958 0.020316899 0.71419746
-0.0092516812 0.027755052 0.71460146
0.038874336 0.050904959 0.7147007
0.0075559486 0.056669623 0.71926701
-0.0018981596 0.0056944788 0.72037429
0.011451209 0.055347532 0.72162658
0.024773063 0.057168633 0.72127485
0.024773063 0.057168633 0.72127485
0.013426526 -0.0038361549 0.72277826
0.032637216 0.045112297 0.72299087
0.019198047 0.05759415 0.722987
0.0038576373 2.9802322e-08 0.72407508
-0.01164207 0.013582438 0.72546649
-0.01164207 0.013582438 0.72546649
0.031036252 0.050433934 0.72539651
0.011630253 0.052336156 0.72522873
0.023514017 0.048987538 0.72777879
-0.011856841 0.0079045594 0.72978735
0.018119384 -0.0040265322 0.73426867
0.020239329 0.046550453 0.73555648
-0.020989787 0.0062969625 0.7446152
-0.020989787 0.0062969625 0.7446152
0.0043606148 -0.023983389 0.75443256
-0.013156315 -0.017541736 0.75593066
-0.024476344 -0.0044502318 0.75984216
-0.023039639 -0.020735621 0.76935917
-0.030295257 -0.011652023 0.77255082
-0.0093737012 -0.032807887 0.77412254
-0.025917757 -0.023561567 0.77565974
-0.021360237 -0.030853629 0.77773595
-0.02422611 -0.033916533 0.78368109
-0.03442898 -0.022132874 0.78809935
-0.017530791 -0.045079172 0.79355371
-0.030048272 -0.037560314 0.79350841
-0.030048272 -0.037560314 0.79350841
-0.015325787 -0.051085919 0.79957712
-0.039503679 -0.039503634 0.80914718
-0.024143932 -0.059018493 0.81507176
-0.021635737 -0.062202722 0.81770414
-0.021635737 -0.062202722 0.81770414
0.0047565317 0.041223258 0.68263423
0.0096500777 0.025057312 0.68959987
0.0096466858 0.021595683 0.69378126
0.0028063832 0.026397636 0.69464576
-0.0016662014 0.049986035 0.69237447
0.043917306 0.052700788 0.70329762
0.013696993 0.012372449 0.70460129
0.025490304 0.013629685 0.7059204
0.030274775 0.063218325 0.70621598
0.015869902 0.068769604 0.70409799
0.018656872 0.005597055 0.71645451
0.038038664 0.049266905 0.71708381
0.027193155 0.055329427 0.71766919
0.010806958 0.058254838 0.71811426
0.03365 0.056083351 0.71690804
-0.011455558 0.021955147 0.72171414
0.025335208 0.049690098 0.72649455
0.02266288 0.00098188221 0.7291671
0.02266288 0.00098188221 0.7291671
0.01874401 0.05327408 0.72942197
0.0020004658 -0.0060111582 0.73311639
-0.016403658 0.006151408 0.73875815
0.025421169 0.04474625 0.73676193
0.0041500987 -0.014525354 0.7417267
-0.0063900603 -0.014910102 0.74836224
0.012965909 -0.015126854 0.75210005
-0.029155169 -0 0.76196462
-0.0102701 -0.027381599 0.76668394
-0.017820317 -0.033257768 0.77800113
-0.017820317 -0.033257768 0.77800113
-0.020406151 -0.048464566 0.79915112
-0.027852293 -0.043044418 0.79688877
-0.026130445 -0.052260876 0.80666852
-0.018307662 -0.054922938 0.80695039
-0.018307662 -0.054922938 0.80695039
-0.0078724762 -0.052483171 0.8080101
-0.021635737 -0.062202722 0.81770414
-0.046658628 -0.04391396 0.82255167
