# .PCD v0.7 - Point Cloud Data file format
VERSION 0.7
FIELDS x y z
SIZE 4 4 4
TYPE F F F
COUNT 1 1 1
WIDTH 1345
HEIGHT 1
VIEWPOINT 0 0 0 1 0 0 0
POINTS 1345
DATA ascii
-0.065034583 -0.017342567 0.7529251
-0.065937318 -0.019781202 0.75655735
-0.063900523 0.02423808 0.75722808
-0.062962241 0.021711111 0.75332248
-0.062337141 0.019345999 0.75072056
-0.0618704 0.017067671 0.74877775
-0.061513431 0.014848053 0.74729192
-0.061233081 0.012668878 0.74612492
-0.061019614 0.010520637 0.7452364
-0.06085838 0.0083942711 0.74456537
-0.060749076 0.0062844157 0.74411035
-0.060682263 0.0041849911 0.74383217
-0.060656641 0.0020915866 0.74372554
-0.060676426 -0 0.74380797
-0.060738653 -0.0020944476 0.74406689
-0.060842305 -0.004196018 0.74449843
-0.060998321 -0.0063101947 0.74514776
-0.061206479 -0.0084422827 0.74601424
-0.061476685 -0.010599464 0.74713898
-0.061821375 -0.01279068 0.74857366
-0.062272936 -0.015031397 0.75045335
-0.062866762 -0.017342567 0.7529251
-0.06373997 -0.019781381 0.75655973
-0.061697334 0.024238229 0.75722921
-0.060791127 0.021711111 0.75332248
-0.060187325 0.019345909 0.75071943
-0.059736688 0.017067611 0.74877667
-0.05939253 0.014848113 0.747293
-0.059121598 0.012668878 0.74612492
-0.058915492 0.010520637 0.7452364
-0.058759816 0.0083942711 0.74456537
-0.058654282 0.0062844157 0.74411035
-0.058589768 0.0041849911 0.74383217
-0.058565032 0.0020915866 0.74372554
-0.058584135 -0 0.74380797
-0.058644459 -0.0020944774 0.74406803
-0.058744296 -0.004196018 0.74449843
-0.058894932 -0.0063101947 0.74514776
-0.059095912 -0.0084422827 0.74601424
-0.059356801 -0.010599464 0.74713898
-0.059689604 -0.01279068 0.74857366
-0.060125589 -0.015031397 0.75045335
-0.06069947 -0.017342687 0.7529273
-0.061542306 -0.01978147 0.75656092
-0.059493855 0.024238229 0.75722921
-0.05861976 0.021711022 0.75332129
-0.05803778 0.019345909 0.75071943
-0.057603229 0.017067611 0.74877667
-0.057271365 0.014848113 0.747293
-0.057010107 0.012668878 0.74612492
-0.056811605 0.010520637 0.74523747
-0.05666149 0.0083942711 0.74456632
-0.056559484 0.0062844157 0.74411035
-0.05649728 0.0041849911 0.74383217
-0.056473661 0.0020915866 0.74372661
-0.056491848 -0 0.74380797
-0.056550018 -0.0020944774 0.74406803
-0.056646284 -0.004196018 0.74449843
-0.05679154 -0.0063101947 0.74514776
-0.056985583 -0.0084423721 0.74601525
-0.057237156 -0.010599464 0.74714005
-0.057557583 -0.012790591 0.74857259
-0.0579785 -0.015031457 0.75045437
-0.058531888 -0.017342806 0.7529285
-0.059344891 -0.019781619 0.75656325
-0.057290629 0.024238318 0.7572304
-0.056448903 0.021711111 0.75332248
-0.055888474 0.019345999 0.75072056
-0.055469781 0.017067611 0.74877667
-0.055150207 0.014848113 0.747293
-0.054898392 0.012668848 0.74612391
-0.054707468 0.010520637 0.74523747
-0.054562915 0.0083942711 0.74456632
-0.05446469 0.0062844157 0.74411035
-0.054404788 0.0041849911 0.74383217
-0.054382041 0.0020915866 0.74372661
-0.05439955 -0 0.74380797
-0.054455798 -0.0020944774 0.74406898
-0.054548506 -0.0041960776 0.74449939
-0.054688152 -0.0063101947 0.74514776
-0.054875236 -0.0084423423 0.74601638
-0.055117492 -0.010599524 0.74714112
-0.055425823 -0.012790591 0.74857259
-0.055831149 -0.015031457 0.75045437
-0.056364279 -0.017342895 0.75292957
-0.057147186 -0.019781709 0.75656444
-0.055087145 0.024238318 0.7572304
-0.054277558 0.021711022 0.75332129
-0.053738918 0.019345999 0.75072056
-0.053336322 0.017067611 0.74877667
-0.053029269 0.014848173 0.74729407
-0.052786916 0.012668848 0.74612391
-0.052603561 0.010520667 0.7452386
-0.052464563 0.0083943307 0.74456745
-0.052369896 0.0062844157 0.74411035
-0.052312292 0.0041849911 0.74383217
-0.052290428 0.0020915866 0.74372661
-0.052307043 -5.9604645e-08 0.74380684
-0.052361347 -0.0020944774 0.74406898
-0.052450482 -0.0041960776 0.74449939
-0.052584764 -0.0063101947 0.74514776
-0.052764874 -0.0084424019 0.74601752
-0.052997813 -0.010599554 0.7471422
-0.053294059 -0.012790591 0.74857259
-0.053684022 -0.015031576 0.7504555
-0.054196894 -0.017343014 0.75293189
-0.054949701 -0.019781947 0.7565667
-0.052883893 0.024238437 0.75723153
-0.052106455 0.021711022 0.75332129
-0.051589359 0.019345999 0.75072056
-0.051202655 0.017067522 0.7487756
-0.0509081 0.014848173 0.74729407
-0.050675225 0.012668818 0.74612284
-0.050499417 0.010520667 0.7452386
-0.050365981 0.0083943307 0.74456745
-0.050275099 0.0062844157 0.74411035
-0.0502198 0.0041849911 0.74383217
-0.050198808 0.0020915866 0.74372661
-0.050214972 -0 0.74380797
-0.050266888 -0.0020944774 0.74406898
-0.050352678 -0.0041960478 0.74450052
-0.050481584 -0.0063102245 0.74514884
-0.05065449 -0.0084424019 0.74601853
-0.050878115 -0.010599673 0.74714327
-0.051162075 -0.012790561 0.74857152
-0.051536664 -0.015031576 0.7504555
-0.052029245 -0.017343104 0.75293303
-0.05275194 -0.019782007 0.7565679
-0.050680399 0.024238437 0.75723153
-0.049935568 0.021711111 0.75332248
-0.049440011 0.019346058 0.75072169
-0.049069207 0.017067522 0.7487756
-0.048786927 0.014848173 0.74729407
-0.048563756 0.012668818 0.74612284
-0.048395474 0.010520726 0.74523962
-0.048267599 0.0083943307 0.74456853
-0.048180506 0.0062844157 0.74411142
-0.048127312 0.0041849911 0.74383217
-0.048107192 0.0020915866 0.74372661
-0.048122682 -0 0.74380797
-0.048172638 -0.0020944774 0.74407011
-0.048254646 -0.0041960478 0.74450052
-0.048378184 -0.0063102245 0.74514884
-0.048543885 -0.0084424019 0.74601853
-0.048758406 -0.010599673 0.74714434
-0.049030326 -0.012790561 0.74857152
-0.049389519 -0.015031606 0.75045669
-0.049861576 -0.017343163 0.75293416
-0.050554164 -0.019782096 0.75656903
-0.048476901 0.024238437 0.75723153
-0.047764458 0.021711111 0.75332248
-0.047290448 0.019346058 0.75072169
-0.046935767 0.017067522 0.7487756
-0.046665955 0.014848232 0.74729514
-0.046452489 0.012668848 0.74612391
-0.046291325 0.010520726 0.74523962
-0.046169009 0.0083943307 0.74456853
-0.0460857 0.0062844157 0.74411142
-0.04603482 0.0041849911 0.74383217
-0.046015576 0.0020915866 0.74372661
-0.046030395 -0 0.74380797
-0.046078175 -0.0020944774 0.74407011
-0.046156619 -0.0041960478 0.74450052
-0.046274979 -0.0063102841 0.74514997
-0.046433482 -0.0084424913 0.7460196
-0.046638671 -0.010599703 0.74714541
-0.046898372 -0.012790471 0.74857044
-0.047242146 -0.015031606 0.75045669
-0.047694094 -0.017343342 0.75293636
-0.048356581 -0.019782275 0.75657141
-0.046273611 0.024238557 0.75723273
-0.045593344 0.021711111 0.75332248
-0.045140881 0.019346058 0.75072169
-0.044802323 0.017067522 0.7487756
-0.044544775 0.014848232 0.74729514
-0.044341009 0.012668848 0.74612391
-0.04418736 0.010520786 0.74524069
-0.044070601 0.0083943903 0.74456954
-0.043990895 0.0062844157 0.74411142
-0.043942325 0.0041849911 0.74383217
-0.043923959 0.0020915866 0.74372661
-0.043938283 -0 0.74380898
-0.043983713 -0.0020944774 0.74407011
-0.044058774 -0.0041960776 0.74450159
-0.044171572 -0.0063102841 0.74514997
-0.044323057 -0.0084424913 0.74602067
-0.044518922 -0.010599732 0.74714655
-0.044766817 -0.012790561 0.74857152
-0.045094967 -0.015031666 0.7504577
-0.045526382 -0.017343372 0.75293756
-0.046158761 -0.019782335 0.75657248
-0.044070102 0.024238557 0.75723273
-0.043418087 0.021709025 0.75329745
-0.042918671 0.019313365 0.75028324
-0.042605117 0.017042041 0.74839073
-0.042363431 0.014827192 0.74693203
-0.042174362 0.012652308 0.7457909
-0.042029645 0.010507375 0.74491751
-0.041919958 0.0083839595 0.74425548
-0.041665141 0.0062497556 0.74271744
-0.04126874 0.004126817 0.74032497
-0.041175179 0.0020587742 0.73976028
-0.04124799 -0 0.74019974
-0.041595519 -0.0020797849 0.74229723
-0.041908551 -0.004190892 0.74418652
-0.042014297 -0.0063021779 0.74482477
-0.042156596 -0.0084313452 0.74568367
-0.042340308 -0.010585099 0.74679244
-0.042572852 -0.012771845 0.74819601
-0.042875092 -0.015006304 0.75002021
-0.043349251 -0.017339706 0.752882
-0.043961111 -0.019782513 0.75657481
-0.042857669 0.027067989 0.76352912
-0.041745264 0.024168313 0.75646186
-0.041168593 0.021667659 0.7527982
-0.04077274 0.019313365 0.75028324
-0.040474862 0.017042041 0.74839073
-0.040245261 0.014827192 0.74693203
-0.040065642 0.012652308 0.7457909
-0.039928164 0.010507375 0.74491751
-0.039823961 0.0083839595 0.74425548
-0.03958188 0.0062497556 0.74271744
-0.039205305 0.004126817 0.74032497
-0.03911642 0.0020587742 0.73976028
-0.039185591 -0 0.74019974
-0.039515741 -0.0020797849 0.74229723
-0.03981312 -0.004190892 0.74418652
-0.03991358 -0.0063021779 0.74482477
-0.040048763 -0.0084313452 0.74568367
-0.040223297 -0.010585099 0.74679244
-0.04044421 -0.012771845 0.74819601
-0.040731337 -0.015006304 0.75002021
-0.041106291 -0.017307937 0.75240231
-0.041650895 -0.019729406 0.75586224
-0.042718433 -0.022483408 0.76264459
-0.043096248 -0.024950475 0.76504493
-0.040870637 0.02951768 0.76533067
-0.040602002 0.027067989 0.76352912
-0.039548147 0.024168313 0.75646186
-0.039001826 0.021667659 0.7527982
-0.038626805 0.019313365 0.75028324
-0.038344603 0.017042041 0.74839073
-0.038127091 0.014827192 0.74693203
-0.037956927 0.012652308 0.7457909
-0.03782668 0.010507375 0.74491751
-0.037727963 0.0083839595 0.74425548
-0.037498623 0.0062497556 0.74271744
-0.037141867 0.004126817 0.74032497
-0.037057661 0.0020587742 0.73976028
-0.037123192 -0 0.74019974
-0.037435964 -0.0020797849 0.74229723
-0.037717693 -0.004190892 0.74418652
-0.037812863 -0.0063021779 0.74482477
-0.037940934 -0.0084313452 0.74568367
-0.038106278 -0.010585099 0.74679244
-0.038315568 -0.012771845 0.74819601
-0.038587581 -0.015006304 0.75002021
-0.038942803 -0.017307937 0.75240231
-0.039458741 -0.019729406 0.75586224
-0.040470093 -0.022483408 0.76264459
-0.040828023 -0.024950475 0.76504493
-0.038600046 0.02951768 0.76533067
-0.038346335 0.027067989 0.76352912
-0.037351027 0.024168313 0.75646186
-0.036835056 0.021667659 0.7527982
-0.03648087 0.019313365 0.75028324
-0.036214348 0.017042041 0.74839073
-0.036008917 0.014827192 0.74693203
-0.035848208 0.012652308 0.7457909
-0.035725199 0.010507375 0.74491751
-0.035631966 0.0083839595 0.74425548
-0.035415366 0.0062497556 0.74271744
-0.035078429 0.004126817 0.74032497
-0.034998901 0.0020587742 0.73976028
-0.035060789 -0 0.74019974
-0.03535619 -0.0020797849 0.74229723
-0.035622265 -0.004190892 0.74418652
-0.035712149 -0.0063021779 0.74482477
-0.035833105 -0.0084313452 0.74568367
-0.035989266 -0.010585099 0.74679244
-0.036186926 -0.012771845 0.74819601
-0.036443826 -0.015006304 0.75002021
-0.036779314 -0.017307937 0.75240231
-0.03726659 -0.019729406 0.75586224
-0.038221758 -0.022483408 0.76264459
-0.038559802 -0.024950475 0.76504493
-0.036329456 0.02951768 0.76533067
-0.036090504 0.02706787 0.76352793
-0.035153907 0.024168313 0.75646186
-0.034668289 0.021667659 0.7527982
-0.034334939 0.019313365 0.75028324
-0.034084093 0.017042041 0.74839073
-0.033890747 0.014827192 0.74693203
-0.033739489 0.012652308 0.7457909
-0.033623718 0.010507375 0.74491751
-0.033535965 0.0083839595 0.74425548
-0.033332109 0.0062497556 0.74271744
-0.033014994 0.004126817 0.74032497
-0.032940142 0.0020587742 0.73976028
-0.03299839 -0 0.74019974
-0.033276413 -0.0020797849 0.74229723
-0.033526838 -0.004190892 0.74418652
-0.033611435 -0.0063021779 0.74482477
-0.033725277 -0.0084313452 0.74568367
-0.033872247 -0.010585099 0.74679244
-0.03405828 -0.012771845 0.74819601
-0.03430007 -0.015006304 0.75002021
-0.034615822 -0.017307937 0.75240231
-0.035074435 -0.019729406 0.75586224
-0.035973419 -0.022483408 0.76264459
-0.036291577 -0.024950475 0.76504493
-0.034058861 0.02951768 0.76533067
-0.033834849 0.02706787 0.76352793
-0.03295679 0.024168313 0.75646186
-0.032501522 0.021667659 0.7527982
-0.032189004 0.019313365 0.75028324
-0.031953838 0.017042041 0.74839073
-0.031772576 0.014827192 0.74693203
-0.031630773 0.012652308 0.7457909
-0.031522233 0.010507375 0.74491751
-0.031439971 0.0083839595 0.74425548
-0.031248854 0.0062497556 0.74271744
-0.030951556 0.004126817 0.74032497
-0.030881384 0.0020587742 0.73976028
-0.030935992 -0 0.74019974
-0.031196637 -0.0020797849 0.74229723
-0.03143141 -0.004190892 0.74418652
-0.031510722 -0.0063021779 0.74482477
-0.031617448 -0.0084313452 0.74568367
-0.031755231 -0.010585099 0.74679244
-0.031929638 -0.012771845 0.74819601
-0.032156318 -0.015006304 0.75002021
-0.032452334 -0.017307937 0.75240231
-0.032882284 -0.019729406 0.75586224
-0.033725079 -0.022483408 0.76264459
-0.034023352 -0.024950475 0.76504493
-0.031788275 0.02951768 0.76533067
-0.031579193 0.02706787 0.76352793
-0.030759668 0.024168313 0.75646186
-0.030334752 0.021667659 0.7527982
-0.030043071 0.019313365 0.75028324
-0.029823579 0.017042041 0.74839073
-0.029654402 0.014827192 0.74693203
-0.029522054 0.012652308 0.7457909
-0.029420752 0.010507375 0.74491751
-0.029343972 0.0083839595 0.74425548
-0.029165596 0.0062497556 0.74271744
-0.028888119 0.004126817 0.74032497
-0.028822625 0.0020587742 0.73976028
-0.028873593 -0 0.74019974
-0.029116863 -0.0020797849 0.74229723
-0.029335983 -0.004190892 0.74418652
-0.029410005 -0.0063021779 0.74482477
-0.029509617 -0.0084313452 0.74568367
-0.029638218 -0.010585099 0.74679244
-0.029800996 -0.012771845 0.74819601
-0.030012563 -0.015006304 0.75002021
-0.030288847 -0.017307937 0.75240231
-0.030690132 -0.019729406 0.75586224
-0.03147674 -0.022483408 0.76264459
-0.031755131 -0.024950475 0.76504493
-0.029517682 0.02951768 0.76533067
-0.029323405 0.027067721 0.76352668
-0.02856255 0.024168313 0.75646186
-0.028167984 0.021667659 0.7527982
-0.027897136 0.019313365 0.75028324
-0.027693326 0.017042041 0.74839073
-0.027536232 0.014827192 0.74693203
-0.027413337 0.012652308 0.7457909
-0.027319271 0.010507375 0.74491751
-0.027247973 0.0083839595 0.74425548
-0.027082341 0.0062497556 0.74271744
-0.026824683 0.004126817 0.74032497
-0.026763866 0.0020587742 0.73976028
-0.026811194 -0 0.74019974
-0.027037086 -0.0020797849 0.74229723
-0.027240556 -0.004190892 0.74418652
-0.027309291 -0.0063021779 0.74482477
-0.027401786 -0.0084313452 0.74568367
-0.0275212 -0.010585099 0.74679244
-0.027672354 -0.012771845 0.74819601
-0.027868809 -0.015006304 0.75002021
-0.028125355 -0.017307937 0.75240231
-0.028497979 -0.019729406 0.75586224
-0.029228402 -0.022483408 0.76264459
-0.029486906 -0.024950475 0.76504493
-0.02724709 0.02951768 0.76533067
-0.027067758 0.027067721 0.76352668
-0.026365431 0.024168313 0.75646186
-0.026001217 0.021667659 0.7527982
-0.025751203 0.019313365 0.75028324
-0.025563071 0.017042041 0.74839073
-0.02541806 0.014827192 0.74693203
-0.025304617 0.012652308 0.7457909
-0.025217786 0.010507375 0.74491751
-0.025151975 0.0083839595 0.74425548
-0.024999082 0.0062497556 0.74271744
-0.024761245 0.004126817 0.74032497
-0.024705106 0.0020587742 0.73976028
-0.024748791 -0 0.74019974
-0.024957312 -0.0020797849 0.74229723
-0.025145128 -0.004190892 0.74418652
-0.025208576 -0.0063021779 0.74482477
-0.025293956 -0.0084313452 0.74568367
-0.025404187 -0.010585099 0.74679244
-0.025543712 -0.012771845 0.74819601
-0.025725054 -0.015006304 0.75002021
-0.025961867 -0.017307937 0.75240231
-0.026305828 -0.019729406 0.75586224
-0.026980063 -0.022483408 0.76264459
-0.027218683 -0.024950475 0.76504493
-0.024976501 0.02951768 0.76533067
-0.024811998 0.027067631 0.76352555
-0.024168311 0.024168313 0.75646186
-0.023834448 0.021667659 0.7527982
-0.02360527 0.019313365 0.75028324
-0.023432814 0.017042041 0.74839073
-0.023299886 0.014827192 0.74693203
-0.0231959 0.012652308 0.7457909
-0.023116305 0.010507375 0.74491751
-0.023055978 0.0083839595 0.74425548
-0.022915827 0.0062497556 0.74271744
-0.022697808 0.004126817 0.74032497
-0.022646347 0.0020587742 0.73976028
-0.022686392 -0 0.74019974
-0.022877535 -0.0020797849 0.74229723
-0.023049701 -0.004190892 0.74418652
-0.023107862 -0.0063021779 0.74482477
-0.023186127 -0.0084313452 0.74568367
-0.02328717 -0.010585099 0.74679244
-0.023415068 -0.012771845 0.74819601
-0.023581298 -0.015006304 0.75002021
-0.023798378 -0.017307937 0.75240231
-0.024113674 -0.019729406 0.75586224
-0.024731725 -0.022483408 0.76264459
-0.02495046 -0.024950475 0.76504493
-0.022705909 0.02951768 0.76533067
-0.022556363 0.027067631 0.76352555
-0.021971192 0.024168313 0.75646186
-0.02166768 0.021667659 0.7527982
-0.021459335 0.019313365 0.75028324
-0.021302558 0.017042041 0.74839073
-0.021181716 0.014827192 0.74693203
-0.021087181 0.012652308 0.7457909
-0.021014823 0.010507375 0.74491751
-0.020959979 0.0083839595 0.74425548
-0.02083257 0.0062497556 0.74271744
-0.02063437 0.004126817 0.74032497
-0.02058759 0.0020587742 0.73976028
-0.020623995 -0 0.74019974
-0.020797759 -0.0020797849 0.74229723
-0.020954276 -0.004190892 0.74418652
-0.021007149 -0.0063021779 0.74482477
-0.021078298 -0.0084313452 0.74568367
-0.021170154 -0.010585099 0.74679244
-0.021286426 -0.012771845 0.74819601
-0.021437546 -0.015006304 0.75002021
-0.02163489 -0.017307937 0.75240231
-0.021921523 -0.019729406 0.75586224
-0.022483386 -0.022483408 0.76264459
-0.022682235 -0.024950475 0.76504493
-0.020435318 0.02951768 0.76533067
-0.020300725 0.027067631 0.76352555
-0.019774074 0.024168313 0.75646186
-0.019500913 0.021667659 0.7527982
-0.019313402 0.019313365 0.75028324
-0.019172302 0.017042041 0.74839073
-0.019063545 0.014827192 0.74693203
-0.018978463 0.012652308 0.7457909
-0.01891334 0.010507375 0.74491751
-0.018863982 0.0083839595 0.74425548
-0.018749312 0.0062497556 0.74271744
-0.018570933 0.004126817 0.74032497
-0.01852883 0.0020587742 0.73976028
-0.018561596 -0 0.74019974
-0.018717982 -0.0020797849 0.74229723
-0.018858846 -0.004190892 0.74418652
-0.018906431 -0.0063021779 0.74482477
-0.018970467 -0.0084313452 0.74568367
-0.019053139 -0.010585099 0.74679244
-0.019157784 -0.012771845 0.74819601
-0.019293791 -0.015006304 0.75002021
-0.019471401 -0.017307937 0.75240231
-0.01972937 -0.019729406 0.75586224
-0.020235047 -0.022483408 0.76264459
-0.020414012 -0.024950475 0.76504493
-0.018164728 0.02951768 0.76533067
-0.018045008 0.027067512 0.76352423
-0.017576953 0.024168313 0.75646186
-0.017334145 0.021667659 0.7527982
-0.017167469 0.019313365 0.75028324
-0.017042046 0.017042041 0.74839073
-0.016945373 0.014827192 0.74693203
-0.016869744 0.012652308 0.7457909
-0.016811859 0.010507375 0.74491751
-0.016767982 0.0083839595 0.74425548
-0.016666055 0.0062497556 0.74271744
-0.016507497 0.004126817 0.74032497
-0.016470071 0.0020587742 0.73976028
-0.016499195 -0 0.74019974
-0.016638206 -0.0020797849 0.74229723
-0.016763419 -0.004190892 0.74418652
-0.016805718 -0.0063021779 0.74482477
-0.016862638 -0.0084313452 0.74568367
-0.016936123 -0.010585099 0.74679244
-0.01702914 -0.012771845 0.74819601
-0.017150035 -0.015006304 0.75002021
-0.017307911 -0.017307937 0.75240231
-0.017537218 -0.019729406 0.75586224
-0.017986709 -0.022483408 0.76264459
-0.018145788 -0.024950475 0.76504493
-0.015894137 0.02951768 0.76533067
-0.015789384 0.027067512 0.76352423
-0.015379834 0.024168313 0.75646186
-0.015167376 0.021667659 0.7527982
-0.015021536 0.019313365 0.75028324
-0.014911789 0.017042041 0.74839073
-0.014827201 0.014827192 0.74693203
-0.014761027 0.012652308 0.7457909
-0.014710376 0.010507375 0.74491751
-0.014671986 0.0083839595 0.74425548
-0.014582798 0.0062497556 0.74271744
-0.01444406 0.004126817 0.74032497
-0.014411313 0.0020587742 0.73976028
-0.014436796 -0 0.74019974
-0.014558432 -0.0020797849 0.74229723
-0.014667992 -0.004190892 0.74418652
-0.014705002 -0.0063021779 0.74482477
-0.014754809 -0.0084313452 0.74568367
-0.014819109 -0.010585099 0.74679244
-0.014900498 -0.012771845 0.74819601
-0.015006281 -0.015006304 0.75002021
-0.015144424 -0.017307937 0.75240231
-0.015345066 -0.019729406 0.75586224
-0.01573837 -0.022483408 0.76264459
-0.015877565 -0.024950475 0.76504493
-0.013623545 0.02951768 0.76533067
-0.013533757 0.027067512 0.76352423
-0.013182716 0.024168313 0.75646186
-0.013000608 0.021667659 0.7527982
-0.012875602 0.019313365 0.75028324
-0.012781535 0.017042041 0.74839073
-0.01270903 0.014827192 0.74693203
-0.012652309 0.012652308 0.7457909
-0.012608893 0.010507375 0.74491751
-0.012575988 0.0083839595 0.74425548
-0.012499541 0.0062497556 0.74271744
-0.012380622 0.004126817 0.74032497
-0.012352553 0.0020587742 0.73976028
-0.012374396 -0 0.74019974
-0.012478656 -0.0020797849 0.74229723
-0.012572564 -0.004190892 0.74418652
-0.012604288 -0.0063021779 0.74482477
-0.012646978 -0.0084313452 0.74568367
-0.012702093 -0.010585099 0.74679244
-0.012771856 -0.012771845 0.74819601
-0.012862527 -0.015006304 0.75002021
-0.012980933 -0.017307937 0.75240231
-0.013152914 -0.019729406 0.75586224
-0.013490031 -0.022483408 0.76264459
-0.013609341 -0.024950475 0.76504493
-0.011352954 0.02951768 0.76533067
-0.011278079 0.027067393 0.76352304
-0.010985596 0.024168313 0.75646186
-0.01083384 0.021667659 0.7527982
-0.010729668 0.019313365 0.75028324
-0.010651279 0.017042041 0.74839073
-0.010590858 0.014827192 0.74693203
-0.01054359 0.012652308 0.7457909
-0.010507411 0.010507375 0.74491751
-0.010479989 0.0083839595 0.74425548
-0.010416285 0.0062497556 0.74271744
-0.010317185 0.004126817 0.74032497
-0.010293795 0.0020587742 0.73976028
-0.010311997 -0 0.74019974
-0.01039888 -0.0020797849 0.74229723
-0.010477138 -0.004190892 0.74418652
-0.010503574 -0.0063021779 0.74482477
-0.010539149 -0.0084313452 0.74568367
-0.010585077 -0.010585099 0.74679244
-0.010643213 -0.012771845 0.74819601
-0.010718773 -0.015006304 0.75002021
-0.010817445 -0.017307937 0.75240231
-0.010960761 -0.019729406 0.75586224
-0.011241693 -0.022483408 0.76264459
-0.011341117 -0.024950475 0.76504493
-0.0090823639 0.02951768 0.76533067
-0.0090224631 0.027067393 0.76352304
-0.0087884767 0.024168313 0.75646186
-0.0086670723 0.021667659 0.7527982
-0.0085837347 0.019313365 0.75028324
-0.0085210232 0.017042041 0.74839073
-0.0084726866 0.014827192 0.74693203
-0.0084348721 0.012652308 0.7457909
-0.0084059294 0.010507375 0.74491751
-0.0083839912 0.0083839595 0.74425548
-0.0083330274 0.0062497556 0.74271744
-0.0082537485 0.004126817 0.74032497
-0.0082350355 0.0020587742 0.73976028
-0.0082495976 -0 0.74019974
-0.0083191032 -0.0020797849 0.74229723
-0.0083817095 -0.004190892 0.74418652
-0.0084028589 -0.0063021779 0.74482477
-0.0084313191 -0.0084313452 0.74568367
-0.0084680617 -0.010585099 0.74679244
-0.0085145701 -0.012771845 0.74819601
-0.0085750176 -0.015006304 0.75002021
-0.0086539555 -0.017307937 0.75240231
-0.0087686088 -0.019729406 0.75586224
-0.0089933546 -0.022483408 0.76264459
-0.0090728942 -0.024950475 0.76504493
-0.0068117725 0.02951768 0.76533067
-0.0067668175 0.027067244 0.76352179
-0.0065913578 0.024168313 0.75646186
-0.0065003042 0.021667659 0.7527982
-0.0064378008 0.019313365 0.75028324
-0.0063907676 0.017042041 0.74839073
-0.006354515 0.014827192 0.74693203
-0.0063261543 0.012652308 0.7457909
-0.0063044466 0.010507375 0.74491751
-0.0062879939 0.0083839595 0.74425548
-0.0062497705 0.0062497556 0.74271744
-0.0061903112 0.004126817 0.74032497
-0.0061762766 0.0020587742 0.73976028
-0.0061871978 -0 0.74019974
-0.0062393281 -0.0020797849 0.74229723
-0.0062862821 -0.004190892 0.74418652
-0.0063021439 -0.0063021779 0.74482477
-0.0063234889 -0.0084313452 0.74568367
-0.0063510467 -0.010585099 0.74679244
-0.006385928 -0.012771845 0.74819601
-0.0064312634 -0.015006304 0.75002021
-0.0064904667 -0.017307937 0.75240231
-0.0065764571 -0.019729406 0.75586224
-0.0067450157 -0.022483408 0.76264459
-0.0068046707 -0.024950475 0.76504493
-0.004541182 0.02951768 0.76533067
-0.0045112115 0.027067244 0.76352179
-0.0043942383 0.024168313 0.75646186
-0.0043335361 0.021667659 0.7527982
-0.0042918674 0.019313365 0.75028324
-0.0042605116 0.017042041 0.74839073
-0.0042363433 0.014827192 0.74693203
-0.0042174361 0.012652308 0.7457909
-0.0042029647 0.010507375 0.74491751
-0.0041919956 0.0083839595 0.74425548
-0.0041665137 0.0062497556 0.74271744
-0.0041268743 0.004126817 0.74032497
-0.0041175177 0.0020587742 0.73976028
-0.0041247988 -0 0.74019974
-0.0041595516 -0.0020797849 0.74229723
-0.0041908547 -0.004190892 0.74418652
-0.0042014294 -0.0063021779 0.74482477
-0.0042156596 -0.0084313452 0.74568367
-0.0042340308 -0.010585099 0.74679244
-0.004257285 -0.012771845 0.74819601
-0.0042875088 -0.015006304 0.75002021
-0.0043269778 -0.017307937 0.75240231
-0.0043843044 -0.019729406 0.75586224
-0.0044966773 -0.022483408 0.76264459
-0.0045364471 -0.024950475 0.76504493
-0.002270591 0.02951768 0.76533067
-0.0022556058 0.027067244 0.76352179
-0.0021971192 0.024168313 0.75646186
-0.0021667681 0.021667659 0.7527982
-0.0021459337 0.019313365 0.75028324
-0.0021302558 0.017042041 0.74839073
-0.0021181717 0.014827192 0.74693203
-0.002108718 0.012652308 0.7457909
-0.0021014824 0.010507375 0.74491751
-0.0020959978 0.0083839595 0.74425548
-0.0020832568 0.0062497556 0.74271744
-0.0020634371 0.004126817 0.74032497
-0.0020587589 0.0020587742 0.73976028
-0.0020623994 -0 0.74019974
-0.0020797758 -0.0020797849 0.74229723
-0.0020954274 -0.004190892 0.74418652
-0.0021007147 -0.0063021779 0.74482477
-0.0021078298 -0.0084313452 0.74568367
-0.0021170154 -0.010585099 0.74679244
-0.0021286425 -0.012771845 0.74819601
-0.0021437544 -0.015006304 0.75002021
-0.0021634889 -0.017307937 0.75240231
-0.0021921522 -0.019729406 0.75586224
-0.0022483387 -0.022483408 0.76264459
-0.0022682236 -0.024950475 0.76504493
0 0.02951768 0.76533067
0 0.027067125 0.7635206
0 0.024168313 0.75646186
0 0.021667659 0.7527982
0 0.019313365 0.75028324
0 0.017042041 0.74839073
0 0.014827192 0.74693203
0 0.012652308 0.7457909
0 0.010507375 0.74491751
0 0.0083839595 0.74425548
0 0.0062497556 0.74271744
0 0.004126817 0.74032497
0 0.0020587742 0.73976028
0 -0 0.74019974
0 -0.0020797849 0.74229723
0 -0.004190892 0.74418652
0 -0.0063021779 0.74482477
0 -0.0084313452 0.74568367
0 -0.010585099 0.74679244
0 -0.012771845 0.74819601
0 -0.015006304 0.75002021
0 -0.017307937 0.75240231
0 -0.019729406 0.75586224
0 -0.022483408 0.76264459
0 -0.024950475 0.76504493
0.002270591 0.02951768 0.76533067
0.0022555955 0.027067125 0.7635206
0.0021971192 0.024168313 0.75646186
0.0021667681 0.021667659 0.7527982
0.0021459337 0.019313365 0.75028324
0.0021302558 0.017042041 0.74839073
0.0021181717 0.014827192 0.74693203
0.002108718 0.012652308 0.7457909
0.0021014824 0.010507375 0.74491751
0.0020959978 0.0083839595 0.74425548
0.0020832568 0.0062497556 0.74271744
0.0020634371 0.004126817 0.74032497
0.0020587589 0.0020587742 0.73976028
0.0020623994 -0 0.74019974
0.0020797758 -0.0020797849 0.74229723
0.0020954274 -0.004190892 0.74418652
0.0021007147 -0.0063021779 0.74482477
0.0021078298 -0.0084313452 0.74568367
0.0021170154 -0.010585099 0.74679244
0.0021286425 -0.012771845 0.74819601
0.0021437544 -0.015006304 0.75002021
0.0021634889 -0.017307937 0.75240231
0.0021921522 -0.019729406 0.75586224
0.0022483387 -0.022483408 0.76264459
0.0022682236 -0.024950475 0.76504493
0.004541182 0.02951768 0.76533067
0.004511191 0.027067125 0.7635206
0.0043942383 0.024168313 0.75646186
0.0043335361 0.021667659 0.7527982
0.0042918674 0.019313365 0.75028324
0.0042605116 0.017042041 0.74839073
0.0042363433 0.014827192 0.74693203
0.0042174361 0.012652308 0.7457909
0.0042029647 0.010507375 0.74491751
0.0041919956 0.0083839595 0.74425548
0.0041665137 0.0062497556 0.74271744
0.0041268743 0.004126817 0.74032497
0.0041175177 0.0020587742 0.73976028
0.0041247988 -0 0.74019974
0.0041595516 -0.0020797849 0.74229723
0.0041908547 -0.004190892 0.74418652
0.0042014294 -0.0063021779 0.74482477
0.0042156596 -0.0084313452 0.74568367
0.0042340308 -0.010585099 0.74679244
0.004257285 -0.012771845 0.74819601
0.0042875088 -0.015006304 0.75002021
0.0043269778 -0.017307937 0.75240231
0.0043843044 -0.019729406 0.75586224
0.0044966773 -0.022483408 0.76264459
0.0045364471 -0.024950475 0.76504493
0.0068117725 0.02951768 0.76533067
0.0067667561 0.027067035 0.76351941
0.0065913578 0.024168313 0.75646186
0.0065003042 0.021667659 0.7527982
0.0064378008 0.019313365 0.75028324
0.0063907676 0.017042041 0.74839073
0.006354515 0.014827192 0.74693203
0.0063261543 0.012652308 0.7457909
0.0063044466 0.010507375 0.74491751
0.0062879939 0.0083839595 0.74425548
0.0062497705 0.0062497556 0.74271744
0.0061903112 0.004126817 0.74032497
0.0061762766 0.0020587742 0.73976028
0.0061871978 -0 0.74019974
0.0062393281 -0.0020797849 0.74229723
0.0062862821 -0.004190892 0.74418652
0.0063021439 -0.0063021779 0.74482477
0.0063234889 -0.0084313452 0.74568367
0.0063510467 -0.010585099 0.74679244
0.006385928 -0.012771845 0.74819601
0.0064312634 -0.015006304 0.75002021
0.0064904667 -0.017307937 0.75240231
0.0065764571 -0.019729406 0.75586224
0.0067450157 -0.022483408 0.76264459
0.0068046707 -0.024950475 0.76504493
0.0090823639 0.02951768 0.76533067
0.009022342 0.027067035 0.76351941
0.0087884767 0.024168313 0.75646186
0.0086670723 0.021667659 0.7527982
0.0085837347 0.019313365 0.75028324
0.0085210232 0.017042041 0.74839073
0.0084726866 0.014827192 0.74693203
0.0084348721 0.012652308 0.7457909
0.0084059294 0.010507375 0.74491751
0.0083839912 0.0083839595 0.74425548
0.0083330274 0.0062497556 0.74271744
0.0082537485 0.004126817 0.74032497
0.0082350355 0.0020587742 0.73976028
0.0082495976 -0 0.74019974
0.0083191032 -0.0020797849 0.74229723
0.0083817095 -0.004190892 0.74418652
0.0084028589 -0.0063021779 0.74482477
0.0084313191 -0.0084313452 0.74568367
0.0084680617 -0.010585099 0.74679244
0.0085145701 -0.012771845 0.74819601
0.0085750176 -0.015006304 0.75002021
0.0086539555 -0.017307937 0.75240231
0.0087686088 -0.019729406 0.75586224
0.0089933546 -0.022483408 0.76264459
0.0090728942 -0.024950475 0.76504493
0.011352954 0.02951768 0.76533067
0.011277928 0.027067035 0.76351941
0.010985596 0.024168313 0.75646186
0.01083384 0.021667659 0.7527982
0.010729668 0.019313365 0.75028324
0.010651279 0.017042041 0.74839073
0.010590858 0.014827192 0.74693203
0.01054359 0.012652308 0.7457909
0.010507411 0.010507375 0.74491751
0.010479989 0.0083839595 0.74425548
0.010416285 0.0062497556 0.74271744
0.010317185 0.004126817 0.74032497
0.010293795 0.0020587742 0.73976028
0.010311997 -0 0.74019974
0.01039888 -0.0020797849 0.74229723
0.010477138 -0.004190892 0.74418652
0.010503574 -0.0063021779 0.74482477
0.010539149 -0.0084313452 0.74568367
0.010585077 -0.010585099 0.74679244
0.010643213 -0.012771845 0.74819601
0.010718773 -0.015006304 0.75002021
0.010817445 -0.017307937 0.75240231
0.010960761 -0.019729406 0.75586224
0.011241693 -0.022483408 0.76264459
0.011341117 -0.024950475 0.76504493
0.013623545 0.02951768 0.76533067
0.013533451 0.027066886 0.7635181
0.013182716 0.024168313 0.75646186
0.013000608 0.021667659 0.7527982
0.012875602 0.019313365 0.75028324
0.012781535 0.017042041 0.74839073
0.01270903 0.014827192 0.74693203
0.012652309 0.012652308 0.7457909
0.012608893 0.010507375 0.74491751
0.012575988 0.0083839595 0.74425548
0.012499541 0.0062497556 0.74271744
0.012380622 0.004126817 0.74032497
0.012352553 0.0020587742 0.73976028
0.012374396 -0 0.74019974
0.012478656 -0.0020797849 0.74229723
0.012572564 -0.004190892 0.74418652
0.012604288 -0.0063021779 0.74482477
0.012646978 -0.0084313452 0.74568367
0.012702093 -0.010585099 0.74679244
0.012771856 -0.012771845 0.74819601
0.012862527 -0.015006304 0.75002021
0.012980933 -0.017307937 0.75240231
0.013152914 -0.019729406 0.75586224
0.013490031 -0.022483408 0.76264459
0.013609341 -0.024950475 0.76504493
0.015894137 0.02951768 0.76533067
0.015789026 0.027066886 0.7635181
0.015379834 0.024168313 0.75646186
0.015167376 0.021667659 0.7527982
0.015021536 0.019313365 0.75028324
0.014911789 0.017042041 0.74839073
0.014827201 0.014827192 0.74693203
0.014761027 0.012652308 0.7457909
0.014710376 0.010507375 0.74491751
0.014671986 0.0083839595 0.74425548
0.014582798 0.0062497556 0.74271744
0.01444406 0.004126817 0.74032497
0.014411313 0.0020587742 0.73976028
0.014436796 -0 0.74019974
0.014558432 -0.0020797849 0.74229723
0.014667992 -0.004190892 0.74418652
0.014705002 -0.0063021779 0.74482477
0.014754809 -0.0084313452 0.74568367
0.014819109 -0.010585099 0.74679244
0.014900498 -0.012771845 0.74819601
0.015006281 -0.015006304 0.75002021
0.015144424 -0.017307937 0.75240231
0.015345066 -0.019729406 0.75586224
0.01573837 -0.022483408 0.76264459
0.015877565 -0.024950475 0.76504493
0.018164728 0.02951768 0.76533067
0.018044602 0.027066886 0.7635181
0.017576953 0.024168313 0.75646186
0.017334145 0.021667659 0.7527982
0.017167469 0.019313365 0.75028324
0.017042046 0.017042041 0.74839073
0.016945373 0.014827192 0.74693203
0.016869744 0.012652308 0.7457909
0.016811859 0.010507375 0.74491751
0.016767982 0.0083839595 0.74425548
0.016666055 0.0062497556 0.74271744
0.016507497 0.004126817 0.74032497
0.016470071 0.0020587742 0.73976028
0.016499195 -0 0.74019974
0.016638206 -0.0020797849 0.74229723
0.016763419 -0.004190892 0.74418652
0.016805718 -0.0063021779 0.74482477
0.016862638 -0.0084313452 0.74568367
0.016936123 -0.010585099 0.74679244
0.01702914 -0.012771845 0.74819601
0.017150035 -0.015006304 0.75002021
0.017307911 -0.017307937 0.75240231
0.017537218 -0.019729406 0.75586224
0.017986709 -0.022483408 0.76264459
0.018145788 -0.024950475 0.76504493
0.020435318 0.02951768 0.76533067
0.020300085 0.027066737 0.76351684
0.019774074 0.024168313 0.75646186
0.019500913 0.021667659 0.7527982
0.019313402 0.019313365 0.75028324
0.019172302 0.017042041 0.74839073
0.019063545 0.014827192 0.74693203
0.018978463 0.012652308 0.7457909
0.01891334 0.010507375 0.74491751
0.018863982 0.0083839595 0.74425548
0.018749312 0.0062497556 0.74271744
0.018570933 0.004126817 0.74032497
0.01852883 0.0020587742 0.73976028
0.018561596 -0 0.74019974
0.018717982 -0.0020797849 0.74229723
0.018858846 -0.004190892 0.74418652
0.018906431 -0.0063021779 0.74482477
0.018970467 -0.0084313452 0.74568367
0.019053139 -0.010585099 0.74679244
0.019157784 -0.012771845 0.74819601
0.019293791 -0.015006304 0.75002021
0.019471401 -0.017307937 0.75240231
0.01972937 -0.019729406 0.75586224
0.020235047 -0.022483408 0.76264459
0.020414012 -0.024950475 0.76504493
0.022705909 0.02951768 0.76533067
0.022555651 0.027066737 0.76351684
0.021971192 0.024168313 0.75646186
0.02166768 0.021667659 0.7527982
0.021459335 0.019313365 0.75028324
0.021302558 0.017042041 0.74839073
0.021181716 0.014827192 0.74693203
0.021087181 0.012652308 0.7457909
0.021014823 0.010507375 0.74491751
0.020959979 0.0083839595 0.74425548
0.02083257 0.0062497556 0.74271744
0.02063437 0.004126817 0.74032497
0.02058759 0.0020587742 0.73976028
0.020623995 -0 0.74019974
0.020797759 -0.0020797849 0.74229723
0.020954276 -0.004190892 0.74418652
0.021007149 -0.0063021779 0.74482477
0.021078298 -0.0084313452 0.74568367
0.021170154 -0.010585099 0.74679244
0.021286426 -0.012771845 0.74819601
0.021437546 -0.015006304 0.75002021
0.02163489 -0.017307937 0.75240231
0.021921523 -0.019729406 0.75586224
0.022483386 -0.022483408 0.76264459
0.022682235 -0.024950475 0.76504493
0.024976501 0.02951768 0.76533067
0.024811106 0.027066648 0.76351571
0.024168311 0.024168313 0.75646186
0.023834448 0.021667659 0.7527982
0.02360527 0.019313365 0.75028324
0.023432814 0.017042041 0.74839073
0.023299886 0.014827192 0.74693203
0.0231959 0.012652308 0.7457909
0.023116305 0.010507375 0.74491751
0.023055978 0.0083839595 0.74425548
0.02291573 0.0062497258 0.74271643
0.022697808 0.004126817 0.74032497
0.022646347 0.0020587742 0.73976028
0.022686392 -0 0.74019974
0.022877535 -0.0020797849 0.74229723
0.023049701 -0.004190892 0.74418652
0.023107862 -0.0063021779 0.74482477
0.023186127 -0.0084313452 0.74568367
0.02328717 -0.010585099 0.74679244
0.023415068 -0.012771845 0.74819601
0.023581298 -0.015006304 0.75002021
0.023798378 -0.017307937 0.75240231
0.024113674 -0.019729406 0.75586224
0.024731725 -0.022483408 0.76264459
0.02495046 -0.024950475 0.76504493
0.02724709 0.02951768 0.76533067
0.027066657 0.027066648 0.76351571
0.026365431 0.024168313 0.75646186
0.026001217 0.021667659 0.7527982
0.025751203 0.019313365 0.75028324
0.025563071 0.017042041 0.74839073
0.02541806 0.014827192 0.74693203
0.025304617 0.012652308 0.7457909
0.025217786 0.010507375 0.74491751
0.025151975 0.0083839595 0.74425548
0.024998875 0.0062497258 0.74271542
0.024761245 0.004126817 0.74032497
0.024705106 0.0020587742 0.73976028
0.024748791 -0 0.74019974
0.024957312 -0.0020797849 0.74229723
0.025145128 -0.004190892 0.74418652
0.025208576 -0.0063021779 0.74482477
0.025293956 -0.0084313452 0.74568367
0.025404187 -0.010585099 0.74679244
0.025543712 -0.012771845 0.74819601
0.025725054 -0.015006304 0.75002021
0.025961867 -0.017307937 0.75240231
0.026305828 -0.019729406 0.75586224
0.026980063 -0.022483408 0.76264459
0.027218683 -0.024950475 0.76504493
0.029517682 0.02951768 0.76533067
0.029322213 0.027066648 0.76351571
0.02856255 0.024168313 0.75646186
0.028167984 0.021667659 0.7527982
0.027897136 0.019313365 0.75028324
0.027693326 0.017042041 0.74839073
0.027536232 0.014827192 0.74693203
0.027413337 0.012652308 0.7457909
0.027319271 0.010507375 0.74491751
0.027247973 0.0083839595 0.74425548
0.027082002 0.006249696 0.74271429
0.026824683 0.004126817 0.74032497
0.026763866 0.0020587742 0.73976028
0.026811194 -0 0.74019974
0.027037086 -0.0020797849 0.74229723
0.027240556 -0.004190892 0.74418652
0.027309291 -0.0063021779 0.74482477
0.027401786 -0.0084313452 0.74568367
0.0275212 -0.010585099 0.74679244
0.027672354 -0.012771845 0.74819601
0.027868809 -0.015006304 0.75002021
0.028125355 -0.017307937 0.75240231
0.028497979 -0.019729406 0.75586224
0.029228402 -0.022483408 0.76264459
0.029486906 -0.024950475 0.76504493
0.031788275 0.02951768 0.76533067
0.031577628 0.027066529 0.76351452
0.030759668 0.024168313 0.75646186
0.030334752 0.021667659 0.7527982
0.030043071 0.019313365 0.75028324
0.029823579 0.017042041 0.74839073
0.029654402 0.014827192 0.74693203
0.029522054 0.012652308 0.7457909
0.029420752 0.010507375 0.74491751
0.029343972 0.0083839595 0.74425548
0.029165111 0.0062496364 0.74271321
0.028888119 0.004126817 0.74032497
0.028822625 0.0020587742 0.73976028
0.028873593 -0 0.74019974
0.029116863 -0.0020797849 0.74229723
0.029335983 -0.004190892 0.74418652
0.029410005 -0.0063021779 0.74482477
0.029509617 -0.0084313452 0.74568367
0.029638218 -0.010585099 0.74679244
0.029800996 -0.012771845 0.74819601
0.030012563 -0.015006304 0.75002021
0.030288847 -0.017307937 0.75240231
0.030690132 -0.019729406 0.75586224
0.03147674 -0.022483408 0.76264459
0.031755131 -0.024950475 0.76504493
0.034058861 0.02951768 0.76533067
0.033833172 0.027066529 0.76351452
0.03295679 0.024168313 0.75646186
0.032501522 0.021667659 0.7527982
0.032189004 0.019313365 0.75028324
0.031953838 0.017042041 0.74839073
0.031772576 0.014827192 0.74693203
0.031630773 0.012652308 0.7457909
0.031522233 0.010507375 0.74491751
0.031439971 0.0083839595 0.74425548
0.031248203 0.0062496066 0.74271226
0.030951556 0.004126817 0.74032497
0.030881384 0.0020587742 0.73976028
0.030935992 -0 0.74019974
0.031196637 -0.0020797849 0.74229723
0.03143141 -0.004190892 0.74418652
0.031510722 -0.0063021779 0.74482477
0.031617448 -0.0084313452 0.74568367
0.031755231 -0.010585099 0.74679244
0.031929638 -0.012771845 0.74819601
0.032156318 -0.015006304 0.75002021
0.032452334 -0.017307937 0.75240231
0.032882284 -0.019729406 0.75586224
0.033725079 -0.022483408 0.76264459
0.034023352 -0.024950475 0.76504493
0.036329456 0.02951768 0.76533067
0.036088716 0.027066529 0.76351452
0.035153907 0.024168313 0.75646186
0.034668289 0.021667659 0.7527982
0.034334939 0.019313365 0.75028324
0.034084093 0.017042041 0.74839073
0.033890747 0.014827192 0.74693203
0.033739489 0.012652308 0.7457909
0.033623718 0.010507375 0.74491751
0.033535965 0.0083839595 0.74425548
0.033331279 0.0062496066 0.74271119
0.033014994 0.004126817 0.74032497
0.032940142 0.0020587742 0.73976028
0.03299839 -0 0.74019974
0.033276413 -0.0020797849 0.74229723
0.033526838 -0.004190892 0.74418652
0.033611435 -0.0063021779 0.74482477
0.033725277 -0.0084313452 0.74568367
0.033872247 -0.010585099 0.74679244
0.03405828 -0.012771845 0.74819601
0.03430007 -0.015006304 0.75002021
0.034615822 -0.017307937 0.75240231
0.035074435 -0.019729406 0.75586224
0.035973419 -0.022483408 0.76264459
0.036291577 -0.024950475 0.76504493
0.038600046 0.02951768 0.76533067
0.038344085 0.02706638 0.76351321
0.037351027 0.024168313 0.75646186
0.036835056 0.021667659 0.7527982
0.03648087 0.019313365 0.75028324
0.036214348 0.017042041 0.74839073
0.036008917 0.014827192 0.74693203
0.035848208 0.012652308 0.7457909
0.035725199 0.010507375 0.74491751
0.035631966 0.0083839595 0.74425548
0.035414334 0.0062495768 0.74271011
0.035078429 0.004126817 0.74032497
0.034998901 0.0020587742 0.73976028
0.035060789 -0 0.74019974
0.03535619 -0.0020797849 0.74229723
0.035622265 -0.004190892 0.74418652
0.035712149 -0.0063021779 0.74482477
0.035833105 -0.0084313452 0.74568367
0.035989266 -0.010585099 0.74679244
0.036186926 -0.012771845 0.74819601
0.036443826 -0.015006304 0.75002021
0.036779314 -0.017307937 0.75240231
0.03726659 -0.019729406 0.75586224
0.038221758 -0.022483408 0.76264459
0.038559802 -0.024950475 0.76504493
0.040870637 0.02951768 0.76533067
0.040599622 0.02706638 0.76351321
0.039548147 0.024168313 0.75646186
0.039001826 0.021667659 0.7527982
0.038626805 0.019313365 0.75028324
0.038344603 0.017042041 0.74839073
0.038127091 0.014827192 0.74693203
0.037956927 0.012652308 0.7457909
0.03782668 0.010507375 0.74491751
0.037727963 0.0083839595 0.74425548
0.037497375 0.0062495768 0.7427091
0.037141867 0.004126817 0.74032497
0.037057661 0.0020587742 0.73976028
0.037123192 -0 0.74019974
0.037435964 -0.0020797849 0.74229723
0.037717693 -0.004190892 0.74418652
0.037812863 -0.0063021779 0.74482477
0.037940934 -0.0084313452 0.74568367
0.038106278 -0.010585099 0.74679244
0.038315568 -0.012771845 0.74819601
0.038587581 -0.015006304 0.75002021
0.038942803 -0.017307937 0.75240231
0.039458741 -0.019729406 0.75586224
0.040470093 -0.022483408 0.76264459
0.040828023 -0.024950475 0.76504493
0.043141227 0.02951768 0.76533067
0.042855158 0.02706638 0.76351321
0.041745264 0.024168313 0.75646186
0.041168593 0.021667659 0.7527982
0.04077274 0.019313365 0.75028324
0.040474862 0.017042041 0.74839073
0.040245261 0.014827192 0.74693203
0.040065642 0.012652308 0.7457909
0.039928164 0.010507375 0.74491751
0.039823961 0.0083839595 0.74425548
0.039580397 0.006249547 0.74270809
0.039205305 0.004126817 0.74032497
0.03911642 0.0020587742 0.73976028
0.039185591 -0 0.74019974
0.039515741 -0.0020797849 0.74229723
0.03981312 -0.004190892 0.74418652
0.03991358 -0.0063021779 0.74482477
0.040048763 -0.0084313452 0.74568367
0.040223297 -0.010585099 0.74679244
0.04044421 -0.012771845 0.74819601
0.040731337 -0.015006304 0.75002021
0.041106291 -0.017307937 0.75240231
0.041650895 -0.019729406 0.75586224
0.042718433 -0.022483408 0.76264459
0.043096248 -0.024950475 0.76504493
0.045411818 0.02951768 0.76533067
0.045110486 0.027066261 0.76351196
0.043942384 0.024168313 0.75646186
0.04333536 0.021667659 0.7527982
0.042918671 0.019313365 0.75028324
0.042605117 0.017042041 0.74839073
0.042363431 0.014827192 0.74693203
0.042174362 0.012652308 0.7457909
0.042029645 0.010507375 0.74491751
0.041919958 0.0083839595 0.74425548
0.041663405 0.0062494874 0.74270695
0.04126874 0.004126817 0.74032497
0.041175179 0.0020587742 0.73976028
0.04124799 -0 0.74019974
0.041595519 -0.0020797849 0.74229723
0.041908551 -0.004190892 0.74418652
0.042014297 -0.0063021779 0.74482477
0.042156596 -0.0084313452 0.74568367
0.042340308 -0.010585099 0.74679244
0.042572852 -0.012771845 0.74819601
0.042875092 -0.015006304 0.75002021
0.04326978 -0.017307937 0.75240231
0.043843046 -0.019729406 0.75586224
0.044966772 -0.022483408 0.76264459
0.045364469 -0.024950475 0.76504493
0.047682408 0.02951768 0.76533067
0.047366012 0.027066261 0.76351196
0.046139505 0.024168313 0.75646186
0.045502126 0.021667659 0.7527982
0.045064606 0.019313365 0.75028324
0.044735372 0.017042041 0.74839073
0.044481602 0.014827192 0.74693203
0.044283081 0.012652308 0.7457909
0.044131126 0.010507375 0.74491751
0.044015959 0.0083839595 0.74425548
0.043746389 0.0062494576 0.74270594
0.043332178 0.004126817 0.74032497
0.043233939 0.0020587742 0.73976028
0.043310389 -0 0.74019974
0.043675292 -0.0020797849 0.74229723
0.044003978 -0.004190892 0.74418652
0.044115011 -0.0063021779 0.74482477
0.044264425 -0.0084313452 0.74568367
0.044457328 -0.010585099 0.74679244
0.044701494 -0.012771845 0.74819601
0.045018848 -0.015006304 0.75002021
0.045433268 -0.017307937 0.75240231
0.046035197 -0.019729406 0.75586224
0.047215108 -0.022483408 0.76264459
0.047632691 -0.024950475 0.76504493
0.049953002 0.02951768 0.76533067
0.049621541 0.027066261 0.76351196
0.048336621 0.024168313 0.75646186
0.047668897 0.021667659 0.7527982
0.047210541 0.019313365 0.75028324
0.046865627 0.017042041 0.74839073
0.046599772 0.014827192 0.74693203
0.0463918 0.012652308 0.7457909
0.046232611 0.010507375 0.74491751
0.046111956 0.0083839595 0.74425548
0.045829363 0.0062494576 0.74270487
0.045395616 0.004126817 0.74032497
0.045292694 0.0020587742 0.73976028
0.045372784 -0 0.74019974
0.04575507 -0.0020797849 0.74229723
0.046099402 -0.004190892 0.74418652
0.046215724 -0.0063021779 0.74482477
0.046372253 -0.0084313452 0.74568367
0.046574339 -0.010585099 0.74679244
0.046830136 -0.012771845 0.74819601
0.047162596 -0.015006304 0.75002021
0.047596756 -0.017307937 0.75240231
0.048227347 -0.019729406 0.75586224
0.049463451 -0.022483408 0.76264459
0.049900919 -0.024950475 0.76504493
0.052223593 0.02951768 0.76533067
0.051876828 0.027066141 0.76351082
0.050533742 0.024168313 0.75646186
0.049835667 0.021667659 0.7527982
0.049356472 0.019313365 0.75028324
0.048995882 0.017042041 0.74839073
0.048717946 0.014827192 0.74693203
0.048500516 0.012652308 0.7457909
0.048334096 0.010507375 0.74491751
0.04820795 0.0083839595 0.74425548
0.047912318 0.006249398 0.74270391
0.047459051 0.004126817 0.74032497
0.047351457 0.0020587742 0.73976028
0.047435183 -0 0.74019974
0.047834843 -0.0020797849 0.74229723
0.048194829 -0.004190892 0.74418652
0.048316441 -0.0063021779 0.74482477
0.048480082 -0.0084313452 0.74568367
0.048691355 -0.010585099 0.74679244
0.048958782 -0.012771845 0.74819601
0.049306352 -0.015006304 0.75002021
0.049760249 -0.017307937 0.75240231
0.050419502 -0.019729406 0.75586224
0.05171179 -0.022483408 0.76264459
0.05216914 -0.024950475 0.76504493
0.05449418 0.02951768 0.76533067
0.054132339 0.027066141 0.76351082
0.052730862 0.024168313 0.75646186
0.052002434 0.021667659 0.7527982
0.051502407 0.019313365 0.75028324
0.051126141 0.017042041 0.74839073
0.05083612 0.014827192 0.74693203
0.050609235 0.012652308 0.7457909
0.050435573 0.010507375 0.74491751
0.050303951 0.0083839595 0.74425548
0.049995251 0.006249398 0.74270284
0.049522489 0.004126817 0.74032497
0.049410213 0.0020587742 0.73976028
0.049497582 -0 0.74019974
0.049914625 -0.0020797849 0.74229723
0.050290257 -0.004190892 0.74418652
0.050417151 -0.0063021779 0.74482477
0.050587911 -0.0084313452 0.74568367
0.050808374 -0.010585099 0.74679244
0.051087424 -0.012771845 0.74819601
0.051450107 -0.015006304 0.75002021
0.051923733 -0.017307937 0.75240231
0.052611656 -0.019729406 0.75586224
0.053959884 -0.022483319 0.7626434
0.054437365 -0.024950475 0.76504493
0.05676477 0.02951768 0.76533067
0.0563876 0.027065992 0.76350957
0.054927979 0.024168313 0.75646186
0.054169204 0.021667659 0.7527982
0.053648341 0.019313365 0.75028324
0.053256392 0.017042041 0.74839073
0.05295429 0.014827192 0.74693203
0.05271795 0.012652308 0.7457909
0.052537058 0.010507375 0.74491751
0.052399948 0.0083839595 0.74425548
0.052078169 0.0062493384 0.74270171
0.051585924 0.004126817 0.74032497
0.051468976 0.0020587742 0.73976028
0.051559988 -0 0.74019974
0.051994398 -0.0020797849 0.74229723
0.052385684 -0.004190892 0.74418652
0.052517869 -0.0063021779 0.74482477
0.052695744 -0.0084313452 0.74568367
0.052925389 -0.010585099 0.74679244
0.053216062 -0.012771845 0.74819601
0.053593863 -0.015006304 0.75002021
0.054087225 -0.017307937 0.75240231
0.054803807 -0.019729406 0.75586224
0.056207962 -0.0224832 0.76264215
0.056705587 -0.024950475 0.76504493
0.059035365 0.02951768 0.76533067
0.058643106 0.027065992 0.76350957
0.057125099 0.024168313 0.75646186
0.056335967 0.021667659 0.7527982
0.055794273 0.019313365 0.75028324
0.055386651 0.017042041 0.74839073
0.055072464 0.014827192 0.74693203
0.054826673 0.012652308 0.7457909
0.054638542 0.010507375 0.74491751
