# .PCD v0.7 - Point Cloud Data file format
VERSION 0.7
FIELDS x y z
SIZE 4 4 4
TYPE F F F
COUNT 1 1 1
WIDTH 1335
HEIGHT 1
VIEWPOINT 0 0 0 1 0 0 0
POINTS 1335
DATA ascii
-0.064953521 0.027063996 0.70904005
-0.065672487 0.025539279 0.71145087
-0.06657321 0.024040282 0.71447104
-0.067883343 0.022627801 0.71886396
-0.072721429 0.056099415 0.74205333
-0.072887592 0.054145098 0.74262643
-0.072987534 0.052133948 0.74297112
-0.07271871 0.049864262 0.74204391
-0.072357856 0.047549486 0.74079937
-0.072347693 0.045475721 0.74076438
-0.072512157 0.043507308 0.74133158
-0.072831511 0.041618019 0.74243301
-0.061492 0.033381373 0.70332444
-0.06166327 0.031712562 0.70391512
-0.062052403 0.030139744 0.70525718
-0.06251514 0.028578371 0.70685309
-0.063041508 0.027017802 0.70866847
-0.063663259 0.025465339 0.71081287
-0.06440641 0.023922384 0.71337581
-0.065376088 0.022414684 0.71672016
-0.06699267 0.021054864 0.72229558
-0.070212744 0.057822287 0.74052334
-0.070807151 0.056229174 0.74263376
-0.071038954 0.054323941 0.74345672
-0.071193248 0.052348018 0.74400449
-0.07124006 0.050287127 0.74417067
-0.070854038 0.047930688 0.74280024
-0.070624314 0.045698106 0.74198461
-0.059490476 0.036744118 0.702456
-0.059469678 0.034982204 0.70238215
-0.059596557 0.033303946 0.70283258
-0.059916653 0.031720608 0.70396906
-0.060287595 0.030143827 0.70528603
-0.060702991 0.028566122 0.70676082
-0.061173379 0.026988268 0.70843083
-0.061719563 0.02541396 0.71036994
-0.062357076 0.023842424 0.71263331
-0.063145414 0.022286654 0.71543217
-0.064206414 0.020772666 0.71919906
-0.068151318 0.06195575 0.74053681
-0.068333238 0.060050428 0.74120224
-0.067864217 0.057581782 0.73948652
-0.068696566 0.056206286 0.74253124
-0.069144763 0.054477721 0.74417067
-0.069336101 0.052527368 0.74487054
-0.069480523 0.050531298 0.74539888
-0.069455974 0.048408717 0.74530905
-0.057475455 0.038316965 0.70148551
-0.057544157 0.036619037 0.70173681
-0.057633739 0.034929514 0.70206457
-0.057904165 0.033338755 0.70305371
-0.058205236 0.031748354 0.70415497
-0.058541194 0.030157596 0.7053839
-0.058917396 0.028566003 0.70676005
-0.059341941 0.026973635 0.70831299
-0.059824411 0.025380075 0.71007776
-0.060379628 0.023785919 0.71210873
-0.061043035 0.022197515 0.71453536
-0.061873365 0.020624459 0.71757269
-0.063077167 0.019114316 0.72197604
-0.06552843 0.063480675 0.73843306
-0.066168882 0.062033325 0.74084902
-0.066485681 0.060252666 0.74204397
-0.066260338 0.057977825 0.74119395
-0.066205271 0.055860698 0.74098623
-0.067082338 0.054504454 0.74429464
-0.067444302 0.052690864 0.74566013
-0.067610905 0.050708175 0.7462886
-0.05565415 0.040001452 0.70118517
-0.055690736 0.038287401 0.70132315
-0.055772409 0.036600679 0.70163125
-0.055993386 0.034995884 0.70246488
-0.056239031 0.033391953 0.70339143
-0.056512162 0.031788081 0.70442182
-0.056816366 0.030183703 0.70556933
-0.057155676 0.028577864 0.70684928
-0.057536256 0.026970148 0.70828485
-0.057965972 0.025360137 0.70990586
-0.058454823 0.023747295 0.71174991
-0.059026528 0.02213496 0.71390653
-0.059717357 0.020527869 0.71651244
-0.060610507 0.018940806 0.71988153
-0.062047008 0.01745075 0.72530037
-0.063307337 0.065349549 0.73775804
-0.063452624 0.063452631 0.73832381
-0.063680038 0.061625898 0.73920941
-0.064494766 0.060333848 0.74238181
-0.064798146 0.05852738 0.74356312
-0.064391151 0.056082636 0.74197835
-0.064570211 0.054155678 0.7426756
-0.065428168 0.052764654 0.74601644
-0.053898849 0.041728139 0.70112246
-0.053901657 0.039991587 0.70113337
-0.053979315 0.038307905 0.7014358
-0.054155719 0.036686152 0.70212269
-0.054355934 0.035068363 0.70290232
-0.054579135 0.033451766 0.70377141
-0.054826654 0.031834811 0.70473522
-0.055102054 0.03021726 0.70580763
-0.055408921 0.028598189 0.70700252
-0.055751272 0.026976436 0.70833552
-0.056135435 0.025351495 0.70983148
-0.056570489 0.023723125 0.71152556
-0.057071701 0.022092283 0.71347719
-0.057662796 0.020460993 0.71577883
-0.058386665 0.018834442 0.71859753
-0.05936021 0.01723364 0.72238839
-0.060834628 0.066918105 0.73602575
-0.06130695 0.065394133 0.73792624
-0.061625335 0.063679546 0.73920727
-0.061733048 0.061733067 0.73964071
-0.062059484 0.059990853 0.74095422
-0.062798388 0.05861187 0.7439273
-0.063083418 0.056775063 0.74507421
-0.05224859 0.045282125 0.70147818
-0.052194271 0.043495238 0.70125961
-0.052168336 0.041734666 0.7011553
-0.052252777 0.040060461 0.70149505
-0.052390281 0.038419515 0.70204836
-0.052547276 0.036783099 0.70267999
-0.052724645 0.035149783 0.7033937
-0.052923553 0.033518255 0.70419407
-0.053147286 0.031888366 0.70509428
-0.05339627 0.03025791 0.70609617
-0.053673498 0.028625906 0.70721161
-0.053982727 0.026991367 0.7084558
-0.054327957 0.025353044 0.70984495
-0.054716498 0.023710489 0.71140832
-0.055161674 0.022064656 0.71319962
-0.055675209 0.020414263 0.71526587
-0.056282051 0.018760711 0.71770757
-0.057046719 0.017114043 0.72078443
-0.058139555 0.015503913 0.72518158
-0.058141384 0.068165779 0.73325598
-0.058699042 0.066795468 0.73557717
-0.059198588 0.065322608 0.73765647
-0.05964781 0.063761473 0.73952639
-0.059909098 0.061974972 0.740614
-0.060007457 0.060007453 0.74102336
-0.051201135 0.049435616 0.70436758
-0.050618146 0.047127247 0.70194101
-0.050540924 0.045312554 0.70161957
-0.050496776 0.043531775 0.7014358
-0.05057792 0.0418576 0.70177352
-0.050678432 0.04019326 0.70219195
-0.050799608 0.038537681 0.70269632
-0.050939426 0.036887169 0.70327824
-0.051098358 0.035240263 0.7039398
-0.051277488 0.033595622 0.70468545
-0.051478691 0.031952292 0.70552289
-0.051701549 0.030307829 0.70645058
-0.051951252 0.028662771 0.70748997
-0.052229881 0.027015477 0.70864969
-0.052540984 0.025364608 0.70994467
-0.052890491 0.023709536 0.7113995
-0.053286139 0.022049457 0.71304631
-0.053736456 0.020382792 0.71492076
-0.054259911 0.018710345 0.71709955
-0.054894403 0.017036229 0.71974063
-0.055709179 0.015368074 0.72313207
-0.056997191 0.013757974 0.72849333
-0.054524183 0.066207916 0.72630507
-0.056521744 0.066614896 0.73491675
-0.057058092 0.06520924 0.73722899
-0.057535406 0.063699931 0.73928678
-0.057955969 0.062095731 0.74109983
-0.049179956 0.050936401 0.70326561
-0.049042236 0.049042225 0.70267189
-0.048931755 0.047184199 0.70219553
-0.048910744 0.0454171 0.70210505
-0.048958261 0.043712765 0.70230985
-0.049024217 0.042020798 0.70259422
-0.049108244 0.040338963 0.70295644
-0.049210012 0.038665026 0.70339519
-0.049330268 0.036997736 0.70391363
-0.049471363 0.035336703 0.70452183
-0.049632076 0.033678919 0.70521474
-0.049812775 0.032022536 0.70599371
-0.050015502 0.03036654 0.70686775
-0.050239515 0.028708309 0.70783341
-0.050490644 0.027048588 0.70891613
-0.050770957 0.025385499 0.71012461
-0.051084004 0.023717582 0.71147412
-0.051436026 0.022044033 0.71299177
-0.051834527 0.020363569 0.7147097
-0.052292474 0.018675864 0.71668398
-0.052833401 0.016982168 0.71901596
-0.053491823 0.015283406 0.72185445
-0.054376476 0.013594121 0.72566831
-0.056220531 0.012047261 0.7336182
-0.052399877 0.067925781 0.7255137
-0.052534159 0.066154152 0.72611403
-0.052838463 0.064580381 0.72747445
-0.049017746 0.058095127 0.71039295
-0.048035286 0.055151612 0.70600063
-0.0476919 0.052991033 0.70446539
-0.047512595 0.051032096 0.70366377
-0.047383778 0.049138755 0.70308787
-0.047373146 0.047373176 0.70304036
-0.047383279 0.045628339 0.70308566
-0.04741554 0.043903291 0.7032299
-0.04746652 0.042192519 0.70345783
-0.047535498 0.04049325 0.70376623
-0.047622129 0.03880322 0.70415348
-0.047726098 0.037120312 0.70461833
-0.047847804 0.035442829 0.70516241
-0.047988191 0.033769488 0.7057901
-0.048147935 0.032098591 0.70650423
-0.048329998 0.030430019 0.70731825
-0.048533835 0.028760791 0.70822954
-0.04875857 0.027088106 0.7092343
-0.049010638 0.025412947 0.71036118
-0.049292106 0.023733228 0.71161956
-0.049606498 0.022047371 0.71302509
-0.049960744 0.02035439 0.71460885
-0.050365105 0.01865375 0.71641672
-0.050834157 0.016944766 0.71851373
-0.051388923 0.015226364 0.72099394
-0.052083924 0.013503253 0.72410119
-0.053062599 0.011791706 0.72847652
-0.048893455 0.065818131 0.71824461
-0.048616815 0.063575894 0.71696031
-0.046915621 0.059546798 0.7090621
-0.046551488 0.05729416 0.70737153
-0.046263441 0.055160284 0.70603424
-0.046036042 0.053118497 0.70497847
-0.045944508 0.051245779 0.70455354
-0.045892157 0.049422354 0.70431048
-0.045864329 0.047628373 0.70418125
-0.045858506 0.045858532 0.70415425
-0.045872901 0.04410857 0.70422107
-0.045906246 0.042374998 0.70437586
-0.045958791 0.040655851 0.70461982
-0.046030179 0.038948625 0.70495129
-0.046118949 0.037249923 0.70536339
-0.04622497 0.035557687 0.70585561
-0.046348322 0.033869922 0.70642835
-0.046489935 0.032185346 0.70708573
-0.046650477 0.03050223 0.70783114
-0.046830833 0.028818965 0.70866853
-0.047033332 0.027134627 0.70960861
-0.047259204 0.025447279 0.71065724
-0.047512062 0.023756057 0.71183121
-0.047794312 0.022058904 0.71314168
-0.048111055 0.020354688 0.71461219
-0.048470099 0.018642366 0.71627915
-0.048880223 0.01692006 0.71818328
-0.049357396 0.015186906 0.72039855
-0.0499314 0.013443083 0.72306353
-0.050667264 0.011692435 0.72647995
-0.051807486 0.0099630058 0.73177367
-0.046698947 0.065378517 0.71672857
-0.045814347 0.062307537 0.71245736
-0.045292802 0.059786528 0.70993912
-0.044909049 0.057483613 0.70808613
-0.04471688 0.055448979 0.70715833
-0.044574589 0.053489506 0.70647126
-0.044470157 0.051585376 0.70596707
-0.044397555 0.049725294 0.70561647
-0.044351429 0.047899514 0.70539379
-0.044329114 0.046102315 0.70528603
-0.044328015 0.044328004 0.70528072
-0.0443464 0.042572588 0.70536947
-0.04438306 0.04083243 0.7055465
-0.04443714 0.03910467 0.70580757
-0.044509403 0.037387937 0.70615649
-0.044598587 0.035678893 0.70658714
-0.044706333 0.033976853 0.70710737
-0.044831149 0.032278419 0.70771009
-0.044973634 0.0305821 0.70839798
-0.045135099 0.028886497 0.70917761
-0.045316759 0.027190089 0.71005476
-0.045517445 0.025489777 0.71102369
-0.045743816 0.023786783 0.71211684
-0.045996968 0.022078544 0.71333915
-0.046279795 0.020363122 0.71470469
-0.046598572 0.018639445 0.71624392
-0.046960343 0.016905725 0.7179907
-0.047375634 0.015160203 0.71999586
-0.047862526 0.013401538 0.72234684
-0.048458446 0.011630058 0.7252242
-0.049249258 0.0098498762 0.72904259
-0.050777841 0.0081244707 0.73642319
-0.044420555 0.062929153 0.71466422
-0.043881007 0.060336411 0.71195054
-0.043543529 0.058058053 0.71025312
-0.043303758 0.055934042 0.7090472
-0.043127708 0.05390963 0.70816171
-0.042995989 0.051953495 0.70749927
-0.042900298 0.050050378 0.7070179
-0.042834952 0.048189342 0.7066893
-0.04279511 0.046361387 0.70648891
-0.042777885 0.044560313 0.70640224
-0.042781085 0.042781085 0.70641834
-0.042803194 0.041019768 0.70652956
-0.042843051 0.039272845 0.70673001
-0.042899683 0.037537247 0.70701486
-0.042973064 0.035810888 0.70738393
-0.043063678 0.034092098 0.70783967
-0.043170653 0.032377988 0.70837772
-0.043295637 0.030667782 0.70900637
-0.043438941 0.028959304 0.70972711
-0.043600917 0.027250558 0.71054178
-0.043783095 0.025540173 0.71145809
-0.043983545 0.023824453 0.71246624
-0.044209596 0.02210483 0.71360314
-0.04446299 0.020378888 0.71487761
-0.044746131 0.018644243 0.71630174
-0.045065347 0.016899526 0.71790731
-0.045430884 0.015143663 0.71974581
-0.045850836 0.013373166 0.72185802
-0.046352398 0.011588126 0.72438067
-0.046975423 0.009786576 0.72751427
-0.047842301 0.0079737306 0.73187435
-0.042692877 0.061255008 0.71531075
-0.042217389 0.058737248 0.71281528
-0.041904867 0.056480497 0.71117496
-0.041687343 0.054374814 0.71003336
-0.041523691 0.052355945 0.70917451
-0.04140209 0.050402552 0.70853627
-0.041315138 0.048500389 0.70807993
-0.041256931 0.04663831 0.7077744
-0.041222937 0.044807583 0.70759606
-0.041210834 0.043002605 0.70753258
-0.041217919 0.041217923 0.70756972
-0.041243326 0.039450169 0.70770305
-0.041285791 0.037695765 0.70792592
-0.041344974 0.035952151 0.70823652
-0.04142027 0.034216762 0.70863169
-0.041511558 0.032487303 0.7091108
-0.041619498 0.030762225 0.70967734
-0.041744046 0.029039353 0.71033102
-0.041885342 0.02731654 0.71107256
-0.042047255 0.025593996 0.71192229
-0.042229474 0.023868889 0.71287864
-0.042429388 0.022137076 0.71392787
-0.042655218 0.020400375 0.71511304
-0.042907767 0.018655568 0.71643847
-0.043191679 0.016901135 0.71792853
-0.043512248 0.015134692 0.71961105
-0.043880403 0.013354927 0.72154319
-0.044309538 0.011559069 0.72379541
-0.044821735 0.0097438693 0.72648358
-0.045477804 0.0079092085 0.72992682
-0.046474323 0.006061852 0.73515683
-0.041913267 0.062869906 0.72121787
-0.040966451 0.059587598 0.71602285
-0.040540535 0.05712533 0.71368593
-0.040258829 0.054898411 0.7121402
-0.040056225 0.05280143 0.71102858
-0.039905205 0.050788462 0.71019995
-0.039795708 0.048840225 0.70959914
-0.039718743 0.046940327 0.7091769
-0.039667074 0.045076221 0.70889336
-0.039637934 0.043241411 0.7087335
-0.039628945 0.041430265 0.70868421
-0.039638933 0.039638937 0.70873898
-0.039667502 0.037864447 0.70889568
-0.039711721 0.03610158 0.70913833
-0.039772559 0.034349054 0.70947218
-0.0398493 0.032603979 0.70989323
-0.039941695 0.03086406 0.71040016
-0.040049955 0.02912724 0.71099424
-0.040175077 0.027392119 0.71168071
-0.040316924 0.025656253 0.71245897
-0.040476438 0.023917913 0.7133342
-0.040655527 0.022175729 0.7143169
-0.040856369 0.02042821 0.71541882
-0.04108173 0.018673539 0.71665537
-0.041334257 0.01690951 0.71804094
-0.041618049 0.015133858 0.71959805
-0.041941054 0.013344884 0.7213704
-0.042312168 0.011539727 0.72340655
-0.04274511 0.0097148418 0.72578204
-0.043278009 0.0078687072 0.728706
-0.043977212 0.0059969127 0.7325424
-0.045254897 0.0041141212 0.73955292
-0.039972503 0.060910493 0.72101319
-0.039229751 0.057910591 0.71674371
-0.038851313 0.055501938 0.71456844
-0.038598139 0.053302199 0.71311313
-0.038410902 0.051214546 0.71203685
-0.038274761 0.049210429 0.7112543
-0.038175751 0.047265202 0.71068525
-0.038106252 0.045364618 0.71028566
-0.03806084 0.043498099 0.71002465
-0.038036726 0.041659266 0.70988607
-0.038032047 0.039843112 0.70985919
-0.038045131 0.038045138 0.70993435
-0.038074631 0.036261529 0.71010399
-0.038121458 0.034490883 0.7103731
-0.038183521 0.032728732 0.71072984
-0.038260128 0.030972511 0.71117026
-0.038353276 0.029221565 0.71170563
-0.038461939 0.027472824 0.71233028
-0.038586795 0.02572453 0.71304798
-0.038728595 0.023974836 0.71386302
-0.038888268 0.022221923 0.71478087
-0.039064653 0.020462453 0.71579474
-0.039264936 0.01869759 0.71694601
-0.039489236 0.016923964 0.71823531
-0.039739843 0.015138984 0.71967578
-0.040023513 0.013341188 0.72130632
-0.040348563 0.011528164 0.72317475
-0.040720556 0.0096954107 0.72531307
-0.041165166 0.007840991 0.72786874
-0.041715097 0.005959332 0.73102987
-0.042479735 0.0040457249 0.73542506
-0.043509092 -0 0.74134195
-0.038111098 0.059072226 0.72126693
-0.037497886 0.056246847 0.71756589
-0.0371565 0.053876936 0.71550542
-0.036922887 0.051692098 0.71409547
-0.036753383 0.049617082 0.71307242
-0.036630016 0.047619045 0.71232778
-0.036539599 0.045674503 0.71178216
-0.036477402 0.043772876 0.71140671
-0.036437687 0.041903347 0.71116698
-0.03641846 0.040060312 0.71105099
-0.036417663 0.038238585 0.71104616
-0.036433972 0.036433995 0.71114457
-0.036466099 0.034642786 0.71133852
-0.036513466 0.032862127 0.71162444
-0.036576863 0.031090349 0.71200699
-0.036654837 0.029323876 0.71247756
-0.036746766 0.027560085 0.71303248
-0.036854625 0.025798261 0.71368349
-0.036978964 0.024036348 0.71443391
-0.037120111 0.02227208 0.71528578
-0.037279274 0.02050364 0.71624637
-0.037454098 0.018727064 0.71730161
-0.037652235 0.016943514 0.71849746
-0.037874974 0.015149981 0.71984178
-0.038125034 0.013343781 0.72135103
-0.038407147 0.011522174 0.72305375
-0.038731951 0.0096829832 0.72501409
-0.03910977 0.0078220069 0.72729445
-0.039560772 0.0059341192 0.73001653
-0.040136583 0.0040136576 0.73349178
-0.04100024 0.0020500422 0.73870444
-0.040834941 -0 0.73770678
-0.040770892 -0.0020385385 0.73732018
-0.036268249 0.057265639 0.72166532
-0.035753749 0.054571539 0.71839666
-0.035448719 0.052240252 0.71645868
-0.035234306 0.050069809 0.71509647
-0.035082441 0.048007578 0.71413165
-0.034969136 0.046012044 0.71341181
-0.034887139 0.044067979 0.71289086
-0.034831788 0.042164832 0.7125392
-0.03479775 0.040292144 0.71232295
-0.034783237 0.038444638 0.71223074
-0.034785908 0.036616743 0.71224773
-0.034805011 0.034805 0.71236908
-0.034839321 0.033005714 0.71258712
-0.034888417 0.031215966 0.71289897
-0.03495191 0.029433221 0.71330231
-0.035030343 0.027655542 0.71380061
-0.035122879 0.025880009 0.71438849
-0.035229735 0.024104595 0.71506751
-0.035351437 0.022327244 0.71584058
-0.035491068 0.020547509 0.71672773
-0.035648905 0.018762589 0.71773052
-0.035822324 0.016968489 0.71883225
-0.036019258 0.015165985 0.72008348
-0.036239494 0.013351381 0.72148263
-0.03648749 0.011522382 0.72305816
-0.036769878 0.0096763074 0.7248522
-0.037095424 0.0078095794 0.72692055
-0.037476506 0.0059173703 0.72934163
-0.03794121 0.0039938092 0.73229396
-0.038531408 0.0020279586 0.73604357
-0.03846297 2.9802322e-08 0.73560882
-0.038674518 -0.0020354688 0.73695278
-0.0392286 -0.0041293204 0.74047303
-0.034449026 0.055501223 0.72226638
-0.033998173 0.052886039 0.71924293
-0.033726741 0.050590098 0.71742266
-0.033534978 0.048439413 0.71613669
-0.033395465 0.046382606 0.71520108
-0.03329251 0.044390053 0.71451062
-0.033218343 0.04244566 0.71401328
-0.033169039 0.04053998 0.71368265
-0.033140723 0.038664222 0.71349275
-0.033130728 0.036811918 0.71342576
-0.033137068 0.034978032 0.71346819
-0.033158783 0.033158809 0.71361387
-0.033194348 0.031350255 0.71385229
-0.033244461 0.029550612 0.7141884
-0.03330864 0.027757198 0.7146188
-0.033386674 0.025967389 0.71514213
-0.033479132 0.024179369 0.71576214
-0.033585627 0.022390455 0.71647632
-0.033706669 0.020598531 0.71728808
-0.033843461 0.018801928 0.71820545
-0.033996761 0.01699838 0.71923345
-0.034170117 0.015186727 0.72039604
-0.034363851 0.013363719 0.72169518
-0.034582622 0.011527538 0.72316235
-0.034828696 0.0096746683 0.72481251
-0.035111386 0.007802546 0.72670823
-0.03543603 0.0059060156 0.72888541
-0.035820503 0.0039800704 0.73146379
-0.036204968 0.0020113885 0.73404205
-0.036538538 2.9802322e-08 0.73627895
-0.036684684 -0.002038002 0.73725903
-0.03694199 -0.0041046441 0.73898458
-0.032622788 0.05373165 0.72288835
-0.032238871 0.051202923 0.72016239
-0.031991042 0.048927486 0.71840262
-0.031820025 0.046794146 0.7171883
-0.031693049 0.044743121 0.71628666
-0.031600151 0.04275316 0.71562707
-0.031535134 0.040810198 0.71516538
-0.031492051 0.038901985 0.71485943
-0.031467933 0.03702113 0.71468824
-0.031460837 0.035162121 0.71463782
-0.031470031 0.033321261 0.71470308
-0.031494152 0.03149417 0.71487439
-0.031531859 0.029677033 0.71514213
-0.031582553 0.027866989 0.71550214
-0.031645887 0.026061356 0.71595174
-0.031723782 0.024259388 0.71650493
-0.031815026 0.022457659 0.71715271
-0.03192069 0.020654589 0.71790302
-0.032040689 0.018847466 0.71875513
-0.032176066 0.017034382 0.71971643
-0.032325614 0.015212059 0.72077829
-0.032496408 0.013380885 0.721991
-0.0326881 0.011536986 0.72335213
-0.038870987 0.011432648 0.76725453
-0.033506118 0.007883817 0.72916055
-0.033427771 0.0058990419 0.72860426
-0.033751145 0.0039707124 0.73090041
-0.034063499 0.0020037591 0.73311836
-0.034518279 -0 0.73634756
-0.034745432 -0.0020438135 0.73796046
-0.034896668 -0.0041055083 0.73903441
-0.035210419 -0.0062136054 0.7412622
-0.031873409 0.055778474 0.7317124
-0.030804574 0.051982731 0.72364861
-0.030465789 0.049506932 0.72109276
-0.030245604 0.047258794 0.71943152
-0.030089524 0.045134276 0.71825403
-0.029974721 0.043088675 0.71738791
-0.029891791 0.041101217 0.71676224
-0.029835312 0.039158851 0.71633619
-0.029797778 0.037247211 0.71605301
-0.02977816 0.035361558 0.71590495
-0.029774504 0.03349632 0.71587741
-0.029785693 0.031647295 0.71596181
-0.029810648 0.029810697 0.7161501
-0.029849885 0.027984262 0.7164461
-0.029901503 0.026163846 0.71683556
-0.02996541 0.024346918 0.7173177
-0.030041536 0.022531152 0.71789205
-0.030130859 0.020714998 0.71856588
-0.030234637 0.018896669 0.71934885
-0.030352823 0.017073512 0.72024047
-0.030486325 0.015243173 0.72124767
-0.030632721 0.013401836 0.72235215
-0.036800388 0.013800144 0.76888359
-0.036847476 0.011514843 0.76923883
-0.03675241 0.0091881454 0.76852161
-0.031584315 0.0059220791 0.72953135
-0.031664766 0.0039580762 0.73013836
-0.031983297 0.0019989908 0.73254144
-0.032367606 2.9802322e-08 0.73544085
-0.032758184 -0.0020473599 0.73838753
-0.032919012 -0.0041148663 0.73960084
-0.033097979 -0.0062058568 0.74095106
-0.033557195 -0.0083892643 0.74441552
-0.029602354 0.053284258 0.72946745
-0.028975619 0.050224423 0.72442389
-0.028679548 0.047799259 0.72204125
-0.028484281 0.045574844 0.72046995
-0.028343474 0.043460011 0.71933675
-0.028240982 0.041420102 0.71851206
-0.028167533 0.039434552 0.7179209
-0.028117619 0.037490159 0.71751928
-0.02808553 0.035575002 0.71726102
-0.028070193 0.033684283 0.71713758
-0.028069563 0.031812191 0.71713251
-0.028082902 0.029955119 0.71723986
-0.028109303 0.028109312 0.71745235
-0.028148307 0.02627176 0.71776617
-0.028200449 0.024440408 0.71818578
-0.028264383 0.022611529 0.71870029
-0.028339943 0.02078262 0.71930838
-0.02842764 0.018951803 0.72001404
-0.028527914 0.017116755 0.72082102
-0.028642882 0.015276223 0.72174621
-0.028773664 0.013427734 0.72279871
-0.034573309 0.013829321 0.76947069
-0.034720939 0.011573642 0.77065861
-0.034720134 0.0092587173 0.77065212
-0.034027211 0.0068054795 0.76507592
-0.029657446 0.0039543509 0.72991085
-0.029930891 0.0019954145 0.73211133
-0.030250091 2.9802322e-08 0.73468006
-0.030638834 -0.0020425916 0.73780847
-0.030944154 -0.0041258633 0.74026543
-0.031072134 -0.0062144101 0.74129534
-0.031286631 -0.0083430707 0.74302149
-0.027628971 0.051310956 0.72946841
-0.027140832 0.048465818 0.7252596
-0.0268817 0.046082914 0.72302526
-0.026708078 0.043877572 0.72152829
-0.026581798 0.041771412 0.72043943
-0.026491126 0.039736718 0.71965766
-0.026425665 0.037750989 0.7190932
-0.026381778 0.035803854 0.71871489
-0.02635498 0.033885002 0.71848381
-0.02634358 0.031988621 0.71838552
-0.026346158 0.030109882 0.71840775
-0.026361624 0.028244644 0.71854109
-0.026388735 0.026388764 0.71877486
-0.02642796 0.024540246 0.71911305
-0.026479008 0.022696286 0.71955317
-0.026542418 0.020854771 0.72009987
-0.026616948 0.019012123 0.72074252
-0.026703192 0.017166317 0.72148615
-0.026801476 0.015315115 0.72233355
-0.026912995 0.013456494 0.72329515
-0.032355018 0.013866454 0.7702173
-0.032491885 0.011604249 0.77139735
-0.032601822 0.0093148351 0.7723453
-0.032560453 0.0069772601 0.77198863
-0.031875063 0.0045535862 0.76607895
-0.027908565 0.0019934773 0.73187912
-0.028171197 2.9802322e-08 0.73414356
-0.028486585 -0.0020347238 0.7368629
-0.02887621 -0.0041251779 0.74022233
-0.02908555 -0.0062325895 0.74202728
-0.029210107 -0.0083457232 0.74310124
-0.029468898 -0.010524571 0.7453326
-0.025697231 0.049417764 0.72985613
-0.025298258 0.046704471 0.72615147
-0.02507126 0.044356853 0.72404373
-0.024915494 0.042164713 0.72259736
-0.024804898 0.040069491 0.72157043
-0.024724288 0.03803739 0.72082186
-0.024665877 0.036050171 0.72027951
-0.024627494 0.034099638 0.7199232
-0.024605509 0.032176465 0.71971893
-0.024597878 0.030274332 0.71964824
-0.024603274 0.028388411 0.71969825
-0.024620501 0.026514381 0.71985829
-0.024648957 0.024648964 0.72012246
-0.024688158 0.022789061 0.72048646
-0.024737827 0.020932019 0.72094762
-0.024799129 0.019076288 0.72151685
-0.024872147 0.017219216 0.72219485
-0.024956312 0.015357763 0.72297633
-0.025052141 0.013489604 0.72386616
-0.025160672 0.011612654 0.72487402
-0.030235969 0.011629194 0.77200031
-0.030379444 0.0093475282 0.77333254
-0.030446135 0.0070260465 0.77395171
-0.030379301 0.0046737492 0.77333117
-0.026144356 0.0020111203 0.73400784
-0.0261307 2.9802322e-08 0.73388106
-0.026392477 -0.002030164 0.73631179
-0.026709028 -0.0041090846 0.73925114
-0.027049117 -0.0062421262 0.74240899
-0.027191021 -0.0083664358 0.74372661
-0.027336951 -0.0105142 0.74508166
-0.02770335 -0.01278615 0.74848384
-0.023774996 0.047550052 0.73040414
-0.023442317 0.044931114 0.72705764
-0.023246009 0.042617679 0.72508293
-0.023108765 0.040440351 0.72370237
-0.023011168 0.038351953 0.72272062
-0.02293987 0.036321491 0.72200334
-0.022889061 0.034333616 0.72149229
-0.022856211 0.032379657 0.7211619
-0.022837957 0.030450642 0.7209782
-0.022832746 0.028540969 0.72092575
-0.022840476 0.02664724 0.72100365
-0.022859171 0.024764121 0.72119164
-0.022888362 0.022888392 0.72148526
-0.022927606 0.021017015 0.72188002
-0.022976825 0.019147366 0.72237515
-0.023035888 0.017276943 0.72296923
-0.02310521 0.015403479 0.72366655
-0.023186758 0.013525635 0.72448695
-0.023273671 0.011636853 0.72536111
-0.02335006 0.0097291768 0.72612959
-0.028097942 0.0093660057 0.77388954
-0.028232172 0.0070580542 0.77523983
-0.028255289 0.0047092438 0.7754724
-0.028172033 0.0023476779 0.7746349
-0.024168223 -0 0.73435962
-0.024322908 -0.0020268857 0.73591572
-0.024581712 -0.0040969253 0.73851907
-0.024897184 -0.0062243044 0.74169248
-0.025164837 -0.0083882511 0.74438477
-0.025272345 -0.010530144 0.74546629
-0.02544391 -0.012721896 0.74719208
-0.021853544 0.045693785 0.73106027
-0.021575894 0.043151796 0.72801346
-0.021404387 0.040862948 0.72613138
-0.021285931 0.038701683 0.72483146
-0.021199761 0.036617786 0.72388589
-0.02113699 0.03458783 0.72319704
-0.02109446 0.032600522 0.7227304
-0.021066686 0.03064248 0.72242558
-0.021052262 0.028707653 0.72226727
-0.021049526 0.026790321 0.72223723
-0.021058062 0.024886817 0.72233087
-0.021077173 0.022993267 0.72254062
-0.021106757 0.02110678 0.72286534
-0.021145599 0.019223273 0.72329152
-0.02119372 0.017340332 0.72381955
-0.021251166 0.015455395 0.72444999
-0.02129977 0.013554424 0.72498339
-0.021364506 0.011653364 0.7256937
-0.021452609 0.0097512305 0.72666061
-0.0215519 0.0078370869 0.72775018
-0.025937421 0.0070738792 0.77587557
-0.026042966 0.0047351122 0.77703375
-0.026029665 0.002366364 0.77688777
-0.025493037 -0 0.77099907
-0.022274254 -0.0020249486 0.73567706
-0.022485001 -0.0040881932 0.73798978
-0.022738034 -0.0062012672 0.74076647
-0.02304999 -0.0083818138 0.74418974
-0.023235852 -0.010561764 0.74622935
-0.023334857 -0.012728095 0.74731576
-0.023537332 -0.01497829 0.74953765
-0.019929053 0.043843955 0.73181105
-0.019697534 0.041364819 0.72901636
-0.019548774 0.039097548 0.72722065
-0.019445829 0.036947101 0.72597802
-0.019370023 0.034866065 0.72506297
-0.019316109 0.032837391 0.72441214
-0.019280456 0.030848771 0.7239818
-0.019257452 0.028886199 0.7237041
-0.019246565 0.026945204 0.72357273
-0.019246489 0.02502045 0.72357184
-0.019256415 0.023107708 0.72369164
-0.019275332 0.021202892 0.72391999
-0.01930359 0.01930362 0.72426105
-0.019341644 0.017407477 0.72472042
-0.019361179 0.015488982 0.72495621
-0.019415949 0.01359117 0.72561741
-0.019479595 0.011687785 0.72638559
-0.01955267 0.0097763538 0.72726774
-0.019635461 0.0078542233 0.72826713
-0.023641195 0.0070923865 0.77662051
-0.023748126 0.0047496259 0.77791137
-0.023821618 0.002382189 0.77879846
-0.02377905 2.9802322e-08 0.77828467
-0.020496005 -0.0020495653 0.73865479
-0.020420387 -0.0040840507 0.73774195
-0.020624248 -0.0061872602 0.74020278
-0.020870978 -0.0083483458 0.74318111
-0.021149037 -0.01057449 0.74653757
-0.021269506 -0.012761742 0.74799174
-0.02138203 -0.014967412 0.74935007
-0.021658394 -0.017326683 0.75268608
-0.018473193 0.045156717 0.73901409
-0.017998299 0.041996062 0.73264456
-0.017803473 0.039563298 0.73003161
-0.017677465 0.037319124 0.72834146
-0.017587574 0.035175204 0.7271359
-0.017522629 0.03309831 0.72626483
-0.017477067 0.031070352 0.72565377
-0.017446663 0.029077768 0.72524595
-0.017428096 0.027110368 0.72499692
-0.017420411 0.025162846 0.72489381
-0.017422499 0.023230016 0.72492182
-0.017433492 0.021307617 0.72506934
-0.017451126 0.019390136 0.7253058
-0.017453494 0.017453492 0.72533756
-0.017491663 0.01554814 0.72584951
-0.017535798 0.013638973 0.7264415
-0.01758785 0.011725277 0.72713953
-0.017648023 0.0098044872 0.72794664
-0.017717039 0.0078742802 0.7288723
-0.01779503 0.0059316754 0.72991836
-0.021416107 0.0047591031 0.7784853
-0.021521322 0.0023912489 0.7798965
-0.021558929 -0 0.78040087
-0.021503748 -0.0023893118 0.77966076
-0.018473648 -0.0041052401 0.73902011
-0.018534932 -0.0061782897 0.73984212
-0.018731685 -0.0083251595 0.74248105
-0.018971827 -0.010539889 0.74570191
-0.019189786 -0.012793154 0.74862528
-0.01927587 -0.014992326 0.74977982
-0.019404363 -0.017248303 0.75150317
-0.016384792 0.043010086 0.73847347
-0.016054763 0.040136933 0.73349375
-0.015893927 0.037748098 0.73106694
-0.015788358 0.035523832 0.72947401
-0.015711391 0.033386707 0.72831273
-0.015657615 0.031315267 0.72750127
-0.015618395 0.029284507 0.72690952
-0.015592902 0.027287632 0.72652483
-0.015578277 0.025314748 0.72630411
-0.015573307 0.023359984 0.72622919
-0.015522399 0.021343321 0.72546107
-0.015436976 0.019296229 0.72417212
-0.01555751 0.017502218 0.72599083
-0.015611815 0.015611827 0.72681022
-0.01564556 0.013689905 0.72731942
-0.015687009 0.011765271 0.72794485
-0.01573585 0.0098349154 0.72868174
-0.015791908 0.0078960061 0.72952759
-0.015856277 0.0059461296 0.73049885
-0.015928714 0.0039821863 0.73159182
-0.019170193 0.0023962855 0.78050196
-0.019261701 2.9802322e-08 0.78188276
-0.019266892 -0.0024083555 0.78196108
-0.018881196 -0.0047202706 0.77614135
-0.01645937 -0.0061722398 0.73959887
-0.016617142 -0.0083085299 0.74197936
-0.016804164 -0.010502607 0.74480134
-0.017034575 -0.012775898 0.74827796
-0.017186191 -0.015037924 0.75056571
-0.017260073 -0.017260075 0.75168049
-0.017408324 -0.019584358 0.7539174
-0.015204907 0.045614749 0.75344539
-0.014349379 0.04099825 0.73869234
-0.014103693 0.038281471 0.73445559
-0.013971037 0.035925537 0.73216802
-0.013881171 0.033711433 0.73061836
-0.013818246 0.03158462 0.7295332
-0.013772983 0.029513568 0.72875273
-0.013740187 0.027480364 0.7281872
-0.013681844 0.025409162 0.72718108
-0.013537895 0.023207843 0.72469878
-0.013455204 0.021143883 0.7232728
-0.013511887 0.019302726 0.72425026
-0.013611975 0.017501146 0.72597623
-0.013706687 0.015664816 0.7276094
-0.013746226 0.013746291 0.72829127
-0.013777534 0.011809349 0.72883117
-0.013815302 0.0098680854 0.72948247
-0.013859638 0.0079198182 0.73024702
-0.013910888 0.0059618354 0.73113078
-0.013969867 0.0039913952 0.73214787
-0.014036039 0.0020051897 0.73328894
-0.016894555 -0 0.78258228
-0.016959837 -0.0024228096 0.78370798
-0.016942363 -0.004840672 0.78340673
-0.016583782 -0.0071073174 0.77722323
-0.014525405 -0.008300215 0.74172777
-0.014669896 -0.010478497 0.74421942
-0.014844986 -0.012724221 0.74723876
-0.015051034 -0.015051037 0.75079191
-0.015144424 -0.017307878 0.75240231
-0.015223477 -0.019573033 0.75376558
-0.015412658 -0.022018105 0.75702798
-0.013084924 0.043616414 0.75449443
-0.012311522 0.038986474 0.73893481
-0.012137215 0.036411643 0.73542804
-0.012028962 0.034082055 0.7332502
-0.011937319 0.031832844 0.73140639
-0.011882747 0.029706895 0.73030847
-0.011846782 0.027642488 0.72958499
-0.011669449 0.025283813 0.7260173
-0.011588144 0.023176253 0.72438157
-0.011581216 0.021232247 0.72424221
-0.01160768 0.019346118 0.7247746
-0.011663826 0.017495751 0.72590423
-0.011758436 0.015677929 0.72780752
-0.011827786 0.013799071 0.72920275
-0.011857029 0.011857033 0.72979116
-0.011885617 0.0099046826 0.73036629
-0.011919877 0.0079466105 0.7310555
-0.011959622 0.005979836 0.73185515
-0.012005776 0.0040019155 0.73278362
-0.012057805 0.0020096302 0.73383045
-0.014517882 2.9802322e-08 0.78332335
-0.014586728 -0.0024310946 0.78470838
-0.01462624 -0.0048753619 0.78550327
-0.014594669 -0.0072973073 0.78486818
-0.012556474 -0.0083709657 0.74386287
-0.012558206 -0.010465115 0.74389774
-0.012691139 -0.01269111 0.74657208
-0.012853662 -0.014995903 0.74984181
-0.0130103 -0.017347038 0.75299311
-0.013072332 -0.019608468 0.75424111
-0.013157871 -0.021929771 0.75596201
-0.010956394 0.041634291 0.75575686
-0.010252118 0.036907613 0.73875415
-0.01012753 0.034433633 0.73574626
-0.010048212 0.032154262 0.73383141
-0.0099938223 0.029981434 0.73251832
-0.0099538611 0.027870834 0.73155361
-0.0099248774 0.025804698 0.73085386
-0.0097552929 0.023412704 0.72675973
-0.009709293 0.021360427 0.72564918
-0.0097097456 0.019419521 0.72566009
-0.0097385077 0.017529339 0.72635448
-0.0097906822 0.015665114 0.72761416
-0.0098730586 0.013822287 0.72960281
-0.0099212946 0.011905581 0.73076737
-0.0099438122 0.0099438131 0.73131096
-0.009969092 0.0079753101 0.73192132
-0.0099992547 0.0059995353 0.73264951
-0.010034025 0.0040136278 0.73348892
-0.010074431 0.002014935 0.73446441
-0.010119787 2.9802322e-08 0.73555934
-0.012179337 -0.002435863 0.7852813
-0.012241195 -0.0048964322 0.78677469
-0.012256786 -0.0073540509 0.78715116
-0.012220744 -0.0097765625 0.78628093
-0.010479595 -0.010479599 0.74424589
-0.010556581 -0.012667865 0.74610448
-0.010675185 -0.014945239 0.74896789
-0.010821562 -0.017314494 0.75250173
-0.010927059 -0.019668698 0.75504863
-0.010974657 -0.021949321 0.75619781
-0.011068366 -0.024350375 0.7584601
-0.0088073881 0.039633244 0.75703257
-0.0082310392 0.034981936 0.73963976
-0.0081376676 0.032550693 0.73682189
-0.0080779241 0.030292213 0.73501903
-0.0080356319 0.02812472 0.73374277
-0.0080053546 0.026017427 0.73282909
-0.0079809343 0.023942798 0.73209208
-0.0078376066 0.021553457 0.72776675
-0.0078101726 0.019525439 0.72693884
-0.0078174323 0.017589241 0.72715801
-0.0078438735 0.015687764 0.72795588
-0.0078912843 0.01380977 0.72938669
-0.0079565356 0.011934847 0.73135585
-0.0079883561 0.0099854469 0.73231614
-0.0080060922 0.0080060959 0.73285133
-0.0080274455 0.0060205758 0.73349571
-0.0080528967 0.004026413 0.73426384
-0.0080821319 0.0020205379 0.73514599
-0.0081160199 2.9802322e-08 0.73616868
-0.0081539461 -0.0020384789 0.73731321
-0.0098147094 -0.0049073398 0.78743124
-0.0098596271 -0.0073947012 0.78878665
-0.009857296 -0.0098572671 0.78871632
-0.0096531007 -0.012066334 0.78255415
-0.0084366854 -0.01265502 0.74584562
-0.0085207326 -0.014911264 0.74838197
-0.008621932 -0.017243862 0.75143594
-0.0087452754 -0.019676864 0.75515819
-0.0088051027 -0.02201274 0.75696355
-0.0088505419 -0.024338961 0.75833488
-0.0089559685 -0.026867926 0.76151639
-0.0063362485 0.035905421 0.7461971
-0.0061954209 0.033042252 0.74053055
-0.0061302693 0.030651361 0.73790908
-0.0060882741 0.028411955 0.73621941
-0.0060577337 0.026250154 0.73499048
-0.0060365638 0.024146289 0.73413867
-0.0060143364 0.022052586 0.7332443
-0.0059062135 0.019687384 0.72889388
-0.0058927895 0.01767838 0.72835362
-0.0059007583 0.015735388 0.72867429
-0.0059232507 0.013820916 0.72957933
-0.0059646987 0.011929393 0.73124707
-0.0060104108 0.010017395 0.73308635
-0.0060298466 0.0080398023 0.73386842
-0.0060436609 0.0060436726 0.73442423
-0.0060605467 0.0040403903 0.73510367
-0.0060805059 0.0020268857 0.73590672
-0.0061033494 2.9802322e-08 0.73682594
-0.0061299936 -0.0020433068 0.73789805
-0.0061596767 -0.0041064322 0.73909235
-0.0074152499 -0.007415235 0.78961271
-0.0074422718 -0.0099229813 0.79069996
-0.0074306298 -0.012384385 0.79023153
-0.0064033899 -0.012806773 0.74889863
-0.0063832123 -0.014894158 0.74808675
-0.0064505823 -0.017201573 0.75079751
-0.0065331217 -0.019599348 0.75411868
-0.0066173933 -0.02205795 0.75750947
-0.0066509652 -0.024386853 0.75886035
-0.0066935834 -0.026774317 0.76057512
-0.004224665 0.033797324 0.74622726
-0.0041468828 0.031101614 0.74153262
-0.004106198 0.028743386 0.73907709
-0.0040789172 0.026512951 0.73743057
-0.0040599196 0.024359554 0.73628396
-0.0040462944 0.022254646 0.73546159
-0.0040242141 0.020121068 0.73412895
-0.0039568748 0.017805934 0.73006463
-0.0039522648 0.015809089 0.7297864
-0.0039592856 0.013857514 0.73021013
-0.0039770189 0.011931062 0.73128045
-0.0040082084 0.010020554 0.73316288
-0.0040349718 0.0080699921 0.73477823
-0.0040459349 0.0060689449 0.7354399
-0.0040557566 0.0040557683 0.73603272
-0.0040676761 0.0020338595 0.73675203
-0.0040814625 2.9802322e-08 0.73758411
-0.0040976903 -0.0020488203 0.73856354
-0.0041158581 -0.0041158497 0.73966014
-0.0049556913 -0.0074335337 0.79034859
-0.0049800575 -0.009960115 0.79181916
-0.0049912846 -0.012478203 0.7924968
-0.0049786204 -0.014935851 0.79173243
-0.0042755106 -0.014964253 0.74929595
-0.0042932667 -0.017173052 0.75036764
-0.0043414319 -0.019536436 0.75327468
-0.0044009248 -0.022004604 0.75686544
-0.0044474951 -0.02446124 0.75967622
-0.0044673495 -0.02680406 0.76087445
-0.0045052408 -0.02928409 0.76316142
-0.0022552805 0.036084503 0.76348257
-0.0021160666 0.031741053 0.74667794
-0.0020819912 0.029147923 0.74256468
-0.0020628755 0.026817381 0.7402572
-0.002049844 0.024598092 0.73868418
-0.0020407976 0.022448808 0.73759216
-0.0020342348 0.02034235 0.73680001
-0.0020054134 0.018048763 0.73332095
-0.0019894503 0.015915632 0.73139405
-0.0019881383 0.013916999 0.73123562
-0.0019929449 0.011957675 0.73181587
-0.0020030534 0.010015279 0.73303604
-0.0020201006 0.0080804527 0.73509383
-0.0020313032 0.0060939193 0.73644614
-0.0020361636 0.0040723383 0.73703277
-0.0020413806 0.0020413995 0.73766255
-0.0020476799 2.9802322e-08 0.73842293
-0.0020549288 -0.0020548701 0.73929799
-0.0020634455 -0.0041268766 0.74032605
-0.0020729518 -0.0062188208 0.7414735
-0.0024952069 -0.0099807978 0.79244423
-0.0025079888 -0.012539953 0.79398721
-0.0025099388 -0.01505962 0.79422253
-0.0024595512 -0.017216831 0.78814018
-0.0021444804 -0.017155826 0.75010777
-0.0021660647 -0.019494534 0.7527132
-0.0021918162 -0.021918148 0.7558217
-0.0022235992 -0.024459571 0.75965834
-0.0022403956 -0.026884735 0.76168579
-0.0022518295 -0.029273778 0.76306599
-0.0022784073 -0.031897664 0.76627421
0 0.033941805 0.76438868
0 0.029702991 0.74735051
0 0.027178079 0.74360633
0 0.024872899 0.74144757
0 0.022665679 0.73997211
0 0.020517468 0.73891348
0 0.018408954 0.73815209
0 0.016092092 0.73405665
0 0.014004171 0.73273927
0 0.012003779 0.73274308
0 0.010034204 0.73349279
0 0.0080730915 0.73487347
0 0.0061070323 0.73697275
0 0.0040896833 0.73807842
0 0.0020495355 0.73864865
0 -0 0.73931426
0 -0.0020616949 0.74011666
0 -0.0041386187 0.74103475
0 -0.0062347651 0.74211377
0 -0.0083527267 0.74331355
0 -0.012569457 0.7947005
0 -0.015149266 0.79602659
0 -0.017660707 0.79579455
0 -0.019753903 0.78930938
0 -0.01947248 0.75241703
0 -0.021863818 0.75516623
0 -0.024357527 0.75853819
0 -0.026934296 0.76218438
0 -0.029337138 0.76365447
0 -0.031793177 0.76537299
0.0022729943 0.031821936 0.76562077
0.0021279093 0.027662843 0.74810755
0.0021001152 0.02520135 0.74475247
0.0020829448 0.022912443 0.74267977
0.0020713042 0.020713061 0.7412746
0.0020628162 0.018565387 0.74025005
0.0020565588 0.016452491 0.73949474
0.0020195136 0.014136612 0.73502302
0.0020118644 0.012071192 0.73409963
0.0020137916 0.010068953 0.73433226
0.0020209327 0.0080837309 0.73519433
0.0020339123 0.0061017573 0.73676109
0.0020508775 0.004101783 0.73880887
0.002058378 0.0020583868 0.73971432
0.0020632073 2.9802322e-08 0.74029732
0.0020690002 -0.0020689666 0.74099654
0.0020759962 -0.0041519701 0.74184108
0.0020839684 -0.0062518716 0.74280328
0.0020932883 -0.0083731115 0.74392831
0.0021036912 -0.010518432 0.74518412
0.0025330007 -0.015197992 0.79700637
0.0025415181 -0.017790616 0.79803449
0.0025361206 -0.020288914 0.79738295
0.0021813053 -0.019631743 0.75455296
0.0021831612 -0.021831602 0.75477701
0.002207608 -0.024283677 0.75772798
0.0022378506 -0.026854187 0.76137853
0.0022634522 -0.029424876 0.76446897
0.0022737999 -0.031833172 0.7657181
0.0022929728 -0.034394592 0.76803243
0.0045687356 0.029696822 0.7669937
0.0042709489 0.025625676 0.7490207
0.0042193923 0.023206681 0.74590898
0.0041870326 0.020935178 0.74395585
0.0041643986 0.01873982 0.74258977
0.004148602 0.01659438 0.7416364
0.0041342224 0.014469802 0.74076843
0.0040588658 0.012176603 0.73622036
0.0040485864 0.010121495 0.73559994
0.0040542618 0.0081084967 0.73594248
0.0040704389 0.0061056912 0.73691887
0.0041010487 0.0041010976 0.73876631
0.0041316282 0.0020658374 0.74061185
0.0041440665 2.9802322e-08 0.74136269
0.0041541993 -0.0020770729 0.74197417
0.0041666524 -0.0041666627 0.74272585
0.0041810321 -0.0062715411 0.74359375
0.0041981512 -0.0083962679 0.74462694
0.0042172228 -0.010543048 0.74577802
0.0050778519 -0.015233517 0.79772162
0.0051037231 -0.017863035 0.79928315
0.005112798 -0.020451188 0.79983073
0.0050977957 -0.02294004 0.79892528
0.0043695066 -0.021847546 0.75496912
0.0044063511 -0.024234921 0.75719297
0.0044587702 -0.026752621 0.76035672
0.0045240191 -0.029406101 0.76429474
0.004561842 -0.03193289 0.7665776
0.0045848531 -0.034386396 0.76796651
0.0046385564 -0.037108421 0.77120775
0.0066132536 0.026453048 0.75734293
0.0064302995 0.02357775 0.7499814
0.006358095 0.021193653 0.74707603
0.0063126129 0.018937886 0.74524605
0.0062802071 0.016747206 0.74394208
0.0062578479 0.014601678 0.74304241
0.0062277564 0.012455523 0.74183166
0.0061183255 0.010197252 0.73742855
0.006110704 0.0081476271 0.73712188
0.0061219437 0.0061219633 0.7375741
0.0061511197 0.0041007102 0.73874807
0.0062022302 0.0020674467 0.74080461
0.0062415064 -0 0.74238497
0.0062576127 -0.0020858347 0.74303299
0.0062738024 -0.0041825175 0.74368441
0.0062935301 -0.0062935054 0.74447829
0.006316225 -0.0084216297 0.74539143
0.0063432101 -0.010571986 0.74647713
0.0063731577 -0.012746334 0.74768215
0.0076725283 -0.017902553 0.79996479
0.0077118673 -0.020565003 0.80154771
0.0077123833 -0.023137122 0.80156839
0.0075517502 -0.025172442 0.79510504
0.0066021425 -0.02420789 0.75689584
0.0066715097 -0.026685983 0.75968689
0.0067565832 -0.029278517 0.76311004
0.0068538226 -0.031984508 0.76702267
0.0068936716 -0.034468323 0.76862603
0.006936742 -0.036995977 0.7703591
0.0087940376 0.024183601 0.75662965
0.0086077303 0.021519303 0.75100732
0.0085187387 0.019167215 0.74832177
0.0084599722 0.016919941 0.74654841
0.0084196851 0.014734447 0.74533254
0.008390951 0.012586445 0.74446547
0.0083000939 0.010375142 0.74172366
0.0082045859 0.0082046092 0.73884141
0.0081986366 0.006148994 0.73866189
0.0082196482 0.0041098297 0.7392959
0.0082634604 0.002065897 0.74061805
0.0083364295 -0 0.74282008
0.0083796391 -0.0020948946 0.74412411
0.0083997557 -0.0041998625 0.74473119
0.0084225191 -0.0063168705 0.74541813
0.0084504001 -0.0084503591 0.74625945
0.0084820939 -0.010602623 0.74721599
0.0085198618 -0.012779772 0.74835569
0.0085615925 -0.01498273 0.74961501
0.0103086 -0.020617187 0.80233562
0.010351413 -0.023290634 0.80362761
0.010337779 -0.025844425 0.80321616
0.0089066681 -0.024493307 0.76002854
0.0088837771 -0.026651293 0.75933778
0.0089831017 -0.02919504 0.76233518
0.0091061238 -0.031871438 0.76604778
0.0092179785 -0.034567386 0.76942319
0.0092617013 -0.03704679 0.77074265
0.0093391901 -0.039691538 0.77308112
0.011003328 0.022006661 0.75688994
0.010805718 0.019450307 0.75211918
0.01070103 0.017121643 0.74959183
0.010631047 0.014883518 0.74790227
0.010582884 0.012699485 0.74673951
0.010548258 0.010548294 0.74590355
0.010379078 0.0083032548 0.7418192
0.010314973 0.0061889887 0.74027157
0.010314761 0.0041258931 0.74026644
0.010348424 0.0020696819 0.74107915
0.010411083 -0 0.74259192
0.010501898 -0.0021003783 0.74478436
0.01054599 -0.0042183697 0.74584883
0.01057139 -0.0063427985 0.74646205
0.01060118 -0.0084809363 0.7471813
0.010638009 -0.010637999 0.74807036
0.010679788 -0.012815744 0.74907905
0.010728748 -0.015020192 0.75026095
0.012922958 -0.020676732 0.80323392
0.012986484 -0.02337566 0.80476761
0.013022989 -0.026045948 0.80564892
0.01299026 -0.02857855 0.80485874
0.011151299 -0.026763111 0.76046228
0.0112079 -0.029140562 0.76182878
0.011341323 -0.031755686 0.76504987
0.011507685 -0.03452301 0.76906621
0.011614265 -0.037165612 0.77163929
0.011672625 -0.039686918 0.77304822
0.011808211 -0.042509526 0.77632159
0.014119007 0.023531705 0.7752986
0.013231113 0.019846678 0.75743556
0.013022602 0.017363489 0.75324064
0.012904936 0.015055776 0.75087333
0.012826203 0.012826204 0.74928939
0.012770117 0.010641754 0.74816108
0.012729885 0.0084865987 0.74735159
0.012500581 0.0062503517 0.74273837
0.012449883 0.0041499734 0.74171841
0.012461768 0.0020769835 0.74195755
0.01250803 -0 0.74288821
0.012594876 -0.0020991266 0.74463546
0.012698278 -0.0042327344 0.74671572
0.012741231 -0.006370604 0.74757987
0.012772888 -0.0085152388 0.74821675
0.012811643 -0.010676354 0.7489965
0.012856909 -0.012856901 0.74990714
0.012910984 -0.015062809 0.7509951
0.012971063 -0.017294735 0.75220376
0.015618481 -0.023427695 0.80546564
0.015701145 -0.026168555 0.80712879
0.015721126 -0.028822035 0.8075307
0.015406164 -0.030812293 0.80119419
0.013435336 -0.029109895 0.76154417
0.013577826 -0.031681597 0.76441091
0.013748701 -0.034371734 0.76784861
0.013954739 -0.03721261 0.77199376
0.014043582 -0.039790154 0.77378118
0.014130504 -0.042391479 0.77552998
0.016529391 0.021252096 0.77628529
0.015483724 0.017695695 0.75825334
0.015263017 0.015263021 0.75444734
0.015132514 0.012970746 0.75219697
0.015045151 0.010746568 0.75069046
0.014982595 0.0085615218 0.74961168
0.014932325 0.0063996017 0.74874485
0.014657924 0.0041880012 0.74401301
0.014616757 0.0020881593 0.74330306
0.014638076 2.9802322e-08 0.7436707
0.014699819 -0.0020999312 0.74473548
0.014817918 -0.0042337179 0.74677199
0.014924307 -0.0063961148 0.74860656
0.014966526 -0.0085523129 0.74933457
0.015005575 -0.010718256 0.75000799
0.015053751 -0.012903214 0.75083876
0.01510908 -0.015109092 0.75179285
0.01517559 -0.017343491 0.75293982
0.015248996 -0.019605815 0.75420558
0.018361023 -0.026230007 0.80787057
0.018451462 -0.028995156 0.80943024
0.018442718 -0.031616062 0.80927944
0.018047394 -0.033516556 0.80246222
0.015820406 -0.031640798 0.76405925
0.015996929 -0.034279108 0.7671032
0.016216006 -0.037065119 0.77088112
0.016427752 -0.039895952 0.77453256
0.016510846 -0.042456418 0.77596545
0.016647235 -0.045185357 0.77831739
0.018986516 0.018986553 0.77773058
0.017754314 0.015535027 0.75913799
0.017526085 0.013144553 0.75569433
0.01738549 0.010865957 0.75357288
0.017288327 0.0086441636 0.75210679
0.017222201 0.0064583421 0.751109
0.017147832 0.0042869747 0.74998689
0.016837174 0.0021046698 0.7452994
0.016812211 2.9802322e-08 0.74492276
0.01684433 -0.0021055341 0.74540746
0.016929606 -0.0042324066 0.74669421
0.017078765 -0.0064045191 0.74894482
0.017179625 -0.0085898042 0.7504667
0.017222941 -0.010764331 0.75112021
0.017269978 -0.012952447 0.75182998
0.017328518 -0.015162438 0.75271326
0.017394556 -0.017394513 0.75370967
0.017474439 -0.019658744 0.75491506
0.017562147 -0.021952659 0.75623846
0.021149445 -0.02908048 0.81036663
0.021232348 -0.03184855 0.81161749
0.021192105 -0.03443715 0.8110103
0.018221451 -0.031887531 0.76618659
0.018251194 -0.034220994 0.76663536
0.018468279 -0.036936551 0.76991093
0.01873968 -0.039821833 0.77400601
0.018930845 -0.042594403 0.77689046
0.019025592 -0.045185745 0.77832013
0.019244755 -0.048111856 0.78162706
0.021471452 0.016700059 0.77922761
0.020050976 0.013367355 0.76017576
0.019810695 0.011005938 0.75695312
0.019662265 0.0087388158 0.75496227
0.019558931 0.0065197051 0.75357634
0.019488001 0.0043306649 0.75262499
0.019353326 0.0021503866 0.75081873
0.019051205 -0 0.74676657
0.019035984 -0.0021150708 0.74656242
0.019087624 -0.0042416751 0.74725503
0.019196248 -0.0063987374 0.74871188
0.019370725 -0.0086091757 0.75105202
0.019462818 -0.01081267 0.75228715
0.019511474 -0.013007611 0.75293982
0.019566581 -0.015218437 0.75367892
0.019636543 -0.017454714 0.75461727
0.019715464 -0.019715428 0.75567579
0.019808257 -0.022009164 0.75692034
0.023860065 -0.029162288 0.8112644
0.023981923 -0.031975895 0.81289887
0.024037609 -0.034720927 0.81364572
0.023967244 -0.037282348 0.81270194
0.020533063 -0.034221739 0.76664162
0.02073157 -0.036856115 0.7693041
0.020992899 -0.039653242 0.77280915
0.021312421 -0.042624831 0.7770946
0.021464391 -0.045313716 0.77913296
0.021595735 -0.047990501 0.78089452
0.022938559 0.01376316 0.768139
0.022366002 0.011183023 0.76122761
0.022122052 0.0088488162 0.7582829
0.02196338 0.0065889955 0.7563675
