# .PCD v0.7 - Point Cloud Data file format
VERSION 0.7
FIELDS x y z
SIZE 4 4 4
TYPE F F F
COUNT 1 1 1
WIDTH 1337
HEIGHT 1
VIEWPOINT 0 0 0 1 0 0 0
POINTS 1337
DATA ascii
-0.026556145 0.033798724 0.78266525
-0.026302457 0.031084746 0.77988136
-0.026059614 0.028428674 0.77721649
-0.025833333 0.025833338 0.7747333
-0.025620725 0.023291588 0.7724002
-0.025418513 0.020796955 0.77018124
-0.025235306 0.018352985 0.76817071
-0.025064649 0.015950263 0.766298
-0.024906313 0.013585299 0.76456046
-0.024768453 0.011258423 0.76304764
-0.024611181 0.0089495182 0.76132178
-0.024391843 0.0066523254 0.75891483
-0.02413334 0.0043878853 0.75607812
-0.023868453 0.0021698773 0.75317132
-0.023613472 -0 0.75037324
-0.023393372 -0.0021266341 0.74795789
-0.023199907 -0.0042181015 0.74583489
-0.023040632 -0.0062837899 0.74408698
-0.022951564 -0.0083460212 0.7431097
-0.027702603 0.069256574 0.8256461
-0.027249841 0.065399617 0.82018083
-0.026824867 0.061697215 0.8150509
-0.026424939 0.058134884 0.81022334
-0.026047332 0.054699421 0.80566519
-0.025693687 0.051387429 0.80139631
-0.025357863 0.048179954 0.7973426
-0.025037345 0.045067221 0.7934736
-0.024737908 0.042054445 0.78985906
-0.024397274 0.039035678 0.78574723
-0.024124956 0.03618747 0.78246009
-0.023868663 0.033416122 0.77936637
-0.02362233 0.030709058 0.77639282
-0.023391306 0.028069556 0.77360415
-0.023171408 0.025488555 0.77094978
-0.0229614 0.022961378 0.76841474
-0.022766452 0.020489812 0.76606148
-0.022579571 0.018063664 0.76380563
-0.022406064 0.015684247 0.76171124
-0.0222439 0.013346374 0.75975376
-0.022090504 0.011045277 0.75790215
-0.021953551 0.0087814629 0.75624889
-0.021827996 0.0065484047 0.75473332
-0.021710552 0.0043421388 0.75331569
-0.021553159 0.0021553338 0.75141573
-0.021354653 2.9802322e-08 0.74901962
-0.02112948 -0.0021129549 0.74630153
-0.020907082 -0.0041814148 0.74361694
-0.020698817 -0.0062096119 0.74110293
-0.020512726 -0.008205086 0.73885661
-0.020355674 -0.010177791 0.73696083
-0.020228282 -0.012136936 0.73542315
-0.020164452 -0.014115095 0.73465258
-0.024887284 0.069131374 0.82504177
-0.02445361 0.065209687 0.81922519
-0.02404942 0.061459661 0.81380409
-0.023672676 0.057866573 0.80875111
-0.023318056 0.054408848 0.80399483
-0.022983517 0.051074535 0.79950786
-0.022665855 0.047850162 0.79524726
-0.022368958 0.044737935 0.79126525
-0.022037815 0.04162699 0.78682381
-0.021767875 0.038698494 0.7832033
-0.021515051 0.035858393 0.77981234
-0.021272151 0.033090055 0.77655447
-0.021041946 0.030393928 0.77346689
-0.020823603 0.027764827 0.77053845
-0.020613328 0.025194108 0.7677182
-0.020417344 0.022685915 0.76508963
-0.020228229 0.020228237 0.76255316
-0.020050442 0.017822623 0.76016861
-0.01988163 0.015463531 0.75790441
-0.019720644 0.013147086 0.75574529
-0.019571768 0.010873228 0.75374848
-0.01942906 0.0086351335 0.75183445
-0.019298173 0.0064327419 0.75007892
-0.019176466 0.0042614341 0.74844658
-0.019062011 0.0021180212 0.74691153
-0.018963277 2.9802322e-08 0.74558723
-0.018855609 -0.0020950437 0.74414319
-0.018706707 -0.0041570365 0.74214607
-0.018530585 -0.0061768591 0.73978388
-0.018340176 -0.0081511736 0.73723006
-0.018154154 -0.010085642 0.73473501
-0.017985504 -0.011990339 0.73247308
-0.017829344 -0.013867229 0.73037851
-0.01770304 -0.015736043 0.72868454
-0.017602287 -0.017602295 0.72733325
-0.017558498 -0.019509435 0.72674596
-0.022130594 0.069158137 0.82517093
-0.021718379 0.065155149 0.81895113
-0.02133647 0.061342388 0.81318855
-0.020981167 0.05769825 0.80782747
-0.020648468 0.054202259 0.80280745
-0.020335862 0.050839663 0.79809058
-0.020043114 0.047602415 0.79367328
-0.019765895 0.04447329 0.7894904
-0.019459466 0.041351348 0.78486681
-0.019212611 0.038425237 0.781142
-0.018976975 0.035581827 0.77758658
-0.018751705 0.032815486 0.77418745
-0.018540047 0.030127615 0.77099383
-0.018336136 0.027504236 0.76791704
-0.01814365 0.024947554 0.76501262
-0.017959513 0.022449404 0.76223421
-0.017783578 0.020006567 0.75957954
-0.017617492 0.017617494 0.75707358
-0.017456837 0.015274763 0.7546494
-0.017307613 0.0129807 0.75239784
-0.017163126 0.010726929 0.75021768
-0.017028054 0.0085140467 0.74817955
-0.016899588 0.0063373446 0.74624121
-0.016777964 0.0041945279 0.74440598
-0.016665639 0.0020832121 0.74271119
-0.016558232 5.9604645e-08 0.74109054
-0.016462011 -0.0020577013 0.73963869
-0.016372792 -0.0040931702 0.73829252
-0.016290767 -0.0061090291 0.73705482
-0.016189694 -0.0080948472 0.73552972
-0.016055664 -0.01003477 0.73350734
-0.015900746 -0.011925548 0.73116988
-0.015742656 -0.013774812 0.7287845
-0.015588409 -0.015588403 0.72645706
-0.015453364 -0.017385006 0.72441936
-0.015328031 -0.019160002 0.72252828
-0.015223278 -0.020931989 0.72094762
-0.015144716 -0.022717059 0.71976227
-0.015116519 -0.024564356 0.71933681
-0.019420531 0.069359064 0.82614112
-0.019027842 0.065238327 0.81936949
-0.01866921 0.061341733 0.81318516
-0.018337952 0.057633579 0.80747277
-0.018029371 0.054088086 0.8021515
-0.017742053 0.050691575 0.79719692
-0.017471937 0.04742384 0.79253882
-0.01721652 0.044271052 0.7881344
-0.016939986 0.04113999 0.78336573
-0.016714124 0.038203716 0.77947086
-0.016498402 0.03535375 0.77575088
-0.016295526 0.032591045 0.77225244
-0.016101651 0.029903084 0.7689091
-0.015916238 0.02728501 0.76571178
-0.015741553 0.024736732 0.76269948
-0.015572669 0.022246689 0.7597872
-0.015413947 0.019817978 0.7570501
-0.015260889 0.017441005 0.75441074
-0.0151156 0.015115589 0.75190532
-0.014976957 0.01283738 0.74951446
-0.014844169 0.010602951 0.74722463
-0.014718907 0.0084108114 0.74506456
-0.014597811 0.0062562227 0.74297637
-0.014485277 0.0041387081 0.74103576
-0.014376 0.0020537078 0.73915136
-0.014275395 -0 0.73741651
-0.014178829 -0.0020255148 0.73575121
-0.014089225 -0.0040254593 0.73420614
-0.01400601 -0.0060025752 0.73277116
-0.013927316 -0.007958442 0.73141408
-0.013858926 -0.009899199 0.73023474
-0.013787297 -0.011817634 0.7289995
-0.013691791 -0.013691753 0.72735256
-0.013576834 -0.015516371 0.72537023
-0.013446526 -0.017288387 0.72312319
-0.013317583 -0.019025117 0.72089964
-0.013192926 -0.020731747 0.71874994
-0.013084841 -0.022431135 0.71688616
-0.012985969 -0.024116755 0.71518111
-0.012900022 -0.025800049 0.71369904
-0.012839821 -0.027513891 0.71266091
-0.012823509 -0.029310852 0.71237963
-0.016751032 0.069795966 0.82825089
-0.01637568 0.065502733 0.82069933
-0.016039029 0.061482966 0.81392646
-0.015731668 0.057682782 0.80774289
-0.015448737 0.054070592 0.80205065
-0.01518701 0.050623387 0.79678518
-0.014941585 0.047315001 0.79184759
-0.014679808 0.044039428 0.7865811
-0.014465627 0.040985942 0.78227204
-0.014262279 0.03803277 0.77818096
-0.014070304 0.0351758 0.77431881
-0.013889209 0.032408178 0.77067542
-0.0137156 0.029717147 0.76718271
-0.013551963 0.027103931 0.76389056
-0.01339553 0.024558455 0.76074338
-0.013245765 0.022076309 0.75773025
-0.013104171 0.019656271 0.75488168
-0.012966973 0.017289311 0.75212145
-0.012838544 0.014978349 0.74953771
-0.012713658 0.012713671 0.74702513
-0.012596039 0.010496706 0.74465883
-0.012482391 0.0083215833 0.74237245
-0.012374754 0.0061873794 0.7402069
-0.012271564 0.0040905476 0.73813093
-0.012173339 0.0020289123 0.73615479
-0.012080074 -0 0.73427844
-0.011990863 -0.0019984543 0.73248363
-0.011907348 -0.0039691031 0.73080349
-0.011826807 -0.0059134066 0.72918308
-0.011753234 -0.0078354776 0.72770298
-0.011682116 -0.0097350776 0.72627211
-0.011618281 -0.011618257 0.72498786
-0.011558386 -0.013484776 0.7237829
-0.011503909 -0.01533851 0.72268689
-0.011440562 -0.017160833 0.72141242
-0.011354842 -0.018924713 0.71968788
-0.011256578 -0.020637065 0.71771097
-0.011151586 -0.022303164 0.7155987
-0.011048331 -0.02393803 0.7135213
-0.010951484 -0.025553465 0.71157295
-0.010864569 -0.027161419 0.70982438
-0.010788125 -0.028768301 0.7082864
-0.010719904 -0.030373037 0.70691395
-0.010673901 -0.032021701 0.70598847
-0.010679331 -0.033817887 0.70609772
-0.013752697 0.066012979 0.82326555
-0.013436781 0.061809242 0.81563866
-0.013154184 0.057878464 0.80881625
-0.012897774 0.054170668 0.80262589
-0.01266276 0.050651044 0.79695219
-0.012445065 0.047291249 0.79169661
-0.01219941 0.043917894 0.78576589
-0.012025717 0.040887475 0.78157258
-0.011848027 0.03791371 0.77728283
-0.011681782 0.035045415 0.7732693
-0.011523481 0.032265753 0.76944757
-0.011373031 0.029569894 0.76581538
-0.011231549 0.026955724 0.76239967
-0.011095561 0.024410278 0.75911665
-0.010967007 0.021934032 0.75601315
-0.010843984 0.01951918 0.753043
-0.010726172 0.017161906 0.75019878
-0.010614494 0.014860302 0.74750262
-0.010506441 0.012607753 0.74489403
-0.010404718 0.010404736 0.74243826
-0.010305541 0.0082444847 0.74004388
-0.010212778 0.0061276853 0.73780435
-0.01012208 0.0040488541 0.73561478
-0.010037125 0.0020074248 0.73356372
-0.0099544153 -0 0.73156697
-0.0098768398 -0.0019753575 0.72969413
-0.0098015759 -0.0039205849 0.72787708
-0.0097310459 -0.0058386326 0.72617435
-0.0096631655 -0.0077305436 0.72453552
-0.0095995022 -0.0095995069 0.72299862
-0.0095390361 -0.011446863 0.72153884
-0.0094822012 -0.013275087 0.72016668
-0.0094295572 -0.015087247 0.71889567
-0.0093796384 -0.016883343 0.71769065
-0.009335747 -0.018671453 0.71663094
-0.0092917113 -0.020441741 0.71556789
-0.009235288 -0.022164673 0.71420574
-0.0091648167 -0.023828506 0.71250433
-0.0090833269 -0.025433302 0.71053702
-0.0090011023 -0.027003288 0.70855194
-0.0089203529 -0.028545111 0.70660251
-0.008847137 -0.030080229 0.70483488
-0.0087790228 -0.031604469 0.70319051
-0.0087215779 -0.033142 0.70180368
-0.0086708246 -0.034683317 0.70057839
-0.0086347042 -0.036265731 0.69970632
-0.0086593907 -0.038101315 0.7003023
-0.011156834 0.066941053 0.82793331
-0.010851123 0.062394023 0.8187077
-0.01059224 0.058257341 0.8108952
-0.010363956 0.054410785 0.8040061
-0.010158075 0.050790399 0.79779315
-0.0097382069 0.046256483 0.78512251
-0.0096496567 0.043423474 0.78245026
-0.0095679592 0.040663838 0.77998483
-0.0094570145 0.037828088 0.77663672
-0.0093226591 0.034960032 0.77258223
-0.0091895368 0.032163382 0.76856494
-0.0090650041 0.029461265 0.76480675
-0.0089464802 0.026839465 0.76122999
-0.0088330815 0.024290979 0.75780791
-0.0087267812 0.021816969 0.75460005
-0.0086243106 0.019404709 0.7515077
-0.0085271951 0.017054439 0.74857694
-0.0084341969 0.014759868 0.74577045
-0.0083451187 0.012517691 0.74308234
-0.0082603563 0.010325462 0.74052447
-0.0081785358 0.0081785321 0.73805523
-0.0081011057 0.0060758293 0.73571861
-0.0080259005 0.0040129423 0.7334491
-0.0079550175 0.0019887686 0.73131001
-0.007885905 -0 0.72922438
-0.0078210076 -0.001955241 0.72726589
-0.0077576195 -0.0038788319 0.725353
-0.0076983594 -0.0057737529 0.72356462
-0.0076403469 -0.007640332 0.72181398
-0.0075864508 -0.0094830394 0.72018749
-0.0075336504 -0.011300445 0.71859413
-0.0074850493 -0.013098806 0.7171275
-0.007437347 -0.014874667 0.71568793
-0.0073941806 -0.016636878 0.71438527
-0.0073520532 -0.018380135 0.7131139
-0.0073141162 -0.020113796 0.71196914
-0.0072781295 -0.021834344 0.71088308
-0.0072457204 -0.023548573 0.70990503
-0.0072091818 -0.025232136 0.70880246
-0.0071613574 -0.026855081 0.70735919
-0.0071057775 -0.028423101 0.70568192
-0.0070435354 -0.029935002 0.7038036
-0.0069815945 -0.031417161 0.70193434
-0.0069208532 -0.032874048 0.70010138
-0.0068676812 -0.034338415 0.69849676
-0.0068163644 -0.035785913 0.69694811
-0.0067749014 -0.037261963 0.69569689
-0.0067387004 -0.038747519 0.6946044
-0.0067133852 -0.040280253 0.69384038
-0.0067455368 -0.042159587 0.69481075
-0.0082780113 0.063464761 0.82432759
-0.0080350107 0.058923453 0.81454992
-0.0078348378 0.054843903 0.80649567
-0.0076603908 0.051069289 0.79947639
-0.0072547314 0.045946628 0.78315401
-0.0071581402 0.042948842 0.77926743
-0.007081551 0.040128797 0.77618569
-0.0070243212 0.037463039 0.77388299
-0.0069620297 0.034810185 0.77137655
-0.0068784142 0.032099277 0.76801211
-0.0067819813 0.029388607 0.76413196
-0.0066887219 0.026754886 0.76037955
-0.0066006905 0.024202555 0.75683737
-0.0065173511 0.021724522 0.75348407
-0.0064372481 0.019311756 0.75026095
-0.0063620829 0.016965598 0.74723655
-0.0062896013 0.014675736 0.74432015
-0.0062207109 0.012441427 0.74154818
-0.0061546755 0.010257781 0.73889112
-0.0060914117 0.0081219077 0.73634553
-0.0060310587 0.0060310662 0.73391718
-0.0059728869 0.0039819479 0.73157656
-0.00591753 0.0019725263 0.72934914
-0.0058640139 2.9802322e-08 0.72719586
-0.0058131674 -0.0019376874 0.72514993
-0.0057639251 -0.0038425922 0.72316861
-0.0057171872 -0.0057171583 0.72128797
-0.0056719934 -0.0075626671 0.71946949
-0.0056290706 -0.0093818009 0.71774244
-0.0055877073 -0.011175394 0.71607804
-0.0055484441 -0.012946337 0.71449828
-0.0055107805 -0.014695406 0.71298277
-0.0054751025 -0.016425312 0.71154726
-0.0054410272 -0.01813677 0.71017611
-0.0054090098 -0.019833058 0.70888788
-0.0053785429 -0.021514148 0.70766193
-0.0053503807 -0.023184985 0.70652878
-0.0053235875 -0.024843425 0.70545077
-0.0052997544 -0.026498765 0.70449173
-0.0052767829 -0.02814281 0.7035675
-0.0052485173 -0.029741555 0.70243013
-0.0052109836 -0.031265885 0.70091993
-0.0051692077 -0.032738298 0.69923902
-0.0051251203 -0.034167469 0.697465
-0.005081451 -0.035570145 0.69570798
-0.0050391462 -0.036953747 0.69400573
-0.0050023189 -0.038351148 0.69252396
-0.0049673086 -0.039738476 0.6911152
-0.0049379445 -0.041149527 0.68993366
-0.0049137785 -0.042586088 0.68896127
-0.0048981616 -0.044083446 0.68833292
-0.0054717818 0.060189605 0.82149732
-0.0052950829 0.055598408 0.81083262
-0.0051558139 0.051558167 0.80242693
-0.0048483908 0.046059728 0.78387237
-0.0047539803 0.042785823 0.77817422
-0.0046842396 0.039816052 0.773965
-0.0046282806 0.037026256 0.77058756
-0.0045842021 0.034381539 0.76792723
-0.0045493776 0.031845659 0.76582527
-0.0045060925 0.029289633 0.76321286
-0.0044503431 0.026702076 0.75984812
-0.0043894779 0.024142146 0.75617456
-0.0043312851 0.021656454 0.7526623
-0.0042758943 0.019241512 0.7493192
-0.0042237197 0.016894937 0.74617016
-0.0041734297 0.014607042 0.74313486
-0.004126023 0.012378067 0.74027371
-0.004080364 0.010200918 0.73751783
-0.0040368601 0.0080737472 0.73489213
-0.0039951513 0.0059927404 0.73237479
-0.0039551388 0.0039551556 0.72995985
-0.0039168862 0.0019584596 0.72765112
-0.0038800579 2.9802322e-08 0.72542834
-0.0038448612 -0.0019224584 0.72330403
-0.0038109501 -0.0038109422 0.72125733
-0.0037784735 -0.0056677163 0.71929717
-0.0037472751 -0.007494539 0.71741414
-0.0037172921 -0.0092932284 0.71560454
-0.0036886279 -0.0110659 0.71387452
-0.0036609781 -0.012813419 0.71220565
-0.0036347294 -0.014538914 0.71062148
-0.003609271 -0.016241699 0.70908487
-0.0035853481 -0.017926723 0.70764101
-0.0035620576 -0.019591302 0.70623529
-0.0035404195 -0.021242499 0.70492935
-0.0035193027 -0.022875458 0.70365489
-0.003499954 -0.024499685 0.70248705
-0.0034811313 -0.026108503 0.70135099
-0.003464116 -0.027712911 0.700324
-0.0034478009 -0.029306293 0.69933933
-0.0034332515 -0.030899256 0.69846117
-0.003417342 -0.032464713 0.69750094
-0.0033973407 -0.033973366 0.69629371
-0.0033734734 -0.035421431 0.69485319
-0.0033456159 -0.036801755 0.69317192
-0.003317852 -0.038155288 0.69149625
-0.0032903936 -0.03948471 0.68983895
-0.0032646526 -0.040808141 0.68828529
-0.0032414624 -0.042139024 0.68688571
-0.0032566313 -0.043964505 0.68780124
-0.0032772687 -0.045881748 0.68904674
-0.0032981797 -0.047823608 0.69030887
-0.0027236047 0.057195693 0.8200143
-0.002621107 0.052422166 0.80764174
-0.002547133 0.048395574 0.79871225
-0.0024007119 0.043212861 0.78103769
-0.0023412432 0.039801151 0.77385914
-0.0023025856 0.036841393 0.76919281
-0.0022718899 0.03407836 0.76548749
-0.002247147 0.031460077 0.76250076
-0.0022279061 0.028962761 0.76017815
-0.0022111102 0.026533335 0.7581507
-0.0021890162 0.024079174 0.75548375
-0.0021612928 0.021612942 0.75213718
-0.0021325529 0.019192964 0.74866802
-0.0021052754 0.016842216 0.74537534
-0.0020790934 0.014553666 0.74221492
-0.0020545577 0.012327373 0.73925316
-0.0020308415 0.010154217 0.73639035
-0.0020083839 0.0080335438 0.73367953
-0.0019867881 0.0059603751 0.73107266
-0.0019661542 0.0039322972 0.72858191
-0.0019463529 0.0019463599 0.72619176
-0.0019273624 2.9802322e-08 0.7238993
-0.0019091467 -0.0019091666 0.72170055
-0.0018916437 -0.0037832558 0.71958768
-0.0018748241 -0.0056244731 0.71755743
-0.0018586945 -0.0074347556 0.71561033
-0.001843125 -0.0092156231 0.71373099
-0.001828275 -0.010969639 0.71193844
-0.0018138335 -0.012696832 0.71019518
-0.0018001816 -0.014401436 0.70854723
-0.0017868037 -0.016081214 0.70693243
-0.0017742963 -0.017742932 0.70542264
-0.0017619628 -0.019381553 0.70393384
-0.0017505096 -0.021006107 0.70255131
-0.0017392588 -0.022610366 0.70119321
-0.0017287845 -0.024202973 0.69992888
-0.0017185891 -0.02577886 0.69869816
-0.0017091087 -0.027345747 0.69755375
-0.0016999862 -0.028899729 0.69645256
-0.0016915665 -0.030448228 0.6954363
-0.0016835302 -0.031987071 0.69446617
-0.0016762996 -0.033525944 0.69359338
-0.0016694202 -0.035057843 0.69276297
-0.0016611731 -0.036545783 0.69176739
-0.0016505696 -0.037963092 0.69048744
-0.0016386451 -0.039327472 0.68904805
-0.001625396 -0.040634871 0.68744874
-0.0016232076 -0.042203397 0.68718463
-0.0016676786 -0.045027286 0.69255275
-0.0016493835 -0.046182722 0.69034433
-0.0016543624 -0.047976524 0.69094539
-0.0016748686 -0.05024603 0.69342059
0 0.055231839 0.82459968
0 0.049408913 0.80515051
0 0.045353413 0.79539275
0 0.041607022 0.78668213
0 0.036985517 0.77028042
0 0.034000397 0.76486009
0 0.031259835 0.76077467
0 0.028674752 0.75750363
0 0.026207119 0.75486904
0 0.023839325 0.75285137
0 0.021505266 0.75083762
0 0.01915127 0.74810857
0 0.016807675 0.74485469
0 0.014516562 0.74157518
0 0.012289166 0.73848462
0 0.01011759 0.73550606
0 0.0080011487 0.73270154
0 0.0059336722 0.72999859
0 0.0039131641 0.72742653
0 0.0019361377 0.72495532
0 2.9802322e-08 0.72258937
0 -0.0018976927 0.72031862
0 -0.0037592649 0.7181381
0 -0.005586803 0.71604127
0 -0.0073823929 0.7140305
0 -0.0091475546 0.71208853
0 -0.010884911 0.71023405
0 -0.012594402 0.70842928
0 -0.014280409 0.70672077
0 -0.015940219 0.70504129
0 -0.017581165 0.70346975
0 -0.019198179 0.70192111
0 -0.020798713 0.7004652
0 -0.022378951 0.69904435
0 -0.023943961 0.69769549
0 -0.025493085 0.69639891
0 -0.027027994 0.69515646
0 -0.028551698 0.69398117
0 -0.03006199 0.69284636
0 -0.031566471 0.69179416
0 -0.033058614 0.69077253
0 -0.03455022 0.68984544
0 -0.036032021 0.68894839
0 -0.037518889 0.68815625
0 -0.038983166 0.6873163
0 -0.040453136 0.68657124
0 -0.042336166 0.68780118
0 -0.044943273 0.692177
0 -0.046248883 0.6906296
0 -0.048130363 0.69158584
0 -0.050112009 0.69288135
0 -0.052119106 0.69419235
0 -0.054152429 0.69552052
0.0025895543 0.046611995 0.80383295
0.002485835 0.042259216 0.79131293
0.0024200098 0.038720161 0.78336716
0.0023030096 0.034545153 0.76924396
0.0022350815 0.031291157 0.76104432
0.0021974859 0.028567344 0.75650609
0.0021681576 0.026017934 0.75296593
0.0021441679 0.023585886 0.7500701
0.0021249002 0.021249026 0.7477442
0.0021098384 0.01898858 0.74592614
0.0020924392 0.016739517 0.74382585
0.002069839 0.014488876 0.74109781
0.0020439073 0.012263477 0.73796755
0.0020181858 0.010090947 0.73486269
0.0019941125 0.007976532 0.73195672
0.0019708471 0.0059125423 0.72914845
0.0019488016 0.0038976073 0.72648728
0.0019276222 0.0019276738 0.72393066
0.0019073781 -0 0.72148705
0.0018879607 -0.0018879175 0.71914315
0.0018693187 -0.0037386119 0.7168929
0.0018514111 -0.005554229 0.71473122
0.0018342198 -0.0073368847 0.71265602
0.0018176354 -0.0090881586 0.71065408
0.0018017632 -0.010810554 0.70873821
0.0017863507 -0.012504458 0.70687771
0.0017717015 -0.014173627 0.70510948
0.001757334 -0.015815973 0.7033751
0.0017438232 -0.017438203 0.7017442
0.0017305245 -0.019035757 0.70013887
0.0017179695 -0.020615608 0.69862336
0.0017057176 -0.022174329 0.69714445
0.0016940121 -0.023716182 0.69573152
0.0016827659 -0.025241464 0.69437391
0.0016718634 -0.02674979 0.69305789
0.0016615979 -0.028247178 0.69181877
0.0016514794 -0.029726624 0.6905973
0.0016421729 -0.031201243 0.68947393
0.001632971 -0.032659382 0.68836308
0.0016245147 -0.034114778 0.68734241
0.0016162707 -0.035557956 0.68634725
0.0016086787 -0.036999613 0.68543088
0.0016130818 -0.038713932 0.68596232
0.0016232023 -0.040580034 0.68718392
0.0016334613 -0.042469978 0.68842232
0.0016438508 -0.044383973 0.68967652
0.001654368 -0.046322286 0.69094598
0.0017404202 -0.0504722 0.70133346
0.0017219308 -0.051657915 0.69910157
0.0017010785 -0.052733392 0.6965844
0.0016978172 -0.05433017 0.69619083
0.0017090386 -0.056398243 0.69754529
0.0017204091 -0.058493912 0.69891787
0.0052276724 0.044435233 0.80676413
0.0049304934 0.03944397 0.78882766
0.0047878935 0.035909235 0.78022105
0.0046740007 0.032718003 0.77334702
0.0044211848 0.028737724 0.75808823
0.0043323543 0.025994152 0.75272679
0.004267761 0.023472697 0.74882829
0.0042156773 0.021078408 0.74568474
0.0041730641 0.018778801 0.74311286
0.0041392329 0.016556948 0.74107087
0.00411055 0.014386952 0.73933971
0.0040746653 0.012224019 0.73717397
0.0040296265 0.010074049 0.73445559
0.0039797551 0.0079595447 0.73144555
0.003931304 0.0058969855 0.72852135
0.0038856321 0.0038856268 0.72576475
0.0038417024 0.0019208491 0.72311336
0.003799808 -0 0.72058487
0.0037596924 -0.0018798113 0.71816361
0.0037211762 -0.0037211478 0.71583897
0.0036842821 -0.0055264235 0.7136122
0.0036487775 -0.0072975457 0.71146929
0.0036146552 -0.0090366006 0.70940983
0.0035818834 -0.010745615 0.70743185
0.0035501786 -0.012425631 0.70551836
0.0035199097 -0.01407963 0.70369148
0.0034903467 -0.015706539 0.70190716
0.0034623782 -0.017311901 0.70021915
0.0034348657 -0.018891752 0.69855863
0.0034089251 -0.020453513 0.69699299
0.0033835105 -0.021992803 0.69545901
0.0033592274 -0.023514628 0.69399345
0.0033358021 -0.025018513 0.69257963
0.0033130627 -0.026504457 0.69120717
0.0032915517 -0.027978212 0.6899088
0.0032703285 -0.029432923 0.68862796
0.0032506229 -0.030880898 0.68743861
0.0032312053 -0.032312036 0.6862666
0.0032129262 -0.033735722 0.68516338
0.0031962504 -0.035158753 0.68415689
0.0032161269 -0.036985457 0.68535662
0.0039441334 -0.047329605 0.72929561
0.0038934331 -0.048667908 0.72623563
0.0032772687 -0.042604476 0.6890468
0.0032981797 -0.044525445 0.69030893
0.0036653092 -0.051314324 0.71246707
0.0034901884 -0.050607711 0.70189762
0.0034501068 -0.051751584 0.69947845
0.0034181823 -0.052981764 0.69755161
0.0034068248 -0.054509193 0.69686615
0.0034509397 -0.056940466 0.69952875
0.0034523089 -0.058689207 0.69961137
0.0073518394 0.036759198 0.78706127
0.0071177152 0.033216059 0.77764082
0.0069358447 0.030055374 0.77032298
0.0067781536 0.027112633 0.76397794
0.0064170491 0.023529202 0.74944824
0.0063066185 0.021022081 0.74500489
0.0062215617 0.018664688 0.74158245
0.00615233 0.016406238 0.73879671
0.0060957405 0.014223397 0.73651981
0.0060514086 0.012102813 0.73473603
0.0060096169 0.010016024 0.73305446
0.0059547843 0.0079397559 0.73084807
0.0058870348 0.0058870614 0.72812206
0.0058158473 0.0038772523 0.72525775
0.0057473956 0.0019157827 0.72250348
0.005682278 2.9802322e-08 0.71988332
0.0056199869 -0.0018733144 0.71737695
0.0055601997 -0.0037068129 0.7149713
0.0055031436 -0.0055031478 0.71267551
0.0054481165 -0.0072641373 0.71046138
0.0053954977 -0.0089924932 0.70834416
0.0053447224 -0.010689437 0.70630109
0.005295903 -0.012357116 0.70433676
0.0052489764 -0.013997227 0.70244861
0.0052034869 -0.015610427 0.70061827
0.0051601096 -0.017200351 0.69887292
0.0051175542 -0.018764347 0.6971606
0.0050774636 -0.020309836 0.69554746
0.0050380128 -0.021831363 0.69396007
0.0050005028 -0.023335665 0.69245076
0.0049640397 -0.024820179 0.69098359
0.0049287998 -0.0262869 0.68956572
0.0048951744 -0.027739316 0.68821275
0.0048620361 -0.029172182 0.68687934
0.0048311464 -0.03059727 0.6856364
0.0048006466 -0.032004297 0.6844092
0.0047795982 -0.03345722 0.68356234
0.0048092292 -0.035267651 0.68475461
0.0060097375 -0.046074629 0.73305929
0.0059505827 -0.04760465 0.73067904
0.005883297 -0.049027443 0.72797167
0.0058111195 -0.050363034 0.7250675
0.0057396377 -0.051656753 0.72219139
0.0056669614 -0.052891612 0.71926701
0.0055939746 -0.054075092 0.71633029
0.0055205491 -0.055205464 0.71337587
0.0053319456 -0.055096745 0.70578706
0.0051271333 -0.054689407 0.69754601
0.0052267332 -0.057494044 0.70155358
0.0051958142 -0.058885872 0.70030957
0.0052308496 -0.061026573 0.70171928
0.010168396 0.035589397 0.79810458
0.0094165681 0.030603856 0.7754162
0.0091550257 0.027465105 0.76752341
0.0089443214 0.0245969 0.7611649
0.0084777111 0.021194249 0.74708366
0.0082967905 0.018667817 0.74162394
0.008173258 0.016346544 0.73789597
0.008073004 0.014127791 0.73487055
0.0079898238 0.011984795 0.73236036
0.0079217367 0.0099021792 0.73030567
0.0078691002 0.0078690946 0.72871721
0.007812581 0.0058594644 0.72701156
0.0077381539 0.0038690865 0.72476554
0.007649926 0.0019124746 0.72210306
0.0075597442 -0 0.71938157
0.0074736169 -0.0018683672 0.71678245
0.0073910137 -0.003695488 0.71428967
0.0073124054 -0.0054843128 0.71191752
0.0072364728 -0.0072364509 0.70962596
0.0071642539 -0.0089552999 0.70744663
0.0070942924 -0.010641396 0.70533526
0.0070274845 -0.012298107 0.70331919
0.0069628679 -0.013925701 0.70136923
0.0069007133 -0.015526563 0.69949353
0.0068409676 -0.017102391 0.69769055
0.0067828684 -0.018652856 0.69593728
0.0067275786 -0.020182729 0.69426876
0.0066731833 -0.021687835 0.69262719
0.0066219163 -0.02317673 0.69108009
0.0065715821 -0.024643421 0.68956119
0.0065233465 -0.026093364 0.68810552
0.0064767986 -0.027526408 0.68670082
0.006431303 -0.028940856 0.68532789
0.0063883588 -0.030344695 0.68403184
0.0063532363 -0.031766176 0.68297201
0.0063925008 -0.033560604 0.68415689
0.0064322334 -0.035377294 0.68535596
0.0079805525 -0.045888156 0.73208058
0.007920797 -0.04752481 0.7302773
0.0078560347 -0.04910022 0.72832292
0.0077837468 -0.05059433 0.72614145
0.0077028326 -0.051994085 0.72369957
0.0076129129 -0.053290367 0.72098613
0.0075222393 -0.054536223 0.7182498
0.0074296989 -0.055722713 0.71545708
0.0073383325 -0.05687207 0.71269989
0.00724378 -0.057950228 0.7098465
0.0071495385 -0.058983713 0.70700252
0.0069510429 -0.059083819 0.70101237
0.0069980477 -0.061232895 0.70243084
0.011704245 0.028090209 0.77381158
0.011345849 0.024960905 0.76515913
0.011065624 0.022131264 0.75839388
0.010826011 0.019486815 0.75260913
0.010254345 0.016406953 0.73880792
0.010077353 0.01410833 0.73453498
0.0099410461 0.011929274 0.73124421
0.0098294187 0.009829402 0.7285493
0.009736727 0.0077894032 0.7263115
0.0096616354 0.0057969987 0.72449863
0.0095991334 0.0038397014 0.72298968
0.0095253438 0.0019050837 0.72120821
0.0094320094 -0 0.71895498
0.0093254466 -0.0018650591 0.71638227
0.0092182057 -0.0036872625 0.71379328
0.0091164922 -0.0054698586 0.71133769
0.0090181362 -0.0072144866 0.70896316
0.0089250309 -0.0089250207 0.7067154
0.0088345148 -0.010601401 0.70453018
0.0087487213 -0.012248188 0.70245892
0.0086652692 -0.013864428 0.70044422
0.0085856626 -0.015454143 0.69852233
0.0085084876 -0.017016947 0.69665909
0.0084341951 -0.018555224 0.69486564
0.0083627822 -0.020070672 0.69314152
0.0082931453 -0.021562159 0.69146037
0.0082270391 -0.023035705 0.6898644
0.0081619509 -0.024485826 0.68829304
0.0081002973 -0.025920928 0.68680459
0.0080400081 -0.027336001 0.68534911
0.00798178 -0.028734386 0.68394333
0.0079260208 -0.030118853 0.68259716
0.0079659717 -0.031863898 0.68356168
0.0080153821 -0.033664584 0.68475449
0.008065409 -0.035487801 0.68596226
0.0099367825 -0.045709193 0.73114127
0.0098526841 -0.047292888 0.72911096
0.0097767934 -0.048883945 0.72727883
0.009705225 -0.050467163 0.72555095
0.0096313953 -0.052009523 0.72376859
0.0095487209 -0.053472817 0.72177261
0.0094566094 -0.054848284 0.71954888
0.0093529178 -0.056117505 0.71704555
0.0092433747 -0.057308882 0.71440089
0.0091345338 -0.05846101 0.71177328
0.0090239914 -0.059558332 0.70910454
0.0089131072 -0.060609102 0.70642757
0.0088012284 -0.061608553 0.70372659
0.0088372612 -0.063628256 0.70459646
0.014582761 0.026735067 0.78462863
0.013515782 0.022526324 0.76316261
0.013154585 0.019731849 0.75589591
0.012861039 0.017148048 0.74999022
0.012213056 0.01424858 0.73695385
0.011942496 0.011942506 0.73151058
0.01176074 0.0098006427 0.72785389
0.011615988 0.0077440143 0.72494173
0.011496949 0.0057484806 0.72254682
0.011398125 0.0037994087 0.72055864
0.01131901 0.0018865466 0.71896696
0.011246711 5.9604645e-08 0.71751243
0.011155855 -0.0018593073 0.71568465
0.011043618 -0.0036811829 0.71342653
0.010919934 -0.0054599345 0.71093816
0.01079736 -0.0071982443 0.70847225
0.010681914 -0.0089015663 0.70614958
0.010569357 -0.010569334 0.70388514
0.010463377 -0.01220724 0.70175296
0.010359714 -0.013812929 0.69966745
0.010261768 -0.015392631 0.69769692
0.010166034 -0.016943365 0.69577092
0.010074875 -0.018470585 0.693937
0.009986301 -0.019972593 0.69215494
0.0099010337 -0.021452188 0.69043958
0.0098189758 -0.022910953 0.68878865
0.0097388038 -0.024346977 0.68717575
0.0096627902 -0.025767446 0.68564641
0.0095879855 -0.02716592 0.68414152
0.0095167123 -0.028550118 0.68270761
0.0095298532 -0.030177891 0.68297195
0.012521124 -0.04173705 0.74315166
0.01217324 -0.042606294 0.73615283
0.012044453 -0.044162989 0.73356181
0.01192518 -0.045713156 0.73116219
0.011805925 -0.047223687 0.72876292
0.011694312 -0.04872632 0.72651756
0.011594051 -0.050240904 0.72450042
0.011502851 -0.051762819 0.72266561
0.011420455 -0.053295434 0.72100794
0.011338632 -0.054803371 0.71936178
0.011246795 -0.056233972 0.71751416
0.01114517 -0.057583392 0.71546966
0.011031888 -0.058836728 0.71319062
0.010907159 -0.059989363 0.7106812
0.010782972 -0.061103523 0.70818275
0.010655829 -0.062158972 0.70562482
0.010641099 -0.063846588 0.70532846
0.015684035 0.020165235 0.7617076
0.015220898 0.017395318 0.75372106
0.014856888 0.014856905 0.74744397
0.01454809 0.012469828 0.74211895
0.013789034 0.0098493397 0.72902948
0.013549312 0.0077424943 0.72489566
0.013365505 0.005728066 0.721726
0.01321413 0.0037755072 0.71911561
0.013086746 0.0018695593 0.716919
0.012980531 5.9604645e-08 0.71508729
0.012899594 -0.001842767 0.71369165
0.012817221 -0.0036620498 0.71227121
0.01270955 -0.0054469407 0.71041447
0.012578417 -0.0071876347 0.70815319
0.01243913 -0.0088850856 0.70575118
0.012303238 -0.010545611 0.70340788
0.012175234 -0.012175232 0.70120054
0.012050363 -0.013771832 0.69904715
0.011932458 -0.015341699 0.69701397
0.011816877 -0.016881227 0.69502085
0.011708052 -0.018398345 0.69314426
0.011601213 -0.019887775 0.69130182
0.011499665 -0.021356493 0.6895507
0.011400732 -0.022801459 0.68784475
0.011305423 -0.024225861 0.68620116
0.011213738 -0.025631368 0.68462008
0.011123883 -0.02701512 0.68307066
0.011084104 -0.028501958 0.68238461
0.014731351 -0.039985061 0.74527913
0.014593735 -0.041696399 0.74290609
0.014456401 -0.043369174 0.74053782
0.014318288 -0.045000315 0.73815614
0.013935849 -0.045789212 0.73156124
0.013779323 -0.047243416 0.72886205
0.013646021 -0.048735797 0.72656333
0.013512409 -0.050188959 0.72425932
0.013385681 -0.051630467 0.72207391
0.013269197 -0.053076804 0.72006524
0.013162683 -0.054531127 0.71822846
0.013070192 -0.056015104 0.71663356
0.012978559 -0.057476461 0.71505338
0.012880476 -0.058882177 0.71336204
0.012771653 -0.060209215 0.71148539
0.012650928 -0.061447352 0.70940351
0.012516387 -0.062581897 0.70708346
0.012457314 -0.064066172 0.70606482
0.018625798 0.018625826 0.77228773
0.01727609 0.015116572 0.75192219
0.016831087 0.01262334 0.74520761
0.016466346 0.010291457 0.73970413
0.015731089 0.0078655183 0.72860992
0.015310971 0.005741626 0.72227079
0.015074961 0.0037687719 0.71870971
0.014889246 0.001861155 0.71590745
0.014734741 -0 0.7135762
0.014604535 -0.0018255413 0.71161151
0.014496951 -0.0036242008 0.70998824
0.014408969 -0.0054033399 0.7086606
0.014311296 -0.0071556568 0.70718688
0.014186925 -0.0088667572 0.70531023
0.014040229 -0.010530174 0.70309681
0.013888194 -0.012152165 0.70080274
0.013741068 -0.013741076 0.69858277
0.013601322 -0.015301466 0.69647419
0.013465703 -0.016832113 0.69442797
0.01333685 -0.018338174 0.69248366
0.013210963 -0.019816428 0.69058418
0.013091925 -0.021274358 0.688788
0.012975012 -0.02270627 0.68702394
0.012864053 -0.024120063 0.6853497
0.012755708 -0.025511414 0.68371487
0.012651293 -0.026884019 0.68213934
0.012706473 -0.028589576 0.68297195
0.016780918 -0.039854676 0.74445057
0.016648587 -0.041621476 0.74245393
0.016498039 -0.043307334 0.74018228
0.016347451 -0.044955462 0.73791015
0.016197294 -0.046567202 0.73564446
0.016045559 -0.048136681 0.73335493
0.01565125 -0.048910111 0.72740525
0.015448175 -0.050206542 0.72434109
0.015302132 -0.051644653 0.72213745
0.015155725 -0.053045005 0.71992832
0.015014402 -0.054427177 0.71779591
0.014881828 -0.055806845 0.71579552
0.014763871 -0.057209998 0.71401566
0.014658337 -0.058633327 0.71242332
0.014557741 -0.060050666 0.71090549
0.014455279 -0.061434925 0.70935941
0.014341341 -0.062743336 0.70764023
0.014286166 -0.064287692 0.70680767
0.01438546 -0.066532731 0.70830595
0.019337038 0.012891412 0.75060016
0.018785212 0.010436237 0.74319899
0.018349517 0.0081553459 0.73735523
0.017982846 0.0059942901 0.73243737
0.017074304 0.0037943125 0.7202518
0.016756572 0.0018618703 0.71599019
0.016528701 -0 0.71293396
0.016340021 -0.0018155277 0.71040332
0.016183119 -0.0035962462 0.70829892
0.016052572 -0.005350858 0.70654804
0.015945824 -0.0070870221 0.70511621
0.01585013 -0.008805573 0.70383275
0.015736472 -0.010490954 0.70230836
0.015595486 -0.012129813 0.7004174
0.015435334 -0.013720274 0.69826943
0.015271961 -0.015271962 0.69607818
0.015114951 -0.016794384 0.69397235
0.014964619 -0.018290102 0.69195604
0.014819488 -0.019759297 0.69000947
0.014680737 -0.021205485 0.6881485
0.014545637 -0.022626549 0.68633658
0.014417341 -0.024028897 0.68461573
0.014291287 -0.025406688 0.68292511
0.01425099 -0.02691856 0.68238461
0.014338795 -0.028677583 0.68356228
0.014427735 -0.03045854 0.68475515
0.018590329 -0.0413118 0.74058509
0.018498462 -0.043163031 0.73935294
0.018357595 -0.044874102 0.73746365
0.018195231 -0.046498895 0.73528594
0.018032966 -0.048087865 0.73310959
0.017870804 -0.049641103 0.73093468
0.017706938 -0.051153362 0.72873676
0.017342186 -0.05202657 0.72384465
0.017055938 -0.053062886 0.72000545
0.016897161 -0.054446369 0.71787584
0.016739069 -0.055796891 0.71575546
0.016583849 -0.057122141 0.71367359
0.016436938 -0.058442473 0.71170324
0.016307477 -0.059794068 0.70996684
0.01618818 -0.061155349 0.70836681
0.01607934 -0.062530726 0.70690697
0.016127596 -0.064510375 0.70755422
0.016240139 -0.066764981 0.70906365
0.022342332 0.011171192 0.76094192
0.020737937 0.0082951486 0.74157512
0.020222152 0.00606668 0.73534906
0.019796038 0.0039592087 0.73020542
0.019406686 0.0019406676 0.72550553
0.018429961 -0 0.71371543
0.018143861 -0.0018143654 0.71026188
0.01791878 -0.0035837591 0.70754492
0.017730704 -0.0053191781 0.70527458
0.017570131 -0.0070280433 0.70333636
0.017435556 -0.0087177753 0.70171189
0.017331559 -0.010398924 0.7004565
0.017228676 -0.012060076 0.69921464
0.017098738 -0.013678968 0.69764614
0.016941095 -0.015246987 0.6957432
0.016768275 -0.016768247 0.69365716
0.016594708 -0.018254161 0.69156194
0.016429063 -0.019714892 0.6895625
0.016269179 -0.021149933 0.6876325
0.016115647 -0.022561878 0.68577915
0.015967991 -0.023951948 0.6839968
0.015824618 -0.025319368 0.68226612
0.01588304 -0.027001143 0.68297136
0.015981253 -0.028766245 0.68415689
0.020489961 -0.038930923 0.73858184
0.020327721 -0.040655434 0.73662341
0.020209899 -0.042440772 0.73520118
0.020243259 -0.04453519 0.73560387
0.020148214 -0.046340883 0.7344566
0.019999389 -0.047998518 0.73266006
0.019826943 -0.049567342 0.73057842
0.01965405 -0.051100492 0.72849143
0.019480655 -0.052597791 0.72639847
0.019306121 -0.054057121 0.72429162
0.019130517 -0.055478483 0.7221719
0.018605743 -0.055817187 0.71583724
0.018433627 -0.057144254 0.71375966
0.018265398 -0.058449268 0.71172899
0.018097136 -0.059720546 0.70969784
0.017939726 -0.060995072 0.70779777
0.017857643 -0.062501729 0.7068069
0.018304219 -0.0658952 0.71219754
0.018142281 -0.067126423 0.71024281
0.022701835 0.0061914027 0.7403692
0.022074768 0.0040136278 0.73348796
0.021579023 0.0019617379 0.72804779
0.021162428 -0 0.72347617
0.020125734 -0.0018296242 0.71209985
0.019734334 -0.0035880208 0.70780474
0.019462118 -0.0053078234 0.70481753
0.019242948 -0.0069974065 0.70241237
0.019057717 -0.0086626112 0.70037973
0.018899353 -0.010308743 0.6986419
0.018765902 -0.01194191 0.69717747
0.01865839 -0.013569742 0.6959976
0.018547164 -0.015174925 0.69477707
0.018401995 -0.016729057 0.69318408
0.018227881 -0.018227875 0.69127345
0.018043118 -0.019683421 0.68924588
0.017860383 -0.021107733 0.6872406
0.01768722 -0.022510976 0.68534029
0.017518723 -0.023889124 0.68349123
0.017417822 -0.025334984 0.68238407
0.023163781 -0.03579855 0.74543846
0.022995772 -0.037629396 0.74359477
0.02282384 -0.039422959 0.74170804
0.022310371 -0.040564299 0.73607337
0.022090094 -0.042172015 0.73365611
0.021918727 -0.043837398 0.73177558
0.021794094 -0.04556942 0.73040789
0.021830745 -0.047630697 0.73081011
0.021734023 -0.049395502 0.72974867
0.021578178 -0.05100292 0.72803849
0.021396898 -0.052519649 0.72604918
0.021214468 -0.054000437 0.7240473
0.021030786 -0.055444807 0.72203159
0.02084654 -0.056854188 0.72000974
0.020663092 -0.058232337 0.71799666
0.020105883 -0.058489799 0.711882
0.019915277 -0.059745789 0.70979035
0.019737519 -0.061006844 0.70783973
0.019711507 -0.062718421 0.70755422
0.020034382 -0.065567046 0.71109736
0.01998847 -0.06723392 0.71059358
0.025770545 0.0042951107 0.75047779
0.023936884 0.0019947588 0.7320326
0.02335969 5.9604645e-08 0.72622645
0.022880428 -0.001906693 0.72140545
0.022453887 -0.0037423074 0.71711475
0.021326192 -0.0053315461 0.70577103
0.020992894 -0.0069976151 0.70241833
0.020730946 -0.0086378753 0.69978333
0.020510985 -0.010255486 0.69757068
0.02032546 -0.011856526 0.69570446
0.020171007 -0.013447315 0.69415075
0.020042069 -0.015031546 0.69285381
0.019928718 -0.016607255 0.69171351
0.019801872 -0.0181517 0.69043756
0.019643733 -0.019643724 0.68884683
0.019458417 -0.021079957 0.68698269
0.019263579 -0.02247417 0.68502277
0.019072603 -0.023840725 0.68310165
0.019059706 -0.025412947 0.68297195
0.025106961 -0.035568208 0.74380267
0.024937201 -0.037405789 0.74209499
0.024762981 -0.039208025 0.74034244
0.024586242 -0.040977061 0.73856461
0.024403773 -0.042706609 0.73672915
0.023854339 -0.043732941 0.73120224
0.023627833 -0.045286655 0.72892368
0.023448179 -0.046896338 0.72711658
0.023317143 -0.048577368 0.72579849
0.023355599 -0.050603777 0.72618532
0.023258884 -0.052332461 0.7252124
0.023097742 -0.053894728 0.72359145
0.022908537 -0.055362284 0.72168821
0.022717418 -0.056793541 0.71976566
0.022524305 -0.058187783 0.71782315
0.022331376 -0.059550285 0.71588242
0.02213903 -0.0608823 0.71394753
0.02155913 -0.061084181 0.70811421
0.021578191 -0.062936366 0.70830601
0.021729374 -0.06518808 0.70982671
0.02188253 -0.067471117 0.71136737
0.025811335 -0 0.73091567
0.025120251 -0.001932323 0.72449863
0.024576968 -0.0037810802 0.71945405
0.024114208 -0.0055648386 0.71515709
0.022984024 -0.0070720017 0.7046628
0.022510909 -0.0086580217 0.70026976
0.022196803 -0.010244668 0.69735312
0.021944296 -0.011816144 0.69500852
0.021730013 -0.013372302 0.69301879
0.021544466 -0.014915377 0.69129586
0.021388682 -0.016452819 0.68984932
0.021265753 -0.017994076 0.68870789
0.021146633 -0.019519955 0.68760186
0.021004193 -0.02100414 0.68627918
0.020830916 -0.022433251 0.68467027
0.020635374 -0.023810059 0.68285453
0.020711591 -0.025491208 0.68356228
0.026555715 -0.034726709 0.73782754
0.026811745 -0.037123948 0.74020487
0.026658347 -0.038962185 0.7387805
0.02648155 -0.040740818 0.73713887
0.026299424 -0.042483658 0.73544776
0.026114546 -0.044193804 0.73373103
0.025920775 -0.045859814 0.73193181
0.025338763 -0.046779245 0.72652757
0.025106579 -0.048281848 0.72437167
0.024919504 -0.04983899 0.72263455
0.024782689 -0.05147174 0.7213642
0.024822788 -0.053464442 0.72173655
0.024725977 -0.055157989 0.72083765
0.024561284 -0.056679845 0.71930838
0.024365045 -0.058101237 0.71748614
0.024166079 -0.059485763 0.71563876
0.023964332 -0.06083253 0.71376544
0.023763582 -0.062150866 0.71190131
0.023562497 -0.063437462 0.71003419
0.023622824 -0.065417022 0.71059442
0.028942665 -0.0020673275 0.74079537
0.026900902 -0.0038429499 0.72319084
0.026271261 -0.0056295693 0.71776199
0.02574571 -0.0073558986 0.71323055
0.025282953 -0.0090296268 0.70924056
0.024038864 -0.010302335 0.69851375
0.02364492 -0.011822432 0.69511712
0.023348279 -0.013341874 0.69255948
0.023103327 -0.014852107 0.69044739
0.02289634 -0.016354501 0.68866277
0.022716725 -0.017848849 0.68711406
0.022562489 -0.019339293 0.68578422
0.022440122 -0.020837218 0.6847291
0.022315592 -0.022315562 0.68365538
0.022236325 -0.023824602 0.68297195
0.022373753 -0.025569975 0.68415689
0.02831124 -0.034377962 0.73535109
0.028142903 -0.036183715 0.73389959
0.028094484 -0.038128227 0.73348212
0.028319826 -0.040456861 0.735425
0.028149238 -0.042223841 0.73395419
0.027965164 -0.043945253 0.7323671
0.027776541 -0.045632869 0.73074073
0.027584257 -0.047287285 0.72908282
0.027379731 -0.048892349 0.72731936
0.026766455 -0.049709111 0.72203159
0.02652985 -0.051164716 0.71999162
0.026335854 -0.052671671 0.71831894
0.026193852 -0.054258674 0.71709454
0.026235348 -0.056218594 0.71745229
0.026139211 -0.057879657 0.71662343
0.025971938 -0.059364438 0.71518117
0.025769388 -0.06074211 0.71343476
0.025562974 -0.062081486 0.7116549
0.02535378 -0.063384444 0.70985126
0.028693473 -0.0057386756 0.72215337
0.027952164 -0.0074538887 0.71618778
0.027364833 -0.0091215968 0.71146125
0.026861817 -0.010744691 0.70741332
0.025734289 -0.012009293 0.6983397
0.025100764 -0.013387054 0.69324148
0.024746709 -0.014848024 0.69039226
0.024462629 -0.016308397 0.68810618
0.024220511 -0.017761707 0.6861577
0.02401337 -0.019210666 0.6844908
0.023840904 -0.020662069 0.68310291
0.023751652 -0.022168189 0.68238461
0.023898067 -0.023898065 0.68356293
0.024046222 -0.025649309 0.68475521
0.024196228 -0.027422369 0.68596232
0.029994167 -0.03599295 0.73262048
0.029735349 -0.037664741 0.73053777
0.029573893 -0.03943181 0.72923839
0.029838433 -0.041773766 0.73136735
0.029764006 -0.043653876 0.73076832
0.0295831 -0.045360744 0.72931254
0.029392291 -0.047027677 0.727777
0.029197793 -0.048662961 0.72621179
0.02899868 -0.050264359 0.72460949
0.028782051 -0.051807702 0.72286618
0.028140496 -0.052528918 0.71770334
0.027900627 -0.05394119 0.71577305
0.027700445 -0.055400878 0.71416211
0.027553599 -0.056944132 0.71298033
0.027596453 -0.058872432 0.7133252
0.027501503 -0.060503304 0.71256113
0.027332244 -0.061953098 0.7111991
0.027257105 -0.063599885 0.71059436
0.031886227 -0.007971555 0.73180914
0.02965495 -0.0092671514 0.71497536
0.028980363 -0.010867596 0.70988607
0.028414534 -0.012431353 0.70561725
0.027921021 -0.013960481 0.70189393
0.026584772 -0.014953941 0.69181275
0.026126768 -0.016329199 0.68835729
0.025798496 -0.017736495 0.68588072
0.025528746 -0.019146562 0.68384558
0.025296029 -0.020553023 0.68208992
0.025412945 -0.022236317 0.68297195
0.026031872 -0.024404883 0.68764144
0.025728934 -0.025728911 0.6853559
0.025890021 -0.02750814 0.68657124
0.032195523 -0.036219954 0.7341426
0.031930488 -0.037917435 0.73214304
0.031345397 -0.039181709 0.72772884
0.031110547 -0.040832579 0.72595704
0.030953573 -0.042561144 0.72477275
0.031264238 -0.044942319 0.72711658
0.031152917 -0.046729356 0.72627676
0.030963149 -0.048379928 0.72484505
0.0307661 -0.049994886 0.72335839
0.030566288 -0.051580578 0.72185099
0.030360879 -0.053131551 0.72030127
0.030131426 -0.054613173 0.71857011
0.029464059 -0.055245101 0.71353531
0.029221652 -0.056616902 0.71170646
0.029015971 -0.058031946 0.71015477
0.028864695 -0.059533387 0.70901346
0.028972395 -0.061566323 0.70982599
0.029176708 -0.063824058 0.71136737
0.031372301 -0.011072516 0.71400911
0.030589659 -0.012595713 0.70845193
0.02996413 -0.01410073 0.70401025
0.02942563 -0.01557827 0.70018655
0.028912535 -0.017007351 0.69654328
0.027522121 -0.017808408 0.68667042
0.02713 -0.019150585 0.68388617
0.026918538 -0.020584762 0.68238467
0.027722055 -0.02282992 0.68809009
0.027570827 -0.024327189 0.68701631
0.027422303 -0.025809199 0.68596166
0.033983476 -0.033983439 0.73255014
0.033855658 -0.035847157 0.73164254
0.03371596 -0.037682533 0.73065066
0.033564691 -0.039487869 0.72957647
0.033057526 -0.040835738 0.72597528
0.032653969 -0.042258054 0.72310978
0.032437667 -0.043886244 0.72157395
0.03229003 -0.045585871 0.72052556
0.032627042 -0.047980934 0.72291863
0.0324907 -0.049691677 0.72195053
0.032292359 -0.05128786 0.72054213
0.03208952 -0.052853316 0.71910191
0.031884436 -0.054391086 0.71764565
0.031673696 -0.055894762 0.71614921
0.031431656 -0.057316542 0.71443063
0.030739782 -0.057863116 0.7095179
0.030675817 -0.059547186 0.70906365
0.030891387 -0.061782748 0.71059436
0.034625303 -0.013465345 0.72344851
0.032220572 -0.014320225 0.70732206
0.03150741 -0.015753657 0.70253944
0.030906262 -0.017170161 0.69850814
0.030386973 -0.018569767 0.69502568
0.028971307 -0.0193142 0.68553197
0.02858956 -0.020648003 0.68297201
0.028766252 -0.022373736 0.68415689
0.028945142 -0.024120957 0.68535656
0.029126272 -0.025890023 0.68657124
0.035454445 -0.033484727 0.72900891
0.035443559 -0.035443574 0.72893596
0.035322763 -0.037285149 0.72812581
0.035186969 -0.039096653 0.72721517
0.035039805 -0.040879756 0.72622824
0.034867931 -0.042616338 0.7250756
0.034253675 -0.043768585 0.72095639
0.033916619 -0.045222133 0.71869594
0.033717271 -0.046829522 0.71735919
0.033583749 -0.048509866 0.71646374
0.033936169 -0.050904244 0.71882713
0.033778477 -0.052544266 0.71776962
0.033573482 -0.054090619 0.7163949
0.033365279 -0.055608779 0.71499866
0.033154998 -0.057100266 0.71358848
0.032939766 -0.058559537 0.71214509
0.03268265 -0.059918165 0.71042079
0.032823917 -0.062000692 0.7113682
0.0360597 -0.015183002 0.72034037
0.0338686 -0.016043007 0.70641994
0.033051889 -0.017395705 0.70123112
0.032393288 -0.018753976 0.697047
0.031823676 -0.020099163 0.6934281
0.031295475 -0.0214127 0.6900723
0.030458549 -0.022443116 0.68475515
0.030648556 -0.024196208 0.68596232
0.036212161 -0.030494422 0.72130901
0.036087211 -0.032288522 0.72051513
0.036081593 -0.034182549 0.72047943
0.03681701 -0.036817014 0.72515172
0.036736771 -0.038670301 0.72464198
0.036610577 -0.040464312 0.72384024
0.03647013 -0.04222858 0.72294796
0.036315769 -0.043961167 0.72196722
0.036101874 -0.045602351 0.72060829
0.03544132 -0.046633303 0.71641171
0.035138585 -0.048084408 0.71448839
0.034950495 -0.049666464 0.71329337
0.034853883 -0.051363587 0.71267956
0.035191786 -0.053713799 0.71482635
0.035017829 -0.055291295 0.71372116
0.034809086 -0.056793749 0.71239501
0.034595899 -0.058266759 0.71104056
0.034525789 -0.059965789 0.71059513
0.037180379 -0.018590182 0.71564955
0.034616355 -0.019039005 0.70017427
0.033870034 -0.020321995 0.69566983
0.033238139 -0.021604776 0.69185597
0.032697301 -0.022888094 0.68859178
0.032362524 -0.024271876 0.68657124
0.037817005 -0.030253589 0.7194919
0.03759297 -0.03195405 0.71813983
0.037419785 -0.033677787 0.71709448
0.037322793 -0.035456628 0.7165091
0.037448633 -0.037448645 0.71726865
0.038092092 -0.039996684 0.72115225
0.037984088 -0.041782498 0.72050035
0.037850332 -0.043527901 0.71969312
0.037704583 -0.045245469 0.71881336
0.037546143 -0.046932667 0.71785712
0.037263449 -0.048442453 0.71615094
0.036598936 -0.049408555 0.7121402
0.036322359 -0.050851285 0.71047091
0.036141202 -0.052404732 0.70937753
0.036438216 -0.05465731 0.7111702
0.036404017 -0.056426197 0.71096379
0.036215752 -0.057945192 0.70982754
0.038534157 -0.020184517 0.71274531
0.036200412 -0.020685971 0.69933069
0.03535568 -0.021886855 0.69447505
0.034668479 -0.023112327 0.690525
0.03408736 -0.02434808 0.68718457
0.034302577 -0.026135296 0.68842173
0.039189368 -0.031724751 0.71651161
0.038961377 -0.033395499 0.71520108
0.038745444 -0.035055369 0.71395987
0.038594875 -0.036756992 0.71309441
0.03855098 -0.038550943 0.71284211
0.039322831 -0.041195333 0.71727872
