# .PCD v0.7 - Point Cloud Data file format
VERSION 0.7
FIELDS x y z
SIZE 4 4 4
TYPE F F F
COUNT 1 1 1
WIDTH 213
HEIGHT 1
VIEWPOINT 0 0 0 1 0 0 0
POINTS 213
DATA ascii
-0.0017283605 0.062220991 0.69987768
-0.0017434707 0.059278011 0.70170164
-0.0069706282 0.060992986 0.70160341
0.0069805961 0.061080217 0.70190424
0.0069805961 0.061080217 0.70190424
-0.012172104 0.067815989 0.70114654
0.012300344 0.063258916 0.70335793
0.005316705 0.05493927 0.70517379
0.014202933 0.062137872 0.7055518
-0.0017824564 0.051691264 0.70640761
-0.012489875 0.057096601 0.7066263
-0.005382651 0.050238073 0.70782727
-0.0071593076 0.051904976 0.70729733
-0.018026395 0.061289728 0.70884401
0.012881424 0.047845274 0.71337831
-0.016637584 0.049912781 0.71439433
0.0037203738 0.037203729 0.71579051
0.0018666825 0.035466999 0.71657467
0.0093317423 0.039193332 0.71653438
-0.016798764 0.046663284 0.71655613
-0.011269297 0.037564337 0.71796685
-0.015116177 0.039680004 0.71933156
-0.018928172 0.045427591 0.71972936
-0.0019220097 0.017298102 0.72325325
-0.0038475811 0.019237936 0.72346818
0.017315181 0.038478196 0.72348249
0.0077307113 0.025124818 0.72454095
0.0077954191 0.021437407 0.72649372
0.0039422535 0.013797939 0.72918218
-0.017800799 0.081092507 0.72999573
-0.013857774 0.019796818 0.73021489
-0.01780664 0.025720745 0.73007411
-0.0079760682 0.011964113 0.73194528
0.0060371463 0.0080495477 0.73416215
0.012080269 0.08657527 0.73428237
-0.018281134 0.016249895 0.7364381
0.022322584 0.032469243 0.73620743
-0.016365565 0.010228485 0.73818338
-0.0061808545 -0.0020602643 0.73994452
-0.0020564322 0.08431375 0.73947942
0.0041145892 0.088463694 0.73958349
0 -0.010311484 0.74018741
0.020635987 0.01857239 0.74034452
0.016560081 0.018630087 0.74111849
-0.0041787624 -0.012536258 0.74345666
0.025183411 0.029380679 0.74457163
0.0042213681 -0.012664109 0.74602818
-0.014837565 -0.0063589215 0.74711072
0.021257667 0.0085030794 0.74784881
-0.014919158 -0.0085252225 0.74851781
-0.0042706574 -0.021353275 0.74900305
-0.02355849 0.008566767 0.74976981
0.0086030308 -0.017206073 0.75086558
0.010804458 -0.017287105 0.75208879
0.0043631434 -0.026178837 0.75458509
0.002188327 -0.032824904 0.75540054
-0.022037577 -0.0088149905 0.75726318
-0.028694471 0.011036366 0.75768679
0 -0.039857239 0.75853461
-0.011071305 -0.028785378 0.75853109
-0.026579719 0.0066449344 0.75861746
-0.0044433479 -0.037768424 0.75942588
0.0022389321 -0.042539686 0.76150906
-0.0067054243 -0.03576225 0.76105154
-0.0067821657 -0.040692985 0.76413935
0.0090479972 -0.038453966 0.76429355
0.01592789 -0.020478696 0.76591271
-0.01145767 -0.043539137 0.7678588
-0.018322371 -0.034354389 0.76770931
-0.018322371 -0.034354389 0.76770931
0.020613328 -0.025194049 0.7677182
-0.0023353861 -0.063055396 0.77315211
-0.025689486 -0.018683255 0.7731548
0.018798908 -0.039947629 0.77489972
-0.026013056 -0.023648202 0.77670556
-0.014252056 -0.057008237 0.77797538
0.023829559 -0.028595448 0.77889431
-0.0095671806 -0.064578474 0.77996135
0.0098398011 -0.076258451 0.78818834
0.02462117 -0.041855991 0.78844994
0.02462117 -0.041855991 0.78844994
0.017610915 -0.07044366 0.79493552
0.025867026 -0.064667553 0.80348873
-0.0017179342 0.06528154 0.69861907
0.0051673218 0.065452754 0.69916308
0.0051673218 0.065452754 0.69916308
0.0087131336 0.062734574 0.70159978
-0.0052756034 0.057150453 0.70352
0.00087780494 0.057042055 0.70311737
-0.0052408208 0.059396029 0.70212042
0.0035384041 0.054845273 0.7048077
0.010636537 0.058501005 0.70523667
-0.014185591 0.06117335 0.70529014
0.017749636 0.069223583 0.70550317
-0.014282699 0.058916152 0.7067554
0.0036024756 0.048633456 0.70867473
0.0053888345 0.05029583 0.70807606
-0.014550016 0.052743852 0.71078885
0.0036859105 0.040545046 0.71371049
0.0091794776 0.044977337 0.71285832
0.020287601 0.060862839 0.71387613
0.018487569 0.055462718 0.71441084
-0.020329867 0.057293266 0.71433997
0.022311296 0.065074652 0.71568036
-0.024013877 0.070194453 0.71422547
-0.0093114236 0.039108008 0.71604383
-0.014898777 0.044696361 0.71605128
0.016885502 0.046904176 0.71771944
-0.018647695 0.050348818 0.7163437
-0.0094223302 0.034860417 0.71872127
0.013257344 0.037878126 0.71986085
0.011410732 0.034232199 0.72081232
-0.017131595 0.039973766 0.7210201
0.00096035929 0.024962395 0.72303236
0.0057533653 0.026849031 0.72274363
0.01915828 0.044064075 0.722507
-0.0019507846 0.011704713 0.72672659
0.0039422535 0.013797939 0.72918218
0.011854828 0.019758046 0.72974682
-0.0019905188 0.0039811134 0.73152298
-0.015860423 0.021808088 0.73056144
-0.015860423 0.021808088 0.73056144
0.016045045 0.032090098 0.73334718
0.010053056 0.086456299 0.73394835
0.016031615 0.086169928 0.73314452
-0.024474699 0.034672529 0.73744261
0.012189947 0.083297968 0.73648888
-0.0081701893 0.089872092 0.73780334
0.010293753 0.0020587742 0.73975921
-0.0020564322 0.08431375 0.73947942
-0.0102445 0.087076128 0.73857021
0.0061461469 0.089117005 0.73854798
-0.0041342909 -0.0082685947 0.7407726
-0.006192022 0.08668831 0.74039382
-0.0041787624 -0.012536258 0.74345666
-0.0083543845 -0.0062657893 0.74336195
0.0062932665 -0.0083910227 0.74446762
-0.023124851 0.014715821 0.74501121
-0.0021200653 -0.021200657 0.74716061
-0.0021200653 -0.021200657 0.74716061
0.021257667 0.0085030794 0.74784881
-0.02326699 0.01269111 0.74657106
0.017042555 0.0063909292 0.74839842
-0.015254508 -0.017433703 0.75430071
-0.0043925601 -0.032944202 0.75636059
0.026401253 0.011000544 0.75682223
-0.024359459 -0.0022144616 0.75855947
0 -0.044793665 0.76159984
0.018046146 -0.020301908 0.76354146
0.018046146 -0.020301908 0.76354146
0.027516304 -0.0045860708 0.76803875
-0.011592576 -0.048688829 0.77111566
-0.0046588127 -0.058235168 0.7724303
0.0093156733 -0.051236182 0.77237141
-0.021014452 -0.037358999 0.77309817
0 -0.065726399 0.77459902
-0.011730642 -0.053960949 0.77444887
0.0070818849 -0.059015721 0.77619922
-0.016560573 -0.052047491 0.77682292
-0.0024072956 -0.07703343 0.78183234
-0.0096843485 -0.07021153 0.78349715
-0.016871769 -0.060256302 0.78218931
-0.028974814 -0.028974801 0.78271019
-0.021855138 -0.053423673 0.78437376
0.02680002 -0.034109116 0.78534138
0.009778697 -0.073340207 0.78634435
0.017320817 -0.061860055 0.78993291
-0.0074636606 -0.08458814 0.79156059
0.019861221 -0.064548969 0.79092884
-0.017530616 -0.077635556 0.79355073
-0.017530616 -0.077635556 0.79355073
0.023627715 -0.076133698 0.80814803
0.008790683 0.059776664 0.70347202
0.006088682 0.061744682 0.70120311
-0.0026810013 0.050930813 0.7069701
0.0061835703 0.056526005 0.70447397
0.017546576 0.066016734 0.70663214
-0.013566338 0.053576052 0.7095623
-0.013022664 0.042788744 0.71581393
-0.013022664 0.042788744 0.71581393
0.013428877 0.046294376 0.7147963
-0.017773557 0.053925883 0.7131595
0.0075823409 0.032224953 0.72006351
0.022917809 0.058246478 0.72178149
0.0038925491 0.018487141 0.72618228
-0.021527708 0.039141297 0.7274847
0.0056800731 0.0090188384 0.7332443
0.022322584 0.032469243 0.73620743
0.0010220207 0.086333111 0.73792177
-0.0020640926 -0.010320485 0.74040413
-0.016721193 0.0020901561 0.74354947
0.018826837 0.010459363 0.74375725
-0.0099655362 -0.014237265 0.7490052
0.0054675974 -0.026233509 0.75513506
0.010106418 -0.018768778 0.75263977
0.019727729 -0.008767873 0.75584036
-0.021835908 -0.0054622442 0.75482881
-0.0044433479 -0.037768424 0.75942588
0.0044376538 -0.033282369 0.7590822
-0.013511828 -0.033779562 0.7630831
-0.0045756083 -0.050331712 0.76740849
-0.022817045 -0.021679908 0.76667225
0.02041487 -0.021552652 0.76505637
-0.021426603 -0.045233905 0.77862608
0.012072897 -0.065193653 0.78271163
0.021604957 -0.04320991 0.78101826
0.0097182998 -0.070457667 0.7845217
-0.017085757 -0.065902203 0.78587937
-0.021855138 -0.053423673 0.78437376
-0.017530616 -0.077635556 0.79355073
-0.020090424 -0.07408765 0.79438722
0.022991261 -0.066419125 0.79961175
0.022991261 -0.066419125 0.79961175
