# .PCD v0.7 - Point Cloud Data file format
VERSION 0.7
FIELDS x y z
SIZE 4 4 4
TYPE F F F
COUNT 1 1 1
WIDTH 1316
HEIGHT 1
VIEWPOINT 0 0 0 1 0 0 0
POINTS 1316
DATA ascii
-0.023607597 -0.015344948 0.71816379
-0.023208426 -0.016245902 0.71575451
-0.022848643 -0.017136484 0.71358311
-0.022523766 -0.018019021 0.7116223
-0.02222419 -0.01889053 0.70981413
-0.021998711 -0.019798845 0.7084533
-0.021890542 -0.020796001 0.70780039
-0.021849109 -0.021849096 0.70755041
-0.021869598 -0.022963077 0.70767403
-0.021977074 -0.02417478 0.70832276
-0.025816601 -0.029689074 0.73149627
-0.0256228 -0.030747324 0.73032659
-0.025606088 -0.032007605 0.7302258
-0.02582965 -0.033578545 0.73157501
-0.025708584 -0.034706563 0.73084438
-0.025580451 -0.035812646 0.73007101
-0.025373574 -0.036791682 0.72882241
-0.025170561 -0.037755847 0.72759706
-0.025151249 -0.038984418 0.72748053
-0.025026256 -0.040042013 0.72672611
-0.024875222 -0.041044086 0.72581458
-0.024343085 -0.041383207 0.72260284
-0.024190979 -0.042334229 0.72168481
-0.024185086 -0.043533117 0.72164923
-0.024143681 -0.011436462 0.72906882
-0.023491623 -0.01236403 0.72492611
-0.022997841 -0.013314515 0.72178906
-0.022582874 -0.014262855 0.71915269
-0.02221882 -0.015202343 0.71683979
-0.021888139 -0.016128093 0.71473885
-0.021582387 -0.017038703 0.71279645
-0.021298314 -0.017935395 0.71099162
-0.021035416 -0.01882118 0.70932144
-0.020834604 -0.019738019 0.7080456
-0.020734033 -0.020734042 0.70740664
-0.020694451 -0.02178359 0.70715523
-0.020711981 -0.022892207 0.70726657
-0.020810304 -0.024096161 0.70789123
-0.024691153 -0.029889315 0.73254704
-0.02498267 -0.031557053 0.73439902
-0.024863368 -0.032714933 0.73364109
-0.024741676 -0.033856988 0.73286802
-0.024554687 -0.034893453 0.73167998
-0.024233457 -0.035712421 0.72963917
-0.024001313 -0.036633551 0.72816432
-0.023958111 -0.037828594 0.7278899
-0.02403128 -0.039208919 0.72835469
-0.023893774 -0.040242106 0.72748107
-0.023742195 -0.04123643 0.72651809
-0.02359017 -0.042214006 0.7255522
-0.023079203 -0.042514324 0.72230601
-0.022920394 -0.043428123 0.72129703
-0.023085739 -0.044956446 0.7223475
-0.023770697 -0.0092441738 0.73508918
-0.02290798 -0.010181338 0.72930366
-0.022373766 -0.011186868 0.72572106
-0.021938749 -0.012188166 0.72280383
-0.021562243 -0.013176918 0.72027898
-0.021222614 -0.014148414 0.71800131
-0.020912167 -0.015103221 0.71591944
-0.020629913 -0.016045481 0.71402657
-0.020364255 -0.016970217 0.71224505
-0.020113565 -0.017878741 0.71056384
-0.019879201 -0.018774807 0.70899218
-0.01969243 -0.019692421 0.70773965
-0.019596916 -0.020685613 0.70709914
-0.019556841 -0.021729827 0.70683044
-0.019568712 -0.022830158 0.70690995
-0.019651162 -0.024018079 0.70746291
-0.023987215 -0.030650347 0.73654115
-0.023871221 -0.031828284 0.73576325
-0.023700079 -0.032916754 0.73461556
-0.023399757 -0.033799648 0.73260158
-0.0231588 -0.034738183 0.7309857
-0.023010463 -0.03579405 0.7299909
-0.023144746 -0.037288755 0.73089147
-0.023048028 -0.038413376 0.73024279
-0.022894563 -0.039429516 0.72921365
-0.022739822 -0.040426344 0.728176
-0.022589767 -0.041414589 0.72716969
-0.022435322 -0.04237783 0.72613394
-0.021940673 -0.042662412 0.72281671
-0.021780904 -0.043561786 0.72174531
-0.021766502 -0.044742256 0.72164875
-0.022334574 -0.0078827739 0.73426884
-0.021724831 -0.0089455247 0.72993928
-0.021263588 -0.010006368 0.72666413
-0.020872951 -0.011050373 0.72389036
-0.020527534 -0.012074977 0.72143769
-0.020217068 -0.01308161 0.71923316
-0.019930841 -0.014068812 0.71720082
-0.019663071 -0.015036434 0.71529943
-0.019415665 -0.015989393 0.71354282
-0.019180013 -0.016923517 0.71186942
-0.018957978 -0.017842799 0.71029288
-0.018747332 -0.01874733 0.7087971
-0.018569348 -0.019661635 0.70753336
-0.018474856 -0.02064836 0.70686245
-0.018432887 -0.021685749 0.70656443
-0.018437546 -0.022775769 0.70659745
-0.018501069 -0.02394256 0.70704854
-0.022811102 -0.030862093 0.73765248
-0.022535237 -0.031814456 0.73569369
-0.022284778 -0.032771707 0.73391521
-0.02212709 -0.033841431 0.7327956
-0.022228172 -0.035303563 0.73351336
-0.022163453 -0.036504507 0.73305374
-0.022014689 -0.037554443 0.73199749
-0.021866532 -0.038588017 0.73094541
-0.02171836 -0.039604038 0.72989333
-0.021534355 -0.040535271 0.72858679
-0.021410566 -0.041561663 0.72770774
-0.021256471 -0.042512953 0.72661364
-0.02109953 -0.043440193 0.72549927
-0.020617884 -0.043661386 0.72207928
-0.020483684 -0.044582129 0.72112632
-0.0207256 -0.0463278 0.72284412
-0.021849386 -0.0054623187 0.74052018
-0.021063305 -0.0065822899 0.7345897
-0.020564888 -0.0077118278 0.73082942
-0.020157769 -0.0088190138 0.72775793
-0.0198061 -0.0099030435 0.72510481
-0.019489009 -0.010962546 0.72271252
-0.019199003 -0.011999369 0.72052461
-0.018932253 -0.013015926 0.71851212
-0.018686248 -0.014014661 0.71665621
-0.018452061 -0.014992297 0.71488941
-0.01823174 -0.015952736 0.71322715
-0.018021289 -0.016894937 0.7116394
-0.017824268 -0.017824262 0.71015304
-0.017633857 -0.018735975 0.70871651
-0.017469183 -0.019652814 0.70747417
-0.017367242 -0.020623565 0.70670503
-0.017321087 -0.021651328 0.70635682
-0.017317256 -0.02272892 0.70632792
-0.017364802 -0.023876578 0.70668662
-0.021377228 -0.030729741 0.73695809
-0.021214005 -0.031821012 0.73572665
-0.021174414 -0.033085018 0.73542792
-0.021244809 -0.034522831 0.73595905
-0.02110232 -0.035610139 0.73488402
-0.020957699 -0.03667596 0.73379302
-0.020812711 -0.037723005 0.7326991
-0.0206182 -0.038659126 0.73123169
-0.020260539 -0.039254785 0.72853327
-0.020193864 -0.04038772 0.72803026
-0.020168154 -0.0415968 0.72783625
-0.020054515 -0.042615831 0.72697896
-0.019899109 -0.043529272 0.72580653
-0.019433353 -0.043725044 0.72229266
-0.019273482 -0.04456991 0.7210865
-0.019364243 -0.04599008 0.7217713
-0.023770178 0.0047540367 0.76696694
-0.020483961 -0.0040967762 0.74052149
-0.019838924 -0.0052903295 0.73533064
-0.019409535 -0.006469816 0.73187518
-0.019047914 -0.0076191425 0.7289651
-0.018725522 -0.0087385774 0.72637069
-0.018434897 -0.0098319352 0.72403193
-0.018169736 -0.010901839 0.72189808
-0.01792312 -0.011948764 0.71991342
-0.017692413 -0.012974441 0.71805686
-0.017473135 -0.013978481 0.71629226
-0.017264428 -0.014962465 0.71461272
-0.017070759 -0.015932709 0.71305418
-0.016882591 -0.016882569 0.71153992
-0.016706984 -0.017820776 0.71012676
-0.016535306 -0.018739998 0.70874524
-0.016381063 -0.019657224 0.70750391
-0.016278177 -0.020619005 0.70667595
-0.016222902 -0.021630496 0.70623112
-0.016207667 -0.022690713 0.70610851
-0.016236698 -0.023813784 0.70634216
-0.016323091 -0.025028735 0.70703745
-0.020291608 -0.032466561 0.73897362
-0.020155622 -0.033592701 0.73787928
-0.020014908 -0.034692496 0.73674691
-0.019873494 -0.035772264 0.73560882
-0.019679967 -0.036735922 0.73405147
-0.019340679 -0.03739199 0.7313211
-0.019166572 -0.038333118 0.72991997
-0.019058013 -0.03938657 0.72904634
-0.019071611 -0.040686101 0.72915578
-0.018983116 -0.041762859 0.72844368
-0.018826848 -0.042674154 0.72718608
-0.018676272 -0.043577969 0.72597438
-0.01822992 -0.043751806 0.72238237
-0.018071521 -0.044576436 0.72110766
-0.018074842 -0.045789599 0.72113442
-0.022202004 0.0079293251 0.76710927
-0.02203526 0.0062958002 0.76567155
-0.022116205 0.0047391951 0.76636946
-0.022238847 0.0031769574 0.76742691
-0.022362754 0.0015973449 0.7684952
-0.019792544 -0.001413703 0.74633443
-0.019375978 -0.0027679801 0.74274272
-0.018629787 -0.0039920509 0.73630887
-0.018253762 -0.0052153766 0.7330668
-0.017928423 -0.006403029 0.73026162
-0.017636703 -0.0075585842 0.72774631
-0.01737019 -0.0086850822 0.72544837
-0.017123897 -0.0097850859 0.72332484
-0.016897393 -0.010862589 0.72137189
-0.016681494 -0.011915326 0.71951038
-0.016476231 -0.012945592 0.71774054
-0.016284021 -0.013957709 0.71608329
-0.016100239 -0.014950186 0.71449864
-0.015927337 -0.015927345 0.71300781
-0.0157602 -0.016885906 0.71156681
-0.015601737 -0.017830551 0.71020049
-0.01544898 -0.018759489 0.7088834
-0.01530164 -0.019673526 0.70761293
-0.015197096 -0.020624638 0.70671159
-0.015137841 -0.021625459 0.70620066
-0.015114605 -0.022671938 0.70600033
-0.015126873 -0.023770809 0.70610613
-0.015185853 -0.02494818 0.70661461
-0.019036217 -0.032633513 0.73981321
-0.018898735 -0.033747733 0.73862779
-0.018707089 -0.034741729 0.73697543
-0.018387478 -0.035461545 0.73421967
-0.018219443 -0.036438853 0.7327708
-0.018121572 -0.037537545 0.73192698
-0.018126501 -0.038842529 0.73196948
-0.018034905 -0.039934427 0.73117971
-0.017888997 -0.040889114 0.7299217
-0.01773922 -0.04181388 0.7286303
-0.017586906 -0.04271102 0.72731698
-0.01744175 -0.043604344 0.7260654
-0.01729368 -0.044469446 0.72478867
-0.016852612 -0.044539034 0.72098577
-0.01680888 -0.045624077 0.72060871
-0.020039221 0.010790348 0.76175225
-0.02016527 0.0093070567 0.76292264
-0.020770665 0.0079887211 0.76854402
-0.020480886 0.0063017905 0.76585335
-0.020480052 0.0047262013 0.76584554
-0.020593306 0.0031681955 0.7668972
-0.020707726 0.0015929043 0.76795959
-0.018325629 -0 0.74584079
-0.018113693 -0.0013933182 0.74387288
-0.018115437 -0.002786994 0.74388909
-0.01709334 -0.0039446056 0.73439848
-0.016798075 -0.0051686168 0.73165679
-0.016531937 -0.0063584149 0.72918558
-0.016287887 -0.0075174868 0.72691953
-0.016064471 -0.0086500943 0.72484493
-0.015854385 -0.0097565353 0.72289419
-0.015651729 -0.010835826 0.72101247
-0.015461805 -0.011893719 0.71924889
-0.015283414 -0.012932092 0.71759248
-0.015113541 -0.013950914 0.7160151
-0.014951558 -0.014951557 0.71451116
-0.014796548 -0.015934736 0.7130717
-0.014648614 -0.016902238 0.71169811
-0.014504959 -0.017852247 0.71036416
-0.014369395 -0.018790722 0.70910537
-0.01423634 -0.019711852 0.70787001
-0.014125401 -0.020644814 0.7068398
-0.014058972 -0.021629184 0.70622301
-0.01402793 -0.022660494 0.70593482
-0.014028801 -0.023741066 0.70594287
-0.014066371 -0.024886638 0.70629168
-0.014146724 -0.026117027 0.70703787
-0.017392606 -0.033447295 0.73717725
-0.017236773 -0.034473509 0.73573029
-0.017141471 -0.035601526 0.73484534
-0.01714609 -0.036929995 0.73488826
-0.017054103 -0.038043737 0.73403412
-0.016912606 -0.039029092 0.73272026
-0.01676858 -0.03998661 0.73138291
-0.016626988 -0.040927947 0.73006821
-0.016466908 -0.041800588 0.72858179
-0.01632338 -0.042691916 0.72724903
-0.016192891 -0.043596238 0.72603738
-0.016046608 -0.044436753 0.72467905
-0.015617906 -0.044450969 0.72069842
-0.015552786 -0.045461982 0.72009373
-0.018389322 0.013792008 0.7606616
-0.01834975 0.012233168 0.76026356
-0.018448148 0.01076144 0.76125336
-0.018547606 0.0092737973 0.76225388
-0.018648228 0.0077701211 0.76326603
-0.018749945 0.0062500238 0.76428914
-0.018852694 0.0047132075 0.7653228
-0.017591454 0.0029318929 0.75263572
-0.016979821 0.0014149845 0.74648309
-0.016560029 5.9604645e-08 0.74226034
-0.016213531 -0.0013511181 0.73877484
-0.01591846 -0.0026530623 0.73580664
-0.015653484 -0.0039133728 0.73314118
-0.01541272 -0.0051375628 0.73071933
-0.01519153 -0.0063297749 0.72849429
-0.014987417 -0.0074937046 0.72644114
-0.014789399 -0.0086271167 0.72444916
-0.014602373 -0.0097348988 0.72256786
-0.01442935 -0.010821998 0.7208274
-0.014263452 -0.011886209 0.71915859
-0.01410705 -0.012931496 0.71758533
-0.013956518 -0.013956517 0.71607107
-0.013813692 -0.014964819 0.7146343
-0.013674432 -0.015953481 0.71323353
-0.013543801 -0.016929716 0.71191943
-0.013415772 -0.017887712 0.71063161
-0.01329404 -0.01883322 0.70940697
-0.013176329 -0.019764483 0.70822293
-0.013066822 -0.0206891 0.70712137
-0.012994783 -0.021657944 0.70639676
-0.012955537 -0.022672206 0.706002
-0.012943874 -0.023730397 0.70588464
-0.012960732 -0.024841368 0.70605421
-0.013016486 -0.026032954 0.70661503
-0.016128615 -0.033601254 0.73792064
-0.016128302 -0.034944654 0.73791748
-0.016036497 -0.036082119 0.73699403
-0.015900068 -0.037100166 0.73562169
-0.015762186 -0.038091928 0.73423469
-0.015626673 -0.039066702 0.73287153
-0.015304723 -0.039537191 0.72963291
-0.015115147 -0.040307075 0.72772598
-0.015057779 -0.041408867 0.72714889
-0.015028742 -0.042581439 0.72685683
-0.014928393 -0.043541163 0.72584736
-0.014786095 -0.044358313 0.72441596
-0.014366756 -0.044297516 0.72019768
-0.014305635 -0.045301169 0.71958292
-0.017101398 0.015546739 0.76334494
-0.01695995 0.013876349 0.76179272
-0.016823934 0.012235612 0.7603001
-0.016865507 0.010732621 0.76075631
-0.016956264 0.0092488825 0.76175225
-0.017048003 0.0077491105 0.76275897
-0.017140741 0.0062330067 0.7637766
-0.016095893 0.0043897927 0.75231081
-0.015889201 0.0028889477 0.75004262
-0.015856836 0.0014415383 0.74968743
-0.014994523 -0 0.74022472
-0.014730999 -0.0013391376 0.73733282
-0.014492882 -0.0026350617 0.73471981
-0.01427507 -0.0038931966 0.73232967
-0.014077643 -0.0051191449 0.7301631
-0.013887065 -0.0063122809 0.72807175
-0.01370374 -0.0074747503 0.72606003
-0.013535441 -0.0086134672 0.72421318
-0.013375251 -0.009727478 0.72245532
-0.013224296 -0.010819882 0.72079879
-0.013078992 -0.011889994 0.71920425
-0.012941971 -0.012941957 0.71770066
-0.012808264 -0.01397264 0.71623337
-0.012682635 -0.014988542 0.71485472
-0.012560189 -0.015985698 0.71351105
-0.012443202 -0.016968012 0.71222728
-0.012330721 -0.017935574 0.71099293
-0.012220764 -0.018886626 0.7097863
-0.012117281 -0.01982826 0.70865071
-0.012015537 -0.020754129 0.70753419
-0.011932859 -0.021696091 0.70662689
-0.011887988 -0.022695243 0.70613444
-0.011868055 -0.023736119 0.70591581
-0.011872073 -0.024823397 0.70595986
-0.011904427 -0.02597326 0.70631486
-0.011970268 -0.027205139 0.70703745
-0.01484941 -0.035098612 0.73863232
-0.014718236 -0.036126584 0.73719281
-0.014586632 -0.037129611 0.73574859
-0.014262925 -0.037602246 0.73219639
-0.014106322 -0.038471788 0.73047787
-0.01400368 -0.039464891 0.72935146
-0.01394162 -0.040557414 0.72867042
-0.013886157 -0.041658431 0.7280618
-0.013786882 -0.042613983 0.7269724
-0.013647129 -0.043422669 0.72543883
-0.013514431 -0.04422906 0.72398263
-0.013102216 -0.044071078 0.71945906
-0.013067322 -0.045141608 0.71907616
-0.013307031 -0.04717949 0.72170669
-0.016201073 0.019441307 0.77124357
-0.015806273 0.017386883 0.76647794
-0.015675282 0.015675306 0.76489669
-0.015546447 0.013991833 0.76334155
-0.015358099 0.012286484 0.76106799
-0.015291391 0.010703981 0.76026273
-0.015364958 0.009218961 0.76115078
-0.015223924 0.0076119602 0.75944829
-0.014685692 0.005874306 0.75295126
-0.014507813 0.004352361 0.75080407
-0.014485375 0.0028970838 0.75053322
-0.014463007 0.0014463365 0.75026321
-0.013526211 -0 0.73895514
-0.013312905 -0.0013312697 0.73638028
-0.013121811 -0.0026243329 0.73407358
-0.012939738 -0.0038819015 0.73187578
-0.012762696 -0.0051050484 0.72973871
-0.012598925 -0.0062994659 0.72776181
-0.01244563 -0.0074673593 0.72591138
-0.012300678 -0.0086104572 0.72416162
-0.012161702 -0.0097293258 0.72248405
-0.012030995 -0.010827899 0.72090626
-0.011903802 -0.011903822 0.7193709
-0.011783623 -0.012961984 0.71792024
-0.011667296 -0.014000744 0.71651608
-0.011555742 -0.015022457 0.71516943
-0.011449016 -0.016028613 0.71388113
-0.011344465 -0.017016709 0.71261919
-0.011246392 -0.017994225 0.71143526
-0.011149999 -0.018954992 0.71027172
-0.011057425 -0.019903362 0.70915425
-0.010968626 -0.020840377 0.70808238
-0.010885845 -0.021771669 0.70708311
-0.010831821 -0.022746801 0.70643091
-0.010803497 -0.02376771 0.70608908
-0.010796851 -0.024832785 0.70600885
-0.010810758 -0.025945812 0.7061767
-0.010851441 -0.027128607 0.70666778
-0.010917312 -0.028385013 0.70746291
-0.013192856 -0.035620689 0.73493117
-0.013062714 -0.036575556 0.73336017
-0.012973848 -0.037624121 0.73228753
-0.012921453 -0.038764358 0.73165512
-0.012856336 -0.039854646 0.73086905
-0.012751361 -0.040804356 0.72960186
-0.012621212 -0.041649997 0.72803086
-0.012491311 -0.042470455 0.72646284
-0.012363749 -0.043273121 0.72492296
-0.012235317 -0.044047147 0.7233727
-0.011824445 -0.043750465 0.718413
-0.011837941 -0.044984162 0.71857595
-0.014607459 0.021099657 0.77159894
-0.014468976 0.019291967 0.76974154
-0.013549497 0.016560555 0.75740921
-0.01350987 0.015011013 0.75687766
-0.013584341 0.013584316 0.75787652
-0.013655404 0.012138128 0.75882965
-0.013725647 0.01067549 0.75977182
-0.013760616 0.0091737509 0.76024079
-0.013306205 0.0073923767 0.7541461
-0.013114306 0.0058285892 0.75157231
-0.013093934 0.0043646693 0.75129908
-0.013073626 0.0029052496 0.75102675
-0.01305338 0.0014503896 0.75075513
-0.012116284 2.9802322e-08 0.7381866
-0.011943907 -0.0013270974 0.73587453
-0.011776364 -0.0026169717 0.73362744
-0.011617038 -0.003872335 0.73149049
-0.011471342 -0.0050983727 0.72953641
-0.011333279 -0.0062962472 0.72768462
-0.01120199 -0.0074679852 0.72592366
-0.011078062 -0.0086162388 0.72426158
-0.010958074 -0.0097405016 0.72265232
-0.010844153 -0.010844141 0.72112435
-0.010734641 -0.011927336 0.71965545
-0.010629196 -0.01299122 0.71824121
-0.01052885 -0.014038473 0.7168954
-0.010430485 -0.015066236 0.71557617
-0.010338246 -0.016081721 0.71433902
-0.010247759 -0.017079592 0.71312529
-0.010160821 -0.018063664 0.7119593
-0.010077491 -0.01903522 0.7108416
-0.0099955788 -0.01999113 0.70974296
-0.0099183843 -0.020938784 0.70870763
-0.0098428372 -0.021872967 0.70769435
-0.009779552 -0.022818953 0.70684558
-0.009743779 -0.023818105 0.70636576
-0.0097284717 -0.024861664 0.70616049
-0.0097311661 -0.025949776 0.70619661
-0.0097514354 -0.027087331 0.70646846
-0.0097949905 -0.028296649 0.70705265
-0.011903943 -0.035711855 0.73533851
-0.011858217 -0.036892205 0.73472524
-0.011786885 -0.037979931 0.73376846
-0.011679123 -0.038930386 0.73232323
-0.011556849 -0.039806932 0.73068327
-0.011437066 -0.04066512 0.72907662
-0.011186082 -0.041015625 0.72571039
-0.011162604 -0.042169839 0.72539544
-0.011072688 -0.043060452 0.72418952
-0.010671088 -0.042684317 0.71880311
-0.0105428 -0.04334259 0.71708244
-0.010623815 -0.044856071 0.71816903
-0.013204478 0.023107827 0.77491945
-0.013087785 0.021267682 0.77315873
-0.012149012 0.018223554 0.75899374
-0.011920813 0.016391128 0.7555505
-0.011977365 0.014971703 0.75640386
-0.012040295 0.013545305 0.75735331
-0.012103887 0.012103915 0.75831288
-0.01216821 0.010647207 0.75928342
-0.012232305 0.0091742575 0.76025057
-0.011709408 0.0073183775 0.75236064
-0.011690252 0.0058451295 0.75207162
-0.011672041 0.0043770075 0.75179684
-0.011056047 0.0027639866 0.74250221
-0.010894721 0.0013618469 0.74006796
-0.010738038 -0 0.7377038
-0.010586441 -0.0013233125 0.73541635
-0.010454022 -0.0026134849 0.73341835
-0.010319471 -0.003869772 0.73138809
-0.010196225 -0.0050981045 0.72952849
-0.010080054 -0.0063000321 0.72777563
-0.0099681076 -0.0074760616 0.72608644
-0.0098613836 -0.008628726 0.7244761
-0.0097594215 -0.0097593963 0.72293764
-0.009660922 -0.010868549 0.72145134
-0.009567651 -0.011959553 0.72004402
-0.0094762594 -0.013029814 0.718665
-0.0093904044 -0.014085621 0.71736962
-0.0093064327 -0.01512292 0.71610254
-0.0092256935 -0.016144961 0.71488428
-0.0091484515 -0.017153323 0.71371883
-0.0090725506 -0.018145084 0.71257359
-0.0090011042 -0.019127339 0.71149546
-0.0089311181 -0.020094991 0.7104395
-0.0088631734 -0.021050036 0.7094143
-0.0087988153 -0.021997035 0.70844322
-0.0087357983 -0.022931427 0.70749235
-0.0086925281 -0.023904413 0.70683944
-0.0086690513 -0.024923533 0.70648521
-0.0086614341 -0.025984317 0.70637029
-0.0086682942 -0.027088434 0.70647383
-0.0086923372 -0.028250128 0.70683658
-0.0087347832 -0.029479861 0.70747703
-0.0087908302 -0.030767918 0.7083227
-0.01045473 -0.037898391 0.73342901
-0.01015744 -0.038090408 0.72894323
-0.010039607 -0.038903475 0.72716528
-0.0099573601 -0.039829433 0.72592425
-0.0099082384 -0.040871501 0.72518313
-0.0098735727 -0.041962653 0.72466004
-0.009771944 -0.042752206 0.72312653
-0.0093416795 -0.042037547 0.71663439
-0.0093389181 -0.043192476 0.71659267
-0.0094229048 -0.044758767 0.71785998
-0.011921618 0.027249396 0.78126025
-0.011764545 0.025209755 0.77855158
-0.011658699 0.023317397 0.77672637
-0.010746963 0.019958675 0.76100409
-0.010503547 0.018006086 0.75680649
-0.010402517 0.016346842 0.75506431
-0.0104529 0.014932752 0.75593317
-0.010507677 0.01350987 0.75687772
-0.010563029 0.012071997 0.75783223
-0.010618969 0.010618955 0.75879687
-0.010301013 0.0088294446 0.7533139
-0.010274122 0.0073386729 0.75285023
-0.00995488 0.0056885183 0.74734509
-0.0097877132 0.0041947365 0.74446237
-0.0096432418 0.0027552545 0.74197108
-0.0095038274 0.0013576746 0.73956704
-0.0093959644 -0 0.7377069
-0.0093229273 -0.0013318658 0.73644745
-0.0092509808 -0.0026431382 0.73520678
-0.0090336958 -0.0038715601 0.73145986
-0.0089309672 -0.0051034093 0.72968835
-0.0088322815 -0.0063087642 0.72798663
-0.0087387655 -0.0074903667 0.72637391
-0.0086480388 -0.0086480379 0.72480941
-0.0085626421 -0.0097858608 0.72333676
-0.008478974 -0.010901541 0.72189403
-0.0084001729 -0.012000263 0.7205351
-0.0083234217 -0.013079613 0.71921158
-0.0082495706 -0.014142096 0.71793807
-0.0081789987 -0.015189588 0.71672118
-0.0081097065 -0.016219437 0.71552622
-0.0080445549 -0.017238319 0.71440268
-0.0079807052 -0.018241614 0.71330166
-0.0079189166 -0.019231647 0.71223611
-0.0078602117 -0.020211965 0.71122384
-0.00780237 -0.021177858 0.71022636
-0.0077476683 -0.022136152 0.70928311
-0.007694507 -0.023083508 0.70836639
-0.0076455539 -0.024028867 0.70752221
-0.007615082 -0.025020987 0.70699674
-0.0075999014 -0.026056826 0.70673496
-0.0075985719 -0.027137727 0.70671195
-0.0076079126 -0.028257936 0.70687306
-0.0076318556 -0.029437155 0.70728594
-0.0076697827 -0.030679137 0.70794004
-0.0077171135 -0.031970888 0.70875615
-0.0088776713 -0.038047135 0.72876924
-0.0088272803 -0.039092213 0.72790033
-0.0087664826 -0.040075362 0.72685188
-0.0086843502 -0.040940523 0.72543561
-0.0085700033 -0.041625738 0.72346377
-0.0081037348 -0.040518671 0.71542323
-0.008087514 -0.041592926 0.7151435
-0.0081493752 -0.043075234 0.71621025
-0.0082544144 -0.044809669 0.71802163
-0.010368964 0.029378772 0.78428674
-0.010271138 0.027389705 0.78231865
-0.009550713 0.023876786 0.76782483
-0.0093186954 0.021743625 0.76315701
-0.0091302739 0.019782275 0.75936627
-0.009048013 0.01809603 0.75771129
-0.0089697279 0.016444534 0.75613636
-0.008936394 0.014894009 0.75546563
-0.0089830235 0.013474554 0.7564038
-0.009018423 0.012024581 0.75711602
-0.0089239618 0.010411263 0.75521559
-0.0087658092 0.0087658167 0.75203371
-0.0086211069 0.0071842968 0.74912262
-0.0084892195 0.0056594908 0.74646926
-0.0083634192 0.0041817129 0.74393833
-0.0082504582 0.0027501881 0.74166572
-0.0081826821 0.0013638139 0.74030221
-0.0081180343 -0 0.73900157
-0.0080544306 -0.0013424158 0.73772192
-0.0079917852 -0.0026639104 0.73646164
-0.0077534197 -0.0038766861 0.73166609
-0.0076693925 -0.0051129162 0.72997558
-0.0075873886 -0.0063228011 0.72832578
-0.0075107166 -0.0075106919 0.72678328
-0.0074356049 -0.0086748302 0.72527212
-0.0073647113 -0.009819597 0.72384584
-0.0072958977 -0.01094383 0.7224614
-0.0072296611 -0.012049437 0.72112882
-0.0071664392 -0.013138473 0.71985698
-0.0071044099 -0.014208794 0.71860904
-0.0070461589 -0.015266687 0.71743715
-0.006989067 -0.016307801 0.71628845
-0.0069339527 -0.017334878 0.71517968
-0.0068814494 -0.018350512 0.71412337
-0.0068298024 -0.019351095 0.71308434
-0.0067812842 -0.02034387 0.71210825
-0.006733777 -0.021323591 0.71115243
-0.0066876383 -0.022292137 0.71022427
-0.0066442029 -0.023254663 0.70935035
-0.0066013061 -0.024204761 0.70848739
-0.0065648877 -0.025165379 0.70775467
-0.0065429248 -0.026171684 0.70731282
-0.0065338206 -0.027224243 0.70712966
-0.0065352744 -0.028319508 0.70715892
-0.0065466641 -0.029460013 0.70738804
-0.0065686316 -0.030653596 0.70783001
-0.0065990286 -0.03189531 0.7084415
-0.0066368631 -0.03318429 0.70920265
-0.0066802455 -0.034514606 0.7100755
-0.0067246761 -0.035864919 0.71096933
-0.0067697018 -0.037233353 0.7118752
-0.0068153348 -0.038620204 0.71279323
-0.0068615871 -0.04002592 0.71372378
-0.0069133048 -0.041479796 0.71476424
-0.0069807591 -0.043047994 0.71612138
-0.0088041313 0.031694889 0.78822982
-0.0087212212 0.029652178 0.78622818
-0.0080499034 0.025759697 0.77002114
-0.0078581674 0.023574501 0.7653923
-0.0077435663 0.021681994 0.76262558
-0.0076747751 0.019954413 0.76096481
-0.0076072295 0.01825735 0.75933409
-0.007540829 0.01658982 0.75773102
-0.007473777 0.014947563 0.75611222
-0.0074663577 0.013439476 0.75593317
-0.0074852081 0.011976361 0.75638819
-0.0073905117 0.010346711 0.75410205
-0.0072710291 0.0087252557 0.75121748
-0.0071605379 0.0071605444 0.74855
-0.0070561045 0.0056448877 0.74602878
-0.0069864448 0.0041918755 0.74434704
-0.0069299019 0.0027720034 0.74298197
-0.006874294 0.0013748705 0.74163949
-0.0068195448 -0 0.7403177
-0.0067656608 -0.0013531148 0.73901677
-0.0067126476 -0.00268507 0.737737
-0.0064757294 -0.0038854182 0.73201728
-0.0064085117 -0.0051268041 0.73039448
-0.0063428842 -0.0063428581 0.72881001
-0.006280811 -0.0075369477 0.72731149
-0.0062207649 -0.0087090731 0.72586179
-0.0061629275 -0.0098606646 0.72446555
-0.0061078514 -0.010994107 0.72313589
-0.0060537718 -0.012107521 0.72183031
-0.0060031302 -0.013206899 0.72060764
-0.0059534507 -0.014288306 0.71940833
-0.0059055705 -0.015354484 0.71825242
-0.0058598765 -0.016407639 0.71714926
-0.0058152154 -0.017445654 0.71607101
-0.0057731476 -0.018474072 0.71505541
-0.0057318355 -0.019488245 0.7140581
-0.0056922482 -0.020492077 0.71310234
-0.0056544915 -0.021487057 0.71219081
-0.0056172144 -0.022468865 0.7112909
-0.0055825589 -0.023446739 0.71045423
-0.0055486653 -0.024414152 0.70963597
-0.0055159167 -0.02537322 0.70884532
-0.0054885754 -0.026345134 0.70818526
-0.0054726354 -0.027363151 0.70780039
-0.0054676235 -0.028431624 0.70767945
-0.0054707224 -0.02954188 0.70775425
-0.0054830154 -0.030704886 0.70805109
-0.0055007921 -0.031904578 0.70848018
-0.0055253366 -0.033152014 0.70907283
-0.0055548036 -0.034439772 0.70978415
-0.0055895457 -0.035773069 0.71062291
-0.0056262002 -0.037132889 0.71150774
-0.0056650932 -0.038522661 0.71244675
-0.0057061948 -0.039943367 0.71343911
-0.0057603805 -0.04147473 0.71474719
-0.0058462513 -0.043262243 0.71682036
-0.0072613666 0.036306828 0.79481047
-0.0071804491 0.034107119 0.79236853
-0.0066909785 0.030109406 0.77759749
-0.0065184808 0.027703613 0.77239186
-0.0063719288 0.025487721 0.76796931
-0.0063086194 0.023657322 0.76605874
-0.0062515559 0.021880448 0.76433671
-0.0061955159 0.020135432 0.76264554
-0.0061404714 0.018421412 0.76098448
-0.0060863961 0.01673761 0.75935262
-0.0059955544 0.014988869 0.75661117
-0.0059575452 0.013404518 0.75546408
-0.0059672138 0.011934429 0.75575596
-0.0058898604 0.010307282 0.75342155
-0.0058015748 0.0087023675 0.75075734
-0.0057299417 0.0071624517 0.74859554
-0.005682433 0.0056824386 0.74716187
-0.0056356825 0.004226774 0.74575102
-0.0055896952 0.0027948618 0.74436331
-0.0055444743 0.0013861358 0.74299866
-0.0054999576 2.9802322e-08 0.74165517
-0.0054561496 -0.0013639927 0.7403332
-0.0054130554 -0.0027065277 0.73903275
-0.0053706164 -0.0040279627 0.73775202
-0.0051449905 -0.0051449835 0.73094314
-0.0050946367 -0.0063682795 0.72942352
-0.0050461199 -0.007569164 0.72795945
-0.0049999934 -0.0087499917 0.72656751
-0.0049547199 -0.0099093914 0.72520119
-0.0049123759 -0.011052847 0.72392344
-0.0048708352 -0.01217708 0.72266978
-0.004830881 -0.013284922 0.72146404
-0.004792667 -0.014377981 0.72031081
-0.0047555738 -0.015455604 0.71919149
-0.0047204928 -0.016521722 0.71813279
-0.0046863211 -0.017573714 0.71710157
-0.0046533407 -0.018613368 0.7161063
-0.0046217898 -0.019642591 0.71515417
-0.004590997 -0.020659477 0.71422493
-0.004562289 -0.021670848 0.71335858
-0.0045339963 -0.022669971 0.7125048
-0.0045074266 -0.023663998 0.71170294
-0.0044818744 -0.024650276 0.71093178
-0.0044569387 -0.025627375 0.71017933
-0.0044342163 -0.026605278 0.70949364
-0.0044133496 -0.02758342 0.70886391
-0.0044017346 -0.028611243 0.70851338
-0.0043987534 -0.029691547 0.70842344
-0.0044038547 -0.030826986 0.70857739
-0.004413588 -0.031998515 0.70887113
-0.0044293692 -0.033220261 0.70934737
-0.0044480953 -0.034472734 0.70991248
-0.0044733058 -0.03578642 0.71067327
-0.0045018787 -0.037140489 0.71153551
-0.0045346175 -0.038544267 0.71252352
-0.0045757918 -0.040038168 0.71376604
-0.0046362509 -0.041726232 0.71559048
-0.0055471389 0.038830012 0.79887891
-0.0054922798 0.036615223 0.79667157
-0.0050758277 0.032146931 0.77991486
-0.0049486468 0.029691905 0.7747975
-0.0048680613 0.027585715 0.77155495
-0.0048217652 0.025716096 0.76969212
-0.004776319 0.023881644 0.76786357
-0.0047319797 0.022082597 0.76607949
-0.0046891524 0.0203197 0.76435626
-0.0046471548 0.018588632 0.7626664
-0.0046058418 0.016888082 0.76100409
-0.0044509689 0.01483658 0.75477248
-0.0044565825 0.013369769 0.75499833
-0.0044633374 0.011902243 0.75527012
-0.0044100317 0.010290086 0.75312537
-0.004371014 0.0087420642 0.75155538
-0.0043341392 0.0072235763 0.75007164
-0.0042978991 0.0057305396 0.74861348
-0.0042622429 0.0042622387 0.74717873
-0.0042271903 0.0028181076 0.74576831
-0.0041926927 0.0013975799 0.74438024
-0.0041587539 2.9802322e-08 0.74301463
-0.0041253762 -0.0013750792 0.74167162
-0.0040925136 -0.0027283132 0.74034935
-0.0040601715 -0.0040601492 0.739048
-0.0038756144 -0.0051674843 0.73162198
-0.0038393431 -0.006398946 0.73016262
-0.0038038138 -0.0076076388 0.72873294
-0.0037705721 -0.0087980032 0.72739547
-0.0037379465 -0.0099678338 0.72608268
-0.003706658 -0.011119962 0.72482371
-0.0036766671 -0.01225552 0.72361696
-0.0036477831 -0.013375193 0.72245479
-0.0036202918 -0.014481157 0.72134858
-0.0035938437 -0.015573293 0.7202844
-0.003567999 -0.016650677 0.71924448
-0.0035432698 -0.017716318 0.7182495
-0.0035195346 -0.018770844 0.71729445
-0.0034970774 -0.019816786 0.71639085
-0.0034750204 -0.020850092 0.71550339
-0.003454705 -0.021879792 0.71468592
-0.0034346934 -0.022897959 0.71388066
-0.0034158749 -0.023911148 0.71312356
-0.0033980808 -0.024919242 0.71240759
-0.003380833 -0.025919735 0.71171355
-0.0033653341 -0.026922673 0.71108991
-0.0033499873 -0.027916551 0.71047246
-0.0033367868 -0.028918803 0.70994127
-0.0033279345 -0.029951394 0.70958507
-0.0033267664 -0.031049818 0.70953804
-0.0033299439 -0.032189459 0.70966589
-0.0033396839 -0.03339684 0.7100578
-0.0033522928 -0.034640342 0.71056515
-0.0033690431 -0.035936445 0.7112391
-0.003391624 -0.037307858 0.71214771
-0.0034219637 -0.038782239 0.71336854
-0.003469365 -0.040475905 0.71527576
-0.0037357041 0.039224923 0.80114907
-0.0034267684 0.034267694 0.78250307
-0.0033447968 0.031775564 0.7775557
-0.0033091991 0.029782802 0.77540714
-0.0032770997 0.027855366 0.77346981
-0.0032456168 0.025964916 0.77156961
-0.0032147479 0.024110615 0.76970649
-0.0031782275 0.022247612 0.76750231
-0.0031467683 0.020454019 0.7656036
-0.0031264529 0.018758744 0.76437747
-0.0030984208 0.017041326 0.7626856
-0.0029518728 0.014759362 0.75384057
-0.0029633776 0.013335198 0.75453496
-0.0029742976 0.011897206 0.75519407
-0.0029647429 0.010376602 0.75461739
-0.0029393125 0.008817941 0.75308251
-0.0029143025 0.0072857738 0.75157303
-0.0028897265 0.005779475 0.7500897
-0.0028655496 0.0042982996 0.74863058
-0.0028417858 0.0028418005 0.74719626
-0.0028184012 0.0014092326 0.74578488
-0.0027953985 2.9802322e-08 0.74439651
-0.0027727792 -0.001386404 0.74303132
-0.002750512 -0.0027505159 0.74168736
-0.0027285998 -0.0040929019 0.74036491
-0.0027070444 -0.0054140389 0.73906386
-0.0025740007 -0.0064350069 0.73103404
-0.0025511992 -0.007653594 0.72965783
-0.0025293871 -0.0088528395 0.72834134
-0.0025085064 -0.010034025 0.72708106
-0.0024884664 -0.011198074 0.72587156
-0.0024694283 -0.012347102 0.7247225
-0.0024510508 -0.013480753 0.72361332
-0.0024330388 -0.014598221 0.72252613
-0.0024158014 -0.015702695 0.72148585
-0.002399544 -0.016796798 0.72050458
-0.002383888 -0.017879158 0.71955973
-0.0023689356 -0.018951476 0.7186572
-0.0023547763 -0.020015597 0.71780258
-0.002340832 -0.021067441 0.71696103
-0.0023282138 -0.022118032 0.71619952
-0.0023158155 -0.023158103 0.71545112
-0.002304412 -0.024196297 0.71476293
-0.0022936196 -0.025229782 0.71411151
-0.0022835732 -0.026261121 0.71350515
-0.0022744846 -0.027293772 0.71295667
-0.0022661111 -0.028326362 0.71245122
-0.0022589439 -0.029366255 0.71201867
-0.0022528146 -0.030413002 0.7116487
-0.0022478814 -0.031470329 0.71135092
-0.00224706 -0.032582343 0.71130139
-0.0022492637 -0.033738971 0.71143436
-0.0022578356 -0.03499645 0.71195179
-0.0022712734 -0.036340356 0.71276277
-0.0022927115 -0.037829757 0.71405673
-0.0017353762 0.036442935 0.78515774
-0.001704818 0.03409639 0.78146905
-0.0016877842 0.032067895 0.77941287
-0.0016710873 0.030079573 0.77739745
-0.0016547256 0.028130382 0.77542239
-0.0016386735 0.026218802 0.77348477
-0.0016229297 0.024343967 0.77158427
-0.0015829459 0.022161245 0.76675785
-0.0015740826 0.020463079 0.76568788
-0.001573883 0.018886626 0.7656638
-0.0015633953 0.017197371 0.76439786
-0.0014717665 0.014717668 0.75333726
-0.0014778635 0.013300776 0.75407326
-0.0014855339 0.011884272 0.75499916
-0.0014897886 0.010428548 0.75551265
-0.0014825296 0.0088951886 0.75463647
-0.0014698055 0.0073490441 0.75310051
-0.001457304 0.0058291852 0.75159144
-0.0014450074 0.0043350458 0.75010717
-0.0014329226 0.0028658509 0.74864841
-0.0014210324 0.0014210343 0.74721313
-0.0014093379 2.9802322e-08 0.74580145
-0.0013978397 -0.0013978183 0.74441355
-0.0013865223 -0.0027730167 0.74304736
-0.0013728056 -0.0041184127 0.74139166
-0.0013520474 -0.0054081678 0.73888588
-0.0012952472 -0.0064762533 0.73202956
-0.0012843363 -0.0077059865 0.73071241
-0.0012738879 -0.0089172125 0.72945124
-0.0012640357 -0.010112286 0.72826195
-0.0012544072 -0.011289626 0.72709966
-0.0012449733 -0.012449712 0.72596085
-0.001236023 -0.013596237 0.72488046
-0.001227595 -0.014731139 0.72386318
-0.0012194224 -0.015852511 0.72287667
-0.0012117974 -0.016965151 0.72195619
-0.0012043922 -0.01806587 0.7210623
-0.0011973287 -0.019157231 0.72020966
-0.0011907554 -0.02024281 0.7194162
-0.0011843346 -0.021318018 0.71864116
-0.0011786302 -0.022393972 0.71795249
-0.0011729803 -0.023459554 0.71727055
-0.001168126 -0.024530649 0.71668458
-0.001163378 -0.025594324 0.71611148
-0.0011595036 -0.026668578 0.71564376
-0.0011558125 -0.027739495 0.71519822
-0.0011532155 -0.028830379 0.71488476
-0.0011511829 -0.029930741 0.71463943
-0.0011500589 -0.031051576 0.71450377
-0.0011507483 -0.0322209 0.71458691
-0.0011536635 -0.033456266 0.71493882
-0.0011609758 -0.034829289 0.7158215
0 0.041543633 0.79371238
0 0.03872484 0.78815663
0 0.036541432 0.78572428
0 0.034446537 0.78358257
0 0.032394081 0.78148526
0 0.030382454 0.77942872
0 0.028342962 0.77693182
0 0.026477605 0.77543759
0 0.024581969 0.77349967
0 0.021946102 0.76490271
0 0.02043736 0.76544893
0 0.018926382 0.76606393
0 0.016391665 0.7555567
0 0.014694482 0.753057
0 0.013266593 0.75361466
0 0.011853516 0.75453496
0 0.010425776 0.75546497
0 0.0089512169 0.75576365
0 0.0074134469 0.75465477
0 0.0058798194 0.75311935
0 0.0043723881 0.75160921
0 0.0028903186 0.75012529
0 0.0014330745 0.74866551
0 2.9802322e-08 0.74722993
0 -0.0014065504 0.74546885
0 -0.0027448535 0.74134648
0 -0.0040436387 0.73838258
0 -0.0052752197 0.73487437
0 -0.0065252185 0.73321164
0 -0.0077686608 0.73197299
0 -0.0089927614 0.73075432
0 -0.010198355 0.72956067
0 -0.011389762 0.72844201
0 -0.012567401 0.72738171
0 -0.013731271 0.72636211
0 -0.014885038 0.72541153
0 -0.016024619 0.72447503
0 -0.017157495 0.72361487
0 -0.018279761 0.72278374
0 -0.019396305 0.72201335
0 -0.020506918 0.72129148
0 -0.02161324 0.72062075
0 -0.022718519 0.72001475
0 -0.023823529 0.71946692
0 -0.024931848 0.71899092
0 -0.026049256 0.71860754
0 -0.02717191 0.71828538
0 -0.028324038 0.7181381
0 -0.029504865 0.71814156
0 -0.030742705 0.71840912
0 -0.032096267 0.71917427
0.0018308854 0.043941289 0.79668677
0.0017956967 0.041301042 0.79243904
0.0017768085 0.039089799 0.79015911
0.0017583225 0.036924779 0.78792763
0.0017402085 0.034804165 0.78574109
0.0017224723 0.032727003 0.78360009
0.0017050856 0.030691534 0.78150141
0.0016627231 0.028266311 0.77638775
0.0016633997 0.026614398 0.77646941
0.0016549779 0.024824709 0.77545279
0.0015605936 0.021848321 0.7640596
0.0015673091 0.020375043 0.76487029
0.0015760175 0.018912226 0.76592141
0.0014913809 0.016405225 0.75570488
0.0014713926 0.014713943 0.75329208
0.0014702844 0.013232559 0.75315833
0.0014778635 0.011822909 0.7540732
0.0014855276 0.010398686 0.75499833
0.0014930406 0.0089582503 0.75590527
0.0014930726 0.0074653625 0.75590914
0.0014828396 0.0059313774 0.75467396
0.0014701101 0.0044103265 0.75313735
0.001457573 0.002915144 0.75162399
0.0014420568 0.0014420748 0.74975097
0.0014051943 2.9802322e-08 0.74530125
0.0013780267 -0.0013780296 0.74202186
0.0013510224 -0.0027020574 0.73876214
0.0013377228 -0.0040131807 0.73715675
0.0013269893 -0.0053079724 0.73586112
0.0013164266 -0.0065821409 0.73458606
0.0013060946 -0.0078365207 0.73333889
0.0012964942 -0.0090754926 0.73218
0.0012873198 -0.01029852 0.73107255
0.0012786884 -0.011508197 0.73003066
0.0012704274 -0.012704283 0.72903347
0.0012624192 -0.013886601 0.7280668
0.001255105 -0.015061259 0.72718394
0.001247893 -0.016222626 0.72631335
0.0012415524 -0.017381728 0.72554797
0.0012352847 -0.018529236 0.72479141
0.001229898 -0.019678384 0.72414118
0.001224653 -0.020819098 0.723508
0.0012204504 -0.021968096 0.72300076
0.0012165918 -0.023115247 0.72253495
0.0012137614 -0.024275213 0.72219324
0.0012118904 -0.025449663 0.72196746
0.0012111849 -0.026646078 0.72188222
0.0012126347 -0.027890593 0.72205734
0.0012180374 -0.029232919 0.72270942
0.0012336227 -0.030840546 0.72459078
0.0036696985 0.044036388 0.79716522
0.0036302852 0.041748315 0.79478639
0.0035916904 0.039508611 0.79245704
0.003553926 0.037316233 0.7901777
0.0035169297 0.035169303 0.78794479
0.0034807133 0.033066809 0.78575897
0.0034452179 0.031006962 0.7836166
0.0033161314 0.028187126 0.77582556
0.0033301471 0.02664119 0.77667147
0.0033317117 0.024987847 0.77676588
0.0031170994 0.021819711 0.7638129
0.0031138032 0.020239741 0.76361394
0.0031426982 0.018856257 0.76535797
0.0029857475 0.016421646 0.75588506
0.0029283636 0.014641851 0.75242168
0.0029330354 0.013198644 0.75270373
0.0029481284 0.011792511 0.75361466
0.0029633776 0.010371834 0.75453502
0.0029787854 0.0089363754 0.75546497
0.0029928454 0.0074821115 0.75631356
0.0029907846 0.0059815645 0.75618911
0.0029587599 0.0044381618 0.75425625
0.0028793099 0.0028793216 0.74946105
0.0028192587 0.0014096498 0.74583662
0.0027701706 -0 0.74287391
0.0027441583 -0.0013720989 0.74130392
0.002721579 -0.0027215779 0.73994118
0.0026993684 -0.0040490627 0.73860061
0.0026805331 -0.0053610802 0.73746383
0.0027805117 -0.0069513023 0.74349803
0.0027593693 -0.0082781017 0.74222195
0.0027385349 -0.0095848441 0.74096453
0.0026038405 -0.010415375 0.73283505
0.0025876393 -0.011644363 0.73185718
0.0025722666 -0.012861311 0.73092937
0.0025578756 -0.014068335 0.73006082
0.0025445668 -0.015267402 0.72925746
0.002532189 -0.016459197 0.72851044
0.0025210739 -0.017647505 0.72783959
0.0025111714 -0.018833756 0.72724199
0.0025024905 -0.020019948 0.72671801
0.0024959114 -0.02121526 0.72632086
0.0024907854 -0.022417068 0.72601151
0.0024883149 -0.023638964 0.72586238
0.002489777 -0.024897724 0.7259506
0.002499592 -0.026245683 0.72654301
0.0025218974 -0.027740866 0.7278893
0.0055050128 0.042205155 0.79718393
0.0054458827 0.039936513 0.79480475
0.005387981 0.037715882 0.79247493
0.0053263674 0.035509109 0.78999579
0.0052758218 0.033413559 0.78796202
0.004993211 0.029959261 0.77659059
0.0049620033 0.028118014 0.77533489
0.0049864515 0.02659443 0.77631861
0.0050053666 0.025026858 0.77707976
0.0046835057 0.021856368 0.76412904
0.0046161623 0.020003378 0.76141936
0.0045271893 0.018108755 0.75783932
0.0044310838 0.016247332 0.75397241
0.0043802895 0.014600962 0.75192857
0.0043883296 0.013164997 0.75225204
0.0044108527 0.011762291 0.75315833
0.0044335905 0.010345042 0.75407326
0.0044565825 0.0089131594 0.75499833
0.0044779861 0.0074633062 0.75585961
0.0044648098 0.0059530735 0.75532943
0.0043442543 0.0043443143 0.75047863
0.0042638294 0.0028425753 0.74724257
0.0042247232 0.0014082491 0.74566907
0.0041890703 -0 0.74423456
0.0041540968 -0.0013846755 0.7428273
0.004309413 -0.0028729439 0.74907672
0.0042755292 -0.0042755306 0.74771333
0.0042421916 -0.0056562722 0.74637192
0.0042093522 -0.0070155859 0.74505061
0.0041770516 -0.0083540976 0.74375093
0.004145226 -0.0096721649 0.74247038
0.0041138818 -0.010970354 0.74120915
0.0039351019 -0.011805296 0.73401558
0.0039137234 -0.013045758 0.73315537
0.0038957619 -0.014284402 0.73243266
0.0038784263 -0.015513688 0.73173511
0.0038645938 -0.016746551 0.73117852
0.0038523967 -0.017977834 0.73068774
0.003843179 -0.019215882 0.73031688
0.0038380707 -0.020469695 0.73011136
0.0038381414 -0.021749467 0.73011422
0.0038497648 -0.023098588 0.73058188
0.0038743755 -0.024537712 0.73157215
0.0075794202 0.043581694 0.80440855
0.0073141763 0.040228009 0.79640412
0.0072249416 0.037930936 0.79371119
0.0070943916 0.035471976 0.7897715
0.0070559271 0.033515662 0.78861076
0.0066424692 0.029891104 0.77613354
0.0065970058 0.02803731 0.77476162
0.0066322628 0.026529074 0.77582556
0.0066650212 0.024993867 0.77681416
0.0062271319 0.021794975 0.76359969
0.0060888757 0.019788861 0.75942743
0.0060124388 0.018037319 0.75712067
0.0059540998 0.016373813 0.75536013
0.0058851964 0.014712989 0.75328082
0.0057749385 0.012993634 0.74995351
0.0052859131 0.010571808 0.73519588
0.0052486849 0.009185195 0.73407233
0.0059265532 0.0088897943 0.75452888
0.0059242542 0.0074053407 0.7544595
0.0058388398 0.0058388114 0.7518819
0.0057854671 0.0043391287 0.75027126
0.0057353089 0.0028676689 0.7487576
0.0056868275 0.0014217198 0.74729449
0.0058951313 -2.9802322e-08 0.75358069
0.0058476101 -0.0014619231 0.7521466
0.0058008241 -0.0029004216 0.75073469
0.0057548052 -0.0043161213 0.7493459
0.005709487 -0.0057094991 0.74797839
0.0056649004 -0.0070811212 0.74663281
0.0056210044 -0.0084314942 0.7453081
0.0055777836 -0.0097611248 0.74400389
0.0055352221 -0.01107046 0.74271941
0.0054933056 -0.012359917 0.74145448
0.0054520192 -0.013630003 0.74020857
0.0052906414 -0.014549226 0.73533851
0.0052768621 -0.015830576 0.73492271
0.0052670236 -0.017117798 0.73462582
0.0052638119 -0.018423319 0.7345289
0.0052742185 -0.019778281 0.7348429
0.0053053028 -0.021221191 0.73578095
0.0091276374 0.041987151 0.79604
0.0091433944 0.04023096 0.7964204
0.0090124374 0.037852287 0.79325879
0.0088603459 0.035441428 0.78958696
0.0088019008 0.033447266 0.788176
0.0083125811 0.029925317 0.77636278
0.0081991665 0.027877182 0.77362478
0.0080365734 0.02571705 0.76969934
0.0078522358 0.023556709 0.76524913
0.0077437731 0.02168259 0.76263058
0.0076663764 0.019932598 0.76076204
0.0075905449 0.018217355 0.75893128
0.0075161657 0.01653558 0.75713563
0.0071795052 0.014359027 0.74900794
0.0065708561 0.011827528 0.73431385
0.0065108212 0.010417283 0.7328645
0.0065413658 0.0091579258 0.73360187
0.0065721734 0.0078865886 0.73434561
0.0074077803 0.0074077845 0.75451899
0.0073670079 0.0058935881 0.75353467
0.0073053939 0.004383266 0.75204712
0.0075305332 0.0030122399 0.75748241
0.0075027929 0.0015005767 0.75681275
0.0074412217 -0 0.75532627
0.0073806532 -0.001476109 0.75386405
0.0073210322 -0.0029284358 0.75242472
0.0072623971 -0.0043574274 0.75100905
0.0072046933 -0.0057637393 0.74961603
0.0071478994 -0.0071479082 0.74824488
0.0070919646 -0.0085103512 0.74689448
0.0070369276 -0.0098516941 0.74556577
0.0069827382 -0.011172384 0.74425751
0.0069293766 -0.012472898 0.74296933
0.0068768244 -0.013753653 0.74170059
0.0068250634 -0.015015095 0.74045098
0.0067815059 -0.016275585 0.73939937
0.0068203481 -0.017732888 0.74033707
0.0069169896 -0.019367546 0.74267018
0.010915088 0.041841149 0.7952739
0.010950807 0.040152967 0.79599255
0.010816383 0.037857354 0.79328811
0.010641371 0.035471261 0.78976715
0.010544066 0.033389539 0.78780949
0.0099667525 0.029900312 0.77619487
0.0097331684 0.027577311 0.77149558
0.0095835524 0.025556177 0.76848549
0.0094847986 0.023712009 0.7664988
0.0093881022 0.021905571 0.76455337
0.009293315 0.020135552 0.76264632
0.009200423 0.018400848 0.76077759
0.0081039295 0.014857203 0.73871779
0.0078610936 0.013101846 0.73383224
0.007772903 0.011659354 0.73205805
0.0077899517 0.010386586 0.73240101
0.0078263599 0.0091307461 0.73313355
0.007863109 0.0078631341 0.73387289
0.0079002362 0.0065835416 0.73461974
0.0089248409 0.0059498847 0.75523323
0.0089830235 0.004491508 0.7564038
0.0090302201 0.0030100942 0.75735337
0.0090571716 0.0015095472 0.75789547
0.0090179555 2.9802322e-08 0.7571066
0.0089438315 -0.0014906228 0.75561535
0.0088709155 -0.0029569566 0.75414836
0.0087991431 -0.0043995678 0.75270444
0.0087285591 -0.0058190227 0.75128436
0.0086590983 -0.0072159171 0.74988687
0.0085907336 -0.0085906982 0.74851155
0.0085234055 -0.0099439323 0.74715698
0.0084571587 -0.011276215 0.74582422
0.0083935559 -0.012590319 0.74454463
0.0084187724 -0.014031291 0.74505198
0.012700755 0.041731089 0.79469597
0.012755305 0.040088147 0.79563665
0.012642793 0.037928402 0.79369646
0.012030767 0.034373611 0.78314245
0.011742282 0.031871915 0.77816772
0.011542239 0.029680043 0.77471811
0.011419551 0.027733207 0.77260244
0.011299393 0.025827199 0.7705304
0.011181736 0.023960888 0.7685014
0.011066555 0.022133082 0.76651525
0.0097245537 0.018059909 0.74337322
0.0094432039 0.016188383 0.73852158
0.0093410434 0.014678776 0.7367599
0.0092485892 0.013212264 0.73516548
0.0091579463 0.01177451 0.73360246
0.0090727843 0.010368884 0.73213387
0.0091037545 0.009103775 0.73266798
0.00914641 0.0078397691 0.73340356
0.0091894316 0.0065638721 0.7341454
0.009232861 0.0052759349 0.73489428
0.0104529 0.0044798255 0.75593317
0.010507677 0.0030021966 0.75687772
0.010562983 0.0015090108 0.75783139
0.010590348 2.9802322e-08 0.7583034
0.010538042 -0.0015054047 0.75740135
0.010451283 -0.0029860735 0.75590527
0.010365942 -0.0044425428 0.75443363
0.01028194 -0.0058753788 0.75298506
0.010199332 -0.0072852373 0.75156051
0.010118039 -0.008672595 0.75015867
0.010109292 -0.010109276 0.75000781
0.010183957 -0.011638761 0.75129539
0.011150314 -0.014336139 0.76795965
0.014494942 0.041672975 0.79439116
0.01425032 0.039188385 0.79070008
0.01389314 0.03646946 0.78531063
0.013631855 0.034079641 0.7813682
0.013482168 0.032020152 0.77910954
0.01333567 0.030005246 0.77689904
0.01319232 0.028033733 0.77473605
0.01305202 0.026104063 0.77261901
0.012914672 0.024215013 0.77054662
0.011124896 0.019468576 0.74354106
0.011006405 0.017885387 0.7417531
0.010894123 0.016341209 0.74005896
0.010784111 0.014828146 0.73839897
0.010676298 0.013345391 0.73677218
0.01057066 0.011892021 0.73517829
0.010467052 0.010467052 0.73361498
0.010379311 0.0090819001 0.73229104
0.010422079 0.0078165829 0.73293638
0.010470956 0.0065443516 0.73367381
0.010520332 0.0052601695 0.73441887
0.010584184 0.0039690733 0.73538232
0.011977365 0.0029943585 0.7564038
0.012040295 0.0015050471 0.75735331
0.012103834 2.9802322e-08 0.75831205
0.012130032 -0.001516223 0.7587074
0.012063022 -0.0030157268 0.75769627
0.01196355 -0.0044862926 0.75619531
0.01191882 -0.0059593916 0.7555204
0.011987334 -0.0074920654 0.75655425
0.012499964 -0.0093749762 0.7642892
0.012568519 -0.010997444 0.76532358
0.012637774 -0.012637764 0.76636863
0.012707912 -0.014296383 0.76742697
0.012778716 -0.015973359 0.7684952
0.016201293 0.041403294 0.7929759
0.015866734 0.038785338 0.78848863
0.015685679 0.036599934 0.78606033
0.015509478 0.034465522 0.78369701
0.015337191 0.032378525 0.78138626
0.015168765 0.030337512 0.7791273
0.015003924 0.028340787 0.77691638
0.014842628 0.026386946 0.77475309
0.014669677 0.024449468 0.7724334
0.012643835 0.019668192 0.74526215
0.012512153 0.018073112 0.743496
0.012383185 0.016510934 0.74176627
0.012256898 0.014980674 0.74007249
0.012133113 0.013481259 0.7384122
0.012011805 0.012011796 0.73678523
0.011892897 0.01057148 0.73519039
0.011776321 0.0091593564 0.73362684
0.01169183 0.0077945888 0.73249364
0.011744918 0.0065249503 0.73320568
0.011812842 0.0052501857 0.73411661
0.011891676 0.0039638877 0.735174
0.013440887 0.0029868782 0.75595248
0.013509811 0.001501143 0.75687695
0.013580978 -0 0.75783145
0.013652422 -0.0015169084 0.75878966
0.013700391 -0.0030445158 0.75943303
0.0137731 -0.004591018 0.76040816
