# .PCD v0.7 - Point Cloud Data file format
VERSION 0.7
FIELDS x y z
SIZE 4 4 4
TYPE F F F
COUNT 1 1 1
WIDTH 1331
HEIGHT 1
VIEWPOINT 0 0 0 1 0 0 0
POINTS 1331
DATA ascii
-0.031130129 0.014942497 0.72598886
-0.030996833 0.013638616 0.72534525
-0.031162852 0.012465149 0.72614688
-0.030189255 0.033962935 0.72751951
-0.029985182 0.032483965 0.72649318
-0.029988524 0.031238049 0.72650999
-0.029966218 0.029966265 0.72639769
-0.029877538 0.028632641 0.72595173
-0.029760463 0.02728042 0.7253629
-0.029446363 0.025765568 0.72378308
-0.028819406 0.024016172 0.72062975
-0.028645767 0.022677898 0.71975636
-0.028562175 0.021421641 0.71933597
-0.02870483 0.020332575 0.72005343
-0.030451179 0.020300806 0.72883689
-0.030350771 0.018969268 0.72833186
-0.030325275 0.017689764 0.72820365
-0.029964279 0.016230673 0.72638798
-0.029778743 0.014889389 0.72545481
-0.029604945 0.013568968 0.72458071
-0.029559612 0.012316495 0.72435266
-0.029704493 0.011139184 0.72508138
-0.029022356 0.035331577 0.72799706
-0.029054854 0.034107864 0.72816765
-0.029124951 0.032923847 0.72853553
-0.029157253 0.031692684 0.72870505
-0.029167682 0.03043586 0.72875977
-0.029184299 0.029184282 0.72884703
-0.02912665 0.027860254 0.72854447
-0.029027311 0.026503205 0.72802305
-0.028835958 0.02507475 0.72701883
-0.028461229 0.023511469 0.72505212
-0.027190024 0.021279156 0.71838045
-0.027141174 0.020060867 0.71812415
-0.02732772 0.019010574 0.7191031
-0.028198322 0.018390208 0.72367227
-0.028705249 0.017472804 0.72633278
-0.028625358 0.016179562 0.72591352
-0.028450489 0.014843762 0.72499573
-0.028370399 0.013568461 0.7245754
-0.028419329 0.012356251 0.72483218
-0.028595041 0.011189371 0.72575438
-0.028795334 0.010015786 0.72680557
-0.02813456 0.038365304 0.73004943
-0.027898708 0.036775589 0.7287553
-0.028010132 0.03564927 0.72936666
-0.028096713 0.03448233 0.72984177
-0.028171577 0.033293694 0.73025244
-0.028253624 0.03210637 0.73070276
-0.028324394 0.030899316 0.73109102
-0.028341616 0.029629886 0.7311855
-0.028358964 0.028358966 0.73128068
-0.028372647 0.02708298 0.73135573
-0.028274003 0.025703639 0.73081452
-0.028176041 0.024333894 0.73027694
-0.025912635 0.021201283 0.71785802
-0.0257865 0.019925952 0.71716595
-0.025807917 0.018769383 0.71728349
-0.026147785 0.017828047 0.71914828
-0.026761832 0.017030269 0.72251749
-0.027165545 0.016052365 0.72473258
-0.027134206 0.014800489 0.72456062
-0.027141239 0.013570666 0.72459918
-0.02732753 0.012421608 0.7256214
-0.027538104 0.011265606 0.72677672
-0.027725577 0.010082036 0.72780544
-0.027915619 0.0088822544 0.7288481
-0.028395306 0.0077441931 0.73148006
-0.02675459 0.038220853 0.72946811
-0.026861254 0.037094146 0.7300812
-0.026978044 0.035970747 0.73075259
-0.027095854 0.034837544 0.7314297
-0.027197251 0.03367278 0.73201257
-0.027278386 0.032474279 0.73247898
-0.027359905 0.031268448 0.73294753
-0.027442016 0.030055523 0.73341948
-0.027489778 0.028798819 0.73369408
-0.027506772 0.027506828 0.73379177
-0.027523894 0.026213259 0.73389018
-0.027492471 0.024874151 0.73370957
-0.027395548 0.023481905 0.73315245
-0.024504613 0.019837111 0.71653497
-0.024464358 0.018639505 0.71630359
-0.024605507 0.017575353 0.71711493
-0.025047066 0.016698062 0.71965301
-0.025487654 0.015778095 0.72218561
-0.025743751 0.014710724 0.72365767
-0.025765659 0.01349631 0.72378361
-0.026095631 0.012426496 0.72568035
-0.026466763 0.011342883 0.72781366
-0.025368387 0.0096641481 0.72150004
-0.026832115 0.0089440644 0.72991377
-0.027018601 0.0077196062 0.7309857
-0.027237352 0.0064851046 0.73224312
-0.025736099 0.039890975 0.73101044
-0.025880825 0.03882128 0.73188388
-0.026020953 0.037730426 0.73272967
-0.02591992 0.036287904 0.73211986
-0.026036259 0.035148948 0.73282206
-0.026153548 0.033999592 0.73352993
-0.02627001 0.03283751 0.7342329
-0.02635999 0.031632006 0.7347759
-0.026439922 0.030405939 0.7352584
-0.02652044 0.02917248 0.73574436
-0.02660135 0.027931452 0.73623264
-0.026626728 0.026626736 0.73638582
-0.026643572 0.025311381 0.73648751
-0.026660334 0.023994297 0.73658872
-0.023261018 0.019771874 0.71607196
-0.023180867 0.018544674 0.71558821
-0.023246467 0.017434835 0.71598417
-0.023551911 0.016486347 0.71782768
-0.023939645 0.015560776 0.72016788
-0.02421956 0.014531761 0.72185731
-0.024354091 0.013394773 0.72266924
-0.024242371 0.012121201 0.72199494
-0.024075745 0.010834128 0.72098923
-0.023969287 0.0095877349 0.72034675
-0.024035692 0.0084125102 0.72074759
-0.025913542 0.007774055 0.73208135
-0.026096191 0.006524086 0.73318374
-0.026282331 0.005256474 0.73430723
-0.024445944 0.041172147 0.73098916
-0.024594111 0.040127218 0.73193049
-0.024744272 0.039069921 0.73288453
-0.024889989 0.037990004 0.73381025
-0.025031166 0.036888063 0.73470712
-0.024989668 0.035511643 0.73444355
-0.025066141 0.034301013 0.73492932
-0.02518058 0.033132344 0.73565644
-0.02529607 0.031952947 0.73639011
-0.025413796 0.030764103 0.73713809
-0.025492497 0.029517651 0.73763806
-0.025571292 0.028263032 0.73813868
-0.025650475 0.027000517 0.73864174
-0.025717422 0.025717437 0.73906708
-0.025733862 0.024379462 0.7391715
-0.025753438 0.02304256 0.7392959
-0.021928344 0.018465966 0.71499437
-0.021963652 0.017339736 0.71521866
-0.022184774 0.016346663 0.71662349
-0.022507116 0.015399605 0.71867138
-0.022810554 0.014406651 0.72059917
-0.023013234 0.013323456 0.72188681
-0.022940384 0.012073904 0.72142398
-0.022804014 0.010801911 0.72055763
-0.022681795 0.0095502436 0.7197811
-0.022690371 0.008359611 0.71983564
-0.022993036 0.0072609782 0.72175854
-0.024968781 0.0065707564 0.73431081
-0.025147298 0.005294174 0.73544496
-0.02532829 0.0039992034 0.73659486
-0.025597269 0.0026944876 0.73830366
-0.0231486 0.042439133 0.73091727
-0.023085203 0.041040361 0.73049212
-0.023294738 0.040118754 0.73189723
-0.023579635 0.039299399 0.73380792
-0.023725701 0.038224757 0.7347874
-0.023871494 0.037133425 0.7357651
-0.024013003 0.036019534 0.73671407
-0.02415088 0.034884602 0.73763871
-0.024069743 0.033430189 0.73709464
-0.024181133 0.032241523 0.73784161
-0.024293561 0.031041771 0.73859555
-0.024409039 0.029833287 0.73936999
-0.024516391 0.028602481 0.74008989
-0.02459332 0.027325898 0.74060577
-0.024674917 0.026045769 0.741153
-0.024755981 0.024756014 0.7416966
-0.024806153 0.023428023 0.74203312
-0.020698115 0.018398345 0.71448398
-0.020717038 0.017264217 0.71461087
-0.020892398 0.016249657 0.71578687
-0.021169243 0.015288889 0.71764338
-0.021456981 0.014304668 0.71957308
-0.021664567 0.013239443 0.72096515
-0.021668244 0.012037933 0.72098982
-0.021539817 0.010769933 0.72012854
-0.021458086 0.0095369518 0.71958041
-0.021471124 0.0083498955 0.71966785
-0.021611866 0.0072039664 0.72061169
-0.021978451 0.006105125 0.72307014
-0.022402616 0.0049783289 0.7259146
-0.024170667 0.0040284395 0.73777139
-0.024347275 0.0027052462 0.7389558
-0.024536395 0.0013631582 0.740224
-0.02175035 0.042221278 0.73012042
-0.021894658 0.041213453 0.73114514
-0.022046322 0.040202141 0.73222202
-0.022198435 0.039173722 0.73330212
-0.022375438 0.038169891 0.734559
-0.022681559 0.037357926 0.7367326
-0.022823265 0.036248714 0.73773885
-0.02296613 0.035124689 0.73875326
-0.023103202 0.033975303 0.7397266
-0.023238994 0.032808006 0.74069083
-0.023153914 0.031325877 0.74008667
-0.023263063 0.030105144 0.74086165
-0.023376115 0.028876394 0.74166441
-0.023496062 0.027642429 0.74251616
-0.02359404 0.02636978 0.74321181
-0.023663606 0.025055587 0.74370575
-0.023588387 0.023588389 0.74317169
-0.019485863 0.018339634 0.71404117
-0.019498341 0.017204434 0.71412981
-0.01964731 0.016180128 0.71518755
-0.019888766 0.015209049 0.71690202
-0.020140143 0.014216602 0.71868694
-0.020331677 0.013155818 0.720047
-0.020398237 0.011998981 0.72051966
-0.02030861 0.010751665 0.7198832
-0.020301839 0.0095538199 0.71983516
-0.020391125 0.0083963573 0.72046912
-0.020536883 0.0072483122 0.72150409
-0.020684812 0.0060837865 0.7225545
-0.020955218 0.0049306452 0.72447449
-0.021351593 0.0037679374 0.72728908
-0.023165265 0.002725333 0.74016732
-0.023337049 0.0013727546 0.74138701
-0.023511399 2.9802322e-08 0.742625
-0.024142442 -0.0014201403 0.74710584
-0.020581942 0.043736637 0.7309581
-0.020533064 0.042349428 0.73058933
-0.020687787 0.041375577 0.73175663
-0.020836268 0.040370286 0.73287684
-0.020983646 0.039344341 0.7339887
-0.021130312 0.038298696 0.73509526
-0.021278881 0.037238061 0.73621601
-0.021436907 0.036174804 0.73740828
-0.021740364 0.03532809 0.73969769
-0.021886805 0.034198165 0.74080253
-0.022026327 0.03303951 0.74185514
-0.022158803 0.031853318 0.74285454
-0.022098206 0.030385047 0.74239743
-0.022203939 0.029142678 0.74319506
-0.022326635 0.027908295 0.74412078
-0.022382094 0.026578724 0.7445392
-0.022300843 0.025088459 0.74392617
-0.022213165 0.023601502 0.74326473
-0.018285168 0.018285185 0.71363026
-0.018300517 0.01715672 0.71374601
-0.018436152 0.016131639 0.7147693
-0.018649578 0.015152782 0.71637952
-0.018870244 0.014152706 0.71804434
-0.019033562 0.013085604 0.71927649
-0.01913326 0.011958331 0.72002864
-0.019129442 0.010760307 0.71999979
-0.01919443 0.0095972419 0.7204901
-0.019329906 0.008456856 0.7215122
-0.019469149 0.0073009133 0.72256267
-0.019610412 0.0061282516 0.7236284
-0.019753672 0.0049384236 0.72470927
-0.019924212 0.0037358105 0.7259959
-0.020284563 0.0025355816 0.72871453
-0.020708902 0.0012943149 0.73191589
-0.022296282 -0 0.74389172
-0.022465302 -0.0014040768 0.74516696
-0.022671523 -0.0028339028 0.74672276
-0.019187599 0.0434919 0.73008919
-0.019299358 0.042458564 0.73098862
-0.019444292 0.041481137 0.73215491
-0.019594586 0.040495455 0.7333644
-0.019749541 0.039499104 0.73461133
-0.019896632 0.038466841 0.73579502
-0.020037685 0.037403703 0.73693013
-0.020180125 0.036324203 0.73807645
-0.020324685 0.035229474 0.73923975
-0.020471813 0.034119725 0.74042374
-0.02073388 0.033174217 0.74253267
-0.020915346 0.03207022 0.74399304
-0.021050077 0.030873448 0.74507725
-0.021112237 0.029557168 0.74557745
-0.021055009 0.028073341 0.74511695
-0.020988114 0.026584923 0.74457866
-0.020912409 0.025094867 0.74396938
-0.02083558 0.023613662 0.74335116
-0.017098481 0.018238395 0.71327728
-0.01712179 0.017121762 0.71346486
-0.017250314 0.016100317 0.71449912
-0.017440511 0.015115082 0.71602976
-0.017635006 0.014108032 0.71759486
-0.017778108 0.013037294 0.71874648
-0.017880265 0.011920184 0.71956855
-0.017929347 0.010757595 0.71996355
-0.018098315 0.0096524358 0.72132331
-0.018253351 0.008518219 0.72257096
-0.0183858 0.0073543489 0.72363675
-0.018520186 0.0061734021 0.72471827
-0.018656483 0.0049750507 0.72581512
-0.01879487 0.0037589967 0.72692877
-0.018935256 0.0025247037 0.72805846
-0.019201383 0.001280129 0.73020005
-0.019581703 -0 0.73326069
-0.021223567 -0.0014148951 0.74647343
-0.021386944 -0.0028516054 0.74778819
-0.021554459 -0.0043108761 0.74913621
-0.01790032 0.043472201 0.73001933
-0.018050497 0.042547613 0.73131418
-0.018192733 0.041583389 0.73254049
-0.018335775 0.040600687 0.73377383
-0.018481156 0.039602488 0.73502743
-0.018628789 0.038588256 0.73630023
-0.018778872 0.037557751 0.73759431
-0.018919535 0.036487699 0.7388072
-0.019055679 0.035389155 0.73998106
-0.019193722 0.034274518 0.7411713
-0.019333854 0.033143759 0.74237955
-0.019475972 0.03199628 0.7436049
-0.019667709 0.030906409 0.74525809
-0.019703716 0.029555589 0.74556851
-0.019648008 0.028068572 0.74508822
-0.019586856 0.026582181 0.74456096
-0.019524984 0.025103539 0.7440275
-0.015986221 0.019411832 0.71351552
-0.015924573 0.018199503 0.71298409
-0.015956802 0.017096579 0.7132619
-0.016085653 0.016085654 0.71437293
-0.016253771 0.01509282 0.7158224
-0.016426602 0.014079958 0.71731263
-0.016553264 0.013006151 0.71840477
-0.016639156 0.011885107 0.7191453
-0.016668975 0.010715783 0.71940243
-0.016919434 0.009668231 0.72156191
-0.017161049 0.0085805357 0.72364515
-0.017286489 0.0074085295 0.72472674
-0.017413778 0.006219238 0.72582424
-0.017542891 0.005012244 0.72693753
-0.017673997 0.0037872791 0.72806787
-0.017807012 0.0025438368 0.72921479
-0.017942112 0.0012815893 0.73037964
-0.018106462 -0 0.73179674
-0.018455774 -0.0013182461 0.73480856
-0.019183125 -0.002740413 0.74107993
-0.020274706 -0.0043445528 0.75049174
-0.020434566 -0.005838424 0.7518701
-0.020764362 -0.0074158311 0.75471365
-0.016674247 0.044892222 0.73050702
-0.0166336 0.043503284 0.7301296
-0.016773811 0.042579681 0.73143148
-0.016917357 0.041642725 0.73276442
-0.017066926 0.040698081 0.73415315
-0.017206177 0.039706558 0.73544621
-0.017343989 0.038690418 0.73672581
-0.017484026 0.037657946 0.73802608
-0.01762641 0.036608696 0.73934817
-0.017771065 0.03554216 0.74069142
-0.017906748 0.034436077 0.74195129
-0.018037746 0.033300489 0.74316764
-0.018170748 0.032148272 0.74440265
-0.018309064 0.030984551 0.74568701
-0.018287271 0.029540986 0.74548459
-0.018238759 0.028059632 0.74503416
-0.018187063 0.026581079 0.74455416
-0.018132308 0.025106311 0.74404573
-0.014794706 0.019346923 0.71305466
-0.014760141 0.018166333 0.71273369
-0.014804501 0.017082155 0.71314555
-0.014935245 0.016084105 0.71435964
-0.015083614 0.015083611 0.71573728
-0.015238095 0.014065951 0.71717167
-0.015350569 0.012988955 0.71821606
-0.015410637 0.01185438 0.71877378
-0.015402125 0.010663003 0.71869481
-0.015549253 0.0095687807 0.72006094
-0.016052654 0.0086437464 0.72473526
-0.016170805 0.0074634552 0.72583234
-0.016290765 0.0062656701 0.72694623
-0.016412523 0.0050500333 0.72807676
-0.016536111 0.0038160384 0.72922438
-0.016661515 0.0025633276 0.73038876
-0.016788898 0.0012914538 0.73157156
-0.016918244 2.9802322e-08 0.73277259
-0.017049983 -0.0013115108 0.73399585
-0.017307572 -0.0026626885 0.73638767
-0.0176675 -0.0040771365 0.73972976
-0.019126968 -0.0058852136 0.75328159
-0.019280123 -0.0074154437 0.75470376
-0.019447464 -0.008975774 0.75625753
-0.015299781 0.044624388 0.72958326
-0.015354545 0.043504566 0.73013413
-0.015491283 0.042601019 0.73150969
-0.015625091 0.041666925 0.73285556
-0.015763316 0.040721923 0.73424602
-0.015904009 0.039760053 0.73566127
-0.016047174 0.038780689 0.73710138
-0.016182257 0.037758619 0.7384603
-0.016314331 0.036707252 0.73978883
-0.016448647 0.03563872 0.74113995
-0.016585125 0.034552366 0.74251276
-0.016725967 0.033451974 0.74392951
-0.01685831 0.032311797 0.74526083
-0.016909858 0.031001419 0.7457794
-0.016868675 0.029520214 0.74536508
-0.01682613 0.028043598 0.74493712
-0.01678353 0.026573956 0.74450856
-0.016745917 0.025118858 0.74413025
-0.013621408 0.019296974 0.71270013
-0.013612292 0.018149734 0.7126084
-0.013670981 0.017088711 0.71319878
-0.013795001 0.016094178 0.71444631
-0.013925568 0.015086025 0.71575975
-0.014060195 0.014060199 0.71711397
-0.014159892 0.012979895 0.71811688
-0.014189334 0.011824429 0.718413
-0.014168456 0.010626346 0.71820295
-0.014266526 0.0095110536 0.71918952
-0.014868452 0.0086733103 0.72524434
-0.015033131 0.0075165927 0.72690094
-0.015150902 0.0063128769 0.72808564
-0.015264998 0.0050883591 0.72923338
-0.015380825 0.0038452148 0.73039848
-0.015498366 0.0025831163 0.73158085
-0.015617777 0.0013014674 0.73278201
-0.015738981 -0 0.73400122
-0.015862143 -0.0013218224 0.7352401
-0.015987247 -0.0026645362 0.73649853
-0.016145226 -0.0040363073 0.73808777
-0.016475294 -0.0054917634 0.74140799
-0.017938375 -0.0074743032 0.75612545
-0.018090138 -0.0090450346 0.75765204
-0.018241694 -0.010640979 0.75917661
-0.013974089 0.044463009 0.72902668
-0.014058122 0.043452382 0.72994894
-0.014190011 0.042570025 0.7313962
-0.014327941 0.041681319 0.7329098
-0.014458179 0.040745765 0.73433906
-0.014587244 0.039783388 0.73575532
-0.01471869 0.038803816 0.73719776
-0.014852469 0.037806302 0.73866582
-0.01498876 0.036790609 0.74016154
-0.01511902 0.035735846 0.74159086
-0.015244933 0.034647584 0.74297261
-0.015377227 0.033550322 0.74442434
-0.015503659 0.032416791 0.74581182
-0.015482745 0.030965477 0.74558234
-0.015448391 0.029492378 0.74520528
-0.015413814 0.02802512 0.74482584
-0.015376794 0.026559949 0.74441963
-0.015449014 0.025280237 0.7452122
-0.012463815 0.019262254 0.71245348
-0.012474473 0.018144697 0.71257043
-0.012549425 0.017112851 0.71339297
-0.01266167 0.016114861 0.71462464
-0.012777179 0.01510033 0.7158922
-0.012886339 0.014057815 0.71709013
-0.012974657 0.012974679 0.7180593
-0.012971047 0.011791855 0.71801972
-0.012951927 0.01059702 0.71780986
-0.013037102 0.0094815493 0.71874452
-0.013607676 0.0086594522 0.72500587
-0.013784396 0.0075187683 0.7269451
-0.013960563 0.0063457191 0.72887832
-0.014099922 0.005127281 0.7304076
-0.014207734 0.0038748384 0.73159075
-0.014317153 0.0026031733 0.73279142
-0.014428325 0.0013116598 0.73401141
-0.014541183 -0 0.73524988
-0.014655874 -0.0013323426 0.73650849
-0.01477239 -0.0026858449 0.73778707
-0.014890716 -0.0040610731 0.73908556
-0.015011838 -0.0054588616 0.74041468
-0.015258504 -0.0069356561 0.7431215
-0.015586989 -0.0085020065 0.74672627
-0.01686335 -0.01073119 0.76073265
-0.017007042 -0.012368739 0.76230943
-0.017189305 -0.014063925 0.76430953
-0.012660946 0.044313312 0.72851044
-0.012757027 0.043373913 0.72967023
-0.012877922 0.042497128 0.73112959
-0.01300332 0.041610628 0.73264325
-0.013131729 0.040708363 0.73419327
-0.013262751 0.039788246 0.73577487
-0.013388567 0.038826853 0.73729366
-0.013510382 0.037829071 0.73876405
-0.013634433 0.036812961 0.7402615
-0.013760839 0.035778195 0.74178731
-0.013891165 0.034727931 0.74336052
-0.014015893 0.033638149 0.74486613
-0.014086749 0.032399505 0.7457214
-0.014057286 0.030926019 0.74536574
-0.014027775 0.029458344 0.7450096
-0.013997655 0.027995318 0.74464601
-0.014014932 0.026628375 0.74485457
-0.011345355 0.020421654 0.71262985
-0.01132129 0.019246221 0.71233934
-0.011349431 0.018159091 0.71267903
-0.011434848 0.01715228 0.71371019
-0.011532499 0.016145527 0.71488893
-0.011635494 0.015126169 0.71613216
-0.011712722 0.014055252 0.71706438
-0.011788781 0.012967676 0.71798253
-0.011760293 0.011760294 0.71763861
-0.011754285 0.010578871 0.71756613
-0.011837779 0.0094702244 0.71857399
-0.012359614 0.0086517632 0.72487307
-0.012511776 0.0075070858 0.72670984
-0.012675402 0.0063377321 0.7286849
-0.012916937 0.0051667988 0.73160052
-0.013016422 0.0039049685 0.73280144
-0.013117451 0.0026235282 0.73402089
-0.013220112 0.001322031 0.73526019
-0.01332434 2.9802322e-08 0.73651832
-0.013430276 -0.0013430119 0.73779708
-0.013537912 -0.0027075708 0.7390964
-0.013647232 -0.0040941238 0.74041593
-0.013758387 -0.0055033565 0.74175775
-0.013871312 -0.0069356859 0.74312085
-0.014019229 -0.0084115267 0.74490643
-0.014321843 -0.010025263 0.74855918
-0.014652622 -0.011722088 0.75255215
-0.015729496 -0.01415652 0.76555115
-0.015868424 -0.015868425 0.76722813
-0.011356121 0.04416272 0.72799098
-0.011443051 0.043229312 0.72915697
-0.011562319 0.042395204 0.73075658
-0.011683137 0.041540056 0.73237705
-0.011798358 0.040638804 0.73392236
-0.011915872 0.039719582 0.73549855
-0.012035705 0.038781732 0.73710573
-0.012158019 0.037824959 0.73874629
-0.012278458 0.036835372 0.74036169
-0.012392313 0.03580004 0.74188864
-0.012510952 0.034752637 0.74347997
-0.012632088 0.033685565 0.74510461
-0.012655142 0.032340944 0.7454139
-0.012628925 0.030870676 0.74506223
-0.012603984 0.029409319 0.74472773
-0.01257985 0.027955234 0.74440402
-0.012660163 0.026727051 0.74548113
-0.010192349 0.020384669 0.71238214
-0.010193178 0.01925379 0.71239328
-0.010238733 0.018202215 0.71300429
-0.010321015 0.017201692 0.71410787
-0.010406432 0.016187787 0.71525347
-0.010495915 0.015160799 0.71645361
-0.010556395 0.01407519 0.71726477
-0.010600624 0.012956351 0.71785808
-0.010560673 0.011734098 0.71732217
-0.010570453 0.010570467 0.71745342
-0.010659231 0.0094748735 0.71864408
-0.011128047 0.0086551607 0.72493196
-0.011258774 0.0075058937 0.72668535
-0.011392734 0.006329298 0.72848213
-0.011715482 0.005206883 0.73281085
-0.011806464 0.0039354861 0.7340312
-0.011898825 0.0026442111 0.73526984
-0.011992688 0.0013325512 0.73652875
-0.012087996 -0 0.7378071
-0.012172359 -0.0013524592 0.73893857
-0.012275855 -0.0027279556 0.7403267
-0.012383332 -0.0041277707 0.7417683
-0.012485028 -0.0055489242 0.74313223
-0.012588357 -0.0069935024 0.74451816
-0.012693462 -0.0084623098 0.74592781
-0.012801385 -0.0099566281 0.74737525
-0.013029288 -0.01158157 0.75043201
-0.013320715 -0.013320714 0.75434071
-0.010059662 0.044011027 0.72746795
-0.01012562 0.043033868 0.72846311
-0.010232256 0.042208076 0.73007214
-0.010343471 0.041373879 0.73175025
-0.01045772 0.040523678 0.73347414
-0.010573636 0.039651126 0.73522317
-0.010679826 0.038714379 0.73682541
-0.010788129 0.03775847 0.73845959
-0.010898694 0.036783099 0.74012792
-0.011011505 0.035787374 0.74183011
-0.011125474 0.034767121 0.74354976
-0.011232379 0.033697158 0.74516279
-0.011226209 0.032275379 0.74506974
-0.011204263 0.030811727 0.74473864
-0.011182583 0.029354274 0.74441147
-0.011173908 0.02793476 0.74428058
-0.0090772016 0.021558374 0.71264374
-0.0090578878 0.020380259 0.71235228
-0.0090757199 0.019285917 0.71262145
-0.0091353431 0.018270701 0.713521
-0.0092058647 0.017260998 0.71458507
-0.009280798 0.016241401 0.71571577
-0.0093472395 0.01518926 0.71671826
-0.0094040642 0.014106095 0.71757567
-0.009405815 0.012933016 0.71760213
-0.0093662944 0.011707872 0.71700573
-0.0093902135 0.010563999 0.7173667
-0.0094901714 0.0094901919 0.71887493
-0.0099011455 0.0086635351 0.72507602
-0.010012918 0.0075097382 0.72676259
-0.010131968 0.0063325167 0.7285589
-0.010495269 0.0052476525 0.73404068
-0.010577417 0.0039665699 0.73528016
-0.010660822 0.0026652515 0.73653865
-0.010745591 0.0013431907 0.73781782
-0.010809986 -0 0.73878944
-0.010826912 -0.0013533533 0.73904479
-0.010933201 -0.0027332902 0.74064863
-0.011098556 -0.0041619241 0.74314356
-0.011190461 -0.0055952072 0.74453032
-0.011283856 -0.0070523918 0.74593955
-0.011378823 -0.0085341036 0.74737251
-0.011475448 -0.010041028 0.7488305
-0.011573681 -0.011573672 0.75031269
-0.011708175 -0.013171673 0.75234205
-0.011970093 -0.014962584 0.75629407
-0.012389485 -0.017035544 0.76262224
-0.0087754019 0.043877035 0.72700566
-0.0088024586 0.042754769 0.72747231
-0.008906506 0.041987836 0.72926652
-0.00901007 0.041188896 0.7310524
-0.0091091413 0.040340483 0.73276085
-0.0092104496 0.039473385 0.73450786
-0.0093140379 0.038586706 0.73629415
-0.0094199814 0.03767994 0.73812103
-0.0095194494 0.036717921 0.73983634
-0.0096178465 0.035723418 0.74153316
-0.0097219497 0.034721285 0.74332833
-0.0098134214 0.033646017 0.74490571
-0.0097979642 0.032193333 0.74463922
-0.0097797243 0.030736297 0.74432468
-0.009761787 0.029285401 0.74401534
-0.0097712772 0.027917981 0.74417901
-0.0079348302 0.021537393 0.71251059
-0.0079357624 0.020406276 0.71252662
-0.0079702968 0.01935643 0.71312219
-0.0080284644 0.01835078 0.71412516
-0.0080890739 0.017333746 0.71517038
-0.0081522437 0.016304493 0.71625972
-0.0081912838 0.015212417 0.71693295
-0.0082355207 0.014118046 0.71769583
-0.0082063461 0.012895703 0.71719265
-0.0081650512 0.011664361 0.71648061
-0.0081718266 0.01050666 0.71659744
-0.0082786046 0.0094612837 0.71843874
-0.0086832037 0.0086832047 0.72541583
-0.0087765418 0.0075227618 0.72702533
-0.0088719074 0.0063370764 0.72866994
-0.0092558041 0.005289048 0.73528993
-0.0093288273 0.003998071 0.73654914
-0.0094029745 0.0026865602 0.73782778
-0.0094683114 0.0013525784 0.73895448
-0.0094836317 -0 0.73921871
-0.0094637796 -0.0013519824 0.7388764
-0.0094814505 -0.0027090013 0.7391811
-0.009792245 -0.0041966438 0.74454051
-0.0098740151 -0.0056422651 0.74595058
-0.0099571217 -0.0071122348 0.74738371
-0.01004168 -0.0086071491 0.74884188
-0.010127687 -0.010127693 0.75032502
-0.010215309 -0.011674643 0.751836
-0.010306164 -0.013250798 0.75340277
-0.010399627 -0.014856577 0.75501442
-0.010591962 -0.016644508 0.75833118
-0.010846213 -0.01859352 0.76271558
-0.0075093638 0.043804616 0.72675604
-0.0074799429 0.042386383 0.7261641
-0.0075719845 0.041645914 0.7280159
-0.007664402 0.040876806 0.72987521
-0.0077604325 0.040095627 0.73180717
-0.0078587523 0.039293766 0.73378521
-0.0079467306 0.038409173 0.73555523
-0.0080366703 0.037504494 0.73736459
-0.0081287017 0.036579162 0.73921621
-0.0082228631 0.035632402 0.74111056
-0.0083161807 0.034650773 0.74298793
-0.0083904481 0.033561796 0.7444821
-0.0083757173 0.032106936 0.74418575
-0.0083592953 0.030650765 0.74385536
-0.0083432375 0.029201329 0.7435323
-0.0083581554 0.027860522 0.74383241
-0.0068078791 0.021558285 0.71264327
-0.0068244147 0.020473242 0.71297592
-0.006868165 0.019459814 0.71385616
-0.0069159651 0.018442571 0.71481776
-0.0069670654 0.017417699 0.71584582
-0.0070110895 0.01635921 0.71673161
-0.0070502572 0.015275568 0.71751958
-0.0070536686 0.014107317 0.71758819
-0.0070136604 0.012858391 0.71678329
-0.0069903089 0.011650532 0.71631348
-0.006996267 0.010494411 0.71643335
-0.0070417561 0.0093890131 0.71734852
-0.0071432106 0.0083337724 0.71938956
-0.0072692125 0.0072692335 0.7219246
-0.007934059 0.0066117048 0.73530024
-0.0079966281 0.005331099 0.73655903
-0.0080602225 0.0040301085 0.73783851
-0.0081211654 0.0027070642 0.73906451
-0.0081428289 0.001357168 0.7395004
-0.0081319669 -0 0.73928189
-0.0080921333 -0.0013487041 0.73848039
-0.0080733635 -0.0026911199 0.73810285
-0.0084639909 -0.0042319596 0.74596167
-0.0085352696 -0.0056901574 0.74739569
-0.0086077228 -0.0071730614 0.74885333
-0.0086668376 -0.0086668134 0.75004256
-0.0087534804 -0.010212392 0.75178576
-0.0088341534 -0.011778861 0.75340879
-0.0089135077 -0.013370246 0.7550053
-0.0089942617 -0.014990389 0.75662994
-0.0090764929 -0.016640216 0.75828421
-0.0091848988 -0.018369764 0.7604652
-0.0061829742 0.042044252 0.72494954
-0.0062453635 0.041219413 0.72645575
-0.0063445284 0.040605009 0.72884977
-0.0064131008 0.039761245 0.73050523
-0.0064940043 0.038964063 0.73245841
-0.0065767011 0.038144886 0.73445499
-0.0066615315 0.03730461 0.73650295
-0.0067421617 0.036407679 0.73844951
-0.0068199197 0.035463601 0.7403267
-0.0069022877 0.034511417 0.74231523
-0.00697002 0.033456117 0.74395049
-0.006956568 0.032000214 0.7436257
-0.0069429735 0.030549109 0.74329752
-0.0069288514 0.029101193 0.74295664
-0.0056832172 0.022732854 0.71288431
-0.0056900671 0.02162227 0.71304965
-0.0057204175 0.020593524 0.71378243
-0.0057576885 0.019576162 0.71468222
-0.0057968991 0.018550068 0.7156288
-0.0058367448 0.017510235 0.71659082
-0.0058614383 0.01641205 0.71718699
-0.0058849663 0.015300959 0.71775496
-0.0058616758 0.014068037 0.71719271
-0.0058368626 0.012841105 0.71659362
-0.0058368822 0.011673778 0.7165941
-0.0058661886 0.010559171 0.71730161
-0.0059113977 0.0094582438 0.71839309
-0.0059573092 0.0083402395 0.7195015
-0.0060075931 0.0072090924 0.72071546
-0.006100195 0.0061002076 0.72295105
-0.0062093148 0.0049674809 0.72558546
-0.0067707757 0.0040624738 0.73914033
-0.0067953253 0.0027181506 0.73973298
-0.0067909425 0.001358211 0.73962712
-0.0067617372 -0 0.73892212
-0.0067252237 -0.0013450384 0.73804063
-0.0067073866 -0.0026829541 0.73760998
-0.0071132197 -0.004267931 0.74740767
-0.0071736062 -0.0057388842 0.74886549
-0.00720846 -0.0072084367 0.74970692
-0.0072144764 -0.008657366 0.74985218
-0.0073262183 -0.010256678 0.75254989
-0.0074281776 -0.011885077 0.75501144
-0.0074954773 -0.013491869 0.75663614
-0.0075640078 -0.015128016 0.75829065
-0.0076338029 -0.016794384 0.75997561
-0.0077049318 -0.018491834 0.76169288
-0.0049346131 0.041944206 0.72459447
-0.0049132789 0.040534556 0.72395062
-0.004994926 0.039959431 0.72641456
-0.0050854096 0.039411902 0.72914511
-0.0051431055 0.038573325 0.73088628
-0.0052168877 0.037822455 0.73311287
-0.005283602 0.036985219 0.73512608
-0.0053520449 0.036126286 0.73719156
-0.0054223049 0.035245001 0.73931181
-0.0054933708 0.034333557 0.74145645
-0.0055543785 0.033326268 0.74329758
-0.0045957789 0.026425749 0.7143693
-0.0045698793 0.025134325 0.71358764
-0.0045588468 0.023933947 0.71325469
-0.0045615104 0.022807539 0.71333504
-0.0045807082 0.021758348 0.71391445
-0.0046086255 0.02073881 0.71475691
-0.0046370551 0.019707531 0.7156148
-0.0046676709 0.018670678 0.71653879
-0.0046861786 0.017573178 0.71709722
-0.0047105104 0.016486794 0.71783149
-0.0047029867 0.015284717 0.71760452
-0.0046796938 0.014039099 0.71690154
-0.0046759313 0.012858838 0.71678799
-0.004693252 0.011733115 0.71731073
-0.0047294237 0.010641187 0.71840233
-0.0047661411 0.0095323026 0.71951038
-0.0048034498 0.0084060729 0.72063625
-0.0048413477 0.0072620511 0.72177988
-0.0048798476 0.0060998201 0.72294176
-0.0049230945 0.004923135 0.72424686
-0.0050041699 0.0037531257 0.72669351
-0.0050949729 0.0025475025 0.72943372
-0.0054241251 0.0013560355 0.73936677
-0.0053947344 -0 0.73847985
-0.0053647081 -0.0013411939 0.73757374
-0.0053599086 -0.002679944 0.7374289
-0.0057392875 -0.0043044388 0.74887764
-0.0057743387 -0.0057743192 0.74993545
-0.0057767145 -0.0072208941 0.75000715
-0.0057565211 -0.0086347759 0.74939775
-0.0058001708 -0.010150254 0.7507149
-0.0059965891 -0.01199317 0.75664234
-0.0060514431 -0.013615698 0.7582978
-0.0061072833 -0.015268207 0.75998288
-0.0061641643 -0.016951442 0.76169944
-0.0067775394 -0.020332575 0.78020966
-0.0036622516 0.040284783 0.72303694
-0.0036522306 0.038957149 0.72263372
-0.0038016913 0.03928414 0.72864753
-0.0037969833 0.037969828 0.72845817
-0.0038569011 0.037283361 0.73086905
-0.0039152815 0.036542624 0.73321807
-0.0039754566 0.035779119 0.73563939
-0.0040312959 0.034937918 0.73788619
-0.0040854244 0.03404519 0.74006408
-0.0034565378 0.027652323 0.71475965
-0.0034394646 0.026369244 0.7140727
-0.0034317875 0.025166422 0.71376383
-0.0034324767 0.024027377 0.71379149
-0.0034446132 0.02296409 0.71427983
-0.0034639232 0.021938175 0.71505684
-0.0034836142 0.02090168 0.7158491
-0.0035042954 0.019857675 0.71668124
-0.0035199625 0.018773168 0.71731162
-0.0035358903 0.017679453 0.71795261
-0.0035361543 0.016502082 0.71796322
-0.0035170291 0.015240461 0.7171936
-0.0035106684 0.014042705 0.71693766
-0.0035213656 0.012911677 0.71736813
-0.003547285 0.01182431 0.71841103
-0.0035748389 0.010724515 0.71951973
-0.0036028242 0.0096075535 0.72064579
-0.0036312384 0.0084729195 0.72178906
-0.0036601173 0.007320255 0.72295105
-0.0036894588 0.0061491132 0.72413164
-0.0037192616 0.004959017 0.72533083
-0.0037495769 0.0037495792 0.72655064
-0.0037847687 0.0025232136 0.72796667
-0.0038509879 0.0012836456 0.73063111
-0.0039220434 2.9802322e-08 0.73349017
-0.0039920514 -0.0013306737 0.73630708
-0.0040251003 -0.0026833713 0.7376368
-0.0043352749 -0.0043352842 0.7501173
-0.0043404377 -0.0057871938 0.75032496
-0.0043286141 -0.0072143376 0.74984932
-0.0043061017 -0.0086121857 0.74894345
-0.0043195738 -0.010078996 0.74948549
-0.0045387405 -0.012103319 0.75830412
-0.0045792353 -0.013737708 0.75993353
-0.0045992779 -0.01533094 0.76074004
-0.0046563921 -0.017073423 0.7630381
-0.0050969734 -0.020387888 0.78076565
-0.0051060114 -0.022126049 0.78112936
-0.0052775312 -0.024628431 0.78803074
-0.0024494526 0.040415972 0.72351688
-0.0024186939 0.03869912 0.72166038
-0.0024011857 0.037218392 0.7206037
-0.0024352726 0.036529094 0.72266102
-0.0025136876 0.036448479 0.72739375
-0.0025616093 0.035862535 0.73028612
-0.0023413133 0.031607717 0.71699011
-0.0023260941 0.030239254 0.71607155
-0.0023131717 0.02891466 0.71529156
-0.0023039002 0.02764681 0.71473199
-0.0022989386 0.026437819 0.7144326
-0.0022990601 0.025289655 0.71443987
-0.0023076565 0.024230421 0.71495867
-0.0023184812 0.023184836 0.71561199
-0.002330564 0.022140324 0.71634132
-0.0023427734 0.021084964 0.71707815
-0.0023524726 0.019996017 0.71766365
-0.0023616741 0.018893421 0.71821898
-0.0023631037 0.017723292 0.71830523
-0.0023514933 0.016460449 0.71760446
-0.002338595 0.015200853 0.71682596
-0.0023389412 0.014033645 0.71684688
-0.0023578121 0.012967944 0.71798587
-0.002381576 0.011907935 0.71942014
-0.002402032 0.010809183 0.72065479
-0.0024209858 0.0096839368 0.72179872
-0.0024402409 0.0085408688 0.72296089
-0.0024597959 0.0073793828 0.72414112
-0.0024796759 0.0061992109 0.72534096
-0.0024998798 0.0049997568 0.72656041
-0.0025204064 0.0037806034 0.72779936
-0.0025412822 0.0025412738 0.72905928
-0.0025625161 0.0012812912 0.73034084
-0.0025882367 2.9802322e-08 0.73189318
-0.002636059 -0.0013180077 0.73477954
-0.0026842502 -0.0026842654 0.73768818
-0.0028987427 -0.0043480992 0.75063396
-0.0028927457 -0.0057854652 0.75027198
-0.0028782606 -0.0071956217 0.7493977
-0.0028632474 -0.0085897148 0.74849164
-0.0028707818 -0.010047734 0.74894637
-0.0030538698 -0.012215465 0.75999665
-0.0030659011 -0.013796598 0.76072282
-0.0030624154 -0.015312046 0.76051241
-0.0030894261 -0.016991824 0.76214266
-0.0034079473 -0.020447642 0.78136712
-0.0034134544 -0.022187471 0.78169954
-0.003421016 -0.02394712 0.78215593
-0.0035635666 -0.026726723 0.79075962
-0.0036980333 -0.029584259 0.79887533
-0.0012182212 0.038983077 0.72273159
-0.0012007089 0.037221968 0.72061765
-0.0011907473 0.035722435 0.71941531
-0.0011826658 0.034297317 0.7184397
-0.0011752734 0.032907665 0.7175473
-0.0011687586 0.031556487 0.71676093
-0.001163269 0.030245006 0.71609825
-0.0011593372 0.028983474 0.71562368
-0.0011573331 0.027775973 0.7153818
-0.0011583015 0.026640952 0.71549875
-0.0011622146 0.025568753 0.71597099
-0.0011669452 0.024505883 0.71654201
-0.0011718054 0.023436099 0.71712875
-0.0011773322 0.022369295 0.71779591
-0.0011804961 0.021248937 0.7181778
-0.0011849162 0.020143598 0.71871138
-0.0011850495 0.018960804 0.71872747
-0.0011825692 0.017738551 0.71842802
-0.001174213 0.016438991 0.71741939
-0.0011656925 0.015154034 0.71639079
-0.0011641147 0.013969392 0.71620041
-0.0011727666 0.012900472 0.71724474
-0.0011912738 0.011912763 0.71947879
-0.001206169 0.010855526 0.72127688
-0.0012189861 0.0097519159 0.72282392
-0.0012299502 0.0086096823 0.72414744
-0.0012399176 0.0074395239 0.72535062
-0.0012500208 0.0062501431 0.72657019
-0.00126029 0.0050411522 0.72780979
-0.0012707293 0.0038121939 0.72906995
-0.0012813384 0.0025627017 0.73035049
-0.0012921309 0.0012921095 0.73165333
-0.0013031067 -0 0.73297822
-0.0013142705 -0.0013142824 0.73432583
-0.0013283743 -0.002656728 0.73602825
-0.0013542871 -0.0040628612 0.73915625
-0.0014429132 -0.005771637 0.74985433
-0.0014353672 -0.0071768463 0.74894351
-0.0014250886 -0.0085505247 0.74770278
-0.0014348811 -0.010044158 0.7488848
-0.0015351652 -0.012281299 0.7609902
-0.001534406 -0.013809651 0.76089853
-0.0015279421 -0.015279412 0.76011825
-0.0015294487 -0.016823918 0.76030004
-0.0016201752 -0.019442081 0.7712518
-0.0017117552 -0.022252798 0.78230649
-0.001714534 -0.024003446 0.78264189
-0.0017248493 -0.025872707 0.78388703
-0.0017723043 -0.02835688 0.78961539
-0.0018358284 -0.031209081 0.79728341
0 0.040270984 0.73249012
0 0.036016315 0.72059774
0 0.034477472 0.71918952
0 0.033069074 0.71824318
0 0.03173539 0.71756077
0 0.030462027 0.71710593
0 0.02926898 0.71700245
0 0.028142244 0.7172237
0 0.027029186 0.71753633
0 0.02592063 0.71790189
0 0.024824858 0.71837556
0 0.023716271 0.71881974
0 0.022541612 0.71889061
0 0.021430194 0.71939355
0 0.020221025 0.71926123
0 0.019042969 0.7193473
0 0.017927051 0.71994519
0 0.016760588 0.72019225
0 0.01515162 0.71636862
0 0.013999909 0.71650708
0 0.012914538 0.71739924
0 0.01183477 0.71853745
0 0.010780901 0.72027546
0 0.0097466111 0.72274452
0 0.0086416304 0.72469866
0 0.0074902475 0.72637063
0 0.006301105 0.7278015
0 0.0050832331 0.72908002
0 0.0038443208 0.7303614
0 0.0025844276 0.73166376
0 0.001303196 0.73298883
0 -0 0.73433661
0 -0.0013256967 0.7357077
0 -0.0026745498 0.73710275
0 -0.004047066 0.73852217
0 -0.0054594874 0.74043477
0 -0.006962955 0.74378049
0 -0.0085060894 0.7468093
0 -0.010061145 0.74917787
0 -0.012300491 0.76127958
0 -0.013786584 0.76058906
0 -0.015225261 0.7594645
0 -0.016750395 0.75949347
0 -0.019370914 0.77053583
0 -0.021353513 0.773956
0 -0.023418427 0.77759743
0 -0.025627583 0.78191429
0 -0.027913779 0.78627264
0 -0.030413061 0.7916311
0 -0.033197314 0.79830551
0 -0.036827862 0.80965388
0.0012924048 0.040064543 0.73168635
0.0012841845 0.038525552 0.73069406
0.0012755153 0.036989957 0.72964764
0.0012347581 0.034573227 0.72472781
0.0012069818 0.032588512 0.72137493
0.0011996891 0.031191945 0.72049457
0.001196467 0.029911667 0.72010571
0.0011954338 0.028690398 0.71998096
0.0011957958 0.027503312 0.72002465
0.0011970646 0.026335418 0.72017783
0.0011957876 0.025111556 0.72002363
0.0011980016 0.023960084 0.7202909
0.001197341 0.022749513 0.72021115
0.0011941725 0.021495104 0.71982872
0.0011946652 0.020309329 0.71988815
0.001200904 0.019214451 0.72064126
0.0012277642 0.018416464 0.72388363
0.0012348151 0.017287403 0.72473466
0.001242236 0.016149104 0.7256304
0.0011750589 0.014100671 0.71752149
0.0011838948 0.01302284 0.71858811
0.0011930204 0.011930227 0.71968961
0.0012023709 0.010821342 0.72081834
0.0012120594 0.0096965134 0.72198778
0.0012249335 0.0085745156 0.72354186
0.0012466349 0.0074797869 0.72616148
0.0012642288 0.006321162 0.72828525
0.0012791968 0.0051167905 0.73009205
0.001292006 0.0038760304 0.73163825
0.0013032876 0.0026065707 0.73300004
0.0013144496 0.0013144612 0.73434746
0.0013258095 -0 0.73571873
0.0013373675 -0.0013373494 0.73711383
0.0013491287 -0.0026982427 0.73853356
0.0013610987 -0.0040832758 0.73997843
0.001373283 -0.0054931343 0.74144924
0.0013856874 -0.0069284141 0.74294662
0.0014035256 -0.008421123 0.74509978
0.0014331352 -0.010031968 0.74867404
0.0015357692 -0.012286156 0.7610631
0.0015266867 -0.013740182 0.75996667
0.0015089845 -0.015089869 0.7578299
0.0015208664 -0.016729563 0.75926417
0.0016177689 -0.019413233 0.77096128
0.001637438 -0.021286696 0.77333558
0.0016659597 -0.023323417 0.77677846
0.0016966601 -0.025449872 0.78048426
0.0017291754 -0.027666807 0.78440928
0.001766394 -0.030028731 0.78890193
0.0018089529 -0.032561153 0.79403925
0.001859625 -0.035332888 0.80015594
0.0019280376 -0.038560718 0.80841404
0.0025766157 0.039937556 0.73119181
0.0025622421 0.038433641 0.73032427
0.0025568686 0.037074625 0.73000002
0.0025343869 0.035481423 0.72864312
0.0025070675 0.033845454 0.72699422
0.0024767595 0.032197863 0.72516501
0.0024464088 0.030580133 0.72333312
0.0024350593 0.02922073 0.72264808
0.002430605 0.027951986 0.72237933
0.0024252271 0.026677519 0.72205472
0.002417289 0.025381535 0.72157562
0.0024076828 0.024076819 0.72099584
0.0024007626 0.02280724 0.72057813
0.0024014844 0.021613389 0.72062171
0.0024127653 0.020508528 0.72130257
0.0024768831 0.019815058 0.72517246
0.0024893221 0.018669963 0.72592318
0.0025018959 0.017513275 0.72668207
0.0025156713 0.016351879 0.72751355
0.0025304095 0.015182465 0.72840297
0.0025454615 0.014000058 0.72931147
0.0024087427 0.012043744 0.7210598
0.0024256927 0.010915637 0.72208285
0.0024447651 0.0097790658 0.72323394
0.0024643494 0.0086252093 0.72441596
0.002484543 0.0074536502 0.72563475
0.002508434 0.0062711239 0.72707671
0.0025518644 0.0051037669 0.72969794
0.0025908034 0.0038862228 0.73204815
0.0026231834 0.0026232004 0.73400241
0.0026508705 0.0013254583 0.73567349
0.0026749203 2.9802322e-08 0.73712504
0.0026984459 -0.0013492107 0.73854494
0.0027223893 -0.0027223825 0.73999006
0.0027467506 -0.0041201115 0.74146032
0.0027715627 -0.0055431128 0.74295795
0.0027968385 -0.0069921017 0.74448341
0.0028225679 -0.0084677041 0.74603635
0.0028487751 -0.0099706948 0.74761814
0.002889426 -0.011557728 0.75007164
0.0029516469 -0.013282418 0.75382698
0.003003374 -0.015016854 0.75694895
0.0030457189 -0.016751438 0.75950468
0.003267915 -0.019607455 0.77291548
0.0033008216 -0.021455288 0.77490151
0.0033343975 -0.023340762 0.77692795
0.0033804944 -0.0253537 0.77971017
0.0034431012 -0.027544767 0.78348887
0.0035073271 -0.029812306 0.78736526
0.0035799046 -0.032219112 0.79174566
0.0036621373 -0.034790307 0.79670882
0.0037582302 -0.037582308 0.80250853
0.0038768773 -0.040707201 0.80966961
0.003874246 0.040033877 0.73156697
0.0038518701 0.038518727 0.73066664
0.0038592429 0.037306041 0.73096323
0.003973017 0.03708151 0.73554116
0.0037572128 0.033814967 0.7268579
0.0037338093 0.032359689 0.72591627
0.0037108012 0.030923337 0.72499049
0.003687788 0.029502332 0.72406447
0.003667457 0.02811718 0.7232464
0.0036490855 0.026759982 0.72250718
0.0036344288 0.025441021 0.72191745
0.0036276116 0.024184078 0.72164315
0.0036335166 0.023012251 0.72188079
0.0037590282 0.022554219 0.72693092
0.0037676692 0.021350145 0.72727859
0.0037793897 0.020156741 0.72775024
0.0037943572 0.018971831 0.72835243
0.003810321 0.017781526 0.72899479
0.0038281339 0.016588598 0.72971153
0.0038480593 0.015392244 0.73051327
0.0040870742 0.014985979 0.74013042
0.0041184654 0.013728231 0.74139357
0.0041385442 0.012415618 0.74220151
0.0041387086 0.011036605 0.74220812
0.0037297613 0.0087027848 0.72575331
0.0037596927 0.007519424 0.72695768
0.003790563 0.0063176155 0.72819978
0.0038220845 0.0050961375 0.72946811
0.0038566014 0.0038566291 0.73085696
0.0039172824 0.0026115477 0.7332986
0.0039840261 0.0013280213 0.73598415
0.0040368848 -0 0.73811102
0.0040819049 -0.001360625 0.73992252
0.0041204351 -0.0027469397 0.74147278
0.0041576591 -0.0041576624 0.74297065
0.0041955449 -0.0055940747 0.74449497
0.0042341445 -0.0070569217 0.74604815
0.0042734607 -0.0085469186 0.74763012
0.0043135323 -0.0100649 0.74924242
0.0043543437 -0.011611551 0.75088453
0.0043959348 -0.013187826 0.75255811
0.0044651539 -0.014883846 0.7553432
0.004562899 -0.016730607 0.75927621
0.0049514202 -0.01980567 0.77490908
0.005001788 -0.021674424 0.77693576
0.0050531905 -0.023581535 0.77900398
0.0051056612 -0.025528312 0.78111529
0.0051592328 -0.027515888 0.78327084
0.0052412045 -0.02970013 0.78656912
0.0053404206 -0.032042503 0.79056126
0.0054461956 -0.034492552 0.79481733
0.0055670463 -0.037113607 0.79967999
0.0057055042 -0.039938509 0.80525112
0.005868847 -0.043038189 0.81182349
0.0053473297 0.0374313 0.73704928
0.0049937954 0.033708125 0.72638041
0.004963106 0.032260209 0.72545427
0.0049342103 0.030838817 0.72458225
0.0049199923 0.029519975 0.72415328
0.004913887 0.028254867 0.72396898
0.0049114907 0.027013212 0.72389662
0.0049140262 0.025798649 0.72397316
0.0051420783 0.025710374 0.73085529
0.0051606363 0.024513036 0.73141527
0.0051452192 0.023153514 0.73095006
0.0051446855 0.021864921 0.73093396
0.0051488215 0.020595282 0.73105878
0.0051585673 0.019344658 0.73135287
0.0051747388 0.018111587 0.73184085
0.0054159663 0.017601907 0.7391206
0.0054573282 0.016371965 0.74036878
0.0054993047 0.015123099 0.74163556
0.0055290349 0.013822615 0.74253267
0.0055312351 0.012445271 0.74259913
0.0055140532 0.011028111 0.74208063
0.0054838122 0.0095967054 0.74116802
0.0054537947 0.0081806779 0.74026215
0.0051016682 0.0063771009 0.72963578
0.0051426869 0.0051426888 0.73087358
0.0051860153 0.0038895607 0.73218113
0.0052300598 0.0026150346 0.73351032
0.0052761207 0.0013190508 0.73490036
0.0053470414 2.9802322e-08 0.73704058
0.0054472326 -0.0013618171 0.74006414
0.0055250567 -0.0027624965 0.74241263
0.0055909995 -0.0041932166 0.74440265
0.0056459615 -0.0056459606 0.74606127
0.005698368 -0.0071229637 0.74764282
0.0057517807 -0.0086276829 0.74925464
0.0058062039 -0.010160834 0.75089705
0.005861667 -0.01172328 0.75257075
0.0059182253 -0.013316005 0.75427759
0.0059758597 -0.014939636 0.75601685
0.006034968 -0.016596138 0.75780058
0.0066693071 -0.020007908 0.77694345
0.0067378492 -0.021898001 0.77901185
0.0068078153 -0.023827374 0.78112328
0.0068792496 -0.025797188 0.78327906
0.0069521992 -0.027808785 0.7854805
0.0069751916 -0.029644549 0.7861743
0.0070962394 -0.031933099 0.78982735
0.0072297519 -0.034341335 0.79385638
0.0073718629 -0.036859304 0.798145
0.0075295721 -0.039530218 0.80290425
0.0077080443 -0.042394221 0.80829018
0.0062838322 0.03518945 0.72738451
0.0062251785 0.033615977 0.72596836
0.0061877086 0.032176137 0.7250638
0.0061700186 0.030850083 0.72463673
0.0061771707 0.02965045 0.72480947
0.0062138457 0.028583676 0.72569478
0.006391725 0.028123617 0.72998923
0.0064377915 0.027038723 0.73110139
0.0064845029 0.025938034 0.73222905
0.0065319217 0.024821341 0.73337388
0.0065800142 0.023688078 0.73453492
0.0066288197 0.022538006 0.73571318
0.0066783805 0.021370828 0.73690969
0.0067286622 0.020186007 0.7381236
0.0067797066 0.018983185 0.73935592
0.0068315314 0.017762005 0.74060702
0.0068841819 0.01652205 0.74187821
0.0069249021 0.015234768 0.74286127
0.006930206 0.013860434 0.7429893
0.0069111013 0.012439996 0.74252808
0.0068736686 0.010997891 0.74162436
0.0068359394 0.0095703602 0.74071348
0.0067986492 0.0081583858 0.73981321
0.0067757401 0.0067757666 0.7392602
0.006820803 0.0054566562 0.74034804
0.0065570921 0.003934294 0.73398149
0.0065992344 0.0026397109 0.73499894
0.0066562737 0.0013312995 0.73637593
0.0067143338 2.9802322e-08 0.73777771
0.0067738644 -0.0013547838 0.7392149
0.0068522515 -0.0027408898 0.74110734
0.0069865007 -0.0041918755 0.74434835
0.0070941369 -0.0056753159 0.74694693
0.0071830968 -0.007183075 0.74909461
0.0072583011 -0.0087099671 0.75091022
0.00732764 -0.010258675 0.75258422
0.0073983166 -0.011837304 0.75429052
0.0074703386 -0.013446629 0.75602925
0.0075121359 -0.015024245 0.75703835
0.0083369929 -0.018341362 0.77695215
0.0084226383 -0.020214319 0.77901977
0.0085101025 -0.022126287 0.78113139
0.0085994452 -0.024078429 0.7832883
0.0086906403 -0.026071936 0.78548992
0.0087172398 -0.027895153 0.7861321
0.0087244185 -0.029663026 0.78630543
0.0088650035 -0.031913996 0.78969944
0.009016647 -0.034263253 0.79336041
0.0091804517 -0.036721796 0.79731506
0.0093606971 -0.039314926 0.80166662
0.0095549868 -0.042041898 0.80635709
0.009772718 -0.044954479 0.81161356
0.0075141545 0.033813685 0.72685242
0.0074524828 0.032294095 0.72561169
0.0074465205 0.031027198 0.7254917
0.0074795675 0.029918253 0.72615659
0.0076804967 0.029441923 0.73019898
0.0077359276 0.028365076 0.73131418
0.0077921352 0.027272522 0.732445
0.0078491662 0.026163906 0.73359239
0.0079070674 0.025039077 0.73475718
0.0079657994 0.023897409 0.73593885
0.0080254097 0.022738665 0.73713809
0.0080859503 0.021562576 0.73835611
0.0081473794 0.020368457 0.7395919
0.0082097491 0.019156098 0.74084669
0.0082730819 0.017924994 0.74212086
0.0083262436 0.016652495 0.74319041
0.0083357319 0.015282184 0.74338126
0.0083156824 0.013859481 0.74297798
0.0082712434 0.012406856 0.74208391
0.0082257185 0.010967642 0.74116796
0.0081806919 0.0095441341 0.74026215
0.008161189 0.008161217 0.73986977
0.0082188435 0.0068490207 0.74102974
0.008832993 0.0058887005 0.75338542
0.0088166324 0.0044083297 0.75305629
0.0087727811 0.0029242933 0.75217402
0.0087262942 0.0014543831 0.75123882
0.0081356168 -2.9802322e-08 0.73935527
0.0082075512 -0.0013678968 0.74080253
0.0082810996 -0.0027603209 0.74228221
0.0083559779 -0.0041779578 0.7437886
0.0084433556 -0.0056289136 0.74554652
0.0086062662 -0.0071718693 0.748824
0.0087489616 -0.0087489486 0.7516948
0.0088662757 -0.010343969 0.75405502
0.0089651383 -0.011953503 0.75604397
0.00900409 -0.013506144 0.75682765
0.0089862756 -0.014977098 0.75646925
0.0090139005 -0.016525477 0.757025
0.010212573 -0.020425111 0.78114045
0.010319742 -0.022359431 0.78329647
0.010429185 -0.024334729 0.78549832
0.010481882 -0.026204705 0.78655851
0.010437643 -0.0278337 0.78566849
0.010493224 -0.029730797 0.78678674
0.010652409 -0.031957179 0.78998923
0.010823514 -0.034274459 0.79343164
0.011006306 -0.036687702 0.79710907
0.01120362 -0.039212674 0.80107874
0.011417633 -0.041864634 0.8053844
0.011651106 -0.044662565 0.81008148
0.0089798328 0.030788004 0.73053098
0.0090375897 0.029694945 0.73152697
0.0091033457 0.028610498 0.73266089
0.0091701001 0.027510315 0.73381209
0.0092378054 0.026393712 0.73497963
0.0093065538 0.025260657 0.73616505
0.0093762968 0.024110466 0.73736781
0.0094470922 0.02294293 0.73858857
0.0095190024 0.021757722 0.73982871
0.009591979 0.020554245 0.74108702
0.0096660824 0.0193322 0.74236494
0.0097328424 0.018075317 0.74351609
0.0097476644 0.016710281 0.74377173
0.0097276652 0.015286326 0.74342692
0.0096765421 0.013823628 0.74254537
0.0096231736 0.012372643 0.74162501
0.009578946 0.010947376 0.74086231
0.0096027339 0.0096027553 0.74127257
0.01030062 0.0088291168 0.7533071
0.010328308 0.0073773861 0.7537846
0.010312499 0.0058928728 0.75351202
0.010262245 0.0043981075 0.75264543
0.010207721 0.0029164851 0.75170517
0.010153815 0.0014505684 0.75077558
0.010107864 2.9802322e-08 0.74998319
