# .PCD v0.7 - Point Cloud Data file format
VERSION 0.7
FIELDS x y z
SIZE 4 4 4
TYPE F F F
COUNT 1 1 1
WIDTH 1331
HEIGHT 1
VIEWPOINT 0 0 0 1 0 0 0
POINTS 1331
DATA ascii
-0.016178468 -0 0.75321692
-0.016178468 -0.0014707744 0.75321698
-0.016178468 -0.002941519 0.75321692
-0.016178468 -0.0044122934 0.75321698
-0.016170802 -0.0058802664 0.75313282
-0.016038753 -0.0072903335 0.75168371
-0.016018856 -0.0087375343 0.75146544
-0.016026245 -0.010198534 0.7515465
-0.016171349 -0.01176098 0.7531389
-0.016178468 -0.01323691 0.75321698
-0.016178468 -0.014707714 0.75321692
-0.016178468 -0.016178459 0.75321692
-0.016178468 -0.017649263 0.75321698
-0.016172649 -0.019113123 0.75315309
-0.016072003 -0.020455241 0.75204861
-0.016018722 -0.021843702 0.75146395
-0.016019529 -0.023301095 0.75147277
-0.016168408 -0.024987549 0.75310653
-0.016178399 -0.026473761 0.75321621
-0.016178399 -0.027944475 0.75321615
-0.016178468 -0.029415399 0.75321698
-0.016178468 -0.030886143 0.75321698
-0.016178468 -0.032356948 0.75321692
-0.016178468 -0.033827692 0.75321698
-0.016178468 -0.035298467 0.75321692
-0.016178468 -0.036769241 0.75321698
-0.016178468 -0.038240016 0.75321698
-0.016178468 -0.03971076 0.75321698
-0.016178468 -0.041181535 0.75321692
-0.016178399 -0.0426521 0.75321621
-0.016168682 -0.04409641 0.75310957
-0.016070988 -0.045290917 0.75203747
-0.016019057 -0.046600908 0.75146765
-0.016124004 -0.048372 0.75261927
-0.017451759 -0.053941756 0.76718962
-0.016999703 -0.054089934 0.76222897
-0.015217657 0.065435946 0.75937271
-0.015195429 0.063820809 0.75910437
-0.015195363 0.06230098 0.75910354
-0.01519523 0.060780913 0.75910199
-0.015195164 0.059261143 0.75910115
-0.015195031 0.057741106 0.75909954
-0.015194965 0.056221396 0.75909877
-0.015194831 0.054701358 0.75909716
-0.015194765 0.053181678 0.75909638
-0.015194632 0.05166176 0.75909472
-0.015194566 0.05014208 0.759094
-0.015194433 0.048622191 0.75909233
-0.015194367 0.047102541 0.75909156
-0.015194234 0.045582741 0.75908995
-0.015194167 0.044063091 0.75908911
-0.015194034 0.042543292 0.75908756
-0.015193968 0.041023731 0.75908673
-0.015193835 0.039503992 0.75908512
-0.015193769 0.037984431 0.75908434
-0.015193636 0.036464721 0.75908273
-0.015193636 0.034945399 0.75908267
-0.015193835 0.033426434 0.75908512
-0.015528383 0.032609642 0.76312351
-0.015528522 0.03105706 0.76312518
-0.015200947 0.028881818 0.75917101
-0.015198554 0.027357429 0.75914204
-0.015198088 0.025836766 0.7591365
-0.015241821 0.024386942 0.75966442
-0.015320246 0.022980392 0.760611
-0.015402486 0.0215635 0.76160383
-0.015480646 0.020124853 0.76254725
-0.015426899 0.018512279 0.76189846
-0.015332009 0.016865253 0.76075304
-0.015240952 0.015240967 0.75965387
-0.015193636 0.013674259 0.75908279
-0.015194765 0.012155801 0.75909638
-0.015208399 0.010645896 0.75926095
-0.015528452 0.0093171 0.76312435
-0.015528452 0.0077642202 0.76312435
-0.014571268 0.0058285594 0.75157005
-0.014561865 0.0043685436 0.75145662
-0.014605937 0.0029212236 0.75198853
-0.014718476 0.0014718473 0.7533471
-0.014723153 5.9604645e-08 0.75340354
-0.014723153 -0.0014723241 0.75340354
-0.01472309 -0.0029446185 0.75340271
-0.01472309 -0.004416883 0.75340277
-0.014715919 -0.0058863461 0.75331616
-0.014587663 -0.0072938204 0.75176799
-0.014561865 -0.0087370872 0.75145662
-0.014571941 -0.010200351 0.75157821
-0.014716979 -0.011773556 0.75332892
-0.01472309 -0.013250798 0.75340277
-0.01472309 -0.014723063 0.75340277
-0.01472309 -0.016195357 0.75340277
-0.014723153 -0.01766777 0.75340354
-0.014717478 -0.019132704 0.753335
-0.01462204 -0.020470858 0.75218302
-0.014561803 -0.021842688 0.75145578
-0.014562902 -0.023300618 0.75146914
-0.01471486 -0.025015265 0.75330341
-0.01472309 -0.026501536 0.75340271
-0.01472309 -0.02797389 0.75340277
-0.01472309 -0.029446185 0.75340271
-0.01472309 -0.030918479 0.75340271
-0.014723153 -0.032390922 0.75340354
-0.014723153 -0.033863217 0.75340354
-0.014723153 -0.035335571 0.75340354
-0.014723153 -0.036807865 0.75340348
-0.014723153 -0.038280159 0.75340348
-0.01472309 -0.039752305 0.75340271
-0.01472309 -0.041224629 0.75340283
-0.01472309 -0.042696983 0.75340271
-0.014712804 -0.044138402 0.75327861
-0.014619394 -0.045320123 0.75215101
-0.014562169 -0.046598911 0.75146019
-0.014641325 -0.04831636 0.75241578
-0.015080349 -0.051273197 0.75771523
-0.01509404 -0.052829117 0.75788051
-0.015107888 -0.054388374 0.7580477
-0.01521819 -0.056307286 0.75937909
-0.013543101 0.066210717 0.75732338
-0.013487145 0.064438611 0.7565729
-0.013487088 0.062939733 0.75657213
-0.013487029 0.061440974 0.75657141
-0.013486913 0.059941858 0.75656974
-0.013486855 0.058443099 0.75656903
-0.013486797 0.056944281 0.75656831
-0.013486738 0.055445492 0.75656742
-0.013486681 0.053946704 0.75656676
-0.013486622 0.052448004 0.75656593
-0.013486564 0.050949246 0.75656509
-0.013486505 0.049450517 0.75656438
-0.013486448 0.047951818 0.75656354
-0.01348639 0.046453148 0.75656277
-0.013486331 0.044954479 0.75656199
-0.013486215 0.043455631 0.75656044
-0.013486157 0.041956961 0.75655967
-0.013486098 0.040458322 0.7565589
-0.013486041 0.038959712 0.75655806
-0.013485982 0.037461042 0.75655735
-0.013485924 0.035962522 0.75655651
-0.013485866 0.034463882 0.7565558
-0.013485808 0.032965302 0.75655502
-0.01348575 0.031466782 0.75655425
-0.013485692 0.029968232 0.75655341
-0.013485634 0.028469682 0.7565527
-0.013485982 0.026971966 0.75655735
-0.013654748 0.025792301 0.75882089
-0.013727394 0.024404287 0.75979519
-0.013800757 0.023001254 0.76077914
-0.013874908 0.0215832 0.76177371
-0.013945878 0.020144045 0.76272559
-0.013898835 0.018531799 0.76209462
-0.013813314 0.016882956 0.76094764
-0.01372878 0.015254229 0.75981385
-0.013645334 0.013645321 0.75869465
-0.013556075 0.012049854 0.75749743
-0.013485808 0.010488987 0.75655496
-0.013486505 0.008991003 0.75656432
-0.013487495 0.0074930489 0.75657761
-0.013110513 0.0058269203 0.75152141
-0.013102603 0.0043675303 0.75141537
-0.013158728 0.0029241741 0.75216812
-0.013260502 0.001473397 0.75353312
-0.013264721 -0 0.75358975
-0.013264721 -0.0014738441 0.75358975
-0.013264721 -0.0029476583 0.75358969
-0.013264721 -0.0044215322 0.75358969
-0.013257973 -0.0058924258 0.75349915
-0.01313568 -0.0072976053 0.75185895
-0.013103646 -0.0087357461 0.75142932
-0.013115737 -0.010201126 0.75159144
-0.013259434 -0.011786133 0.75351882
-0.013264664 -0.013264656 0.75358891
-0.013264721 -0.01473856 0.75358969
-0.013264721 -0.016212434 0.75358975
-0.013264721 -0.017686307 0.75358975
-0.013259321 -0.019152373 0.75351727
-0.013169423 -0.020485729 0.75231153
-0.013103591 -0.021839321 0.7514286
-0.013105293 -0.023298264 0.75145137
-0.013258029 -0.025042921 0.75349998
-0.013264664 -0.026529312 0.75358897
-0.013264664 -0.028003186 0.75358897
-0.013264664 -0.02947703 0.75358891
-0.013264664 -0.030950874 0.75358891
-0.013264664 -0.032424748 0.75358891
-0.013264721 -0.033898681 0.75358975
-0.013264721 -0.035372555 0.75358969
-0.013264721 -0.036846429 0.75358975
-0.013264721 -0.038320303 0.75358975
-0.013264721 -0.039794147 0.75358969
-0.013264664 -0.041267842 0.75358897
-0.013264664 -0.042741716 0.75358891
-0.013254152 -0.044180483 0.75344795
-0.013165598 -0.045348167 0.75226021
-0.013103701 -0.046590924 0.75143003
-0.013174139 -0.048305124 0.75237477
-0.013402925 -0.050633252 0.75544333
-0.013415632 -0.052171886 0.7556138
-0.013425077 -0.053700298 0.7557404
-0.01343644 -0.055238634 0.75589281
-0.011884728 0.06536603 0.75500607
-0.011875235 0.063829422 0.75486279
-0.011875235 0.062344998 0.75486279
-0.011875285 0.060860842 0.7548635
-0.011875285 0.059376448 0.7548635
-0.011875336 0.057892293 0.75486434
-0.011875336 0.056407869 0.75486428
-0.011875386 0.054923683 0.75486505
-0.011875386 0.05343926 0.75486505
-0.011875386 0.051954836 0.75486511
-0.011875438 0.05047062 0.75486583
-0.011875438 0.048986197 0.75486583
-0.011875488 0.047501981 0.7548666
-0.011875488 0.046017528 0.7548666
-0.011875539 0.044533283 0.75486732
-0.011875742 0.043049604 0.75487041
-0.011875944 0.041565835 0.75487345
-0.011876147 0.040082037 0.75487649
-0.01187635 0.03859818 0.75487959
-0.011876605 0.037114382 0.75488341
-0.011876808 0.035630435 0.75488651
-0.011877011 0.034146428 0.75488955
-0.011877214 0.032662362 0.75489265
-0.011877467 0.031178355 0.75489652
-0.01187767 0.02969417 0.7548995
-0.011877873 0.028209925 0.7549026
-0.011878026 0.02672556 0.75490487
-0.01187767 0.025240093 0.75489956
-0.011877315 0.023754627 0.75489414
-0.011876959 0.022269309 0.75488877
-0.011876605 0.02078408 0.75488347
-0.011876249 0.019298911 0.7548781
-0.011875894 0.017813832 0.75487268
-0.011875539 0.016328871 0.75486737
-0.011875386 0.014844239 0.75486511
-0.011875386 0.013359815 0.75486505
-0.011875386 0.011875391 0.75486511
-0.011875386 0.010390997 0.75486505
-0.011875641 0.0089067519 0.75486892
-0.011875995 0.0074225068 0.75487423
-0.011619835 0.0058099329 0.75100905
-0.01161299 0.0043548942 0.75090581
-0.01170857 0.0029271245 0.75234801
-0.011799522 0.0014749467 0.75372034
-0.01180328 2.9802322e-08 0.75377703
-0.01180328 -0.0014754236 0.75377703
-0.011803229 -0.0029508173 0.75377631
-0.011803229 -0.0044261813 0.75377625
-0.011797017 -0.0058985054 0.75368255
-0.011682784 -0.007301718 0.75195891
-0.011614057 -0.0087105334 0.75092191
-0.01162518 -0.010172009 0.75108969
-0.01179877 -0.01179871 0.75370902
-0.011803229 -0.013278663 0.75377631
-0.011803229 -0.014754027 0.75377631
-0.011803229 -0.016229391 0.75377631
-0.011803229 -0.017704844 0.75377631
-0.011798169 -0.019172013 0.7536999
-0.011714689 -0.02050069 0.75244033
-0.011614057 -0.021776348 0.75092196
-0.011614882 -0.023229748 0.75093442
-0.01179802 -0.025070786 0.75369775
-0.011803229 -0.026557267 0.75377631
-0.011803229 -0.02803266 0.75377625
-0.011803229 -0.029508054 0.75377631
-0.011803229 -0.030983478 0.75377631
-0.011803229 -0.032458901 0.75377631
-0.011803229 -0.033934236 0.75377625
-0.011788263 -0.035364747 0.75355047
-0.011780969 -0.036815524 0.75344038
-0.011780969 -0.038288146 0.7534405
-0.011780969 -0.039760739 0.75344038
-0.011780969 -0.041233361 0.75344038
-0.011780969 -0.042705983 0.75344038
-0.011777624 -0.044166058 0.75338989
-0.011708668 -0.045371085 0.7523495
-0.011613815 -0.046455234 0.75091821
-0.011648026 -0.048048109 0.75143445
-0.011789363 -0.050104767 0.7535671
-0.011818937 -0.051707834 0.7540133
-0.01182648 -0.05321914 0.75412714
-0.011834032 -0.054732382 0.75424105
-0.011917083 -0.056606114 0.75549424
-0.010374919 0.066695899 0.75458843
-0.010319456 0.064865172 0.75363201
-0.010316261 0.063371301 0.75357687
-0.010316261 0.061897606 0.75357687
-0.010316261 0.060423851 0.75357687
-0.010316261 0.058950067 0.75357687
-0.010316261 0.057476312 0.75357687
-0.010316261 0.056002557 0.75357687
-0.010316261 0.054528832 0.75357687
-0.010316261 0.053055048 0.75357687
-0.010316261 0.051581353 0.75357687
-0.010316261 0.050107598 0.75357687
-0.010316261 0.048633814 0.75357687
-0.010316261 0.047160059 0.75357687
-0.010316261 0.045686275 0.75357687
-0.010316261 0.04421255 0.75357687
-0.010316261 0.042738795 0.75357687
-0.010316261 0.041265041 0.75357687
-0.010316261 0.039791316 0.75357682
-0.010316261 0.038317591 0.75357687
-0.010316261 0.036843807 0.75357682
-0.010316261 0.035370052 0.75357687
-0.010316305 0.033896446 0.75357765
-0.010316261 0.032422543 0.75357687
-0.010316305 0.030948937 0.75357759
-0.010316392 0.029475451 0.75357914
-0.010316436 0.028001755 0.75357985
-0.010316524 0.02652818 0.7535814
-0.010316567 0.025054514 0.75358218
-0.010316655 0.023580939 0.75358367
-0.010316699 0.022107214 0.75358444
-0.010316743 0.020633489 0.75358522
-0.01031683 0.019159853 0.75358665
-0.010316874 0.017686069 0.75358742
-0.010316918 0.016212314 0.7535882
-0.010317005 0.01473859 0.75358969
-0.010317049 0.013264805 0.75359046
-0.010317093 0.011791021 0.75359118
-0.01031718 0.010317206 0.75359273
-0.010317224 0.0088433325 0.7535935
-0.010317312 0.0073695183 0.75359499
-0.01011745 0.0057813823 0.75014848
-0.010111225 0.0043333769 0.75004113
-0.010255408 0.0029301643 0.75252748
-0.010335461 0.0014764965 0.75390798
-0.010338712 2.9802322e-08 0.75396407
-0.010338712 -0.0014769435 0.75396401
-0.010338712 -0.0029539168 0.75396407
-0.010338712 -0.0044308603 0.75396407
-0.010333003 -0.0059045553 0.75386554
-0.010228669 -0.0073061883 0.75206643
-0.010111268 -0.0086667836 0.7500419
-0.010117702 -0.01011771 0.75015289
-0.010334978 -0.011811376 0.75389963
-0.010338669 -0.013292551 0.75396329
-0.010338669 -0.014769524 0.75396323
-0.010338669 -0.016246438 0.75396329
-0.010338712 -0.017723501 0.75396401
-0.010333881 -0.019191474 0.75388074
-0.010257874 -0.02051577 0.75257003
-0.010111268 -0.021667033 0.7500419
-0.010111225 -0.023111373 0.75004113
-0.010334495 -0.025098056 0.75389135
-0.010338669 -0.026585162 0.75396329
-0.010338669 -0.028062046 0.75396323
-0.010338669 -0.029539049 0.75396323
-0.010338669 -0.031015992 0.75396329
-0.010338669 -0.032492965 0.75396323
-0.010337306 -0.033965439 0.75393975
-0.010261768 -0.035183191 0.75263727
-0.010244221 -0.036586523 0.75233459
-0.010244394 -0.038050592 0.75233757
-0.010244567 -0.03951475 0.75234056
-0.010244782 -0.040979087 0.75234425
-0.010244955 -0.042443335 0.75234723
-0.01024517 -0.043907881 0.75235099
-0.010214365 -0.045235068 0.75181979
-0.010111183 -0.046222508 0.75004041
-0.010124736 -0.047730893 0.75027412
-0.010244221 -0.04975763 0.75233459
-0.010272257 -0.051361263 0.75281805
-0.0102779 -0.052857727 0.75291532
-0.010283592 -0.054356158 0.75301355
-0.010303806 -0.055934966 0.75336206
-0.0088186087 0.066139579 0.75309598
-0.0087949112 0.06449604 0.75261927
-0.008794874 0.063029915 0.75261855
-0.008794874 0.061564177 0.75261849
-0.0087948367 0.060098082 0.75261784
-0.0087948367 0.058632255 0.75261784
-0.0087947994 0.057166219 0.752617
-0.0087947631 0.055700183 0.75261623
-0.0087947631 0.054234385 0.75261629
-0.0087947259 0.05276835 0.75261551
-0.0087947259 0.051302582 0.75261557
-0.0087946886 0.049836576 0.7526148
-0.0087946886 0.048370808 0.7526148
-0.0087946514 0.046904832 0.75261402
-0.0087946514 0.045439035 0.75261402
-0.0087946141 0.043973088 0.75261331
-0.0087946141 0.042507321 0.75261331
-0.0087945769 0.041041404 0.75261253
-0.0087945769 0.039575607 0.75261259
-0.0087945769 0.038109869 0.75261259
-0.0087945405 0.036643952 0.75261176
-0.0087945405 0.035178185 0.75261182
-0.0087981401 0.033726215 0.75268424
-0.0088449847 0.032431632 0.7536267
-0.0088443477 0.030955225 0.75361389
-0.0088436715 0.029478908 0.7536003
-0.0088430345 0.028002948 0.75358742
-0.0088423965 0.026527196 0.75357461
-0.0088417595 0.025051653 0.75356179
-0.0088410843 0.02357626 0.7535482
-0.0088404473 0.022101134 0.75353539
-0.0088398093 0.020626247 0.75352257
-0.0088391723 0.019151568 0.7535097
-0.0088385353 0.017677069 0.75349689
-0.008837861 0.016202748 0.75348336
-0.008837224 0.014728725 0.7534706
-0.008836587 0.013254881 0.75345773
-0.0088359136 0.011781245 0.75344419
-0.0088352766 0.010307819 0.75343138
-0.0088346405 0.0088346899 0.75341856
-0.0088340035 0.0073616505 0.75340575
-0.0086373938 0.0057582855 0.74945027
-0.0086332448 0.0043166578 0.74936688
-0.0087993285 0.0029331148 0.75270814
-0.0088683125 0.0014780462 0.75409603
-0.0088711046 2.9802322e-08 0.75415218
-0.0088710673 -0.0014784932 0.7541514
-0.0088710673 -0.0029570162 0.7541514
-0.0088710673 -0.0044355094 0.7541514
-0.0088660121 -0.0059106648 0.75404972
-0.0087727811 -0.0073106587 0.75217402
-0.0086332094 -0.0086331964 0.74936604
-0.0086366069 -0.010076016 0.74943441
-0.008868048 -0.011824042 0.75409067
-0.0088710291 -0.013306499 0.75415063
-0.0088710673 -0.014785081 0.7541514
-0.0088710673 -0.016263634 0.75415146
-0.0088710673 -0.017742097 0.75415146
-0.008866502 -0.019210726 0.75405955
-0.0087998109 -0.020532876 0.75271791
-0.0086332094 -0.021583021 0.7493661
-0.0086332094 -0.023021877 0.74936604
-0.0088678217 -0.025125504 0.75408614
-0.0088710673 -0.026613206 0.75415146
-0.0088710673 -0.028091699 0.75415146
-0.0088710673 -0.029570222 0.7541514
-0.0088710673 -0.031048715 0.75415146
-0.0088710291 -0.032527119 0.75415069
-0.0088643152 -0.033979863 0.75401562
-0.008760321 -0.035041273 0.75192332
-0.0087371189 -0.036404669 0.75145656
-0.008737009 -0.037860334 0.75145435
-0.0087368991 -0.039315999 0.75145209
-0.0087367892 -0.040771663 0.75144994
-0.0087366793 -0.042227268 0.75144774
-0.0087369354 -0.043684661 0.75145286
-0.0087226061 -0.045066804 0.75116462
-0.0086332094 -0.046043783 0.74936604
-0.008637609 -0.047506839 0.74945456
-0.0087366793 -0.049507827 0.75144774
-0.0087585179 -0.051091343 0.75188708
-0.008763046 -0.05257827 0.75197816
-0.008767616 -0.054066956 0.75207013
-0.0087758834 -0.055580586 0.75223649
-0.0073103122 0.065792829 0.75216591
-0.007298029 0.064222693 0.75186932
-0.007298029 0.062763065 0.75186932
-0.007298029 0.061303467 0.75186932
-0.0072979983 0.0598436 0.75186855
-0.0072979983 0.058384001 0.75186861
-0.0072979983 0.056924373 0.75186855
-0.0072979983 0.055464774 0.75186861
-0.0072979983 0.054005176 0.75186861
-0.0072979676 0.052545369 0.75186783
-0.0072979676 0.0510858 0.75186783
-0.0072979676 0.049626201 0.75186777
-0.0072979676 0.048166633 0.75186783
-0.0072979676 0.046706975 0.75186789
-0.0072979676 0.045247376 0.75186783
-0.0072979373 0.043787688 0.75186706
-0.0072979373 0.04232806 0.75186706
-0.0072979676 0.04086861 0.75186789
-0.0072979676 0.039409041 0.75186783
-0.0072979983 0.037949622 0.75186861
-0.0072979983 0.036489993 0.75186855
-0.0072979983 0.035030425 0.75186861
-0.0073084673 0.033618957 0.75212133
-0.0073785847 0.032465756 0.75381416
-0.007378052 0.030987829 0.75380123
-0.0073775193 0.029510081 0.75378841
-0.0073769554 0.028032422 0.75377476
-0.0073764231 0.026555151 0.75376189
-0.0073758904 0.025078028 0.75374907
-0.0073753581 0.023601145 0.75373626
-0.0073748259 0.022124499 0.75372338
-0.0073742936 0.020648003 0.75371057
-0.0073737307 0.019171715 0.75369692
-0.0073731984 0.017695725 0.75368404
-0.0073726666 0.016219884 0.75367117
-0.0073721348 0.014744312 0.75365841
-0.0073715718 0.013268828 0.75364476
-0.0073710401 0.011793703 0.75363195
-0.0073705083 0.010318726 0.75361919
-0.0073699458 0.0088439584 0.7536056
-0.007369414 0.0073694289 0.75359273
-0.0071767177 0.0057413876 0.74894059
-0.0071738134 0.0043043196 0.74887043
-0.0073402403 0.0029361248 0.75288838
-0.0073980647 0.0014795959 0.75428444
-0.0074003651 2.9802322e-08 0.75433993
-0.0074003651 -0.0014800429 0.75433993
-0.0074003651 -0.0029601455 0.75433993
-0.0074003339 -0.0044401586 0.75433922
-0.007395986 -0.0059167743 0.75423425
-0.0073122815 -0.0073122978 0.75221336
-0.0071737836 -0.0086084902 0.74886978
-0.0071759764 -0.010046393 0.74892271
-0.0073979702 -0.011836737 0.75428218
-0.0074003339 -0.013320595 0.75433922
-0.0074003339 -0.014800698 0.75433922
-0.0074003339 -0.016280711 0.75433916
-0.0074003339 -0.017760813 0.75433922
-0.0073961751 -0.019230038 0.75423872
-0.0073393411 -0.020550162 0.75286669
-0.0071737836 -0.02152136 0.74886978
-0.0071737836 -0.022956073 0.74886978
-0.0073979073 -0.025152862 0.75428057
-0.0074003339 -0.02664116 0.75433916
-0.0074003339 -0.028121233 0.75433922
-0.0074003339 -0.029601306 0.75433922
-0.0074003339 -0.031081378 0.7543391
-0.0074003339 -0.032561451 0.75433922
-0.0073850458 -0.03397122 0.75397009
-0.0072786747 -0.03493762 0.75140202
-0.0072525442 -0.036262691 0.75077122
-0.0072524231 -0.037712604 0.7507683
-0.007252302 -0.039162427 0.75076544
-0.0072521507 -0.040612072 0.75076175
-0.0072520291 -0.042061746 0.75075877
-0.0072522112 -0.043513268 0.75076318
-0.0072455569 -0.044922411 0.75060254
-0.0071739317 -0.04591316 0.74887335
-0.007176362 -0.047363967 0.748932
-0.0072509097 -0.049306184 0.75073177
-0.0072685042 -0.050879508 0.75115651
-0.007272216 -0.052359939 0.75124615
-0.0072758095 -0.053840995 0.75133294
-0.0072806273 -0.05533272 0.75144923
-0.0058253803 0.065535545 0.75147575
-0.0058194776 0.064014256 0.75129759
-0.0058194776 0.062559426 0.75129759
-0.0058194776 0.061104506 0.75129753
-0.0058194776 0.059649646 0.75129759
-0.0058194534 0.058194548 0.75129688
-0.0058194534 0.056739718 0.75129688
-0.0058194534 0.055284828 0.75129694
-0.0058194534 0.053829968 0.75129688
-0.0058194534 0.052375078 0.75129688
-0.0058194287 0.05092001 0.7512961
-0.0058194287 0.04946515 0.7512961
-0.0058194287 0.04801029 0.75129616
-0.0058194287 0.0465554 0.7512961
-0.0058194287 0.04510057 0.75129604
-0.0058194287 0.04364571 0.75129616
-0.0058194045 0.042190701 0.75129539
-0.0058194045 0.040735841 0.75129533
-0.0058194045 0.039280981 0.75129539
-0.0058194045 0.037826091 0.75129539
-0.0058194045 0.036371261 0.75129539
-0.0058194045 0.034916461 0.75129539
-0.0058337427 0.033544034 0.75172806
-0.0059091169 0.032500178 0.75400269
-0.0059086648 0.031020492 0.75398904
-0.0059082378 0.029541194 0.75397617
-0.0059078108 0.028062105 0.75396329
-0.0059073586 0.026583135 0.75394964
-0.0059069321 0.025104463 0.75393677
-0.005906505 0.023626 0.75392389
-0.0059060785 0.022147804 0.75391102
-0.005905652 0.020669788 0.75389814
-0.0059052254 0.01919198 0.75388527
-0.0059047989 0.017714411 0.75387239
-0.0059043723 0.01623705 0.75385952
-0.0059039211 0.014759809 0.75384593
-0.0059034945 0.013282895 0.75383306
-0.0059030685 0.01180616 0.75382018
-0.0059026172 0.010329574 0.75380659
-0.0059021912 0.0088532567 0.75379372
-0.0059017651 0.0073771775 0.75378084
-0.0057299887 0.0057299733 0.74859703
-0.0057278872 0.0042959154 0.74853355
-0.005878103 0.0029390752 0.75306678
-0.0059246332 0.0014811754 0.75447094
-0.0059265275 2.9802322e-08 0.75452805
-0.0059265275 -0.0014816225 0.75452816
-0.0059265275 -0.0029632449 0.75452811
-0.0059265275 -0.0044448674 0.75452816
-0.0059228907 -0.0059228539 0.75441837
-0.0058498741 -0.0073123276 0.75221485
-0.0057277926 -0.0085916817 0.74853075
-0.0057293982 -0.010026425 0.7485792
-0.0059246584 -0.011849314 0.75447166
-0.0059265024 -0.013334632 0.75452733
-0.0059265024 -0.014816225 0.75452733
-0.0059265024 -0.016297877 0.75452739
-0.0059265275 -0.017779589 0.75452811
-0.0059228656 -0.01924929 0.7544176
-0.0058764131 -0.020567447 0.75301576
-0.0057278164 -0.021479279 0.74853146
-0.0057278397 -0.0229114 0.74853218
-0.0059247087 -0.025180042 0.75447327
-0.0059265275 -0.026669383 0.75452816
-0.0059265275 -0.028151006 0.75452816
-0.0059265024 -0.029632479 0.75452733
-0.0059265024 -0.031114131 0.75452733
-0.0059265275 -0.032595873 0.75452811
-0.0059013893 -0.033932984 0.75376946
-0.0058112536 -0.034867495 0.7510494
-0.0057847691 -0.036154807 0.75025022
-0.0057847449 -0.037600845 0.75024939
-0.0057847449 -0.039047003 0.75024945
-0.005784817 -0.040493697 0.75025165
-0.0057849614 -0.041940957 0.750256
-0.00578513 -0.043388486 0.75026107
-0.0057818331 -0.044809192 0.75016159
-0.0057288078 -0.045830458 0.74856138
-0.005729422 -0.047267705 0.74857992
-0.0057826028 -0.049152076 0.75018483
-0.0057960344 -0.050715297 0.75059015
-0.0057994444 -0.052195013 0.75069308
-0.0058021075 -0.053669482 0.75077337
-0.0058047734 -0.055145323 0.7508539
-0.0043921382 0.067346156 0.75240529
-0.0043571652 0.065357476 0.75099808
-0.0043544169 0.063864768 0.75088751
-0.0043544169 0.062413305 0.75088751
-0.0043544169 0.060961843 0.75088751
-0.004354435 0.059510589 0.75088823
-0.004354435 0.058059126 0.75088823
-0.004354435 0.056607693 0.75088823
-0.0043544169 0.055155963 0.75088751
-0.004354435 0.053704709 0.75088823
-0.004354435 0.052253217 0.75088829
-0.004354435 0.050801724 0.75088823
-0.004354435 0.049350291 0.75088823
-0.004354435 0.047898799 0.75088823
-0.004354435 0.046447307 0.75088829
-0.004354435 0.044995844 0.75088823
-0.004354435 0.043544382 0.75088823
-0.004354435 0.04209286 0.75088823
-0.004354435 0.040641367 0.75088829
-0.004354435 0.039189935 0.75088829
-0.004354435 0.037738472 0.75088823
-0.004354435 0.03628695 0.75088829
-0.004354435 0.034835517 0.75088823
-0.0043735998 0.033530951 0.75165933
-0.0044365339 0.032534599 0.75419164
-0.0044361753 0.031053245 0.75417721
-0.0044358545 0.029572397 0.75416434
-0.0044355337 0.028091699 0.75415146
-0.0044352128 0.026611269 0.75413853
-0.004434892 0.025131017 0.7541256
-0.0044345711 0.023651034 0.75411272
-0.0044342503 0.022171259 0.75409985
-0.0044339299 0.020691693 0.75408691
-0.0044336091 0.019212306 0.75407398
-0.0044332887 0.017733186 0.7540611
-0.0044329492 0.016254187 0.75404745
-0.0044326289 0.014775425 0.75403452
-0.0044323085 0.013296962 0.75402164
-0.004431969 0.011818588 0.754008
-0.0044316491 0.010340542 0.75399506
-0.0044313096 0.0088626444 0.75398147
-0.0044309897 0.0073850155 0.75396854
-0.0042926427 0.005723536 0.74840194
-0.0042911232 0.0042911172 0.74834079
-0.0044130376 0.0029420257 0.75324625
-0.00444812 0.0014826953 0.75465786
-0.0044496008 -2.9802322e-08 0.75471747
-0.0044496008 -0.001483202 0.75471747
-0.0044495822 -0.0029663742 0.75471669
-0.0044495822 -0.0044495761 0.75471663
-0.0044467347 -0.0059289932 0.75460207
-0.0043873875 -0.0073122978 0.75221413
-0.0042910702 -0.0085821152 0.7483387
-0.0042919358 -0.010014474 0.74837351
-0.0044481959 -0.011861831 0.75466096
-0.0044495631 -0.013348699 0.75471592
-0.0044495822 -0.01483193 0.75471663
-0.0044495822 -0.016315132 0.75471663
-0.0044495822 -0.017798305 0.75471669
-0.0044465829 -0.019268543 0.75459599
-0.0044098077 -0.02057907 0.75311631
-0.0042910525 -0.021455258 0.74833792
-0.0042910525 -0.022885591 0.74833792
-0.0044482718 -0.025206864 0.75466394
-0.0044495822 -0.026697457 0.75471663
-0.0044495822 -0.028180689 0.75471669
-0.0044495822 -0.029663861 0.75471669
-0.0044495822 -0.031147063 0.75471663
-0.0044496008 -0.032630414 0.75471747
-0.0044183498 -0.033874005 0.75346005
-0.0043522352 -0.034817874 0.75079972
-0.0043291715 -0.036076397 0.74987173
-0.0043291892 -0.037519604 0.74987245
-0.0043291892 -0.038962722 0.74987245
-0.0043292074 -0.040405899 0.74987316
-0.0043292074 -0.041848987 0.74987316
-0.0043292255 -0.043292224 0.74987388
-0.0043277694 -0.044720262 0.74981529
-0.0042922539 -0.045784056 0.74838626
-0.004291547 -0.047207028 0.74835783
-0.0043258835 -0.049026668 0.74973947
-0.0043370062 -0.050598413 0.75018698
-0.0043398412 -0.052078068 0.750301
-0.0043418114 -0.053548992 0.75038028
-0.0043437835 -0.055021256 0.75045967
-0.0029180837 0.067115933 0.75180125
-0.0029001459 0.065253317 0.75071859
-0.0028986337 0.063769966 0.75062734
-0.0028986216 0.062320381 0.75062656
-0.0028986216 0.060871035 0.75062662
-0.0028986216 0.059421748 0.75062662
-0.0028986216 0.057972461 0.75062662
-0.0028986216 0.056523144 0.75062662
-0.0028986216 0.055073857 0.75062656
-0.0028986216 0.053624511 0.75062662
-0.0028986216 0.052175224 0.75062662
-0.0028986216 0.050725907 0.75062662
-0.0028986095 0.049276382 0.75062591
-0.0028986095 0.047827095 0.75062591
-0.0028986095 0.046377748 0.75062585
-0.0028986095 0.044928461 0.75062585
-0.0028986095 0.043479174 0.75062585
-0.0028986095 0.042029828 0.75062591
-0.0028986095 0.040580541 0.75062591
-0.0028986095 0.039131284 0.75062591
-0.0028986095 0.037681937 0.75062591
-0.0028986095 0.03623262 0.75062585
-0.0028986095 0.034783334 0.75062585
-0.0029157209 0.033530802 0.75165868
-0.0029608021 0.032568842 0.75437951
-0.0029605876 0.031086177 0.75436664
-0.0029603606 0.02960363 0.75435293
-0.0029601462 0.028121382 0.75433993
-0.002959932 0.026639402 0.754327
-0.0029597175 0.02515763 0.75431406
-0.0029595033 0.023676068 0.75430113
-0.0029593017 0.022194773 0.75428891
-0.0029590749 0.020713508 0.75427532
-0.0029588607 0.019232631 0.75426233
-0.0029586465 0.017751902 0.75424939
-0.0029584323 0.016271383 0.75423646
-0.0029582183 0.014791071 0.75422364
-0.0029579916 0.013310969 0.75420988
-0.0029577776 0.011831105 0.754197
-0.002957551 0.010351419 0.75418329
-0.0029573371 0.0088720322 0.75417036
-0.0029571231 0.0073928237 0.75415748
-0.0028608427 0.0057216883 0.74834645
-0.0028598539 0.0042897761 0.74828678
-0.002945005 0.0029450357 0.75342607
-0.0029685169 0.0014842749 0.75484514
-0.0029694682 -2.9802322e-08 0.7549026
-0.0029694557 -0.0014847219 0.75490177
-0.0029694303 -0.002969414 0.75490034
-0.0029694049 -0.0044540763 0.75489879
-0.0029674775 -0.0059349239 0.75478244
-0.0029249247 -0.0073122978 0.75221413
-0.0028598539 -0.0085795522 0.74828678
-0.0028604425 -0.010011524 0.74832231
-0.0029684789 -0.011873901 0.75484288
-0.0029693542 -0.01336208 0.75489569
-0.0029693542 -0.014846772 0.75489569
-0.0029693542 -0.016331434 0.75489569
-0.0029693542 -0.017816097 0.75489569
-0.002967224 -0.01928696 0.75476706
-0.0029413279 -0.020589262 0.75320411
-0.0028598539 -0.02144888 0.74828684
-0.0028598655 -0.022878915 0.74828744
-0.0029685549 -0.025232673 0.75484747
-0.0029693795 -0.026724368 0.75489724
-0.0029693921 -0.028209239 0.75489795
-0.0029693921 -0.029693961 0.75489801
-0.0029694049 -0.031178743 0.75489873
-0.002968872 -0.032657593 0.7548666
-0.0029419754 -0.033832699 0.75324321
-0.0028987185 -0.034784585 0.75063246
-0.0028819968 -0.036024928 0.74962318
-0.0028819968 -0.03746593 0.74962324
-0.0028819968 -0.038906932 0.74962324
-0.0028819847 -0.040347785 0.74962246
-0.0028819968 -0.041788936 0.74962318
-0.0028820087 -0.043230087 0.74962389
-0.0028814948 -0.044663191 0.7495929
-0.0028607249 -0.045771599 0.74833935
-0.0028605836 -0.047199637 0.74833083
-0.0028792624 -0.048947453 0.74945819
-0.0028867016 -0.050517261 0.74990714
-0.0028889817 -0.052001655 0.75004476
-0.0028902672 -0.053469926 0.75012243
-0.002891554 -0.054939479 0.75019997
-0.0029081071 -0.056708068 0.75119913
-0.0014567297 0.067009598 0.75152212
-0.001448918 0.065201312 0.75057918
-0.0014482235 0.063721836 0.75049537
-0.0014482235 0.062273592 0.75049537
-0.0014482235 0.060825408 0.75049537
-0.0014482235 0.059377164 0.75049537
-0.0014482235 0.05792895 0.75049537
-0.0014482235 0.056480736 0.75049537
-0.0014482235 0.055032521 0.75049537
-0.0014482235 0.053584307 0.75049537
-0.0014482235 0.052136064 0.75049537
-0.0014482235 0.05068782 0.75049537
-0.0014482175 0.049239397 0.7504946
-0.0014482175 0.047791183 0.75049466
-0.0014482175 0.046343029 0.7504946
-0.0014482175 0.044894755 0.75049466
-0.0014482175 0.043446541 0.75049466
-0.0014482175 0.041998297 0.75049466
-0.0014482175 0.040550083 0.75049466
-0.0014482235 0.039102048 0.75049531
-0.0014482235 0.037653834 0.75049531
-0.0014482235 0.03620556 0.75049543
-0.0014482295 0.034757525 0.75049609
-0.0014578665 0.033530951 0.75165933
-0.0014819226 0.03260228 0.75456321
-0.0014818594 0.031119049 0.75455558
-0.001481752 0.029635072 0.75454259
-0.0014816446 0.028151244 0.75452965
-0.0014815371 0.026667714 0.75451666
-0.0014814298 0.025184304 0.75450373
-0.0014813225 0.023701161 0.75449079
-0.0014812151 0.022218257 0.7544778
-0.0014811078 0.020735502 0.75446481
-0.0014810005 0.019253016 0.75445187
-0.0014808931 0.017770708 0.754439
-0.0014807859 0.016288638 0.75442594
-0.0014806723 0.014806777 0.75441223
-0.0014805651 0.013325125 0.7543993
-0.0014804577 0.011843681 0.75438637
-0.0014803505 0.010362446 0.75437343
-0.0014802433 0.0088814795 0.75436044
-0.0014801298 0.0074006617 0.75434685
-0.0014310695 0.0057242811 0.74842465
-0.0014305392 0.0042916238 0.74836063
-0.0014443467 0.0028886795 0.75002742
-0.0014814488 0.0014814734 0.75450599
-0.0014824537 2.9802322e-08 0.75462729
-0.0014823967 -0.0014823675 0.75462043
-0.0014823335 -0.0029646158 0.7546128
-0.0014822766 -0.0044468045 0.75460589
-0.0014806975 -0.0059227645 0.75441527
-0.0014426376 -0.0072131753 0.74982107
-0.0014303684 -0.0085822046 0.74834001
-0.0014306747 -0.010014743 0.74837708
-0.0014809878 -0.011847883 0.75445038
-0.0014821375 -0.013339221 0.75458914
-0.0014821375 -0.01482138 0.7545892
-0.0014821375 -0.016303509 0.75458914
-0.0014821375 -0.017785609 0.75458914
-0.0014805461 -0.019247115 0.75439703
-0.0014563939 -0.020389527 0.75148165
-0.0014303625 -0.021455437 0.74833935
-0.0014303625 -0.022885799 0.74833935
-0.0014810005 -0.025177002 0.75445187
-0.0014821249 -0.026678264 0.75458759
-0.0014820996 -0.028159857 0.75458455
-0.0014820743 -0.029641449 0.75458151
-0.0014820427 -0.031122863 0.75457764
-0.0014819353 -0.032602578 0.75456476
-0.0014700355 -0.033810824 0.75312835
-0.0014486583 -0.034767807 0.75054789
-0.0014399593 -0.03599897 0.74949783
-0.0014399593 -0.037438929 0.74949783
-0.0014399533 -0.038878739 0.74949712
-0.0014399474 -0.040318519 0.74949634
-0.0014399413 -0.041758299 0.74949563
-0.0014399354 -0.043198049 0.74949491
-0.0014396074 -0.044627845 0.74945533
-0.0014307925 -0.045785367 0.74839127
-0.0014305038 -0.04720664 0.7483564
-0.001438332 -0.048903316 0.74930137
-0.0014421706 -0.050475985 0.74976474
-0.0014434287 -0.051963419 0.74991655
-0.0014440645 -0.053430408 0.74999338
-0.001444701 -0.05489859 0.75007015
-0.0014513327 -0.056601971 0.7508707
0 0.067010432 0.75152439
0 0.065201879 0.75058067
0 0.063720256 0.75049102
0 0.062272072 0.75049102
0 0.060823649 0.75049025
0 0.059375197 0.75048959
0 0.057926804 0.75048876
0 0.05647862 0.75048882
0 0.055030227 0.7504881
0 0.053581804 0.75048739
0 0.052133679 0.75048739
0 0.050685287 0.75048667
0 0.049236953 0.7504859
0 0.04778862 0.75048518
0 0.046340406 0.75048518
0 0.044892102 0.75048447
0 0.043443829 0.75048375
0 0.041995525 0.75048298
0 0.040547371 0.75048304
0 0.039099127 0.75048226
0 0.037650853 0.75048155
0 0.03620258 0.75048077
0 0.034754485 0.75048077
0 0.033400089 0.75097245
0 0.032421708 0.75357234
0 0.030687213 0.75207311
0 0.029226005 0.75207382
0 0.027832359 0.75250369
0 0.026303291 0.75207317
0 0.024842203 0.7520746
0 0.023579508 0.75357312
0 0.021919549 0.75207376
0 0.020632088 0.75357312
0 0.018996984 0.75207454
0 0.017684639 0.75357312
0 0.0160743 0.75207382
0 0.014737159 0.75357234
0 0.013263434 0.75357234
0 0.011789739 0.75357234
0 0.010316014 0.75357234
0 0.0088422596 0.75357234
0 0.0073685944 0.75357234
0 0.0057133734 0.74809378
0 0.0042831302 0.7480194
0 0.0028578639 0.74816608
0 0.0014535189 0.75113308
0 -0 0.7522766
0 -0.0014624298 0.75221342
0 -0.0029238164 0.75214952
0 -0.0043841898 0.75208569
0 -0.0058037341 0.75082308
0 -0.0071435869 0.74814057
0 -0.0085615516 0.74792457
0 -0.0099903345 0.74795634
0 -0.01154694 0.74990934
0 -0.013140678 0.75192636
0 -0.014600664 0.75192559
0 -0.01606074 0.75192559
0 -0.017520875 0.75192559
0 -0.0188981 0.75115657
0 -0.020040303 0.74847096
0 -0.021403909 0.74792457
0 -0.022830814 0.74792451
0 -0.024346024 0.74855137
0 -0.026281387 0.7519263
0 -0.027741462 0.7519263
0 -0.029201537 0.7519263
0 -0.030661613 0.7519263
0 -0.032121688 0.7519263
0 -0.033542782 0.75172144
0 -0.034677148 0.75009197
0 -0.03597483 0.74938118
0 -0.037413806 0.74938118
0 -0.038852811 0.74938118
0 -0.040291816 0.74938118
0 -0.041730762 0.74938118
0 -0.043168187 0.74937475
0 -0.044495612 0.74894065
0 -0.045675725 0.74797761
0 -0.047098994 0.74796277
0 -0.048897207 0.7492798
0 -0.050474495 0.74975967
0 -0.051961899 0.74991149
0 -0.053429067 0.74998903
0 -0.054897279 0.7500658
0 -0.056593239 0.75084364
0.0014588765 0.067108333 0.75178128
0.0014500003 0.065250039 0.75070989
0.0014492021 0.0637649 0.75061351
0.001449196 0.062315464 0.75061274
0.001449196 0.060866237 0.75061274
0.00144919 0.059416801 0.75061202
0.00144919 0.057967633 0.75061202
0.0014491839 0.056518167 0.75061131
0.0014491779 0.055068761 0.75061059
0.0014491779 0.053619593 0.75061059
0.0014491718 0.052170187 0.75060987
0.0014491718 0.05072102 0.75060987
0.0014491657 0.049271643 0.75060904
0.0014491657 0.047822475 0.75060904
0.0014491597 0.046373099 0.75060838
0.0014491536 0.044923782 0.75060767
0.0014491657 0.043475002 0.7506091
0.0014491779 0.042026192 0.75061059
0.0014491839 0.040577173 0.75061131
0.001449196 0.039128304 0.7506128
0.0014492081 0.037679404 0.75061423
0.0014492141 0.036230356 0.75061494
0.0014492262 0.034781456 0.75061643
0.0014492383 0.033332497 0.75061786
0.0014492383 0.03188327 0.75061786
0.0014492262 0.030433774 0.75061643
0.0014492141 0.028984308 0.75061488
0.0014492021 0.027534842 0.75061351
0.00144919 0.026085407 0.75061208
0.0014491839 0.024636149 0.75061131
0.0014491718 0.023186743 0.75060987
0.0014491597 0.021737427 0.75060838
0.0014491476 0.02028805 0.75060689
0.0014491356 0.018838763 0.75060552
0.0014491235 0.017389506 0.75060403
0.0014491235 0.015940338 0.75060403
0.0014491235 0.01449126 0.75060403
0.0014491235 0.013042122 0.75060403
0.0014491235 0.011593014 0.75060397
0.0014491235 0.010143876 0.75060397
0.0014491235 0.008694768 0.75060403
0.0014491174 0.0072455704 0.75060332
0.0014090464 0.0056361854 0.74576622
0.0014074084 0.004222244 0.74556851
0.0014069183 0.0028138757 0.74550939
0.0014064285 0.001406461 0.74545026
0.0014059448 2.9802322e-08 0.74539191
0.0014054558 -0.0014054477 0.74533284
0.001404967 -0.002809912 0.74527383
0.0014044843 -0.0042134225 0.74521559
0.0014039963 -0.0056159794 0.74515665
0.0014035086 -0.0070175529 0.74509776
0.0014031401 -0.0084187984 0.74505329
0.0014031401 -0.0098219514 0.74505329
0.0014031401 -0.011225075 0.74505335
0.0014031401 -0.012628257 0.74505335
0.0014031401 -0.01403138 0.74505329
0.0014031401 -0.015434533 0.74505329
0.0014031401 -0.016837686 0.74505335
0.0014031401 -0.01824078 0.74505335
0.0014031401 -0.019643933 0.74505329
0.0014031401 -0.021047056 0.74505329
0.0014031401 -0.022450209 0.74505329
0.0014031401 -0.023853391 0.74505335
0.0014031401 -0.025256515 0.74505335
0.0014031401 -0.026659667 0.74505329
0.0014031401 -0.028062791 0.74505329
0.0014031401 -0.029465944 0.74505335
0.0014031401 -0.030869067 0.74505329
0.0014031401 -0.03227219 0.74505329
0.0014031401 -0.033675313 0.74505329
0.0014031401 -0.035078466 0.74505329
0.0014031401 -0.036481619 0.74505329
0.0014031401 -0.037884772 0.74505335
0.0014031401 -0.039287925 0.74505329
0.0014031401 -0.040691048 0.74505335
0.0014031401 -0.042094201 0.74505329
0.0014031401 -0.043497324 0.74505329
0.0014031401 -0.044900477 0.74505329
0.0014031401 -0.04630366 0.74505329
0.0014393568 -0.048938125 0.74942505
0.0014432248 -0.05051288 0.749892
0.0014443768 -0.051997542 0.75003099
0.0014450195 -0.053465694 0.7501086
0.0014456627 -0.054935187 0.75018626
0.0014536582 -0.05669266 0.75115138
0.0029270314 0.067321748 0.75234133
0.0029045336 0.065352023 0.75098348
0.0029025807 0.06385681 0.75086558
0.0029025686 0.062405199 0.75086486
0.0029025686 0.060953945 0.75086474
0.0029025564 0.059502393 0.75086409
0.0029025564 0.058051139 0.75086409
0.0029025441 0.056599617 0.75086337
0.0029025441 0.055148363 0.75086343
0.002902532 0.053696841 0.7508626
0.002902532 0.052245557 0.7508626
0.0029025199 0.050794095 0.75086194
0.0029025078 0.049342692 0.75086117
0.0029025078 0.047891378 0.75086117
0.0029024957 0.046439946 0.75086045
0.0029024957 0.044988692 0.75086045
0.0029024836 0.043537259 0.75085974
0.0029024836 0.042086035 0.75085974
0.0029024715 0.040634602 0.75085902
0.0029024715 0.039183378 0.75085896
0.0029024594 0.037731975 0.75085819
0.0029024594 0.036280751 0.75085825
0.0029024472 0.034829408 0.75085747
0.0029024109 0.033377767 0.75085527
0.0029024109 0.031926543 0.75085533
0.0029024109 0.030475318 0.75085527
0.0029024109 0.029024094 0.75085533
0.0029024109 0.0275729 0.75085533
0.0029024109 0.026121676 0.75085533
0.0029024109 0.024670482 0.75085533
0.0029024109 0.023219287 0.75085533
0.0029024109 0.021768093 0.75085533
0.0029024109 0.020316899 0.75085533
0.0029024109 0.018865675 0.75085533
0.0029024109 0.01741448 0.75085533
0.0029024109 0.015963286 0.75085533
0.0029024109 0.014512062 0.75085533
0.0029024109 0.013060838 0.75085533
0.0029024109 0.011609674 0.75085527
0.0029024109 0.010158479 0.75085533
0.0029024109 0.0087072551 0.75085533
0.0029024109 0.0072560906 0.75085527
0.0027983026 0.0055966079 0.74457181
0.0027975929 0.0041964054 0.74452901
0.0027976378 0.0027976334 0.74453175
0.002797683 0.0013988316 0.74453443
0.0027977279 -0 0.74453717
0.0027978069 -0.0013988912 0.74454188
0.0027979196 -0.0027979016 0.74454868
0.0027979307 -0.0041968822 0.74454939
0.0027979307 -0.0055958629 0.74454933
0.0027979307 -0.0069948137 0.74454939
0.0027979307 -0.0083937943 0.74454933
0.0027979307 -0.0097927451 0.74454939
0.0027979307 -0.011191726 0.74454939
0.0027979307 -0.012590677 0.74454939
0.0027979307 -0.013989657 0.74454939
0.0027979307 -0.015388638 0.74454939
0.0027979307 -0.016787589 0.74454939
0.0027979307 -0.018186539 0.74454933
0.0027979307 -0.01958552 0.74454939
0.0027979307 -0.020984501 0.74454939
0.0027979307 -0.022383451 0.74454939
0.0027979081 -0.023782223 0.74454796
0.0027978744 -0.025180876 0.744546
0.0027978295 -0.02657935 0.74454319
0.0027977955 -0.027977943 0.74454117
0.0027977505 -0.029376388 0.74453849
0.0027977168 -0.030774862 0.74453646
0.0027977054 -0.032173604 0.74453574
0.002797683 -0.033572167 0.74453443
0.0027976716 -0.03497088 0.74453378
0.0027976604 -0.036369562 0.74453306
0.0027976492 -0.037768245 0.74453235
0.0027976378 -0.039166898 0.74453163
0.0027976267 -0.04056555 0.74453098
0.0027976152 -0.041964233 0.74453032
0.0027976041 -0.043362856 0.74452966
0.0027975815 -0.0447613 0.74452829
0.0027975703 -0.046159893 0.74452764
0.0028005014 -0.047608554 0.7447046
0.0028909405 -0.050591469 0.75016302
0.0028928539 -0.052071363 0.75027847
0.0028941552 -0.053541839 0.75035703
0.0028954695 -0.055013925 0.75043643
0.0043674796 0.06551221 0.75141311
0.0043635671 0.063998997 0.75125569
0.0043635489 0.062544197 0.75125504
0.0043635303 0.061089426 0.75125426
0.0043635122 0.059634626 0.75125349
0.0043635122 0.058180153 0.75125349
0.004363494 0.056725413 0.75125277
0.0043634758 0.055270731 0.75125206
0.0043634758 0.053816229 0.75125206
0.0043634758 0.052361727 0.75125206
0.0043634577 0.050906986 0.75125134
0.0043634577 0.049452513 0.75125134
0.0043634577 0.047998041 0.75125134
0.0043634577 0.046543539 0.75125128
0.0043634577 0.045089036 0.75125128
0.0043634577 0.043634593 0.75125134
0.0043634577 0.042180091 0.75125134
0.0043634577 0.040725589 0.75125128
0.0043634577 0.039271146 0.75125134
0.0043634577 0.037816644 0.75125128
0.004363439 0.036361992 0.75125057
0.004363439 0.03490755 0.75125051
0.0043748482 0.033540487 0.75170964
0.0044698254 0.03277871 0.75553119
0.0044702091 0.031291485 0.75554663
0.0044698832 0.029799223 0.75553352
0.0044695572 0.028307199 0.75552046
0.0044692121 0.026815295 0.75550652
0.0044688866 0.025323689 0.75549346
0.0044685607 0.023832351 0.75548035
0.0044682161 0.022341073 0.75546646
0.0044678906 0.020850152 0.75545329
0.004467546 0.01935938 0.75543952
0.0044672205 0.017868906 0.75542641
0.0044668759 0.016378522 0.75541258
0.0044665504 0.014888495 0.75539947
0.0044662058 0.013398647 0.75538558
0.0044658808 0.011909008 0.75537246
0.0044655362 0.010419607 0.75535864
0.0044652112 0.0089304447 0.75534552
0.0044648862 0.0074414909 0.75533253
0.0042050905 0.0056068003 0.74487913
0.004203564 0.004203558 0.74481767
0.004203564 0.0028024018 0.74481761
0.004203564 0.001401186 0.74481767
0.004203564 -0 0.74481767
0.004203564 -0.001401186 0.74481767
0.0042035473 -0.0028023422 0.74481702
0.0042035473 -0.0042035282 0.74481702
0.0042035473 -0.0056047142 0.74481702
0.0042035473 -0.0070059001 0.74481702
0.0042035473 -0.0084070861 0.74481702
0.0042035473 -0.0098082721 0.74481702
0.0042035473 -0.011209458 0.74481702
0.0042035473 -0.012610584 0.74481696
0.0042035473 -0.01401177 0.74481696
0.0042035473 -0.015412986 0.74481696
0.0042035473 -0.016814142 0.74481702
0.0042035473 -0.018215358 0.74481702
0.0042035473 -0.019616544 0.74481702
0.0042035473 -0.02101773 0.74481702
0.0042035473 -0.022418886 0.74481702
0.0042035473 -0.023820072 0.74481702
0.0042035473 -0.025221258 0.74481702
0.0042035473 -0.026622444 0.74481696
0.0042035473 -0.02802363 0.74481702
0.0042035473 -0.029424816 0.74481702
0.0042035473 -0.030826032 0.74481702
0.0042035473 -0.032227159 0.74481696
0.0042035473 -0.033628374 0.74481696
0.0042035473 -0.03502956 0.74481696
0.0042035473 -0.036430746 0.74481702
0.0042035473 -0.037831932 0.74481702
0.0042035473 -0.039233118 0.74481702
0.0042035473 -0.040634304 0.74481702
0.0042035473 -0.04203546 0.74481702
0.0042035473 -0.043436646 0.74481702
0.0042035473 -0.044837832 0.74481702
0.0042035473 -0.046239018 0.74481702
0.0043355091 -0.049135745 0.75012672
0.0043461742 -0.050705373 0.75055587
0.0043487852 -0.052185416 0.7506609
0.0043507819 -0.053659648 0.7507413
0.0043527987 -0.055135399 0.75082242
0.0058455686 0.065762669 0.75208491
0.0058362903 0.064199179 0.75180495
0.0058362903 0.062740117 0.75180495
0.0058362903 0.061281085 0.75180495
0.0058362903 0.059821963 0.75180495
0.0058363145 0.05836314 0.75180566
0.0058363145 0.056904078 0.75180566
0.0058363145 0.055444986 0.75180572
0.0058363145 0.053985924 0.75180566
0.0058363145 0.052526832 0.75180572
0.0058363392 0.051067978 0.7518065
0.0058363392 0.049608916 0.75180644
0.0058363392 0.048149794 0.75180638
0.0058363392 0.046690732 0.75180638
0.0058363392 0.04523167 0.75180638
0.0058363392 0.043772548 0.75180644
0.0058363639 0.042313665 0.75180715
0.0058363639 0.040854543 0.75180721
0.0058363639 0.039395452 0.75180721
0.0058363639 0.037936389 0.75180721
0.0058363639 0.036477268 0.75180721
0.0058363881 0.035018325 0.75180793
0.0058451998 0.033609897 0.75207388
0.0059689563 0.032829285 0.75580847
0.0059702382 0.031343788 0.75584716
0.0059697768 0.029848903 0.75583327
0.0059693409 0.028354377 0.7558201
0.0059689051 0.026860088 0.75580692
0.0059684436 0.025365889 0.75579304
0.0059680077 0.023872018 0.75577992
0.0059675467 0.022378296 0.75576597
0.0059671113 0.020884871 0.7557528
0.0059666499 0.019391596 0.75573891
0.0059662145 0.017898649 0.75572574
0.0059657535 0.016405851 0.75571191
0.0059653185 0.014913291 0.75569874
0.0059648575 0.01342091 0.75568479
0.0059644226 0.011928856 0.75567168
0.0059639872 0.010437012 0.75565857
0.0059635267 0.0089452863 0.75564462
0.0059630917 0.0074538887 0.75563151
0.0056825029 0.0056824982 0.74716401
0.0056808535 0.0042606592 0.74711424
0.0056808535 0.0028404593 0.74711418
0.0056808535 0.0014201999 0.74711424
0.0056808535 2.9802322e-08 0.74711424
0.0056808535 -0.0014201999 0.7471143
0.0056808535 -0.0028404593 0.7471143
0.0056808535 -0.0042606294 0.74711424
0.0056808535 -0.0056808591 0.74711424
0.0056808535 -0.007101059 0.74711424
0.0056808535 -0.008521229 0.74711424
0.0056808535 -0.0099414885 0.74711424
0.0056808535 -0.011361718 0.7471143
0.0056808535 -0.012781888 0.74711424
0.0056808535 -0.014202118 0.74711424
0.0056808535 -0.015622348 0.74711424
0.0056808535 -0.017042518 0.74711418
0.0056808535 -0.018462777 0.74711424
0.0056808535 -0.019883007 0.74711424
0.0056808535 -0.021303177 0.7471143
0.0056808535 -0.022723436 0.7471143
0.0056808535 -0.024143606 0.74711424
0.0056808535 -0.025563836 0.74711424
0.0056808535 -0.026984066 0.74711424
0.0056808535 -0.028404236 0.74711424
0.0056808535 -0.029824466 0.74711424
0.0056808535 -0.031244695 0.7471143
0.0056808535 -0.032664895 0.74711418
0.0056808535 -0.034085095 0.74711424
0.0056808535 -0.035505325 0.74711424
0.0056808535 -0.036925524 0.74711424
0.0056808535 -0.038345754 0.74711424
0.0056808535 -0.039765984 0.74711424
0.0056808535 -0.041186154 0.7471143
0.0056808535 -0.042606413 0.7471143
0.0056808535 -0.044026613 0.74711424
0.0056808535 -0.045446813 0.74711424
0.0056808535 -0.046867043 0.74711424
0.0057990574 -0.049291939 0.75068134
0.0058129546 -0.050863355 0.75110078
0.0058158981 -0.0523431 0.75118959
0.0058186739 -0.053822756 0.75127339
0.0058222814 -0.05531165 0.75138217
0.0073452988 0.06610769 0.75301051
0.007326033 0.064469099 0.75254542
0.007326033 0.063003898 0.75254548
0.007326033 0.061538726 0.75254542
0.007326033 0.060073495 0.75254536
0.007326033 0.058608294 0.75254536
0.007326033 0.057143062 0.75254536
0.007326033 0.055677891 0.75254542
0.007326033 0.05421266 0.75254542
0.007326033 0.052747428 0.75254542
0.007326033 0.051282227 0.75254542
0.007326033 0.049817026 0.75254548
0.007326033 0.048351824 0.75254542
0.007326033 0.046886623 0.75254536
0.007326033 0.045421392 0.75254542
0.0073260642 0.043956399 0.75254619
0.0073260642 0.042491168 0.75254619
0.0073260642 0.041025966 0.75254619
0.0073260642 0.039560735 0.75254613
0.0073260642 0.038095534 0.75254619
0.0073260642 0.036630332 0.75254613
0.0073260642 0.035165131 0.75254619
0.00733166 0.033725619 0.75268126
0.0074701458 0.032868654 0.7560246
0.007475256 0.031396091 0.75614798
0.0074747093 0.029898852 0.75613475
0.0074741305 0.028401703 0.7561208
0.0074735843 0.026904911 0.75610763
0.0074730376 0.025408328 0.7560944
0.0074724588 0.023911864 0.75608051
0.0074719125 0.022415727 0.75606728
