# .PCD v0.7 - Point Cloud Data file format
VERSION 0.7
FIELDS x y z
SIZE 4 4 4
TYPE F F F
COUNT 1 1 1
WIDTH 1331
HEIGHT 1
VIEWPOINT 0 0 0 1 0 0 0
POINTS 1331
DATA ascii
-0.02551382 0.034625888 0.79566443
-0.025421821 0.03268519 0.79487115
-0.025170323 0.03056401 0.79270267
-0.024938572 0.028501272 0.79070443
-0.024723986 0.026490003 0.7888543
-0.024664942 0.024664938 0.78834516
-0.023886438 0.022180289 0.78163278
-0.023084041 0.019786328 0.77471435
-0.022451101 0.017640173 0.76925701
-0.022138549 0.015813261 0.7665621
-0.021962337 0.014118642 0.76504278
-0.021795841 0.012454778 0.7636072
-0.021631271 0.01081562 0.76218832
-0.022020198 0.0094372332 0.76554167
-0.022211937 0.0079328418 0.76719487
-0.022618541 0.0064624548 0.77070069
-0.02266586 0.0048570037 0.77110869
-0.024582058 0.0035117269 0.7876305
-0.024411332 0.0017436743 0.78615844
-0.024180898 2.9802322e-08 0.7841717
-0.023943931 -0.0017102659 0.78212845
-0.023711676 -0.0033873618 0.78012598
-0.023493636 -0.0050343275 0.77824593
-0.023133645 0.039149255 0.79048526
-0.02278739 0.036810428 0.78727019
-0.022501566 0.034617811 0.78461617
-0.022225991 0.032484204 0.78205734
-0.023286533 0.032242924 0.79190493
-0.023041014 0.030130535 0.78962523
-0.022879263 0.028159112 0.78812325
-0.022931414 0.026459336 0.78860748
-0.023001825 0.024771214 0.78926134
-0.021779336 0.021779358 0.77790993
-0.021556498 0.019898355 0.77584088
-0.021546217 0.018231422 0.77574533
-0.021060903 0.016200691 0.77123898
-0.020411476 0.01413101 0.76520884
-0.019960854 0.012283653 0.76102453
-0.019735761 0.010626972 0.75893444
-0.019587196 0.0090402663 0.75755501
-0.019443948 0.0074784458 0.75622487
-0.019307565 0.0059408247 0.75495851
-0.019207895 0.0044326186 0.75403303
-0.01927568 0.0029654801 0.75466245
-0.021081643 0.0016216934 0.77143157
-0.021191821 -2.9802322e-08 0.77245462
-0.022049798 -0.0016961098 0.78042132
-0.021824056 -0.0033575296 0.7783252
-0.021628026 -0.0049910545 0.77650499
-0.021429386 -0.0065936446 0.77466047
-0.021232961 -0.0081665218 0.77283669
-0.021043243 -0.0097122788 0.77107507
-0.02260047 0.041434228 0.80302256
-0.021642534 0.03787443 0.7933864
-0.020650422 0.034417361 0.78340656
-0.020320429 0.032174021 0.78008711
-0.02007458 0.030111879 0.777614
-0.019836588 0.028101832 0.77521998
-0.01960583 0.026141137 0.77289867
-0.019602513 0.024503142 0.77286536
-0.019753888 0.023046166 0.77438807
-0.019855857 0.021510512 0.77541387
-0.019952009 0.019951999 0.77638102
-0.020038979 0.018369079 0.77725589
-0.020056427 0.016713679 0.77743137
-0.019007299 0.014255464 0.76687801
-0.018783225 0.012522161 0.764624
-0.018528979 0.010808587 0.76206642
-0.018019309 0.0090096593 0.75693959
-0.017692672 0.0073719323 0.75365388
-0.017649012 0.005883038 0.75321472
-0.017740095 0.0044350326 0.75413084
-0.017832125 0.0029720366 0.75505662
-0.017925112 0.0014937818 0.75599205
-0.018020477 5.9604645e-08 0.75695133
-0.018119775 -0.0015099645 0.75795013
-0.01821126 -0.0030351877 0.75887048
-0.018309943 -0.0045774877 0.75986314
-0.018441619 -0.0061472058 0.76118767
-0.019447451 -0.0081031024 0.77130562
-0.019272262 -0.0096361339 0.76954329
-0.019100113 -0.011141717 0.7678116
-0.018931013 -0.012620658 0.76611066
-0.018961832 -0.01422134 0.7664206
-0.020789554 0.043469042 0.80381763
-0.020012882 0.040025771 0.79529464
-0.019980136 0.038143903 0.79493535
-0.019774022 0.035952777 0.79267347
-0.01927454 0.033292413 0.78719234
-0.018362269 0.030047357 0.77718133
-0.018015467 0.027842104 0.77337563
-0.01780499 0.025898188 0.77106595
-0.017599942 0.023999929 0.76881576
-0.017401544 0.022147417 0.76663858
-0.017213924 0.020343721 0.76457977
-0.017063987 0.018615246 0.76293439
-0.0170477 0.017047703 0.76275563
-0.018509613 0.016826928 0.77879822
-0.017301036 0.014155388 0.76553559
-0.017293366 0.012577027 0.76545149
-0.017329432 0.011027843 0.76584727
-0.017181732 0.0093718767 0.76422644
-0.016703796 0.0075926483 0.75898176
-0.016236266 0.0059041083 0.75385123
-0.01630386 0.0044465065 0.75459296
-0.016388588 0.0029797554 0.75552273
-0.016474271 0.0014976859 0.75646293
-0.016560854 2.9802322e-08 0.75741315
-0.016646542 -0.0015133023 0.75835347
-0.016736783 -0.0030430257 0.75934374
-0.016826157 -0.0045889616 0.76032454
-0.016916415 -0.006151408 0.76131499
-0.017007798 -0.0077308118 0.76231778
-0.017360209 -0.0094691813 0.76618499
-0.017322835 -0.011023611 0.76577485
-0.017288202 -0.012573212 0.76539481
-0.017383026 -0.014222443 0.76643533
-0.017951585 0.043083847 0.79237407
-0.018052969 0.041521847 0.79359794
-0.018150192 0.039930433 0.79477149
-0.01813248 0.038078219 0.79455775
-0.017875856 0.0357517 0.79146004
-0.017634178 0.033504993 0.78854269
-0.01751392 0.031525046 0.78709102
-0.017006792 0.028911561 0.78096944
-0.016224448 0.025959134 0.77152568
-0.015857127 0.02378571 0.76709175
-0.015677616 0.021948665 0.76492488
-0.015502264 0.020152956 0.7628082
-0.015330723 0.018396884 0.7607376
-0.015453108 0.01699841 0.7622149
-0.01559865 0.015598655 0.76397169
-0.015686393 0.014117807 0.7650308
-0.015765753 0.012612581 0.76598877
-0.01584281 0.011089981 0.76691896
-0.015883438 0.0095300972 0.76740938
-0.014973319 0.0074866712 0.75642329
-0.014806028 0.0059224367 0.75440389
-0.014860104 0.00445804 0.75505662
-0.014937016 0.0029874444 0.75598502
-0.014994901 0.0014995039 0.75668377
-0.015031161 -0 0.7571215
-0.015034999 -0.0015034974 0.75716782
-0.015239014 -0.0030477941 0.7596305
-0.015337422 -0.0046012104 0.76081842
-0.015419984 -0.006167978 0.76181501
-0.01550344 -0.0077517331 0.76282239
-0.015587734 -0.0093526244 0.7638399
-0.015673092 -0.010971159 0.76487023
-0.015759317 -0.012607455 0.7659111
-0.015846424 -0.014261812 0.76696259
-0.01609705 0.042925447 0.79157776
-0.015846232 0.040495932 0.78821373
-0.016333466 0.039926261 0.79474866
-0.016249953 0.037916571 0.79362851
-0.016007813 0.035572916 0.7903809
-0.015790623 0.033335805 0.7874679
-0.015794292 0.031588584 0.78751707
-0.01582258 0.02988714 0.78789645
-0.014914336 0.026514381 0.77571487
-0.014761636 0.024602741 0.77366674
-0.01420329 0.022093982 0.76617813
-0.013834458 0.019983083 0.76123118
-0.013678518 0.018238008 0.75913966
-0.013529625 0.016536206 0.75714266
-0.013384569 0.014871776 0.75519711
-0.013246573 0.013246596 0.75334626
-0.013123002 0.011664927 0.75168896
-0.013135845 0.010216773 0.75186116
-0.013216901 0.0088112652 0.75294828
-0.013313343 0.0073963106 0.75424182
-0.013339522 0.0059286952 0.75459296
-0.013408729 0.0044695735 0.75552118
-0.013419144 0.0029820502 0.75566083
-0.013353705 0.001483798 0.75478315
-0.013278577 -0 0.75377548
-0.013212042 -0.0014680028 0.7528832
-0.013158174 -0.0029240251 0.75216067
-0.013112877 -0.0043709576 0.75155318
-0.013081009 -0.0058138072 0.75112569
-0.013990989 -0.0077727735 0.76333058
-0.014056896 -0.0093712509 0.76421458
-0.014087735 -0.010957122 0.76462823
-0.014222475 -0.012642205 0.76643538
-0.014301305 -0.0143013 0.76749271
-0.014381477 -0.015979379 0.76856798
-0.014280849 0.042842567 0.7911607
-0.014039512 0.04036364 0.78751922
-0.013811409 0.037981391 0.78407741
-0.013620701 0.035754353 0.78119981
-0.014160017 0.035400033 0.78933752
-0.014034195 0.033331245 0.78743899
-0.013196705 0.02969259 0.77480221
-0.01327238 0.028203815 0.77594411
-0.013187502 0.026375026 0.77466333
-0.013225902 0.024798572 0.77524281
-0.013234024 0.023159564 0.77536529
-0.012849363 0.020880193 0.76956129
-0.012301867 0.018452823 0.76130021
-0.011937656 0.016414315 0.7558046
-0.01179802 0.01474756 0.75369763
-0.011672482 0.013131559 0.75180346
-0.011646465 0.01164645 0.7514109
-0.011705956 0.01024273 0.75230855
-0.011766009 0.0088245273 0.75321466
-0.011826731 0.0073916912 0.75413096
-0.011888083 0.0059440434 0.75505662
-0.011950127 0.0044813454 0.75599277
-0.011980979 0.0029952228 0.75645834
-0.011680379 0.0014600456 0.75192261
-0.011659312 2.9802322e-08 0.7516048
-0.011711381 -0.0014639199 0.75239038
-0.011594003 -0.0028984845 0.75061929
-0.011431701 -0.0042868555 0.74817032
-0.011356184 -0.0056780875 0.74703091
-0.011317301 -0.0070732832 0.74644417
-0.011279964 -0.0084599853 0.74588084
-0.012376907 -0.010829777 0.76243246
-0.01226853 -0.012268513 0.76079714
-0.012163525 -0.013683945 0.75921273
-0.012818964 -0.016023695 0.76910257
-0.012891374 -0.017725646 0.77019513
-0.012649302 0.041562051 0.7938087
-0.012060952 0.037905842 0.78366303
-0.011866365 0.035599083 0.78030747
-0.011679806 0.033370882 0.77709031
-0.011502882 0.031222135 0.77403945
-0.011408732 0.029336751 0.77241582
-0.01149424 0.027914613 0.77389038
-0.011553204 0.026407331 0.77490723
-0.011610061 0.024878711 0.77588767
-0.011663507 0.023327053 0.77680928
-0.011682105 0.021695346 0.77713001
-0.010914792 0.01871106 0.76389825
-0.010868702 0.017079413 0.76310337
-0.010511309 0.015016168 0.75694036
-0.010178375 0.013086498 0.75119913
-0.010216597 0.011676103 0.75185823
-0.010268917 0.010268956 0.75276041
-0.010321734 0.0088472366 0.75367129
-0.010374962 0.0074106753 0.75458914
-0.010429146 0.0059595704 0.75552344
-0.010483673 0.0044929981 0.75646377
-0.010538726 0.0030110478 0.75741315
-0.010083393 0.0014404953 0.74956119
-0.010092764 2.9802322e-08 0.74972284
-0.010256879 -0.0014652908 0.75255287
-0.010315605 -0.0029472709 0.75356555
-0.01025234 -0.0043938458 0.75247461
-0.0099794278 -0.0057025254 0.7477684
-0.0097632371 -0.0069737434 0.74404031
-0.0096625108 -0.008282125 0.74230337
-0.0096234018 -0.0096233785 0.74162894
-0.0095925462 -0.010962874 0.74109685
-0.0095619252 -0.012293905 0.74056888
-0.010444596 -0.014920861 0.75578994
-0.010384708 -0.016318798 0.75475717
-0.010303195 -0.017662644 0.75335157
-0.011013981 0.042220265 0.7972635
-0.010944425 0.040129602 0.79586416
-0.010250131 0.035875469 0.78189605
-0.0099906335 0.033302099 0.77667534
-0.0098363087 0.031148314 0.77357054
-0.0096859587 0.02905789 0.77054578
-0.0098138982 0.027806073 0.77311969
-0.0099162646 0.026443392 0.77517915
-0.0093402378 0.023350596 0.76359034
-0.0093165301 0.021738619 0.76311344
-0.0093620485 0.020284444 0.7640292
-0.00936474 0.018729478 0.76408333
-0.0094019892 0.017236978 0.76483274
-0.009405382 0.015675694 0.76490098
-0.0091559766 0.013733983 0.75988334
-0.0087928344 0.011723787 0.75257754
-0.008824544 0.010295302 0.75321543
-0.0088636745 0.0088637173 0.75400269
-0.0088510681 0.007375896 0.75374907
-0.0089552803 0.00597018 0.75584567
-0.0090095373 0.00450477 0.75693727
-0.009038873 0.003012985 0.75752735
-0.0085445046 0.001424104 0.74758148
-0.0085482188 5.9604645e-08 0.74765623
-0.0086883642 -0.0014480948 0.7504757
-0.0088314591 -0.002943784 0.75335455
-0.0088284295 -0.004414171 0.75329363
-0.0087395729 -0.0058264136 0.75150597
-0.0086220335 -0.0071849823 0.74914122
-0.0081398087 -0.0081398189 0.73943961
-0.0080943955 -0.0094434321 0.73852593
-0.0080546793 -0.010739565 0.73772693
-0.0080196364 -0.012029439 0.73702192
-0.007994757 -0.013324589 0.73652142
-0.0079706721 -0.014612883 0.73603684
-0.0079467613 -0.015893519 0.73555577
-0.0079382583 -0.017199546 0.7353847
-0.0079446109 -0.018537432 0.73551255
-0.0079740863 -0.01993522 0.73610556
-0.0080855116 -0.021561325 0.73834723
-0.0091583356 0.042128354 0.79678106
-0.0091726482 0.040359676 0.79712665
-0.0090391645 0.037964493 0.79390407
-0.0088334512 0.035333812 0.78893775
-0.0081856465 0.031105459 0.77329832
-0.0080561377 0.0290021 0.7701717
-0.0079351543 0.026979536 0.7672509
-0.0078176446 0.025016457 0.76441395
-0.0077089658 0.0231269 0.76179028
-0.0077315737 0.021648437 0.76233602
-0.0077839498 0.02023828 0.76360053
-0.0078235241 0.018776447 0.76455593
-0.0078629684 0.01729852 0.76550817
-0.0078985011 0.015797049 0.766366
-0.0079033514 0.014226049 0.76648313
-0.0073586768 0.011773884 0.75333345
-0.0073726978 0.010321796 0.753672
-0.007378553 0.00885427 0.75381339
-0.007315299 0.0073153079 0.75228626
-0.0072439862 0.0057951808 0.75056458
-0.0071754726 0.0043053329 0.74891055
-0.0071102502 0.002844125 0.74733597
-0.0070488043 0.0014097691 0.74585253
-0.0070398645 -0 0.7456367
-0.0071539627 -0.0014308095 0.74839127
-0.0072596353 -0.0029038489 0.75094247
-0.0068289 -0.0040973127 0.74054354
-0.006778622 -0.0054228902 0.7393297
-0.0067307213 -0.0067307055 0.73817331
-0.0066859107 -0.0080230832 0.73709154
-0.0066448939 -0.0093028545 0.73610127
-0.0066058086 -0.010569274 0.73515767
-0.0065700607 -0.011826098 0.73429459
-0.0065369108 -0.013073802 0.73349428
-0.0065072849 -0.014315993 0.73277903
-0.0064820112 -0.015556812 0.73216891
-0.0064628655 -0.016803443 0.73170674
-0.006443976 -0.018043101 0.7312507
-0.0064287628 -0.019286305 0.73088342
-0.0064250543 -0.020560175 0.73079389
-0.0064326189 -0.021870911 0.73097646
-0.0064642122 -0.023271143 0.73173916
-0.0073402496 0.042206436 0.79719102
-0.0073621785 0.040492028 0.79785275
-0.0072769159 0.038203835 0.79527968
-0.0071248678 0.035624355 0.79069126
-0.0070725149 0.033594489 0.78911132
-0.006689046 0.030100733 0.77753913
-0.0063362289 0.026928961 0.76689196
-0.006242543 0.024970204 0.76406473
-0.006150852 0.023065656 0.7612977
-0.0060662073 0.021231741 0.75874335
-0.0062177717 0.020207763 0.76331723
-0.0062713013 0.018813938 0.76493257
-0.0058715474 0.016146749 0.75286889
-0.0058759162 0.014689803 0.75300086
-0.0058892365 0.013250798 0.75340271
-0.0058830045 0.011766016 0.75321466
-0.0059133656 0.01034838 0.75413096
-0.0059381751 0.0089072585 0.75487959
-0.0058829794 0.0073537529 0.753214
-0.0057532331 0.0057532489 0.74929845
-0.0056961966 0.0042721927 0.74757731
-0.0056418362 0.0028209388 0.74593675
-0.0055896053 0.0013974011 0.74436057
-0.005539767 5.9604645e-08 0.74285656
-0.0054924157 -0.0013730824 0.74142766
-0.0054466561 -0.0027233064 0.74004674
-0.0054035224 -0.004052639 0.73874509
-0.0053771194 -0.0053771138 0.73794824
-0.0053567067 -0.0066958368 0.73733222
-0.0053428691 -0.0080142617 0.73691463
-0.0053068018 -0.0092868805 0.73582625
-0.005213913 -0.010427833 0.73302311
-0.005182032 -0.011659592 0.73206103
-0.0051515694 -0.012878925 0.73114169
-0.0051233699 -0.014089286 0.73029071
-0.0050971778 -0.015291512 0.72950023
-0.005073362 -0.016488433 0.72878158
-0.0050517321 -0.017681062 0.72812885
-0.0050343312 -0.018878698 0.72760367
-0.0050200028 -0.02008 0.7271713
-0.0050060805 -0.021275818 0.72675121
-0.0049981233 -0.022491574 0.72651106
-0.0049970634 -0.02373606 0.72647905
-0.0050066756 -0.025033355 0.72676909
-0.0050368304 -0.026443332 0.72767913
-0.0055354442 0.042438418 0.79840839
-0.005536356 0.040599942 0.79844505
-0.0055183605 0.038628548 0.79772103
-0.0053860322 0.035906881 0.79239655
-0.0053229677 0.033712149 0.78985906
-0.0053326893 0.031996131 0.79025012
-0.0049774037 0.028205305 0.7759546
-0.0047705048 0.02544269 0.76762962
-0.0046050688 0.023025364 0.76097298
-0.0045385035 0.021179676 0.75829458
-0.0044744303 0.019389212 0.7557165
-0.0044135423 0.017654181 0.75326651
-0.004362362 0.015995353 0.75120717
-0.0043785418 0.014595151 0.75185817
-0.0044009644 0.013202906 0.75276047
-0.0044235997 0.011796266 0.75367123
-0.0044465074 0.010375172 0.75459296
-0.0044696149 0.0089392364 0.75552273
-0.0044906409 0.0074844062 0.75636876
-0.0042883516 0.005717814 0.74822927
-0.0042436421 0.0042436421 0.74643028
-0.0042013279 0.0028008819 0.74472773
-0.0041610943 0.0013870597 0.74310881
-0.0041221622 -0 0.74154234
-0.0040850081 -0.0013616383 0.7400474
-0.0040492257 -0.0026994646 0.73860759
-0.0040541394 -0.0040541291 0.73880529
-0.0040690941 -0.0054254532 0.739407
-0.0040629725 -0.0067715943 0.73916066
-0.0040527838 -0.0081055462 0.73875076
-0.0038925032 -0.0090824664 0.73230159
-0.0038652243 -0.010307252 0.73120391
-0.0038392299 -0.011517704 0.73015803
-0.0038145599 -0.01271522 0.72916543
-0.0037910317 -0.013900429 0.72821867
-0.0037693041 -0.015077204 0.72734445
-0.0037481748 -0.016242087 0.72649419
-0.0037291341 -0.017402619 0.72572809
-0.0037109994 -0.018555015 0.72499847
-0.0036950954 -0.019707173 0.72435844
-0.0036805095 -0.020856202 0.72377157
-0.0036687993 -0.02201277 0.7233004
-0.0036586528 -0.023171425 0.72289217
-0.0036500439 -0.024333596 0.72254574
-0.003646137 -0.025522947 0.72238857
-0.0036472597 -0.026746571 0.72243375
-0.0036562786 -0.028031468 0.72279662
-0.0036821996 -0.029457599 0.72383964
-0.0036853449 0.040538788 0.79810959
-0.0037021902 0.038873047 0.79912627
-0.0036396966 0.03639698 0.79535443
-0.0035627992 0.033846617 0.79071331
-0.003567463 0.032107204 0.79099476
-0.0033258123 0.02826941 0.77640986
-0.0033339974 0.026672035 0.77690387
-0.003287191 0.024653912 0.77407885
-0.0030386341 0.021270424 0.75907707
-0.0029776494 0.019354731 0.75539637
-0.0029357984 0.017614812 0.75287044
-0.0029116895 0.016014338 0.75141531
-0.0029264768 0.014632404 0.75230777
-0.0029415023 0.013236791 0.75321466
-0.0029566828 0.011826754 0.75413084
-0.0029720208 0.010402083 0.75505668
-0.0029875189 0.0089625716 0.75599205
-0.0028767951 0.0071919858 0.74930924
-0.0028440189 0.0056880414 0.74733102
-0.0028136086 0.0042204559 0.74549556
-0.0027910424 0.0027910471 0.74413359
-0.002756119 0.0013780594 0.74202579
-0.0027293069 -0 0.74040759
-0.0027037582 -0.0013518929 0.73886555
-0.0026789624 -0.0026789606 0.73736906
-0.0026554083 -0.0039831102 0.73594737
-0.002636519 -0.0052730143 0.73480731
-0.0027312271 -0.0068280399 0.74052346
-0.0025899634 -0.0077698827 0.73199749
-0.0025699455 -0.0089947879 0.7307893
-0.0025507871 -0.010203153 0.72963297
-0.0025324288 -0.011395901 0.72852492
-0.0025149337 -0.012574673 0.72746897
-0.0024981096 -0.013739586 0.72645354
-0.0024823155 -0.014893889 0.72550029
-0.0024670437 -0.016035765 0.72457862
-0.0024529195 -0.017170429 0.72372609
-0.0024393073 -0.018294811 0.72290456
-0.0024266159 -0.019412905 0.72213852
-0.0024148696 -0.020526379 0.72142959
-0.0024039848 -0.02163583 0.72077262
-0.0023942282 -0.022745162 0.72018379
-0.0023857623 -0.023857623 0.71967286
-0.0023784949 -0.024974167 0.71923417
-0.0023723971 -0.026096374 0.71886617
-0.002367717 -0.027228743 0.71858364
-0.0023660804 -0.028392971 0.71848494
-0.0023679831 -0.029599786 0.71859974
-0.0023753082 -0.030879021 0.71904182
-0.0023961354 -0.032347828 0.72029889
-0.0018603916 0.042789012 0.80024844
-0.0018318795 0.040301353 0.79680675
-0.0018093297 0.037995934 0.79408473
-0.0018225114 0.036450267 0.79567587
-0.0017977778 0.034157783 0.79269028
-0.0016835564 0.030304015 0.77890253
-0.0016667829 0.028335333 0.77687782
-0.0016750589 0.02680096 0.77787679
-0.0016812754 0.025219142 0.77862728
-0.0015827224 0.022158116 0.76673084
-0.0015603905 0.02028513 0.76403505
-0.0014669882 0.017603874 0.75276047
-0.00145952 0.01605472 0.75185895
-0.0014669882 0.014669895 0.75276053
-0.0014745396 0.013270885 0.753672
-0.0014802938 0.01184237 0.75436658
-0.0014833651 0.010383576 0.75473732
-0.0014503937 0.0087023675 0.75075734
-0.0014332121 0.0071660876 0.74868327
-0.0014192968 0.0056772232 0.74700356
-0.0014150947 0.0042452812 0.74649632
-0.0014113872 0.0028227568 0.74604881
-0.0013709747 0.0013709664 0.74117064
-0.0013567937 2.9802322e-08 0.7394588
-0.0013448261 -0.0013448 0.73801422
-0.0013315761 -0.0026631355 0.73641479
-0.0013184646 -0.0039553642 0.73483205
-0.0013066251 -0.0052265227 0.73340297
-0.0012954017 -0.0064769685 0.73204809
-0.0012844693 -0.0077067912 0.73072851
-0.0012740562 -0.0089184046 0.72947156
-0.0012640633 -0.010112464 0.72826529
-0.001254457 -0.011290103 0.72710568
-0.0012452722 -0.012452692 0.72599697
-0.0012364144 -0.013600528 0.72492772
-0.0012280073 -0.014736086 0.72391295
-0.0012198891 -0.015858561 0.72293293
-0.001212199 -0.016970783 0.72200471
-0.0012048933 -0.01807338 0.72112286
-0.0011978652 -0.019165844 0.72027445
-0.0011913964 -0.020253718 0.71949357
-0.0011850212 -0.021330327 0.71872401
-0.0011793502 -0.022407651 0.71803945
-0.0011738243 -0.023476481 0.71737242
-0.0011690339 -0.024549693 0.71679425
-0.001164419 -0.025617212 0.71623713
-0.0011607509 -0.026697248 0.71579432
-0.0011573717 -0.027776897 0.71538645
-0.0011548561 -0.028871387 0.71508276
-0.0011531352 -0.029981494 0.7148751
-0.0011524353 -0.031115711 0.71479058
-0.0011538474 -0.032307744 0.71496105
-0.0011580969 -0.033584803 0.71547401
-0.0011718884 -0.035156637 0.71713883
0 0.037764877 0.79275656
0 0.035425872 0.7894932
0 0.034028381 0.79186821
0 0.032367051 0.79273748
0 0.028405547 0.77737606
0 0.026867658 0.77838004
0 0.025314569 0.7793951
0 0.02211532 0.76636165
0 0.020472348 0.76577407
0 0.018901676 0.76581538
0 0.016493559 0.75667441
0 0.014707536 0.75321466
0 0.013305098 0.75413096
0 0.011854857 0.75455558
0 0.010266215 0.75271416
0 0.0086842775 0.75039339
0 0.0071991682 0.74948263
0 0.0057439804 0.74901938
0 0.004296571 0.74855924
0 0.002856791 0.74810088
0 0.0014244318 0.7476238
0 -0 0.738657
0 -0.0013471842 0.73830688
0 -0.0027057827 0.73898816
0 -0.0040109754 0.73706853
0 -0.0051938891 0.73241979
0 -0.0064332485 0.73099262
0 -0.0076522827 0.72963125
0 -0.0088523924 0.72833359
0 -0.010033399 0.72707182
0 -0.011197686 0.7258662
0 -0.012346327 0.72471249
0 -0.013479084 0.72359455
0 -0.014598787 0.72253191
0 -0.015704274 0.72150058
0 -0.016798615 0.72052014
0 -0.01788184 0.71958143
0 -0.018953502 0.71867234
0 -0.020018935 0.71782625
0 -0.021072507 0.71699482
0 -0.022123516 0.71623427
0 -0.023165554 0.71549582
0 -0.024203479 0.71480393
0 -0.025239468 0.7141645
0 -0.026271522 0.71355993
0 -0.027308017 0.71302807
0 -0.028343201 0.71253246
0 -0.029387951 0.71211928
0 -0.030438542 0.71176296
0 -0.031503528 0.71149415
0 -0.03259784 0.71136582
0 -0.033771515 0.71156543
0 -0.035008281 0.71199787
0 -0.036364377 0.71285337
0 -0.038037688 0.71481729
0.001765981 0.035319626 0.7888521
0.0017406793 0.033072919 0.78579795
0.0017206129 0.03097105 0.78337568
0.0016739937 0.02845788 0.77774829
0.0016831078 0.026929736 0.77884847
0.0016918685 0.025378048 0.77990592
0.0015784301 0.022098035 0.7662127
0.0015805698 0.02054742 0.76647097
0.00158793 0.019055158 0.76735944
0.0015904376 0.017494828 0.76766211
0.0014897311 0.014897346 0.75550574
0.0014821691 0.013339549 0.7545929
0.0014844424 0.01187557 0.75486737
0.001466561 0.010265917 0.75270891
0.0014478735 0.0086872578 0.75045311
0.0014530928 0.0072654784 0.75108314
0.0014535913 0.0058143735 0.75114334
0.0014496797 0.0043490529 0.75067109
0.0014436146 0.0028872192 0.74993902
0.0014294328 0.0014294684 0.74822712
0.0013451489 -0 0.73805314
0.0013362669 -0.0013362467 0.73698103
0.0013546725 -0.0027093291 0.7392028
0.0013616481 -0.0040849149 0.74004477
0.0012911898 -0.0051647425 0.73153973
0.0012791073 -0.0063955486 0.73008126
0.0012674754 -0.0076048076 0.72867715
0.0012563575 -0.0087945163 0.7273351
0.0012455981 -0.0099647939 0.72603631
0.0012352847 -0.011117548 0.72479135
0.0012253136 -0.012253135 0.72358775
0.0012156852 -0.01337254 0.72242552
0.001206546 -0.014478534 0.7213223
0.0011976217 -0.015569061 0.72024506
0.0011891498 -0.016648054 0.71922237
0.0011809655 -0.0177145 0.71823448
0.0011730476 -0.018768728 0.71727866
0.0011656104 -0.019815385 0.71638095
0.00115829 -0.020849198 0.71549737
0.0011514843 -0.021878183 0.71467578
0.001144894 -0.022897869 0.71388024
0.0011385913 -0.023910403 0.71311945
0.0011327416 -0.024920315 0.71241331
0.001126959 -0.025920033 0.71171534
0.0011218686 -0.026924849 0.71110082
0.0011168455 -0.02792111 0.71049452
0.0011124368 -0.028923362 0.70996231
0.0011091309 -0.029946536 0.70956326
0.0011079391 -0.03102228 0.70941937
0.0011090105 -0.032161295 0.70954871
0.0011117712 -0.03335309 0.70988196
0.0011161962 -0.034602076 0.71041614
0.0011218794 -0.035900146 0.71110213
0.0011293582 -0.037268788 0.71200496
0.0011394726 -0.038742065 0.71322584
0.0011584638 -0.040546179 0.71551824
0.0037326142 0.037326187 0.80096251
0.0034779261 0.033040285 0.78559071
0.0034207634 0.030786872 0.78214067
0.003370346 0.028647959 0.77909768
0.0033577255 0.026861817 0.77833599
0.0033888686 0.025416493 0.78021562
0.0031631396 0.022141993 0.76659167
0.003166642 0.020583183 0.76680303
0.0031850007 0.019110024 0.76791114
0.0032010949 0.01760605 0.76888245
0.0029795261 0.014897645 0.75550967
0.0029720208 0.01337409 0.75505668
0.0029761319 0.011904538 0.75530475
0.0029376601 0.010281861 0.7529828
0.0028943119 0.0086829662 0.75036645
0.0028670747 0.0071677268 0.74872261
0.0029239894 0.0058479905 0.75215769
0.0029263536 0.0043895543 0.75230038
0.0028921678 0.0028921962 0.75023711
0.0028564332 0.0014282167 0.74808031
0.0026817746 2.9802322e-08 0.7375387
0.0026549925 -0.001327455 0.73592228
0.0026811331 -0.0026811063 0.73749995
0.0027144141 -0.0040716231 0.73950869
0.0025705064 -0.0051410198 0.73082316
0.0025455267 -0.0063637793 0.72931546
0.0025214765 -0.0075644255 0.72786391
0.0024984598 -0.0087445974 0.7264747
0.0024761858 -0.0099047124 0.72513032
0.0024549558 -0.011047304 0.723849
0.0024343512 -0.012171745 0.72260547
0.0024145509 -0.013280034 0.72141039
0.0023954993 -0.014373004 0.7202605
0.0023769492 -0.01545015 0.71914089
0.0023594212 -0.01651594 0.71808302
0.0023422916 -0.017567188 0.71704912
0.0023258838 -0.01860708 0.71605879
0.0023102341 -0.019636989 0.7151143
0.0022948391 -0.020653546 0.71418512
0.0022805007 -0.021664739 0.71331972
0.0022664734 -0.022664726 0.71247309
0.0022530337 -0.023656845 0.71166193
0.0022404096 -0.024644464 0.71090007
0.0022279336 -0.025621235 0.71014696
0.0022166132 -0.026599348 0.70946378
0.0022056312 -0.027570367 0.70880097
0.0021987713 -0.028584033 0.70838696
0.0021971934 -0.029662073 0.70829165
0.0021991541 -0.030788153 0.70841002
0.0022030722 -0.031944543 0.70864648
0.0022108166 -0.033162236 0.70911384
0.002220239 -0.034413725 0.70968264
0.0022317686 -0.035708308 0.71037847
0.0022460939 -0.037060529 0.71124309
0.0022624298 -0.038461268 0.71222901
0.0022838281 -0.039966971 0.71352053
0.0023170202 -0.041706383 0.71552384
0.005499437 0.034829795 0.79695958
0.0054102968 0.032461762 0.79337287
0.0050432896 0.028578669 0.77860558
0.0049741971 0.026529074 0.77582556
0.0049205222 0.024602592 0.77366585
0.004774875 0.022282749 0.76780546
0.0047432194 0.020553946 0.76653171
0.0047811605 0.019124657 0.76805836
0.0048125712 0.017646104 0.76932228
0.0044618472 0.014872879 0.75521022
0.004469634 0.013408929 0.7555235
0.0044793524 0.01194495 0.75591451
0.0044207857 0.01031515 0.75355804
0.0043508182 0.0087016523 0.75074267
0.004286306 0.0071438253 0.74814695
0.004225648 0.0056342185 0.74570626
0.004361121 0.0043611526 0.75115728
0.0043343017 0.002889514 0.75007814
0.0042850552 0.0014283061 0.74809659
0.0040144823 -0 0.73720968
0.0039681019 -0.0013226867 0.73534334
0.0039728205 -0.0026485324 0.73553324
0.0038817914 -0.0038817823 0.73187053
0.0038413662 -0.0051218271 0.73024398
0.0038025652 -0.0063375831 0.7286827
0.0037652876 -0.00753057 0.72718275
0.0037295478 -0.0087022483 0.72574472
0.0036950824 -0.0098535419 0.72435796
0.0036621487 -0.010986418 0.72303277
0.0036301257 -0.012100428 0.7217443
0.0035996765 -0.013198823 0.72051913
0.0035700642 -0.01428026 0.71932763
0.0035415124 -0.015346527 0.71817875
0.0035141953 -0.016399592 0.71707964
0.0034874019 -0.017437011 0.71600151
0.0034621402 -0.018464774 0.71498507
0.0034375363 -0.019479334 0.7139951
0.0034136153 -0.020481676 0.7130326
0.0033911164 -0.021477044 0.71212733
0.0033689232 -0.022459507 0.71123439
0.0033479109 -0.023435354 0.71038884
0.0033277541 -0.024403512 0.7095778
0.0033078382 -0.025360107 0.70877647
0.0032908893 -0.026327133 0.70809448
0.0032798825 -0.027332336 0.70765156
0.0032759244 -0.028391302 0.70749229
0.0032777167 -0.029499412 0.70756447
0.0032838399 -0.030649126 0.70781076
0.0032933848 -0.031836063 0.70819485
0.0033080061 -0.033080071 0.70878327
0.0033244004 -0.034352154 0.70944285
0.0033448813 -0.035678715 0.71026695
0.0033667798 -0.037034571 0.71114808
0.0033898484 -0.038418263 0.71207625
0.003415595 -0.039848626 0.71311224
0.00344802 -0.041376233 0.71441698
0.0035072903 -0.043256551 0.71680176
0.0072026639 0.032412022 0.7930389
0.0071057444 0.030199409 0.79011416
0.0066154059 0.026461691 0.77531683
0.0065225493 0.0244596 0.77251464
0.0064300313 0.022505105 0.7697227
0.0063129747 0.020517141 0.76619023
0.0063568037 0.019070417 0.76751286
0.0064156363 0.017643005 0.76928824
0.0059557073 0.0148893 0.75540864
0.0059750378 0.013443857 0.75599205
0.0060063587 0.01201272 0.75693727
0.0060270648 0.01054737 0.7575621
0.0058300965 0.0087451637 0.75161803
0.0057311938 0.0071640015 0.74863338
0.0056453426 0.0056453347 0.74604255
0.0055637616 0.0041728318 0.7435807
0.0054910704 0.0027455688 0.74138701
0.0056810393 0.0014202297 0.7471199
0.0053470624 -0 0.73704123
0.0052826181 -0.0013206303 0.73509645
0.0052215718 -0.0026107728 0.73325419
0.0051626489 -0.0038719773 0.73147601
0.0051068603 -0.0051068664 0.72979254
0.0050532566 -0.0063165724 0.72817481
0.0050020088 -0.0075029731 0.7266283
0.0049526542 -0.0086671412 0.7251389
0.0049052853 -0.0098105371 0.72370934
0.0048597823 -0.010934502 0.72233629
0.0048158159 -0.012039542 0.72100943
0.0047739008 -0.013128251 0.71974456
0.0047329506 -0.01419884 0.71850878
0.0046940604 -0.015255719 0.71733516
0.0046562562 -0.016296923 0.71619427
0.0046195774 -0.017323405 0.71508741
0.0045847427 -0.018338978 0.71403623
0.0045504887 -0.019339591 0.71300244
0.0045178877 -0.020330489 0.71201861
0.0044864747 -0.021310747 0.71107072
0.004455524 -0.022277594 0.71013665
0.0044266609 -0.02323997 0.70926565
0.0043983082 -0.024190694 0.70841002
0.0043724338 -0.025141478 0.70762914
0.0043561673 -0.026136965 0.7071383
0.0043492969 -0.027183115 0.70693099
0.00434912 -0.028269261 0.70692563
0.0043567545 -0.029408067 0.707156
0.0043698908 -0.030589223 0.70755243
0.0043881019 -0.031813741 0.70810205
0.0044131395 -0.033098549 0.7088576
0.0044406625 -0.034415126 0.70968819
0.0044701118 -0.03576088 0.71057689
0.0044999546 -0.037124574 0.71147746
0.0045301984 -0.038506657 0.71239018
0.0045608515 -0.039907426 0.71331519
0.0045959004 -0.04136309 0.71437287
0.0046420731 -0.042939186 0.71576625
0.0087368349 0.027957886 0.78660518
0.008583555 0.025750667 0.78290468
0.0080199903 0.02245599 0.76929891
0.0079146568 0.020578116 0.76675606
0.0078339661 0.01880154 0.764808
0.0079782251 0.017552108 0.7682907
0.0074671917 0.014934391 0.75595331
0.0074883052 0.013478965 0.75646299
0.0075276615 0.012044281 0.75741321
0.0075674341 0.010594398 0.75837338
0.007601704 0.0091220438 0.75920069
0.0075011407 0.0075011253 0.75677288
0.0070789326 0.0056631565 0.74657989
0.0069716983 0.0041830242 0.74399102
0.0068721459 0.0027488768 0.74158764
0.0067753438 0.0013550818 0.73925066
0.0066842129 -0 0.73705053
0.0065996354 -0.0013199151 0.7350086
0.0065194946 -0.0026077628 0.73307383
0.0064430917 -0.0038658679 0.73122936
0.0063707945 -0.0050966144 0.72948396
0.0063007874 -0.0063007772 0.72779381
0.006234494 -0.0074813962 0.72619331
0.0061705667 -0.0086387992 0.72464997
0.0061095911 -0.0097753108 0.72317791
0.0060506514 -0.010891199 0.72175497
0.0059942035 -0.011988372 0.72039223
0.0059398543 -0.013067633 0.71908009
0.0058871997 -0.014129281 0.71780896
0.0058371173 -0.015176475 0.71659982
0.0057880152 -0.016206443 0.7154144
0.005741382 -0.017224133 0.71428859
0.0056961114 -0.018227547 0.71319562
0.005651861 -0.019216329 0.71212733
0.0056101582 -0.020196557 0.71112055
0.0055691199 -0.021162629 0.71012974
0.00552961 -0.022118419 0.70917583
0.0054919589 -0.023066193 0.70826697
0.0054558446 -0.024005681 0.70739502
0.0054316064 -0.024985343 0.70680988
0.0054199146 -0.02601561 0.70652765
0.005417177 -0.027085871 0.70646155
0.0054240604 -0.028205097 0.70662773
0.0054395483 -0.029373556 0.70700163
0.0054643387 -0.03060028 0.70760012
0.0054965112 -0.031879753 0.70837682
0.0055326037 -0.033195615 0.70924819
0.0062152906 -0.03853479 0.7257297
0.0061687483 -0.039479971 0.72460604
0.0061372165 -0.040505618 0.72384483
0.0061063915 -0.041523457 0.7231006
0.0057331594 -0.040132105 0.71409005
0.0057595209 -0.041468561 0.71472651
0.0058039869 -0.042949498 0.71579993
0.0058804248 -0.044691235 0.71764529
0.010304186 0.025760502 0.78298354
0.010166507 0.023721874 0.78021365
0.0094707953 0.020520061 0.76621699
0.0093479436 0.018695861 0.76374543
0.0092200758 0.01690346 0.76117289
0.0090333503 0.015055567 0.75741631
0.0090095373 0.01351431 0.75693727
0.0090570142 0.01207605 0.75789237
0.0091049941 0.010622501 0.75885761
0.0091534844 0.0091534853 0.75983322
0.009200667 0.0076672435 0.76078248
0.0092041194 0.0061360896 0.76085198
0.008620929 0.0043104589 0.74911904
0.0082685202 0.0027561784 0.74202907
0.0081498316 0.0013583302 0.73964131
0.0080359895 2.9802322e-08 0.73735094
0.0079242885 -0.0013207197 0.73510373
0.0078228945 -0.0026076138 0.73306376
0.0077267527 -0.0038633347 0.73112959
0.0076356861 -0.0050904453 0.7292974
0.0075487895 -0.0062906146 0.7275492
0.0074663083 -0.0074662864 0.72588986
0.0073863682 -0.0086174309 0.72428155
0.0073106852 -0.0097475648 0.72275895
0.0072373915 -0.010856122 0.72128439
0.0071677696 -0.011946291 0.71988368
0.0071000545 -0.01301676 0.71852148
0.0070354352 -0.014070898 0.71722138
0.006973031 -0.015108228 0.71596587
0.0069124107 -0.016128957 0.71474624
0.0068549314 -0.017137289 0.71358991
0.006798422 -0.01812914 0.71245301
0.0067446036 -0.019109726 0.71137035
0.0066925329 -0.020077586 0.71032268
0.0066413032 -0.021030784 0.70929205
0.0065932479 -0.021977484 0.70832527
0.006546027 -0.022911072 0.70737517
0.0065096249 -0.02386862 0.70664287
0.0064908373 -0.024881542 0.70626485
0.0064839534 -0.025935829 0.70612645
0.0064889784 -0.027037412 0.70622748
0.0065049124 -0.02818796 0.70654804
0.0065342914 -0.029404312 0.70713913
0.006574369 -0.030680358 0.70794535
0.0078115216 -0.037755698 0.73283499
0.0077408678 -0.038704306 0.73141354
0.0076538506 -0.03954488 0.7296629
0.0074143182 -0.039543003 0.72484386
0.0073956437 -0.040676028 0.72446823
0.0073843538 -0.041844666 0.72424102
0.0073083276 -0.042631924 0.7227115
0.0069747572 -0.04184854 0.71600056
0.0069830273 -0.043061972 0.71616697
0.0070461351 -0.044625521 0.71743661
0.011839448 0.023678899 0.77984333
0.0116816 0.021694422 0.77712131
0.011456342 0.019639462 0.77323687
0.010735628 0.01687026 0.76080859
0.010599995 0.015142858 0.7584697
0.010538772 0.013549834 0.75741398
0.010594454 0.012107968 0.75837409
0.010650728 0.010650754 0.75934458
0.010707554 0.0091778934 0.76032448
0.010762371 0.0076874495 0.76126981
0.010753045 0.0061445832 0.76110893
0.010648536 0.0045636892 0.75930679
0.010355836 0.0029588044 0.75425935
0.0096498607 0.001378566 0.74208522
0.0093979249 -0 0.73774076
0.0092676887 -0.0013239682 0.73549497
0.0091397418 -0.0026113093 0.73328853
0.0090182554 -0.003864944 0.73119354
0.0089066364 -0.0050894916 0.72926879
0.0088006752 -0.0062861741 0.72744155
0.0086996639 -0.0074568391 0.72569966
0.0086036827 -0.0086036623 0.7240445
0.0085117314 -0.0097276866 0.7224589
0.0084230965 -0.010829717 0.72093046
0.0083388602 -0.011912614 0.71947783
0.0082571609 -0.012975514 0.71806896
0.008179687 -0.014022291 0.71673298
0.0081039779 -0.015050262 0.71542746
0.0080320165 -0.016064048 0.71418649
0.0079622865 -0.017062008 0.71298397
0.0078943968 -0.018044323 0.71181333
0.0078301504 -0.019016057 0.7107054
0.0077669658 -0.019972235 0.70961589
0.0077064526 -0.020917505 0.70857233
0.0076481742 -0.021851927 0.70756733
0.0075973379 -0.022792011 0.70669073
0.0075677899 -0.023784459 0.70618117
0.007554017 -0.024820328 0.70594364
0.0075538056 -0.025898755 0.70594007
0.0075676721 -0.027027398 0.70617908
0.0075989044 -0.028224528 0.70671773
0.0076452172 -0.029488683 0.70751637
0.0091072312 -0.036428928 0.73272789
0.0090394029 -0.037448943 0.73155826
0.0089909192 -0.038532495 0.73072213
0.0089453543 -0.039615154 0.72993648
0.0088750152 -0.040571481 0.72872353
0.0087811043 -0.041396588 0.72710401
0.0086835753 -0.042177349 0.72542226
0.0085888868 -0.042944431 0.72378933
0.0082724942 -0.042544276 0.71833342
0.0081750955 -0.043211222 0.71665376
0.0082375854 -0.044718295 0.71773136
0.013135592 0.019703418 0.77388006
0.012953127 0.017810553 0.77112693
0.012080585 0.015100718 0.75796127
0.012076018 0.013585538 0.75789237
0.012139992 0.012140006 0.75885761
0.012204645 0.010679066 0.75983322
0.012269992 0.0092025101 0.7608192
0.0122955 0.0076847076 0.76120412
0.012212474 0.0061062574 0.75995129
0.012101727 0.0045381784 0.75828028
0.011992971 0.0029982626 0.7566393
0.011860388 0.0014825463 0.75463879
0.011341589 -0 0.74681073
0.010626506 -0.0013282895 0.73602092
0.010471429 -0.0026178658 0.73368096
0.010328482 -0.0038731694 0.73152411
0.010189498 -0.0050947368 0.72942698
0.010060609 -0.0062878728 0.7274822
0.0099394871 -0.0074546039 0.7256546
0.009824926 -0.0085967779 0.72392601
0.0097149443 -0.0097149312 0.72226655
0.0096109519 -0.010812283 0.7206974
0.009510464 -0.011888057 0.71918118
0.0094141923 -0.01294449 0.7177285
0.0093221618 -0.01398319 0.71633983
0.0092329867 -0.015003592 0.71499437
0.0091483612 -0.016009659 0.7137174
0.0090653906 -0.016997606 0.71246552
0.0089867581 -0.017973542 0.71127903
0.0089103626 -0.018934488 0.71012634
0.0088358456 -0.019880652 0.70900196
0.0087654116 -0.020817816 0.70793915
0.0086982669 -0.021745652 0.70692599
0.008652376 -0.022712439 0.70623356
0.0086282585 -0.023727715 0.70586967
0.0086204456 -0.02478379 0.70575178
0.0086298659 -0.025889605 0.70589387
0.008658844 -0.02705887 0.70633119
0.0087091951 -0.028304875 0.70709091
0.01069252 -0.036087245 0.73701692
0.010591806 -0.037071347 0.7354973
0.010365262 -0.037574053 0.73207903
0.010219315 -0.038322449 0.72987688
0.010135699 -0.039275825 0.72861522
0.010076948 -0.04030782 0.72772872
0.01003504 -0.041394532 0.72709632
0.0099710394 -0.042376935 0.72613072
0.0098691564 -0.043177575 0.7245934
0.0097660385 -0.04394713 0.72303742
0.0094327526 -0.043626487 0.71800858
0.0094410814 -0.044845134 0.71813422
0.014541032 0.017772377 0.77070796
0.013817831 0.015353143 0.7610082
0.013628089 0.013628095 0.75846332
0.013644143 0.012128115 0.75867862
0.013763524 0.010704935 0.76027983
0.013840765 0.0092272162 0.76131576
0.013898525 0.0077213943 0.76209044
0.013659877 0.0060710907 0.75888968
0.013526875 0.0045089722 0.75710577
0.013388293 0.0029751956 0.75524706
0.013251175 0.0014723241 0.75340807
0.013165044 -0 0.75225276
0.013000147 -0.0014444292 0.75004113
0.012248545 -0.0027218759 0.73996043
0.011648367 -0.0038827956 0.73191065
0.0114909 -0.0051070452 0.72979867
0.011337841 -0.0062987804 0.72774583
0.011190806 -0.0074605048 0.72577375
0.011054683 -0.0085980892 0.72394806
0.010924921 -0.0097110271 0.72220761
0.010802946 -0.010802954 0.7205717
0.010684797 -0.011871964 0.71898699
0.010573742 -0.012923479 0.71749747
0.010465532 -0.013954043 0.71604615
0.010362604 -0.014968187 0.71466559
0.010263499 -0.015965402 0.71333641
0.010167561 -0.016945899 0.71204966
0.010076452 -0.017913699 0.71082771
0.009986992 -0.018864304 0.70962787
0.0099022416 -0.019804448 0.70849115
0.0098197805 -0.020730585 0.70738512
0.0097497944 -0.021666199 0.70644647
0.009709714 -0.022655964 0.70590889
0.0096910587 -0.02368924 0.70565867
0.0096919592 -0.024768323 0.70567083
0.0097149927 -0.025906652 0.7059797
0.0097662974 -0.027128607 0.70666778
0.012055284 -0.034826368 0.7373684
0.012016374 -0.036049128 0.73684651
0.01192155 -0.037089288 0.73557472
0.01181021 -0.038055092 0.73408133
0.011700973 -0.039003223 0.73261625
0.011590129 -0.039921522 0.73112953
0.011296516 -0.040165365 0.72719157
0.011235919 -0.041198373 0.7263788
0.011214 -0.042363971 0.72608483
0.011149113 -0.043357641 0.72521454
0.011037787 -0.044151127 0.7237215
0.010695248 -0.043969363 0.71912712
0.010658612 -0.045003027 0.7186358
0.010793587 -0.046772242 0.72044611
0.015234938 0.015234947 0.75958133
0.015095221 0.013585716 0.75789475
0.015017973 0.012014389 0.7569623
0.015197357 0.010638177 0.75912762
0.015400438 0.0092402697 0.76157904
0.01550344 0.0077517331 0.76282239
0.015587734 0.0062350929 0.7638399
0.015673021 0.0047019124 0.76486939
0.014801109 0.0029602349 0.75434446
0.014665239 0.0014665425 0.75270438
0.014534879 -0 0.75113088
0.014417338 -0.0014417171 0.74971199
0.014279466 -0.0028558671 0.74804771
0.013003416 -0.0039010346 0.73264444
0.012807763 -0.0051231086 0.73028266
0.012627862 -0.00631392 0.72811103
0.012461475 -0.0074768662 0.72610259
0.012299458 -0.0086096227 0.7241469
0.012145676 -0.0097165108 0.72229058
0.012003523 -0.010803133 0.72057462
0.011866442 -0.011866421 0.71891999
0.011737648 -0.012911379 0.71736526
0.011612435 -0.01393494 0.71585381
0.011494921 -0.014943361 0.71443528
0.011379799 -0.015931696 0.71304566
0.011270979 -0.01690647 0.71173209
0.011165441 -0.017864674 0.7104581
0.011063622 -0.018808156 0.70922905
0.010966515 -0.019739717 0.70805687
0.010873513 -0.020659685 0.70693427
0.010810589 -0.021621168 0.70617461
0.010775924 -0.02262941 0.70575619
0.01076464 -0.023682207 0.70562005
0.010776492 -0.024785936 0.7057631
0.010817624 -0.025962263 0.70625961
0.01343173 -0.03357932 0.73781461
0.01327897 -0.034525335 0.73597068
0.013180546 -0.03558746 0.73478252
0.013131233 -0.036767453 0.73418736
0.013101772 -0.03799513 0.73383164
0.013006775 -0.03902033 0.73268497
0.012887952 -0.039952606 0.73125064
0.012770811 -0.040866613 0.72983664
0.012655827 -0.04176423 0.72844863
0.012529869 -0.042601526 0.72692817
0.012420095 -0.043470323 0.72560316
0.012301592 -0.044285715 0.72417265
0.0119492 -0.044212013 0.71991891
0.011884625 -0.045161575 0.71913946
0.012026373 -0.046902835 0.72085047
0.016638136 0.015125602 0.7582612
0.016486565 0.013489008 0.75659794
0.016409766 0.0119344 0.75575513
0.016565736 0.010541826 0.75746673
0.016771005 0.0091478229 0.75971925
0.01730182 0.0047186911 0.7655443
0.017382946 0.0031605065 0.76643455
0.016057216 0.0014597476 0.75188637
0.015898323 -0 0.75014275
0.015718848 -0.0014289916 0.74817318
0.015611372 -0.002838403 0.74699378
0.014407441 -0.0039292872 0.73378223
0.014165871 -0.0051512122 0.73113132
0.013947674 -0.006339848 0.72873688
0.013746125 -0.0074978769 0.72652513
0.013561086 -0.0086297989 0.72449458
0.013386587 -0.0097356737 0.72257972
0.013218167 -0.010814875 0.7207315
0.013059017 -0.011871845 0.71898508
0.012910148 -0.012910128 0.71735138
0.012767278 -0.013927937 0.7157836
0.012631876 -0.014928579 0.71429777
0.01250087 -0.015910178 0.71286011
0.01237716 -0.016877949 0.71150255
0.012255795 -0.017826617 0.71017075
0.0121418 -0.018764585 0.70891976
0.012030438 -0.019686162 0.70769769
0.011933716 -0.020612776 0.70663631
0.011874101 -0.021589279 0.70598215
0.011845214 -0.022613555 0.70566511
0.011843123 -0.02368623 0.70564216
0.011871446 -0.024822146 0.705953
0.011936585 -0.026043475 0.70666784
0.014899714 -0.033862978 0.73918426
0.014775132 -0.034923017 0.73781717
0.014515008 -0.035627753 0.73496264
0.014336862 -0.036493808 0.73300773
0.014228042 -0.037510276 0.73181361
0.014167708 -0.038639158 0.73115146
0.014147257 -0.039869517 0.73092699
0.014051921 -0.040878326 0.72988081
0.013927853 -0.041783571 0.72851938
0.01380102 -0.042657644 0.72712749
0.013679218 -0.043524802 0.72579092
0.01355695 -0.044368178 0.72444916
0.013190979 -0.044369638 0.72043318
0.013119351 -0.045321375 0.71964711
0.013318902 -0.047221541 0.72183692
0.017858397 0.013393819 0.75532091
0.01781559 0.01187706 0.75489032
0.017976813 0.010486484 0.75651211
0.018163266 0.0090816319 0.75838763
0.01708978 -0.0014241338 0.74758923
0.016899031 -0.0028164685 0.74567044
0.015881537 -0.0039703548 0.73543525
0.015579263 -0.0051930547 0.73239458
0.015313267 -0.006380558 0.72971892
0.015070078 -0.0075350106 0.72727257
0.014848015 -0.0086613297 0.72503883
0.01464124 -0.009760797 0.72295886
0.014451054 -0.01083827 0.72104567
0.014269407 -0.011891156 0.71921849
0.014096177 -0.012921453 0.71747589
0.013932687 -0.013932675 0.71583134
0.013777315 -0.01492542 0.71426839
0.013629689 -0.015901297 0.7127834
0.013488204 -0.016860217 0.7113601
0.01335232 -0.017803073 0.7099933
0.013222877 -0.018732429 0.70869118
0.013096125 -0.019644171 0.70741618
0.013001793 -0.020586193 0.70646727
0.012949944 -0.021583229 0.70594567
0.012927621 -0.022623301 0.70572114
0.012935441 -0.023714989 0.70579976
0.012981392 -0.024881005 0.70626205
0.016285339 -0.03257063 0.73949718
0.016197784 -0.033745378 0.73861647
0.016073218 -0.034825295 0.73736334
0.015950551 -0.035888731 0.73612952
0.015824037 -0.036922753 0.73485684
0.01556577 -0.037617236 0.73225886
0.015359012 -0.038397521 0.73017907
0.015237441 -0.039363354 0.7289561
0.015165946 -0.040442497 0.72823691
0.015154592 -0.041675121 0.72812271
0.015060334 -0.042670965 0.72717458
0.01493037 -0.043546915 0.72586727
0.014802367 -0.044407099 0.72457957
0.014422113 -0.044468164 0.72075462
0.014362896 -0.045482486 0.72015893
0.01951139 0.018010557 0.75685108
0.019216312 0.013303608 0.75411117
0.019254729 0.011849046 0.75446796
0.019414281 0.01045385 0.75594944
0.01958915 0.0090411603 0.75757313
0.018279428 -0.0028122365 0.74541181
0.018094538 -0.004175663 0.74369502
0.017091207 -0.0052588284 0.73437864
0.016746325 -0.0064408779 0.73117626
0.016446225 -0.0075905621 0.72838974
0.016176132 -0.0087102056 0.72588181
0.015931606 -0.0098040402 0.72361124
0.01570675 -0.010873884 0.7215234
0.015496921 -0.011920691 0.71957499
0.015300756 -0.012946784 0.71775353
0.015113743 -0.013951153 0.71601707
0.01493564 -0.014935642 0.71436328
0.014768731 -0.015904784 0.71281338
0.014607544 -0.016854852 0.71131676
0.01445594 -0.017791897 0.70990902
0.014308992 -0.018711746 0.70854455
0.014173046 -0.019624233 0.70728219
0.014081631 -0.020580828 0.70643342
0.014031808 -0.021587402 0.70597076
0.014015611 -0.022640586 0.70582044
0.014034816 -0.023751199 0.70599872
0.014106873 -0.024958283 0.70666778
0.017346853 -0.03202492 0.73675239
0.0172504 -0.0331738 0.73585677
0.017315999 -0.034631997 0.73646593
0.017220804 -0.035766274 0.73558205
0.017090818 -0.036810994 0.734375
0.01696278 -0.037840039 0.73318613
0.016832441 -0.038844109 0.73197591
0.016644264 -0.039690197 0.73022854
0.016379137 -0.040317923 0.72776681
0.016350264 -0.041504502 0.72749865
0.016305704 -0.042645663 0.72708488
0.016171558 -0.043538779 0.72583932
0.015792802 -0.043733895 0.72232234
0.015640618 -0.04451561 0.72090924
0.015615206 -0.045644462 0.72067332
0.021002015 0.019501865 0.75676268
0.020809574 0.017836809 0.75510347
0.021064857 0.016550958 0.75730455
0.020729322 0.014806688 0.75441152
0.02059749 0.013241261 0.75327486
0.020714758 0.011837006 0.75428593
0.020878166 0.010439068 0.75569487
0.021044536 0.0090190768 0.75712931
0.019212902 -0.005489409 0.74133664
0.018303487 -0.0065369308 0.73349547
0.01790335 -0.0076728165 0.73004538
0.017567219 -0.0087836087 0.72714728
0.017271269 -0.0098692775 0.72459549
0.017001865 -0.010929763 0.72227263
0.016754577 -0.01196757 0.72014046
0.016526047 -0.012984723 0.71817005
0.016314166 -0.013983548 0.71634316
0.016112773 -0.014961839 0.7146067
0.015922645 -0.015922636 0.7129674
0.015739547 -0.016863793 0.71138871
0.015569529 -0.017793745 0.70992273
0.015403243 -0.018703908 0.70848894
0.015259929 -0.019619882 0.70725334
0.015168238 -0.020585448 0.70646274
0.01512156 -0.021602213 0.70606029
0.01511578 -0.022673666 0.70601046
0.015154015 -0.023813456 0.70634013
0.015241091 -0.025038928 0.70709091
0.018770177 -0.032177418 0.73751938
0.018496966 -0.033030272 0.73516369
0.018332181 -0.034045488 0.73374295
0.018241646 -0.0351803 0.73296225
0.018309137 -0.036618263 0.73354423
0.018206486 -0.037713408 0.73265916
0.018071486 -0.038724631 0.73149514
0.017938472 -0.039720923 0.73034829
0.017805057 -0.040697277 0.72919798
0.01765674 -0.04161945 0.7279191
0.017534228 -0.042583108 0.72686279
0.017395781 -0.043489426 0.72566903
0.016987201 -0.043681353 0.72214621
0.016844502 -0.044517606 0.72091585
0.016883554 -0.045826793 0.72125256
0.022340795 0.019362062 0.75546414
0.022137541 0.01771003 0.75382853
0.021937951 0.01608786 0.7522223
0.02187828 0.014585525 0.75174212
0.021924755 0.013154864 0.75211608
0.022123445 0.011799157 0.75371504
0.022339741 0.01042521 0.75545567
0.022526473 0.009010613 0.75695837
0.020293504 -0.0067645013 0.73898888
0.01953261 -0.0078130662 0.73286569
0.019059755 -0.0088945329 0.72906041
0.018680891 -0.009963125 0.72601146
0.018351361 -0.011010826 0.7233597
0.01805637 -0.012037545 0.72098577
0.017789213 -0.01304543 0.71883583
0.017542237 -0.014033794 0.71684837
0.017309723 -0.015001744 0.71497726
0.017095508 -0.015955806 0.71325338
0.016890032 -0.016890049 0.71159977
0.016697137 -0.017810255 0.71004748
0.016511943 -0.018713534 0.70855713
0.016356388 -0.019627661 0.70730537
0.016266901 -0.020604759 0.70658517
0.016227296 -0.021636367 0.70626652
