# .PCD v0.7 - Point Cloud Data file format
VERSION 0.7
FIELDS x y z
SIZE 4 4 4
TYPE F F F
COUNT 1 1 1
WIDTH 705
HEIGHT 1
VIEWPOINT 0 0 0 1 0 0 0
POINTS 705
DATA ascii
-0.029718107 0.0077046752 0.60166681
-0.031021668 0.0044316947 0.60254151
-0.02996785 0.0088793337 0.60278338
-0.033556916 -0.0011185408 0.60382676
-0.02806554 0.0044904649 0.60431659
-0.024751594 0.0078755021 0.60461241
-0.032824978 -0.0033956766 0.60543603
-0.037663706 -0.011413217 0.60657418
-0.037663706 -0.011413217 0.60657418
-0.026148407 0.0034106672 0.60603857
-0.021828562 0.0057443678 0.60748518
-0.030055678 -0.005779922 0.6083442
-0.026546156 -0.0011541843 0.60812604
-0.026546156 -0.0011541843 0.60812604
-0.030403074 -0.0093547702 0.60995704
-0.039551847 0.0046531558 0.60922563
-0.039551847 0.0058164299 0.60922557
-0.024649467 -0.003521353 0.61049241
-0.022335798 -0.0011755526 0.61070776
-0.015292926 0.0070582926 0.61080563
-0.015292926 0.0070582926 0.61080563
-0.023676816 -0.0047353208 0.61170632
-0.033200189 0.013042927 0.61193329
-0.038127519 -0.023829669 0.61262906
-0.035659496 -0.020207047 0.61228687
-0.032041967 -0.015427589 0.61205626
-0.041763049 -0.002386421 0.6128397
-0.016650228 0.0023786426 0.6123656
-0.041763049 0.011932284 0.6128397
-0.025235031 -0.010814965 0.61385828
-0.019225273 -0.0036047399 0.61384761
-0.041092455 -0.031423688 0.61469525
-0.03622701 -0.025358915 0.61457032
-0.031369887 -0.019304544 0.61444569
-0.021766908 -0.0084649324 0.61477631
-0.021766908 -0.0084649324 0.61477631
-0.040074699 -0.031573981 0.61539328
-0.035328098 -0.026800632 0.6158551
-0.031495091 -0.020592958 0.61502695
-0.017051077 -0.004871726 0.61582178
-0.044091191 -0.033068389 0.61664516
-0.036664646 -0.029331684 0.61633122
-0.030675013 -0.023313016 0.61691618
-0.026840895 -0.017080575 0.61607611
-0.026840895 -0.017080575 0.61607611
-0.044091083 -0.015921801 0.61664486
-0.044091083 -0.012247533 0.6166448
-0.01463826 -0.0024397075 0.61605364
-0.01463826 -0.0024397075 0.61605364
-0.044091083 0.0061237812 0.6166448
-0.022021396 0.012234122 0.61648285
-0.030925056 -0.025977045 0.61812347
-0.017329236 -0.0099024475 0.61822009
-0.0099095842 -0.0012386739 0.61832821
-0.0061831176 0.0037098825 0.61807775
-0.003731038 0.0049747229 0.61892951
-0.025044363 -0.022539914 0.61996025
-0.023711344 0.013727605 0.61944687
-0.030079858 -0.028826535 0.62009406
-0.046545573 -0.022643775 0.62065673
-0.023910118 -0.022651672 0.62070972
-0.020100581 -0.01758799 0.62045127
-0.04654545 -0.016353786 0.62065637
-0.0025099432 0.0037649274 0.62029266
-0.033869393 0.016307503 0.62022626
-0.04684687 -0.051911369 0.62163973
-0.039115932 -0.041639507 0.62111735
-0.0075994371 -0.0050662756 0.62169296
-0.036959838 -0.042057738 0.62264711
-0.034323316 -0.038137019 0.62225562
-0.02933489 -0.033161163 0.62276214
-0.025464546 -0.028010994 0.62249625
-0.012730284 -0.0127303 0.62247223
-0.0038090702 -0.0012696683 0.62206924
-0.026828274 -0.030660868 0.62301648
-0.0166479 -0.019209117 0.6233871
0.0012846598 0.0012846589 0.62387633
0.0012846598 0.0012846589 0.62387633
0.0038387333 0.0089570284 0.62326276
-0.042452633 -0.051457703 0.62409157
-0.019340299 -0.024497718 0.62444282
-0.0064318143 0.011577249 0.62408185
-0.040116511 -0.050469145 0.62501353
-0.0065009543 -0.011701733 0.62575102
0.0064721955 0.0051777661 0.62505668
0.0064721955 0.0051777661 0.62505668
0.0064721955 0.0051777661 0.62505668
-0.042999405 -0.056029513 0.6260916
-0.035208125 -0.046944141 0.6262114
-0.0065289233 -0.013057888 0.62642628
-0.0039071408 -0.0091166496 0.62601531
0.0026157759 -0.0026158094 0.6266802
0.0026157759 -0.0026158094 0.6266802
-0.020873405 0.015655071 0.6262818
-0.03422704 -0.048707724 0.62771064
-0.022356546 -0.034192353 0.62754965
-0.022356546 -0.034192353 0.62754965
-0.01708026 -0.027591169 0.62740177
0.0091765504 0.0091765523 0.62704808
-0.04862738 0.022342294 0.62744856
-0.033082303 -0.048961818 0.62853956
-0.0092441998 -0.019809008 0.62821466
0.014560332 0.0079419911 0.6285848
-0.033373319 -0.052062407 0.6299448
-0.05187685 -0.051876858 0.62937051
-0.05187685 -0.041235447 0.62937057
-0.05187685 -0.041235447 0.62937057
-0.05187685 -0.029263854 0.62937057
-0.051876705 -0.011971533 0.62937009
-0.051876705 -0.0093111992 0.62937009
0.0026616473 -0.0079849362 0.62944871
0.0026616473 -0.0079849362 0.62944871
-0.051876705 -0.0053206682 0.62937009
-0.051876705 0.005320698 0.62937009
-0.051876705 0.009311229 0.62937003
-0.051876705 0.015962064 0.62937009
-0.024174796 -0.042977393 0.63092387
-0.018784733 -0.036227673 0.63076967
-0.012074906 -0.028174758 0.63075638
-0.0053425683 -0.018698961 0.63003039
0.017466029 0.0067177117 0.63098383
-0.038965117 0.021497995 0.63099396
-0.03498577 -0.056515455 0.63123322
0.0080836518 -0.0053890944 0.63143462
0.0040540891 0.012162268 0.63192809
-0.035298765 -0.059736341 0.63268638
-0.025723198 -0.047384843 0.63222855
-0.0054382822 -0.024472237 0.63291878
0.001359457 -0.016313463 0.63290513
-0.010887057 -0.031300306 0.63307714
0.0040855524 -0.013618499 0.63319409
-0.0054704836 0.015043855 0.63389057
-0.054778714 -0.042453498 0.63411349
-0.054778714 -0.041084021 0.63411355
-0.054778714 -0.026019871 0.63411349
-0.054778714 -0.024650425 0.63411349
-0.05477855 2.9802322e-08 0.63411301
-0.05477855 0.006847322 0.63411307
-0.05477855 0.013694644 0.63411301
-0.05477855 0.017803043 0.63411301
0.02344045 0.0055153966 0.63524604
-0.0027737166 -0.0277372 0.63621271
0.0027709925 -0.020782441 0.63604832
0.022199113 0.0097121298 0.63628352
0.0041710902 0.013903648 0.63663578
-0.01118805 -0.040556669 0.63761878
-0.01118805 -0.040556669 0.63761878
0.0027965242 -0.023770452 0.63758934
-0.01408943 -0.04649511 0.63887858
-0.0042341636 -0.035284698 0.63917375
0.011299439 -0.016949147 0.63929951
0.011299439 -0.016949147 0.63929951
0.018359996 -0.0084738433 0.63928473
-0.019930087 -0.056943089 0.64064515
-0.015629221 -0.051150188 0.64031452
0.0085384566 -0.022769213 0.64058459
-0.054031659 0.028437734 0.64044094
0.0028624614 -0.031487077 0.6415689
0.027236525 -0.0028669834 0.64184302
-0.052961793 0.028627992 0.64158934
-0.00574722 -0.043104142 0.64224184
0.030159429 2.9802322e-08 0.64216435
-0.014493066 -0.056522951 0.64375091
0.018797344 -0.01590544 0.64334565
0.033250835 0.0014456809 0.64331412
-0.013118715 -0.056847766 0.6447562
-0.061128847 -0.04802984 0.64449233
0.017501768 -0.020418733 0.6448583
0.017501768 -0.020418733 0.6448583
-0.061128847 -0.002910912 0.64449233
-0.061128847 -0.0014554262 0.64449233
0.037874561 0.0043701231 0.64464509
-0.061128847 0.021831691 0.64449233
-0.061128847 0.021831691 0.64449233
0 -0.042427391 0.64540553
0.0029315737 -0.039576232 0.64574021
0.0073498399 -0.035279214 0.64624494
0.026659697 -0.01481092 0.64758801
0.026659697 -0.01481092 0.64758801
0.029534318 -0.010337025 0.6470595
0.037095021 -0.0029675961 0.64791471
0.037095021 -0.0029675961 0.64791471
0.038427874 -0 0.64721394
0.0029746722 -0.044620067 0.64834148
0.026790433 -0.016371936 0.64846474
0.031192629 -0.010397553 0.6481033
0.0015005983 -0.049519747 0.6499424
0.010461666 -0.037363082 0.64920908
-0.058519058 0.033010751 0.64992917
-0.0030073179 -0.055635363 0.65031183
-0.064612724 -0.037565529 0.65018654
-0.064612724 -0.037565529 0.65018654
0.018021313 -0.030035526 0.6500845
-0.064612724 -0.02854979 0.65018654
-0.064612724 -0.016528815 0.65018654
-0.064612724 -0.016528815 0.65018654
0.033197217 -0.01358068 0.65095222
0.045172438 0.0015057623 0.65056396
0.049588397 0.0075134039 0.65019351
-0.0015201973 -0.05776751 0.65230817
0.012270126 -0.044479191 0.65394604
0.033699863 -0.018381774 0.65371019
0.042929139 -0.0076659322 0.65387577
0.042929139 -0.0076659322 0.65387577
0.053492215 0.00611341 0.65329218
0.0061417408 -0.052204788 0.65414757
0.0076847919 -0.050719649 0.65433145
0.0076847919 -0.050719649 0.65433145
0.033870697 -0.020014465 0.65464747
0.028027324 -0.03114143 0.6567595
0.059145991 0.006225884 0.65668708
0.0093734497 -0.05467844 0.65738338
0.023405461 -0.037448764 0.65715671
0.054591827 -0 0.65708458
0.040812571 -0.018836588 0.65828538
0.036368843 -0.026881307 0.6596784
0.015849611 -0.052303672 0.66012585
0.049164958 -0.012687683 0.66024721
0.038592808 -0.030552626 0.66291094
-0.072304681 0.030528665 0.66275847
0.064369097 -0 0.66305506
0.035680521 -0.037302345 0.66457772
0.061676346 -0.0064922571 0.66472507
0.07148248 0.004873842 0.66491091
0.042345483 -0.030944794 0.66540229
0.070538826 -0 0.66682249
0.02467389 -0.055927485 0.66736424
0.041114852 -0.036181062 0.66732419
0.051031429 -0.024692595 0.66751504
0.0082494114 0.024748236 0.66796249
0.04133885 -0.038031697 0.66840577
0.067847468 -0.0066192746 0.66855812
-0.01323209 0.029772222 0.66846091
-0.076565012 -0.033289105 0.66972184
-0.076565012 -0.033289105 0.66972184
-0.076565012 -0.021637976 0.66972184
-0.076565288 -0.006657809 0.66972256
-0.076565012 0.039946944 0.66972184
0.048517894 0.016730309 0.67075676
0.053606831 -0.028478593 0.67102027
0.077379107 -0.0016821325 0.67185819
0.020197142 0.023563355 0.67197168
0.062668249 -0.022018582 0.67325622
0.0374832 -0.054520994 0.67446876
0.080035619 -0.0034057796 0.67436057
0.053045209 -0.037644982 0.67535651
0.043222565 -0.05359596 0.67750114
0.07094159 -0.020763397 0.67766774
0.072753385 -0.019054443 0.67790198
-0.08114294 0.015538007 0.67720449
-0.081142649 0.029349476 0.67720377
0.039902866 -0.058986843 0.67822599
0.074568979 -0.017341584 0.67813599
0.050263405 0.01906547 0.67802238
0.012152827 0.02777791 0.67837214
0.072176009 -0.026405871 0.68130207
-0.015852075 0.035226852 0.68141687
0.060071457 -0.0424034 0.68207669
0.079723634 0.01417309 0.68265951
0.079723634 0.01417309 0.68265951
0.063716799 0.017699122 0.68245131
0.064124852 -0.040968657 0.68381953
0.072903298 0.016003162 0.68344331
-0.08607439 -0.023311824 0.68526453
-0.08607439 -0.021518588 0.68526447
0.086184926 -0.017955184 0.68554252
0.086184926 -0.017955184 0.68554252
-0.08607439 -0.014345735 0.68526447
-0.08607439 -0.0089660883 0.68526453
-0.08607439 0.01255253 0.68526447
-0.08607439 0.017932177 0.68526447
-0.08607439 0.019725382 0.68526447
-0.08607439 0.021518588 0.68526453
-0.08607439 0.021518588 0.68526453
-0.08607439 0.023311824 0.68526447
-0.08607439 0.023311824 0.68526447
-0.08607439 0.025105029 0.68526447
-0.08607439 0.028691471 0.68526453
-0.08607439 0.039450794 0.68526447
-0.08607439 0.041244 0.68526453
0.05775043 -0.054141074 0.68665087
0.080995642 -0.025198638 0.68607163
0 0.03477028 0.68970644
0.082963333 -0.033185333 0.69134986
-0.091403 0.0037307739 0.6939739
-0.091403 0.041038096 0.6939739
0.087958016 0.016843051 0.69470781
0.081052244 -0.045238465 0.69633603
-0.060383461 0.05094856 0.69658315
0.0075793788 0.03600204 0.69753212
0.0075793788 0.03600204 0.69753212
-0.0094643561 0.039750308 0.69729388
-0.034169544 0.045559406 0.69795018
0.080064066 -0.051469743 0.6989134
0.076543592 -0.057407707 0.69979483
0.092770435 -0.042519778 0.70210373
0.092770435 -0.042519778 0.70210373
-0.097178385 0.021379262 0.70341349
0.0058632097 0.0390881 0.70472145
0.058821846 0.027450204 0.70548493
0.089485876 -0.059657216 0.70884639
0.038064361 0.034057558 0.71063441
0.092461169 0.022110313 0.71143568
0.022220863 0.038381487 0.71264923
0.022220863 0.038381487 0.71264923
-0.014109187 0.046358734 0.71210831
-0.066922635 0.05881083 0.7136004
0.074693196 0.0290474 0.71925592
0.074693196 0.0290474 0.71925592
-0.059607666 0.061736494 0.72577846
-0.040495489 0.057546198 0.72607982
-0.0065691564 0.052553266 0.73312658
-0.0065691564 0.052553266 0.73312658
-0.024306424 0.057451576 0.73553544
-0.024306424 0.057451576 0.73553544
0.025418188 0.050836384 0.74773562
0.037196539 0.048820466 0.7494303
0.045659237 0.050465494 0.7588861
0.039082497 0.053738415 0.76365876
-0.032506868 0.0025854609 0.60257691
-0.029138505 0.0070077977 0.60237646
-0.035446435 0.0094154775 0.60251546
-0.033439927 -0.0045343935 0.60564172
-0.027202409 0.010418549 0.60854071
-0.036392644 -0.017609298 0.61051315
-0.021341801 -0.0023712814 0.61192542
-0.015382417 0.0053235292 0.61163664
-0.027059305 -0.011142781 0.61291158
-0.01903693 -0.00059609115 0.61242664
-0.012767024 0.0051856837 0.61330396
-0.015558938 0.0095747411 0.61327571
-0.034907851 -0.02287063 0.61410588
-0.029002063 -0.016917855 0.61467326
-0.029002063 -0.016917855 0.61467326
-0.012743443 0.0097106248 0.61532581
-0.035012741 -0.028872609 0.61710554
-0.034274496 -0.026929945 0.61656469
-0.027168535 -0.020993888 0.61787373
-0.023424495 -0.016027302 0.61762452
-0.023424495 -0.016027302 0.61762452
-0.0037007092 0.0074014068 0.61770916
-0.028048843 0.013414681 0.61601263
-0.022021396 0.012234122 0.61648285
-0.043837857 -0.045090377 0.61999547
-0.029162643 -0.024820581 0.61860949
-0.019062243 -0.013261696 0.61887664
-0.037190065 -0.039082736 0.62098807
-0.027848331 -0.029114187 0.62160373
-0.04654545 -0.0050319433 0.62065637
-0.01003242 -0.0050161779 0.62018162
-0.01003242 -0.0050161779 0.62018162
-0.0050534783 -0.0012633801 0.6213063
-0.0012638429 0.0031582713 0.62136346
-0.022595191 0.013808191 0.62033087
-0.043126352 0.019026339 0.62191623
-0.043126352 0.019026339 0.62191623
-0.040682767 -0.045768082 0.62226802
-0.034785457 -0.039028987 0.62242889
-0.026941678 -0.032073408 0.62366831
-0.012810923 -0.014733911 0.62344563
-0.012810923 -0.014733911 0.62344563
-0.0025414696 -0 0.62219536
0.003196971 0.0051125884 0.62308979
0.0031913361 0.0089304149 0.62280357
-0.049136862 -0.051076479 0.62489212
-0.031174231 -0.040917568 0.62559843
-0.049136862 -0.036852628 0.62489212
-0.029074332 -0.036830939 0.62479436
-0.01806598 -0.023227721 0.62457246
-0.038887113 -0.054705702 0.62792695
0.0070162406 0.0008764267 0.62758446
0.0070162406 0.0008764267 0.62758446
-0.019233128 -0.033163518 0.62893194
-0.019233128 -0.033163518 0.62893194
-0.0052959565 -0.015887856 0.62862378
-0.0035441115 -0.015066823 0.62927443
-0.029091749 -0.048786692 0.63088703
0.0013355328 -0.010684282 0.63001722
0.013400508 0.0026801229 0.63056254
-0.051020019 0.024167359 0.63087416
-0.034123663 -0.060057655 0.63356775
-0.034123663 -0.060057655 0.63356775
-0.019037219 -0.040794015 0.63294667
-0.016819803 -0.03909741 0.63343477
-0.0067767613 -0.02507551 0.63240957
-0.0013570717 -0.018998981 0.63261718
0.004103967 -0.015047878 0.63393503
-0.02876541 -0.054791257 0.6341514
-0.021285567 -0.046695009 0.63458598
-0.05477855 0.00068475306 0.63411301
0.021247562 0.0047980696 0.63427323
-0.05477855 0.01506412 0.63411301
-0.026430514 -0.057034254 0.63672233
-0.018016098 -0.045733154 0.63609147
-0.0069793123 -0.034896582 0.6372996
-0.0013912937 -0.027131826 0.63674814
0.016697133 0.011131406 0.63676435
-0.018844411 -0.053238925 0.63941753
-0.057857227 -0.050801456 0.63914526
-0.0070605092 -0.038834423 0.63925987
-0.057857227 -0.035278797 0.6391452
-0.057857227 -0.035278797 0.6391452
0.0049465257 -0.024730697 0.63939261
-0.018284367 0.019690841 0.63858247
-0.057857055 0.021167219 0.63914472
-0.0071435617 -0.042861342 0.64126492
0.0028624614 -0.031487077 0.6415689
0.0028624614 -0.031487077 0.6415689
0.012903822 -0.020072579 0.64187402
0.027236525 -0.0028669834 0.64184302
-0.040688876 0.025699735 0.64115041
-0.040688876 0.025699735 0.64115041
0.0086602746 -0.027424186 0.64303541
0.010113075 -0.026005059 0.64319783
0.022980638 -0.0086176991 0.64217961
0.037514452 0.0072143078 0.64297318
0.024449252 0.011505544 0.64240921
0.02606266 0.011583418 0.64358413
0.0057653105 0.015854597 0.64278775
-0.0072806519 -0.049508452 0.64457464
0.024911653 -0.013188511 0.64569247
-0.0043795109 0.01897788 0.64502203
-0.023409098 0.023409098 0.64541215
0.029391315 -0.0088174045 0.64619637
0.038871169 0.00098341703 0.64698255
0.041261785 0.0044209361 0.64668757
0.0089584719 -0.038820058 0.64903468
0.0089584719 -0.038820058 0.64903468
0.013476755 -0.034440577 0.64955837
0.028445609 -0.016468465 0.64952457
0.037369285 -0.005233556 0.649239
0.0045330017 -0.048352003 0.65119803
-0.064612724 -0.0428247 0.65018654
-0.064612724 -0.021036685 0.6501866
-0.064612724 -0.021036685 0.6501866
0.031657323 -0.015074909 0.65077448
0.0226193 0.015079528 0.65083015
0.010621733 0.018208683 0.65196937
-0.037691016 0.028645188 0.65079242
0.016836395 -0.038264513 0.65356165
0.024364145 -0.027409643 0.65261739
0.044957843 -0.0030478239 0.65275717
0.051652808 0.0060768127 0.65218782
0.0092779677 -0.051028818 0.65546244
0.0092779677 -0.051028818 0.65546244
0.023108639 -0.033124328 0.65476811
0.032463539 -0.023188204 0.65540862
0.0077205994 0.020073533 0.65519589
-0.060952008 0.035492688 0.65507984
0.024927098 -0.035055727 0.65686452
0.045191914 -0.010908395 0.65691257
0.051633347 -0.0046939552 0.65767372
0.051633347 -0.0046939552 0.65767372
0.04348458 0.012424171 0.65627033
-0.068329766 0.032611936 0.65626168
-0.059280716 0.035880446 0.6571151
0.014250073 -0.053833574 0.65993035
0.02204961 -0.042524248 0.65892005
0.02204961 -0.042524248 0.65892005
0.040812571 -0.018836588 0.65828538
-0.029909715 0.02990973 0.65882635
0.038389418 -0.028792053 0.661888
0.038389418 -0.028792053 0.661888
0.050803103 -0.011113167 0.66044402
0.050803103 -0.011113167 0.66044402
0.059043985 -0.0031915605 0.66143221
0.0079762498 0.022333503 0.66136789
-0.072304934 -0.038562626 0.66275913
0.045212954 -0.024221212 0.66372144
-0.072304934 -0.022494882 0.66275918
-0.072304934 -0.012854218 0.66275918
-0.072304934 -0.0016067624 0.66275913
0.065635681 0.0096051991 0.66204625
-0.072304934 0.011247456 0.66275913
-0.072304934 0.012854218 0.66275918
-0.072304934 0.019281328 0.66275918
-0.019252773 0.028879136 0.66247207
-0.046795879 0.035500318 0.663589
-0.054633919 0.036958218 0.6627717
0.021110389 -0.055211753 0.66482323
0.027722305 -0.048921704 0.66564989
0.034947637 -0.039008394 0.66500127
0.03734158 -0.035718024 0.66478354
0.063365787 -0.0048742592 0.66493046
0.070159622 0.0016316175 0.66575795
0.06978447 0.0032458007 0.66470486
0.02467389 -0.055927485 0.66736424
0.042501777 0.016346842 0.66612792
0.034765385 -0.046353847 0.66864002
0.034765385 -0.046353847 0.66864002
0.059579439 -0.016549796 0.66857839
0.078278825 0.0033310652 0.66984856
0.079593398 0.0066328049 0.66896605
-0.076565288 0.026631445 0.66972256
-0.028092625 0.03305015 0.66827941
0.042889915 -0.042888999 0.6718322
0.07344798 -0.003338486 0.67030305
0.033811349 -0.055788726 0.67287368
0.055960495 -0.030523896 0.67350197
0.057719439 -0.028859735 0.67372626
0.064432651 -0.020347148 0.67348069
0.076461501 -0.0067965388 0.67390895
0.079589069 -0.0016933978 0.67321372
0.035377759 0.020215899 0.67215997
-0.015292904 0.032285005 0.67391711
-0.076179914 0.045707941 0.6731537
0.068355583 -0.018797815 0.67508537
0.07689558 0.01196152 0.67507339
0.023939952 0.023939937 0.67521894
0.042977747 -0.051573306 0.67631906
0.061943613 -0.029251158 0.67650563
-0.081142649 -0.027622998 0.67720377
-0.081142649 -0.0034528375 0.67720377
-0.036062606 0.037779897 0.67609662
0.050363339 -0.046889991 0.67843831
0.067715578 -0.026044458 0.67839366
0.081872776 -0.010451823 0.679079
0.027804451 0.024328917 0.67857254
0.0052270587 0.029620051 0.67912471
0.075430967 -0.021050513 0.68055582
-0.063224494 0.045662135 0.68080056
0.081441231 -0.017704606 0.68251777
0.081441231 -0.017704606 0.68251777
-0.061977066 0.046040118 0.68255538
-0.08607439 -0.017035574 0.68526447
-0.08607439 -0.0089660883 0.68526453
-0.01253577 0.035816491 0.68497574
-0.019772049 0.037746638 0.68577659
-0.08607439 0.039450794 0.68526447
-0.028624987 0.039359361 0.68476295
-0.08607439 0.041244 0.68526453
0.068651006 -0.041551888 0.68688071
0.073890023 -0.034241736 0.68634844
0.07578066 -0.032477409 0.68660253
0.082891837 -0.023425967 0.68632436
0.086697832 -0.019868255 0.68683237
0.063767016 -0.051013589 0.68872869
0.069478124 -0.045709282 0.68950814
0.066063188 -0.051382482 0.69031894
0.067979053 -0.049606323 0.69058239
0.075687736 -0.042458981 0.69164115
0.070756882 -0.05213663 0.6935702
-0.091403 -0.0074614584 0.6939739
-0.091403 0.041038096 0.6939739
0.087958016 0.016843051 0.69470781
0.081558436 -0.04741767 0.69775701
0.08902593 -0.037883341 0.69745052
0.093627892 -0.036304682 0.6994549
0.077029258 -0.059697658 0.70126045
0.078713767 0.021118313 0.70055032
0.061370309 0.024931729 0.70030576
-0.015338532 0.042180985 0.70024467
-0.097177982 -0.0058306456 0.70341253
-0.097178385 0.0038871467 0.70341349
-0.097178385 0.021379262 0.70341349
-0.097178385 0.021379262 0.70341349
-0.097178385 0.046645612 0.70341349
-0.097178385 0.04858923 0.70341349
0.089824535 -0.050770372 0.70451677
0.089824535 -0.050770372 0.70451677
0.048768509 0.029261112 0.7042793
-0.051802792 0.053795218 0.70930988
0.06131741 0.030658752 0.71552628
-0.020433392 0.049040139 0.71545696
0.029105499 0.039500326 0.71975726
-0.0062835552 0.048173934 0.72163486
0.0063809301 0.046793491 0.72555298
0.038934506 0.041097581 0.72990471
0.058471341 0.036815286 0.73021579
0.050032239 0.039155662 0.73138785
-0.036969289 0.05871594 0.73130935
0.040764771 0.045294195 0.74217874
0.058039039 0.048365861 0.76071793
-0.022567896 0.0065055438 0.60664517
-0.025695546 -0.0022141195 0.60918653
-0.015060011 0.0061991215 0.61138642
-0.041763075 -0.014020443 0.61283982
-0.022106426 -0.0061911573 0.61340845
-0.020420257 -0.0021834723 0.61239213
-0.041763049 0.0017898604 0.6128397
-0.040849619 -0.035131764 0.61673641
-0.033074215 -0.026627328 0.61714315
-0.02594527 -0.018328739 0.61726016
-0.011230977 -0.0049915016 0.61943734
-0.010282845 -0.0021218895 0.61855131
-0.018382456 0.012466043 0.61928278
-0.036982186 0.016025603 0.61760896
-0.035437852 0.016165465 0.61890745
-0.03680741 -0.038068399 0.62070394
-0.030396774 -0.03405489 0.62256986
-0.0056896149 -0.0024071173 0.62150174
-0.033911098 -0.045892105 0.62646645
-0.049136728 0.010021314 0.6248917
-0.0026147026 0.011790226 0.6269381
-0.018250398 0.014988273 0.62607908
-0.018250398 0.014988273 0.62607908
-0.026157474 0.017005831 0.62671059
-0.010318949 -0.02588029 0.63065743
-0.051876705 -0.006318301 0.62937009
0.0025782976 -0.0067746788 0.62878013
0.0025782976 -0.0067746788 0.62878013
0.013585697 0.0020898117 0.63097692
-0.021986475 -0.045758557 0.63368011
-0.021986475 -0.045758557 0.63368011
-0.041742895 0.023272641 0.63405442
-0.014855769 -0.048812509 0.63959348
-0.011344876 -0.04537949 0.63998508
-0.057857227 -0.029986963 0.63914526
0.010300373 -0.014315125 0.6373449
-0.057857055 0.013758697 0.63914466
-0.056993168 0.028143793 0.63866699
-0.0021667543 -0.040829986 0.64326721
0.013462134 -0.021394989 0.64288974
0.028970582 -0.0043455362 0.64365703
0.0057719517 0.015855074 0.64279288
0.0016219339 -0.042030014 0.64619321
0.0063918498 -0.034136474 0.64507663
0.027697971 0.011662304 0.64477473
-0.034708008 0.026586816 0.64709926
-0.034708008 0.026586816 0.64709926
-0.0014903429 -0.050671637 0.64870441
0.023767978 -0.019311488 0.64811969
0.0067119715 0.01789169 0.64878035
-0.058240708 0.033069797 0.65025318
0.0097813383 -0.049930792 0.65520918
0.02473647 -0.03246662 0.65542638
0.026009873 0.015295645 0.65343881
0.038899437 0.012202904 0.65293157
-0.056307796 0.033480346 0.65250552
-0.056307796 0.033480346 0.65250552
0.0099845482 -0.057273231 0.65908128
-0.06832999 -0.026011989 0.65626228
0.054065686 -0.0023526028 0.65796393
0.051458538 0.010915458 0.65703428
0.051458538 0.010915458 0.65703428
-0.06832999 0.014364831 0.65626228
0.033065267 0.015745372 0.65886748
-0.06832999 0.017858967 0.65626228
-0.0046620495 0.023310244 0.65639049
-0.022833098 0.028348133 0.65891093
-0.065726861 0.03756256 0.65772927
0.026330197 -0.042285964 0.66141218
0.039004188 -0.026267424 0.66097438
-0.072304934 -0.021691471 0.66275918
-0.02070198 0.028664261 0.66103107
0.038521193 -0.035265416 0.66527271
0.073246233 0.008684705 0.6652928
0.019515349 0.021141618 0.66511339
0 0.026284933 0.66710818
-0.022145052 0.031171545 0.66684294
0.050124764 -0.029950213 0.66964537
0.062564909 -0.014395933 0.66930193
-0.076565288 0.0020806044 0.66972256
0.073292211 0.010837495 0.66991919
0.033429842 0.020057887 0.67057109
0.0024961883 0.026591599 0.66942209
0.053045209 -0.037644982 0.67535651
0.079147473 -0 0.67207956
0.079147473 -0 0.67207956
0.059278652 0.015243083 0.67324889
0.029705379 0.022064373 0.67368126
0.074942499 -0.014215693 0.67676848
-0.08114294 0.009495452 0.67720449
0.049201779 0.018988833 0.67718166
0.03363359 0.022420064 0.67698431
0.012152827 0.02777791 0.67837214
0.012152827 0.02777791 0.67837214
0.0052270587 0.029620051 0.67912471
-0.010444105 0.033072978 0.67892331
0.049708504 -0.056809723 0.68310219
0.060422976 -0.044428647 0.68332464
0.065596536 -0.037230432 0.68280959
0.074964538 -0.022255531 0.68088603
0.068651006 -0.041551888 0.68688071
0.062058717 -0.05384782 0.68913209
0.065052941 -0.054005764 0.69104117
0.083887964 -0.027354777 0.68893838
0.047318522 0.023659289 0.68849069
0.033006728 0.027505577 0.69015217
-0.023856243 0.040372103 0.69031978
0.083470367 -0.035243034 0.69270992
0.086649001 0.01676999 0.69372821
0.06980744 0.020475686 0.6934979
0.02153169 0.031823426 0.69477022
0.029966295 0.029966295 0.69488239
-0.091403 0.041970775 0.6939739
-0.053333171 0.04865858 0.69471204
-0.053333171 0.04865858 0.69471204
-0.08628647 0.056273788 0.69523233
0.074600488 -0.053824663 0.69677889
0.074600488 -0.053824663 0.69677889
0.085092485 -0.046847746 0.69962436
0.085092485 -0.046847746 0.69962436
-0.093090013 0.058893681 0.69812977
-0.010782648 0.043148547 0.70555377
0.095195226 -0.051564097 0.70820165
0.071609192 0.025858879 0.70891511
-0.025823548 0.047674268 0.70858705
0.026766412 0.039120138 0.71734196
0.066835441 0.034495711 0.72905415
0.052743886 0.039557904 0.73408538
-0.031402834 0.060562611 0.73956543
-0.0068819579 0.057349682 0.74571264
0.049118642 0.046779662 0.75114435
0.028115252 0.061342359 0.77733243
