# .PCD v0.7 - Point Cloud Data file format
VERSION 0.7
FIELDS x y z
SIZE 4 4 4
TYPE F F F
COUNT 1 1 1
WIDTH 1359
HEIGHT 1
VIEWPOINT 0 0 0 1 0 0 0
POINTS 1359
DATA ascii
0.04938437 -0.055310518 0.70725298
0.050077468 -0.058089852 0.71059954
0.050790075 -0.060948074 0.71404028
0.051523484 -0.063889116 0.71758151
0.052278381 -0.066916317 0.72122651
0.053055733 -0.07003358 0.72497988
0.042792358 0.070771992 0.66747701
0.042402331 0.068496078 0.66566622
0.042019349 0.066261232 0.6638881
0.041643087 0.064066291 0.6621412
0.041273635 0.06191045 0.66042602
0.040910687 0.059792578 0.65874094
0.040554065 0.057711571 0.65708524
0.040203605 0.055666566 0.65545815
0.039859153 0.053656578 0.6538589
0.039520551 0.051680744 0.65228689
0.039187528 0.04973799 0.6507408
0.038860194 0.047827929 0.64922106
0.038538285 0.045949489 0.64772648
0.038221665 0.044101924 0.64625657
0.037910204 0.042284489 0.6448105
0.037603777 0.040496409 0.64338785
0.037302267 0.038736969 0.64198804
0.037005439 0.037005454 0.64060992
0.03671341 0.035301387 0.63925409
0.036425952 0.033623934 0.63791955
0.03614296 0.031972617 0.63660574
0.035864335 0.030346751 0.63531214
0.035589971 0.02874577 0.63403833
0.035319772 0.027169049 0.63278389
0.035053544 0.02561605 0.63154787
0.034791399 0.024086386 0.6303308
0.034533147 0.022579372 0.62913179
0.034278698 0.02109462 0.62795043
0.034027971 0.019631535 0.62678641
0.033780888 0.018189728 0.62563926
0.033537276 0.016768634 0.62450826
0.033297241 0.015367955 0.62339383
0.033299409 0.014088213 0.62340391
0.033600926 0.012923449 0.62480378
0.033907957 0.011737376 0.62622923
0.034220651 0.010529429 0.62768096
0.034539163 0.00929901 0.62915969
0.034863565 0.0080454648 0.63066584
0.035194214 0.0067681074 0.63220096
0.0355312 0.005466342 0.63376546
0.035874702 0.0041394234 0.63536024
0.036224905 0.0027864873 0.6369862
0.036582019 0.0014070272 0.6386441
0.036946241 -0 0.64033508
0.037317786 -0.0014352798 0.6420601
0.037696768 -0.0028997362 0.64381957
0.038083643 -0.004394263 0.64561576
0.038478542 -0.0059197843 0.64744914
0.038881715 -0.0074772835 0.64932096
0.039293427 -0.0090677142 0.65123248
0.039713953 -0.010692209 0.65318483
0.040143445 -0.012351841 0.65517884
0.040582459 -0.014047742 0.65721703
0.041031186 -0.015781224 0.65930039
0.041489948 -0.017553449 0.6614303
0.041959081 -0.019365698 0.66360831
0.042438947 -0.021219462 0.66583622
0.042929914 -0.023116112 0.66811562
0.043432221 -0.025057077 0.67044771
0.043946579 -0.027044058 0.67283571
0.044473264 -0.029078662 0.67528093
0.045012731 -0.031162649 0.67778552
0.045565441 -0.033297807 0.68035161
0.046131898 -0.035486072 0.68298149
0.046712436 -0.037729263 0.68567681
0.047307953 -0.040029824 0.68844163
0.047918852 -0.04238975 0.69127786
0.048545733 -0.044811428 0.6941883
0.049189236 -0.047297329 0.69717586
0.049850028 -0.049850017 0.70024377
0.050528813 -0.052472234 0.70339513
0.051226124 -0.055166602 0.70663261
0.051943172 -0.057936609 0.70996165
0.052680582 -0.060785294 0.71338522
0.05343923 -0.063715994 0.71690738
0.054220039 -0.066732347 0.72053248
0.055024013 -0.069838196 0.72426516
0.044733927 0.072899729 0.66879904
0.044323519 0.070589334 0.66696417
0.043920573 0.0683209 0.66516268
0.04352488 0.066093326 0.66339368
0.043136258 0.063905597 0.66165626
0.042754516 0.061756521 0.65994954
0.042379331 0.059644997 0.65827215
0.04201081 0.057570368 0.65662456
0.041648641 0.055531532 0.65500546
0.041292667 0.053527534 0.65341389
0.040942721 0.051557511 0.65184945
0.040598661 0.049620599 0.65031123
0.040260334 0.047715962 0.6487987
0.039927598 0.045842797 0.64731103
0.039600197 0.044000208 0.64584732
0.039278243 0.042187721 0.64440793
0.038961478 0.040404499 0.64299178
0.038649783 0.038649797 0.64159822
0.038343035 0.036922932 0.6402269
0.038041119 0.035223246 0.63887709
0.037743919 0.033550173 0.63754833
0.037451219 0.031902879 0.63623977
0.037163131 0.030281097 0.63495177
0.036879443 0.02868402 0.63368344
0.03660005 0.027111143 0.63243437
0.036324862 0.025561929 0.63120407
0.036053777 0.024035871 0.62999213
0.035786711 0.022532374 0.62879813
0.035523474 0.02105096 0.62762129
0.035264175 0.019591212 0.62646198
0.035008635 0.018152624 0.62531954
0.034756776 0.016734749 0.62419355
0.034508511 0.01533711 0.62308359
0.034521867 0.014064491 0.62314332
0.034833923 0.012901455 0.62453842
0.035151672 0.0117172 0.62595904
0.035475273 0.01051122 0.62740576
0.035804786 0.0092827082 0.62887895
0.036140583 0.008031249 0.63038021
0.036482733 0.0067560971 0.63190985
0.036831427 0.0054565072 0.63346881
0.037186854 0.0041318834 0.63505781
0.037549201 0.0027814209 0.6366778
0.037918683 0.0014044046 0.63832968
0.038295392 -0 0.64001381
0.038679779 -0.0014325678 0.64173234
0.039071962 -0.0028942227 0.64348572
0.039472178 -0.004385829 0.645275
0.039880674 -0.005908221 0.64710128
0.040297721 -0.0074625611 0.64896578
0.040723447 -0.0090496242 0.65086907
0.0411584 -0.010670662 0.65281367
0.041602742 -0.012326717 0.65480024
0.04205678 -0.014018923 0.65683013
0.042520843 -0.015748471 0.65890491
0.042995259 -0.017516583 0.66102588
0.043480385 -0.01932463 0.66319478
0.04397643 -0.021173835 0.66541243
0.044484075 -0.023065835 0.66768199
0.045003578 -0.025001973 0.67000461
0.045535363 -0.026983887 0.67238206
0.046079863 -0.029013246 0.67481637
0.046637543 -0.03109169 0.67730963
0.047208712 -0.033220947 0.67986315
0.047794227 -0.035403132 0.68248087
0.048394442 -0.037640125 0.68516433
0.049009927 -0.039934009 0.68791604
0.049641266 -0.042286992 0.69073856
0.050289091 -0.044701368 0.69363487
0.05095404 -0.047179669 0.69660771
0.051636606 -0.049724132 0.69965923
0.052337915 -0.052337915 0.70279467
0.053058546 -0.05502367 0.70601642
0.053799294 -0.057784408 0.70932817
0.054561015 -0.060623318 0.71273369
0.055344615 -0.063543826 0.71623695
0.056150809 -0.066549093 0.71984124
0.05698109 -0.069643557 0.72355324
0.04627037 0.072710603 0.66828012
0.04584695 0.070407838 0.66645473
0.045431219 0.068146855 0.66466242
0.045022801 0.065926254 0.66290176
0.04462181 0.063745469 0.66117305
0.044227906 0.061603159 0.65947485
0.043840889 0.05949837 0.65780634
0.043460585 0.057430059 0.65616685
0.043086827 0.055397362 0.65455556
0.042719442 0.053399324 0.65297174
0.04235813 0.051434875 0.6514141
0.042003013 0.049503535 0.64988315
0.041653801 0.047604352 0.64837766
0.041310351 0.045736432 0.64689696
0.040972516 0.043899119 0.64544052
0.04064016 0.042091608 0.6440078
0.040313154 0.040313154 0.64259803
0.039991248 0.038562983 0.6412102
0.039674561 0.036840677 0.63984495
0.039362852 0.035145432 0.63850111
0.039056003 0.033476561 0.6371783
0.038753897 0.031833589 0.63587588
0.038456433 0.03021574 0.63459349
0.038163498 0.028622627 0.63333064
0.037874885 0.027053475 0.6320864
0.037590709 0.025507957 0.63086128
0.037310768 0.023985505 0.62965441
0.037034962 0.022485524 0.62846541
0.03676321 0.021007568 0.62729383
0.036495414 0.019551098 0.62613934
0.036231391 0.018115729 0.62500113
0.035971258 0.016700923 0.62387967
0.035714835 0.015306354 0.62277418
0.035740208 0.014040828 0.62288356
0.036062632 0.012879491 0.6242736
0.036391024 0.011697114 0.62568933
0.036725454 0.01049304 0.62713104
0.037066091 0.0092665255 0.62859958
0.037413098 0.0080170929 0.6300956
0.037766669 0.0067440569 0.63161981
0.038126986 0.0054467022 0.63317323
0.038494132 0.0041243732 0.63475603
0.038868535 0.0027763247 0.63637006
0.039250292 0.0014018118 0.63801593
0.039639618 -0 0.63969433
0.040036745 -0.0014298558 0.64140636
0.040441915 -0.0028887093 0.64315307
0.040855367 -0.0043773353 0.64493549
0.04127723 -0.0058967471 0.64675421
0.04170803 -0.0074478686 0.64861143
0.042147912 -0.0090316832 0.65050781
0.042597178 -0.010649294 0.6524446
0.043056119 -0.012301773 0.65442318
0.043525059 -0.013990164 0.65644479
0.044004183 -0.015715748 0.65851039
0.044494119 -0.017479807 0.66062248
0.044995088 -0.019283593 0.66278225
0.045507468 -0.021128476 0.66499114
0.046031654 -0.023015797 0.66725099
0.046568051 -0.024947166 0.66956347
0.047117095 -0.026924044 0.67193043
0.047679078 -0.028947979 0.67435318
0.048254795 -0.031020939 0.67683518
0.048844591 -0.033144504 0.67937785
0.049448982 -0.035320729 0.68198347
0.050068516 -0.037551373 0.6846543
0.050703771 -0.039838701 0.68739295
0.051355354 -0.04218477 0.690202
0.052023698 -0.044591725 0.69308329
0.052709874 -0.047062367 0.69604141
0.053414397 -0.049599081 0.69907868
0.054138005 -0.05220449 0.70219827
0.054881491 -0.054881454 0.70540345
0.055645678 -0.057633013 0.70869797
0.056431212 -0.060461998 0.71208447
0.057239484 -0.063372314 0.71556902
0.058071252 -0.066367149 0.71915483
0.058927547 -0.069450289 0.72284639
0.047798689 0.072522163 0.66776323
0.047362413 0.070227027 0.66594714
0.046934027 0.067973435 0.66416407
0.046513326 0.065760225 0.66241288
0.046100095 0.063586354 0.66069287
0.045694139 0.06145075 0.65900308
0.045295127 0.059352279 0.6573422
0.044903163 0.057290256 0.6557107
0.044517931 0.055263638 0.65410721
0.044139251 0.053271532 0.65253097
0.043766961 0.051313013 0.65098131
0.043400891 0.049387217 0.64945763
0.043040898 0.047493398 0.64795917
0.042686835 0.045630753 0.64648539
0.042338409 0.043798387 0.64503509
0.041995756 0.041995764 0.64360887
0.04165861 0.040222108 0.64220548
0.041326828 0.038476706 0.6408245
0.041000292 0.0367589 0.63946521
0.040678874 0.035067976 0.63812739
0.040362459 0.033403397 0.6368103
0.040050808 0.031764477 0.63551307
0.039744053 0.030150652 0.63423628
0.039441954 0.028561413 0.6329788
0.039144419 0.026996136 0.63174033
0.038851336 0.025454313 0.6305204
0.038562611 0.023935437 0.62931859
0.038278036 0.022438884 0.62813401
0.037997741 0.020964265 0.62696731
0.037721515 0.019511133 0.62581754
0.037449282 0.018078983 0.62468439
0.037180945 0.016667306 0.62356746
0.036916431 0.015275747 0.62246644
0.036954358 0.014017165 0.62262434
0.037287269 0.012857676 0.62401003
0.037626237 0.011677146 0.62542093
0.037971418 0.010474861 0.62685776
0.038322996 0.0092503726 0.62832123
0.038681146 0.0080029666 0.629812
0.039045937 0.0067320764 0.63133037
0.039417792 0.0054369569 0.63287818
0.039796796 0.0041169524 0.63445574
0.040183157 0.0027712882 0.63606399
0.040577099 0.001399219 0.63770372
0.040978834 -2.9802322e-08 0.63937598
0.041388612 -0.0014272034 0.64108157
0.041806534 -0.0028831959 0.64282119
0.042233117 -0.0043689311 0.64459676
0.042668488 -0.005885303 0.64640903
0.043112937 -0.0074332654 0.64825898
0.043566741 -0.0090138018 0.65014791
0.044030193 -0.010627985 0.65207708
0.044503618 -0.012276858 0.65404767
0.044987183 -0.013961554 0.65606046
0.045481529 -0.015683264 0.65811813
0.045986857 -0.017443269 0.66022152
0.046503536 -0.019242853 0.66237217
0.047031961 -0.021083266 0.6645717
0.047572531 -0.022966057 0.66682178
0.048125509 -0.024892509 0.66912353
0.048691656 -0.02686435 0.67148006
0.049271289 -0.028883189 0.67389274
0.049864888 -0.030950606 0.67636359
0.050472967 -0.033068478 0.6788947
0.051096052 -0.035238624 0.68148822
0.051734716 -0.037463069 0.68414664
0.05238935 -0.039743662 0.68687153
0.053060967 -0.042082846 0.68966705
0.053750027 -0.044482768 0.69253528
0.054457217 -0.04694584 0.69547892
0.055183269 -0.049474686 0.69850105
0.055928942 -0.05207178 0.70160484
0.056694809 -0.054739833 0.70479274
0.057482183 -0.057482183 0.70807004
0.05829173 -0.060301751 0.71143979
0.059124414 -0.063201964 0.7149058
0.059981219 -0.06618619 0.71847218
0.060863234 -0.069258183 0.72214353
0.049319282 0.072334975 0.66724956
0.048870277 0.070047408 0.66544294
0.048429374 0.067801148 0.66366887
0.047996193 0.065594792 0.66192591
0.047570854 0.063427806 0.66021442
0.047152981 0.061298907 0.65853304
0.046742391 0.059207052 0.65688097
0.04633889 0.057151288 0.6552574
0.045942295 0.05513078 0.65366161
0.045552429 0.053144485 0.65209293
0.045168981 0.051191539 0.65055013
0.044792078 0.049271286 0.64903349
0.044421412 0.047382861 0.64754206
0.044056829 0.045525402 0.64607513
0.043698184 0.043698192 0.64463198
0.043345328 0.041900516 0.6432122
0.042998128 0.040131569 0.64181519
0.042656314 0.038390696 0.64043987
0.04232002 0.036677361 0.63908672
0.041988987 0.034990817 0.6377548
0.041663095 0.0333305 0.63644344
0.041342221 0.031695694 0.6351524
0.041026253 0.030085951 0.63388103
0.040715072 0.028500587 0.63262892
0.04040847 0.026939005 0.63139522
0.040106557 0.025400847 0.63018042
0.039809126 0.023885489 0.62898368
0.039516073 0.022392452 0.62780452
0.039227303 0.02092123 0.62664258
0.038942721 0.019471377 0.62549758
0.038662136 0.018042326 0.62436855
0.038385671 0.016633809 0.62325609
0.038113125 0.015245259 0.62215948
0.03816453 0.01399368 0.62236631
0.038507763 0.01283592 0.62374741
0.038857225 0.011657149 0.62515354
0.039213087 0.01045686 0.62658542
0.039575532 0.0092343092 0.62804377
0.039944623 0.0079888999 0.62952888
0.04032078 0.0067201257 0.63104242
0.040704086 0.0054272413 0.63258469
0.041094754 0.004109472 0.63415664
0.041492987 0.0027662218 0.635759
0.041899018 0.0013966262 0.63739276
0.042313077 -2.9802322e-08 0.63905883
0.042735267 -0.0014245212 0.64075756
0.043166101 -0.0028777421 0.6424911
0.043605711 -0.0043605864 0.64425993
0.044054367 -0.0058739185 0.64606524
0.044512346 -0.0074187219 0.64790797
0.044979956 -0.00899598 0.64978945
0.045457341 -0.010606706 0.65171039
0.045945123 -0.012252003 0.65367299
0.046443485 -0.013933003 0.65567827
0.04695278 -0.015650898 0.65772748
0.04747336 -0.017406881 0.65982217
0.048005622 -0.019202232 0.66196382
0.048549782 -0.021038234 0.66415334
0.049106594 -0.022916436 0.66639382
0.049676325 -0.02483815 0.66868615
0.050259434 -0.026805013 0.67103243
0.050856385 -0.028818607 0.67343444
0.051467698 -0.03088063 0.67589414
0.052093882 -0.03299278 0.67841363
0.052735295 -0.035156846 0.68099463
0.053392895 -0.037375003 0.68364054
0.054067113 -0.039649189 0.68635339
0.054758567 -0.041981578 0.68913555
0.055467941 -0.044374347 0.6919899
0.056195933 -0.046829969 0.69491911
0.056943063 -0.049350679 0.69792533
0.057710558 -0.051939517 0.70101351
0.058499027 -0.054599077 0.70418602
0.059309341 -0.057332337 0.70744646
0.06014242 -0.060142428 0.71079856
0.060999226 -0.063032538 0.71424603
0.061880805 -0.066006184 0.71779323
0.062787965 -0.069066733 0.72144336
0.050831869 0.072148502 0.66673797
0.050370276 0.069868475 0.6649406
0.04991699 0.067629457 0.66317552
0.049471792 0.065430462 0.66144192
0.049034458 0.063270271 0.65973908
0.048604798 0.061147958 0.65806603
0.048182439 0.059062362 0.65642136
0.047767513 0.057012856 0.65480566
0.047359671 0.054998338 0.65321755
0.046958737 0.053017944 0.65165639
0.046564531 0.05107078 0.65012139
0.046176892 0.04915607 0.64861202
0.045795649 0.047272921 0.64712745
0.045420654 0.045420676 0.64566725
0.045051616 0.043598324 0.64423031
0.044688653 0.041805536 0.6428169
0.044331498 0.040041357 0.64142621
0.043980006 0.038305163 0.64005756
0.043634042 0.036596298 0.63871038
0.04329348 0.034914106 0.6373843
0.042958189 0.033257961 0.63607872
0.042627931 0.031627208 0.63479269
0.042302836 0.03002134 0.6335268
0.041982658 0.028439879 0.63228005
0.041667294 0.026882142 0.63105208
0.041356631 0.02534762 0.6298424
0.041050564 0.023835838 0.62865061
0.040748883 0.022346199 0.62747592
0.040451717 0.020878315 0.62631875
0.040158849 0.01943174 0.62517834
0.039870195 0.018005878 0.62405443
0.039585661 0.01660043 0.62294644
0.039305158 0.01521486 0.62185419
0.039370652 0.013970196 0.62210923
0.039724134 0.012814283 0.62348562
0.040083911 0.011637241 0.62488657
0.040450376 0.01043883 0.62631357
0.040823605 0.0092182457 0.62776685
0.041203782 0.0079748929 0.62924725
0.041591108 0.0067082644 0.63075542
0.041985787 0.0054175258 0.63229227
0.042388029 0.0041020811 0.63385856
0.042797923 0.0027611554 0.63545465
0.043215953 0.001394093 0.6370824
0.04364223 -0 0.63874233
0.044076998 -0.001421839 0.64043522
0.04452052 -0.002872318 0.64216226
0.044973053 -0.004352212 0.64392436
0.045434881 -0.0058625937 0.64572269
0.045906153 -0.0074042082 0.64755774
0.046387445 -0.0089782178 0.64943188
0.046878941 -0.010585576 0.65134567
0.047380961 -0.012227297 0.65330052
0.047893852 -0.013904691 0.65529764
0.048417967 -0.015618712 0.65733844
0.048953515 -0.017370582 0.65942383
0.04950121 -0.019161761 0.66155654
0.0500613 -0.020993471 0.66373754
0.050634213 -0.022867054 0.6659683
0.051220387 -0.024784058 0.66825086
0.051820293 -0.026745945 0.67058682
0.052434415 -0.028754354 0.67297816
0.05306308 -0.030810803 0.67542607
0.053707194 -0.032917291 0.67793417
0.054367144 -0.035075575 0.68050396
0.055043507 -0.037287533 0.68313766
0.055736918 -0.039555222 0.68583775
0.05644802 -0.041880786 0.68860668
0.057177503 -0.044266462 0.69144714
0.057925854 -0.046714365 0.69436121
0.058694292 -0.049227476 0.69735336
0.05948339 -0.051808119 0.7004261
0.060293995 -0.054459065 0.70358253
0.061127 -0.057183325 0.70682609
0.061983343 -0.05998385 0.71016055
0.062863752 -0.062863737 0.71358883
0.06376981 -0.065826923 0.71711689
0.064702369 -0.068876714 0.72074819
0.052336857 0.071963221 0.66622961
0.051862806 0.069690675 0.66444147
0.051397093 0.067458689 0.66268468
0.050939839 0.065266669 0.66095984
0.050490648 0.063113332 0.6592654
0.050049312 0.060997576 0.65760058
0.049615625 0.058918566 0.65596461
0.049189389 0.056875229 0.65435672
0.048770413 0.054866701 0.6527763
0.048358358 0.052891999 0.65122193
0.04795336 0.050950438 0.6496942
0.047555093 0.049041182 0.64819187
0.047163382 0.047163397 0.64671427
0.046778075 0.045316249 0.64526081
0.046399012 0.043499053 0.6438309
0.046026044 0.041711152 0.64242393
0.045658883 0.039951563 0.64103889
0.045297675 0.038219899 0.63967639
0.044942129 0.036515474 0.63833523
0.044592127 0.034837604 0.63701499
0.04424753 0.033185661 0.63571501
0.04390822 0.03155905 0.63443506
0.043574076 0.029957175 0.63317466
0.043244857 0.02837944 0.63193274
0.042920694 0.026825458 0.63070995
0.042601354 0.025294572 0.62950528
0.042286731 0.023786306 0.62831849
0.041976724 0.022300154 0.62714911
0.041671228 0.020835608 0.62599671
0.04137015 0.019392252 0.62486094
0.041073274 0.017969549 0.62374109
0.040780738 0.0165672 0.62263757
0.040492345 0.015184641 0.62154973
0.040572632 0.013946831 0.62185252
0.040936291 0.012792617 0.62322432
0.041306525 0.011617512 0.62462097
0.041683521 0.010420889 0.62604308
0.042067461 0.0092022717 0.62749135
0.042458538 0.007961005 0.62896657
0.042856954 0.006696403 0.6304695
0.043262798 0.00540784 0.63200039
0.043676525 0.0040946901 0.63356113
0.044098239 0.0027561486 0.63515186
0.044528179 0.0013915002 0.63677371
0.044966586 -0 0.6384275
0.04541371 -0.0014191866 0.64011413
0.045869816 -0.0028668642 0.64183462
0.046335034 -0.0043438971 0.6435895
0.04680993 -0.005851239 0.64538097
0.047294665 -0.0073897839 0.64720947
0.04778954 -0.0089605153 0.64907622
0.048294883 -0.010564506 0.6509825
0.048811026 -0.01220277 0.65292954
0.049338322 -0.013876379 0.65491855
0.049876969 -0.015586525 0.65695047
0.050427679 -0.017334521 0.65902781
0.050990682 -0.019121498 0.66115159
0.0515664 -0.020948857 0.66332334
0.052155267 -0.02281788 0.66554463
0.052757736 -0.024730206 0.66781735
0.0533741 -0.026687056 0.67014241
0.054005232 -0.028690279 0.67252314
0.054651465 -0.030741453 0.67496085
0.055313349 -0.032842278 0.67745769
0.055991467 -0.034994662 0.68001562
0.056686413 -0.037200451 0.6826371
0.05739883 -0.039461672 0.68532443
0.058129154 -0.041780323 0.68807948
0.058878534 -0.044158906 0.69090629
0.059647493 -0.046599597 0.69380689
0.060436796 -0.049104869 0.69678432
0.061247274 -0.051677376 0.69984162
0.062079784 -0.054319799 0.70298201
0.062934972 -0.05703482 0.70620799
0.063814327 -0.059825927 0.70952511
0.064718597 -0.062696129 0.71293616
0.065648861 -0.065648884 0.71644533
0.066606261 -0.068687677 0.72005677
0.05383395 0.071778625 0.66572332
0.053347576 0.0695135 0.66394418
0.052869916 0.067288995 0.66219693
0.052400734 0.065103948 0.66048074
0.051939804 0.062957346 0.6587947
0.051486913 0.060848176 0.65713805
0.051041685 0.058775276 0.65550947
0.05060425 0.056738108 0.65390939
0.050174255 0.054735571 0.65233648
0.049751505 0.05276677 0.6507901
0.049335819 0.050830871 0.64926958
0.04892702 0.048927009 0.64777422
0.048524942 0.047054499 0.64630347
0.048129272 0.045212328 0.64485615
0.047740147 0.043400168 0.64343274
0.047357261 0.041616976 0.64203221
0.04698047 0.039862216 0.64065397
0.046609625 0.038135171 0.63929743
0.046244591 0.036435127 0.63796222
0.045885235 0.034761548 0.63664764
0.04553128 0.033113688 0.63535297
0.04518288 0.031491071 0.63407856
0.04483977 0.029893219 0.63282347
0.04450183 0.028319359 0.63158727
0.044168945 0.026769042 0.63036966
0.043841004 0.025241792 0.62917012
0.043517899 0.023737043 0.62798822
0.043199401 0.022254229 0.62682319
0.04288565 0.020793051 0.62567556
0.042576421 0.019352943 0.62454438
0.042271622 0.017933398 0.62342942
0.041971151 0.01653409 0.62233037
0.041674927 0.015154511 0.62124681
0.041770704 0.013923556 0.62159717
0.04214447 0.01277104 0.62296438
0.04252499 0.011597723 0.62435627
0.042912435 0.010403007 0.62577355
0.04330701 0.0091863275 0.62721682
0.043708786 0.0079470873 0.62868643
0.044118211 0.0066846013 0.63018405
0.04453538 0.0053982437 0.63171005
0.04496051 0.0040873587 0.63326514
0.045393839 0.0027511716 0.6348502
0.045835599 0.0013889372 0.63646615
0.046286047 -0 0.63811386
0.046745289 -0.0014164746 0.63979369
0.047213882 -0.0028614402 0.64150774
0.047691967 -0.0043356419 0.64325655
0.048179828 -0.0058399439 0.64504111
0.048677776 -0.0073754489 0.64686251
0.049186122 -0.0089429617 0.64872205
0.049705043 -0.010543495 0.6506201
0.050235189 -0.012178212 0.6525594
0.050776768 -0.013848186 0.65454042
0.051330149 -0.015554577 0.65656465
0.051895726 -0.017298549 0.65863347
0.052473906 -0.019081414 0.66074836
0.053065117 -0.020904422 0.66291094
0.053669613 -0.022768915 0.66512215
0.054288231 -0.024676472 0.66738498
0.054921269 -0.026628464 0.66970056
0.055569254 -0.028626591 0.67207086
0.056232713 -0.030672371 0.67449772
0.056912195 -0.032767653 0.67698324
0.057608098 -0.034913987 0.67952871
0.058321439 -0.037113607 0.68213809
0.059052672 -0.039368421 0.68481284
0.059802473 -0.041680515 0.68755555
0.060571562 -0.044052035 0.69036877
0.061360687 -0.046485335 0.69325531
0.062170647 -0.048982948 0.69621813
0.06300202 -0.05154708 0.69925916
0.063856199 -0.05418101 0.70238364
0.064733848 -0.056887329 0.705594
0.065635964 -0.059669048 0.7088939
0.066563569 -0.062529415 0.71228695
0.06751778 -0.065471768 0.71577734
0.068499744 -0.068499744 0.71936929
0.055323571 0.071595222 0.66522014
0.054824822 0.069337279 0.66344947
0.054335166 0.067119896 0.66171104
0.053854182 0.064941823 0.66000336
0.053381633 0.062801898 0.65832567
0.052917309 0.060699284 0.65667719
0.052460995 0.05863291 0.65505707
0.052012481 0.056601822 0.65346473
0.051571567 0.054605216 0.6518994
0.051137909 0.052641958 0.65035975
0.050711639 0.050711662 0.64884639
0.050292421 0.048813254 0.647358
0.049880076 0.046945989 0.64589405
0.049474437 0.045109063 0.64445388
0.049075339 0.043301791 0.64303696
0.048682634 0.041523457 0.64164275
0.048296016 0.039773196 0.64027011
0.047915634 0.038050622 0.63891965
0.047541194 0.036355048 0.63759029
0.047172565 0.034685701 0.63628155
0.046809606 0.033042073 0.63499296
0.046452187 0.031423539 0.63372397
0.046100192 0.029829532 0.6324743
0.045753356 0.028259397 0.63124293
0.045411829 0.026712865 0.63003039
0.045075364 0.025189191 0.6288358
0.044743851 0.023687929 0.62765884
0.044417176 0.022208631 0.62649906
0.044095237 0.020750701 0.62535608
0.043777928 0.019313782 0.62422955
0.043465037 0.017897367 0.62311864
0.043156706 0.016501099 0.62202394
0.042852718 0.0151245 0.62094468
0.042964786 0.013900399 0.6213426
0.043348592 0.012749612 0.62270522
0.043739315 0.011578053 0.62409246
0.044137023 0.010385185 0.62550443
0.044542156 0.0091704726 0.62694275
0.044954795 0.0079331994 0.62840778
0.045375153 0.0066728294 0.62990016
0.045803443 0.0053886771 0.63142073
0.046239898 0.0040799975 0.63297027
0.046684746 0.0027461946 0.63454962
0.047138102 0.0013864338 0.63615918
0.047600493 -0 0.63780081
0.04807204 -0.0014138818 0.63947499
0.048553023 -0.002856046 0.6411826
0.04904373 -0.0043273866 0.64292479
0.049544457 -0.0058287382 0.64470255
0.050055362 -0.0073610544 0.64651632
0.050577071 -0.0089253485 0.6483686
0.051109765 -0.010522574 0.65025985
0.051653806 -0.012153864 0.65219134
0.052209549 -0.013820171 0.65416443
0.05277738 -0.015522718 0.65618038
0.053357702 -0.017262757 0.65824074
0.053950746 -0.019041449 0.66034621
0.054557305 -0.020860136 0.66249967
0.055177655 -0.022720188 0.66470212
0.055812281 -0.024623066 0.66695523
0.056461673 -0.026570201 0.6692608
0.057126354 -0.028563172 0.67162061
0.057806659 -0.030603498 0.67403591
0.058503583 -0.032693177 0.67651021
0.059217509 -0.034833848 0.6790449
0.059949081 -0.037027389 0.68164217
0.060698953 -0.039275765 0.68430448
0.061467819 -0.041581154 0.68703419
0.062256411 -0.04394573 0.68983394
0.063065261 -0.04637152 0.69270557
0.063895658 -0.048861355 0.69565374
0.064748205 -0.051417679 0.69868064
0.06562382 -0.054043174 0.70178932
0.06652344 -0.056740582 0.70498323
0.067448072 -0.059513003 0.70826602
0.068398759 -0.062363595 0.71164125
0.069376342 -0.065295368 0.71511191
0.070382573 -0.068312496 0.71868438
0.056805406 0.071412504 0.66471893
0.05629478 0.06916213 0.66295791
0.055793259 0.066951901 0.66122818
0.055300593 0.064780682 0.65952903
0.054816548 0.062647492 0.65785962
0.054340724 0.060551107 0.65621853
0.053873267 0.058490962 0.65460634
0.053413786 0.056465983 0.65302169
0.052962072 0.054475278 0.65146381
0.052517936 0.052517951 0.64993197
0.052081186 0.050593197 0.6484257
0.051651642 0.048700124 0.64694428
0.051228967 0.046837926 0.64548653
0.05081331 0.045006067 0.64405298
0.05040434 0.043203712 0.6426425
0.050001908 0.041430146 0.64125454
0.049605846 0.039684683 0.63988853
0.04921601 0.037966639 0.63854408
0.048832253 0.036275417 0.6372205
0.048454292 0.034610212 0.63591695
0.048082277 0.032970726 0.63463396
0.047715928 0.031356186 0.63337052
0.047355127 0.029766083 0.63212609
0.046999734 0.028199881 0.63090038
0.046649642 0.026656926 0.62969297
0.046304721 0.025136888 0.62850338
0.04596474 0.023639023 0.62733084
0.045629837 0.022163033 0.62617582
0.04529978 0.020708472 0.62503749
0.044974469 0.019274771 0.62391543
0.044653792 0.017861515 0.62280953
0.044337653 0.016468287 0.62171924
0.044025846 0.015094578 0.62064385
0.044154782 0.013877243 0.6210885
0.044548552 0.012728155 0.6224466
0.044949409 0.011558414 0.62382913
0.045357548 0.010367453 0.62523669
0.045773163 0.0091546476 0.62667012
0.046196472 0.0079194009 0.62813008
0.046627678 0.0066611171 0.62961721
0.047066879 0.0053790808 0.63113201
0.047514565 0.004072696 0.63267601
0.04797085 0.0027412176 0.63424969
0.048435986 0.0013838708 0.63585389
0.04891023 2.9802322e-08 0.63748944
0.049393855 -0.0014112294 0.63915741
0.049887132 -0.0028506517 0.64085865
0.050390217 -0.0043191612 0.64259374
0.0509037 -0.0058175623 0.64436471
0.051427763 -0.0073468089 0.64617211
0.051962726 -0.0089078844 0.64801717
0.052508932 -0.010501742 0.64990091
0.053066745 -0.012129545 0.65182477
0.05363654 -0.013792247 0.65378994
0.054218527 -0.015491009 0.65579712
0.05481346 -0.017227083 0.65784895
0.055421591 -0.019001663 0.65994638
0.056043372 -0.020816088 0.66209078
0.056679264 -0.0226717 0.66428393
0.057329748 -0.024569899 0.66652733
0.057995342 -0.026512146 0.66882288
0.058676355 -0.028499931 0.67117161
0.05937377 -0.030535102 0.67357689
0.060087964 -0.032619208 0.67604011
0.060819551 -0.034754038 0.67856324
0.061569165 -0.036941469 0.68114865
0.062337495 -0.039183557 0.68379843
0.063124999 -0.041482121 0.68651444
0.063932903 -0.043839693 0.68930084
0.064761758 -0.04625839 0.69215935
0.065612383 -0.048740625 0.6950931
0.066485643 -0.051288903 0.69810492
0.067382477 -0.053905964 0.70119792
0.068303548 -0.056594372 0.70437467
0.069250435 -0.059357494 0.70764029
0.07022395 -0.062198311 0.71099782
0.071225218 -0.06512019 0.71445107
0.072255462 -0.068126559 0.71800429
0.058279894 0.071230978 0.66422093
0.057757143 0.068987727 0.66246814
0.05724388 0.066784531 0.66074711
0.056739651 0.064620197 0.65905637
0.056244232 0.062493593 0.65739524
0.055757388 0.060403854 0.65576279
0.055278901 0.058349937 0.65415841
0.054808557 0.056330979 0.65258133
0.054345977 0.054345965 0.65103024
0.053891309 0.05239436 0.64950562
0.053444184 0.050475061 0.64800644
0.053004421 0.048587382 0.64653188
0.052571833 0.046730518 0.6450814
0.052146249 0.044903725 0.64365441
0.0517275 0.043106288 0.6422503
0.05131527 0.041337311 0.64086801
0.050909709 0.039596438 0.63950819
0.050510507 0.037882864 0.63816965
0.050117519 0.036195964 0.63685191
0.049730599 0.03453514 0.63555455
0.04934961 0.032899737 0.63427699
0.048974406 0.03128922 0.63301897
0.048604734 0.029702902 0.63177937
0.048240732 0.028140426 0.63055891
0.047882143 0.026601195 0.6293565
0.047528848 0.025084645 0.62817192
0.047180727 0.023590356 0.62700462
0.046837669 0.022117794 0.62585431
0.046499565 0.02066648 0.62472057
0.046166182 0.019235909 0.62360275
0.045837667 0.017825752 0.62250125
0.04551379 0.016435534 0.62141526
0.045194462 0.015064836 0.62034452
0.045340937 0.013854206 0.6208356
0.045744605 0.012706816 0.62218922
0.046155531 0.011538863 0.62356704
0.046573907 0.01034978 0.62496984
0.046999935 0.0091388822 0.62639838
0.047433697 0.0079056025 0.6278528
0.04787568 0.0066494048 0.62933481
0.048325971 0.0053695738 0.63084471
0.048784811 0.004065454 0.63238323
0.04925245 0.0027362704 0.63395125
0.049729142 0.0013813674 0.63554966
0.050215159 2.9802322e-08 0.63717926
0.050710604 -0.0014086366 0.63884056
0.051216088 -0.0028453469 0.64053547
0.051731747 -0.0043109655 0.64226454
0.052257895 -0.0058064163 0.64402872
0.052794855 -0.0073325932 0.6458292
0.053342968 -0.0088904798 0.64766705
0.053902574 -0.01048106 0.64954352
0.054473877 -0.012105316 0.6514591
0.055057596 -0.013764381 0.6534164
0.055653967 -0.015459448 0.65541601
0.056263395 -0.017191559 0.6574595
0.056886312 -0.018962115 0.65954816
0.057523184 -0.020772249 0.66168362
0.058174271 -0.02262333 0.66386676
0.058840476 -0.024516881 0.66610062
0.059522115 -0.02645424 0.66838622
0.060219727 -0.028437078 0.67072535
0.060933892 -0.030466944 0.67312002
0.061665196 -0.032545507 0.6755721
0.062414266 -0.034674585 0.67808378
0.063181527 -0.036855876 0.68065643
0.063968122 -0.039091617 0.68329394
0.064774558 -0.041383743 0.68599796
0.06560158 -0.043734342 0.68877107
0.066449992 -0.046145827 0.69161588
0.067320645 -0.048620462 0.69453526
0.068214133 -0.051160604 0.69753122
0.069131941 -0.05376929 0.70060867
0.070074789 -0.056449115 0.7037701
0.071043707 -0.059203088 0.70701897
0.07203979 -0.062034249 0.71035892
0.073064208 -0.064945936 0.71379387
0.074118175 -0.067941666 0.71732795
0.059746709 0.071050107 0.66372478
0.059212346 0.068814337 0.66198146
0.058687456 0.066618204 0.66026908
0.058171794 0.064460665 0.65858668
0.05766492 0.062340468 0.65693307
0.057166997 0.060257077 0.65530866
0.056677591 0.058209419 0.65371197
0.056196496 0.056196511 0.65214247
0.055723503 0.054217458 0.6505993
0.055258404 0.052271485 0.64908195
0.054801006 0.050357699 0.64758968
0.054350946 0.048475176 0.64612144
0.053908382 0.046623498 0.64467752
0.05347297 0.044801682 0.64325702
0.053044535 0.043009073 0.64185929
0.052622914 0.041244984 0.64048374
0.052207943 0.03950873 0.63912994
0.051799461 0.037799597 0.6377973
0.051397171 0.036116928 0.63648486
0.051001232 0.034460276 0.63519311
0.050611343 0.032828987 0.63392115
0.050227378 0.031222433 0.6326685
0.049849186 0.029640079 0.63143468
0.049476653 0.028081357 0.63021922
0.049109645 0.026545733 0.62902194
0.048748042 0.025032789 0.62784219
0.048391588 0.023541838 0.6266793
0.048040442 0.022072643 0.6255337
0.047694359 0.020624578 0.62440461
0.047353223 0.019197255 0.62329167
0.047016934 0.017790198 0.62219453
0.04668539 0.01640299 0.62111288
0.046358358 0.015035182 0.62004602
0.046523154 0.013831228 0.62058359
0.046936661 0.012685597 0.62193269
0.047357585 0.011519402 0.62330592
0.047785994 0.010332078 0.62470359
0.048222356 0.0091231465 0.62612718
0.048666764 0.0078918934 0.62757707
0.049119439 0.0066377521 0.62905383
0.049580611 0.0053600371 0.63055837
0.050050531 0.0040581524 0.63209152
0.050529443 0.002731353 0.63365394
0.051017452 0.0013788342 0.63524604
0.05151514 -0 0.63686973
0.052022625 -0.001406014 0.63852537
0.052540213 -0.0028399825 0.64021397
0.053068206 -0.0043028295 0.64193654
0.053606916 -0.0057953596 0.64369404
0.054156676 -0.0073184371 0.64548761
0.054717656 -0.0088731349 0.64731777
0.055290554 -0.010460377 0.64918685
0.055875577 -0.012081236 0.65109545
0.056473114 -0.013736695 0.65304488
0.057083566 -0.015427977 0.65503645
0.057707362 -0.017156214 0.65707153
0.058344744 -0.018922597 0.65915096
0.058996566 -0.020728528 0.66127753
0.059663117 -0.022575229 0.66345215
0.060344901 -0.02446416 0.66567641
0.061042447 -0.026396722 0.66795206
0.061756309 -0.028374523 0.67028105
0.062487066 -0.030399084 0.67266506
0.063235089 -0.032472074 0.67510551
0.064001478 -0.03459537 0.67760575
0.064786665 -0.036770791 0.68016744
0.065591365 -0.039000243 0.68279272
0.066416301 -0.041285753 0.68548399
0.067262255 -0.043629527 0.68824393
0.068130039 -0.0460338 0.69107503
0.069020227 -0.048500717 0.69397926
0.069934271 -0.05103308 0.69696122
0.070872851 -0.053633511 0.70002329
0.071836963 -0.056304634 0.70316863
0.07282766 -0.059049457 0.70640075
0.073846079 -0.061871052 0.70972329
0.074893057 -0.064772367 0.71313906
0.075970478 -0.067757457 0.71665406
0.061206296 0.070870489 0.66323185
0.060660046 0.068641633 0.66149664
0.060123663 0.066452473 0.65979278
0.05959668 0.06430167 0.65811872
0.059078861 0.062188298 0.65647382
0.058569957 0.060111284 0.65485728
0.058069747 0.058069736 0.65326828
0.057578009 0.056062788 0.65170622
0.05709435 0.054089397 0.65016985
0.056618921 0.052148998 0.64865965
0.056151349 0.050240695 0.6471743
0.05569144 0.048363656 0.64571333
0.055238996 0.046517074 0.64427614
0.054793846 0.044700265 0.64286208
0.054355815 0.042912513 0.64147067
0.053924568 0.041152984 0.64010078
0.053500272 0.03942129 0.63875294
0.0530826 0.037716568 0.63742614
0.052671403 0.036038339 0.63611996
0.05226652 0.03438589 0.63483381
0.05186782 0.032758623 0.63356721
0.051475156 0.031156033 0.63231993
0.051088244 0.029577404 0.63109088
0.050707247 0.028022438 0.62988061
0.050331898 0.02649048 0.62868822
0.049962055 0.024981052 0.62751341
0.049597614 0.023493588 0.62635577
0.049238451 0.022027731 0.62521482
0.048884455 0.020582944 0.62409031
0.048535373 0.019158721 0.62298143
0.048191376 0.017754734 0.6218887
0.047852222 0.016370505 0.62081134
0.04751781 0.015005648 0.61974907
0.047701467 0.01380837 0.62033248
0.048124738 0.012664437 0.62167704
0.048555456 0.011499971 0.62304521
0.048994087 0.010314554 0.62443852
0.049440712 0.0091075003 0.62585735
0.049895559 0.0078782439 0.62730223
0.050358854 0.0066261888 0.62877393
0.05083083 0.0053506494 0.63027316
0.051311739 0.0040509701 0.63180083
0.051801685 0.0027264357 0.63335717
0.052301232 0.0013763607 0.63494402
0.052810498 -2.9802322e-08 0.63656175
0.053329788 -0.0014034212 0.63821137
0.05385939 -0.0028346777 0.63989365
0.054399621 -0.0042947233 0.64160979
0.054950621 -0.0057842433 0.64336008
0.055513076 -0.0073043108 0.64514673
0.056087159 -0.0088558793 0.64697039
0.056673244 -0.010439783 0.64883214
0.057271708 -0.012057215 0.65073329
0.057882942 -0.013709098 0.65267491
0.058507174 -0.015396625 0.65465784
0.059145216 -0.017120957 0.65668464
0.059797321 -0.018883377 0.65875608
0.060463969 -0.020685047 0.66087377
0.061145652 -0.022527307 0.66303915
0.061842874 -0.024411649 0.665254
0.062556185 -0.026339442 0.66751993
0.063285917 -0.028312087 0.66983795
0.064033106 -0.030331463 0.67221147
0.064798146 -0.032399058 0.67464167
0.065581687 -0.034516662 0.6771307
0.066384412 -0.036686093 0.67968071
0.067207038 -0.038909376 0.68229377
0.068050295 -0.041188329 0.68497247
0.068914726 -0.04352507 0.68771845
0.069801666 -0.04592213 0.6905359
0.070711739 -0.048381686 0.69342679
0.071645856 -0.050906271 0.69639415
0.072604984 -0.053498358 0.69944084
0.073590137 -0.056160867 0.70257032
0.074602082 -0.058896393 0.70578486
0.075642571 -0.061708421 0.70909005
0.076712482 -0.064599991 0.71248877
0.077813104 -0.067574531 0.715985
0.06265831 0.070691437 0.66274071
0.062100712 0.068470001 0.66101485
0.061552949 0.066287816 0.65931952
0.061014764 0.064143747 0.65765369
0.060485713 0.062036604 0.65601623
0.05996595 0.059965968 0.65440744
0.059455045 0.057930529 0.65282619
0.058952775 0.055929571 0.65127152
0.058458917 0.053962052 0.64974296
0.057973266 0.052027285 0.64823985
0.057495616 0.050124377 0.64676142
0.057025596 0.048252463 0.64530659
0.056563374 0.046411008 0.64387602
0.056108586 0.044599116 0.64246833
0.055661049 0.042816192 0.64108318
0.055220596 0.041061461 0.63971996
0.054787062 0.039334327 0.63837802
0.054360278 0.037634045 0.63705707
0.053940099 0.035960078 0.63575655
0.053526204 0.034311682 0.63447553
0.053118765 0.032688469 0.63321447
0.052717485 0.031089783 0.63197243
0.05232222 0.029515117 0.63074899
0.051932838 0.027963847 0.62954384
0.051549211 0.026435465 0.62835646
0.051171206 0.024929583 0.62718648
0.050798569 0.023445487 0.62603307
0.050431456 0.021982968 0.62489676
0.050069612 0.0205414 0.62377685
0.049712926 0.019120365 0.62267286
0.049361281 0.017719448 0.62158448
0.04901458 0.016338199 0.62051141
0.048672583 0.014976203 0.61945283
0.048875749 0.013785481 0.62008166
0.049308717 0.012643278 0.62142175
0.049749423 0.011480659 0.62278581
0.050198078 0.01029703 0.62417448
0.050654899 0.0090919435 0.62558842
0.05112011 0.0078646243 0.62702829
0.051593799 0.0066145957 0.62849444
0.0520765 0.0053411424 0.62998849
0.052568316 0.0040437281 0.63151073
0.053069513 0.0027214885 0.63306201
0.053580351 0.0013738275 0.63464314
0.054101128 -0 0.63625497
0.054632127 -0.0014008284 0.6378985
0.055173479 -0.0028294027 0.63957405
0.055725843 -0.0042865872 0.64128375
0.056289379 -0.0057732463 0.64302796
0.056864426 -0.0072903037 0.64480782
0.057451349 -0.0088386834 0.64662445
0.05805051 -0.010419309 0.64847887
0.058662295 -0.012033284 0.65037251
0.059286926 -0.013681591 0.65230578
0.059925202 -0.015365422 0.65428132
0.060577363 -0.01708591 0.65629989
0.061243877 -0.018844277 0.65836281
0.061925229 -0.020641744 0.66047174
0.062621899 -0.022479653 0.662628
0.063334212 -0.024359316 0.66483277
0.064063139 -0.02628231 0.66708887
0.064809039 -0.028250068 0.66939753
0.065572515 -0.030264229 0.67176056
0.066354193 -0.0323264 0.67418003
0.067154728 -0.034438342 0.6766578
0.067974821 -0.036601812 0.67919612
0.068814933 -0.038818687 0.68179637
0.069676332 -0.041091174 0.68446255
0.070559569 -0.043421239 0.68719625
0.071465492 -0.045811206 0.69000024
0.072394975 -0.048263311 0.69287711
0.073348954 -0.050780028 0.69582981
0.07432811 -0.05336377 0.69886047
0.075334072 -0.056017637 0.70197403
0.076367639 -0.058744341 0.70517313
0.077429958 -0.061546892 0.70846111
0.078522258 -0.064428508 0.71184194
0.079645805 -0.067392617 0.71531951
0.064682536 0.072767854 0.66400099
0.064103 0.070513308 0.66225207
0.063533977 0.068298995 0.66053486
0.062974952 0.066123724 0.65884781
0.062425692 0.063986331 0.65719032
0.061885923 0.061885953 0.65556139
0.061355408 0.059821546 0.65396047
0.060833916 0.057792217 0.65238667
0.060321018 0.055796921 0.65083891
0.059816886 0.053835213 0.6493175
0.059321117 0.05190596 0.64782143
0.058833491 0.050008506 0.64634985
0.058353819 0.048141897 0.64490229
0.057881903 0.046305537 0.64347821
0.05741756 0.044498593 0.64207697
0.056960437 0.042720318 0.64069748
0.056510706 0.040970266 0.63934028
0.056068018 0.039247632 0.6380043
0.055632211 0.037551761 0.63668919
0.055203129 0.035882026 0.63539433
0.054780617 0.034237862 0.63411927
0.054364521 0.032618701 0.63286358
0.053954698 0.031023949 0.63162684
0.053550858 0.029453009 0.63040811
0.053153165 0.027905434 0.62920797
0.052761335 0.026380658 0.62802553
0.052375238 0.024878234 0.62686038
0.05199476 0.023397624 0.62571216
0.051619761 0.021938413 0.6245805
0.051250137 0.020500034 0.62346506
0.050885629 0.019082129 0.62236512
0.050526407 0.017684251 0.62128103
0.050172221 0.016305983 0.6202122
0.049822964 0.014946908 0.61915827
0.050046287 0.013762712 0.61983216
0.050488889 0.012622237 0.62116784
0.050939385 0.011461377 0.6225273
0.051397994 0.010279596 0.62391126
0.051864933 0.0090763569 0.62532037
0.052340291 0.0078510642 0.62675488
0.05282459 0.0066031218 0.62821639
0.053317934 0.0053318143 0.62970519
0.05382058 0.0040365458 0.63122213
0.0543328 0.0027166307 0.6327678
0.054854855 0.0013713539 0.63434327
0.055386882 -0 0.63594884
0.055929493 -0.0013982356 0.6375863
0.056482844 -0.0028241277 0.63925624
0.057047252 -0.0042785406 0.64095944
0.057623051 -0.0057623088 0.6426971
0.058210596 -0.0072763264 0.64447016
0.058810245 -0.008821547 0.64627975
0.059422191 -0.010398865 0.64812648
0.060047191 -0.012009442 0.65001255
0.060685486 -0.013654232 0.6519388
0.06133749 -0.015334368 0.65390635
0.062003661 -0.017050982 0.65591669
0.062684461 -0.018805325 0.65797114
0.063380167 -0.020598561 0.66007066
0.064091697 -0.022432089 0.66221797
0.064819396 -0.024307251 0.66441393
0.065563798 -0.026225537 0.66666043
0.066325508 -0.028188348 0.66895902
0.067105114 -0.030197322 0.67131174
0.067903034 -0.032253921 0.67371958
0.068720393 -0.03436017 0.67618626
0.069557682 -0.036517799 0.67871296
0.070415616 -0.038728565 0.68130207
0.071294986 -0.040994614 0.68395579
0.072196588 -0.043317914 0.68667656
0.073121294 -0.045700818 0.68946713
0.074069701 -0.048145294 0.69232923
0.075043328 -0.050654233 0.69526738
0.076042898 -0.053230017 0.69828391
0.077069454 -0.055875361 0.70138174
0.078124106 -0.058593094 0.70456451
0.079208024 -0.061386198 0.7078355
0.080322444 -0.06425795 0.71119857
0.081468314 -0.06721133 0.71465647
0.082647711 -0.070250571 0.7182157
0.066131465 0.072583288 0.66350591
0.065540656 0.070336312 0.66176653
0.064960308 0.068129092 0.6600579
0.064390153 0.065960705 0.6583792
0.063829921 0.063829929 0.65672976
0.063279137 0.061735779 0.65510821
0.062737986 0.059677601 0.65351498
0.062206015 0.057654351 0.65194881
0.061682988 0.055665135 0.65040886
0.061168682 0.05370912 0.64889467
0.060662884 0.05178538 0.64740551
0.060165379 0.04989326 0.64594078
0.059675783 0.048031718 0.64449936
0.059194274 0.046200395 0.64308172
0.058720473 0.044398367 0.64168674
0.058254197 0.04262504 0.64031398
0.057795264 0.040879577 0.63896281
0.057343509 0.039161444 0.63763279
0.056898762 0.037469894 0.63632333
0.056460693 0.035804361 0.63503361
0.056029484 0.03416431 0.63376403
0.055604808 0.032549143 0.63251376
0.055186525 0.030958295 0.63128221
0.054774486 0.029391199 0.63006914
0.054368552 0.02784732 0.62887394
0.053968597 0.02632615 0.62769645
0.053574327 0.024827123 0.62653565
0.053185929 0.023349971 0.62539214
0.052803118 0.021894008 0.62426507
0.052425776 0.020458847 0.62315416
0.052053794 0.019044071 0.62205899
0.051687051 0.017649233 0.62097925
0.051325306 0.016273886 0.61991417
0.050968722 0.014917701 0.6188643
0.051212974 0.013740093 0.61958349
0.051665138 0.012601256 0.6209147
0.052125212 0.011442125 0.62226921
0.052593704 0.010262221 0.62364852
0.053070694 0.0090608597 0.62505293
0.053556409 0.007837534 0.6264829
0.054051101 0.0065915883 0.6279394
0.054555018 0.0053224266 0.62942296
0.055068415 0.0040293932 0.63093448
0.055591408 0.0027117729 0.6324743
0.056124594 0.0013689101 0.63404405
0.056668106 -0 0.6356442
0.057222251 -0.0013956428 0.63727576
0.057787336 -0.0028189123 0.6389395
0.058363698 -0.0042705238 0.64063632
0.058951486 -0.0057513714 0.64236695
0.059551425 -0.0072623491 0.64413321
0.060163699 -0.0088044405 0.64593583
0.060788687 -0.01037854 0.64777595
0.061426803 -0.011985719 0.64965463
0.062078454 -0.013626963 0.65157318
0.062744081 -0.015303403 0.65353292
0.063423932 -0.017016202 0.65553451
0.064118892 -0.018766493 0.65758061
0.064829245 -0.020555586 0.65967202
0.06555552 -0.022384793 0.66181022
0.066298239 -0.024255455 0.66399693
0.06705799 -0.026168972 0.66623378
0.067835353 -0.028126866 0.66852248
0.06863071 -0.030130535 0.67086411
0.069445185 -0.032181919 0.67326206
0.070279226 -0.034282565 0.67571759
0.071133547 -0.036434263 0.67823285
0.072008885 -0.03863889 0.68081003
0.07290604 -0.040898532 0.68345141
0.073825553 -0.043214977 0.68615854
0.074768841 -0.045590788 0.68893582
0.075736552 -0.048028052 0.69178492
0.07672964 -0.050529242 0.69470865
0.077749111 -0.05309695 0.69771016
0.078796037 -0.0557338 0.70079249
0.07987155 -0.058442593 0.70395899
0.080976486 -0.061226159 0.70721209
0.082112774 -0.064088017 0.71055746
0.083281405 -0.067031384 0.71399814
0.084483773 -0.070059717 0.71753812
0.067573056 0.072399706 0.6630134
0.066970885 0.070159972 0.66128278
0.066379346 0.067959815 0.65958261
0.065798171 0.065798163 0.65791231
0.065227084 0.063674092 0.65627092
0.064665824 0.061586529 0.65465784
0.064114146 0.05953455 0.65307224
0.063571587 0.057517141 0.65151292
0.063038342 0.055533767 0.64998037
0.062513962 0.053583384 0.64847326
0.061998241 0.051665217 0.64699101
0.061490949 0.049778402 0.64553303
0.060991902 0.047922224 0.6440987
0.060500886 0.046095908 0.64268756
0.060017709 0.044298798 0.64129883
0.059542015 0.04253 0.63993168
0.059073977 0.040789187 0.63858652
0.058613237 0.039075494 0.63726234
0.058159634 0.037388355 0.63595861
0.057712995 0.035727113 0.63467491
0.057273161 0.034091175 0.63341087
0.056839984 0.032480001 0.63216585
0.056413151 0.030892938 0.63093913
0.055992834 0.029329598 0.62973106
0.055578738 0.027789384 0.62854093
0.055170719 0.02627182 0.62736827
0.054768652 0.02477628 0.62621272
0.054372396 0.023302466 0.62507391
0.053981833 0.021849781 0.62395138
0.05359685 0.020417869 0.62284493
0.053217169 0.019006133 0.62175363
0.052842971 0.017614305 0.62067819
0.052474 0.016241938 0.6196177
0.052110147 0.014888614 0.618572
0.052375682 0.013717473 0.61933517
0.052837346 0.012580305 0.62066197
0.053307213 0.011422992 0.62201244
0.053785518 0.010244876 0.6233871
0.054272484 0.0090453923 0.62478673
0.054768346 0.0078240335 0.62621188
0.055273354 0.0065802038 0.62766325
0.055787604 0.0053130984 0.62914121
0.056311671 0.0040222704 0.63064748
0.056845684 0.0027069449 0.63218224
0.057389919 0.0013664663 0.63374639
0.05794467 -0 0.63534081
0.058510259 -0.0013930798 0.63696635
0.059086815 -0.0028136373 0.63862336
0.059675027 -0.004262507 0.64031398
0.06027507 -0.0057404935 0.64203846
0.060887307 -0.0072484612 0.64379811
0.061512101 -0.0087874234 0.64559382
0.06214986 -0.010358274 0.64742672
0.062800981 -0.011962116 0.64929813
0.063465677 -0.013599783 0.65120852
0.064144813 -0.015272588 0.65316045
0.064838625 -0.016981542 0.65515447
0.065547623 -0.018727869 0.65719217
0.066272296 -0.020512819 0.65927494
0.067013167 -0.022337705 0.66140425
0.067770801 -0.024203867 0.66358173
0.068545513 -0.026112556 0.66580832
0.069338389 -0.028065532 0.66808707
0.070149817 -0.030064225 0.67041922
0.070980474 -0.032110214 0.67280656
0.071831025 -0.034205258 0.67525107
0.072702222 -0.036351115 0.67775494
0.073594525 -0.038549513 0.68031949
0.074509285 -0.040802687 0.68294859
0.075447075 -0.043112606 0.68564379
0.076408774 -0.045481414 0.68840778
0.077395305 -0.047911376 0.69124317
0.078407638 -0.050404906 0.69415271
0.079446815 -0.052964538 0.69713938
0.080513574 -0.055592716 0.70020533
0.081609704 -0.058292657 0.70335561
0.082736097 -0.061067104 0.70659292
0.083894014 -0.063919246 0.70992088
0.085084811 -0.066852361 0.71334326
0.086309887 -0.069869936 0.71686429
0.069007613 0.072217286 0.66252398
0.068394192 0.069984734 0.66080201
0.067791581 0.067791551 0.65911037
0.067199498 0.065636724 0.65744823
0.066617444 0.063518941 0.65581429
0.066045605 0.061437786 0.65420902
0.065483496 0.059392005 0.65263104
0.064930879 0.057380795 0.65107971
0.064387508 0.055403203 0.64955437
0.06385316 0.053458452 0.6480543
0.063327603 0.051545709 0.64657891
0.062810436 0.04966408 0.64512718
0.062301837 0.047813058 0.64369941
0.061801411 0.045991749 0.64229459
0.061308958 0.044199467 0.64091218
0.06082429 0.042435527 0.63955164
0.060347229 0.040699303 0.63821238
0.059877589 0.038990051 0.63689399
0.059415027 0.037307113 0.63559544
0.05895973 0.035650074 0.6343174
0.058511358 0.034018219 0.63305867
0.058069758 0.032411009 0.63181901
