# .PCD v0.7 - Point Cloud Data file format
VERSION 0.7
FIELDS x y z
SIZE 4 4 4
TYPE F F F
COUNT 1 1 1
WIDTH 570
HEIGHT 1
VIEWPOINT 0 0 0 1 0 0 0
POINTS 570
DATA ascii
0.05164757 -0.015614361 0.61379045
0.050670944 -0.014477432 0.61443567
0.046073921 -0.016974628 0.61516243
0.049900185 -0.010953665 0.61571836
0.042920168 -0.014715493 0.61683053
0.056179602 -0.0024425685 0.61622751
0.045555037 -0.009849757 0.6174252
0.051892422 -0.0012354851 0.61794627
0.05300241 -0.0012325943 0.61759377
0.053118654 -0 0.61792016
0.042159606 -0.0099198818 0.61848396
0.043487579 -0.0074549913 0.61878735
0.048211161 -0.0049447417 0.61802471
0.05077704 -0.0012384653 0.61829996
0.035065174 -0.012523264 0.61997342
0.047399033 -0.0012473464 0.61937171
0.053826127 0.0075106025 0.61990619
0.057423394 0.0099866986 0.61949146
0.059898861 0.012478918 0.61943811
0.037723988 -0.0075448155 0.62059373
0.041474201 -0.003770411 0.6205126
0.052700832 0.0075286627 0.62026972
0.02662779 -0.015215874 0.62186408
0.032938045 -0.0088679492 0.62172621
0.041847374 0.0012680888 0.62187761
0.045422774 0.0025234818 0.62111008
0.046886064 0.0063359737 0.62176764
0.05556152 0.013890415 0.62123299
0.055686221 0.015187144 0.62157506
0.029284937 -0.010186046 0.62249994
0.03055268 -0.0089111924 0.62247223
0.035538811 -0.0050769746 0.62201536
0.035538811 -0.0050769746 0.62201536
0.043302447 0.005094409 0.62254137
0.047097735 0.0089103878 0.62245816
0.049625646 0.011452109 0.62240267
0.028272124 -0.0064254701 0.62392902
0.035780508 -0.0012778342 0.62305731
0.034666028 2.9802322e-08 0.62378776
0.034666028 2.9802322e-08 0.62378776
0.04349893 0.0076763034 0.62323892
0.04369732 0.010281742 0.62394333
0.04985062 0.014060438 0.62309903
0.058990754 0.025648147 0.62360442
0.023254739 -0.0090434849 0.62475389
0.029755307 -0.001293689 0.62496859
0.037476216 0.0064614415 0.62479651
0.055299457 0.023148626 0.62404215
0.023308139 -0.0077693462 0.62511194
0.025947988 -0.0038921833 0.62541407
0.028598061 -0 0.62571734
0.040323332 0.013007551 0.62581885
0.047964007 0.019444883 0.62528431
0.054395642 0.025902689 0.62514067
0.026189072 0.0013094544 0.62686914
0.035309263 0.010462016 0.62666357
0.044303149 0.018242478 0.62609422
0.048297085 0.023495913 0.62637097
0.053727496 0.031450242 0.62698662
0.056196719 0.032672524 0.62656093
0.010499048 -0.014436185 0.62722254
0.027686255 0.0065920055 0.62794822
0.049940102 0.028912693 0.62744367
0.059062395 0.038062423 0.6272366
0.059062395 0.038062423 0.6272366
0.0053028506 -0.014582843 0.6288318
0.0079512866 -0.011926949 0.62877166
0.045031779 0.027813762 0.62868106
0.054104686 0.035629928 0.62809712
0.054104686 0.035629928 0.62809712
0.056722708 0.038254857 0.62803757
0.059477858 0.042295396 0.62835103
0.037234016 -0.019946784 0.62932348
0.0039966805 -0.013322234 0.62961811
0.0093185483 -0.0079872906 0.62949669
0.025235903 0.0079692602 0.62913269
0.029272927 0.013305902 0.62942022
0.03589201 0.019940048 0.62926888
0.037390582 0.024036795 0.62999851
0.041178301 0.025238305 0.62914801
0.057394162 0.045381457 0.62992245
0.0067061298 -0.0067061484 0.6307044
0.01203326 -0.0026740432 0.63019782
0.017450847 0.0053695142 0.6308428
0.029481702 0.017421007 0.63056576
0.037568618 0.026834726 0.63076603
0.045566898 0.034845322 0.6305809
0.045566898 0.034845322 0.6305809
0.053674482 0.044281483 0.63078117
0.014842456 0.0053972602 0.63168079
0.029622491 0.020197153 0.63133824
0.029622491 0.020197153 0.63133824
0.055401292 0.049996287 0.6319145
0.057804622 0.049738854 0.63107473
0.031284973 -0.020403266 0.63299674
-0.0040588365 -0.01352945 0.63211906
0.0054305326 -0.0013576448 0.63268495
0.0067705624 -0.0013540983 0.63225991
0.010852678 0.0040697753 0.63255841
0.010852678 0.0040697753 0.63255841
0.021672009 0.014899462 0.63230681
0.024430308 0.019001395 0.63263738
0.027199782 0.023119837 0.63296932
0.029908229 0.025829852 0.63290608
0.036670104 0.032595634 0.63274759
0.041969307 0.03655389 0.63222814
-0.010939067 -0.015041202 0.6338619
0.00136831 -0.0013682842 0.63397372
0.006803235 0.0013606548 0.63304877
0.0081623076 0.002720803 0.63301706
0.014985886 0.010898799 0.63325471
0.043734882 0.043734878 0.63378125
0.043734882 0.043734878 0.63378125
0.045237664 -0.021933407 0.63427889
-0.0027382136 -0.0054764152 0.63406992
-0.0041281665 -0.0041281581 0.63490874
0.01924785 0.020622671 0.63476276
0.034214288 0.034214288 0.63400531
0.039754197 0.041125029 0.63427848
-0.0082814125 -0.0069011748 0.63541323
0.0096606603 0.012420833 0.63539624
0.022042692 0.024798036 0.63510334
0.044163018 0.049683392 0.63539624
0.047019884 0.053934574 0.63573945
0.025057208 -0.020880997 0.63684154
-0.020842327 -0.016673863 0.63653022
-0.015310033 -0.0097427368 0.63681179
-0.013915466 -0.0083492696 0.63677865
0 0.0041561723 0.63603508
0.0027833555 0.0097417235 0.63679451
0.0069371625 0.012486905 0.63628203
0.018097192 0.02644977 0.63684446
0.025032874 0.033377171 0.63667828
0.038863398 0.047191262 0.63634795
0.038959291 0.048699111 0.63676137
-0.018145623 -0.011166543 0.63729417
-0.012614818 -0.0028032959 0.63799781
0.020924771 0.030689687 0.63719368
0.020924771 0.030689687 0.63719368
0.025094762 0.034853876 0.63709331
0.026549384 0.037728101 0.63747746
0.027872052 0.03762728 0.63702685
0.034891821 0.046057194 0.63727677
-0.022513686 -0.011256844 0.63865674
-0.018281428 -0.0070312917 0.63855517
0.0098536406 0.023930252 0.63872409
0.021133892 0.036632091 0.63887656
0.022538316 0.038033426 0.63884258
0.037949923 0.053411007 0.63846934
-0.02978003 -0.017017156 0.63998353
-0.0070729302 0.0084875226 0.63955975
-0.0014169997 0.015587032 0.63985109
0.0014164306 0.018413603 0.63978243
0.015549509 0.032512635 0.6394397
0.026882447 0.045275718 0.63959354
0.032515816 0.05089432 0.63945657
-0.029877311 -0.012804598 0.64054275
-0.029952882 -0.011410624 0.64097714
-0.028520785 -0.0099822581 0.64094228
-0.021315075 -0.0042630136 0.64033461
-0.021315075 -0.0042630136 0.64033461
-0.0199403 -0.0014242828 0.64073318
-0.014231576 0.0042694807 0.64059442
0.0099530211 0.029859036 0.64043784
0.0099530211 0.029859036 0.64043784
0.022708559 0.042578578 0.640127
0.028434293 0.049760014 0.64042026
-0.03586876 -0.014347494 0.64199388
-0.010006523 0.011436015 0.6413604
-0.0014277669 0.019988745 0.64115083
0.0043016002 0.028677344 0.64188713
0.0057343007 0.030105084 0.64185196
0.049026374 -0.024513215 0.64286315
-0.027366027 -0.0028806031 0.64266574
-0.011526051 0.014407575 0.64271879
0.014391373 0.041734993 0.64252329
0.023056742 0.051877707 0.64275384
-0.039152771 -0.011600822 0.64384699
-0.034780905 -0.0072460175 0.64373851
-0.017392211 0.011594802 0.64375627
-0.0072177993 0.020209849 0.64305723
-0.0014497956 0.028995961 0.64380991
0.0072214836 0.036107421 0.64314616
0.0086862482 0.03908816 0.64355797
-0.046691414 -0.01605016 0.64493388
-0.039253712 -0.010176897 0.64429832
-0.027577337 0.0014514327 0.64400828
-0.021866145 0.010204196 0.64476925
-0.011645059 0.020378858 0.6445145
-0.0087527754 0.024799526 0.64489639
0.062824808 -0.026298761 0.64516753
-0.048285596 -0.016095221 0.645428
-0.04386856 -0.011698276 0.64531755
-0.04386856 -0.011698276 0.64531755
-0.017572872 0.01757285 0.64557356
0.0088497587 -0.02212441 0.64684749
-0.044212501 -0.0073687732 0.64670151
-0.027936952 0.0088222027 0.64629298
0.011788713 0.053049207 0.64668208
0.011788713 0.053049207 0.64668208
-0.050281085 -0.011830837 0.64731777
-0.026599754 0.013299882 0.64718604
-0.010374781 0.032606453 0.6477108
0.0044486788 0.048935473 0.64780509
-0.038689613 0.0044642091 0.6484291
-0.038689613 0.0044642091 0.6484291
-0.016360028 0.028258264 0.64833415
-0.056991786 -0.010498494 0.64984405
-0.035983164 0.011994421 0.64978546
-0.0089852717 0.040433735 0.6495738
0.0030096546 -0.022572398 0.65045285
-0.049572002 -0.0015021563 0.65013349
-0.043642215 0.0060196221 0.65046209
-0.042241026 0.0090516508 0.65090925
-0.039207038 0.012063712 0.65083134
-0.025586057 0.025586039 0.65048122
-0.021113705 0.0316706 0.65085047
-0.062025797 -0.010589778 0.65141815
-0.057604607 -0.004547745 0.65179074
-0.01818696 0.037889481 0.6517508
-0.01662308 0.037779748 0.6512208
0.035034411 -0.025895 0.65267491
-0.056227945 -0.00151968 0.65224499
-0.048577085 0.0060721338 0.65204704
-0.027463473 0.032040715 0.65297818
-0.027463473 0.032040715 0.65297818
-0.0060845469 0.053239763 0.65242159
-0.068875492 -0.010713965 0.65355986
-0.062698603 -0.0045877099 0.65339899
-0.021458026 0.041383356 0.65381932
-0.049105845 0.012276471 0.65404159
-0.036865421 0.026113003 0.65422285
-0.01535555 0.049137771 0.65416199
-0.075679928 -0.012355924 0.65524036
-0.023184905 0.044824123 0.65538186
-0.073160037 -0.0046697855 0.65670192
-0.063912034 0.0062353313 0.65697157
-0.0326811 0.038906068 0.65665925
-0.021813836 0.051418334 0.65688717
-0.026564782 -0.021876872 0.65743077
-0.045389488 -0.020346999 0.65773499
-0.023441995 0.051572412 0.65745068
-0.0094100963 -0.023525268 0.65812063
-0.075567678 2.9802322e-08 0.65884215
-0.053508922 0.023606896 0.65877759
-0.05859679 0.022171766 0.65997326
-0.038004395 0.044338495 0.65995145
-0.038004395 0.044338495 0.65995145
-0.073203824 0.0095483363 0.66090155
-0.073203824 0.0095483363 0.66090155
-0.052509595 0.031824023 0.66087896
-0.052509595 0.031824023 0.66087896
-0.042783763 0.039614618 0.66008031
-0.042783763 0.039614618 0.66008031
-0.068576768 0.015948087 0.66131455
-0.068576768 0.015948087 0.66131455
-0.078697786 0.0096364319 0.66267478
-0.065916598 0.024115831 0.66287333
-0.046496596 0.043289959 0.66234326
0.019370824 -0.027442008 0.66365957
-0.045269106 0.05011937 0.66396356
-0.043642346 0.051724255 0.66391879
0.0372677 -0.029166013 0.66439581
-0.058501955 -0.021125704 0.66496557
-0.074464932 0.019425631 0.66421092
-0.07282941 0.021039635 0.66416609
-0.061755463 0.035753131 0.66497636
-0.043767799 0.053493977 0.66447973
-0.071812809 0.027745873 0.66581714
-0.069962025 0.027659416 0.66520327
-0.053878218 0.047347516 0.66588521
-0.06045758 -0.021241874 0.66604406
-0.050883956 0.054166794 0.66694081
0.013200625 -0.028051317 0.66798615
-0.064134702 0.041112006 0.66731036
-0.059332788 0.047795832 0.66775143
-0.075991958 0.031388015 0.66821802
-0.074322551 0.033032268 0.66817135
-0.074322551 0.033032268 0.66817135
-0.081966326 0.03345564 0.67072684
-0.070567094 -0.021842152 0.67161846
-0.070981234 0.052390933 0.67280871
-0.081483051 0.044136643 0.67371821
-0.071194604 0.054243505 0.67342192
-0.079075605 -0.02234745 0.67631
-0.086217381 0.050006121 0.67695129
-0.045587927 -0.026300728 0.68045604
0.032085888 -0.033868462 0.68397689
-0.071102701 -0.024885923 0.68337548
-0.05340879 -0.030519307 0.69905454
0.077371351 -0.042554229 0.7022928
0.051057745 -0.041238934 0.70585084
0.0039434801 -0.037463069 0.70681429
0.0019849082 -0.037713259 0.70840377
0.0019849082 -0.037713259 0.70840377
-0.021878839 -0.035801709 0.70889592
0.023929765 -0.039882928 0.70951903
-0.05774181 -0.035057485 0.71773452
0.0042751003 -0.042750984 0.72682923
0.036676712 -0.050430477 0.74550855
0.032594915 -0.051220596 0.74984372
-0.025937948 -0.04715991 0.75343937
-0.054366 -0.044911057 0.75413269
0.045062978 -0.015832931 0.61581987
0.052805454 -0.0091038495 0.61533904
0.048611231 -0.0067680776 0.61736059
0.055569679 0.0024697781 0.61786753
0.044970039 -0.0031222403 0.61959201
0.053027708 0.0049909055 0.61941826
0.033208258 -0.010928661 0.62103367
0.038931154 -0.0069064498 0.62039787
0.038931154 -0.0069064498 0.62039787
0.043107726 0.0025357604 0.62185007
0.046886064 0.0063359737 0.62176764
0.055811476 0.016489774 0.62191868
0.023095999 -0.012831092 0.62368929
0.028650198 -0.010822974 0.62251425
0.033388179 -0.0012841821 0.62381601
0.036967814 -0.0012747347 0.62268031
0.04369732 0.010281742 0.62394333
0.059125215 0.026991934 0.62395728
0.020584105 -0.014151573 0.62409925
0.023415675 -0.0052034557 0.62583309
0.030972196 -0.0012905002 0.62458229
0.031186389 0.0025988817 0.62565953
0.04161641 0.014305621 0.62578994
0.011127517 -0.015055224 0.62684047
0.011127517 -0.015055224 0.62684047
0.01706491 -0.0072190166 0.62725925
0.026520848 -0.00043448806 0.62624979
0.048241317 0.022817597 0.62618899
0.049344342 0.028949171 0.62764382
0.054899998 0.031371444 0.62659019
0.053262148 0.032878384 0.62755501
0.053262148 0.032878384 0.62755501
0.057016581 0.033078872 0.62641996
0.011244975 -0.0092612505 0.62850881
0.019161602 -0.0013215542 0.62832904
0.019161602 -0.0013215542 0.62832904
0.021238361 0.0033192784 0.62903523
0.025117582 0.0052879155 0.62838101
0.021364056 0.0066762567 0.62998343
0.053043235 0.037130266 0.62887621
0.053043235 0.037130266 0.62887621
0.060788203 0.043608934 0.62832117
0.020064121 -0.018726498 0.63026768
-0.0013395722 -0.016074866 0.63050473
0.0026839909 -0.010735959 0.63079727
0.0067061298 -0.0067061484 0.6307044
0.0067061298 -0.0067061484 0.6307044
0.01203326 -0.0026740432 0.63019782
0.014824742 0.0047177821 0.63148636
0.018924819 0.01081419 0.6319775
0.032932833 0.022851974 0.63106734
0.032932833 0.022851974 0.63106734
0.049126897 0.041052759 0.63127661
0.0068362248 0.0041017234 0.63384515
0.045092858 0.045092851 0.63374925
0.046957269 0.044916511 0.63310409
-0.0027415457 -0.0047968626 0.63427103
0.031798262 0.037328392 0.63569063
0.040682063 0.045509785 0.63527429
-0.018799851 -0.013228007 0.6368953
-0.016705152 -0.01113677 0.63684499
0.0083229579 0.01387161 0.63624907
0.0069714668 0.015337229 0.63711023
0.011133997 0.018789485 0.63680315
0.0098046614 0.021009952 0.63787949
0.013998319 0.025196999 0.63777876
0.020821696 0.027762264 0.63636416
0.026353402 0.033288509 0.63623238
-0.0098186312 -0.018234611 0.63812035
-0.014814734 -0.0014108419 0.63910711
0 0.011220962 0.63811529
0.0099030817 0.026879787 0.63957667
0.014824666 0.031063229 0.63924325
0.028569732 0.043089807 0.63841361
0.035065394 0.049091578 0.63811481
0.0028414461 -0.01989013 0.64030057
-0.031385552 -0.012839556 0.64101189
-0.024912577 -0.0071176142 0.64063823
-0.025007349 -0.0050003603 0.64129186
-0.014340147 0.0086041093 0.64190501
-0.0092449682 0.0092449039 0.64047325
-0.0028633634 0.020043522 0.64162338
-0.0028633634 0.020043522 0.64162338
0.015012626 0.03860642 0.64140439
0.018649718 0.044472426 0.64197487
0.022939501 0.048746437 0.64186931
-0.024936294 -0.00095869106 0.64245915
-0.018677361 0.005029425 0.64223158
-0.013019383 0.015190199 0.64342397
-0.013019383 0.015190199 0.64342397
-0.0028964682 0.026793256 0.64362144
-0.0014497956 0.028995961 0.64380991
0.0086198607 0.034479499 0.64222229
-0.038823139 -0.0051276386 0.64564782
-0.020510202 0.014650166 0.64564699
-0.020510202 0.014650166 0.64564699
-0.019041233 0.016111821 0.64561033
0.00072834344 0.035009399 0.64488769
0.061082218 -0.026494265 0.64647871
-0.048537478 -0.013237476 0.64634931
-0.042618468 -0.0073479712 0.64620078
-0.031134304 0.010378122 0.64776808
-0.031134304 0.010378122 0.64776808
0.0029431768 0.042676091 0.64644057
-0.056690242 -0.013426661 0.6488862
-0.056690242 -0.013426661 0.6488862
-0.053144589 -0.0074850023 0.64950806
-0.044679709 -0.0014893115 0.64858139
-0.037193704 0.0059509873 0.64839125
-0.037193704 0.0059509873 0.64839125
-0.028456427 0.019470185 0.64959329
-0.017851068 0.026776642 0.64837199
0.00074765907 0.050913915 0.64956445
-0.045156751 0.0045156777 0.65050089
-0.040723708 0.010558009 0.65087026
-0.021085512 0.030876264 0.65060747
-0.0075261015 0.045156598 0.6505003
-0.062869094 -0.0030667782 0.65390098
-0.041331802 0.019136146 0.65358889
-0.032874249 0.027521715 0.65336871
-0.025133859 0.033510357 0.6526702
-0.0091803372 0.053551942 0.65349823
-0.059939232 0.0015369058 0.65432477
-0.044594418 0.018452853 0.65442556
-0.056367043 0.017223239 0.65780699
-0.038940437 0.032709986 0.65682518
-0.032591049 0.037246943 0.65614164
-0.027916757 0.041875154 0.65601802
-0.024941117 0.048323423 0.65697032
-0.075357296 -0.0015699267 0.6583131
-0.065849476 0.0078392625 0.65805972
-0.056681801 0.020468444 0.65886241
0.042815492 -0.028543651 0.66022217
0.042815492 -0.028543651 0.66022217
-0.014342193 -0.023903638 0.66116589
-0.012680626 -0.023776174 0.66013992
-0.077811331 0.0031759739 0.66049099
-0.071394853 0.0095193386 0.6603179
-0.064989947 0.015851229 0.6601451
-0.066966817 0.017538905 0.66127104
-0.045973588 0.03646183 0.66016632
-0.041189924 0.041189909 0.66003734
-0.072066262 -0.01921764 0.66211897
-0.064774103 0.024625113 0.66266006
-0.054575283 0.035313427 0.66256356
-0.054575283 0.035313427 0.66256356
-0.038436122 0.051248163 0.66212291
0.073470548 -0.03265357 0.66588593
-0.077267185 0.017290911 0.66447335
-0.071709186 0.026892141 0.66553289
-0.058647163 0.040727198 0.66545242
-0.050298162 0.047053128 0.66465974
-0.050298162 0.047053128 0.66465974
-0.065794528 0.039476722 0.66735667
-0.065794528 0.039476722 0.66735667
0.03147259 -0.029816121 0.66875565
-0.05617445 0.052870065 0.66824102
-0.080513276 0.036901921 0.67127943
-0.071827166 0.043430418 0.67043912
-0.071827166 0.043430418 0.67043912
-0.078522883 0.051210582 0.67485958
0.061149217 -0.034451649 0.67673838
0.00085839641 -0.029270247 0.67664135
-0.018918192 -0.027517349 0.67640662
-0.0034941232 -0.029700071 0.67969316
-0.043577459 -0.026146442 0.67921472
-0.066749126 -0.024591804 0.68083918
0.025569011 -0.034700811 0.68926501
0.045074008 -0.036797434 0.69089627
-0.0018642341 -0.033556223 0.69383705
0.013359101 -0.036260396 0.69917357
-0.007599948 -0.034199774 0.69815284
0.075931244 -0.042833 0.70382237
-0.074902035 -0.032390058 0.71316838
-0.052883744 -0.034577817 0.71432841
-0.052883744 -0.034577817 0.71432841
-0.05774181 -0.035057485 0.71773452
0.086709581 -0.047483832 0.71801305
-0.060221869 -0.03530246 0.71947384
-0.0044017313 -0.044017285 0.7344721
-0.0044017313 -0.044017285 0.7344721
0.044474036 -0.048921436 0.73722875
-0.025937948 -0.04715991 0.75343937
0.054223791 0.0058189845 0.61928177
0.037041161 -0.017579481 0.62037784
0.026404023 -0.013943753 0.62230974
0.050109342 0.013726793 0.62291861
0.06039954 0.028272122 0.62392902
0.017920177 -0.010099936 0.62613928
0.038126267 0.014075693 0.62683177
0.042030293 0.01799313 0.62674385
0.053387664 -0.021224037 0.62892723
0.0058953669 -0.0099023655 0.63002139
0.0058953669 -0.0099023655 0.63002139
0.0027032907 -0.006758213 0.63196212
0.0027032907 -0.006758213 0.63196212
0.049973391 0.034111906 0.62896383
0.054910183 0.049059801 0.63179505
0.0062954682 0.0095990719 0.63563585
0.024723575 0.018289238 0.63233447
0.024723575 0.018289238 0.63233447
0.032814045 0.026387148 0.63214582
0.030068625 0.029890448 0.63405049
0.041925475 0.038194261 0.632725
0.041925475 0.038194261 0.632725
0.045932859 0.050066829 0.63494641
-0.026094429 -0.013749532 0.63906145
-0.024770482 -0.010261223 0.63966739
0.0019424385 0.017848738 0.63944888
0.012948516 0.018961301 0.63627672
0.022651482 0.041055828 0.63969636
0.036012977 0.04293856 0.63600224
0.038000502 0.05001973 0.63745499
-0.033781737 -0.0067558689 0.64356518
-0.014000861 0.0096932752 0.64211774
-0.010044693 0.010044375 0.64096296
0.006511983 0.036542676 0.64349985
0.042856097 -0.025122553 0.64718997
-0.038594283 -0.017475843 0.64459759
-0.053852957 -0.014327317 0.64771879
-0.034163125 -0.0047244206 0.64428449
-0.030125961 0.009796286 0.64727581
-0.028157206 0.013337642 0.64769232
-0.01667803 0.025943592 0.64775342
0.0017056551 0.038107015 0.64548892
0.016736189 0.050939336 0.6444875
0.02311171 -0.023859173 0.64880776
-0.061894324 -0.013790985 0.65043384
-0.038030367 0.0065263361 0.6488266
-0.033324808 0.021206737 0.65165228
-0.0256678 0.029453237 0.65164566
-0.017315328 0.037740506 0.65142965
-0.017315328 0.037740506 0.65142965
0.017498054 -0.024347827 0.65249431
-0.069839321 -0.0099758431 0.65408361
-0.066379152 -0.00991752 0.65300041
-0.065548599 -0.0023123771 0.65497535
-0.054059409 0.0020955503 0.65261942
-0.054059409 0.0020955503 0.65261942
-0.051635381 0.0030373931 0.65212595
-0.029884441 0.037612926 0.65538889
-0.014407476 0.053376816 0.65510893
-0.066412836 0.0025946996 0.65669483
-0.049738117 0.029804982 0.65940344
-0.0381792 0.038178902 0.65819317
0.0020015652 -0.025696568 0.66266978
-0.065837041 0.015467845 0.6603018
-0.066539869 0.021646231 0.66234446
-0.06592121 0.033941306 0.66576737
-0.04995542 0.046443723 0.66437143
-0.077281684 0.034071073 0.66941839
-0.08504732 0.041674465 0.67412651
-0.064610705 -0.024447292 0.67959338
0.077222154 -0.036856025 0.68065727
-0.008892118 -0.030233175 0.68347883
-0.008892118 -0.030233175 0.68347883
0.073254459 -0.037520558 0.68447721
0.046235055 -0.036627978 0.68987358
-0.0028081185 -0.033662111 0.6945473
-0.045709569 -0.029849216 0.69399917
-0.074061379 -0.028485149 0.69803488
0.055055119 -0.040569246 0.70200133
0.070735946 -0.043838412 0.70933896
-0.038744517 -0.037693769 0.7215842
0.0053209797 -0.042598367 0.72590804
-0.031148186 -0.047920287 0.75802869
-0.031148186 -0.047920287 0.75802869
