# .PCD v0.7 - Point Cloud Data file format
VERSION 0.7
FIELDS x y z
SIZE 4 4 4
TYPE F F F
COUNT 1 1 1
WIDTH 1310
HEIGHT 1
VIEWPOINT 0 0 0 1 0 0 0
POINTS 1310
DATA ascii
-0.026882466 -0.020908594 0.64908195
-0.026824817 -0.022354007 0.64869535
-0.026767502 -0.02379331 0.64831096
-0.026710344 -0.025226414 0.64792764
-0.026653515 -0.026653498 0.64754653
-0.026596842 -0.028074443 0.64716649
-0.026540494 -0.029489428 0.64678866
-0.026484387 -0.030898482 0.64641237
-0.026428431 -0.032301426 0.6460371
-0.026372794 -0.033698559 0.64566398
-0.026317308 -0.035089761 0.64529192
-0.026262136 -0.036475182 0.6449219
-0.026207116 -0.037854701 0.64455295
-0.026152406 -0.039228618 0.64418602
-0.026097922 -0.040596753 0.64382064
-0.026043588 -0.041959107 0.64345628
-0.025989557 -0.043315917 0.64309394
-0.02593567 -0.044666976 0.64273262
-0.025882086 -0.04601258 0.6423732
-0.025828646 -0.047352523 0.64201486
-0.025775502 -0.048687071 0.64165843
-0.025722576 -0.050016075 0.64130354
-0.025669791 -0.051339597 0.64094955
-0.025617298 -0.052657798 0.64059752
-0.025564944 -0.053970441 0.64024639
-0.029107226 0.075336337 0.6754837
-0.029035689 0.073443234 0.67497575
-0.028964605 0.071559608 0.67447102
-0.028893767 0.069684952 0.67396796
-0.028823376 0.067819744 0.67346823
-0.028753225 0.065963268 0.67297012
-0.028683515 0.06411612 0.6724751
-0.028614147 0.062277883 0.67198253
-0.028545009 0.060448229 0.67149162
-0.028476305 0.058627665 0.67100382
-0.028407831 0.056815654 0.67051756
-0.028339786 0.055012524 0.67003441
-0.028271968 0.053217798 0.6695528
-0.02820457 0.051431865 0.6690743
-0.028137393 0.049654245 0.66859728
-0.028070636 0.047885239 0.66812325
-0.028004196 0.046124548 0.66765153
-0.027937971 0.044372082 0.66718125
-0.027872156 0.04262802 0.66671395
-0.027806554 0.040892005 0.66624808
-0.027741354 0.039164245 0.66578519
-0.027676461 0.037444621 0.66532439
-0.027611775 0.035732925 0.66486508
-0.027547486 0.034029275 0.66440862
-0.027483402 0.032333434 0.66395354
-0.027419709 0.030645549 0.66350126
-0.027356217 0.028965443 0.66305041
-0.02729311 0.027293146 0.66260231
-0.027230201 0.025628448 0.66215563
-0.027167674 0.023971468 0.66171163
-0.027105432 0.022322118 0.66126972
-0.027043387 0.020680219 0.66082919
-0.026981713 0.019045889 0.66039127
-0.026920231 0.017418981 0.65995467
-0.02685912 0.015799522 0.65952069
-0.026798194 0.014187306 0.65908813
-0.026737632 0.012582421 0.65865815
-0.026677346 0.010984808 0.65823001
-0.02661724 0.0093943179 0.65780324
-0.026557494 0.0078110397 0.65737903
-0.026497927 0.0062348247 0.65695608
-0.026438713 0.004665643 0.65653563
-0.02637968 0.0031034946 0.65611643
-0.026320992 0.0015482903 0.65569967
-0.026262566 -0 0.65528488
-0.026204314 -0.0015414357 0.65487123
-0.026146404 -0.0030760467 0.65446001
-0.026088668 -0.0046038926 0.65405005
-0.026031269 -0.0061250031 0.65364248
-0.025974035 -0.0076394379 0.65323609
-0.025917137 -0.009147197 0.65283203
-0.02586049 -0.010648429 0.65242982
-0.025804006 -0.012143046 0.6520288
-0.025747849 -0.013631225 0.65163004
-0.025691858 -0.015112847 0.65123242
-0.025636189 -0.016588151 0.65083712
-0.025580678 -0.018056959 0.65044296
-0.02552549 -0.019519508 0.65005112
-0.025470538 -0.020975709 0.64966094
-0.025415745 -0.022425652 0.64927185
-0.025361262 -0.023869425 0.64888501
-0.025306936 -0.02530694 0.64849925
-0.025252922 -0.026738375 0.64811569
-0.025199058 -0.028163642 0.64773321
-0.025145503 -0.029582918 0.64735293
-0.025092095 -0.030996084 0.64697373
-0.025038993 -0.03240338 0.64659667
-0.024986114 -0.033804744 0.64622122
-0.024933381 -0.035200089 0.64584684
-0.024880946 -0.036589622 0.64547443
-0.024828656 -0.037973195 0.64510316
-0.024776662 -0.039351195 0.64473397
-0.024724808 -0.040723205 0.64436579
-0.024673246 -0.042089611 0.64399964
-0.024621902 -0.043450415 0.64363509
-0.024570692 -0.044805378 0.64327151
-0.024519769 -0.046154857 0.64290988
-0.024468984 -0.047498584 0.64254928
-0.024418486 -0.048836946 0.64219069
-0.024368118 -0.050169647 0.64183307
-0.024318032 -0.051496997 0.64147747
-0.024268152 -0.052818909 0.64112329
-0.024218403 -0.054135248 0.64077002
-0.027495956 0.075613886 0.67624509
-0.02742813 0.073713124 0.67573333
-0.027360735 0.071821928 0.67522496
-0.027293574 0.069939792 0.6747182
-0.027226839 0.068067104 0.67421478
-0.027160332 0.066203326 0.67371297
-0.027094249 0.064348876 0.67321444
-0.027028387 0.062503159 0.67271751
-0.02696294 0.060666651 0.67222381
-0.026897812 0.058838993 0.67173243
-0.026832901 0.057019919 0.67124271
-0.026768399 0.055209845 0.6707561
-0.02670411 0.053408235 0.6702711
-0.026640223 0.051615477 0.66978908
-0.026576549 0.049831033 0.66930866
-0.026513271 0.048055321 0.66883129
-0.026450293 0.046288013 0.66835618
-0.026387522 0.044528931 0.66788262
-0.02632514 0.042778343 0.66741198
-0.026262959 0.041035891 0.66694283
-0.026201164 0.039301753 0.66647661
-0.026139569 0.037575632 0.66601193
-0.026078353 0.035857737 0.66555011
-0.026017422 0.034147888 0.66509044
-0.025956687 0.032445878 0.6646322
-0.025896322 0.030751884 0.66417682
-0.025836149 0.029065669 0.66372281
-0.025776343 0.027387351 0.66327161
-0.025716726 0.025716752 0.66282183
-0.025657473 0.024053872 0.66237479
-0.025598403 0.022398591 0.66192913
-0.025539691 0.020751029 0.66148621
-0.02548125 0.019110948 0.66104531
-0.02542299 0.017478317 0.66060579
-0.025365079 0.015853167 0.66016889
-0.025307346 0.014235377 0.6597333
-0.025249962 0.012624979 0.65930039
-0.025192836 0.011021852 0.65886939
-0.025135884 0.0094259679 0.65843976
-0.025079273 0.0078372359 0.65801263
-0.025022833 0.0062556863 0.65758681
-0.02496673 0.0046812594 0.65716356
-0.024910795 0.0031138659 0.65674156
-0.024855193 0.0015534461 0.65632206
-0.024799839 -0 0.65590447
-0.024744647 -0.0015465319 0.65548807
-0.024689784 -0.0030862093 0.65507412
-0.024635082 -0.0046190917 0.65466148
-0.024580702 -0.0061451495 0.65425116
-0.024526481 -0.0076645315 0.65384215
-0.024472579 -0.0091772079 0.65343547
-0.024418835 -0.010683239 0.65302998
-0.024365403 -0.012182713 0.65262687
-0.024312206 -0.0136756 0.65222549
-0.024259163 -0.015161961 0.65182537
-0.024206426 -0.016641945 0.65142751
-0.024153845 -0.018115342 0.65103078
-0.024101565 -0.01958251 0.65063637
-0.024049437 -0.021043241 0.65024304
-0.023997607 -0.022497743 0.6498521
-0.023946004 -0.023946017 0.64946276
-0.023894545 -0.025387973 0.64907455
-0.023843382 -0.026823789 0.6486885
-0.02379236 -0.028253436 0.64830363
-0.023741633 -0.029677033 0.64792097
-0.023691047 -0.031094491 0.64753926
-0.02364075 -0.032506019 0.64715981
-0.023590667 -0.033911586 0.64678198
-0.023540722 -0.035311073 0.64640522
-0.023491062 -0.036704808 0.64603055
-0.023441538 -0.038092494 0.64565682
-0.023392295 -0.039474517 0.64528537
-0.023343183 -0.04085055 0.64491487
-0.023294354 -0.04222101 0.64454645
-0.023245724 -0.043585747 0.64417958
-0.023197228 -0.044944644 0.64381367
-0.023149004 -0.046297997 0.6434499
-0.023100911 -0.047645599 0.64308703
-0.023053087 -0.048987776 0.64272618
-0.023005389 -0.050324291 0.64236641
-0.022957958 -0.051655397 0.64200854
-0.022910723 -0.052981049 0.64165223
-0.022863613 -0.054301068 0.64129674
-0.025872676 0.075893164 0.67701137
-0.025808712 0.07398501 0.67649657
-0.025745066 0.072086185 0.67598444
-0.025681637 0.07019645 0.67547393
-0.025618613 0.068316311 0.67496681
-0.025555808 0.066445082 0.67446136
-0.0254934 0.064583272 0.67395914
-0.025431205 0.062730342 0.6734587
-0.025369402 0.060886592 0.67296124
-0.025307901 0.059051752 0.6724664
-0.025246609 0.057225645 0.67197311
-0.025185697 0.055408567 0.67148298
-0.025124995 0.053600013 0.67099446
-0.025064671 0.051800311 0.67050898
-0.025004549 0.050009102 0.67002517
-0.024944801 0.048226595 0.66954434
-0.02488525 0.046452492 0.66906518
-0.02482607 0.044686943 0.66858888
-0.024767173 0.042929769 0.66811496
-0.024708467 0.041180789 0.66764247
-0.024650123 0.039440155 0.66717297
-0.024591969 0.037707716 0.66670501
-0.024534173 0.035983443 0.66623992
-0.024476567 0.034267217 0.66577631
-0.024419313 0.032559067 0.66531557
-0.024362328 0.030858964 0.66485703
-0.024305522 0.029166639 0.66439986
-0.024249066 0.027482301 0.6639455
-0.024192788 0.025805652 0.66349262
-0.024136852 0.024136871 0.66304249
-0.024081092 0.02247569 0.66259384
-0.024025669 0.020822257 0.66214776
-0.023970505 0.019176424 0.66170382
-0.023915512 0.017538071 0.66126126
-0.023860848 0.015907258 0.66082138
-0.023806356 0.014283836 0.66038287
-0.023752192 0.012667835 0.65994698
-0.023698194 0.011059165 0.65951246
-0.023644518 0.0094578266 0.65908051
-0.023591088 0.0078637302 0.65865052
-0.023537816 0.0062767267 0.65822184
-0.023484865 0.0046969354 0.65779579
-0.023432076 0.0031242669 0.65737087
-0.023379598 0.0015586615 0.65694857
-0.02332728 -0 0.65652758
-0.023275271 -0.0015516877 0.65610904
-0.023223493 -0.0030964911 0.65569234
-0.023171868 -0.0046343803 0.65527695
-0.023120549 -0.0061654449 0.65486395
-0.023069384 -0.007689774 0.6544522
-0.023018515 -0.0092073977 0.65404284
-0.022967797 -0.010718286 0.65363467
-0.022917379 -0.012222618 0.65322894
-0.022867179 -0.013720304 0.652825
-0.022817126 -0.015211403 0.65242213
-0.022767363 -0.016696036 0.65202171
-0.022717744 -0.018174201 0.65162241
-0.022668416 -0.019645929 0.65122545
-0.022619227 -0.02111128 0.65082961
-0.022570325 -0.022570342 0.65043604
-0.022521632 -0.024023056 0.6500442
-0.022473078 -0.025469482 0.64965349
-0.022424804 -0.026909769 0.64926505
-0.022376668 -0.028343797 0.64887762
-0.022328805 -0.029771715 0.64849246
-0.02228108 -0.031193495 0.64810836
-0.022233626 -0.032609314 0.64772654
-0.022186305 -0.034018993 0.64734572
-0.022139253 -0.035422802 0.64696705
-0.022092402 -0.03682065 0.64659005
-0.022045679 -0.038212508 0.64621407
-0.021999221 -0.039598584 0.64584017
-0.021952892 -0.04097873 0.64546734
-0.021906825 -0.042353183 0.6450966
-0.021860883 -0.043721735 0.64472687
-0.021815201 -0.045084745 0.64435929
-0.021769708 -0.046442062 0.6439932
-0.021724341 -0.047793537 0.64362812
-0.021679224 -0.049139589 0.64326507
-0.021634232 -0.050479859 0.64290297
-0.021589492 -0.05181478 0.6425429
-0.02154487 -0.053144038 0.64218384
-0.021500498 -0.054467931 0.64182675
-0.024177305 0.074258864 0.67726547
-0.02411746 0.07235238 0.67674953
-0.024057824 0.070455104 0.67623526
-0.023998568 0.068567336 0.67572439
-0.023939518 0.066688657 0.67521518
-0.023880843 0.064819425 0.67470932
-0.023822371 0.062959105 0.67420518
-0.023764268 0.061108112 0.67370415
-0.023706364 0.059265912 0.6732049
-0.023648825 0.05743286 0.67270881
-0.023591563 0.05560869 0.6722151
-0.023534499 0.053793162 0.67172307
-0.023477791 0.051986516 0.67123413
-0.023421269 0.050188422 0.6707468
-0.023365106 0.04839915 0.67026252
-0.023309128 0.046618253 0.6697799
-0.023253499 0.044846028 0.66930026
-0.023198135 0.043082297 0.66882288
-0.023142954 0.041326702 0.66834706
-0.023088114 0.03957963 0.66787422
-0.023033455 0.037840694 0.66740298
-0.022979133 0.036110073 0.66693455
-0.022924986 0.034387499 0.66646773
-0.022871174 0.03267312 0.66600376
-0.022817614 0.030966789 0.66554189
-0.022764226 0.029268295 0.66508162
-0.022711163 0.027577847 0.66462409
-0.022658274 0.025895178 0.66416806
-0.022605704 0.024220407 0.66371483
-0.0225533 0.022553325 0.66326302
-0.022501217 0.020894021 0.6628139
-0.022449298 0.019242287 0.66236627
-0.022397693 0.017598212 0.66192132
-0.022346325 0.015961677 0.6614784
-0.022295116 0.014332563 0.66103685
-0.022244217 0.012711018 0.66059798
-0.022193475 0.011096716 0.66016054
-0.022143038 0.0094898939 0.65972561
-0.022092758 0.0078902841 0.6592921
-0.022042777 0.006297946 0.65886116
-0.021993022 0.0047127903 0.65843213
-0.021943418 0.0031347871 0.65800452
-0.02189411 0.0015638769 0.6575793
-0.021844951 -0 0.65715551
-0.021796085 -0.0015568733 0.65673417
-0.021747366 -0.0031067729 0.65631402
-0.021698933 -0.0046497881 0.65589643
-0.021650717 -0.0061859488 0.65548074
-0.021602644 -0.0077152252 0.65506625
-0.021554852 -0.0092378259 0.6546542
-0.021507204 -0.010753602 0.65424335
-0.021459835 -0.012262762 0.65383494
-0.021412605 -0.013765246 0.65342772
-0.02136565 -0.015261203 0.65302283
-0.021318903 -0.016750574 0.65261978
-0.02127229 -0.018233418 0.65221786
-0.02122595 -0.019709796 0.65181834
-0.021179741 -0.021179706 0.65141988
-0.021133803 -0.022643358 0.65102386
-0.021087997 -0.024100572 0.65062881
-0.021042455 -0.025551528 0.65023619
-0.020997107 -0.026996285 0.64984518
-0.020951889 -0.028434664 0.64945531
-0.020906933 -0.029867053 0.6490677
-0.020862103 -0.031293154 0.64868116
-0.020817529 -0.032713234 0.64829683
-0.020773081 -0.034127235 0.64791363
-0.020728888 -0.035535216 0.64753258
-0.020684881 -0.036937296 0.64715314
-0.020640997 -0.038333267 0.64677477
-0.020597363 -0.039723486 0.64639854
-0.02055385 -0.041107684 0.64602333
-0.020510582 -0.042486221 0.64565027
-0.020467434 -0.043858767 0.64527822
-0.02042453 -0.045225739 0.64490831
-0.020381805 -0.04658699 0.64453995
-0.020339197 -0.04794237 0.64417255
-0.020296827 -0.049292266 0.64380723
-0.020254573 -0.050636441 0.64344293
-0.020212555 -0.051975176 0.64308065
-0.02017065 -0.053308129 0.64271927
-0.02012898 -0.054635778 0.64236003
-0.022533774 0.074534804 0.67804003
-0.022477707 0.072620273 0.6775195
-0.022422003 0.070715576 0.67700219
-0.022366572 0.068820208 0.67648751
-0.022311337 0.06693399 0.67597461
-0.022256449 0.065057278 0.67546499
-0.022201756 0.063189656 0.6749571
-0.022147408 0.061331302 0.67445242
-0.022093246 0.059481829 0.6739496
-0.022039428 0.057641596 0.67344981
-0.021985872 0.055810273 0.67295253
-0.021932498 0.053987712 0.67245692
-0.021879457 0.052174091 0.67196441
-0.021826597 0.050369084 0.67147362
-0.021774068 0.048572928 0.67098588
-0.021721715 0.046785265 0.67049974
-0.02166969 0.045006275 0.67001665
-0.021617839 0.04323566 0.66953522
-0.021566307 0.041473657 0.66905677
-0.021515023 0.039720058 0.66858053
-0.021463906 0.037974596 0.66810584
-0.021413108 0.036237597 0.66763419
-0.021362474 0.034508646 0.66716403
-0.021312153 0.032787979 0.66669679
-0.021261996 0.031075239 0.66623104
-0.021212148 0.029370695 0.66576815
-0.02116253 0.027674109 0.6653074
-0.021113073 0.02598533 0.66484821
-0.021063918 0.024304539 0.66439182
-0.021014921 0.022631466 0.66393685
-0.020966223 0.020966232 0.66348469
-0.020917678 0.019308627 0.6630339
-0.020869428 0.01765874 0.66258591
-0.020821402 0.016016483 0.66213989
-0.020773524 0.014381677 0.66169536
-0.020725936 0.012754411 0.66125351
-0.020678498 0.011134565 0.66081297
-0.020631343 0.0095221698 0.66037512
-0.020584336 0.0079170763 0.65993863
-0.020537609 0.0063192546 0.65950483
-0.020491095 0.0047287345 0.65907288
-0.020444723 0.0031453371 0.65864229
-0.02039863 0.0015691221 0.65821433
-0.020352675 -0 0.65778756
-0.020306993 -0.0015620291 0.65736341
-0.02026145 -0.0031171441 0.65694052
-0.020216176 -0.0046652853 0.65652019
-0.020171106 -0.0062064826 0.65610164
-0.02012617 -0.0077408254 0.65568441
-0.020081498 -0.0092683733 0.65526956
-0.02003696 -0.010789126 0.65485603
-0.019992683 -0.012303174 0.65444493
-0.019948537 -0.013810515 0.65403503
-0.019904651 -0.015311241 0.65362751
-0.019860892 -0.016805351 0.65322119
-0.01981739 -0.018292993 0.65281725
-0.019774077 -0.019774079 0.65241504
-0.019730892 -0.021248639 0.65201402
-0.019687954 -0.02271688 0.65161538
-0.019645143 -0.024178624 0.65121782
-0.01960258 -0.02563411 0.65082264
-0.019560138 -0.027083248 0.65042853
-0.019517941 -0.028526217 0.65003669
-0.019475928 -0.029962957 0.64964658
-0.019434033 -0.031393439 0.64925754
-0.019392377 -0.03281787 0.64887089
-0.01935084 -0.034236103 0.64848512
-0.019309541 -0.035648376 0.64810163
-0.019268356 -0.037054539 0.6477192
-0.019227408 -0.038454801 0.64733899
-0.019186635 -0.039849162 0.64696038
-0.019145971 -0.041237503 0.64658284
-0.019105542 -0.042620063 0.64620745
-0.019065224 -0.043996662 0.64583302
-0.019025134 -0.045367599 0.64546084
-0.018985152 -0.046732664 0.64508957
-0.018945398 -0.048092157 0.64472044
-0.018905809 -0.049445957 0.64435279
-0.018866329 -0.050793946 0.64398623
-0.01882707 -0.052136481 0.64362168
-0.018787917 -0.053473309 0.64325815
-0.018748982 -0.054804727 0.64289659
-0.020877982 0.07481277 0.67882043
-0.020825844 0.07289046 0.67829591
-0.02077404 0.070977986 0.67777485
-0.020722495 0.069074988 0.67725635
-0.020671129 0.06718117 0.67673957
-0.020620091 0.065296978 0.67622626
-0.020569231 0.063421816 0.67571461
-0.020518696 0.061556071 0.67520624
-0.020468334 0.059699297 0.67469966
-0.020418292 0.057851791 0.67419624
-0.020368421 0.056013167 0.67369461
-0.020318866 0.054183632 0.67319614
-0.020269552 0.052363008 0.67270005
-0.020220404 0.050551027 0.67220563
-0.020171564 0.048747957 0.67171443
-0.020122891 0.04695341 0.67122477
-0.020074522 0.045167714 0.67073822
-0.020026313 0.043390334 0.67025328
-0.019978408 0.041621655 0.66977143
-0.01993073 0.0398615 0.66929173
-0.01988321 0.038109452 0.66881382
-0.019835984 0.036365986 0.66833872
-0.019788915 0.034630626 0.66786522
-0.019742137 0.032903612 0.66739464
-0.019695509 0.031184584 0.66692567
-0.019649172 0.029473811 0.6664595
-0.019603051 0.027770996 0.6659956
-0.019557077 0.026076108 0.66553319
-0.019511387 0.024389267 0.66507351
-0.019465843 0.022710145 0.66461539
-0.019420579 0.021038979 0.66416001
-0.019375456 0.019375473 0.66370618
-0.01933061 0.017719746 0.66325504
-0.019285904 0.016071588 0.66280532
-0.019241471 0.014431119 0.6623584
-0.019197242 0.01279816 0.66191345
-0.019153152 0.011172682 0.66146994
-0.019109327 0.0095546842 0.6610291
-0.019065639 0.0079440475 0.66058964
-0.019022213 0.0063407421 0.66015279
-0.018978922 0.0047447681 0.65971732
-0.018935891 0.0031559765 0.65928447
-0.018893052 0.0015744269 0.65885353
-0.018850347 2.9802322e-08 0.65842396
-0.018807895 -0.0015673041 0.65799695
-0.018765572 -0.0031276047 0.6575712
-0.018723503 -0.004680872 0.657148
-0.018681558 -0.0062271655 0.65672606
-0.018639863 -0.0077666342 0.65630668
-0.018598353 -0.0092991889 0.65588909
-0.018556967 -0.010824889 0.65547276
-0.018515827 -0.012343884 0.65505892
-0.018474806 -0.013856083 0.65464628
-0.018434029 -0.015361696 0.65423614
-0.018393369 -0.016860604 0.65382719
-0.01835295 -0.018352956 0.65342051
-0.018312706 -0.01983875 0.65301573
-0.018272581 -0.021317989 0.65261209
-0.018232688 -0.022790849 0.65221083
-0.018192912 -0.024257213 0.65181065
-0.018153368 -0.025717288 0.6514129
-0.018113935 -0.027170897 0.65101624
-0.018074734 -0.028618306 0.65062189
-0.018035701 -0.030059487 0.65022928
-0.017996779 -0.031494349 0.64983773
-0.01795808 -0.032923132 0.64944845
-0.017919492 -0.034345716 0.64906031
-0.017881125 -0.03576225 0.64867437
-0.017842868 -0.037172645 0.64828956
-0.017804828 -0.03857711 0.64790684
-0.017766895 -0.039975494 0.64752525
-0.017729178 -0.041368067 0.64714587
-0.017691622 -0.04275474 0.64676809
-0.017654167 -0.044135451 0.64639133
-0.017616929 -0.045510381 0.64601672
-0.01757979 -0.046879441 0.64564317
-0.017542863 -0.048242867 0.64527172
-0.017506037 -0.049600422 0.64490128
-0.017469419 -0.050952494 0.64453292
-0.017432954 -0.052298874 0.64416611
-0.017396586 -0.053639486 0.64380026
-0.019209795 0.075092822 0.67960662
-0.019161642 0.073162645 0.67907822
-0.019113801 0.071242362 0.67855316
-0.019066129 0.069331348 0.67803007
-0.019018764 0.067430168 0.67751026
-0.018971564 0.065538168 0.6769923
-0.018924665 0.063655704 0.67647767
-0.018878 0.061782539 0.67596567
-0.018831495 0.059918433 0.67545521
-0.018785287 0.058063596 0.67494822
-0.018739235 0.05621773 0.67444283
-0.018693479 0.054381043 0.67394072
-0.018647945 0.052553326 0.67344105
-0.018602565 0.050734282 0.67294306
-0.01855747 0.048924237 0.67244822
-0.01851253 0.047122806 0.67195505
-0.018467871 0.045330256 0.67146498
-0.018423364 0.04354614 0.67097658
-0.018379133 0.041770756 0.67049122
-0.018335052 0.040003777 0.67000747
-0.018291244 0.03824532 0.6695267
-0.018247645 0.036495268 0.66904831
-0.018204192 0.034753472 0.66857141
-0.018161006 0.03302002 0.6680975
-0.018117962 0.031294674 0.66762519
-0.018075185 0.029577553 0.66715574
-0.018032547 0.027868479 0.66668785
-0.017990172 0.026167542 0.66622281
-0.017947996 0.024474531 0.66575998
-0.017905954 0.022789419 0.66529864
-0.017864171 0.021112204 0.66484016
-0.017822523 0.019442737 0.66438305
-0.017781127 0.017781138 0.66392881
-0.017739862 0.016127169 0.66347599
-0.01769885 0.014480889 0.66302598
-0.017658027 0.012842208 0.66257799
-0.017617334 0.011211067 0.66213137
-0.017576884 0.0095874071 0.66168755
-0.017536562 0.0079711676 0.66124505
-0.017496483 0.0063623786 0.66080523
-0.017456528 0.0047608912 0.66036677
-0.017416814 0.0031667054 0.65993094
-0.01737728 0.0015797615 0.65949714
-0.017337866 -0 0.65906465
-0.017298691 -0.0015726089 0.65863472
-0.017259633 -0.0031381249 0.65820611
-0.017220808 -0.0046965778 0.65778005
-0.017182102 -0.0062479973 0.65735531
-0.017143626 -0.0077925622 0.65693307
-0.01710532 -0.0093301535 0.65651274
-0.017067131 -0.01086092 0.65609366
-0.017029166 -0.012384832 0.65567708
-0.016991315 -0.013901979 0.65526164
-0.016953688 -0.01541242 0.65484875
-0.016916171 -0.016916156 0.65443707
-0.016878875 -0.018413335 0.65402782
-0.016841687 -0.019903809 0.65361971
-0.016804719 -0.021387786 0.65321404
-0.016767912 -0.022865325 0.6528101
-0.016731212 -0.024336308 0.65240741
-0.016694726 -0.025800943 0.65200698
-0.016658345 -0.027259111 0.65160775
-0.016622175 -0.028711051 0.65121084
-0.01658611 -0.030156553 0.65081513
-0.016550254 -0.031595945 0.65042162
-0.016514553 -0.033029109 0.65002984
-0.016478952 -0.034456015 0.64963913
-0.016443556 -0.03587684 0.64925075
-0.016408261 -0.037291497 0.64886343
-0.016373169 -0.038700223 0.64847833
-0.016338175 -0.04010281 0.6480943
-0.016303379 -0.041499496 0.64771247
-0.016268734 -0.042890251 0.64733231
-0.016234186 -0.044275045 0.64695311
-0.016199833 -0.045654088 0.64657623
-0.016165573 -0.047027111 0.64620024
-0.016131511 -0.048394501 0.64582646
-0.016097542 -0.04975602 0.64545363
-0.016063763 -0.051111937 0.64508301
-0.016030127 -0.05246222 0.64471388
-0.015996583 -0.053806692 0.64434576
-0.01752907 0.075375021 0.68039876
-0.017484967 0.073436886 0.67986631
-0.01744115 0.071508735 0.67933744
-0.017397486 0.069589943 0.67881036
-0.017354105 0.067681044 0.67828667
-0.017310876 0.065781325 0.67776489
-0.017267926 0.063891321 0.67724645
-0.017225187 0.062010705 0.67673051
-0.017182598 0.06013909 0.67621642
-0.01714028 0.058276922 0.67570561
-0.017098108 0.056423783 0.67519653
-0.017056206 0.054579854 0.67469072
-0.017014507 0.052744985 0.67418742
-0.016972952 0.050918847 0.67368579
-0.01693166 0.0491018 0.67318738
-0.016890507 0.047293454 0.67269057
-0.016849617 0.04549396 0.67219698
-0.01680886 0.043703049 0.67170501
-0.016768362 0.0419209 0.67121619
-0.016727999 0.040147245 0.67072892
-0.016687887 0.038382143 0.67024475
-0.01664797 0.036625564 0.66976291
-0.016608182 0.034877181 0.66928262
-0.016568646 0.033137292 0.66880536
-0.016529236 0.031405568 0.66832966
-0.016490072 0.029682159 0.66785687
-0.016451035 0.027966768 0.6673857
-0.01641224 0.026259571 0.66691738
-0.016373629 0.024560422 0.66645133
-0.016335141 0.0228692 0.66598672
-0.01629689 0.021185964 0.66552496
-0.016258763 0.019510508 0.66506481
-0.016220869 0.017842978 0.66460729
-0.016183095 0.016183108 0.66415137
-0.016145552 0.014530987 0.6636982
-0.016108183 0.012886584 0.66324711
-0.016070932 0.011249661 0.66279745
-0.016033906 0.0096203387 0.66235054
-0.015996998 0.0079985261 0.66190493
-0.015960313 0.0063841343 0.66146219
-0.01592374 0.0047771037 0.6610207
-0.015887391 0.003177464 0.66058189
-0.015851207 0.0015851259 0.6601451
-0.015815133 -2.9802322e-08 0.65970963
-0.015779277 -0.0015779436 0.65927684
-0.015743529 -0.0031487048 0.65884531
-0.015707996 -0.0047124028 0.65841639
-0.01567257 -0.0062690079 0.65798879
-0.015637357 -0.0078186691 0.65756369
-0.01560225 -0.0093613267 0.65713996
-0.015567349 -0.01089713 0.65671867
-0.015532606 -0.012426049 0.65629929
-0.015497968 -0.013948143 0.65588117
-0.015463533 -0.015463501 0.65546548
-0.015429201 -0.016972125 0.65505099
-0.01539507 -0.018474072 0.65463901
-0.015361041 -0.019969344 0.65422827
-0.015327211 -0.021458089 0.65381992
-0.015293529 -0.022940248 0.65341336
-0.015259947 -0.02441591 0.65300798
-0.015226563 -0.025885135 0.65260494
-0.015193272 -0.027347893 0.65220314
-0.015160177 -0.028804362 0.65180361
-0.015127177 -0.030254334 0.65140527
-0.015094369 -0.031698167 0.65100926
-0.015061702 -0.033135742 0.65061492
-0.015029129 -0.034566969 0.65022177
-0.014996744 -0.035992175 0.64983082
-0.014964451 -0.037411124 0.649441
-0.014932344 -0.038824111 0.64905345
-0.014900327 -0.04023093 0.64866698
-0.014868495 -0.041631758 0.64828271
-0.014836797 -0.043026686 0.6479001
-0.014805188 -0.044415563 0.64751858
-0.014773761 -0.045798689 0.64713919
-0.01474242 -0.047175765 0.64676088
-0.014711258 -0.048547149 0.64638472
-0.014680181 -0.049912632 0.64600956
-0.01464928 -0.051272482 0.64563656
-0.014618509 -0.05262661 0.6452651
-0.014587824 -0.053974956 0.64489472
-0.015835669 0.075659305 0.68119681
-0.015795676 0.073713183 0.68066037
-0.015755942 0.071777046 0.6801275
-0.01571635 0.069850445 0.67959654
-0.015677014 0.067933738 0.67906892
-0.015637819 0.06602636 0.67854321
-0.015598874 0.064128697 0.67802089
-0.015560123 0.062240481 0.67750114
-0.015521509 0.060361445 0.67698324
-0.015483141 0.058491886 0.67646861
-0.015444907 0.056631327 0.67595577
-0.015406917 0.054780155 0.67544627
-0.015369057 0.052937865 0.6749385
-0.015331439 0.051104784 0.67443395
-0.015294004 0.049280703 0.67393184
-0.015256697 0.047465324 0.67343146
-0.015219626 0.045658886 0.67293429
-0.01518268 0.043861091 0.67243874
-0.015145969 0.042072177 0.67194629
-0.015109379 0.040291697 0.67145562
-0.01507302 0.038519949 0.67096794
-0.015036781 0.036756575 0.67048192
-0.015000771 0.035001814 0.66999888
-0.014964931 0.033255398 0.66951823
-0.014929211 0.031517237 0.66903913
-0.014893712 0.029787451 0.66856301
-0.014858331 0.028065741 0.66808844
-0.014823167 0.026352316 0.6676169
-0.01478817 0.024646968 0.66714746
-0.014753289 0.022949547 0.66667962
-0.01471862 0.021260202 0.6662147
-0.014684064 0.019578725 0.66575116
-0.014649722 0.017905235 0.66529053
-0.014615487 0.016239434 0.6648314
-0.014581463 0.014581501 0.66437507
-0.014547547 0.012931138 0.66392016
-0.014513839 0.011288553 0.66346806
-0.014480286 0.0096534789 0.66301805
-0.014446839 0.0080260336 0.6625694
-0.014413594 0.006406039 0.66212356
-0.014380455 0.0047934949 0.66167909
-0.014347515 0.0031883419 0.66123724
-0.014314678 0.0015905201 0.66079688
-0.014282039 2.9802322e-08 0.66035908
-0.014249548 -0.0015832782 0.65992332
-0.014217156 -0.0031593442 0.65948886
-0.014184961 -0.0047282875 0.65905702
-0.014152862 -0.0062901676 0.6586265
-0.014120956 -0.0078449547 0.6581986
-0.014089147 -0.0093927681 0.65777194
-0.014057525 -0.010933608 0.65734786
-0.014026047 -0.012467593 0.65692568
-0.013994663 -0.013994634 0.65650469
-0.013963466 -0.01551494 0.65608627
-0.01393236 -0.017028451 0.65566909
-0.01390144 -0.018535256 0.65525436
-0.01387061 -0.020035356 0.65484089
-0.013839962 -0.02152881 0.65442979
-0.01380945 -0.023015738 0.65402061
-0.013779027 -0.024496049 0.65361249
-0.013748782 -0.025969923 0.65320688
-0.013718626 -0.02743724 0.65280235
-0.013688644 -0.028898209 0.65240026
-0.013658751 -0.030352771 0.65199935
-0.01362903 -0.031801045 0.65160072
-0.01359944 -0.03324309 0.65120387
-0.013569934 -0.034678727 0.6508081
-0.013540599 -0.036108255 0.65041471
-0.013511349 -0.037531525 0.65002233
-0.013482266 -0.038948774 0.64963228
-0.013453266 -0.040359795 0.64924335
-0.013424433 -0.041764885 0.64885658
-0.01339568 -0.043163866 0.648471
-0.013367092 -0.044556975 0.64808762
-0.013338627 -0.045944154 0.64770579
-0.013310242 -0.047325253 0.64732504
-0.013282018 -0.04870075 0.64694649
-0.013253871 -0.050070196 0.64656901
-0.013225886 -0.05143401 0.64619362
-0.013197976 -0.052791923 0.64581931
-0.013170226 -0.054144248 0.64544713
-0.014129442 0.075945705 0.68200094
-0.014093623 0.073991537 0.6814605
-0.014058039 0.072047412 0.68092358
-0.01402258 0.070112884 0.68038851
-0.013987352 0.068188369 0.67985696
-0.01395225 0.066273183 0.67932731
-0.013917374 0.064367861 0.67880106
-0.013882621 0.062471807 0.67827666
-0.013848092 0.060585409 0.67775571
-0.013813735 0.05870837 0.67723727
-0.013779497 0.05684042 0.67672068
-0.013745477 0.054981947 0.67620742
-0.013711577 0.053132385 0.67569584
-0.013677893 0.051292121 0.67518759
-0.013644325 0.049460709 0.67468107
-0.01361097 0.047638416 0.67417777
-0.013577777 0.045824975 0.67367697
-0.013544697 0.044020295 0.67317778
-0.013511827 0.042224467 0.67268187
-0.013479068 0.040437222 0.67218757
-0.013446514 0.038658738 0.67169636
-0.013414071 0.036888719 0.67120683
-0.01338183 0.035127312 0.67072034
-0.013349745 0.033374369 0.67023623
-0.013317767 0.031629711 0.66975367
-0.013285986 0.029893488 0.66927415
-0.013254311 0.0281654 0.66879624
-0.013222833 0.026445687 0.66832125
-0.013191459 0.02473399 0.66784787
-0.013160279 0.02303049 0.66737741
-0.013129245 0.021335036 0.6669091
-0.013098313 0.019647449 0.66644239
-0.013067571 0.01796791 0.66597855
-0.013036928 0.016296148 0.6655162
-0.013006473 0.014632255 0.66505671
-0.012976116 0.01297614 0.66459858
-0.012945944 0.011327744 0.66414332
-0.012915868 0.0096868873 0.66368949
-0.012885975 0.00805372 0.66323847
-0.01285622 0.0064281225 0.66278946
-0.01282656 0.0048099458 0.66234195
-0.012797079 0.0031992495 0.66189712
-0.01276769 0.0015959442 0.66145366
-0.012738478 2.9802322e-08 0.66101289
-0.0127094 -0.0015886724 0.6605742
-0.012680412 -0.0031701028 0.66013676
-0.012651599 -0.0047443211 0.65970194
-0.012622873 -0.0063113868 0.65926856
-0.012594319 -0.007871449 0.65883774
-0.012565854 -0.0094243884 0.65840822
-0.012537558 -0.010970354 0.65798128
-0.012509347 -0.012509346 0.65755558
-0.012481305 -0.014041424 0.65713245
-0.012453387 -0.015566736 0.65671122
-0.012425554 -0.017085105 0.65629125
-0.012397886 -0.018596828 0.65587372
-0.0123703 -0.020101726 0.6554575
-0.012342877 -0.021600008 0.65504372
-0.012315534 -0.023091614 0.65463114
-0.012288353 -0.024576694 0.65422106
-0.012261291 -0.026055247 0.65381277
-0.01223431 -0.027527153 0.65340555
-0.012207485 -0.028992742 0.65300083
-0.012180739 -0.030451834 0.65259731
-0.012154148 -0.031904608 0.65219611
-0.012127636 -0.033351004 0.65179598
-0.012101277 -0.034791112 0.6513983
-0.012075031 -0.03622508 0.65100229
-0.012048862 -0.037652671 0.65060741
-0.012022844 -0.039074242 0.65021485
-0.0119969 -0.040489525 0.64982337
-0.011971106 -0.041898847 0.64943415
-0.011945385 -0.043302029 0.64904606
-0.011919811 -0.044699281 0.64866018
-0.011894346 -0.046090573 0.64827591
-0.011868954 -0.047475845 0.64789277
-0.011843706 -0.048855275 0.64751184
-0.011818529 -0.050228745 0.64713192
-0.011793494 -0.051596552 0.64675421
-0.01176853 -0.052958369 0.64637756
-0.011743707 -0.054314658 0.64600295
-0.012378668 0.074272037 0.68226659
-0.012347294 0.072319895 0.68172562
-0.012316035 0.07037735 0.68118656
-0.012284977 0.068444848 0.68065101
-0.012254031 0.066521883 0.68011737
-0.012223286 0.064608812 0.67958713
-0.012192649 0.06270504 0.67905879
-0.01216221 0.060811102 0.67853391
-0.012131923 0.058926493 0.67801166
-0.012101742 0.057051122 0.67749119
-0.012071756 0.055185169 0.67697406
-0.012041873 0.053328335 0.67645878
-0.012012182 0.05148077 0.67594677
-0.011982593 0.049642146 0.6754365
-0.011953194 0.04781279 0.67492956
-0.011923936 0.045992345 0.67442507
-0.01189478 0.044180632 0.67392224
-0.01186581 0.042377919 0.67342269
-0.011836936 0.040583789 0.67292476
-0.011808246 0.038798511 0.67243004
-0.011779652 0.037021786 0.67193693
-0.011751238 0.035253733 0.67144698
-0.01172292 0.033494025 0.67095864
-0.011694779 0.03174299 0.67047334
-0.011666773 0.03000024 0.66999042
-0.011638859 0.028265834 0.66950905
-0.01161112 0.026539713 0.66903067
-0.011583471 0.024821728 0.66855395
-0.011555995 0.023111999 0.66808015
-0.011528608 0.021410286 0.66760784
-0.011501391 0.01971668 0.66713852
-0.011474301 0.018031061 0.6666714
-0.011447301 0.016353309 0.66620576
-0.011420466 0.014683425 0.66574299
-0.011393717 0.01302141 0.66528171
-0.011367132 0.011367112 0.66482329
-0.011340632 0.0097205341 0.66436636
-0.011314294 0.0080816448 0.66391212
-0.011288079 0.0064503253 0.66346014
-0.011261946 0.0048265755 0.66300941
-0.011235972 0.0032102764 0.66256154
-0.01121008 0.0016014576 0.66211504
-0.011184344 -0 0.66167122
-0.011158689 -0.0015940964 0.66122878
-0.011133188 -0.0031809211 0.66078913
-0.011107805 -0.0047605038 0.6603514
-0.011082499 -0.0063328445 0.65991497
-0.011057344 -0.0078980923 0.65948117
-0.011032268 -0.0094562173 0.6590488
-0.011007342 -0.011007369 0.65861893
-0.010982491 -0.012551427 0.65819037
-0.010957789 -0.014088601 0.65776443
-0.010933161 -0.015618801 0.65733975
-0.01090868 -0.017142206 0.65691757
-0.010884308 -0.018658817 0.6564973
-0.01086001 -0.020168602 0.65607828
-0.010835854 -0.021671712 0.65566176
-0.010811771 -0.023168087 0.65524644
-0.010787831 -0.024657875 0.65483356
-0.010763995 -0.026141107 0.65442258
-0.01074023 -0.027617723 0.65401274
-0.010716604 -0.029087931 0.65360534
-0.010693048 -0.030551583 0.65319914
-0.010669629 -0.032008886 0.65279531
-0.010646278 -0.033459723 0.65239263
-0.010623064 -0.034904331 0.65199232
-0.01059995 -0.036342651 0.65159369
-0.010576903 -0.037774652 0.6511963
-0.01055399 -0.039200515 0.65080112
-0.010531141 -0.040620118 0.6504072
-0.010508426 -0.042033672 0.65001541
-0.010485774 -0.043441057 0.64962482
-0.010463254 -0.044842511 0.6492365
-0.010440797 -0.046237797 0.64884925
-0.010418468 -0.04762727 0.6484642
-0.010396236 -0.049010783 0.64808083
-0.010374065 -0.050388306 0.64769846
-0.010352021 -0.051760107 0.6473183
-0.010330038 -0.053125918 0.64693928
-0.010308181 -0.054486081 0.64656234
-0.010650662 0.074554622 0.68307889
-0.010623565 0.072594345 0.68253374
-0.010596567 0.070643783 0.68199062
-0.010569745 0.068703353 0.68145096
-0.010543019 0.066772491 0.68091327
-0.010516468 0.064851552 0.68037909
-0.01049001 0.062940061 0.67984682
-0.010463724 0.061038405 0.67931801
-0.01043753 0.059146017 0.67879105
-0.010411507 0.057263285 0.67826748
-0.010385612 0.055389941 0.67774653
-0.010359809 0.053525716 0.67722738
-0.01033417 0.051670879 0.67671156
-0.010308621 0.049825013 0.67619753
-0.010283235 0.047988445 0.6756869
-0.010257937 0.046160728 0.67517787
-0.010232801 0.04434216 0.67467213
-0.010207786 0.042532444 0.67416888
-0.010182858 0.04073146 0.67366737
-0.010158086 0.038939327 0.67316902
-0.0101334 0.037155807 0.67267239
-0.010108868 0.035381049 0.67217886
-0.01008442 0.033614725 0.67168701
-0.010060124 0.031857073 0.67119819
-0.010035946 0.030107826 0.67071176
-0.010011849 0.028366923 0.67022693
-0.0099879019 0.026634395 0.66974521
-0.0099640349 0.024910092 0.66926497
-0.009940315 0.023194045 0.66878784
-0.0099166743 0.021486133 0.66831219
-0.0098931799 0.019786358 0.66783953
-0.0098697972 0.018094599 0.66736913
-0.0098464899 0.016410857 0.66690016
-0.009823326 0.014734983 0.66643417
-0.0098002376 0.013067007 0.66596967
-0.0097772917 0.011406869 0.66550803
-0.0097544184 0.0097544491 0.66504782
-0.0097316857 0.0081097484 0.66459054
-0.0097090257 0.0064727068 0.66413462
-0.0096865036 0.0048432648 0.66368157
-0.0096640857 0.0032213628 0.66323054
-0.0096417395 0.001606971 0.66278094
-0.0096195284 -0 0.66233414
-0.0095973862 -0.0015995502 0.6618886
-0.0095753791 -0.0031917691 0.66144586
-0.0095534408 -0.0047767162 0.66100448
-0.0095316339 -0.0063544214 0.66056579
-0.0095099267 -0.0079249144 0.66012907
-0.0094882865 -0.0094883144 0.65969372
-0.0094667757 -0.011044562 0.65926093
-0.0094453311 -0.012593806 0.65882951
-0.009424014 -0.014136016 0.65840065
-0.0094027631 -0.015671283 0.65797305
-0.0093816379 -0.017199636 0.65754807
-0.0093606077 -0.018721223 0.657125
-0.0093396408 -0.020235866 0.65670317
-0.0093187978 -0.021743834 0.65628386
-0.0092980172 -0.023245037 0.65586579
-0.0092773605 -0.024739623 0.65545022
-0.0092567643 -0.026227504 0.65503585
-0.0092362901 -0.027708888 0.65462387
-0.0092159053 -0.029183686 0.65421385
-0.0091955811 -0.030651897 0.6538049
-0.009175376 -0.032113791 0.65339839
-0.0091552297 -0.033569157 0.65299308
-0.0091352006 -0.035018235 0.65259016
-0.0091152312 -0.036460906 0.65218836
-0.0090953764 -0.037897378 0.65178895
-0.009075609 -0.039327621 0.65139127
-0.0090558976 -0.040751517 0.65099472
-0.0090363007 -0.042169422 0.65060049
-0.0090167606 -0.043581039 0.65020734
-0.0089973323 -0.044986695 0.64981645
-0.0089779599 -0.046386093 0.6494267
-0.0089586983 -0.047779709 0.64903921
-0.0089395205 -0.049167365 0.64865339
-0.0089203948 -0.050548881 0.64826864
-0.00890138 -0.051924706 0.64788604
-0.0088824173 -0.05329451 0.64750457
-0.0088635636 -0.054658651 0.64712524
-0.0089094527 0.074839413 0.68389732
-0.008886667 0.072870702 0.68334723
-0.0088640302 0.070912242 0.68280077
-0.008841509 0.068963736 0.68225706
-0.0088190688 0.067024916 0.68171525
-0.0087967748 0.06509614 0.68117702
-0.0087745599 0.063176841 0.68064076
-0.0087524904 0.061267465 0.68010789
-0.0087304991 0.059367418 0.67957699
-0.0087086502 0.057477087 0.67904955
-0.0086869104 0.055596232 0.67852467
-0.008665246 0.053724527 0.6780017
-0.0086437222 0.051862359 0.67748207
-0.0086222738 0.050009221 0.67696422
-0.0086009623 0.048165411 0.67644972
-0.0085797254 0.046330512 0.675937
-0.0085586226 0.044504821 0.67542756
-0.008537625 0.042688131 0.67492062
-0.0085166981 0.040880144 0.67441541
-0.0084959054 0.039081156 0.67391342
-0.0084751835 0.037290812 0.67341316
-0.008454591 0.035509288 0.67291605
-0.0084340703 0.033736289 0.67242056
-0.008413678 0.031971961 0.67192829
-0.0083933538 0.030216068 0.67143762
-0.0083731581 0.028468698 0.67095006
-0.0083530592 0.026729822 0.67046475
-0.0083330264 0.024999082 0.66998118
-0.0083131194 0.023276716 0.66950059
-0.0082932776 0.021562546 0.66902155
-0.0082735606 0.019856542 0.66854554
-0.0082539069 0.018158585 0.66807103
-0.0082343752 0.016468763 0.6675995
-0.0082149366 0.014786869 0.66713023
-0.0081955604 0.013112932 0.66666245
-0.0081763035 0.011446834 0.66619754
-0.0081571098 0.009788543 0.66573417
-0.0081380326 0.0081380606 0.66527361
-0.0081190178 0.0064952075 0.66481453
-0.0081001185 0.0048600435 0.66435826
-0.0080813076 0.0032325387 0.66390413
-0.0080625564 0.0016125143 0.66345143
-0.0080439188 -0 0.66300154
-0.0080253407 -0.0016050339 0.66255301
-0.0080068745 -0.0032027364 0.66210711
-0.0079884669 -0.0047930777 0.66166276
-0.0079701701 -0.0063761473 0.66122103
-0.0079519562 -0.0079519749 0.66078132
-0.0079337992 -0.0095205605 0.66034299
-0.007915752 -0.011082023 0.65990728
-0.0078977607 -0.012636453 0.65947294
-0.0078798765 -0.014183789 0.65904117
-0.0078620464 -0.015724093 0.65861076
-0.0078443242 -0.017257541 0.65818286
-0.0078266552 -0.018783957 0.65775633
-0.0078090914 -0.020303637 0.6573323
-0.0077916062 -0.021816522 0.65691018
-0.0077741733 -0.023322552 0.65648925
-0.0077568442 -0.024821907 0.65607089
-0.0077395667 -0.026314527 0.65565383
-0.0077223908 -0.02780062 0.65523916
-0.0077052666 -0.029280007 0.65482569
-0.0076882429 -0.030752957 0.65441471
-0.0076712938 -0.03221944 0.65400559
-0.007654395 -0.033679336 0.65359753
-0.0076375948 -0.035132945 0.65319198
-0.0076208441 -0.036580056 0.65278757
-0.0076041906 -0.038020909 0.65238547
-0.0075875856 -0.039455444 0.65198463
-0.0075710774 -0.04088378 0.65158606
-0.0075546405 -0.042306006 0.65118933
-0.0075382511 -0.043721855 0.65079355
-0.0075219567 -0.045131713 0.65040016
-0.0075057084 -0.046535373 0.65000796
-0.0074895541 -0.047933131 0.64961791
-0.0074734455 -0.049324721 0.64922905
-0.0074574291 -0.050710499 0.64884233
-0.007441482 -0.052090377 0.64845735
-0.0074255792 -0.053464174 0.64807349
-0.0071548927 0.07512638 0.68472213
-0.0071365237 0.073149413 0.68416774
-0.0071182759 0.071182758 0.68361712
-0.0071001207 0.069226205 0.68306923
-0.0070820316 0.067279279 0.68252337
-0.0070640612 0.065342605 0.68198097
-0.0070461552 0.063415408 0.68144065
-0.007028366 0.061498165 0.68090385
-0.0070106406 0.059590429 0.6803689
-0.0069930297 0.057692498 0.67983741
-0.0069754813 0.055803865 0.67930788
-0.0069580469 0.053924859 0.67878175
-0.0069406987 0.05205524 0.67825824
-0.0069234124 0.05019474 0.67773652
-0.0069062365 0.048343658 0.67721826
-0.0068891202 0.046501547 0.67670172
-0.0068721143 0.044668734 0.67618853
-0.0068551674 0.042844802 0.67567706
-0.0068383277 0.04102996 0.67516893
-0.0068215714 0.039224058 0.67466325
-0.0068048718 0.03742677 0.67415929
-0.0067882789 0.035638481 0.67365849
-0.0067717419 0.033858716 0.67315954
-0.0067553101 0.032087684 0.67266363
-0.0067389328 0.030325174 0.67216945
-0.0067226593 0.028571308 0.6716783
-0.0067064641 0.026825905 0.67118955
-0.0066903234 0.025088698 0.67070252
-0.0066742832 0.023360014 0.67021841
-0.0066582966 0.021639436 0.66973603
-0.0066424096 0.019927233 0.66925657
-0.0066265748 0.018223077 0.66877872
-0.0066108387 0.016527086 0.66830385
-0.0065951771 0.014839172 0.66783118
-0.0065795667 0.013159156 0.66736007
-0.0065640528 0.011487097 0.66689193
-0.0065485891 0.0098229051 0.66642523
-0.0065332209 0.0081665218 0.6659615
-0.006517902 0.0065179169 0.66549921
-0.0065026772 0.0048770308 0.66503978
-0.0064875009 0.0032437742 0.66458178
-0.0064724176 0.0016180873 0.66412663
-0.0064574047 -2.9802322e-08 0.66367358
-0.0064424383 -0.0016105771 0.6632219
-0.0064275642 -0.0032137632 0.66277301
-0.0064127361 -0.0048095584 0.66232562
-0.006397998 -0.0063979924 0.66188073
-0.0063833059 -0.0079791248 0.66143739
-0.0063687027 -0.009553045 0.66099668
-0.0063541662 -0.011119783 0.66055804
-0.0063396743 -0.012679368 0.66012073
-0.00632527 -0.014231831 0.65968603
-0.00631091 -0.01577726 0.65925264
-0.0062966351 -0.017315745 0.65882194
-0.006282405 -0.018847197 0.65839243
-0.0062682591 -0.020371854 0.65796554
-0.0062541771 -0.021889597 0.65754056
-0.0062401374 -0.023400515 0.65711689
-0.0062261815 -0.024904728 0.65669572
-0.0062122666 -0.026402116 0.65627587
-0.0061984346 -0.027892947 0.6558584
-0.0061846436 -0.029377043 0.65544224
-0.006170935 -0.030854702 0.65502852
-0.006157286 -0.032325745 0.65461665
-0.0061436775 -0.033790231 0.65420598
-0.0061301491 -0.035248339 0.65379775
-0.0061166598 -0.036699951 0.65339065
-0.0061032497 -0.038145304 0.65298599
-0.0060898787 -0.039584219 0.65258253
-0.006076586 -0.041016936 0.65218133
-0.0060633509 -0.042443454 0.65178192
-0.0060501536 -0.043863624 0.6513837
-0.0060370336 -0.045277774 0.65098774
-0.0060239509 -0.046685606 0.65059292
-0.0060109445 -0.048087537 0.65020037
-0.0059979744 -0.049483269 0.649809
-0.0059850793 -0.050873131 0.64941984
-0.0059722206 -0.052256942 0.64903182
-0.0059594358 -0.053634912 0.648646
-0.0053868247 0.075415581 0.68555319
-0.0053729415 0.07343021 0.68499458
-0.0053591509 0.071455359 0.68443972
-0.0053454102 0.069490343 0.68388677
-0.0053317593 0.067535609 0.68333757
-0.0053181788 0.065590888 0.68279111
-0.0053046471 0.063655734 0.68224669
-0.005291204 0.061730713 0.68170577
-0.0052778092 0.059815168 0.68116677
-0.0052645016 0.057909489 0.68063134
-0.0052512414 0.056013256 0.68009776
-0.0052380669 0.05412668 0.67956769
-0.0052249399 0.052249372 0.67903948
-0.0052118972 0.05038166 0.67851466
-0.0051989192 0.048523247 0.67799246
-0.0051859869 0.046673894 0.67747211
-0.0051731379 0.044833869 0.6769551
-0.0051603331 0.043002784 0.67643994
-0.0051476108 0.041180849 0.675928
-0.0051349509 0.039367974 0.67541856
-0.0051223342 0.037563801 0.67491096
-0.0051097982 0.035768598 0.67440653
-0.0050973049 0.033982038 0.67390382
-0.0050848909 0.03220427 0.67340434
-0.0050725187 0.030435085 0.67290652
-0.0050602253 0.028674603 0.67241186
-0.0050479728 0.026922554 0.67191887
-0.0050357976 0.025178969 0.67142904
-0.0050236811 0.023443878 0.67094147
-0.0050116051 0.021716952 0.67045552
-0.0049996041 0.019998401 0.66997266
-0.0049876436 0.018288016 0.66949141
-0.0049757576 0.016585857 0.66901314
-0.0049639102 0.014891744 0.66853642
-0.0049521364 0.013205707 0.66806275
-0.0049404185 0.011527628 0.66759121
-0.0049287388 0.0098574758 0.66712129
-0.0049171317 0.0081952214 0.66665423
-0.0049055615 0.0065407455 0.66618866
-0.0048940629 0.0048940778 0.66572595
-0.0048826011 0.0032550693 0.66526484
-0.0048712096 0.0016237497 0.66480643
-0.0048598712 -0 0.66435021
-0.0048485692 -0.0016161799 0.66389549
-0.0048373356 -0.0032248795 0.66344351
-0.0048261373 -0.0048261583 0.66299289
-0.004815008 -0.0064199865 0.66254508
-0.0048039127 -0.0080065131 0.66209865
-0.0047928854 -0.0095857382 0.66165489
-0.0047819084 -0.011157751 0.66121322
-0.0047709653 -0.012722552 0.66077292
-0.0047600884 -0.014280289 0.6603353
-0.0047492445 -0.015830785 0.65989894
-0.0047384663 -0.017374337 0.65946525
-0.0047277207 -0.018910885 0.65903294
-0.0047170399 -0.020440519 0.65860313
-0.0047063916 -0.021963149 0.65817463
-0.0046958067 -0.023479015 0.65774876
-0.0046852692 -0.024988115 0.65732479
-0.004674763 -0.026490301 0.65690207
-0.00466432 -0.02798593 0.65648186
-0.0046539078 -0.029474705 0.6560629
-0.0046435571 -0.030957043 0.65564644
-0.0046332376 -0.032432646 0.65523118
-0.0046229791 -0.03390184 0.65481842
-0.0046127653 -0.035364509 0.65440744
-0.0046025817 -0.03682065 0.65399772
-0.0045924583 -0.038270473 0.65359032
-0.0045823646 -0.03971386 0.65318424
-0.0045723291 -0.041150957 0.65278041
-0.0045623234 -0.042581677 0.65237784
-0.004552376 -0.044006318 0.65197754
-0.0045424718 -0.04542473 0.65157908
-0.0045325961 -0.046836823 0.6511817
-0.0045227776 -0.048242956 0.65078664
-0.0045129871 -0.049642831 0.65039265
-0.0045032534 -0.051036865 0.65000105
-0.0044935471 -0.052424699 0.64961052
-0.0044838972 -0.053806782 0.6492222
-0.0036050926 0.075706959 0.68639076
-0.0035957661 0.073713213 0.68582779
-0.0035865009 0.071730047 0.68526858
-0.0035772703 0.069756776 0.68471152
-0.0035681 0.067793936 0.68415803
-0.003558977 0.065841079 0.68360734
-0.0035498871 0.063897997 0.68305874
-0.0035408568 0.061965019 0.68251371
-0.0035318588 0.060041606 0.68197066
-0.00352292 0.058128178 0.68143111
-0.0035140133 0.056224227 0.6808936
-0.0035051641 0.054330051 0.68035948
-0.0034963465 0.052445233 0.67982733
-0.0034875863 0.050570011 0.67929852
-0.0034788698 0.048704207 0.67877245
-0.0034701838 0.046847522 0.67824823
-0.0034615537 0.045000225 0.67772734
-0.0034529543 0.043161929 0.6772083
-0.0034444097 0.041332901 0.67669266
-0.0034359074 0.039512932 0.67617947
-0.0034274345 0.037701786 0.67566812
-0.0034190158 0.035899669 0.67515999
-0.0034106257 0.034106284 0.67465359
-0.003402289 0.032321751 0.67415047
-0.0033939811 0.030545831 0.67364895
-0.0033857254 0.028778642 0.67315078
-0.0033774979 0.027020007 0.67265415
-0.0033693223 0.025269926 0.67216069
-0.0033611862 0.023528308 0.67166966
-0.0033530775 0.021794975 0.67118025
-0.0033450194 0.020070106 0.67069387
-0.0033369882 0.018353462 0.67020917
-0.0033290074 0.016645014 0.6697275
-0.0033210528 0.014944732 0.66924739
-0.0033131479 0.013252586 0.66877025
-0.0033052806 0.011568487 0.66829544
-0.0032974391 0.0098923147 0.66782218
-0.003289646 0.0082241595 0.66735184
-0.0032818783 0.0065637529 0.66688299
-0.0032741586 0.0049112141 0.66641706
-0.0032664638 0.0032664537 0.66595268
-0.003258816 0.0016294122 0.6654911
-0.0032512043 -0 0.66503167
-0.0032436168 -0.0016218126 0.66457373
-0.0032360759 -0.0032360554 0.66411859
-0.0032285589 -0.0048428774 0.66366488
-0.0032210876 -0.0064421594 0.66321391
-0.0032136398 -0.0080341101 0.66276443
-0.0032062377 -0.0096186996 0.66231763
-0.0031988691 -0.011196017 0.66187292
-0.0031915235 -0.012766063 0.66142964
-0.0031842226 -0.014328957 0.66098893
-0.0031769443 -0.015884727 0.66054964
-0.0031697096 -0.017433435 0.66011304
-0.0031624974 -0.01897496 0.65967774
-0.0031553286 -0.02050963 0.65924501
-0.0031481814 -0.022037238 0.65881366
-0.003141077 -0.02355808 0.65838492
-0.0031340048 -0.025072038 0.65795803
-0.003126954 -0.026579112 0.65753245
-0.0031199451 -0.02807948 0.6571095
-0.0031129573 -0.029573113 0.65668774
-0.0031060106 -0.0310601 0.65626848
-0.0030990853 -0.032540411 0.65585041
-0.0030922007 -0.034014195 0.65543497
-0.0030853464 -0.035481513 0.65502125
-0.0030785126 -0.036942124 0.65460879
-0.0030717188 -0.038396478 0.65419871
-0.0030649451 -0.039844304 0.65378994
-0.0030582112 -0.041285843 0.65338349
