# .PCD v0.7 - Point Cloud Data file format
VERSION 0.7
FIELDS x y z
SIZE 4 4 4
TYPE F F F
COUNT 1 1 1
WIDTH 839
HEIGHT 1
VIEWPOINT 0 0 0 1 0 0 0
POINTS 839
DATA ascii
-0.069799885 0.054130524 0.64075494
-0.064770252 0.051816225 0.64254767
-0.060448557 0.059009314 0.64253712
-0.066641532 0.042013139 0.64368117
-0.065085657 0.046283156 0.64339375
-0.069683619 0.034841806 0.64404488
-0.066968374 0.036395848 0.64453888
-0.065484501 0.039290667 0.64446366
-0.059707601 0.048057348 0.644593
-0.068791062 0.027809173 0.64548105
-0.065969408 0.030785739 0.64576441
-0.065888062 0.032211959 0.6455462
-0.055745374 0.046943456 0.64588469
-0.055539686 0.051154971 0.64523131
-0.049730167 0.05996871 0.64536184
-0.049730167 0.05996871 0.64536184
-0.061950054 0.030975044 0.64685249
-0.05609189 0.039854735 0.64698547
-0.057307892 0.042613566 0.64618039
-0.053093418 0.045719326 0.64683032
-0.068137594 0.016293794 0.64760709
-0.063690044 0.023698628 0.64759636
-0.063690044 0.023698628 0.64759636
-0.06075038 0.028152615 0.64766312
-0.062027108 0.029536724 0.64707398
-0.06067466 0.029597372 0.6474402
-0.04746538 0.048948705 0.64785343
-0.04434929 0.057654113 0.64725184
-0.069823489 0.010399282 0.64813262
-0.062571712 0.019367427 0.6486392
-0.052244715 0.034332216 0.64898968
-0.04607711 0.049049854 0.6482234
-0.044571128 0.051999658 0.64814448
-0.058465406 0.019488454 0.64976311
-0.058391687 0.020961106 0.64953488
-0.050857551 0.034403622 0.64936441
-0.043501738 0.043501765 0.64987731
-0.040517054 0.048020214 0.64994639
-0.072427988 -0.01056242 0.65094644
-0.06619069 0.0030086935 0.65039325
-0.064657539 0.0060146451 0.65031236
-0.057229906 0.016566545 0.65060043
-0.057085093 0.019529104 0.65014046
-0.054169811 0.022570759 0.65043956
-0.051309872 0.024145812 0.65097028
-0.046779543 0.031689405 0.6509586
-0.045078643 0.039068133 0.65018654
-0.034540743 0.057067335 0.65008396
-0.069613762 -0.0090800226 0.65148073
-0.06661246 -0.0045417845 0.65155041
-0.062066726 0.0030276179 0.65153873
-0.049969107 0.022713244 0.65158612
-0.043889884 0.03329578 0.65149301
-0.040826518 0.039314449 0.65132993
-0.039246988 0.043775469 0.65101683
-0.069880739 -0.013672322 0.65218133
-0.045714892 0.022857487 0.65274662
-0.032035444 0.044239402 0.6529479
-0.025920149 0.054889739 0.65285349
-0.071984664 -0.026036978 0.65368319
-0.061070558 -0.0045802891 0.65310085
-0.072264306 -0.030750751 0.65440142
-0.067822933 -0.026204288 0.65487123
-0.067822933 -0.026204288 0.65487123
-0.067559808 -0.021496296 0.65414941
-0.060135398 -0.013877392 0.6549319
-0.059902024 -0.0092157125 0.65420961
-0.055505972 -0.0061673224 0.6549198
-0.053800017 -0 0.65435374
-0.049313061 0.0046230853 0.6548233
-0.047626812 0.010754406 0.65425783
-0.035436943 0.027733266 0.65478748
-0.029220931 0.039986581 0.65445036
-0.0246055 0.047673136 0.65443826
-0.016965751 0.057066649 0.65498114
-0.071247891 -0.037172794 0.65576893
-0.062027466 -0.023260295 0.65598857
-0.05557815 -0.0077191889 0.65516174
-0.052647851 -0.0061938763 0.65572053
-0.049377151 0.0030860603 0.65506506
-0.041675575 0.015435398 0.65512586
-0.037187558 0.018593788 0.65584308
-0.033968862 0.027792722 0.65518618
-0.020147225 0.04649359 0.65587991
-0.020147225 0.04649359 0.65587991
-0.01700994 0.054122537 0.65546608
-0.071621373 -0.043595612 0.65674901
-0.055868536 -0.013967127 0.65613544
-0.049635004 -0.0031021833 0.65603769
-0.037382573 0.012460858 0.65682393
-0.037382573 0.012460858 0.65682393
-0.034280919 0.017140448 0.65689838
-0.032664746 0.021776497 0.65656525
-0.029526802 0.027972758 0.65639365
-0.027996603 0.029552013 0.65655351
-0.026498452 0.029615939 0.65695977
-0.02486312 0.035740763 0.65638185
-0.012451091 0.054473519 0.65667653
-0.068714775 -0.042165905 0.65731788
-0.065790325 -0.040727347 0.65788972
-0.062682174 -0.036042273 0.65796435
-0.060846161 -0.028082788 0.65713179
-0.05797736 -0.028205216 0.65795243
-0.042224217 2.9802322e-08 0.65757871
-0.040641662 0.0031262338 0.65749192
-0.031299986 0.017215043 0.65771627
-0.010947092 0.051607728 0.65757996
-0.067745477 -0.050415218 0.65898085
-0.065877236 -0.042349637 0.65813947
-0.064363845 -0.040816069 0.65830177
-0.055010352 -0.026719332 0.65852803
-0.051750548 -0.018818349 0.65810245
-0.048697703 -0.015708953 0.65842777
-0.042391721 -0.0047101676 0.65832758
-0.037679151 0.0031399429 0.65831566
-0.034598649 0.0062906444 0.6586417
-0.032923535 0.012542307 0.6580528
-0.029878661 0.014153033 0.65862906
-0.025159303 0.02201438 0.65861642
-0.012599734 0.040949136 0.65891939
-0.0094160652 0.050218999 0.65824074
-0.070962198 -0.056769729 0.65915734
-0.069537714 -0.056894481 0.65957558
-0.066403337 -0.052174032 0.65965152
-0.042673867 -0.012644112 0.65958899
-0.03163344 0.0047450066 0.65972883
-0.033098239 0.0063044131 0.65905702
-0.025259662 0.017366022 0.65937358
-0.022081697 0.023658931 0.65919673
-0.015764274 0.03468141 0.65909576
0 0.055432558 0.65998411
-0.070003368 -0.065230429 0.66085309
-0.060368638 -0.047659457 0.66057098
-0.057137746 -0.041266114 0.66039127
-0.049350459 -0.031839013 0.6609695
-0.031802904 -0.0015901625 0.66075158
-0.023764692 0.015843153 0.66004765
-0.020659443 0.017481089 0.66063607
-0.01273483 0.028653383 0.66095793
-0.0063469969 0.042842239 0.66034174
0.0015915375 0.052520752 0.66091967
-0.067028105 -0.063836306 0.66144717
-0.063776202 -0.057398587 0.66126585
-0.05279617 -0.043196857 0.66192716
-0.05279617 -0.043196857 0.66192716
-0.051103376 -0.038327545 0.66157675
-0.043017294 -0.02230525 0.66112435
-0.01597634 0.019171625 0.6616556
-0.0080016414 0.030406207 0.66198081
-0.0080016414 0.030406207 0.66198081
0.0015958104 0.049470127 0.66143543
0.0063828318 0.057445467 0.66142309
-0.064294003 -0.067508698 0.66282845
-0.044933055 -0.03369984 0.66251487
-0.038441334 -0.020822376 0.66214907
-0.03377055 -0.017689317 0.66292149
-0.024086 -0 0.6626333
-0.058148026 -0.062993705 0.66377878
-0.054790977 -0.054790974 0.6633293
-0.045177139 -0.040336728 0.66356713
-0.040224798 -0.028961867 0.66302663
-0.024249895 -0.0080833137 0.66395223
-0.017773589 0.003231585 0.66384614
-0.016128194 0.0080640912 0.66348863
-0.0096585555 0.020926863 0.66311926
-0.0096585555 0.020926863 0.66311926
-0.059954856 -0.069677278 0.66440392
-0.050363004 -0.05686143 0.66491222
-0.050225731 -0.053466111 0.66437775
-0.048648577 -0.051891774 0.6645509
-0.045424044 -0.047046304 0.66463155
-0.027584564 -0.017848819 0.66467184
-0.024282956 -0.0097131729 0.66421831
0.0097085936 0.046924889 0.66412592
0.0097085936 0.046924889 0.66412592
0.011352231 0.047030687 0.66456628
-0.045736339 -0.055536985 0.66597784
-0.042428687 -0.048956156 0.66578865
-0.02926114 -0.022758633 0.6650337
-0.02444955 -0.017929673 0.66555893
-0.022839984 -0.016314298 0.66573489
-0.019585244 -0.01142469 0.66581649
-0.017919904 -0.0065163374 0.66545177
-0.016260721 -0.0016260743 0.66508836
0.0032557179 0.029301465 0.66530406
0.0032557179 0.029301465 0.66530406
0.0032557179 0.029301465 0.66530406
0.011430253 0.039189428 0.66591179
0.017902747 0.053708225 0.66526353
0.022815095 0.060297012 0.66552025
-0.050850041 -0.068893582 0.66680872
-0.039397724 -0.050888747 0.6669594
-0.031114638 -0.034389853 0.66648144
-0.0065392102 0.0081740022 0.66614228
-0.0032799875 0.009839952 0.66676891
0.0032781789 0.021308184 0.66665971
0.011445994 0.037608296 0.66618323
0.014722391 0.042531341 0.66626525
0.022877896 0.05719474 0.66606176
-0.036229737 -0.049404174 0.66759121
-0.036179557 -0.047691256 0.66731584
-0.031200703 -0.037769288 0.66702825
-0.02465261 -0.027939647 0.66719306
-0.0099000894 -0.0082500577 0.66797847
-0.0065936591 -0.0016484261 0.66778541
0.02633816 0.054322481 0.66751021
0.028048489 0.054447085 0.66796601
-0.043079834 -0.067933574 0.66881168
-0.041402742 -0.064588249 0.66871417
-0.03648274 -0.058040738 0.66897941
-0.034758933 -0.052965999 0.66860294
-0.029832868 -0.046406686 0.66886783
-0.03137416 -0.044584304 0.66813022
0.019847162 0.0380404 0.66845119
0.019847162 0.0380404 0.66845119
0.034822356 0.059695482 0.66896749
0.034822356 0.059695482 0.66896749
-0.039838217 -0.064737082 0.66917491
-0.029874571 -0.048131227 0.66914743
-0.026640786 -0.046621352 0.66979331
-0.02492857 -0.041547596 0.66941375
-0.02492857 -0.041547596 0.66941375
-0.024893725 -0.039829969 0.66913331
-0.019913582 -0.031529844 0.6691193
-0.0066397265 -0.0099596083 0.66917557
-0.0016621443 -0.0033243001 0.66944271
0.0083211996 0.011649668 0.66969562
0.0099526672 0.018246561 0.66903633
0.0099526672 0.018246561 0.66903633
0.011638286 0.018288761 0.66949916
0.016601708 0.028222889 0.66920447
-0.035150819 -0.066953927 0.67085552
-0.031771839 -0.060199291 0.6706568
0.011703799 0.011703819 0.67062891
0.020042522 0.026723385 0.67041636
0.031669524 0.048337698 0.67000675
0.031669524 0.048337698 0.67000675
0.036822453 0.051886201 0.67084336
0.036822453 0.051886201 0.67084336
0.040130291 0.058523327 0.67064393
-0.033555061 -0.067110121 0.67132688
-0.023551757 -0.053832561 0.6718719
-0.021827761 -0.048692703 0.67148435
-0.013437242 -0.035272747 0.67155647
-0.010067947 -0.028525829 0.67135561
0.01005096 0.006700635 0.67101383
0.026821479 0.033526868 0.67115659
0.030187014 0.038572311 0.67124271
0.03526549 0.045341372 0.67151469
0.042018414 0.055464327 0.67168701
-0.025318298 -0.060763896 0.67255008
-0.020282021 -0.054085374 0.67282552
-0.016837008 -0.043776244 0.67204475
0.0084394626 -0.005063653 0.67255074
0.015182409 0.0067477524 0.67243516
0.020241842 0.015181363 0.67242134
0.03044492 0.028753549 0.67297226
0.038750108 0.047174066 0.67217594
-0.025426734 -0.066109508 0.67342269
-0.025426734 -0.066109508 0.67342269
-0.011886189 -0.045846701 0.67377412
-0.00679162 -0.037353903 0.67375934
-0.0033875823 -0.028794438 0.67326283
0.0050831768 -0.015249521 0.67333531
0.035617996 0.033921927 0.67354095
0.049200885 0.055987209 0.67359978
0.052692041 0.059491038 0.67398131
0.052692041 0.059491038 0.67398131
-0.020456741 -0.064779699 0.67458308
-0.017005753 -0.056118965 0.67408174
-0.013649596 -0.054598391 0.67476064
-0.0068208822 -0.042630494 0.67464244
0.042621594 0.039211899 0.67459941
0.054520432 0.059631705 0.67446655
-0.015430057 -0.06343469 0.67575663
-0.015385625 -0.05983296 0.67516065
0.0017156895 -0.036029458 0.67590618
0.018831836 -0.0051359534 0.67545897
0.018831836 -0.0051359534 0.67545897
0.02744117 0.0068603158 0.67583174
0.02909953 0.011982143 0.67542911
0.02909953 0.011982143 0.67542911
0.037726268 0.024007618 0.67580247
0.049554929 0.047846138 0.67507339
0 -0.044824839 0.67691332
0.0034445729 -0.037890315 0.6767025
0.0034346089 -0.034346074 0.67610109
0.0068921349 -0.032737643 0.67679268
0.015490472 -0.017211646 0.67656696
0.03608175 0.018899977 0.67620665
0.03608175 0.018899977 0.67620665
0.044753674 0.030983329 0.67658281
0.049913924 0.039586902 0.67656767
0.060145214 0.058426768 0.67623758
-0.012093691 -0.067379117 0.67735231
-0.012093691 -0.067379117 0.67735231
0.046722081 0.027687132 0.67768759
0.048357438 0.032813966 0.67727762
0.056930687 0.048304796 0.67705089
0.056930687 0.048304796 0.67705089
-0.0017375289 -0.057338446 0.67854238
0.020864079 -0.02086404 0.67868054
0.020864079 -0.02086404 0.67868054
0.027761979 -0.0069404542 0.6782521
0.034732953 0.0034733117 0.67843604
0.041716184 0.013905376 0.67862034
0.045080278 0.022540152 0.67809916
0.048711527 0.024355769 0.67880416
0.052213985 0.029587895 0.67889702
0.057431158 0.038287431 0.67888147
0.060849536 0.045202523 0.67866665
0 -0.059305787 0.67935842
0.01393795 -0.034844875 0.67911148
0.017430149 -0.029631227 0.67920464
0.034937229 -0.0034936965 0.67966896
0 -0.064824402 0.68029046
0.008776255 -0.052657515 0.68068171
0.026309317 -0.022801399 0.68052518
0.04554585 0.010510594 0.68026066
0.056213968 0.024593592 0.68085492
0.057940714 0.028092474 0.68074548
0.063016996 0.040260881 0.68010479
0.071901999 0.052611202 0.68049532
0.0017641099 -0.070564419 0.68175101
0.0052868431 -0.063442141 0.6815303
0.0052790078 -0.061588407 0.68121499
0.021142721 -0.036999762 0.68148345
0.026465699 -0.029994458 0.68178362
0.026465699 -0.029994458 0.68178362
0.040592864 -0.0070596337 0.68184727
0.052755114 0.017585039 0.68107426
0.059842352 0.028161108 0.68126327
0.065214373 0.035251021 0.68156278
0.06684304 0.040457636 0.6811375
0.068770252 0.040556848 0.68165803
0.079338744 0.058181763 0.68162709
0.0088679893 -0.065623105 0.68289626
0.015905371 -0.049483359 0.68213165
0.033653267 -0.02302593 0.68260986
0.03902223 -0.015963644 0.68291324
0.049509484 0.0053046048 0.68224418
0.049509484 0.0053046048 0.68224418
0.076117583 0.047794759 0.68248332
0.079693459 0.053128988 0.68257856
0.008881256 -0.067497551 0.68321657
0.014230228 -0.060478479 0.68352169
0.016000636 -0.056891114 0.68340939
0.049805984 -0.0017787516 0.68352246
0.049805984 -0.0017787516 0.68352246
0.067442536 0.030171692 0.68304181
0.074720509 0.03913933 0.6835556
0.078313716 0.044496447 0.68365192
0.024973968 -0.046380222 0.68413448
0.032138381 -0.035709321 0.68432885
0.035671841 -0.028537452 0.68410277
0.050030842 -0.0071472526 0.68449181
0.05907616 0.0053705573 0.68489879
0.058987226 0.0071499944 0.68457347
0.060651518 0.012487084 0.68413609
0.080292255 0.044606805 0.68418485
0.083898492 0.049982101 0.68428165
0.025162989 -0.055718005 0.68576419
0.04671723 -0.019765019 0.68569911
0.048488423 -0.016162813 0.68558455
0.050257739 -0.012564421 0.6854701
0.050257739 -0.012564421 0.6854701
0.062874474 0.0071856678 0.68565041
0.064539142 0.012549251 0.68520868
0.071775235 0.023326993 0.68540502
0.018011723 -0.070245713 0.68622482
0.036050793 -0.041458398 0.68638992
0.052341327 -0.016243875 0.68667167
0.077621706 0.02527222 0.68670571
0.083030835 0.03429535 0.68668908
0.025393534 -0.067111492 0.68775207
0.056061771 -0.012659103 0.68710268
0.059797198 -0.0090601444 0.68753624
0.063450225 -0.0036257207 0.68763614
0.06710685 0.0018137097 0.68773693
0.072321445 0.014464319 0.68705338
0.083411247 0.02901262 0.68768734
0.034634676 -0.058332056 0.68884492
0.034634676 -0.058332056 0.68884492
0.03818072 -0.049089491 0.68827176
0.045425627 -0.036340475 0.68813848
0.047289561 -0.03455773 0.68835628
0.052822903 -0.027322203 0.68867612
0.067415528 -0.0036441088 0.68874395
0.072876312 0.0054657161 0.68872786
0.08189176 0.021837801 0.68847549
0.051107407 -0.032854766 0.68913305
0.075002998 0.0036586821 0.68962514
0.060723692 -0.027601659 0.6909253
0.066238873 -0.018399686 0.69090796
0.084573358 0.012869835 0.69073689
0.042487022 -0.062806904 0.69178838
0.046131413 -0.055357695 0.69154632
0.066548251 -0.024031311 0.69194531
0.068147562 -0.016576409 0.69113219
0.081109576 0.0036868155 0.69132209
0.068466179 -0.022205234 0.69217169
0.083555967 -0.0018568039 0.69293964
0.04656544 -0.067054212 0.69364196
0.052149184 -0.057736605 0.69362426
0.072653823 -0.024217933 0.69367832
0.078113861 -0.013018966 0.69330835
0.083949819 -0.0074621737 0.69399607
0.069330305 -0.037475795 0.69499081
0.069330305 -0.037475795 0.69499081
0.07299713 -0.029947549 0.69474089
0.086174272 -0.0093667507 0.69493794
0.052478451 -0.065598041 0.69504374
0.058096536 -0.056222439 0.6950258
0.063713983 -0.046848506 0.69500875
0.077264495 -0.032036513 0.69628346
0.06617786 -0.054833114 0.69704342
0.068139002 -0.052996963 0.69727927
0.070104472 -0.051157355 0.69751656
0.064735427 -0.066639423 0.69863522
0.07055483 -0.059113503 0.69898576
0.083708145 -0.034244239 0.6984511
0.082247056 -0.043992609 0.6996901
0.069019191 -0.069019198 0.7002306
0.0825129 -0.04797262 0.70043635
0.081032619 -0.057880461 0.70169705
0.085910238 -0.06638518 0.70449233
-0.065244608 0.04349643 0.64382017
-0.065165035 0.044891477 0.64360666
-0.063845463 0.044982016 0.64395928
-0.066565163 0.050762199 0.64222527
-0.058678336 0.05505693 0.64369774
-0.058678336 0.05505693 0.64369774
-0.070415244 0.022737816 0.64588475
-0.067464486 0.027865767 0.6458407
-0.069280908 0.030629784 0.64486802
-0.06915357 0.032756865 0.64454436
-0.064742267 0.040737182 0.64442599
-0.059183784 0.045301735 0.64520419
-0.056676786 0.055223525 0.64422703
-0.053051218 0.061046079 0.64425445
-0.066964202 0.025019914 0.64646095
-0.064635158 0.030848622 0.64612579
-0.057307892 0.042613566 0.64618039
-0.05322564 0.042876214 0.6472736
-0.042985968 0.057067126 0.64773059
-0.042985968 0.057067126 0.64773059
-0.06932506 0.0074543804 0.64876902
-0.067213811 0.0089618266 0.64910245
-0.062808134 0.014954329 0.6493187
-0.063171215 0.020809606 0.64822841
-0.056905299 0.023210928 0.64956933
-0.056513257 0.031231016 0.64832395
-0.04927798 0.038825095 0.64905798
-0.043228805 0.050682068 0.6487413
-0.068928771 -0.0090895742 0.65167302
-0.063690312 -0.0015164018 0.65185416
-0.051539168 0.018947735 0.6517843
-0.051179774 0.027095169 0.6505084
-0.046898752 0.0287444 0.65142286
-0.046720166 0.033156276 0.65072739
-0.042958587 0.039191023 0.65075696
-0.039197154 0.045227468 0.65078551
-0.036817051 0.052596927 0.65020436
-0.036058441 0.054087669 0.65016407
-0.033107992 0.057186544 0.65046269
-0.073312879 -0.025201783 0.65317178
-0.061307058 -0.0091960132 0.65381455
-0.059288643 0.0030404627 0.65231109
-0.056784689 0.0065910816 0.6524089
-0.051095098 0.012964137 0.65291822
-0.044999886 0.022881731 0.65294194
-0.036732245 0.032905474 0.65355301
-0.035027977 0.041119784 0.65264112
-0.025264446 0.051295847 0.65364325
-0.027386896 0.054773808 0.65246475
-0.068786979 -0.030915871 0.65539789
-0.054935761 -0.0092850477 0.65560508
-0.054935761 -0.0092850477 0.65560508
-0.050811179 0.003079474 0.6546663
-0.043126568 0.015402347 0.65472686
-0.03917994 0.02458401 0.65427613
-0.029449712 0.03099972 0.65590382
-0.023177249 0.044809341 0.65532023
-0.020817403 0.050889 0.65495098
-0.071105555 -0.046883345 0.65744817
-0.065703638 -0.039109319 0.65764058
-0.065703638 -0.039109319 0.65764058
-0.060886189 -0.028882384 0.65725571
-0.063162558 -0.026922038 0.65629083
-0.057900943 -0.026603132 0.6577031
-0.053272959 -0.020369083 0.65793991
-0.052854642 -0.010881841 0.65645468
-0.04116109 0.0093196929 0.65630168
-0.018760234 0.039083838 0.65751749
-0.071056567 -0.058424294 0.65941054
-0.055229679 -0.031559795 0.65928447
-0.051088739 -0.020435825 0.6585598
-0.03958128 -0.0094995201 0.6599195
-0.039319262 -0.001572758 0.65865433
-0.031465776 0.011013061 0.65871686
-0.0094410218 0.04720515 0.65874279
-0.072863244 -0.064943343 0.66000789
-0.067118093 -0.065520048 0.66170585
-0.066758916 -0.058811426 0.6606735
-0.062794819 -0.05246222 0.66070569
-0.060207523 -0.044363439 0.66005915
-0.044541769 -0.023066804 0.66082799
-0.039092422 -0.017552078 0.66141552
-0.033588581 -0.011196196 0.66187561
-0.033588581 -0.011196196 0.66187561
-0.028595766 0.0047659874 0.66057158
-0.0063469969 0.042842239 0.66034174
-0.0063469969 0.042842239 0.66034174
-0.062912412 -0.069364965 0.66352719
-0.056975149 -0.059125803 0.66345251
-0.056124389 -0.051313698 0.6623702
-0.053154286 -0.051543593 0.66323715
-0.046876553 -0.045260102 0.66392481
-0.045177139 -0.040336728 0.66356713
-0.043602224 -0.038757533 0.6637395
-0.046496909 -0.035273492 0.66234457
-0.043249432 -0.028832912 0.66216218
-0.033954382 -0.0242531 0.66397822
-0.035275929 -0.016836762 0.66235781
-0.02906229 -0.014531136 0.66370016
-0.02530073 -0.0086132986 0.66374898
-0.028866028 -0.0064146221 0.66238403
-0.024591327 0.00053451461 0.66240215
-0.0088627022 0.020950332 0.66333717
-0.0064242431 0.028909087 0.66267282
-0.0064242431 0.028909087 0.66267282
-0.058935773 -0.06920974 0.66460907
-0.053811103 -0.06685622 0.6656397
-0.051116817 -0.05679746 0.66469157
-0.047004536 -0.04862535 0.6644575
-0.037478969 -0.039108485 0.66550463
-0.035881497 -0.037512451 0.66568047
-0.029141545 -0.017808706 0.66423166
-0.027050709 -0.017314017 0.66473037
-0.022699721 -0.0089183152 0.66452551
-0.021025207 -0.0032346547 0.66403234
-0.0048685498 0.019474208 0.66469944
0.0032512604 0.030886948 0.66503501
0.0048612547 0.037269622 0.66440588
0.011367758 0.045471072 0.66483408
0.013030014 0.044790149 0.66541183
0.011336747 0.048586041 0.66429931
0.021166541 0.058615059 0.66534472
-0.045094021 -0.059033394 0.66674745
-0.045031831 -0.057314426 0.66647452
-0.039506968 -0.054322064 0.66750878
-0.039506968 -0.054322064 0.66750878
-0.027061723 -0.029522911 0.66678905
-0.021374442 -0.023018628 0.66727519
-0.009059377 -0.004941985 0.66765451
-0.0016482996 0.0065931976 0.66777152
-0.0065392102 0.0081740022 0.66614228
0.00082221115 0.014782935 0.66707706
0.013120001 0.036899433 0.66676962
0.013120001 0.036899433 0.66676962
0.016395442 0.042628139 0.66671467
0.022972668 0.05250898 0.66687888
0.026374727 0.052749425 0.66778612
-0.038997829 -0.063061863 0.66912627
-0.034929253 -0.059047639 0.66958189
-0.034929253 -0.059047639 0.66958189
-0.029036716 -0.046460271 0.66909885
-0.026640786 -0.046621352 0.66979331
-0.02492857 -0.041547596 0.66941375
-0.019131726 -0.033274233 0.66963196
0.0049697394 0.011596054 0.66877103
0.013257287 0.024857432 0.66884112
0.021641217 0.033294171 0.6697523
0.019052349 0.034789518 0.66877866
0.021535624 0.038929194 0.6687718
0.024789963 0.047100365 0.66829836
0.026466601 0.048797205 0.6684792
0.033273317 0.053237319 0.66962636
-0.036790919 -0.068564892 0.67067033
-0.035150819 -0.066953927 0.67085552
-0.026866846 -0.057092041 0.67149884
-0.025210781 -0.055463701 0.67168486
-0.023485208 -0.050325453 0.67129809
-0.018347735 -0.035027504 0.67014664
-0.01671847 -0.035108775 0.67061394
-0.016695021 -0.033390015 0.67033088
-0.013361635 -0.028393447 0.67041558
-0.0050265314 -0.018430591 0.67105609
-0.0016668112 -0.0066672564 0.67000598
0.0050222781 -0.00083765388 0.67088497
0.016706835 0.020882949 0.67047346
0.026821479 0.033526868 0.67115659
0.026821479 0.033526868 0.67115659
0.026821479 0.033526868 0.67115659
0.036978703 0.047063857 0.67170072
0.038695201 0.04878965 0.67188776
-0.025354341 -0.06254071 0.67284012
-0.022898618 -0.062761903 0.67356181
-0.015253852 -0.049151301 0.67339337
-0.0033779447 -0.025334567 0.67268109
0.00056455657 -0.020865858 0.67302483
0.0016864528 -0.015178055 0.67237699
0.011786788 0.0033676326 0.67206001
0.031983703 0.037033767 0.67200279
0.049236089 0.055177763 0.67374629
0.049236089 0.055177763 0.67374629
-0.015430057 -0.06343469 0.67575663
-0.0051057679 -0.037442267 0.6742444
-0.0017100088 -0.037620217 0.67522049
-0.0017026524 -0.032350391 0.67433244
-0.0017026524 -0.032350391 0.67433244
0.0034197704 -0.029068053 0.67520553
0.0085365139 -0.018780291 0.6748938
0.02059276 -0.0051482022 0.6759513
0.020489201 0.00085310638 0.67490959
0.025517903 0.013609558 0.67415631
0.030862482 0.012858763 0.67577255
0.042560484 0.04085806 0.67430437
0.054835171 0.053121567 0.67565387
0.051090986 0.054497033 0.6743784
-0.008654709 -0.064044863 0.67774731
-0.0051724771 -0.053448945 0.67692852
0 -0.048413515 0.67751944
0.010387934 -0.032895088 0.6777932
0.017328396 -0.02252692 0.67797637
0.029417621 -0.00086586177 0.67768776
0.029417621 -0.00086586177 0.67768776
0.036186479 0.015508503 0.6768086
0.036186479 0.015508503 0.6768086
0.046654083 0.029374778 0.6773836
-0.0034768346 -0.0608446 0.67864966
-0.0017400753 -0.059162527 0.67884976
0.0069935988 -0.050703585 0.67985463
0.0086990958 -0.041755646 0.67881888
0.015649211 -0.029559612 0.67869598
0.027761979 -0.0069404542 0.6782521
0.04183853 0.010459632 0.67923564
0.043495636 0.015658438 0.67881966
0.045080278 0.022540152 0.67809916
0.059315011 0.038380325 0.67939103
0.062924229 0.041949481 0.67979378
0.060760565 0.046872467 0.67835975
0.0070246304 -0.056197047 0.68079108
0.014959957 -0.045756564 0.68123901
0.014959957 -0.045756564 0.68123901
0.013999577 -0.040248752 0.68004143
0.026387276 -0.026387274 0.68115252
0.036827717 -0.0052611232 0.68049455
0.036827717 -0.0052611232 0.68049455
0.050985444 0.014943361 0.68102789
0.06170772 0.029090151 0.68162638
0.061570544 0.031664848 0.68115336
0.061570544 0.031664848 0.68115336
0.068872534 0.038851172 0.68197465
0.068263605 0.04900974 0.68008995
0.075498551 0.057062209 0.68074554
0.077500775 0.056364238 0.68142164
0.079279929 0.05901885 0.68146932
0.008881256 -0.067497551 0.68321657
0.014230228 -0.060478479 0.68352169
0.016024629 -0.058756977 0.6837312
0.024936596 -0.044529647 0.6838122
0.028383957 -0.03370598 0.6829446
0.031803727 -0.022969335 0.68208462
0.031803727 -0.022969335 0.68208462
0.042525169 -0.008859396 0.68268925
0.046158586 -0.005325973 0.68310547
0.051327232 0.0070796311 0.68245053
0.058810156 0.010692775 0.68392575
0.056548625 0.017671466 0.68211734
0.056548625 0.017671466 0.68211734
0.062308844 0.017802507 0.68369967
0.0673922 0.031035244 0.68288195
0.074832633 0.037416339 0.68387789
0.076174408 0.046944037 0.68264282
0.079931907 0.049735427 0.68321824
0.083086908 0.06098868 0.68219721
0.028727328 -0.048477352 0.68553507
0.032138381 -0.035709321 0.68432885
0.035779338 -0.032201409 0.68475157
0.04316923 -0.026980758 0.68592858
0.071883872 0.021565169 0.68573296
0.069701634 0.025021136 0.68454081
0.075114191 0.033085331 0.68468708
0.080899812 0.035955489 0.68581456
0.08228033 0.04471758 0.68471968
0.086286895 0.044941127 0.68579888
0.034214579 -0.043218434 0.68617594
0.03783327 -0.037833273 0.68627465
0.056233071 -0.016325742 0.68776965
0.059524674 -0.0036075413 0.68653935
0.06898886 0.0036309958 0.68795395
0.068569735 0.010826796 0.68662256
0.077032693 0.019031942 0.68759507
0.079626404 0.02533567 0.68725312
0.081641503 0.025399595 0.68780416
0.029168291 -0.067451656 0.68886191
0.043631919 -0.039995909 0.68825573
0.045495249 -0.038215965 0.68847466
0.052985471 -0.031060457 0.68935287
0.052985471 -0.031060457 0.68935287
0.063742198 -0.00910604 0.6886431
0.06772732 -0.009152323 0.68976116
0.08023788 0.016412318 0.68893069
0.036890727 -0.07009238 0.6914593
0.042224251 -0.055075109 0.69040924
0.044104468 -0.0532929 0.69063246
0.044104468 -0.0532929 0.69063246
0.049537193 -0.04219833 0.69027334
0.053149045 -0.034821779 0.69003367
0.064634204 -0.025853664 0.69171947
0.068253435 -0.018446892 0.69147766
0.067936793 -0.012852907 0.69044459
0.073439471 -0.0036719739 0.6904273
0.073439471 -0.0036719739 0.6904273
0.088565737 0.014761001 0.69152975
0.048325773 -0.061336577 0.69316703
0.055725656 -0.048295557 0.69302684
0.055725656 -0.048295557 0.69302684
0.063017771 -0.033362359 0.69253701
0.074592613 -0.022377759 0.6939072
0.074592613 -0.022377759 0.6939072
0.080181047 -0.013052732 0.69389039
0.07494574 -0.028104633 0.69497293
0.060510077 -0.064291984 0.69706082
0.068139002 -0.052996963 0.69727927
0.065967761 -0.050889403 0.69631875
0.07751023 -0.035919398 0.69700688
0.081590205 -0.034154058 0.69784617
0.085289553 -0.026534528 0.69758993
0.084883064 -0.020749211 0.69649953
0.066495538 -0.060795933 0.69813901
0.078383863 -0.049706846 0.69957894
0.078257851 -0.047718197 0.69920796
0.080379561 -0.047844946 0.69982004
0.086114332 -0.038273007 0.69980228
0.08583764 -0.034335017 0.69906008
0.070896126 -0.065147787 0.70009923
0.073006727 -0.065321803 0.70071703
0.077136129 -0.063637286 0.70158291
0.081032619 -0.057880461 0.70169705
0.080901153 -0.055860311 0.70131922
0.078636773 -0.053703159 0.70032358
0.079277076 -0.063808352 0.70220876
0.087956503 -0.064501464 0.70474392
-0.069784328 0.042098001 0.64279139
-0.059065372 0.053991817 0.64376974
-0.059065372 0.053991817 0.64376974
-0.05513249 0.059485048 0.64393783
-0.057192452 0.053799324 0.644324
-0.072798043 -0.016682863 0.65187705
-0.05793722 0.013885878 0.65085602
-0.057428639 0.029582348 0.64834738
-0.057428639 0.029582348 0.64834738
-0.045856342 0.045857187 0.64882386
-0.072891533 -0.029668909 0.65404385
-0.062113382 -0.0056599295 0.65299273
-0.053689886 0.0055053565 0.65345472
-0.03009541 0.046258427 0.65314746
-0.015486749 0.054977447 0.65574574
-0.025858033 0.057549547 0.65242183
-0.073426828 -0.062374588 0.65941715
-0.053890295 -0.017964229 0.65736175
-0.048518121 -0.0023289621 0.65621853
-0.029727966 0.021918496 0.65735996
-0.029727966 0.021918496 0.65735996
-0.013787992 0.038217574 0.65904915
-0.017955892 0.041767538 0.65728843
-0.0023544878 0.061238974 0.65834761
-0.059751023 -0.06540367 0.66373885
-0.06195686 -0.050308347 0.66057581
-0.043192994 -0.037945688 0.66371644
-0.043192994 -0.037945688 0.66371644
-0.049152754 -0.02695471 0.66019964
-0.041963354 -0.026287429 0.66209054
-0.029814988 -0.01369974 0.66334987
-0.033853021 -0.0026448965 0.66035819
-0.033274923 -0 0.66007262
-0.025927296 0.010053585 0.6604225
-0.013982798 0.021975322 0.6617375
-0.046347395 -0.061732039 0.66685402
-0.027155465 -0.033740342 0.66747487
-0.0065936591 -0.0016484261 0.66778541
-0.016172128 0.0048516393 0.66401899
0.010270366 0.030185219 0.66710913
0.010270366 0.030185219 0.66710913
0.0064741611 0.041272253 0.66417921
0.01813674 0.049664848 0.66601181
-0.044602901 -0.066904932 0.66821325
-0.0330416 -0.047910333 0.66822779
-0.0067243334 -0.025216252 0.67172885
0.013463946 0.0067319572 0.6719594
0.013463946 0.0067319572 0.6719594
0.0066092703 0.017348781 0.66825652
0.021744501 0.022768987 0.67155838
0.034002881 0.058049377 0.66901684
-0.0098250182 -0.050421536 0.67512089
-0.014391586 -0.04656484 0.67319691
-0.0025527023 -0.03362551 0.6743108
0.002531843 -0.014342099 0.67247152
0.002531843 -0.014342099 0.67247152
0.038554024 0.026343718 0.67563868
0.034410886 0.029734816 0.67391169
0.041559424 0.049784478 0.6725179
-0.0095564155 -0.070378318 0.67856562
0.0021797931 -0.05400002 0.67907006
0.033750951 0.0060570464 0.67772591
0.049389109 0.030325375 0.67798537
0.061941959 0.042528983 0.67942244
0.061300445 0.054391831 0.67724049
0.061591964 0.057712272 0.67676121
0.0035029899 -0.058675721 0.68022829
0.014242563 -0.041847192 0.68037921
0.028490391 -0.038284615 0.68374753
0.029593585 -0.029592361 0.68258727
0.029593585 -0.029592361 0.68258727
0.053427737 0.0026707202 0.68378073
0.047307987 0.01314047 0.68030703
0.047307987 0.01314047 0.68030703
0.082594544 0.054173537 0.68321079
0.019061903 -0.058375061 0.68451273
0.029685654 -0.049474888 0.68597019
0.056233071 -0.016325742 0.68776965
0.049337238 -0.013455972 0.68536401
0.06546881 0.013451599 0.68531513
0.062402412 0.016046345 0.68402231
0.081851192 0.033891674 0.68642843
0.088037647 0.048510581 0.68568343
0.037599616 -0.061442077 0.69019604
0.050647236 -0.045352485 0.69111472
0.06280154 -0.010012351 0.6885339
0.07762748 -0.0055448115 0.69191039
0.07762748 -0.0055448115 0.69191039
0.084967732 0.0073885024 0.69177175
0.045398694 -0.062074848 0.69247609
0.089892536 -0.0028098822 0.69486636
0.065723002 -0.065722495 0.69875526
0.069678314 -0.062041976 0.69923604
0.062217943 -0.05750519 0.69639105
