# .PCD v0.7 - Point Cloud Data file format
VERSION 0.7
FIELDS x y z
SIZE 4 4 4
TYPE F F F
COUNT 1 1 1
WIDTH 1356
HEIGHT 1
VIEWPOINT 0 0 0 1 0 0 0
POINTS 1356
DATA ascii
0.018485406 0.016804904 0.67165738
0.018511608 0.015145838 0.67194492
0.018537883 0.013482094 0.67223328
0.018564232 0.011813611 0.67252237
0.018590655 0.010140359 0.67281234
0.018617155 0.0084623694 0.67310309
0.018643729 0.0067795217 0.6733948
0.018670382 0.0050919652 0.67368722
0.018697109 0.0033994913 0.67398053
0.018723914 0.0017021596 0.67427468
0.018750727 -0 0.67456895
0.018777685 -0.0017070174 0.67486471
0.018804722 -0.0034190416 0.67516148
0.018831836 -0.0051359534 0.67545897
0.018859029 -0.0068578124 0.67575741
0.0188863 -0.0085846782 0.67605668
0.018913649 -0.010316521 0.67635679
0.018941078 -0.0120534 0.6766578
0.018968586 -0.013795346 0.67695963
0.018996175 -0.015542328 0.67726243
0.019023776 -0.017294347 0.67756534
0.019051526 -0.019051492 0.6778698
0.019079356 -0.020813853 0.67817521
0.019107269 -0.022581279 0.67848146
0.019135261 -0.024353981 0.67878866
0.019163338 -0.026131809 0.67909676
0.019191498 -0.027914912 0.67940581
0.019219739 -0.02970323 0.67971575
0.019248065 -0.031496823 0.68002653
0.019276399 -0.033295602 0.68033755
0.019304892 -0.035099775 0.68065023
0.019333469 -0.036909342 0.68096375
0.019362131 -0.038724273 0.68127835
0.019390877 -0.040544569 0.68159372
0.019419709 -0.04237026 0.68191016
0.019448627 -0.044201404 0.68222743
0.01947763 -0.046038061 0.68254578
0.019506721 -0.047880113 0.68286502
0.019535899 -0.049727738 0.68318516
0.019565091 -0.051580667 0.68350554
0.019594442 -0.053439409 0.68382764
0.019623883 -0.055303663 0.6841507
0.019653413 -0.05717355 0.68447471
0.019683031 -0.05904907 0.68479973
0.019712739 -0.060930282 0.68512577
0.019742537 -0.062817186 0.68545276
0.019772425 -0.064709753 0.68578076
0.019802405 -0.066608071 0.68610966
0.019832473 -0.068512172 0.68643969
0.019862559 -0.070421815 0.68676984
0.019441085 0.061563432 0.66436636
0.019467581 0.060025036 0.66463292
0.019494217 0.058482647 0.66490078
0.019520925 0.056935996 0.66516948
0.019547706 0.055385172 0.66543889
0.019574562 0.053830028 0.66570902
0.019601492 0.052270681 0.66597992
0.019628495 0.050706953 0.66625154
0.019655572 0.049138933 0.66652393
0.019682726 0.047566593 0.6667971
0.019709954 0.045989901 0.66707093
0.019737257 0.044408858 0.66734558
0.019764567 0.042823255 0.6676203
0.019792022 0.041233391 0.66789651
0.019819554 0.039639115 0.66817343
0.019847162 0.0380404 0.66845119
0.019874848 0.036437213 0.66872966
0.019902611 0.034829587 0.66900891
0.01993045 0.03321743 0.66928899
0.019958368 0.031600773 0.66956979
0.019986365 0.029979557 0.66985142
0.020014439 0.02835384 0.67013383
0.020042593 0.026723474 0.67041707
0.020070756 0.025088459 0.67070031
0.020099068 0.023448914 0.6709851
0.020127462 0.02180475 0.67127073
0.020155935 0.020155936 0.67155719
0.020184489 0.018502444 0.67184448
0.020213125 0.016844243 0.67213243
0.020241842 0.015181363 0.67242134
0.020270638 0.013513744 0.67271101
0.020299518 0.011841387 0.67300153
0.020328481 0.010164261 0.67329288
0.020357452 0.0084822774 0.67358428
0.020386582 0.0067955554 0.67387724
0.020415792 0.0051039755 0.67417115
0.020445088 0.0034075379 0.67446584
0.020474467 0.0017062128 0.67476141
0.020503933 -0 0.67505777
0.02053348 -0.0017111301 0.67535502
0.020563114 -0.0034271777 0.6756531
0.020592835 -0.005148232 0.67595208
0.020622641 -0.0068742335 0.67625189
0.020652534 -0.0086052418 0.67655253
0.020682437 -0.010341227 0.67685336
0.020712504 -0.012082279 0.67715579
0.020742659 -0.013828427 0.67745918
0.020772899 -0.0155797 0.67776334
0.02080323 -0.017335981 0.6780684
0.020833647 -0.019097477 0.67837441
0.020864157 -0.020864159 0.67868131
0.020894753 -0.022635996 0.67898911
0.02092544 -0.024413019 0.67929775
0.020956218 -0.026195258 0.67960739
0.020987008 -0.027982652 0.6799171
0.021017967 -0.029775441 0.68022853
0.021049017 -0.031573534 0.68054086
0.021080159 -0.033376902 0.68085414
0.021111393 -0.035185635 0.68116832
0.021142721 -0.036999762 0.68148345
0.02117414 -0.038819253 0.68179953
0.021205656 -0.040644169 0.68211657
0.021237263 -0.042474508 0.6824345
0.021268966 -0.044310361 0.68275344
0.021300683 -0.046151489 0.68307245
0.021332575 -0.047998279 0.68339324
0.021364562 -0.049850643 0.68371499
0.021396644 -0.051708549 0.6840378
0.021428825 -0.053572059 0.68436146
0.021461101 -0.055441171 0.68468618
0.021493478 -0.057315916 0.6850118
0.021525949 -0.059196353 0.6853385
0.021558521 -0.061082453 0.68566608
0.021591108 -0.062974066 0.68599391
0.021623874 -0.064871609 0.68632352
0.021656742 -0.066774964 0.68665415
0.021689709 -0.068684101 0.68698573
0.021722779 -0.07059902 0.68731844
0.021108648 0.061702192 0.66480714
0.021137554 0.060160756 0.66507554
0.021166541 0.058615059 0.66534472
0.021195605 0.05706507 0.66561455
0.021224752 0.055510908 0.66588521
0.021253977 0.053952396 0.66615659
0.021283284 0.052389622 0.66642874
0.021312671 0.050822556 0.66670156
0.021342063 0.049250901 0.66697454
0.021371614 0.047675192 0.6672489
0.021401247 0.046095014 0.66752404
0.021430962 0.044510484 0.66779995
0.021460757 0.042921513 0.66807663
0.021490639 0.041328132 0.66835409
0.021520602 0.03973034 0.66863227
0.021550648 0.038128048 0.66891134
0.021580778 0.036521286 0.66919106
0.021610994 0.034910083 0.66947162
0.021641217 0.033294171 0.6697523
0.021671601 0.031673908 0.67003441
0.021702072 0.030049026 0.67031735
0.021732628 0.028419584 0.67060107
0.021763269 0.026785553 0.67088556
0.021793999 0.025146931 0.67117089
0.021824813 0.023503661 0.67145705
0.021855716 0.021855682 0.67174399
0.021886706 0.020203114 0.67203176
0.021917786 0.018545836 0.67232031
0.021948952 0.01688382 0.67260975
0.021980129 0.015217036 0.67289925
0.022011474 0.013545483 0.6731903
0.02204291 0.011869282 0.67348218
0.022074431 0.010188222 0.67377484
0.022106046 0.0085023046 0.67406845
0.022137752 0.006811589 0.67436278
0.022169545 0.0051160753 0.67465806
0.022201434 0.0034156144 0.67495418
0.022233414 0.0017102659 0.67525107
0.022265486 -0 0.67554891
0.022297649 -0.0017151833 0.67584753
0.022329826 -0.0034353435 0.67614627
0.022362174 -0.0051604807 0.67644668
0.02239462 -0.0068906546 0.67674798
0.022427158 -0.0086258054 0.67705005
0.022459792 -0.010366052 0.67735314
0.022492521 -0.012111306 0.67765701
0.022525346 -0.013861746 0.67796183
0.022558264 -0.015617222 0.67826742
0.022591284 -0.017377913 0.67857409
0.022624394 -0.019143701 0.67888153
0.022657521 -0.020914644 0.67918909
0.022690829 -0.022690833 0.67949837
0.022724235 -0.024472237 0.67980856
0.022757739 -0.026258916 0.68011963
0.022791343 -0.02805087 0.68043172
0.022825046 -0.029848129 0.68074465
0.022858847 -0.031650722 0.68105853
0.022892751 -0.03345862 0.68137336
0.022926753 -0.035271943 0.68168902
0.022960773 -0.037090451 0.68200493
0.022994978 -0.038914561 0.6823225
0.023029288 -0.040744126 0.68264109
0.023063697 -0.042579114 0.68296063
0.023098212 -0.044419616 0.68328106
0.023132827 -0.046265662 0.68360245
0.023167549 -0.04811722 0.68392491
0.023202373 -0.049974322 0.68424827
0.023237303 -0.051837057 0.68457258
0.023272341 -0.053705394 0.68489796
0.023307392 -0.055579156 0.68522346
0.023342639 -0.057458818 0.68555069
0.023377994 -0.059344172 0.68587905
0.023413455 -0.061235189 0.68620825
0.023449024 -0.063131988 0.68653852
0.023484701 -0.065034539 0.6868698
0.023520486 -0.0669429 0.68720216
0.023556383 -0.068857074 0.68753541
0.023592386 -0.070777148 0.68786973
0.022815095 0.060297012 0.66552025
0.022846455 0.058748037 0.66579062
0.022877896 0.05719474 0.66606176
0.022909349 0.055636972 0.66633296
0.022940965 0.054075122 0.66660547
0.022972668 0.05250898 0.66687888
0.023004463 0.050938457 0.667153
0.023036342 0.049363613 0.6674279
0.023068311 0.047784358 0.66770351
0.023100369 0.046200722 0.66797996
0.023132516 0.044612706 0.66825706
0.023164753 0.043020248 0.66853499
0.023197079 0.04142338 0.66881377
0.023229495 0.039821982 0.66909325
0.023261921 0.038216025 0.66937286
0.023294518 0.036605686 0.66965395
0.023327209 0.034990847 0.66993582
0.023359992 0.033371419 0.67021841
0.023392865 0.03174749 0.67050189
0.023425832 0.030118942 0.67078608
0.023458892 0.028485805 0.67107117
0.023492044 0.026848048 0.67135704
0.023525292 0.025205672 0.67164367
0.023558632 0.023558646 0.67193115
0.023591984 0.021906853 0.67221874
0.023625515 0.02025044 0.67250782
0.023659142 0.018589348 0.6727978
0.023692863 0.016923457 0.67308855
0.023726681 0.015252858 0.67338014
0.023760596 0.013577431 0.67367256
0.02379461 0.011897296 0.67396581
0.023828719 0.010212302 0.6742599
0.023862928 0.0085224807 0.67455482
0.023897232 0.0068277717 0.67485064
0.023931637 0.0051282048 0.67514724
0.023966054 0.0034236908 0.67544401
0.024000658 0.001714319 0.67574239
0.024035363 -0 0.6760416
0.024070166 -0.001719296 0.67634171
0.02410507 -0.0034435689 0.6766426
0.024140077 -0.0051728785 0.67694449
0.024175184 -0.0069071651 0.67724717
0.024210393 -0.0086465776 0.67755079
0.024245705 -0.010391027 0.67785525
0.024281124 -0.012140542 0.67816061
0.024316644 -0.013895243 0.67846692
0.024352176 -0.015654981 0.67877328
0.024387905 -0.017419904 0.67908132
0.024423739 -0.019190043 0.67939025
0.024459679 -0.020965457 0.67970014
0.024495721 -0.022745997 0.68001091
0.024531871 -0.024531871 0.68032259
0.024568129 -0.026322991 0.68063521
0.024604496 -0.028119415 0.68094879
0.024640968 -0.029921144 0.68126327
0.024677457 -0.031728119 0.68157786
0.024714148 -0.033540606 0.68189424
0.024750944 -0.035358518 0.68221152
0.024787854 -0.037181795 0.68252975
0.024824874 -0.039010495 0.68284893
0.024862003 -0.040844709 0.68316907
0.024899244 -0.042684406 0.68349016
0.024936596 -0.044529647 0.6838122
0.024974061 -0.046380371 0.68413526
0.025011545 -0.048236549 0.68445849
0.025049234 -0.050098449 0.6847834
0.02508704 -0.051966012 0.68510938
0.025124956 -0.053839207 0.68543631
0.025162989 -0.055718005 0.68576419
0.02520114 -0.057602584 0.68609315
0.025239404 -0.059492886 0.68642306
0.025277784 -0.06138891 0.68675399
0.025316283 -0.063290685 0.68708587
0.025354898 -0.065198302 0.68741894
0.025393534 -0.067111492 0.68775207
0.025432386 -0.069030732 0.68808699
0.025471356 -0.070955932 0.68842304
0.024500171 0.060433745 0.66596627
0.02453392 0.058881402 0.66623789
0.024567764 0.057324767 0.66651022
0.0246017 0.055763841 0.66678333
0.02463573 0.054198623 0.66705716
0.024669854 0.052629024 0.66733176
0.024704073 0.051055104 0.66760713
0.024738388 0.049476773 0.66788328
0.024772799 0.04789409 0.6681602
0.024807217 0.046306819 0.66843718
0.024841819 0.044715285 0.66871566
0.024876516 0.043119282 0.66899484
0.024911312 0.041518867 0.66927481
0.024946203 0.039913923 0.66955566
0.024981195 0.038304508 0.66983724
0.025016285 0.036690533 0.67011964
0.025051471 0.035072088 0.67040277
0.025086759 0.033448994 0.67068672
0.025122145 0.03182137 0.67097151
0.025157632 0.030189186 0.67125714
0.025193127 0.028552234 0.67154276
0.025228815 0.026910722 0.67182994
0.025264604 0.025264621 0.67211795
0.025300493 0.023613811 0.67240679
0.025336485 0.021958351 0.67269641
0.025372582 0.020298123 0.67298687
0.025408778 0.018633127 0.67327815
0.025445081 0.016963363 0.67357033
0.025481487 0.015288889 0.67386323
0.025517995 0.013609588 0.67415714
0.025554609 0.011925489 0.67445171
0.025591237 0.010236472 0.67474651
0.025628062 0.0085426867 0.67504281
0.025664993 0.0068440139 0.67534
0.025702029 0.0051404238 0.67563808
0.025739176 0.0034318864 0.675937
0.025776427 0.0017184019 0.67623681
0.025813786 -2.9802322e-08 0.67653745
0.025851255 -0.0017234087 0.67683899
0.025888832 -0.0034518242 0.67714143
0.025926521 -0.0051853359 0.6774447
0.025964223 -0.0069237947 0.67774808
0.02600213 -0.0086673498 0.67805308
0.026040148 -0.010416031 0.67835903
0.026078274 -0.012169868 0.67866588
0.026116516 -0.013928801 0.67897362
0.02615487 -0.015692919 0.67928225
0.026193336 -0.017462224 0.67959177
0.026231915 -0.019236743 0.67990232
0.026270607 -0.021016479 0.68021357
0.026309416 -0.022801489 0.68052596
0.026348241 -0.024591684 0.68083841
0.026387276 -0.026387274 0.68115252
0.026426429 -0.028188199 0.68146759
0.026465699 -0.029994458 0.68178362
0.026505088 -0.031806111 0.68210059
0.026544591 -0.033623159 0.68241853
0.026584212 -0.035445601 0.68273735
0.026623953 -0.037273526 0.68305719
0.026663814 -0.039106965 0.68337792
0.026703792 -0.040945828 0.68369961
0.026743788 -0.042790055 0.68402153
0.026784008 -0.044640005 0.68434513
0.02682435 -0.046495527 0.68466985
0.02686481 -0.048356652 0.68499541
0.026905393 -0.05022338 0.68532205
0.026946103 -0.052095801 0.68564963
0.026986932 -0.053973854 0.68597817
0.027027886 -0.055857599 0.68630779
0.027068965 -0.057747126 0.68663836
0.027110171 -0.059642375 0.68696994
0.027151395 -0.061543167 0.6873017
0.027192852 -0.063449979 0.6876353
0.027234431 -0.065362662 0.68796992
0.027276143 -0.067281127 0.68830556
0.027317978 -0.069205552 0.68864226
0.027359946 -0.071135849 0.68897998
0.026192995 0.060571313 0.66641504
0.02622916 0.059015632 0.66668785
0.026265424 0.057455629 0.66696143
0.026301788 0.055891335 0.66723579
0.026338253 0.05432269 0.66751087
0.026374727 0.052749425 0.66778612
0.026411396 0.051172078 0.66806275
0.026448164 0.04959029 0.66834015
0.026485037 0.048004121 0.66861832
0.026522012 0.046413511 0.66889727
0.02655909 0.044818491 0.669177
0.026596276 0.04321894 0.6694575
0.026633561 0.04161498 0.66973883
0.026670951 0.040006429 0.67002094
0.02670845 0.038393408 0.67030376
0.026745956 0.036775678 0.67058682
0.026783666 0.035153568 0.67087126
0.026821479 0.033526868 0.67115659
0.026859401 0.031895518 0.67144269
0.02689743 0.030259609 0.67172951
0.026935566 0.028619081 0.67201728
0.02697381 0.026973844 0.67230582
0.027012166 0.025323927 0.67259514
0.027050627 0.023669302 0.67288536
0.027089201 0.022009999 0.67317635
0.027127882 0.020345926 0.67346823
0.027166579 0.018677026 0.67376012
0.027205484 0.017003447 0.67405361
0.027244501 0.01532504 0.674348
0.027283628 0.013641834 0.67464322
0.027322868 0.011953771 0.67493927
0.02736222 0.01026085 0.67523611
0.027401688 0.0085630417 0.67553389
0.027441269 0.0068603158 0.67583251
0.027480964 0.0051526725 0.67613196
0.027520776 0.0034400821 0.67643237
0.027560702 0.0017225444 0.67673355
0.027600642 -0 0.67703491
0.027640801 -0.0017275512 0.67733788
0.027681077 -0.0034601092 0.67764169
0.027721468 -0.0051977634 0.67794645
0.027761979 -0.0069404542 0.6782521
0.027802609 -0.0086883008 0.67855859
0.027843358 -0.010441214 0.67886603
0.027884226 -0.012199342 0.6791743
0.027925214 -0.013962597 0.67948359
0.027966324 -0.015731066 0.67979378
0.028007451 -0.017504632 0.68010402
0.028048804 -0.019283533 0.68041599
0.028090276 -0.021067709 0.68072891
0.028131872 -0.022857159 0.68104273
0.028173594 -0.024651885 0.68135744
0.028215436 -0.026451975 0.68167317
0.028257407 -0.0282574 0.68198979
0.028299499 -0.030068219 0.68230736
0.02834172 -0.031884432 0.68262589
0.028384063 -0.033706039 0.68294537
0.028426429 -0.035533011 0.68326497
0.028469028 -0.037365586 0.68358636
0.028511755 -0.039203644 0.6839087
0.028554611 -0.041047245 0.684232
0.028597595 -0.04289636 0.68455631
0.02864071 -0.044751108 0.68488157
0.028683955 -0.046611398 0.68520778
0.028727328 -0.048477352 0.68553507
0.028770836 -0.050348938 0.68586332
0.028814364 -0.052226037 0.68619168
0.028858135 -0.054109007 0.68652201
0.028902037 -0.055997699 0.68685317
0.028946077 -0.057892174 0.68718541
0.028990248 -0.05979237 0.68751866
0.029034553 -0.061698437 0.68785292
0.029078996 -0.063610315 0.6881882
0.029123576 -0.065528065 0.6885246
0.029168291 -0.067451656 0.68886191
0.029213147 -0.069381237 0.68920034
0.029258026 -0.071316451 0.6895389
0.027893446 0.060709298 0.66686511
0.027932046 0.059150249 0.66713917
0.027970754 0.057586819 0.66741401
0.028009567 0.056019127 0.66768968
0.028048489 0.054447085 0.66796601
0.028087517 0.052870631 0.66824311
0.028126659 0.051289797 0.66852111
0.028165905 0.049704552 0.66879976
0.028205264 0.048114896 0.66907918
0.02824473 0.04652074 0.66935945
0.028284309 0.044922173 0.66964048
0.028323898 0.043318897 0.66992158
0.028363699 0.04171133 0.67020422
0.028403614 0.040099204 0.67048764
0.028443638 0.038482577 0.67077178
0.028483776 0.03686136 0.67105681
0.028524028 0.035235584 0.67134261
0.028564395 0.033605188 0.67162925
0.028604876 0.031970173 0.67191672
0.028645471 0.030330509 0.67220497
0.028686181 0.028686196 0.67249405
0.028727006 0.027037203 0.67278385
0.028767847 0.025383383 0.67307389
0.028808905 0.023724973 0.67336547
0.028850082 0.022061795 0.67365783
0.028891375 0.020393938 0.67395103
0.028932791 0.018721253 0.67424512
0.028974323 0.01704374 0.67453998
0.029015973 0.015361398 0.6748358
0.029057743 0.013674229 0.67513233
0.029099634 0.011982203 0.67542982
0.029141648 0.010285288 0.67572814
0.029183676 0.0085834563 0.67602658
0.029225932 0.0068767071 0.67632657
0.029268309 0.0051650107 0.67662752
0.029310809 0.0034483671 0.67692924
0.029353436 0.0017266572 0.67723203
0.029396184 -2.9802322e-08 0.67753553
0.029439058 -0.0017316937 0.67783993
0.029482055 -0.0034684539 0.67814523
0.029525181 -0.0052103102 0.67845142
0.029568434 -0.0069572926 0.67875856
0.029611811 -0.0087093413 0.6790666
0.029655207 -0.010466546 0.67937469
0.029698839 -0.012228936 0.67968452
0.029742602 -0.013996512 0.6799953
0.029786494 -0.015769303 0.68030691
0.029830512 -0.017547339 0.68061948
0.029874664 -0.019330651 0.680933
0.029918946 -0.021119267 0.68124747
0.029963361 -0.022913158 0.68156278
0.030007904 -0.024712384 0.6818791
0.030052582 -0.026516974 0.68219638
0.030097282 -0.028326869 0.68251371
0.030142227 -0.030142188 0.68283284
0.030187305 -0.03196305 0.68315291
0.030232521 -0.033789277 0.683474
0.030277871 -0.035621017 0.68379599
0.030323356 -0.037458241 0.68411899
0.030368978 -0.039301008 0.68444294
0.030414738 -0.041149348 0.68476784
0.030460637 -0.043003261 0.68509376
0.030506676 -0.044862747 0.68542063
0.030552737 -0.046727717 0.68574774
0.030599052 -0.048598498 0.68607664
0.03064551 -0.050474942 0.68640649
0.030692108 -0.052357078 0.68673736
0.030738849 -0.054244995 0.68706924
0.03078573 -0.056138664 0.68740213
0.030832756 -0.058038116 0.68773603
0.030879928 -0.059943378 0.68807095
0.030927243 -0.061854482 0.68840694
0.030974584 -0.063771218 0.68874311
0.031022187 -0.065694064 0.68908113
0.031069938 -0.067622811 0.68942016
0.031117838 -0.069557488 0.68976033
0.029601764 0.060848057 0.66731799
0.029642822 0.059285671 0.6675933
0.029683994 0.057718903 0.66786939
0.029725278 0.056147784 0.66814625
0.029766681 0.054572254 0.66842389
0.029808197 0.052992374 0.66870236
0.029849827 0.051408082 0.66898155
0.029891474 0.049819142 0.66926074
0.029933337 0.048225939 0.6695416
0.029975319 0.046628267 0.66982311
0.030017423 0.045026124 0.6701054
0.030059639 0.04341948 0.67038852
0.030101979 0.041808307 0.67067248
0.030144436 0.040192604 0.67095721
0.030187014 0.038572311 0.67124271
0.030229712 0.036947429 0.67152905
0.030272532 0.035317957 0.67181617
0.030315364 0.033683747 0.67210346
0.030358426 0.032045007 0.67239225
0.030401612 0.030401617 0.67268187
0.03044492 0.028753549 0.67297226
0.030488348 0.027100772 0.67326355
0.030531904 0.025443256 0.67355561
0.030575585 0.023781031 0.67384851
0.03061939 0.022114009 0.6741423
0.030663321 0.020442218 0.67443693
0.030707376 0.018765628 0.67473239
0.03075156 0.017084211 0.67502868
0.030795759 0.015397877 0.67532504
0.030840199 0.013706774 0.67562306
0.030884765 0.012010753 0.67592198
0.030929461 0.010309815 0.67622173
0.030974289 0.0086039603 0.67652231
0.031019242 0.0068931878 0.67682379
0.031064332 0.0051773787 0.67712611
0.031109549 0.0034566224 0.67742932
0.031154899 0.0017308295 0.67773354
0.031200379 -0 0.67803848
0.031245995 -0.0017358959 0.67834443
0.031291626 -0.0034768581 0.67865044
0.031337511 -0.0052228868 0.67895812
0.031383526 -0.0069741011 0.67926669
0.031429678 -0.0087304413 0.67957622
0.031475969 -0.010491967 0.67988664
0.031522393 -0.012258679 0.68019795
0.031568956 -0.014030635 0.68051022
0.031615656 -0.015807837 0.68082345
0.031662494 -0.017590255 0.68113756
0.03170947 -0.019378006 0.68145257
0.031756468 -0.021170974 0.6817677
0.031803727 -0.022969335 0.68208462
0.031851124 -0.024773061 0.68240249
0.031898662 -0.026582211 0.68272132
0.031946342 -0.028396755 0.68304104
0.031994168 -0.030216694 0.68336177
0.032042135 -0.032042116 0.68368351
0.032090247 -0.033873022 0.68400609
0.0321385 -0.035709441 0.68432969
0.032186903 -0.037551373 0.6846543
0.032235328 -0.03939873 0.68497902
0.032284021 -0.041251808 0.6853056
0.032332864 -0.04311046 0.68563312
0.032381851 -0.044974804 0.6859616
0.032430992 -0.04684478 0.68629122
0.032480277 -0.048720419 0.68662173
0.032529715 -0.05060178 0.68695325
0.032579303 -0.052488893 0.68728578
0.032629043 -0.054381728 0.68761933
0.032678805 -0.056280166 0.687953
0.032728851 -0.058184624 0.68828869
0.032779049 -0.060094923 0.68862534
0.0328294 -0.062011093 0.68896294
0.032879908 -0.063933134 0.68930167
0.032930568 -0.065861136 0.68964148
0.032981388 -0.067795038 0.68998224
0.033032361 -0.069734991 0.69032407
0.031317912 0.060987502 0.66777289
0.03136145 0.059421688 0.66804945
0.031404998 0.057851344 0.6683262
0.031448781 0.056276798 0.66860431
0.03149268 0.054697841 0.6688832
0.031536706 0.053114474 0.66916293
0.031580854 0.051526636 0.66944343
0.031625126 0.049934417 0.66972464
0.031669524 0.048337698 0.67000675
0.031714045 0.046736479 0.67028964
0.031758688 0.045130789 0.67057323
0.031803459 0.04352054 0.67085767
0.03184836 0.041905731 0.67114294
0.031893272 0.040286213 0.67142826
0.031938426 0.038662314 0.67171508
0.031983703 0.037033767 0.67200279
0.032029115 0.035400629 0.67229128
0.032074653 0.033762813 0.6725806
0.032120321 0.032120317 0.67287076
0.03216612 0.030473173 0.67316175
0.032212049 0.028821319 0.67345351
0.032258112 0.027164727 0.67374611
0.032304306 0.025503397 0.6740396
0.03235051 0.023837209 0.67433321
0.032396968 0.022166342 0.67462838
0.032443561 0.020490646 0.67492431
0.032490287 0.018810183 0.6752212
0.032537144 0.017124802 0.67551893
0.032584142 0.015434593 0.67581749
0.032631274 0.013739496 0.67611694
0.032678541 0.012039483 0.67641723
0.032725945 0.010334522 0.67671835
0.032773491 0.0086246133 0.67702043
0.032821171 0.0069097579 0.67732334
0.032868873 0.005189836 0.67762643
0.032916833 0.0034649372 0.67793113
0.03296493 0.0017350018 0.67823672
0.033013172 -2.9802322e-08 0.67854321
0.033061553 -0.0017400682 0.67885053
0.033110075 -0.0034852624 0.67915881
0.033158742 -0.0052355528 0.67946804
0.033207554 -0.0069910586 0.6797781
0.033256508 -0.0087516904 0.68008912
0.033305604 -0.010517538 0.68040109
0.033354849 -0.01228863 0.68071395
0.033404116 -0.014064878 0.68102694
0.033453647 -0.015846491 0.68134171
0.033503331 -0.017633349 0.68165725
0.033553161 -0.019425511 0.68197381
0.033603139 -0.021223038 0.68229139
0.033653267 -0.02302593 0.68260986
0.033703547 -0.024834216 0.68292928
0.033753973 -0.026647866 0.68324971
0.033804551 -0.02846697 0.68357104
0.033855285 -0.030291557 0.68389332
0.033906039 -0.03212148 0.68421578
0.033957075 -0.033957094 0.68453997
0.034008268 -0.035798162 0.68486524
0.03405961 -0.037644833 0.68519139
0.034111112 -0.039497048 0.68551862
0.034162767 -0.041354924 0.68584681
0.034214579 -0.043218434 0.68617594
0.03426655 -0.045087546 0.68650609
0.034318678 -0.04696241 0.68683738
0.034370832 -0.048842758 0.68716866
0.034423281 -0.050729066 0.68750185
0.034475889 -0.052621067 0.68783617
0.034528654 -0.054518938 0.68817133
0.034581583 -0.056422591 0.68850768
0.034634676 -0.058332056 0.68884492
0.034687933 -0.060247451 0.68918324
0.03474135 -0.062168747 0.68952268
0.034794934 -0.064095914 0.68986309
0.034848683 -0.066029072 0.69020456
0.034902461 -0.067967951 0.69054621
0.034956545 -0.069913059 0.69088984
0.033041827 0.061127394 0.66822922
0.033087868 0.059558183 0.66850704
0.033134036 0.057984561 0.66878575
0.03318033 0.056406587 0.66906512
0.033226758 0.054824144 0.66934538
0.033273317 0.053237319 0.66962636
0.033320002 0.051645994 0.66990817
0.033366702 0.05005005 0.67018998
0.033413652 0.048449785 0.67047334
0.033460733 0.046845019 0.67075753
0.033507951 0.045235753 0.6710425
0.033555299 0.043621898 0.67132825
0.033602782 0.042003512 0.67161489
0.033650398 0.040380478 0.67190224
0.033698149 0.038752854 0.67219043
0.033746038 0.03712064 0.67247951
0.03379406 0.035483748 0.67276931
0.033842225 0.033842266 0.67306
0.033890519 0.032195985 0.67335153
0.033938833 0.030544966 0.67364311
0.03398741 0.028889328 0.67393625
0.034036126 0.027228892 0.67423034
0.034084976 0.025563747 0.67452514
0.034133971 0.023893803 0.6748209
0.034183107 0.022219062 0.67511743
0.034232385 0.020539463 0.6754148
0.034281805 0.018855006 0.67571312
0.034331366 0.017165691 0.67601228
0.034381073 0.015471488 0.67631221
0.034430921 0.013772339 0.67661309
0.034480788 0.012068301 0.6769141
0.03453093 0.010359287 0.67721671
0.034581214 0.0086453259 0.67752022
0.034631647 0.0069263279 0.67782462
0.034682225 0.0052023232 0.67812991
0.034732953 0.0034733117 0.67843604
0.034783829 0.0017392039 0.67874312
0.034834858 -0 0.6790511
0.034886032 -0.0017443001 0.67935991
0.034937229 -0.0034936965 0.67966896
0.034988705 -0.0052483082 0.67997968
0.035040334 -0.0070080757 0.6802913
0.035092115 -0.0087730289 0.68060374
0.03514405 -0.010543197 0.68091726
0.03519614 -0.012318641 0.68123162
0.035248384 -0.014099389 0.68154693
0.03530078 -0.015885353 0.68186319
0.035353336 -0.017676681 0.6821804
0.035406046 -0.019473344 0.68249851
0.035458915 -0.021275342 0.68281758
0.035511941 -0.023082763 0.68313766
0.035564993 -0.024895489 0.68345785
0.035618339 -0.026713729 0.68377984
0.035671841 -0.028537452 0.68410277
0.035725508 -0.030366689 0.68442667
0.035779338 -0.032201409 0.68475157
0.035833325 -0.034041673 0.68507737
0.03588748 -0.03588748 0.68540424
0.035941798 -0.037738919 0.68573213
0.035996281 -0.039595902 0.68606091
0.036050927 -0.041458547 0.6863907
0.036105603 -0.043326735 0.68672073
0.036160585 -0.045200735 0.68705255
0.03621573 -0.047080427 0.68738538
0.036271047 -0.048965931 0.68771929
0.036326531 -0.050857157 0.68805414
0.036382191 -0.052754134 0.68839002
0.036438014 -0.054657012 0.68872702
0.036494013 -0.056565702 0.68906498
0.036550183 -0.058480293 0.68940395
0.036606386 -0.060400516 0.68974316
0.036662903 -0.062326938 0.69008434
0.036719594 -0.064259261 0.69042647
0.036776461 -0.066197604 0.69076967
0.036833502 -0.068141967 0.69111395
0.036890727 -0.07009238 0.6914593
0.034773793 0.061268091 0.6686883
0.034822356 0.059695482 0.66896749
0.034871057 0.058118433 0.66924739
0.034919895 0.056537002 0.66952813
0.034968745 0.054950893 0.66980892
0.035017855 0.053360552 0.67009127
0.035067104 0.05176574 0.67037427
0.03511649 0.050166458 0.67065817
0.035166018 0.048562557 0.6709429
0.035215683 0.046954244 0.67122835
0.03526549 0.045341372 0.67151469
0.035315439 0.043723881 0.67180175
0.035365529 0.04210186 0.6720897
0.035415761 0.04047513 0.67237842
0.035466138 0.03884384 0.67266798
0.035516527 0.037207812 0.67295766
0.03556719 0.035567224 0.67324889
0.035617996 0.033921927 0.67354095
0.035668951 0.032271922 0.67383379
0.03572005 0.030617148 0.67412758
0.035771295 0.028957725 0.67442203
0.035822686 0.027293503 0.67471749
0.035874229 0.025624454 0.67501378
0.035925917 0.023950636 0.67531085
0.035977624 0.022271872 0.67560816
0.036029611 0.020588338 0.67590696
0.03608175 0.018899977 0.67620665
0.036134038 0.017206669 0.67650723
0.036186479 0.015508503 0.6768086
0.036239073 0.01380536 0.67711091
0.036291819 0.012097269 0.67741418
0.036344718 0.010384202 0.67771816
0.036397774 0.0086661577 0.67802316
0.036450982 0.006943047 0.67832899
0.036504347 0.0052148998 0.67863578
0.036557868 0.0034817159 0.6789434
0.036611412 0.0017434061 0.67925119
0.03666525 -0 0.67956066
0.036719248 -0.0017485321 0.67987108
0.036773402 -0.0035021901 0.68018234
0.036827717 -0.0052611232 0.68049455
0.036882188 -0.0070251822 0.68080759
0.036936827 -0.0087944567 0.68112171
0.036991622 -0.010569036 0.68143672
0.037046585 -0.012348831 0.68175262
0.037101712 -0.01413396 0.68206942
0.037156999 -0.015924394 0.68238723
0.037212316 -0.017720163 0.68270528
0.037267935 -0.019521266 0.68302494
0.037323721 -0.021327853 0.68334568
0.037379675 -0.023139775 0.68366724
0.037435796 -0.02495721 0.68398988
0.037492085 -0.026780039 0.68431342
0.037548546 -0.028608412 0.6846379
0.037605178 -0.030442268 0.68496346
0.037661977 -0.032281667 0.68528998
0.037718806 -0.03412655 0.68561661
0.037775952 -0.035977066 0.68594503
0.03783327 -0.037833273 0.68627465
0.037890766 -0.039695114 0.6866051
0.03794843 -0.041562557 0.68693656
0.038006276 -0.043435723 0.68726897
0.038064297 -0.04531461 0.68760252
0.038122494 -0.047199249 0.68793708
0.038180869 -0.04908967 0.6882726
0.038239423 -0.050985903 0.68860924
0.038298011 -0.052887678 0.68894595
0.038356926 -0.054795593 0.68928468
0.038416024 -0.056709349 0.68962431
0.038475301 -0.058629036 0.68996507
0.038534764 -0.060554653 0.69030684
0.03859441 -0.062486202 0.69064975
0.038654242 -0.06442374 0.69099367
0.03871426 -0.066367298 0.6913386
0.038774464 -0.068316907 0.69168466
0.038834855 -0.070272595 0.6920318
0.036513623 0.061409295 0.66914886
0.03656473 0.059833229 0.6694293
0.03661599 0.058252722 0.66971052
0.036667388 0.056667805 0.66999251
0.036718931 0.055078357 0.67027533
0.036770616 0.053484559 0.67055893
0.036822453 0.051886201 0.67084336
0.036874432 0.050283343 0.67112857
0.03692656 0.048675925 0.67141461
0.036978837 0.047063977 0.67170137
0.037031259 0.045447469 0.67198902
0.037083697 0.043826193 0.67227679
0.037136421 0.042200476 0.672566
0.03718929 0.04057014 0.67285615
0.037242312 0.038935184 0.67314708
0.037295487 0.037295491 0.67343879
0.037348811 0.035651177 0.67373139
0.037402291 0.034002095 0.67402482
0.037455924 0.032348305 0.67431915
0.03750971 0.030689776 0.67461419
0.037563648 0.029026449 0.67491019
0.037617743 0.027358353 0.67520702
0.03767186 0.02568537 0.67550397
0.037726268 0.024007618 0.67580247
0.037780832 0.022325069 0.67610186
0.037835557 0.020637572 0.67640209
0.037890442 0.018945247 0.67670321
0.037945483 0.017247945 0.67700529
0.038000681 0.015545756 0.67730808
0.038056046 0.013838559 0.67761195
0.038111571 0.012126416 0.67791653
0.038167257 0.010409266 0.67822206
0.038222965 0.0086870492 0.67852777
0.038278978 0.0069598258 0.67883509
0.038335156 0.005227536 0.67914331
0.038391497 0.00349015 0.67945254
0.038448006 0.001747638 0.67976254
0.038504682 -0 0.6800735
0.038561523 -0.0017527938 0.68038541
0.038618535 -0.0035107732 0.68069816
0.038675714 -0.0052739382 0.68101192
0.038733061 -0.0070423782 0.68132663
0.03879058 -0.0088160038 0.68164217
0.038848124 -0.010594934 0.68195796
0.038905986 -0.012379169 0.68227541
0.038964022 -0.014168739 0.68259382
0.03902223 -0.015963644 0.68291324
0.039080609 -0.017763913 0.6832335
0.039139166 -0.019569546 0.68355483
0.039197899 -0.021380693 0.68387711
0.039256807 -0.023197204 0.68420029
0.039315894 -0.025019199 0.68452448
0.03937516 -0.026846707 0.68484968
0.039434601 -0.028679699 0.68517578
0.039494075 -0.030518115 0.68550217
0.039553881 -0.032362252 0.6858303
0.039613862 -0.034211963 0.68615943
0.039674029 -0.036067277 0.68648952
0.039734378 -0.037928253 0.68682069
0.039794914 -0.039794892 0.68715274
0.039855633 -0.041667253 0.68748593
0.039916534 -0.043545336 0.68782008
0.039977625 -0.04542914 0.68815535
0.04003875 -0.047318548 0.68849075
0.040100213 -0.049213886 0.68882799
0.04016187 -0.051115125 0.68916619
0.040223714 -0.053022146 0.68950558
0.040285747 -0.054935127 0.68984598
0.040347975 -0.05685392 0.69018734
0.040410392 -0.058778733 0.69052982
0.040473007 -0.060709506 0.69087338
0.040535811 -0.06264627 0.69121802
0.040598657 -0.064588785 0.69156283
0.040661853 -0.066537559 0.69190955
0.04072525 -0.068492442 0.6922574
0.040788841 -0.070453435 0.69260633
0.038261618 0.061551332 0.66961217
0.038315304 0.059971809 0.66989392
0.038369134 0.058387846 0.67017651
0.038423121 0.056799412 0.67045981
0.038477257 0.055206507 0.67074394
0.038531546 0.053609133 0.67102885
0.038585991 0.052007198 0.6713146
0.038640447 0.050400585 0.6716004
0.038695201 0.04878965 0.67188776
0.038750108 0.047174066 0.67217594
0.038805172 0.045553923 0.67246497
0.038860392 0.04392916 0.67275476
0.038915768 0.042299747 0.6730454
0.038971305 0.040665716 0.6733368
0.039026998 0.039026976 0.67362916
0.039082851 0.037383616 0.67392224
0.039138723 0.035735339 0.6742155
0.039194897 0.034082532 0.6745103
0.039251234 0.032424957 0.674806
0.039307732 0.030762583 0.67510253
0.03936439 0.029095441 0.6753999
0.039421212 0.027423471 0.6756981
0.039478201 0.025746644 0.6759972
0.039535355 0.024064988 0.67629719
0.039592676 0.022378474 0.67659795
0.039650161 0.020687044 0.67689967
0.03970781 0.018990666 0.67720222
0.039765634 0.01728943 0.67750573
0.039823476 0.015583128 0.6778093
0.039881635 0.013871878 0.67811453
0.039939962 0.012155652 0.67842066
0.039998461 0.010434389 0.67872763
0.04005713 0.0087080896 0.67903554
0.040115975 0.0069766939 0.67934442
0.040174991 0.0052402318 0.67965412
0.040234182 0.0034986436 0.67996478
0.040293545 0.0017518997 0.68027639
0.040353086 2.9802322e-08 0.68058884
0.040412802 -0.0017570853 0.68090224
0.040472545 -0.0035193264 0.68121576
0.040532615 -0.0052868724 0.68153107
0.040592864 -0.0070596337 0.68184727
0.040653296 -0.0088376701 0.68216443
0.040713903 -0.010621011 0.68248248
0.040774692 -0.012409687 0.68280154
0.040835664 -0.014203727 0.68312156
0.040896818 -0.016003132 0.68344247
0.040958159 -0.017807901 0.68376446
0.041019678 -0.019618094 0.68408734
0.041081231 -0.021433711 0.68441033
0.041143123 -0.023254782 0.68473518
0.041205201 -0.025081426 0.68506104
0.04126747 -0.026913583 0.68538785
0.041329924 -0.028751254 0.68571556
0.041392568 -0.030594498 0.68604434
0.041455403 -0.032443374 0.68637407
0.041518431 -0.034297824 0.68670487
0.041581649 -0.036157936 0.68703669
0.041645057 -0.03802374 0.68736947
0.041708503 -0.039895058 0.68770248
0.041772302 -0.041772276 0.68803728
0.041836295 -0.043655246 0.68837315
0.041900486 -0.045544028 0.68871009
0.041964874 -0.047438562 0.68904799
0.042029459 -0.049338907 0.68938696
0.042094246 -0.051245153 0.68972695
0.04215923 -0.05315727 0.69006801
0.042224415 -0.055075318 0.69041008
0.042289805 -0.056999296 0.69075328
0.042355228 -0.058928996 0.69109666
0.042421024 -0.060864955 0.69144201
0.042487022 -0.062806904 0.69178838
0.042553227 -0.064754903 0.69213581
0.042619638 -0.066708982 0.69248432
0.042686258 -0.0686692 0.69283402
0.042753082 -0.070635527 0.69318473
0.040017724 0.061693966 0.67007774
0.040073857 0.060110778 0.67036003
0.040130291 0.058523327 0.67064393
0.040186886 0.056931406 0.67092854
0.040243641 0.055335015 0.67121398
0.040300556 0.053734064 0.67150027
0.040357631 0.052128583 0.67178732
0.040414866 0.050518602 0.67207515
0.040472265 0.048904002 0.67236394
0.040529832 0.047284812 0.67265344
0.040587559 0.045661032 0.67294377
0.04064545 0.044032604 0.67323494
0.040703509 0.042399496 0.673527
0.040761586 0.04076162 0.67381901
0.040819976 0.039119154 0.67411268
0.040878534 0.03747198 0.67440724
0.04093726 0.035820127 0.67470264
0.040996153 0.034163475 0.67499888
0.041055217 0.032502055 0.67529595
0.041114453 0.030835807 0.67559385
0.04117386 0.029164821 0.67589259
0.041233439 0.027488947 0.67619228
0.041293189 0.025808275 0.67649281
0.041352961 0.024122566 0.67679346
0.041413058 0.022432119 0.67709571
0.041473333 0.020736635 0.67739886
0.041533779 0.019036323 0.67770284
0.041594401 0.017330974 0.67800784
0.041655205 0.015620708 0.67831361
0.041716184 0.013905376 0.67862034
0.041777346 0.012185067 0.67892796
0.041838683 0.010459691 0.67923641
0.041900203 0.0087292194 0.67954588
0.041961901 0.0069936514 0.67985618
0.042023629 0.0052529573 0.6801666
0.042085692 0.0035071373 0.68047881
0.042147942 0.0017561913 0.68079185
0.042210374 2.9802322e-08 0.68110585
0.042272989 -0.0017613769 0.6814208
0.042335793 -0.0035279989 0.68173671
0.042398784 -0.0052998364 0.68205357
0.042461965 -0.0070770085 0.68237132
0.042525332 -0.0088594258 0.68269002
0.042588886 -0.010647207 0.68300968
0.042652629 -0.012440324 0.6833303
0.04271641 -0.014238805 0.68365109
0.042780537 -0.01604268 0.68397361
0.042844858 -0.017852038 0.68429714
0.042909376 -0.019666761 0.68462157
0.042974088 -0.021486998 0.68494707
0.043038994 -0.023312807 0.68527353
0.043104097 -0.025144041 0.68560094
0.043169394 -0.026980847 0.68592942
0.043234892 -0.028823256 0.68625879
0.043300588 -0.030671239 0.68658924
0.043366317 -0.032524735 0.68691993
0.043432415 -0.034383953 0.68725228
0.043498714 -0.036248922 0.68758577
0.043565214 -0.038119584 0.68792021
0.043631919 -0.039995909 0.68825573
0.043698832 -0.041878045 0.68859231
0.043765947 -0.043765932 0.6889298
0.043833267 -0.045659602 0.68926841
0.043900799 -0.047559202 0.6896081
0.043968365 -0.049464405 0.6899479
0.04403631 -0.051375687 0.69028968
0.044104468 -0.0532929 0.69063246
0.044172835 -0.055216014 0.69097632
0.044241417 -0.057145149 0.69132125
0.044310208 -0.059080303 0.69166732
0.044379216 -0.061021417 0.69201428
0.044448439 -0.062968612 0.69236249
0.044517878 -0.064921886 0.69271177
0.044587534 -0.066881329 0.69306213
0.04465723 -0.068846583 0.69341272
0.044727329 -0.070818275 0.69376516
0.041840732 0.06025064 0.67082906
0.041899793 0.058659732 0.67111421
0.041959018 0.057064295 0.67140019
0.042018414 0.055464327 0.67168701
0.042077977 0.05385983 0.67197454
0.042137709 0.052250743 0.67226297
0.042197462 0.050637007 0.67255151
0.042257536 0.04901877 0.67284155
0.042317782 0.047395945 0.67313242
0.042378195 0.04576847 0.67342412
0.042438783 0.044136345 0.67371666
0.042499546 0.042499572 0.67401004
0.042560484 0.04085806 0.67430437
0.042621594 0.039211899 0.67459941
0.042682882 0.03756094 0.67489529
0.042744342 0.035905242 0.67519212
0.042805985 0.034244806 0.67548966
0.042867649 0.032579362 0.67578745
0.042929646 0.030909359 0.67608678
0.042991821 0.029234439 0.67638701
0.043054178 0.027554661 0.67668808
0.043116719 0.025870025 0.67699009
0.043179441 0.024180472 0.67729288
0.043242339 0.022486001 0.67759657
0.043305427 0.020786643 0.67790115
0.043368701 0.019082218 0.67820674
0.043432157 0.017372847 0.67851317
0.043495797 0.015658498 0.67882037
0.043559626 0.013939083 0.67912859
0.043623477 0.012214571 0.67943692
0.043687686 0.010485083 0.67974687
0.043752078 0.0087504387 0.68005788
0.043816667 0.0070106983 0.68036968
0.043881439 0.0052658021 0.68068242
0.043946404 0.0035157502 0.68099612
0.044011563 0.0017604828 0.68131071
0.044076916 -0 0.68162632
0.044142466 -0.0017656982 0.68194276
0.044208039 -0.0035366118 0.68225944
0.04427398 -0.0053128898 0.68257779
0.044340115 -0.007094413 0.68289715
0.044406444 -0.0088813007 0.68321741
0.044472978 -0.010673493 0.68353862
0.044539712 -0.01247111 0.68386084
0.044606645 -0.01427412 0.68418407
0.044673774 -0.016082555 0.68450814
0.044741109 -0.017896414 0.68483329
0.044808649 -0.019715786 0.68515944
0.044876393 -0.021540672 0.6854865
0.044944339 -0.023371071 0.68581462
0.045012325 -0.025206894 0.68614286
0.045080684 -0.027048379 0.68647289
0.045149256 -0.028895497 0.68680394
0.045218032 -0.030748278 0.68713611
0.045287021 -0.032606661 0.68746918
0.045356218 -0.034470707 0.68780327
0.045425627 -0.036340475 0.68813848
0.045495249 -0.038215965 0.68847466
0.045565087 -0.040097266 0.68881184
0.045635138 -0.041984349 0.68915009
0.045705229 -0.043877006 0.68948853
0.045775715 -0.045775741 0.68982887
0.04584641 -0.047680259 0.69017017
0.045917336 -0.049590707 0.69051266
0.04598847 -0.051507086 0.6908561
0.046059832 -0.053429395 0.69120067
0.046131413 -0.055357695 0.69154632
0.046203222 -0.057291985 0.69189304
0.046275251 -0.059232324 0.69224077
0.046347503 -0.061178684 0.69258964
0.046419799 -0.063130915 0.6929388
0.046492506 -0.065089524 0.69328982
0.04656544 -0.067054212 0.69364196
0.046638601 -0.069025129 0.69399524
0.046712 -0.071002245 0.69434959
0.043615848 0.060391188 0.67130023
0.043677557 0.058796704 0.67158669
0.043739285 0.057197511 0.67187333
0.043801349 0.055594027 0.67216146
0.043863583 0.053985983 0.67245036
0.043925997 0.05237332 0.67274016
0.043988589 0.050756067 0.67303073
0.044051357 0.049134195 0.6733222
0.044114307 0.047507763 0.67361444
0.044177439 0.045876592 0.67390752
0.044240747 0.044240773 0.67420143
0.04430424 0.042600244 0.67449623
0.044367913 0.040954977 0.67479187
0.044431772 0.039305061 0.67508829
0.044495653 0.037650198 0.67538488
0.044559881 0.035990655 0.67568314
0.044624288 0.034326345 0.67598218
0.044688892 0.032657236 0.67628205
0.044753674 0.030983329 0.67658281
0.044818651 0.029304504 0.67688453
0.044883814 0.027620822 0.67718703
0.044949166 0.025932193 0.67749041
0.045014709 0.024238706 0.67779469
0.045080278 0.022540152 0.67809916
0.045146205 0.020836711 0.67840528
0.045212325 0.019128263 0.67871225
0.045278639 0.017414898 0.67902011
0.045345146 0.015696406 0.67932886
0.045411851 0.013972878 0.67963856
0.04547875 0.012244254 0.67994916
0.04554585 0.010510594 0.68026066
0.045613144 0.0087717474 0.68057311
0.045680642 0.007027775 0.68088651
0.045748334 0.0052786469 0.68120074
0.045816235 0.0035243332 0.68151599
0.045884158 0.0017647743 0.68183136
0.045952458 -0 0.68214846
0.046020962 -0.0017700493 0.68246651
0.046089672 -0.0035453737 0.68278551
0.046158586 -0.005325973 0.68310547
0.046227708 -0.007111907 0.68342632
0.046297036 -0.008903265 0.68374825
0.046366572 -0.010699958 0.68407106
0.046436317 -0.012502074 0.6843949
0.046506271 -0.014309615 0.68471968
0.046576437 -0.016122609 0.68504536
0.046646643 -0.017940998 0.68537128
0.04671723 -0.019765019 0.68569911
0.046788033 -0.021594495 0.68602782
0.046859056 -0.023429543 0.6863575
0.046930294 -0.025270164 0.6866883
0.047001746 -0.027116358 0.68701994
0.047073416 -0.028968245 0.68735272
0.047145307 -0.030825764 0.6876865
0.047217418 -0.032688975 0.6880213
0.047289561 -0.03455773 0.68835628
0.047362112 -0.036432356 0.68869311
0.047434893 -0.038312793 0.68903095
0.04750789 -0.040198982 0.68936992
0.047581114 -0.042091012 0.68970984
0.047654562 -0.043988854 0.69005084
0.04772824 -0.045892537 0.69039291
0.047802147 -0.04780212 0.690736
0.04787628 -0.049717665 0.69108021
0.047950644 -0.051639169 0.6914255
0.048025049 -0.053566396 0.69177097
0.048099883 -0.055499852 0.69211829
0.04817494 -0.057439327 0.6924668
0.048250236 -0.059384912 0.69281638
0.048325773 -0.061336577 0.69316703
0.048401538 -0.063294351 0.69351888
0.048477545 -0.065258235 0.69387174
0.048553791 -0.067228317 0.69422567
0.048630279 -0.069204628 0.69458079
0.048707005 -0.071187139 0.69493699
0.045399103 0.060532153 0.6717729
0.045463488 0.058934152 0.67206073
0.045528054 0.057331622 0.67234939
0.0455928 0.055724531 0.67263889
0.045657739 0.054112881 0.67292917
0.045722857 0.052496612 0.67322034
0.045788161 0.050875723 0.67351222
0.045853648 0.049250215 0.67380506
0.045919169 0.047619909 0.67409796
0.045985036 0.045985043 0.67439246
0.046051092 0.044345498 0.67468774
0.046117339 0.042701244 0.67498398
0.046183776 0.041052252 0.67528093
0.046250403 0.039398521 0.67557883
0.046317231 0.037740022 0.67587757
0.046384241 0.036076635 0.67617726
0.046451453 0.03440848 0.67647773
0.046518859 0.032735527 0.67677903
0.046586458 0.031057626 0.67708129
0.046654083 0.029374778 0.6773836
0.046722081 0.027687132 0.67768759
0.046790276 0.025994599 0.67799246
0.046858665 0.024297118 0.67829823
0.046927258 0.022594631 0.6786049
0.04699605 0.020887136 0.67891246
0.047065046 0.019174635 0.67922097
0.047134247 0.017457128 0.67953032
0.047203645 0.015734583 0.67984056
0.047273252 0.014006913 0.68015182
0.047343068 0.012274146 0.68046385
0.04741291 0.010536194 0.68077612
0.047483135 0.0087931752 0.68109012
0.047553573 0.0070450008 0.68140495
0.047624212 0.0052915812 0.68172079
0.047695067 0.0035329461 0.68203765
0.047766134 0.0017690957 0.68235534
0.047837406 -0 0.68267393
0.047908898 -0.0017744303 0.68299359
0.047980603 -0.003554076 0.68331414
0.04805252 -0.0053391457 0.68363571
0.048124474 -0.0071295202 0.68395734
0.048196826 -0.0089253187 0.68428081
0.048269399 -0.010726571 0.6846053
0.048342183 -0.012533158 0.68493068
0.048415195 -0.014345229 0.68525714
0.048488423 -0.016162813 0.68558455
0.048561871 -0.01798588 0.68591291
0.048635546 -0.019814461 0.68624222
0.048709441 -0.021648616 0.68657267
0.048783567 -0.023488373 0.68690401
0.048857909 -0.025333762 0.68723643
0.048932489 -0.027184725 0.68756986
0.049007099 -0.029041231 0.6879034
0.049082134 -0.030903548 0.68823886
0.049157396 -0.032771587 0.68857533
0.049232889 -0.034645379 0.68891281
0.049308613 -0.036524892 0.68925142
0.049384572 -0.038410246 0.68959099
0.049460765 -0.040301353 0.68993163
0.049537193 -0.04219833 0.69027334
0.049613856 -0.044101179 0.69061607
0.049690761 -0.046009958 0.69095987
0.04976771 -0.047924429 0.69130391
0.049845088 -0.04984507 0.69164985
0.049922708 -0.05177173 0.69199687
0.050000574 -0.053704292 0.69234496
0.050078679 -0.055642962 0.69269419
0.050157029 -0.057587683 0.69304442
0.050235629 -0.059538484 0.69339585
0.050314475 -0.061495453 0.69374835
0.050393566 -0.063458532 0.69410193
0.050472707 -0.065427572 0.69445574
0.050552294 -0.067403078 0.69481158
0.050632138 -0.069384784 0.6951685
0.047190867 0.060673982 0.67224848
0.047257952 0.059072435 0.67253768
0.047325224 0.057466358 0.67282772
0.047392689 0.055855691 0.67311853
0.047460172 0.054240197 0.67340946
0.047528021 0.052620322 0.673702
0.047596063 0.050995797 0.67399532
0.047664303 0.049366564 0.67428952
0.047732741 0.04773277 0.67458451
0.047801368 0.046094209 0.67488039
0.0478702 0.044450879 0.67517722
0.04793923 0.04280293 0.6754747
0.048008453 0.041150093 0.6757732
0.048077885 0.039492548 0.67607248
0.048147339 0.037830085 0.67637187
0.04821717 0.036162883 0.67667294
0.048287202 0.034490883 0.67697483
0.048357438 0.032813966 0.67727762
0.048427876 0.031132191 0.67758131
0.048498526 0.029445529 0.67788589
0.048569374 0.027753949 0.6781913
0.048640434 0.026057363 0.67849773
0.048711706 0.024355859 0.67880487
0.048783179 0.022649348 0.67911309
0.048854869 0.02093783 0.67942214
0.048926592 0.019221157 0.67973131
0.048998702 0.017499566 0.68004221
0.049071025 0.015772849 0.68035394
0.04914356 0.014041036 0.68066669
0.049216311 0.012304097 0.68098032
0.049289279 0.010562003 0.68129492
0.049362462 0.0088147521 0.68161041
0.049435865 0.0070622563 0.68192685
0.049509484 0.0053046048 0.68224418
0.049583327 0.0035416782 0.68256259
0.04965739 0.0017734766 0.68288189
0.049731664 2.9802322e-08 0.68320209
0.049805984 -0.0017787516 0.68352246
0.049880713 -0.0035628974 0.68384463
0.049955666 -0.0053523779 0.6841678
0.050030842 -0.0071472526 0.68449181
0.050106246 -0.0089475513 0.68481696
0.050181881 -0.010753244 0.68514299
0.050257739 -0.012564421 0.6854701
0.050333831 -0.014381081 0.68579805
0.050410151 -0.016203254 0.68612707
0.050486512 -0.018030912 0.68645626
0.050563298 -0.019864142 0.68678731
0.050640319 -0.021703005 0.68711936
0.05071757 -0.023547471 0.68745244
0.050795063 -0.025397539 0.68778646
0.050872792 -0.0272533 0.68812156
0.050950758 -0.029114723 0.68845773
0.051028963 -0.030981869 0.68879485
0.051107407 -0.032854766 0.68913305
0.051186092 -0.034733415 0.68947232
0.05126502 -0.036617875 0.68981248
0.051343996 -0.038507998 0.690153
0.051423416 -0.040404141 0.69049537
0.051503081 -0.042306095 0.69083881
0.051582988 -0.04421398 0.69118333
0.051663149 -0.046127796 0.69152886
0.051743556 -0.048047572 0.69187558
0.05182422 -0.049973369 0.69222331
0.051905129 -0.051905125 0.69257212
0.051986292 -0.053842962 0.692922
0.052067716 -0.055786818 0.69327301
0.052149184 -0.057736605 0.69362426
0.052231111 -0.059692681 0.69397742
0.052313298 -0.061654985 0.69433177
0.05239575 -0.063623369 0.69468719
0.052478451 -0.065598041 0.69504374
0.052561425 -0.067578971 0.69540143
0.052644655 -0.06956616 0.69576031
0.048990879 0.060816288 0.67272556
0.049060684 0.059211195 0.67301613
0.049130686 0.057601511 0.67330754
0.049200885 0.055987209 0.67359978
0.049271289 0.054368317 0.6738928
0.049341895 0.052744776 0.67418665
0.049412701 0.051116586 0.67448139
0.049483716 0.049483716 0.67477703
0.049554929 0.047846138 0.67507339
0.04962635 0.046203852 0.67537069
0.049697798 0.044556618 0.67566812
0.049769633 0.042904854 0.6759671
0.049841672 0.041248292 0.67626697
