# .PCD v0.7 - Point Cloud Data file format
VERSION 0.7
FIELDS x y z
SIZE 4 4 4
TYPE F F F
COUNT 1 1 1
WIDTH 487
HEIGHT 1
VIEWPOINT 0 0 0 1 0 0 0
POINTS 487
DATA ascii
-0.060871363 0.022826761 0.62188375
-0.062426146 0.015288025 0.62258989
-0.062758274 0.0089654922 0.62340808
-0.058974594 0.014102608 0.62356204
-0.05884926 0.016631335 0.62323314
-0.053707797 0.025575131 0.62316376
-0.064613812 -0.0038768351 0.62479568
-0.06433741 0.0012867749 0.62412834
-0.060732663 0.002584368 0.62478459
-0.058103964 0.0077472031 0.62466568
-0.058103964 0.0077472031 0.62466568
-0.055301413 0.016719013 0.62404764
-0.063707769 -0.0091011226 0.6257472
-0.062115207 -0.0012940764 0.6250118
-0.053315599 0.0078023076 0.62577391
-0.053086106 0.012947828 0.62509823
-0.049464408 0.013016969 0.62593257
-0.049198251 0.019420385 0.62508708
-0.047885325 0.022001356 0.62502766
-0.060062606 -0.0078342259 0.62641716
-0.058734179 -0.0052208006 0.62635618
-0.058734179 -0.0052208006 0.62635618
-0.053605303 0.0013074577 0.62662685
-0.049787518 0.005240798 0.62695903
-0.048405923 0.009157896 0.62672603
-0.048300952 0.01174888 0.6263836
-0.03918469 0.026123136 0.62647116
-0.037946288 0.026169866 0.62675321
-0.060588609 -0.018440008 0.62779737
-0.06052231 -0.017104149 0.62762344
-0.057909288 -0.013161182 0.62767386
-0.057909288 -0.013161182 0.62767386
-0.056695171 -0.013184905 0.62796021
-0.051173341 0.0013121665 0.62719303
-0.047285113 0.006567359 0.62735462
-0.034279365 0.023731887 0.62795359
-0.065959767 -0.029022306 0.62804508
-0.063550584 -0.029127359 0.62862152
-0.060721468 -0.021120518 0.62814605
-0.054253764 -0.013232648 0.62853605
-0.054253764 -0.013232648 0.62853605
-0.051510312 -0.0066038668 0.62823606
-0.050225046 -0.0052868426 0.62834883
-0.04625655 0.0013216436 0.62833726
-0.042335272 0.0066149235 0.62850159
-0.037026156 0.015868366 0.62842739
-0.034354609 0.021141291 0.62830293
-0.032984216 0.025068015 0.62806594
-0.063972861 -0.037317514 0.62968343
-0.061395116 -0.034701586 0.62991381
-0.054674633 -0.022669941 0.62977517
-0.055782903 -0.019922495 0.62912774
-0.048018921 -0.012004733 0.62981516
-0.046563487 -0.006651938 0.62939584
-0.04396547 -0.0039968193 0.62962538
-0.042663615 -0.0026664734 0.62974018
-0.037354585 0.0053363442 0.62984335
-0.034697566 0.0093416572 0.62989521
-0.034544311 0.01461491 0.62918365
-0.029378314 0.017359912 0.62999851
-0.030556194 0.021256477 0.62917191
-0.06418629 -0.04145363 0.63022017
-0.062964171 -0.041529536 0.63051575
-0.053617083 -0.02680853 0.63060796
-0.046822377 -0.013377845 0.63028872
-0.041544165 -0.006700635 0.63057262
-0.033573244 0.0040287971 0.63091004
-0.032110047 0.010703385 0.63030517
-0.026865313 0.014775902 0.63095063
-0.021410456 0.028101236 0.63033354
-0.021410456 0.028101236 0.63033354
-0.055287469 -0.036408842 0.6315794
-0.052431177 -0.028232157 0.63108623
-0.045874458 -0.021587968 0.63167286
-0.0404584 -0.012137502 0.63159609
-0.039006818 -0.0067253113 0.63116753
-0.029708071 0.0040511489 0.6318078
-0.029674744 0.0053954124 0.631625
-0.027016137 0.0081048608 0.63186091
-0.053023707 -0.04214704 0.63292027
-0.051585019 -0.038010031 0.63266891
-0.046029404 -0.025722325 0.63222301
-0.042154569 -0.024476856 0.63294947
-0.036697738 -0.014950901 0.63287109
-0.032507639 -0.0040634573 0.63230497
-0.023065584 0.0094975829 0.63258427
-0.016304057 0.019021422 0.63281024
-0.016230745 0.024346113 0.63207281
-0.051760327 -0.04222551 0.6332258
-0.045114383 -0.035544664 0.63382798
-0.039672028 -0.027360022 0.63393646
-0.030011225 -0.0081848502 0.63347119
-0.028603071 -0.0040861368 0.63321823
-0.0259757 -0.0041014254 0.63383281
-0.0259757 -0.0041014254 0.63383281
-0.024598667 -0.0013666153 0.63376647
-0.021872627 0.0027340949 0.63382035
-0.012296559 0.019127965 0.63372922
-0.041291408 -0.037162274 0.6349479
-0.032952789 -0.020595461 0.63454384
-0.028831597 -0.013729334 0.6345318
-0.028765908 -0.010958433 0.6341542
-0.013715107 0.012343585 0.63436007
-0.0054977546 0.023365468 0.63471353
-0.0027497811 0.027497828 0.63476807
-0.03445778 -0.027566195 0.63518095
-0.026274279 -0.017977148 0.63572973
-0.020661591 -0.0041323006 0.63507575
-0.016604047 -0.0027673244 0.6358279
-0.016604047 -0.0027673244 0.6358279
-0.0082817273 0.013802916 0.63541955
0 0.023542404 0.63596988
-0.0013806428 0.02485159 0.63546246
-0.023570573 -0.016638041 0.63616997
-0.019499453 -0.015320987 0.63693213
-0.013889249 -0.0027778447 0.63646221
-0.012466432 0.0027703345 0.63600761
-0.012466432 0.0027703345 0.63600761
-0.0083487881 0.0041744113 0.63676876
-0.0083391378 0.0055594146 0.63657463
-0.0055612735 0.0097322166 0.63663042
-0.0041788975 0.0097507834 0.63694996
-0.0027719594 0.018017739 0.63610667
-0.032153845 -0.040541798 0.63755685
-0.027925251 -0.032114029 0.63734794
-0.021022577 -0.0252271 0.6379807
-0.019567391 -0.01956737 0.63751787
-0.013937546 -0.0069687366 0.6370452
-0.0083973249 -0.0027990937 0.63774526
0.011209813 0.028024554 0.63794714
-0.023901077 -0.033742696 0.63851678
-0.022433396 -0.02804175 0.63805103
-0.0070357993 -0.0070357919 0.63866335
-0.0028108128 0.0014054179 0.6384517
0.0028127118 0.0098445117 0.63856626
0.0028127118 0.0098445117 0.63856626
0.0084143206 0.022438198 0.63808715
0.0042520952 0.0028347671 0.6398952
0.0084935175 0.011324704 0.6396805
0.0098701641 0.018330306 0.639009
0.011288709 0.019755244 0.63913757
0.011288709 0.019755244 0.63913757
0.017004402 0.024089575 0.63985521
-0.018440625 -0.035462737 0.64003336
-0.018440625 -0.035462737 0.64003336
-0.014234318 -0.032738924 0.64062756
-0.0099397413 -0.022719413 0.64020884
-0.0042627971 -0.01420933 0.64032578
-0.0042577656 -0.012773275 0.64012343
0 -0.011406988 0.64092255
0.0042722262 -0.0028481781 0.64070523
0.0071059861 0.0042636096 0.64035785
0.0085336762 0.0056891441 0.64048839
0.014215736 0.015637338 0.64040321
-0.017136155 -0.041412354 0.64118052
-0.012912401 -0.040171921 0.64198911
-0.011418375 -0.031400502 0.64109409
-0.0057267095 -0.025770158 0.64162284
0.0085844202 -0.0014307499 0.64150929
0.011477168 -0 0.64198118
0.012860354 0.0071446896 0.64129102
-0.011514011 -0.041738272 0.64253712
-0.011514011 -0.041738272 0.64253712
-0.011514011 -0.041738272 0.64253712
-0.0071870843 -0.03306058 0.64231563
0.0028834909 -0.020184427 0.64283818
0.014351383 0.0043054223 0.64204067
0.017289499 0.0043223798 0.64272308
0.020105796 0.012925178 0.64216012
0.02153283 0.015790761 0.64208692
0.027391827 0.020183474 0.64282966
0.030285709 0.02451703 0.64289021
0.028752364 0.025877148 0.64233994
-0.0072476887 -0.043486118 0.6437788
-0.0043448946 -0.037655771 0.64362919
-0.0043344665 -0.034675747 0.64320958
0.0014510555 -0.03047213 0.64396203
0.0014440892 -0.024549484 0.64312112
0.0043337778 -0.020224273 0.64318186
0.0115877 -0.011587739 0.64364904
0.011545976 -0.0072162151 0.64301944
0.015950982 -0.0058003664 0.64384538
0.018835034 -0 0.64369559
0.028994935 0.015947193 0.64380407
0.034776211 0.026082158 0.6437149
0.005831907 -0.029159516 0.64479744
0.013125354 -0.01750046 0.64484531
0.01602825 -0.01165691 0.64469332
0.015970241 -0.0072591901 0.64405674
0.023291985 0.001455754 0.64452857
0.024797082 0.0014586747 0.64487898
0.023263821 0.0029079616 0.64431614
-0.0029199533 -0.045259267 0.6450389
-0.0014611188 -0.043833524 0.64517677
0.0131893 -0.023447603 0.6457029
0.0131893 -0.023447603 0.6457029
0.022005437 -0.010269195 0.64589018
0.020472374 -0.0087738633 0.64532083
0.023376817 -0.0029220879 0.6451686
0.035200175 0.011733413 0.64584732
0.039597001 0.019065231 0.64583302
0.038007893 0.020465791 0.64526409
0.040946014 0.024860084 0.64532632
0.043939535 0.027828395 0.64560312
0.0058746091 -0.038184941 0.6460861
0.017627224 -0.019096166 0.64612031
0.022113284 -0.016216397 0.64675808
0.022113284 -0.016216397 0.64675808
0.030991567 -0.0029515326 0.64694756
0.029384369 -0 0.64615452
0.030877875 0.001470387 0.64629412
0.032334268 0.0044092238 0.64621735
0.033789292 0.0073455274 0.6461401
0.035286147 0.008821547 0.64627969
0.019252354 -0.026657104 0.64757067
0.031029554 -0.0044327974 0.64716601
0.035546821 2.9802322e-08 0.64759082
0.048745025 0.025111109 0.64710855
0.014883995 -0.040186793 0.64846981
0.014883995 -0.040186793 0.64846981
0.02528758 -0.022312552 0.6483618
0.026730239 -0.017820179 0.6480611
0.026730239 -0.017820179 0.6480611
0.031298678 -0.014904141 0.64871293
0.035766989 -0.0074514449 0.64869815
0.044701405 0.0074502528 0.64866871
0.032978814 -0.01948747 0.64975387
0.034505542 -0.018002898 0.64989924
0.037426177 -0.010479331 0.64951372
0.040384579 -0.0044871867 0.64935416
0.041913871 -0.0029938519 0.64949882
0.05396704 0.014990866 0.64975965
0.053832985 0.017944366 0.64931011
0.053766124 0.019415557 0.64908594
0.060006589 0.024002671 0.64989007
0.058241848 0.02688086 0.6490711
0.024078541 -0.039127648 0.65046269
0.024048442 -0.037575662 0.65023559
0.027030511 -0.031535596 0.65007472
0.028590897 -0.031600446 0.65044761
0.036034726 -0.016515911 0.6500448
0.046691276 -0.0030123293 0.65061498
0.060232028 0.019575387 0.65057039
0.063266411 0.024101496 0.65063584
0.025732923 -0.043897301 0.65152401
0.030271506 -0.036325812 0.65150881
0.034897178 -0.031862617 0.65195465
0.065233752 0.018204778 0.65192997
0.028879844 -0.044079751 0.65228337
0.038138047 -0.033561498 0.65295094
0.04716374 -0.015214086 0.65245467
0.050224833 -0.010653734 0.65252149
0.051723644 -0.0076064467 0.65243936
0.054786138 -0.0030437112 0.65250611
0.059497274 0.0015255809 0.65295684
0.070133023 0.019820213 0.65284336
0.036768969 -0.041365087 0.65373772
0.03672218 -0.039782345 0.65350246
0.041414227 -0.035278797 0.65395749
0.042819526 -0.029056132 0.65340322
0.046012077 -0.027607232 0.65394247
0.046012077 -0.027607232 0.65394247
0.061072726 0.0030536652 0.65310735
0.064149991 0.0076369047 0.65317535
0.074890308 0.024454027 0.6532951
0.052252166 -0.019978762 0.65431571
0.063212872 -0.006167084 0.65491307
0.067745596 0.0030793548 0.65465903
0.070670202 0.010754198 0.65425301
0.073675998 0.016884059 0.65408498
0.043315042 -0.043315023 0.65553939
0.044957079 -0.043406844 0.65593517
0.052588053 -0.027840734 0.65550822
0.060184099 -0.012345463 0.65508264
0.069431402 0.0030858517 0.65505099
0.048199713 -0.041980386 0.65648866
0.052928116 -0.035804331 0.65671557
0.065395147 -0.015570253 0.65675396
0.070060231 -0.007784456 0.65673786
0.071677104 -0.0062327981 0.65689528
0.071399532 -0.0015521646 0.65616685
0.061045282 -0.029739976 0.65774816
0.062581733 -0.026597232 0.6576612
0.061204623 -0.032956332 0.65824133
0.070885792 -0.022053361 0.65895236
0.068981506 -0.018813163 0.65804964
0.067976639 -0.031617016 0.65962988
0.069616407 -0.030061662 0.65979153
0.074258804 -0.020539641 0.6595239
0.072904542 -0.026942968 0.6601162
0.073387697 -0.035098463 0.66138411
0.073387697 -0.035098463 0.66138411
0.075047433 -0.033531845 0.66154939
0.070450224 -0.044831961 0.66207898
0.073680967 -0.04004398 0.66215366
0.07911104 -0.041977286 0.66369289
0.07911104 -0.041977286 0.66369289
-0.059310347 0.019132555 0.62277097
-0.055095255 0.021140859 0.62346894
-0.059835382 -0.0032522678 0.62582088
-0.057251729 0.00065025687 0.62586993
-0.057128172 0.0032455772 0.62553096
-0.060909193 0.0068629785 0.62413722
-0.055059277 0.0090686679 0.62518793
-0.059163678 0.010289341 0.62405819
-0.063028827 -0.011301836 0.62621713
-0.05720824 -0.011179097 0.62755626
-0.05720824 -0.011179097 0.62755626
-0.058926065 -0.0091662407 0.62687087
-0.049256504 0.003283456 0.62736028
-0.049015678 0.0091497153 0.62658507
-0.039527971 0.015811205 0.62785244
-0.041346855 0.017064035 0.62725103
-0.034868367 0.025000393 0.62763643
-0.065403946 -0.041378021 0.62992567
-0.056788519 -0.015187979 0.62822229
-0.053114198 -0.01527071 0.62909043
-0.048469573 -0.012895714 0.62983644
-0.048991855 -0.0052964091 0.62863767
-0.050170042 -0.0039607584 0.62817413
-0.041131824 0.0053073168 0.62896705
-0.035332024 0.0093331635 0.62974852
-0.03119156 0.021237209 0.62902653
-0.056607541 -0.028972616 0.63021779
-0.056607541 -0.028972616 0.63021779
-0.045925986 -0.022963017 0.63185585
-0.039182022 -0.012159914 0.63189685
-0.040842663 -0.0046873093 0.63045067
-0.035106387 -0.0047262311 0.63179314
-0.035106387 -0.0047262311 0.63179314
-0.034949504 0.00067172945 0.63106483
-0.031035997 0.0026987791 0.63169008
-0.034774657 0.0066874325 0.63025302
-0.024834994 0.018794537 0.63085401
-0.020922786 0.018898562 0.63175118
-0.056913655 -0.044717878 0.63237762
-0.055033363 -0.044842526 0.63283354
-0.056849591 -0.04331398 0.63219351
-0.041009992 -0.028706998 0.63381559
-0.036760077 -0.017018944 0.6331498
-0.029322617 -0.0068193525 0.63343805
-0.025214816 0.00068112463 0.63333249
-0.021100357 0.0088484287 0.63313407
-0.021028964 0.012888722 0.63257807
-0.016230745 0.024346113 0.63207281
-0.046553135 -0.039707065 0.63408238
-0.035274714 -0.033200324 0.63578898
-0.028815158 -0.013035819 0.63443732
-0.026831765 -0.013072588 0.63490456
-0.023302088 -0.0027414262 0.63426358
-0.040174443 -0.042945117 0.63602775
-0.021022577 -0.0252271 0.6379807
-0.015302147 -0.0069555342 0.63672531
-0.0090772212 -0.0013965964 0.63738841
-0.0090772212 -0.0013965964 0.63738841
-0.009030058 0.0048623011 0.6365124
-0.0013902161 0.016682595 0.63661802
0.00069533917 0.020840406 0.63651454
-0.012715288 -0.021192133 0.63934535
-0.012715288 -0.021192133 0.63934535
-0.0028173986 -0.0014086664 0.63884914
0.00070347096 0.0070279688 0.63847405
0.014871392 0.021243855 0.63976157
0.0093579991 0.022926023 0.63823813
-0.018462349 -0.03692469 0.64023513
-0.0014332709 -0.020065784 0.64181525
-0.0042577656 -0.012773275 0.64012343
-0.0028406773 -0.011362702 0.6402542
0.0071737738 -0.0071738064 0.64199436
0.0071737738 -0.0071738064 0.64199436
0.00094737828 -0.0052083037 0.64026493
0.007127048 0.00071229041 0.64086628
0.01719683 0.010747597 0.64179087
0.02279551 0.027069658 0.64078295
-0.008680026 -0.043400139 0.64343274
-0.0058026542 -0.042069256 0.6439147
-0.0050602774 -0.036873378 0.64335155
-0.0029005976 -0.036983043 0.64387071
-0.0050270627 -0.028730109 0.6422056
0.0086982138 -0.01739639 0.64379865
0.015156856 -0.0014434457 0.64304304
0.028925186 0.018801391 0.64338303
0.028821278 0.023057014 0.64275593
0.0029078792 -0.030532718 0.64431018
0.010958895 -0.023377448 0.64517313
0.013165237 -0.021211118 0.6453802
0.026404394 -0.0029338002 0.64587593
0.027083173 0.00073152781 0.64551437
0.032922011 0.010973334 0.64542413
0.0051484345 -0.041181549 0.6463418
0.0073625417 -0.039021909 0.64655161
0.0088258199 -0.035303295 0.64636594
0.016324833 -0.034133732 0.64794791
0.016959304 -0.025069192 0.64681107
0.019193295 -0.022884756 0.64702225
0.022888228 -0.016981475 0.64704692
0.025178611 -0.017033041 0.64758801
0.023490917 -0.0088090897 0.64602935
0.033143718 0.002946049 0.64661348
0.041348044 0.013290435 0.6470595
0.048985578 0.019297361 0.64798844
0.048985578 0.019297361 0.64798844
0.023043755 -0.025272936 0.64825809
0.038954571 -0.0089894831 0.64965922
0.037194878 -0.0029756129 0.64839691
0.037194878 -0.0029756129 0.64839691
0.043445751 -0.0014981329 0.64964432
0.043070253 0.0089111328 0.6480813
0.05249127 0.011997998 0.64984
0.046848357 0.013385028 0.64832813
0.058532439 0.021011651 0.64997053
0.039198529 -0.016584009 0.65079182
0.046985395 -0.010609597 0.65176022
0.043554138 -0.0045055747 0.65009546
0.046603881 -0.00075215101 0.65027463
0.052886713 0.0030221045 0.65120387
0.058642253 0.018795103 0.6503104
0.058642253 0.018795103 0.6503104
0.0391935 -0.033085089 0.6531294
0.0670591 0.015240699 0.6527757
0.07135424 0.02732715 0.65206409
0.07135424 0.02732715 0.65206409
0.046366621 -0.037093282 0.65536904
0.04957173 -0.034855619 0.65579903
0.04957173 -0.034855619 0.65579903
0.052655615 -0.029425174 0.65574807
0.052655615 -0.029425174 0.65574807
0.055488054 -0.018496007 0.65485966
0.056785274 -0.010743141 0.65406328
0.061384302 -0.0030691922 0.65404761
0.064725086 -0.0030821562 0.65482813
0.071033001 0.0046325922 0.65520501
0.072358482 0.010776788 0.6546433
0.07546559 0.015401185 0.65471232
0.051561922 -0.042968795 0.65741247
0.056794047 -0.034909867 0.65749002
0.064200051 -0.02505371 0.65781951
0.072050333 -0.012530535 0.6578747
0.069879502 -0.0046586096 0.65625304
0.062991321 -0.0346452 0.65889728
0.071400031 -0.030940548 0.66033185
0.077754632 -0.02062875 0.66035134
0.076913953 -0.035252213 0.66222781
-0.05532483 -0.0098797977 0.62781119
-0.057678778 0.0016865388 0.62562358
-0.045902632 0.026184572 0.62489665
-0.046360414 -0.021917157 0.63160634
-0.045918349 -0.0061565023 0.62947595
-0.041667644 -0.0018232754 0.62985283
-0.044868175 0.0052786469 0.62810022
-0.017818518 0.028243355 0.6311506
-0.053959072 -0.041913658 0.63266897
-0.049988456 -0.037748747 0.63300407
-0.046283629 -0.038260322 0.63394022
-0.033865929 -0.018131629 0.63398218
-0.033865929 -0.018131629 0.63398218
-0.034283832 -0.0098454226 0.63271046
-0.026088741 0.0057591945 0.63240921
-0.03639707 -0.03778442 0.636177
-0.014073353 -0.025554281 0.63964701
-0.014073353 -0.025554281 0.63964701
-0.017666547 -0.010138175 0.63662493
-0.012705434 0.0016162992 0.63611555
-0.0059230649 0.0059237983 0.63708591
-0.0021580183 -0.026265696 0.64252496
0.029975355 0.022027444 0.64317083
0.029975355 0.022027444 0.64317083
0.006023841 -0.03804218 0.64610064
0.0177768 -0.029379267 0.64761251
0.017814782 -0.021494268 0.64650393
0.014178753 -0.044772595 0.64895517
0.029661514 -0.038180992 0.65162975
0.021984942 -0.030181114 0.64870685
0.030221108 -0.018281901 0.64894032
0.038641751 0.00074265897 0.64820683
0.060687628 0.010620356 0.65194523
0.065853953 0.021950588 0.65154392
0.041918807 -0.026295342 0.65280235
0.061738648 -0.014128329 0.65569752
0.051160038 -0.0070915027 0.65223491
0.062357202 -0.0057750791 0.65465802
0.062073018 -0.029940128 0.65801603
0.070133433 -0.029002419 0.65976185
0.058321513 -0.025661603 0.65653563
0.077093884 -0.010227248 0.65872359
0.074057907 0.0015528699 0.6563468
0.070056476 -0.037814181 0.66099274
