# .PCD v0.7 - Point Cloud Data file format
VERSION 0.7
FIELDS x y z
SIZE 4 4 4
TYPE F F F
COUNT 1 1 1
WIDTH 1321
HEIGHT 1
VIEWPOINT 0 0 0 1 0 0 0
POINTS 1321
DATA ascii
-0.046231117 0.030820727 0.70132869
-0.046029042 0.028768152 0.70031232
-0.04582854 0.026733309 0.69930387
-0.045629963 0.024716228 0.69830513
-0.045432918 0.022716463 0.69731402
-0.045237742 0.020733953 0.6963324
-0.045044236 0.01876843 0.69535911
-0.044852205 0.016819596 0.69439328
-0.044661984 0.014887303 0.6934365
-0.04447319 0.012971371 0.692487
-0.044286158 0.011071563 0.69154632
-0.044100519 0.009187609 0.69061255
-0.043916605 0.0073194504 0.68968761
-0.043734215 0.005466789 0.68877023
-0.043553174 0.003629446 0.68785965
-0.043373782 0.0018072426 0.68695742
-0.043195702 -0 0.68606174
-0.043019239 -0.0017924309 0.68517417
-0.042844053 -0.0035703182 0.68429303
-0.042670444 -0.0053337514 0.68341988
-0.042498238 -0.0070830286 0.68255371
-0.042327262 -0.0088181496 0.68169379
-0.04215781 -0.010539442 0.68084157
-0.041989557 -0.012246937 0.6799953
-0.041822795 -0.01394093 0.67915654
-0.041657347 -0.015621483 0.67832434
-0.041493054 -0.017288774 0.67749804
-0.041330207 -0.018943012 0.67667902
-0.041168477 -0.020584255 0.67586553
-0.04100816 -0.022212744 0.6750592
-0.040848937 -0.023828566 0.67425841
-0.040691096 -0.025431961 0.67346454
-0.040534467 -0.027022958 0.67267674
-0.040378895 -0.028601676 0.67189425
-0.040224656 -0.030168504 0.6711185
-0.04007145 -0.031723201 0.67034793
-0.039919548 -0.033266306 0.66958392
-0.039768651 -0.034797579 0.66882503
-0.039619032 -0.036317408 0.66807246
-0.039470531 -0.037825942 0.66732556
-0.039323002 -0.039323002 0.66658354
-0.03917671 -0.040809065 0.66584784
-0.039031368 -0.042283952 0.66511679
-0.038887236 -0.043748111 0.66439176
-0.038744029 -0.045201361 0.66367155
-0.038602006 -0.046644092 0.66295719
-0.038461018 -0.048076272 0.66224813
-0.045035657 -0.058171034 0.69531596
-0.048266981 0.075548291 0.72212327
-0.048037231 0.07310012 0.72091746
-0.047809444 0.070674866 0.71972191
-0.04758402 0.06827271 0.71853888
-0.047360502 0.065892905 0.7173658
-0.04713928 0.063535541 0.71620476
-0.046920117 0.061200142 0.71505451
-0.046702776 0.058886111 0.71391386
-0.046487644 0.056593657 0.71278477
-0.046274282 0.054321975 0.71166503
-0.046063069 0.052071303 0.71055645
-0.045853771 0.049841076 0.70945799
-0.045646179 0.047630817 0.70836854
-0.045440648 0.045440644 0.70728987
-0.04523677 0.043269962 0.70621979
-0.0450349 0.04111886 0.70516032
-0.04483464 0.038986653 0.70410931
-0.044636335 0.036873519 0.70306855
-0.044439778 0.034778982 0.70203698
-0.044244759 0.032702655 0.70101345
-0.044051629 0.030644625 0.69999987
-0.04386 0.028604358 0.6989941
-0.043670207 0.026581854 0.69799805
-0.043481871 0.024576694 0.69700962
-0.043295328 0.022588879 0.69603056
-0.043110378 0.020617992 0.6950599
-0.042926833 0.018663853 0.69409662
-0.042745013 0.016726315 0.69314235
-0.042564556 0.014805079 0.6921953
-0.042385787 0.012900025 0.69125706
-0.042208511 0.011010915 0.69032663
-0.042032547 0.0091375113 0.68940318
-0.041858207 0.0072796941 0.68848819
-0.041685149 0.0054371953 0.68757987
-0.041513674 0.0036098957 0.6866799
-0.041343443 0.0017974973 0.68578655
-0.041174762 -0 0.68490124
-0.041007452 -0.0017829239 0.68402314
-0.040841341 -0.0035514235 0.68315136
-0.040676724 -0.0053056777 0.6822874
-0.040513277 -0.0070458055 0.68142962
-0.04035129 -0.0087720156 0.68057936
-0.04019044 -0.010484457 0.67973518
-0.04003102 -0.012183338 0.67889857
-0.039872859 -0.013868809 0.6780684
-0.039715793 -0.015540987 0.67724407
-0.039560106 -0.017200053 0.67642707
-0.039405491 -0.018846124 0.67561561
-0.039252225 -0.020479441 0.67481118
-0.039100002 -0.022100031 0.6740123
-0.038949098 -0.023708165 0.67322028
-0.038799353 -0.02530393 0.67243439
-0.038650617 -0.026887387 0.67165375
-0.038503155 -0.028458863 0.67087984
-0.038356677 -0.03001827 0.67011112
-0.038211443 -0.031565964 0.66934884
-0.038067173 -0.033101887 0.66859174
-0.037924122 -0.034626365 0.66784096
-0.03778214 -0.036139429 0.66709578
-0.037641086 -0.037641078 0.66635549
-0.037501212 -0.039131701 0.6656214
-0.037362244 -0.040611118 0.66489208
-0.037224431 -0.042079806 0.66416878
-0.03708763 -0.043537647 0.66345084
-0.03695171 -0.044984668 0.66273737
-0.036816902 -0.046421289 0.66202986
-0.036682952 -0.04784736 0.66132694
-0.041076571 -0.055364072 0.6843859
-0.046100248 0.077532232 0.72174925
-0.04588113 0.075078249 0.72054696
-0.045663889 0.072647095 0.71935499
-0.045448892 0.070239186 0.71817529
-0.045235712 0.06785357 0.71700561
-0.045024715 0.065490484 0.71584797
-0.044815682 0.063149422 0.714701
-0.044608392 0.06082961 0.71356362
-0.044403195 0.058531493 0.71243781
-0.044199694 0.056254178 0.71132112
-0.043998234 0.053997874 0.71021581
-0.043798599 0.051761985 0.70912039
-0.043600589 0.049546123 0.70803398
-0.043404538 0.047350436 0.70695829
-0.043210067 0.045174181 0.70589125
-0.043017507 0.043017536 0.7048347
-0.042826656 0.040880024 0.70378745
-0.042637315 0.038761228 0.70274866
-0.042449817 0.036661208 0.70171982
-0.042263784 0.034579486 0.70069915
-0.042079549 0.032516003 0.69968832
-0.041896746 0.030470371 0.69868523
-0.041715685 0.028442502 0.6976918
-0.041536186 0.026432127 0.69670689
-0.041358061 0.024438858 0.69572955
-0.041181624 0.022462726 0.69476151
-0.041006517 0.020503253 0.69380069
-0.040833056 0.018560469 0.69284892
-0.040660899 0.016634017 0.69190431
-0.040490344 0.014723748 0.69096851
-0.040321216 0.012829512 0.69004059
-0.040153336 0.010950893 0.68911946
-0.039987005 0.0090879798 0.68820679
-0.039821893 0.007240355 0.68730086
-0.039658289 0.0054079294 0.68640316
-0.039495878 0.003590554 0.68551201
-0.039334934 0.0017879605 0.68462896
-0.039175302 -0 0.68375307
-0.039016809 -0.0017734766 0.68288344
-0.038859744 -0.0035327077 0.68202168
-0.038703788 -0.0052778125 0.68116599
-0.03854923 -0.0070089698 0.68031794
-0.038395893 -0.0087263286 0.67947662
-0.038243636 -0.010430068 0.6786412
-0.038092718 -0.012120396 0.67781311
-0.037942849 -0.013797402 0.67699081
-0.037794292 -0.015461266 0.67617571
-0.037646759 -0.017112136 0.67536616
-0.037500508 -0.018750221 0.67456371
-0.037355389 -0.020375669 0.67376751
-0.037211254 -0.021988451 0.67297661
-0.037068363 -0.023588955 0.67219263
-0.03692643 -0.025177091 0.6714139
-0.036785711 -0.026753217 0.67064178
-0.03664593 -0.028317302 0.66987479
-0.036507338 -0.029869616 0.66911435
-0.036369789 -0.031410247 0.66835964
-0.036233146 -0.032939196 0.66760993
-0.036097653 -0.034456849 0.66686648
-0.035963044 -0.035963029 0.66612786
-0.035829559 -0.037458152 0.6653955
-0.035696935 -0.038942099 0.66466784
-0.035565417 -0.040415257 0.66394621
-0.035434861 -0.041877568 0.66322982
-0.035305142 -0.04332906 0.66251808
-0.035176486 -0.044770062 0.66181219
-0.035048649 -0.046200484 0.66111076
-0.034921851 -0.047620684 0.66041505
-0.037481986 -0.052815527 0.67446214
-0.049385522 -0.071833462 0.739775
-0.043731358 0.077050477 0.72017753
-0.043524593 0.074613631 0.71898907
-0.043319967 0.072199941 0.71781284
-0.043117255 0.06980893 0.71664762
-0.042916249 0.067439854 0.71549213
-0.042717289 0.065093011 0.71434855
-0.042519983 0.062767595 0.7132144
-0.042324673 0.060463816 0.7120918
-0.042130969 0.058180869 0.71097827
-0.04193921 0.055918932 0.70987606
-0.041749187 0.053677559 0.70878375
-0.041560702 0.051456094 0.70770037
-0.041374084 0.049254894 0.70662761
-0.041188966 0.047073096 0.70556355
-0.041005664 0.044910997 0.70450997
-0.040823989 0.042767972 0.70346558
-0.040643748 0.040643781 0.70242959
-0.040465258 0.038538367 0.70140362
-0.040288165 0.036451191 0.70038569
-0.040112779 0.034382403 0.69937748
-0.039938752 0.032331347 0.69837713
-0.039766382 0.030298203 0.69738638
-0.0395955 0.028282493 0.6964041
-0.039425921 0.02628395 0.69542933
-0.039257947 0.024302572 0.69446385
-0.039091241 0.022337884 0.69350553
-0.038926098 0.020389885 0.69255632
-0.038762346 0.018458277 0.69161505
-0.038599815 0.016542822 0.69068074
-0.03843879 0.014643341 0.68975514
-0.038278952 0.012759686 0.68883646
-0.03812059 0.010891587 0.68792617
-0.037963383 0.0090388954 0.68702251
-0.037807614 0.007201463 0.68612713
-0.037653118 0.0053790212 0.68523902
-0.037499737 0.0035713911 0.6843574
-0.037347741 0.0017784834 0.68348372
-0.037196834 -0 0.68261629
-0.037047278 -0.0017641783 0.68175662
-0.036898784 -0.0035141408 0.68090302
-0.036751609 -0.0052502453 0.68005705
-0.036605608 -0.0069724917 0.67921782
-0.036460623 -0.0086811185 0.67838442
-0.03631692 -0.010376245 0.67755842
-0.036174212 -0.012058079 0.67673808
-0.036032751 -0.013726771 0.67592496
-0.035892263 -0.015382409 0.67511743
-0.035752993 -0.017025203 0.67431688
-0.035614803 -0.01865533 0.67352253
-0.035477549 -0.020272881 0.6727336
-0.035341471 -0.021878034 0.67195141
-0.035206314 -0.023470879 0.67117447
-0.035072308 -0.025051624 0.6704042
-0.034939196 -0.026620328 0.66963911
-0.034807213 -0.028177261 0.6688804
-0.03467622 -0.029722482 0.66812748
-0.034546092 -0.03125599 0.66737944
-0.034417056 -0.032778144 0.66663778
-0.034288861 -0.034288853 0.66590095
-0.034161735 -0.035788476 0.66517013
-0.034035549 -0.037277043 0.6644448
-0.033910178 -0.038754463 0.66372412
-0.033785839 -0.040221214 0.66300941
-0.033662297 -0.041677117 0.66229928
-0.033539765 -0.04312253 0.66159499
-0.033418011 -0.044557333 0.66089511
-0.033297252 -0.045981884 0.66020095
-0.033177357 -0.047396213 0.6595118
-0.034203887 -0.050491452 0.66541243
-0.04444506 -0.067725807 0.72428
-0.04139154 0.076574355 0.71862423
-0.041197229 0.074155003 0.71745133
-0.041004729 0.0717583 0.71628958
-0.040813841 0.069383532 0.71513748
-0.040624902 0.067031115 0.71399707
-0.040437527 0.064700037 0.71286619
-0.040252045 0.062390685 0.71174669
-0.040068086 0.060102165 0.71063644
-0.039885972 0.057834685 0.70953727
-0.039705504 0.055587739 0.70844805
-0.039526496 0.05336076 0.7073676
-0.039349262 0.051154047 0.70629799
-0.039173443 0.048966795 0.70523679
-0.038999353 0.046799242 0.70418596
-0.038826801 0.044650823 0.70314461
-0.038655613 0.042521179 0.70211142
-0.038486082 0.040410399 0.70108819
-0.038317878 0.038317889 0.700073
-0.038151294 0.036243767 0.69906753
-0.037986148 0.034187526 0.69807082
-0.037822276 0.032148898 0.6970818
-0.037659965 0.030127972 0.69610214
-0.037498888 0.028124154 0.69512999
-0.037339333 0.026137531 0.69416696
-0.037180983 0.024167627 0.6932112
-0.037024114 0.022214472 0.69226444
-0.036868565 0.020277709 0.6913256
-0.036714174 0.018357098 0.69039381
-0.036561213 0.016452551 0.68947059
-0.036409378 0.014563739 0.68855417
-0.036258943 0.012690604 0.68764621
-0.036109604 0.010832876 0.68674487
-0.035961628 0.008990407 0.68585175
-0.035814859 0.0071629286 0.68496597
-0.035669152 0.0053504109 0.6840865
-0.035524756 0.0035524666 0.68321502
-0.035381395 0.0017690659 0.68234968
-0.035239313 -2.9802322e-08 0.68149221
-0.03509824 -0.0017549098 0.68064076
-0.034958422 -0.0034958124 0.67979687
-0.034819715 -0.0052229166 0.67895961
-0.034681972 -0.0069364011 0.67812836
-0.034545444 -0.0086363554 0.67730427
-0.034409862 -0.010322958 0.67648602
-0.034275465 -0.011996388 0.67567486
-0.03414211 -0.013656825 0.67487001
-0.034009669 -0.015304327 0.6740706
-0.033878371 -0.016939193 0.67327821
-0.033747964 -0.018561393 0.67249107
-0.033618677 -0.020171195 0.67171079
-0.033490259 -0.02176863 0.67093569
-0.033362936 -0.023354053 0.67016727
-0.033236574 -0.024927408 0.66940463
-0.033111051 -0.026488811 0.66864699
-0.032986589 -0.028038591 0.66789579
-0.032862946 -0.029576629 0.66714954
-0.03274034 -0.031103283 0.66640949
-0.03261853 -0.032618523 0.66567433
-0.032497734 -0.034122646 0.6649453
-0.032377832 -0.035615593 0.66422164
-0.032258701 -0.037097514 0.66350263
-0.032140553 -0.038568676 0.66278952
-0.032023158 -0.04002893 0.66208094
-0.031906724 -0.041478723 0.6613782
-0.031791028 -0.042917877 0.66067994
-0.031676274 -0.04434678 0.65998733
-0.031562347 -0.04576543 0.65929979
-0.031449128 -0.047173679 0.65861642
-0.031336829 -0.048572063 0.6579386
-0.040038891 -0.064062208 0.71046019
-0.039080638 0.076104403 0.71709096
-0.038898293 0.073702037 0.71593249
-0.038717475 0.071321666 0.71478373
-0.038538493 0.068963617 0.71364665
-0.038360994 0.066626996 0.71251893
-0.038185287 0.064312071 0.71140265
-0.038011182 0.062018275 0.71029651
-0.037838496 0.059744984 0.70919943
-0.037667535 0.057492554 0.70811325
-0.037497949 0.055260152 0.70703584
-0.037330043 0.053047955 0.7059691
-0.037163477 0.050855249 0.70491087
-0.036998548 0.048682302 0.70386308
-0.036835071 0.046528518 0.70282441
-0.036672883 0.044393539 0.70179403
-0.036512271 0.042277366 0.7007736
-0.036352906 0.040179521 0.69976115
-0.036195073 0.038100094 0.69875842
-0.036038611 0.036038637 0.6977644
-0.035883345 0.033994734 0.69677794
-0.035729557 0.031968534 0.6958009
-0.03557694 0.029959559 0.69483125
-0.03542576 0.027967721 0.69387078
-0.03527572 0.025992632 0.69291759
-0.035127085 0.024034351 0.69197333
-0.034979697 0.022092432 0.69103694
-0.034833405 0.020166725 0.69010752
-0.034688465 0.018257082 0.68918669
-0.034544595 0.016363263 0.6882726
-0.034402046 0.014485091 0.68736696
-0.034260668 0.012622356 0.68646878
-0.034120314 0.010774851 0.68557709
-0.033981238 0.0089424253 0.68469352
-0.03384316 0.007124871 0.68381625
-0.03370633 0.0053220689 0.68294692
-0.033570476 0.003533721 0.68208385
-0.033435836 0.0017597973 0.68122846
-0.03330227 -0 0.68037987
-0.033169646 -0.0017457604 0.6795373
-0.033038195 -0.0034776926 0.67870218
-0.032907661 -0.0051959455 0.6778729
-0.032778274 -0.0069006681 0.67705089
-0.032649785 -0.0085920393 0.67623454
-0.032522414 -0.010270238 0.67542529
-0.032396033 -0.011935383 0.67462236
-0.032270517 -0.013587594 0.67382497
-0.032146081 -0.015227079 0.67303443
-0.032022491 -0.016853958 0.6722492
-0.031899959 -0.01846841 0.67147076
-0.031778246 -0.020070463 0.67069751
-0.031657573 -0.021660417 0.66993082
-0.031537812 -0.023238391 0.66916996
-0.031418845 -0.024804324 0.66841412
-0.03130088 -0.026358634 0.66766465
-0.03118369 -0.027901202 0.66692019
-0.031067483 -0.029432356 0.66618186
-0.030952029 -0.030952066 0.66544837
-0.03083754 -0.03246057 0.66472095
-0.03072389 -0.033957988 0.66399896
-0.030610973 -0.03544426 0.66328156
-0.030498985 -0.036919832 0.66257012
-0.030387713 -0.038384438 0.66186315
-0.030277351 -0.039838612 0.66116202
-0.030167788 -0.041282207 0.66046596
-0.030058913 -0.042715281 0.65977418
-0.029950922 -0.044138193 0.65908813
-0.029843604 -0.045550764 0.65840632
-0.029737152 -0.04695341 0.65773004
-0.02963136 -0.048345894 0.65705788
-0.036085103 -0.060774893 0.6980598
-0.036797926 0.075640172 0.71557653
-0.036627118 0.073254228 0.71443105
-0.036458042 0.070890605 0.71329719
-0.036290362 0.068548441 0.71217275
-0.036124375 0.066228062 0.71105957
-0.035959899 0.063928753 0.70995653
-0.035796762 0.061650008 0.70886254
-0.035635248 0.059392095 0.70777941
-0.035475038 0.057154238 0.70670497
-0.035316408 0.054936647 0.70564127
-0.035159189 0.052738786 0.70458692
-0.035003223 0.050560236 0.70354092
-0.034848776 0.048401088 0.70250517
-0.034695543 0.046260774 0.70147753
-0.034543794 0.044139296 0.70045996
-0.034393363 0.042036325 0.69945109
-0.034244101 0.039951473 0.69845015
-0.034096267 0.037884742 0.69745874
-0.033949569 0.035835654 0.69647497
-0.033804256 0.033804268 0.69550049
-0.033660054 0.031790048 0.69453347
-0.033517208 0.029793084 0.6935755
-0.033375569 0.027812988 0.69262564
-0.033234991 0.025849432 0.69168293
-0.033095725 0.023902446 0.69074899
-0.032957491 0.021971703 0.68982196
-0.032820534 0.020056993 0.68890351
-0.03268471 0.018158197 0.68799263
-0.03254988 0.016274959 0.68708849
-0.032416284 0.014407247 0.68619251
-0.032283656 0.012554765 0.68530309
-0.032152228 0.010717452 0.68442178
-0.03202175 0.0088949502 0.68354672
-0.031892445 0.0070872307 0.68267959
-0.031764179 0.0052940547 0.68181938
-0.031636823 0.0035151839 0.68096536
-0.031510599 0.0017505884 0.68011892
-0.031385265 -0 0.67927837
-0.031261038 -0.0017367005 0.67844534
-0.031137677 -0.0034597516 0.67761803
-0.031015398 -0.0051692128 0.67679799
-0.030894078 -0.0068653524 0.67598438
-0.030773589 -0.0085482001 0.67517638
-0.030654149 -0.010218054 0.67437541
-0.030535521 -0.011874944 0.67357987
-0.030417917 -0.013519078 0.67279118
-0.030301109 -0.015150547 0.67200786
-0.030185299 -0.016769588 0.67123127
-0.030070374 -0.01837638 0.67046058
-0.029956214 -0.019970804 0.66969496
-0.029843021 -0.021553308 0.66893589
-0.029730577 -0.023123771 0.66818178
-0.029619081 -0.024682522 0.6674341
-0.029508317 -0.02622962 0.6666913
-0.029398479 -0.027765214 0.66595471
-0.029289454 -0.029289454 0.6652236
-0.029181134 -0.03080231 0.6644972
-0.029073715 -0.032304108 0.66377676
-0.028966984 -0.03379482 0.66306102
-0.028861132 -0.035274714 0.66235119
-0.028756049 -0.03674382 0.66164649
-0.028651632 -0.038202196 0.66094625
-0.028548069 -0.039650112 0.66025174
-0.028445154 -0.041087449 0.65956151
-0.028343074 -0.042514622 0.65887702
-0.028241631 -0.043931425 0.65819669
-0.028141001 -0.045338273 0.65752184
-0.028041089 -0.046735168 0.65685189
-0.027941793 -0.048121959 0.65618593
-0.03251728 -0.057808489 0.68686986
-0.034703605 0.077572763 0.71522152
-0.034542747 0.075181276 0.71407932
-0.03438352 0.07281214 0.71294874
-0.034225754 0.07046479 0.71182847
-0.034069285 0.068138599 0.71071744
-0.033914384 0.065833807 0.70961756
-0.033760741 0.063549638 0.70852661
-0.033608627 0.06128633 0.70744652
-0.033457737 0.05904308 0.70637506
-0.033308335 0.056820124 0.70531422
-0.033160258 0.054616928 0.70426279
-0.033013362 0.052433014 0.70321971
-0.03286789 0.050268561 0.70218682
-0.032723565 0.048122883 0.70116204
-0.032580633 0.045996219 0.70014703
-0.032438945 0.043888003 0.69914103
-0.032298353 0.041797876 0.69814271
-0.032159105 0.039725959 0.69715393
-0.032020919 0.037671715 0.69617271
-0.031884048 0.035635084 0.69520092
-0.03174834 0.033615947 0.69423729
-0.031613659 0.031613708 0.69328094
-0.031480238 0.029628485 0.69233358
-0.031347815 0.027659863 0.69139332
-0.031216627 0.025707811 0.69046175
-0.031086411 0.023771942 0.68953717
-0.030957393 0.021852285 0.68862104
-0.030829443 0.019948483 0.68771255
-0.030702431 0.018060237 0.68681067
-0.030576574 0.016187578 0.68591702
-0.030451633 0.014330208 0.6850298
-0.030327819 0.012487918 0.6841507
-0.0302049 0.010660589 0.68327785
-0.030083079 0.0088479221 0.68241292
-0.029962242 0.007049948 0.68155485
-0.029842259 0.0052663088 0.68070292
-0.029723343 0.0034968853 0.67985851
-0.029605264 0.0017414987 0.67902005
-0.029488225 -0 0.67818904
-0.029372001 -0.0017277598 0.67736375
-0.029256796 -0.0034419596 0.6765458
-0.029142493 -0.005142808 0.6757341
-0.029028973 -0.0068303347 0.67492807
-0.028916439 -0.0085048079 0.67412895
-0.028804669 -0.010166317 0.67333537
-0.028693864 -0.011815101 0.67254853
-0.028583908 -0.013451248 0.67176783
-0.028474689 -0.015074849 0.67099226
-0.028366406 -0.016686112 0.67022341
-0.028258841 -0.018285096 0.66945958
-0.028152186 -0.019872099 0.6687023
-0.028046237 -0.021447122 0.66795003
-0.027941179 -0.023010373 0.66720402
-0.027836904 -0.024562001 0.66646367
-0.027733311 -0.026101947 0.66572809
-0.027630581 -0.027630597 0.66499853
-0.027528513 -0.029147834 0.66427386
-0.027427291 -0.030654043 0.66355515
-0.027326718 -0.032149047 0.66284096
-0.027226971 -0.033633322 0.66213274
-0.027127951 -0.035106778 0.66142964
-0.027029555 -0.036569417 0.66073096
-0.026931964 -0.038021624 0.66003799
-0.026834983 -0.039463222 0.65934938
-0.026738791 -0.040894628 0.65866631
-0.026643192 -0.042315632 0.65798748
-0.026548365 -0.043726712 0.65731418
-0.02645421 -0.045127779 0.65664566
-0.026360635 -0.046518773 0.65598118
-0.026267806 -0.047900081 0.65532202
-0.029281538 -0.055118173 0.67672145
-0.032464337 0.07710281 0.71372861
-0.032314904 0.074728251 0.71260118
-0.032166839 0.072375417 0.71148419
-0.032019991 0.070043683 0.71037632
-0.031874612 0.067733556 0.70927948
-0.03173041 0.065443963 0.70819157
-0.031587642 0.063175291 0.70711446
-0.031446151 0.060926944 0.706047
-0.031305797 0.058698356 0.70498812
-0.031166818 0.056489855 0.70393962
-0.031028936 0.054300666 0.70289934
-0.030892396 0.052130908 0.70186925
-0.03075693 0.049980044 0.70084721
-0.030622767 0.047848076 0.69983506
-0.030489773 0.045734644 0.69883168
-0.030357804 0.043639362 0.6978361
-0.030227097 0.041562259 0.69684994
-0.03009739 0.039502829 0.69587135
-0.029968908 0.037461162 0.69490206
-0.02984152 0.035436839 0.693941
-0.029715093 0.033429474 0.6929872
-0.029589849 0.031439245 0.69204223
-0.029465541 0.029465556 0.69110441
-0.029342389 0.027508527 0.69017535
-0.029220145 0.025567621 0.68925309
-0.029099029 0.023642957 0.68833935
-0.028978914 0.021734208 0.68743312
-0.028859677 0.019841045 0.68653357
-0.028741524 0.017963469 0.68564218
-0.028624229 0.016101152 0.68475723
-0.028507993 0.014254034 0.68388033
-0.028392697 0.012421817 0.68301052
-0.028278224 0.010604352 0.68214685
-0.028164778 0.0088014603 0.68129098
-0.028052133 0.0070130229 0.68044114
-0.027940486 0.0052388608 0.67959881
-0.027829627 0.0034787059 0.67876244
-0.027719742 0.0017325282 0.67793339
-0.027610723 -0 0.67711091
-0.027502457 -0.0017189085 0.67629409
-0.027395135 -0.0034243762 0.67548448
-0.027288551 -0.0051166117 0.67468035
-0.02718289 -0.0067957342 0.6738832
-0.027077947 -0.0084618628 0.67309147
-0.026973907 -0.010115206 0.67230654
-0.026870664 -0.011755884 0.67152762
-0.026768114 -0.013384074 0.67075396
-0.026666438 -0.014999866 0.66998684
-0.026565436 -0.01660338 0.66922486
-0.026465291 -0.018194914 0.66846931
-0.026365805 -0.019774348 0.66771877
-0.026267158 -0.021342069 0.66697448
-0.026169244 -0.022898078 0.6662358
-0.026071968 -0.024442464 0.66550195
-0.025975499 -0.025975525 0.66477418
-0.025879657 -0.027497113 0.664051
-0.025784606 -0.029007703 0.66333395
-0.025690163 -0.030507088 0.66262144
-0.025596496 -0.031995595 0.66191471
-0.025503511 -0.033473372 0.66121328
-0.025411112 -0.034940302 0.66051614
-0.025319465 -0.036396712 0.65982473
-0.025228394 -0.037842572 0.65913761
-0.025138058 -0.039278209 0.65845615
-0.025048368 -0.040703595 0.65777946
-0.024959229 -0.042118669 0.657107
-0.024870809 -0.043523878 0.6564399
-0.02478293 -0.044919044 0.65577686
-0.024695752 -0.046304524 0.65511918
-0.024609104 -0.047680169 0.6544655
-0.026333667 -0.05266735 0.6674763
-0.034326263 -0.07079789 0.72777575
-0.030252166 0.076638848 0.71225476
-0.030113749 0.07428059 0.71114087
-0.029976469 0.071943521 0.7100361
-0.029840557 0.06962797 0.70894235
-0.029705748 0.067333043 0.70785755
-0.029572276 0.065058976 0.70678335
-0.029439997 0.062805325 0.70571887
-0.029308775 0.060571492 0.70466292
-0.029178837 0.058357716 0.70361727
-0.029049927 0.056163222 0.70257986
-0.028922273 0.053988248 0.70155257
-0.028795615 0.051832139 0.70053333
-0.028670179 0.049694985 0.69952393
-0.028545829 0.047576398 0.69852322
-0.028422441 0.04547593 0.69753027
-0.028300228 0.043393731 0.69654673
-0.028178949 0.041329116 0.69557083
-0.028058818 0.039282352 0.69460404
-0.027939703 0.037252933 0.69364548
-0.027821489 0.035240561 0.69269419
-0.02770438 0.033245265 0.69175172
-0.027588144 0.0312666 0.69081634
-0.027472984 0.029304534 0.68988961
-0.027358783 0.027358741 0.68897063
-0.027245423 0.02542904 0.68805838
-0.027133103 0.023515403 0.68715447
-0.027021602 0.021617293 0.68625712
-0.026911113 0.01973483 0.68536806
-0.026801426 0.017867595 0.68448532
-0.026692729 0.016015619 0.68361062
-0.026584912 0.014178634 0.68274295
-0.02647786 0.012356371 0.68188143
-0.026371766 0.010548741 0.68102771
-0.026266422 0.0087554753 0.68017995
-0.026162012 0.0069765449 0.67933977
-0.026058335 0.0052116811 0.67850542
-0.025955569 0.0034607649 0.67767841
-0.025853613 0.0017235577 0.67685795
-0.025752358 -0 0.67604309
-0.025651991 -0.0017101467 0.67523539
-0.025552306 -0.0034069717 0.67443317
-0.025453487 -0.0050907135 0.67363793
-0.025355337 -0.0067614019 0.67284811
-0.025258033 -0.0084193647 0.67206508
-0.025161469 -0.010064572 0.67128801
-0.025065556 -0.011697263 0.67051619
-0.024970459 -0.013317585 0.66975087
-0.024875991 -0.014925599 0.66899061
-0.024782324 -0.016521573 0.66823691
-0.02468936 -0.018105537 0.66748875
-0.024597006 -0.019677609 0.66674548
-0.024505422 -0.021238029 0.66600859
-0.024414435 -0.022786796 0.66527629
-0.024324205 -0.024324208 0.66455019
-0.024234558 -0.025850207 0.66382879
-0.024145648 -0.027365059 0.6631133
-0.02405739 -0.028868884 0.66240305
-0.023969695 -0.030361623 0.66169733
-0.023882715 -0.031843573 0.66099739
-0.023796286 -0.033314764 0.6603018
-0.023710558 -0.034775466 0.65961194
-0.02362537 -0.036225528 0.65892637
-0.023540867 -0.037665397 0.6582464
-0.023456967 -0.039094955 0.6575712
-0.023373585 -0.040514231 0.65690023
-0.023290871 -0.041923583 0.65623462
-0.023208667 -0.043322861 0.65557301
-0.023127113 -0.044712424 0.65491676
-0.023046056 -0.046092123 0.65426445
-0.022965638 -0.047462344 0.65361732
-0.023636714 -0.050424963 0.65901768
-0.030417552 -0.066918612 0.71358573
-0.02806646 0.076180398 0.7107985
-0.02793869 0.073837996 0.70969689
-0.027812198 0.07151711 0.70860618
-0.027686726 0.069216818 0.70752436
-0.027562497 0.066937476 0.70645326
-0.02743938 0.06467855 0.70539171
-0.027317245 0.062439412 0.70433861
-0.027196301 0.060220391 0.70329583
-0.027076317 0.058020681 0.70226133
-0.026957491 0.055840552 0.70123678
-0.026839709 0.053679436 0.70022118
-0.026722841 0.051536918 0.69921356
-0.026607094 0.049413174 0.69821554
-0.02649224 0.047307581 0.69722527
-0.026378477 0.045220256 0.69624436
-0.026265582 0.043150604 0.69527102
-0.026153754 0.041098773 0.69430679
-0.026042875 0.039064318 0.69335079
-0.025932828 0.03704688 0.69240195
-0.025823809 0.035046607 0.69146198
-0.025715604 0.033062905 0.69052899
-0.025608402 0.031095922 0.6896047
-0.025502089 0.029145241 0.68868798
-0.025396556 0.027210593 0.68777806
-0.02529199 0.025291979 0.68687654
-0.025188187 0.023389071 0.68598145
-0.025085326 0.02150172 0.68509459
-0.024983209 0.019629657 0.68421412
-0.024882013 0.017772853 0.68334162
-0.024781631 0.01593104 0.6824761
-0.024681969 0.014104009 0.68161678
-0.024583191 0.01229161 0.68076509
-0.024485113 0.010493636 0.67991948
-0.024387905 0.0087099671 0.67908132
-0.024291465 0.0069403946 0.67824978
-0.024195695 0.0051848292 0.67742407
-0.024100767 0.0034429431 0.67660558
-0.024006492 0.001714766 0.67579269
-0.023913039 -0 0.6749869
-0.023820225 -0.0017014444 0.67418671
-0.023728214 -0.0033897161 0.67339331
-0.023636911 -0.0050650239 0.67260611
-0.023546224 -0.0067274868 0.67182416
-0.023456315 -0.008377254 0.67104894
-0.023367003 -0.010014445 0.67027891
-0.023278456 -0.011639237 0.66951543
-0.023190493 -0.013251692 0.66875696
-0.023103273 -0.014852136 0.66800499
-0.023016706 -0.016440481 0.66725862
-0.022930708 -0.018016934 0.66651702
-0.022845428 -0.019581765 0.66578174
-0.0227607 -0.021134913 0.66505122
-0.022676678 -0.022676706 0.66432679
-0.022593198 -0.024206996 0.663607
-0.022510406 -0.025726169 0.66289318
-0.022428216 -0.027234256 0.66218448
-0.022346551 -0.028731227 0.66148037
-0.022265553 -0.030217528 0.66078198
-0.022185067 -0.031692952 0.660088
-0.022105234 -0.033157855 0.65939969
-0.022025898 -0.034612119 0.65871561
-0.021947205 -0.036056101 0.65803707
-0.021869071 -0.037489802 0.65736341
-0.021791417 -0.03891325 0.65669388
-0.021714389 -0.040326715 0.6560297
-0.021637827 -0.041730106 0.65536964
-0.021561878 -0.043123722 0.6547147
-0.021486459 -0.044507623 0.65406448
-0.021411497 -0.045881778 0.65341812
-0.021337124 -0.047246516 0.6527769
-0.021263199 -0.048601627 0.65213948
-0.026915051 -0.063442618 0.70087087
-0.025906641 0.075727105 0.70935857
-0.025789509 0.073400885 0.70827097
-0.025673326 0.071095377 0.70719212
-0.025558291 0.068810791 0.70612407
-0.025444284 0.066546559 0.70506543
-0.025331181 0.064302236 0.70401525
-0.025219187 0.062077999 0.70297527
-0.025108075 0.059873104 0.70194352
-0.024998039 0.057687789 0.70092183
-0.024888964 0.055521548 0.69990897
-0.024780735 0.053373903 0.69890404
-0.024673544 0.051245093 0.69790876
-0.024567178 0.049134344 0.69692111
-0.024461821 0.047041982 0.69594282
-0.024357365 0.044967413 0.69497293
-0.024253702 0.042910397 0.69401032
-0.02415101 0.040870965 0.69305682
-0.024049092 0.038848549 0.69211048
-0.023948124 0.03684327 0.69117296
-0.023847908 0.034854621 0.69024241
-0.023748619 0.03288272 0.68932045
-0.023650151 0.030927151 0.68840611
-0.023552408 0.028987586 0.68749851
-0.023455558 0.027064115 0.68659925
-0.023359414 0.025156289 0.6857065
-0.023264144 0.02326414 0.68482184
-0.023169644 0.021387368 0.6839444
-0.023075825 0.019525737 0.68307328
-0.022982849 0.017679125 0.68220991
-0.022890532 0.015847296 0.68135273
-0.022799041 0.014030188 0.68050313
-0.022708192 0.012227476 0.67965961
-0.022618147 0.010439128 0.67882347
-0.022528814 0.0086649358 0.67799401
-0.022440104 0.0069046617 0.67717028
-0.022352168 0.0051582158 0.67635375
-0.02226484 0.0034253597 0.67554289
-0.02217827 0.0017060339 0.674739
-0.022092294 2.9802322e-08 0.67394072
-0.022007059 -0.0016928315 0.67314923
-0.021922478 -0.0033726692 0.67236394
-0.021838469 -0.0050396323 0.67158383
-0.021755178 -0.0066938698 0.6708104
-0.021672441 -0.0083355606 0.67004222
-0.021590412 -0.0099647939 0.66928053
-0.021508997 -0.011581779 0.66852456
-0.021428119 -0.013186544 0.6677736
-0.021347923 -0.014779299 0.6670289
-0.021268252 -0.016360193 0.66628909
-0.021189244 -0.017929345 0.66555554
-0.021110751 -0.019486815 0.66482663
-0.021032909 -0.021032929 0.66410387
-0.020955637 -0.02256763 0.6633864
-0.020878863 -0.024090976 0.66267347
-0.020802718 -0.025603354 0.66196644
-0.020727055 -0.027104586 0.66126388
-0.020652011 -0.02859509 0.66056705
-0.02057744 -0.030074716 0.65987468
-0.020503474 -0.031543791 0.65918785
-0.020430038 -0.033002377 0.65850592
-0.020357057 -0.034450412 0.65782827
-0.020284664 -0.035888255 0.65715611
-0.020212717 -0.037315816 0.65648806
-0.020141346 -0.038733333 0.65582532
-0.020070411 -0.040140837 0.65516669
-0.020000039 -0.041538537 0.65451318
-0.019930158 -0.04292649 0.65386438
-0.0198607 -0.044304609 0.6532194
-0.019791787 -0.04567337 0.65257955
-0.019723289 -0.047032446 0.65194345
-0.019655326 -0.048382342 0.65131241
-0.023758445 -0.060309857 0.68941164
-0.023880284 0.07761091 0.70902121
-0.023772467 0.075279504 0.7079367
-0.023665521 0.072968692 0.7068609
-0.02355963 0.07067889 0.70579571
-0.023454679 0.068409503 0.70473999
-0.023350568 0.066159934 0.70369267
-0.023247469 0.063930541 0.70265561
-0.023145184 0.06172049 0.70162666
-0.023043886 0.05953002 0.70060778
-0.022943472 0.057358682 0.69959766
-0.02284384 0.055205941 0.6985954
-0.022745159 0.053072065 0.69760275
-0.022647236 0.050956279 0.69661766
-0.022550242 0.048858881 0.69564205
-0.022454074 0.046779305 0.69467467
-0.022358635 0.044717282 0.69371462
-0.022264095 0.042672873 0.69276363
-0.022170262 0.04064548 0.69181973
-0.022077302 0.038635314 0.69088465
-0.021985034 0.036641717 0.68995649
-0.021893617 0.034664899 0.68903697
-0.02180296 0.032704443 0.68812495
-0.021712964 0.03076005 0.68721974
-0.021623794 0.02883172 0.68632269
-0.021535268 0.026919097 0.6854322
-0.021447547 0.025022149 0.68454981
-0.021360539 0.023140579 0.68367451
-0.021274151 0.02127412 0.68280554
-0.02118854 0.019422829 0.68194437
-0.021103537 0.017586261 0.68108934
-0.021019291 0.015764445 0.68024182
-0.020935716 0.013957113 0.67940116
-0.020852724 0.012164086 0.67856634
-0.020770464 0.010385245 0.67773879
-0.020688776 0.0086203218 0.67691708
-0.020607801 0.0068692863 0.67610264
-0.020527385 0.0051318705 0.67529368
-0.020447668 0.0034079552 0.67449176
-0.020368569 0.0016973913 0.6736961
-0.020290004 2.9802322e-08 0.6729058
-0.020212116 -0.0016843081 0.6721223
-0.020134751 -0.0033557713 0.67134404
-0.020058049 -0.005014509 0.67057252
-0.019981857 -0.0066606104 0.66980612
-0.019906312 -0.0082943141 0.66904616
-0.019831337 -0.0099156797 0.66829193
-0.019756855 -0.011524856 0.66754276
-0.019683 -0.013121992 0.66679978
-0.019609626 -0.014707237 0.66606176
-0.019536864 -0.016280711 0.66532981
-0.019464573 -0.017842531 0.66460264
-0.019392883 -0.019392878 0.66388142
-0.019321717 -0.02093184 0.66316563
-0.019251009 -0.022459507 0.66245431
-0.019180879 -0.023976088 0.66174889
-0.019111196 -0.025481582 0.66104788
-0.019042078 -0.026976287 0.66035259
-0.018973397 -0.028460085 0.65966177
-0.018905273 -0.029933304 0.65897644
-0.018837634 -0.031396031 0.65829611
-0.018770417 -0.032848239 0.65761995
-0.01870374 -0.034290195 0.65694922
-0.018637473 -0.035721809 0.6562826
-0.018571736 -0.037143469 0.65562135
-0.01850646 -0.038555086 0.65496469
-0.01844158 -0.039956748 0.65431207
-0.018377215 -0.041348696 0.65366459
-0.018313238 -0.042730898 0.6530211
-0.018249763 -0.044103593 0.65238255
-0.01818667 -0.045466661 0.65174788
-0.018124068 -0.046820521 0.65111816
-0.018061895 -0.048165053 0.65049279
-0.020898912 -0.057471991 0.6790309
-0.02176105 0.077152848 0.70760334
-0.02166329 0.074836791 0.70653051
-0.02156649 0.072541863 0.70546824
-0.021470552 0.07026729 0.7044155
-0.021375375 0.068012595 0.70337105
-0.021281129 0.065778047 0.70233679
-0.021187622 0.0635629 0.70131063
-0.021095019 0.061367333 0.70029449
-0.02100322 0.059190899 0.69928712
-0.020912133 0.057033092 0.69828755
-0.020821918 0.05489412 0.69729757
-0.020732393 0.052773356 0.69631517
-0.020643719 0.050670922 0.69534206
-0.020555798 0.048586428 0.69437724
-0.020468542 0.046519399 0.69341975
-0.020382106 0.044470042 0.69247127
-0.020296317 0.042437732 0.69152975
-0.020211324 0.040422678 0.69059706
-0.020126963 0.038424194 0.6896714
-0.020043381 0.036442518 0.6887542
-0.019960489 0.034477234 0.68784451
-0.019878205 0.032527983 0.68694156
-0.019796671 0.030594885 0.68604678
-0.01971573 0.028677434 0.68515855
-0.019635521 0.026775718 0.68427837
-0.019555964 0.02488941 0.68340534
-0.019476974 0.023018211 0.68253851
-0.019398693 0.021162212 0.68167949
-0.019320965 0.019320965 0.68082654
-0.019243931 0.01749447 0.67998123
-0.019167509 0.015682548 0.67914253
-0.019091619 0.013884783 0.6783098
-0.019016398 0.012101322 0.67748433
-0.018941699 0.010331839 0.67666459
-0.018867653 0.0085762143 0.67585206
-0.018794116 0.0068342388 0.67504507
-0.018721217 0.0051057935 0.67424512
-0.018648881 0.0033907294 0.6734513
-0.018577036 0.001688838 0.67266285
-0.018505808 -0 0.67188132
-0.018435057 -0.0016759038 0.67110491
-0.018364914 -0.0033390522 0.67033517
-0.018295236 -0.0049895942 0.66957051
-0.018226149 -0.0066276789 0.66881239
-0.018157581 -0.0082534552 0.66805989
-0.018089464 -0.0098669827 0.66731244
-0.018021919 -0.0114685 0.66657126
-0.017954815 -0.013058007 0.66583478
-0.01788827 -0.014635861 0.66510457
-0.017822217 -0.016202033 0.66437972
-0.017756589 -0.017756581 0.66365957
-0.017691502 -0.019299805 0.66294533
-0.017626831 -0.020831734 0.66223568
-0.017562691 -0.022352546 0.66153181
-0.017498957 -0.023862213 0.66083241
-0.017435743 -0.025361031 0.66013867
-0.017372983 -0.026849121 0.65944993
-0.017310616 -0.028326482 0.65876561
-0.017248752 -0.029793292 0.65808672
-0.017187271 -0.031249583 0.65741205
-0.017126285 -0.032695621 0.65674281
-0.017065674 -0.034131378 0.65607768
-0.017005546 -0.035557032 0.65541786
-0.016945839 -0.036972731 0.65476263
-0.016886495 -0.038378388 0.65411144
-0.016827621 -0.039774358 0.65346533
-0.016769102 -0.041160524 0.65282315
-0.016711041 -0.042537183 0.65218604
-0.016653329 -0.043904185 0.65155268
-0.016596066 -0.045261979 0.65092432
-0.016539196 -0.046610445 0.6503002
-0.016482662 -0.047949553 0.6496799
-0.018296394 -0.054889172 0.6695832
-0.023926592 -0.07395491 0.73136735
-0.019666687 0.076700062 0.70620209
-0.01957885 0.07439962 0.70514172
-0.019491874 0.072119921 0.70409185
-0.019405589 0.069860101 0.70305032
-0.019320142 0.067620486 0.70201886
-0.019235443 0.065400541 0.70099652
-0.019151408 0.063199639 0.69998211
-0.01906818 0.061018169 0.69897741
-0.018985597 0.058855355 0.69798058
-0.018903801 0.056711435 0.69699317
-0.018822707 0.054585874 0.69601423
-0.018742232 0.052478254 0.69504285
-0.018662514 0.050388813 0.69408059
-0.0185834 0.048316836 0.69312561
-0.018505026 0.046262562 0.69217956
-0.018427238 0.044225395 0.69124055
-0.018350173 0.042205423 0.6903103
-0.018273748 0.04020226 0.6893878
-0.01819789 0.038215607 0.68847209
-0.018122727 0.036245465 0.68756479
-0.018048113 0.034291416 0.6866641
-0.017974181 0.03235355 0.68577164
-0.017900851 0.030431449 0.68488652
-0.017828049 0.028524876 0.6840077
-0.017755903 0.026633888 0.68313682
-0.017684275 0.024757981 0.6822722
-0.017613286 0.022897273 0.68141532
-0.017542865 0.021051466 0.68056524
-0.017472941 0.019220233 0.67972118
-0.017403638 0.017403632 0.67888463
-0.017334815 0.015601337 0.67805386
-0.017266601 0.013813287 0.67723042
-0.017198857 0.012039214 0.6764127
-0.017131705 0.010279 0.67560214
-0.017065076 0.0085325241 0.67479783
-0.0169989 0.0067995489 0.67399901
-0.0169333 0.0050799847 0.67320716
-0.016868141 0.0033736527 0.67242056
-0.01680354 0.0016803145 0.67164081
-0.016739374 -0 0.67086625
-0.016675757 -0.0016675591 0.6700983
-0.016612619 -0.0033225119 0.6693362
-0.016549902 -0.0049649477 0.6685791
-0.016487714 -0.0065950751 0.66782844
-0.016425932 -0.0082129836 0.66708267
-0.016364669 -0.0098187923 0.66634315
-0.016303863 -0.01141271 0.66560918
-0.01624345 -0.012994766 0.66487992
-0.016183538 -0.01456517 0.66415668
-0.016124012 -0.01612401 0.6634382
-0.016064977 -0.017671496 0.66272551
-0.016006319 -0.019207597 0.66201746
-0.015948139 -0.020732552 0.6613152
-0.015890382 -0.02224654 0.66061801
-0.01583299 -0.023749471 0.65992522
-0.015776062 -0.025241703 0.6592381
-0.01571949 -0.026723146 0.65855521
-0.015663376 -0.02819407 0.6578778
-0.015607608 -0.029654473 0.65720463
-0.015552287 -0.031104565 0.65653688
-0.015497357 -0.032544464 0.65587378
-0.015442763 -0.033974051 0.65521473
-0.015388603 -0.035393775 0.65456098
-0.015334771 -0.036803424 0.65391117
-0.015281364 -0.038203388 0.65326655
-0.015228278 -0.039593518 0.65262574
-0.015175609 -0.04097414 0.65198994
-0.015123304 -0.042345256 0.6513586
-0.015071309 -0.043706805 0.65073097
-0.015019719 -0.045059144 0.65010816
-0.014968433 -0.046402127 0.64948905
-0.014917542 -0.047736138 0.64887482
-0.015917787 -0.052528679 0.66094881
-0.020544076 -0.069849879 0.71679306
-0.017596688 0.076252311 0.7048161
-0.017518625 0.073967546 0.70376915
-0.01744118 0.071702629 0.70273042
-0.017364487 0.069457918 0.70170182
-0.017288465 0.067232907 0.70068216
-0.017213037 0.065027028 0.69967049
-0.017138334 0.062840551 0.69866854
-0.017064206 0.06067276 0.69767433
-0.016990786 0.058523834 0.69668961
-0.016917996 0.056393296 0.69571334
-0.016845759 0.054280788 0.69474447
-0.016774202 0.0521864 0.69378471
-0.016703187 0.050109565 0.69283223
-0.016632834 0.048050404 0.69188869
-0.016563071 0.046008527 0.69095296
-0.016493827 0.043983549 0.69002426
-0.016425222 0.041975558 0.68910408
-0.016357124 0.039984107 0.6881907
-0.016289651 0.038009167 0.68728578
-0.016222671 0.036050379 0.68638736
-0.016156299 0.034107745 0.68549722
-0.016090469 0.032180965 0.6846143
-0.016025113 0.030269653 0.6837377
-0.015960345 0.028373927 0.68286902
-0.015896037 0.0264934 0.68200654
-0.015832309 0.024628013 0.68115175
-0.015769085 0.022777587 0.68030381
-0.01570631 0.020941764 0.67946178
-0.015644088 0.019120574 0.67862731
-0.015582301 0.017313659 0.67779857
-0.015521055 0.015521079 0.67697716
-0.01546029 0.013742507 0.67616212
-0.015399943 0.011977702 0.67535275
-0.015340121 0.010226756 0.67455035
-0.015280707 0.0084892809 0.6737535
-0.015221804 0.0067652464 0.6729635
-0.015163301 0.0050544441 0.67217886
-0.015105301 0.0033567548 0.6714009
-0.015047741 0.0016719997 0.67062891
-0.014990565 -0 0.66986209
-0.014933877 -0.0016593039 0.66910172
-0.014877561 -0.0033060908 0.66834641
-0.014821721 -0.0049405992 0.66759747
-0.014766247 -0.0065627396 0.66685343
-0.014711238 -0.0081729293 0.66611564
-0.014656637 -0.0097711086 0.66538334
-0.01460239 -0.011357397 0.66465575
-0.014548592 -0.012932062 0.66393417
-0.014495141 -0.014495164 0.66321731
-0.01444213 -0.016046822 0.66250628
-0.014389455 -0.017587125 0.66179979
-0.014337214 -0.019116282 0.66109908
-0.014285348 -0.020634353 0.66040343
-0.01423381 -0.022141486 0.6597122
-0.01418269 -0.023637801 0.65902656
-0.014131888 -0.025123358 0.65834522
-0.014081496 -0.026598364 0.65766931
-0.014031415 -0.02806285 0.65699768
-0.013981735 -0.029516995 0.6563313
-0.013932406 -0.030960888 0.65566969
-0.013883378 -0.032394558 0.65501213
-0.01383474 -0.033818245 0.65435976
-0.013786396 -0.035231888 0.65371138
-0.013738434 -0.036635786 0.65306807
-0.013690803 -0.038029999 0.65242922
-0.013643459 -0.039414436 0.65179425
-0.013596484 -0.040789455 0.65116423
-0.013549788 -0.042154908 0.65053791
-0.013503455 -0.043511093 0.64991647
-0.013457395 -0.044857979 0.64929879
-0.01341169 -0.046195805 0.64868569
-0.013366295 -0.047524601 0.64807683
-0.013735284 -0.050362736 0.65302587
-0.017517326 -0.066176564 0.70375174
-0.015550781 0.075810075 0.70344728
-0.015482129 0.073540121 0.70241141
-0.015414143 0.071290404 0.70138556
-0.015346751 0.069060415 0.7003687
-0.015279884 0.0668495 0.69935977
-0.015213659 0.064658076 0.69836056
-0.015147946 0.062485278 0.69736898
-0.015082857 0.060331434 0.69638687
-0.015018325 0.058196008 0.69541317
-0.014954284 0.056078583 0.6944468
-0.014890845 0.053979337 0.69348967
-0.014827885 0.051897615 0.69253963
-0.014765511 0.049833626 0.69159853
-0.014703662 0.047786891 0.69066525
-0.01464227 0.045757085 0.68973893
-0.014581447 0.043744355 0.68882114
-0.014521069 0.041748077 0.68791014
-0.014461245 0.039768428 0.68700749
-0.014401858 0.037804872 0.68611139
-0.01434301 0.035857528 0.68522346
-0.014284642 0.03392604 0.68434274
-0.014226694 0.032010078 0.68346834
-0.014169266 0.030109704 0.68260181
-0.014112248 0.028224498 0.68174148
-0.014055738 0.026354492 0.68088883
-0.01399968 0.024499476 0.68004298
-0.013944016 0.022659034 0.67920309
-0.013888844 0.020833254 0.67837059
-0.013834056 0.019021809 0.67754388
-0.013779748 0.017224699 0.67672449
-0.013725866 0.015441597 0.67591143
-0.013672353 0.013672352 0.67510402
-0.013619306 0.011916906 0.67430353
-0.013566619 0.01017496 0.67350858
-0.013514386 0.0084465146 0.67272049
-0.013462508 0.0067312717 0.6719377
-0.013411073 0.0050291419 0.67116159
-0.013360029 0.0033400059 0.67039144
-0.013309327 0.001663655 0.66962636
-0.013259053 -2.9802322e-08 0.66886783
-0.013209112 -0.0016511679 0.66811424
-0.013159592 -0.0032898784 0.66736698
-0.013110396 -0.0049163997 0.66662472
-0.013061612 -0.0065308213 0.66588861
-0.013013189 -0.0081332326 0.66515791
-0.012965079 -0.0097238421 0.66443205
-0.012917368 -0.01130268 0.66371214
-0.012869964 -0.012869984 0.66299689
-0.012822949 -0.014425784 0.66228747
-0.012776233 -0.01597026 0.66158259
-0.0127299 -0.017503619 0.66088343
-0.012683901 -0.019025862 0.66018939
-0.012638191 -0.020537049 0.6594997
-0.012592851 -0.022037476 0.65881556
-0.012547795 -0.023527116 0.65813577
-0.0125031 -0.025006175 0.65746135
-0.012458722 -0.026474804 0.65679169
-0.012414619 -0.027932882 0.6561262
-0.012370866 -0.029380798 0.65546608
-0.012327381 -0.030818433 0.65480995
-0.012284241 -0.032246113 0.65415901
-0.012241361 -0.03366372 0.653512
-0.012198819 -0.035071641 0.65287012
-0.012156572 -0.036469698 0.65223265
-0.012114577 -0.037858009 0.65159893
-0.012072911 -0.039236963 0.65097022
-0.012031492 -0.04060629 0.65034533
-0.011990394 -0.041966408 0.6497252
-0.011949538 -0.04331708 0.64910871
-0.011908997 -0.04465875 0.64849699
-0.01186873 -0.045991331 0.64788944
-0.011828697 -0.047314793 0.6472854
-0.011788972 -0.048629493 0.64668596
-0.014793014 -0.062870324 0.69201344
-0.01358832 0.077647537 0.70312631
-0.013528469 0.075372905 0.7020942
-0.013469087 0.073117912 0.70107019
-0.013410279 0.070882916 0.70005608
-0.013351928 0.068667054 0.69904989
-0.013294136 0.066470683 0.69805336
-0.01323679 0.064292967 0.6970644
-0.01317999 0.062134236 0.69608486
-0.013123674 0.059993923 0.69511378
-0.013067786 0.05787164 0.69415003
-0.013012422 0.055767566 0.69319528
-0.012957476 0.053680956 0.69224775
-0.012903041 0.051612169 0.69130909
-0.012849063 0.049560666 0.69037831
-0.012795485 0.047526091 0.68945432
-0.012742398 0.045508593 0.68853891
-0.012689704 0.043507576 0.68763024
-0.012637492 0.041523188 0.68672991
-0.01258566 0.039554954 0.68583608
-0.012534299 0.037602901 0.68495035
-0.012483355 0.035666704 0.68407184
-0.012432777 0.033746123 0.68319964
-0.012382653 0.031841129 0.68233532
-0.012332886 0.029951334 0.68147713
-0.012283563 0.028076708 0.68062663
-0.012234633 0.026217043 0.67978281
-0.012186047 0.024372071 0.678945
-0.012137889 0.022541761 0.67811453
-0.012090066 0.020725876 0.67728984
-0.012042662 0.018924206 0.67647237
-0.011995628 0.017136604 0.67566133
-0.011948919 0.015362918 0.67485583
-0.011902614 0.013602972 0.6740573
-0.011856623 0.011856645 0.67326427
-0.011811029 0.01012373 0.67247802
-0.011765742 0.0084041357 0.67169708
-0.011720843 0.0066976249 0.67092282
-0.011676284 0.0050041378 0.67015445
-0.011632023 0.003323406 0.66939121
-0.011588137 0.0016554296 0.66863441
-0.011544541 -0 0.66788262
-0.01150131 -0.0016430318 0.66713709
-0.011458403 -0.0032738447 0.66639721
-0.011415776 -0.0048924685 0.66566217
-0.011373503 -0.0064991415 0.66493315
-0.011331504 -0.0080939233 0.66420889
-0.011289852 -0.0096770227 0.66349065
-0.011248467 -0.011248469 0.66277695
-0.011207421 -0.012808472 0.6620692
-0.011166675 -0.01435715 0.66136658
-0.011126187 -0.015894562 0.66066837
-0.011086027 -0.017420888 0.65997583
-0.01104612 -0.018936217 0.65928763
-0.011006536 -0.020440727 0.6586051
-0.010967199 -0.02193436 0.65792668
-0.010928177 -0.023417532 0.6572538
-0.010889431 -0.024890125 0.65658563
-0.010850926 -0.026352257 0.65592164
-0.010812725 -0.027804136 0.65526289
-0.010774759 -0.029245794 0.65460819
-0.010737093 -0.030677408 0.65395868
-0.010699653 -0.032098979 0.65331304
-0.010662509 -0.033510745 0.65267253
-0.010625622 -0.034912735 0.65203643
-0.010588956 -0.036304981 0.65140414
-0.010552576 -0.037687749 0.65077674
-0.01051641 -0.03906095 0.6501531
-0.010480526 -0.040424913 0.64953434
-0.010444885 -0.041779548 0.6489197
-0.010409453 -0.043124855 0.64830869
-0.010374293 -0.044461221 0.6477024
-0.010339337 -0.045788497 0.64709961
-0.010304648 -0.047106951 0.64650142
-0.010270161 -0.048416466 0.64590669
-0.012327969 -0.059878707 0.68139231
-0.01158006 0.077200413 0.70177692
-0.011529299 0.074940473 0.70075572
-0.011479029 0.07270053 0.69974434
-0.011429149 0.070479751 0.69874084
-0.011379745 0.068278491 0.69774693
-0.011330722 0.066095889 0.69676065
-0.011282165 0.0639323 0.69578373
-0.011234022 0.061787128 0.69481516
-0.011186243 0.059659988 0.69385397
-0.011138913 0.057551056 0.69290179
-0.011091939 0.055459738 0.6919567
-0.011045402 0.053386122 0.69102043
-0.010999255 0.051329851 0.69009209
-0.010953448 0.049290538 0.68917048
-0.010908064 0.047268271 0.6882574
-0.010863013 0.045262575 0.68735105
-0.010818373 0.043273509 0.68645298
-0.010774099 0.041300744 0.68556225
-0.010730145 0.039343864 0.68467802
-0.010686588 0.037403047 0.68380165
-0.010643344 0.035477817 0.68293166
-0.010600489 0.033568203 0.68206954
-0.010557937 0.031673819 0.68121338
-0.010515765 0.029794663 0.68036497
-0.010473928 0.027930468 0.67952329
-0.010432385 0.026080996 0.67868751
-0.010391207 0.024246126 0.67785907
-0.010350317 0.022425681 0.6770364
-0.010309784 0.020619571 0.67622095
-0.010269566 0.018827558 0.67541188
-0.010229625 0.017049372 0.67460829
-0.01019003 0.015285045 0.67381167
-0.010150704 0.013534278 0.67302048
-0.010111716 0.011797011 0.67223614
-0.010073027 0.010073006 0.67145777
-0.010034597 0.008362174 0.67068464
-0.0099964943 0.0066643357 0.66991806
-0.0099586453 0.0049793124 0.66915655
-0.0099211158 0.0033070445 0.6684016
-0.009883834 0.0016472936 0.66765153
-0.0098468661 -0 0.66690779
-0.009810173 -0.001635015 0.66616952
-0.0097737182 -0.0032579005 0.66543615
-0.009737568 -0.0048687756 0.66470891
-0.0097016506 -0.0064677298 0.66398627
-0.0096660294 -0.0080550015 0.66326964
-0.0096306372 -0.0096306205 0.66255754
-0.0095955357 -0.011194795 0.66185135
-0.0095606884 -0.012747586 0.66115034
-0.0095260618 -0.014289081 0.66045368
-0.0094917165 -0.01581949 0.65976274
-0.0094575863 -0.017338902 0.65907609
