# .PCD v0.7 - Point Cloud Data file format
VERSION 0.7
FIELDS x y z
SIZE 4 4 4
TYPE F F F
COUNT 1 1 1
WIDTH 821
HEIGHT 1
VIEWPOINT 0 0 0 1 0 0 0
POINTS 821
DATA ascii
-0.055807997 0.013287634 0.62919986
-0.055807997 0.013287634 0.62919986
-0.049217883 0.014632344 0.62937504
-0.042765085 0.013364077 0.6301229
-0.054774486 0.016031533 0.63006914
-0.045809317 0.012125999 0.63144159
-0.018915892 0.014862508 0.63190055
-0.037738774 0.01617378 0.63149959
-0.047282834 0.017562211 0.63187683
-0.047282834 0.017562211 0.63187683
-0.010853612 0.014923692 0.63257253
-0.027104151 0.016262472 0.63239217
-0.023132864 0.012246817 0.63306201
-0.023132864 0.012246817 0.63306201
-0.023132864 0.012246817 0.63306201
0.0040916489 0.013638854 0.63343936
-0.061244108 0.02041471 0.63308895
-0.058602817 0.020442843 0.63331544
-0.066982992 0.021871984 0.63381565
-0.042637359 0.0096277893 0.63482946
0.0082192123 0.015068531 0.63416189
0.010974156 0.015089482 0.63439137
-0.049841624 0.0083069205 0.63592678
0.012436286 0.012436271 0.63560331
0.037351452 0.01383388 0.63579369
-0.0013830914 0.017980188 0.63575798
-0.03314288 0.020714343 0.63549995
-0.062133826 0.023472816 0.63547558
-0.041683797 0.0083367825 0.63652676
-0.020828426 0.009719938 0.63641834
0.016627416 0.016627401 0.63606304
-0.012468735 0.019395828 0.63603848
-0.024961838 0.020801574 0.63620192
-0.032092039 0.0083718598 0.63723242
0.0069957408 0.019588083 0.63769621
-0.023765184 0.022367239 0.63755184
0.0084373318 0.0098435879 0.6385501
0.029511254 0.01124239 0.63843858
0.030935319 0.011249185 0.63854158
0.05343087 0.012654692 0.63853246
0.044970464 0.016863912 0.6384421
0.029499233 0.018261462 0.6383695
0.03235466 0.01828745 0.63861072
0.035218216 0.018313468 0.63885272
0.0014055108 0.021082699 0.63846433
-0.016834935 0.022446573 0.63815051
-0.042170849 0.0253025 0.6384865
-0.065173194 0.0042504668 0.63982803
-0.065173194 0.0042504668 0.63982803
-0.026834723 0.0070617795 0.63929033
-0.0070528314 0.0084633827 0.63907456
0.021208951 0.0098975003 0.63948059
0.025497278 0.0099156201 0.63979268
0.042389873 0.011303991 0.63936776
0.06064494 0.012693107 0.6390481
0.023989366 0.01975596 0.63914371
0.015571401 0.021233737 0.63967997
-0.055285864 0.028351754 0.6399219
0.049659614 0.018445015 0.64007401
0 0.024234831 0.64088678
-0.032736175 0.027042955 0.64061308
-0.044326801 0.0042897165 0.64140791
-0.020029828 0.0057228208 0.64150512
-0.020029828 0.0057228208 0.64150512
0.065636829 0.011415094 0.64104468
0.021455009 0.022885352 0.64146066
-0.02288839 0.027179986 0.64148372
-0.054312248 0.030014694 0.64133221
-0.05604494 0.002874136 0.6422714
0.01148749 0.0071797073 0.64213693
0.03300437 0.0086098313 0.64202064
0.053370636 0.021636754 0.64292318
0.038957432 0.023085892 0.64297366
0.0072079576 0.025948673 0.64281952
-0.012940296 0.027318388 0.64236319
-0.030158786 0.028722674 0.64216065
-0.043127757 0.030189425 0.64233685
-0.043127757 0.030189425 0.64233685
-0.037486412 0.030277491 0.64284295
-0.069282196 0.0014434159 0.64303541
-0.069282196 0.0014434159 0.64303541
-0.067881115 0.0014443099 0.64314407
0.052077446 0.0086795688 0.64342368
0.052077446 0.0086795688 0.64342368
0.011558047 0.026005626 0.64320159
0.015927229 0.026062757 0.64358473
0.018850755 0.026101053 0.64384162
-0.0043323473 0.027438194 0.64312434
-0.027534544 0.03043294 0.64373636
-0.064965159 0.033204406 0.64307058
-0.05372997 0.033399701 0.64409548
0.06009987 0.0073292255 0.6457479
0.065793879 0.023393393 0.64529353
0.057207391 0.024936557 0.64586931
0.042551242 0.026411146 0.64592099
0.042551242 0.026411146 0.64592099
0.017521452 0.027742296 0.64505637
0.011736452 0.029341161 0.64589351
-0.073548272 -0.001470983 0.6463654
0.017625472 0.0044063926 0.64610267
0.019106375 0.0044091642 0.64621514
0.047117975 0.0058897436 0.64654297
0.032361846 0.027948886 0.64636868
-0.010313709 0.032414526 0.64665771
-0.04556603 0.035276949 0.64623332
-0.070753239 0.038324684 0.64673477
-0.070753239 0.038324684 0.64673477
0.0059053688 0.0029527247 0.64701438
0.011840849 0.0029602051 0.64746875
0.016312333 0.0029658675 0.64781076
0.031108439 0.029627115 0.64761937
-0.0059067709 0.032487273 0.6470567
-0.036911555 0.03543511 0.64702886
-0.02671605 0.035621434 0.64796591
-0.051691357 0.036922395 0.64708126
-0.044473112 0.037060946 0.64775014
-0.062187444 0.038496941 0.64753479
-0.068536535 -0.002979815 0.64865398
-0.047613937 -0.0014879405 0.64841384
-0.044695344 -0.0014898479 0.64864427
0.047603596 0.0044628382 0.64837486
0.066810481 0.0059387088 0.64802057
0.046268921 0.02985093 0.64897037
0.025304306 0.031258285 0.64848059
-0.019367678 0.035755694 0.64864141
0.049328484 0.029896051 0.64924276
-0.074748874 0.041859388 0.64926386
-0.069251165 -0.0045163929 0.65052921
-0.069251165 -0.0045163929 0.65052921
0.0030104308 2.9802322e-08 0.65049964
0.024050966 0.0015031695 0.65025467
0.031669341 0.0015080869 0.65084356
0.060110398 0.030055225 0.65020329
-0.042230241 0.040721983 0.65086269
-0.042230241 0.040721983 0.65086269
-0.073891126 0.043731511 0.65083367
-0.057505913 -0.0045399368 0.65147722
-0.031798527 -0.0030284226 0.65158612
0.037799791 0.001511991 0.65131766
-0.039273709 0.04078424 0.65114093
-0.066605203 0.04389888 0.6515305
-0.071455702 -0.0060813129 0.65232468
0.027377818 -2.9802322e-08 0.65240383
0.030459698 -0 0.65264463
0.069999777 0.031956434 0.65249372
0.05167507 0.033436805 0.65226686
0.021290911 0.036498725 0.65237838
-0.053633064 -0.0061294734 0.65377796
-0.012217308 -0.0030543506 0.65314901
0.012216637 -0.001527071 0.65313894
0.065786876 0.001529932 0.65348268
0.070516154 0.0015329719 0.65384871
0.048951495 0.035183907 0.65345937
-0.001527588 0.039717317 0.65320033
-0.04739859 0.04434064 0.65336913
-0.059741054 0.045954645 0.65371138
-0.059741054 0.045954645 0.65371138
0.0015362588 -0.0030725002 0.65424693
0.041476022 0.036867559 0.65423369
-0.038402978 0.044547468 0.65423012
-0.050786357 0.04616943 0.65457547
-0.063248158 -0.0077131987 0.65501696
-0.054208394 -0.0077440143 0.65576214
-0.05269482 -0.0077492595 0.65588725
0.048066556 -0.0015505254 0.6559701
0.023200765 0.040214658 0.65550947
-0.040512346 -0.0077908337 0.65689158
0.059197076 -0.0015577972 0.65684932
0.03738467 0.040500075 0.65683448
-0.018621624 0.045002282 0.65612316
-0.031289313 -0.0078223348 0.65765184
-0.029744936 -0.0078276098 0.65777946
-0.010928575 -0.0062449276 0.65726066
-0.0046963044 -0.0062617064 0.65776879
0.040614523 -0.0031241775 0.65736586
0.057753298 0.039022505 0.65722144
-0.015670544 0.047011614 0.65796429
-0.066160955 -0.011026829 0.65895492
0.075580016 0.039364576 0.6588732
0.023584573 0.044024527 0.65859812
-0.031350963 0.048594028 0.65802395
-0.031350963 0.048594028 0.65802395
0.069636457 0.041148812 0.65984654
0.0015808466 0.047425419 0.65962923
-0.01266092 0.04906106 0.65984261
-0.061730877 0.053816676 0.65987015
-0.061730877 0.053816676 0.65987015
-0.073061123 -0.01270625 0.66052711
0.049121767 -0.0047537386 0.660079
0.053986095 -0.0047634542 0.66047174
0.0063385898 0.047539413 0.66008794
-0.059130445 -0.012784958 0.66171426
-0.038273729 -0.011163145 0.66130608
-0.031982627 -0.011193931 0.66183639
-0.027160877 0.052724063 0.66166341
0.028900353 -0.0080279112 0.66261423
0.028900353 -0.0080279112 0.66261423
0.012825254 0.049697876 0.66232222
0.014440119 0.049738199 0.66247928
0.016146049 -0.0096876323 0.66370422
0.061177518 -0.0064397156 0.66314042
0.072484106 0.045101225 0.66323984
0.037010971 0.048275173 0.66304845
0.043589566 0.048432857 0.66368282
-0.071137406 0.059820116 0.66396427
0.053539339 -0.0081120431 0.66464567
0.068062231 0.046995342 0.66441935
0.050211437 0.048591703 0.66432208
0.050211437 0.048591703 0.66432208
0.016194465 0.051822275 0.66428858
0.02110466 0.051949948 0.66477013
0.02110466 0.051949948 0.66477013
-0.017810797 0.055051565 0.66425443
-0.050226592 0.058327645 0.66438109
-0.047063299 0.0584234 0.66470212
-0.061739963 0.060115248 0.66492707
-0.0097977994 -0.013063729 0.66592062
0.008133187 0.053679049 0.6651566
-0.019580713 0.057110429 0.66577089
-0.019580713 0.057110429 0.66577089
-0.077142887 -0.018054724 0.66693115
-0.060469288 -0.016343057 0.6660822
-0.024617163 -0.014770329 0.66690779
0 -0.013119072 0.6667558
0.077138871 0.049237609 0.66692084
-0.014722034 0.057252347 0.66626042
0.037902433 -0.011535525 0.66772711
0.078845575 0.049278468 0.66708547
0.069242842 0.051107824 0.66781247
0.027928745 0.054214627 0.66711575
-0.036220651 0.060916543 0.66754138
-0.056323122 -0.018222153 0.66876888
-0.037963197 -0.016505718 0.668046
0.046424922 0.054715097 0.66894639
-0.013210867 0.059448898 0.66814071
-0.044653457 0.062845588 0.66843927
-0.048212193 -0.018287361 0.66948438
-0.02161107 -0.016623944 0.66947234
-0.019963006 -0.016635865 0.66961646
0.054945461 0.054945469 0.66978908
-0.053162627 0.064791977 0.6693446
-0.073000066 0.066363692 0.6690743
-0.073000066 0.066363692 0.6690743
-0.063496716 -0.020051599 0.67050755
0.061813951 0.055131376 0.67046905
-0.0066858507 0.06184414 0.67056751
-0.028352389 0.06337595 0.67012388
-0.055260491 0.066982448 0.67094141
-0.055341091 -0.020124048 0.67123628
-0.048773974 -0.020182371 0.67182273
-0.028507328 -0.018445939 0.67122406
-0.028507328 -0.018445939 0.67122406
0.075691029 0.055506766 0.67184222
0.036935087 0.058760375 0.6714614
0.02185113 0.060510844 0.67170143
0 0.062054187 0.67125285
-0.033565309 0.065452367 0.67138869
-0.016854182 -0.018539608 0.67225212
-0.013502947 -0.018566519 0.67254782
0.015200968 -0.01688996 0.67268407
0.038788136 -0.015177965 0.67237556
0.065766968 -0.013490677 0.67236245
0.065766968 -0.013490677 0.67236245
-0.020276945 0.065900058 0.67277443
-0.052674994 -0.022089511 0.67391491
0.079721048 -0.013569534 0.67355269
0.018622424 0.062639058 0.67316103
-0.042667314 -0.022186995 0.67482013
0.0085198618 -0.018743664 0.67449176
0.064676084 0.059570074 0.674254
0.02720372 0.06290859 0.67404032
-0.020458808 0.068196058 0.67460382
-0.018770091 0.068254858 0.67478144
-0.018770091 0.068254858 0.67478144
-0.039192211 0.069864422 0.67449623
-0.035946216 -0.022252411 0.67542756
-0.035946216 -0.022252411 0.67542756
0.044463772 -0.017101437 0.67523682
0.071821667 -0.015390366 0.67522418
0.010296978 0.066930383 0.67596334
0.0017192224 -0.020630658 0.67633259
0.049864527 0.063620269 0.6763621
-0.069140166 -0.025927573 0.67745304
0.039699547 0.065590531 0.67715889
-0.057339508 -0.026063383 0.67854631
-0.0312507 -0.024306118 0.67837602
-0.078429878 -0.027886182 0.67918909
-0.069978192 -0.027991265 0.67998195
-0.050540533 -0.026141644 0.67917591
-0.04541437 -0.026200593 0.67965019
0.012234633 -0.02272144 0.67978281
0.012234633 -0.02272144 0.67978281
0.060981676 -0.019165665 0.67912239
0.06456323 -0.019194454 0.67943847
0.076657027 0.064461589 0.67910689
0.06465514 0.066402614 0.67973834
-0.0052675335 -0.02458185 0.68075329
0.015753957 -0.022755712 0.68010092
0.04554281 -0.021019727 0.68024659
-0.081090935 -0.029968381 0.68159848
-0.081090935 -0.029968381 0.68159848
0.026375888 -0.022859097 0.68106085
0.033510961 -0.022928566 0.68170571
-0.062219307 -0.030220777 0.68339086
0.02310551 -0.024882853 0.68334883
0.083652653 -0.021358103 0.68365026
-0.051791023 -0.030360252 0.68438101
0.064325124 -0.023228496 0.68449104
0.076963156 0.071593612 0.68485707
0.030686716 -0.027076513 0.68669903
0.082830563 -0.023408651 0.68616349
0.0072377655 -0.028951079 0.68722308
0.038025353 -0.027160972 0.68737864
-0.039999928 -0.032727212 0.68827772
-0.0036475421 -0.031004101 0.6889528
0.020013053 -0.029109865 0.68842137
0.0036590372 -0.031101793 0.68964654
-0.075321995 -0.036742419 0.69056433
-0.064606182 -0.036917806 0.69162285
-0.081678949 -0.038983136 0.69288415
0.066805921 -0.029691517 0.69280934
-0.072687924 -0.039139658 0.69378388
-0.046517033 -0.037213653 0.69340825
-0.018590637 -0.035322219 0.69321299
0.074466839 -0.029786736 0.6935277
0.074466839 -0.029786736 0.6935277
0.031882782 -0.033758253 0.69519192
-0.062615238 -0.041743457 0.69784433
0.020799423 -0.035926282 0.69705069
0.052983627 -0.034060895 0.69722158
-0.051483046 -0.041949123 0.69897282
0.007619801 -0.038099021 0.69875193
0.007619801 -0.038099021 0.69875193
0.064653367 -0.034228235 0.69834387
-0.015290885 -0.040138572 0.69952577
0.07841368 -0.034425497 0.69966674
0.038605876 -0.038605869 0.70181119
-0.019337771 -0.042543054 0.70223165
-0.005835359 -0.042792588 0.70360082
-0.0038934927 -0.042828411 0.70379716
0.056400348 -0.038896769 0.70356703
0.031198066 -0.040947437 0.70417535
-0.021542178 -0.045042753 0.70520151
-0.015706811 -0.045157075 0.70580167
0.072444752 -0.039159298 0.70515156
-0.041338068 -0.047243506 0.70642054
-0.041338068 -0.047243506 0.70642054
-0.063264094 -0.049425036 0.70744944
-0.063264094 -0.049425036 0.70744944
0 -0.045464605 0.70741552
0.0079339016 -0.045619935 0.70823073
-0.013944906 -0.047811121 0.70927542
0.017927879 -0.045815706 0.7092582
0.062066589 -0.044047266 0.7104848
-0.022142962 -0.050324917 0.71179432
-0.020147474 -0.050368667 0.71200567
-0.0060811881 -0.050676554 0.71349221
0.032515716 -0.048773557 0.71411622
-0.014340704 -0.053265423 0.71610069
0.0062007201 -0.053739578 0.71830183
0.076600522 -0.049686819 0.71870959
0.051946223 -0.051946193 0.71962261
-0.058776248 -0.060875386 0.72219414
0.048400674 -0.054713815 0.72282487
0.082064494 -0.05260545 0.72280568
-0.046433181 -0.061207384 0.72357595
0.018975222 -0.056925654 0.7233054
0.072269395 -0.055264801 0.72538316
-0.036581263 -0.064555168 0.72855407
-0.080526315 -0.069644392 0.73151731
-0.010880181 -0.065281093 0.73147494
-0.032827836 -0.067844212 0.73298216
0.075609416 -0.064490378 0.73724127
0.024678577 -0.069548726 0.73961937
0.074461356 -0.067692131 0.74117625
-0.05904521 0.01326862 0.62897062
-0.055159174 0.013291433 0.62924564
-0.04712924 0.012118936 0.63134706
-0.024916977 0.013468742 0.63138622
-0.034843594 0.01474154 0.63057309
-0.049084909 0.016812362 0.63113564
-0.068004549 0.0095206201 0.63298166
-0.048903596 0.010867506 0.63278151
-0.04290342 0.010896191 0.63321441
-0.036871873 0.010924995 0.63364959
-0.031187661 0.012203842 0.63248605
-0.027167337 0.01222533 0.63277352
-0.021110071 0.012257606 0.63320637
-0.010892397 0.012931526 0.63315767
-0.0027197825 0.013598889 0.63295752
0.010943215 0.013678998 0.63392448
-0.061244108 0.02041471 0.63308895
-0.065315276 0.0082503855 0.63478887
-0.0089846831 0.011058331 0.63566136
-0.019188676 0.017818063 0.63425255
-0.019188676 0.017818063 0.63425255
0.011053926 0.016580909 0.63559502
-0.03110389 0.020736083 0.63567531
-0.056769557 0.023538589 0.635943
-0.04898582 0.022078216 0.63537145
-0.04898582 0.022078216 0.63537145
-0.051007688 0.006987378 0.63749444
-0.051007688 0.006987378 0.63749444
-0.03895149 0.0083467662 0.63672769
-0.016692661 0.009737432 0.63671929
0.016772198 0.011181474 0.63751948
0.016772198 0.011181474 0.63751948
0.018704735 0.012469694 0.63605124
0.062927201 0.013983816 0.63760376
0.038950458 0.015301943 0.63672328
0.0027821842 0.018782303 0.63672376
0.015342886 0.018132508 0.63717234
-0.026330139 0.020786971 0.63608456
-0.034880035 0.023023427 0.63721979
-0.07066796 0.0042401254 0.63941169
-0.07066796 0.0042401254 0.63941169
-0.063485056 0.0049342662 0.63910019
-0.033099487 0.0070424974 0.63882482
-0.021236973 0.0070789754 0.63970608
0.046975784 0.0126203 0.63807136
0.054870252 0.012662381 0.63863552
0.054870252 0.012662381 0.63863552
0.00070275541 0.021075189 0.63840401
-0.040794276 0.02532059 0.63860768
-0.036652405 0.02537474 0.63897091
-0.016960107 0.024026841 0.6394096
-0.063035242 0.0028652549 0.64173657
-0.045027636 0.0042883903 0.64135468
0.0071663763 0.0071663558 0.64181578
0.061362833 0.018551558 0.64106345
0.068746336 0.018618792 0.64168787
0.02488884 0.021333069 0.64047945
0.027051073 0.021356136 0.64066482
-0.029230244 0.027091697 0.64092278
-0.017216116 0.027258843 0.64198494
-0.066741273 0.029820561 0.64021659
-0.068624668 0.031452984 0.64138186
-0.033050437 0.0043109059 0.6422624
-0.020946112 0.0043337345 0.64317977
0.049123056 0.0086687803 0.64320636
0.049123056 0.0086687803 0.64320636
0.048936181 0.021589488 0.64254296
0.038957432 0.023085892 0.64297366
0.020889737 0.024491131 0.64270639
0.0028988265 0.027538866 0.64376378
-0.060040087 -0 0.64557195
0.067305736 0.023410708 0.64542413
0.048940115 0.024835169 0.64514923
0.048940115 0.024835169 0.64514923
0.013112041 0.027680993 0.64466667
0.023341656 0.026991591 0.6449033
0.03657354 0.026332945 0.64539683
-0.037059858 0.031973451 0.64423752
-0.069267116 -0.0014737546 0.64670372
-0.069267116 -0.0014737546 0.64670372
-0.048570134 -0 0.64646876
-0.019181242 0.001475513 0.64691031
0.0073863952 0.0029545426 0.64712751
0.0073863952 0.0029545426 0.64712751
0.058717802 0.024955064 0.64600074
-0.032555096 0.035514653 0.64742905
-0.032555096 0.035514653 0.64742905
-0.069330901 0.038353294 0.64686751
-0.056909248 -0.002995193 0.64958185
-0.055447482 -0.00299716 0.64969879
0.029075453 0.0029820651 0.64878821
0.037408046 0.00299263 0.64942622
0.068896689 0.028457344 0.64959902
0.07044781 0.028478891 0.64973605
0.031352773 0.031352758 0.64902383
-0.025250778 0.035648167 0.6481005
-0.038659301 0.037172377 0.64828837
-0.023230188 0.037468508 0.64971805
-0.07071089 -0.0045134425 0.65041178
-0.067058101 -0.0045207739 0.65070659
-0.063393921 -0.0045281649 0.65100229
-0.009078864 -0.0015131533 0.65145677
0.067102827 0.030158445 0.65082645
0.047007106 0.033359885 0.65184474
-0.01505019 0.037625492 0.65047598
-0.030850101 0.03912732 0.65046126
-0.03705021 0.040831164 0.65135068
-0.058793481 0.042210728 0.65077853
-0.057329666 0.042242914 0.65091735
0.036647897 -0 0.6531288
0.067361072 0.0015309751 0.65360415
0.067361072 0.0015309751 0.65360415
-0.0091302302 0.039564371 0.65249014
0.021462619 0.038326114 0.65385896
-0.009203909 0.041417599 0.65397245
-0.067139871 0.045777202 0.65299726
-0.067139871 0.045777202 0.65299726
-0.054964267 -0.0077414662 0.65569997
-0.024565209 -0.0046059489 0.65413427
0.0030745468 -0.0030745566 0.65436941
0.0030745468 -0.0030745566 0.65436941
0.023259306 -0.0031012297 0.65598059
0.059192941 0.035361841 0.65439332
0.063159086 0.035430729 0.65475476
0.063159086 0.035430729 0.65475476
0.072742157 0.035597235 0.65562868
0.038656048 0.038656056 0.65545207
0.0092904624 0.041807115 0.6557138
-0.023222275 0.044896424 0.65568256
0.014836019 -0.0046849698 0.65731299
0.046989348 -0.0031326413 0.6578747
0.060795579 -0.0015588701 0.65697527
0.044981722 0.038777351 0.65603769
0.017099524 0.041971594 0.65644908
0.032634348 0.040404439 0.65639049
0.032903343 0.042304307 0.65793675
-0.032892324 0.048555344 0.65787339
-0.074814223 0.051434785 0.65694737
-0.070742652 -0.011004388 0.65856844
0.063077927 -0.0031538904 0.65915859
0.053382345 0.040821791 0.65832824
0.026771849 0.044094801 0.6589011
-0.009432259 0.047161311 0.65856653
-0.022828717 0.048806921 0.65885293
-0.063263074 0.053773582 0.65971732
-0.060686905 -0.012776196 0.66158193
-0.059130445 -0.012784958 0.66171426
-0.056791671 -0.01279816 0.66191381
-0.046867378 -0.011121154 0.66058129
-0.033558592 -0.011186182 0.66170323
-0.033558592 -0.011186182 0.66170323
-0.026942441 -0.0095091164 0.66011238
-0.012757134 -0.009567827 0.6612944
-0.0095810089 -0.0095809996 0.6615591
-0.0015847539 -0.0079238117 0.66010082
0.00079346256 -0.007931903 0.66029739
0.01757629 -0.0079892278 0.66168106
0.036647327 -0.0063734353 0.66113997
0.05074105 -0.0047569573 0.66020995
0.011119304 0.047654152 0.6605497
-0.0095109148 0.049139768 0.66014898
-0.011180338 0.051110119 0.66160214
-0.055577651 0.053989768 0.66048455
-0.04315158 0.054339021 0.66172469
-0.070759751 -0.014473587 0.6629281
-0.046602216 -0.012855798 0.66278291
-0.022480726 -0.011240363 0.66263723
0.0088529009 -0.0096573979 0.66309607
0.048964635 0.046556264 0.66259146
0.043589566 0.048432857 0.66368282
-0.0048479722 0.053327709 0.66387147
0.027582576 -0.009735018 0.66465777
0.079493172 -0.0064892471 0.66463423
0.073103562 0.047111213 0.66490149
0.011405228 0.053767502 0.6654802
-0.0032623932 0.055460691 0.66570699
-0.029226253 0.056828827 0.66479969
-0.053379536 0.058232218 0.66406107
-0.039109569 0.058664352 0.66551006
-0.03751092 0.058712751 0.6656723
-0.07879246 0.061734587 0.66490996
-0.07879246 0.061734587 0.66490996
-0.077142887 -0.018054724 0.66693115
-0.050878476 -0.016412377 0.66691947
-0.0049092481 -0.013091326 0.66633701
0.027066343 -0.011482552 0.66681397
0.054988079 -0.0098485351 0.66694182
0.060883455 -0.0098730028 0.66743344
0.077138871 0.049237609 0.66692084
0.050642963 0.050642937 0.66600239
0.057367332 0.050811082 0.66665697
0.019632777 0.053990155 0.66629457
0.035149693 0.052315325 0.66614842
-0.009022586 0.057418659 0.66683388
-0.0016466856 0.057634026 0.66757667
-0.059092686 0.062375635 0.66694629
-0.059092686 0.062375635 0.66694629
0.023187649 -0.013250083 0.6687324
0.034956057 -0.013316572 0.66973597
0.053072881 -0.011609703 0.66900611
0.057016149 0.052884206 0.66829443
0.046424922 0.054715097 0.66894639
0.036611732 0.056581795 0.66968715
0.011604154 0.058020771 0.66891062
-0.031359918 0.06106931 0.66803974
-0.061211914 0.064520657 0.66850501
-0.082178093 -0.021802336 0.67124844
-0.080559313 -0.021818131 0.67139518
-0.058610443 -0.020095021 0.67094433
0.0033608754 -0.016804367 0.67165089
0.06843967 -0.011684805 0.67030168
0.042078875 0.058910459 0.67197889
-0.043413654 0.065120459 0.67036152
-0.043413654 0.065120459 0.67036152
-0.0768601 0.068505734 0.67049617
-0.059298206 -0.022024989 0.67331624
-0.040511444 -0.020255685 0.67256093
-0.040511444 -0.020255685 0.67256093
-0.033023238 -0.020322174 0.67322946
0.020312242 -0.016926855 0.6731295
0.05605967 -0.015289009 0.67386478
0.074469157 -0.013539821 0.67310464
0.083235033 -0.013589412 0.67385221
0.07919009 0.055601537 0.672189
0.082700826 0.055696487 0.67253625
0.071092598 0.057551146 0.67312878
0.071092598 0.057551146 0.67312878
0.030384669 0.06076932 0.67256826
0.044190947 0.061187476 0.67397022
-0.0033783549 0.064188778 0.67270589
-0.06500151 -0.023947924 0.67528772
0.024014248 -0.018868357 0.67585957
0.064676084 0.059570074 0.674254
-0.003408645 0.066468596 0.67453402
0.010296978 0.066930383 0.67596334
-0.042526927 0.06974417 0.67414224
-0.015383956 0.068373144 0.67513829
0.03271164 -0.018938333 0.67662752
0.041461807 0.06564787 0.67734092
-0.0086543914 0.070966035 0.67773962
-0.073366553 -0.027949154 0.67966425
-0.022654681 -0.024397343 0.67916274
0.0034824973 -0.022636235 0.67899144
0.0069754557 -0.022670209 0.6793071
0.066358164 -0.019208908 0.6795972
0.040952705 0.067963466 0.67916083
0.080814488 -0.019325227 0.6808731
0.080814488 -0.019325227 0.6808731
-0.039017104 -0.028376102 0.68288511
-0.030265208 -0.028484881 0.6837061
-0.0017801923 -0.026702881 0.68369234
0.076245248 0.069152623 0.68284172
-0.026745604 -0.028528631 0.68403614
0.0035685853 -0.026764393 0.68418729
0.062490113 -0.023210645 0.6843248
0.071693026 -0.023300201 0.68515694
-0.074375629 -0.034466743 0.68777806
0.052182287 -0.025191426 0.68600959
0.057714507 -0.025250077 0.68651527
0.025531119 -0.029178411 0.68893832
0.04540991 -0.027245939 0.68806261
-0.0073767058 -0.033195198 0.69141591
-0.04833889 -0.037183791 0.69322801
0.0037060117 -0.033354104 0.69248164
0.068716422 -0.02971521 0.6929881
0.070630252 -0.029739052 0.69316792
0.037600182 -0.03384015 0.6957413
-0.047124524 -0.039584607 0.69634145
-0.015091045 -0.037727624 0.69651043
0.020799423 -0.035926282 0.69705069
0.051049653 -0.03403306 0.69703513
0.0019002774 -0.038005561 0.69818789
0.055650726 -0.036460817 0.70044678
0.071475171 -0.036703467 0.70198834
0.071475171 -0.036703467 0.70198834
-0.050281703 -0.044479966 0.70224792
0.076489672 -0.039225429 0.70555079
0.021650204 -0.04330042 0.70638692
0.021949513 -0.045894444 0.70967144
-0.024135089 -0.050281435 0.71158439
0.010064255 -0.048308432 0.71177673
0.062066589 -0.044047266 0.7104848
-0.070957549 -0.0547387 0.71352792
-0.046463594 -0.05252406 0.71265852
0.050492685 -0.046453208 0.71260434
-0.014340704 -0.053265423 0.71610069
-0.014547181 -0.056110561 0.7196613
0.0082750106 -0.053787589 0.71852463
0.043479208 -0.051760942 0.71872818
0.072330981 -0.049598396 0.7182647
-0.027262211 -0.058718622 0.72194564
0.060474064 -0.052132815 0.7205236
0.066910408 -0.05227375 0.72120416
0.010503644 -0.056719691 0.72238451
-0.06997323 -0.063612044 0.72475922
-0.025559498 -0.0617688 0.72591281
-0.08552561 -0.066282332 0.72690046
-0.051311187 -0.064138979 0.72687948
-0.057566211 -0.063962489 0.72616923
0.053486172 -0.057765096 0.72705823
-0.052082647 -0.067273408 0.73075962
-0.041425757 -0.067589372 0.73198998
-0.015203758 -0.065158963 0.73098356
-0.010880181 -0.065281093 0.73147494
-0.032827836 -0.067844212 0.73298216
0.039424259 -0.063516855 0.73318905
0.028773941 -0.066401362 0.73598266
0.064182907 -0.064182937 0.73596156
-0.018462289 0.013959448 0.63187295
-0.050067578 0.016803805 0.63105291
-0.050067578 0.016803805 0.63105291
-0.0371917 0.012171894 0.63205719
-0.046109334 0.0083205849 0.63620132
-0.046109334 0.0083205849 0.63620132
-0.033810224 0.008365564 0.63710618
0.046129428 0.01413492 0.63720113
-0.033381507 0.023215588 0.63749003
-0.05399124 0.02594753 0.63809156
0.018181346 0.0085556582 0.64093041
0.018181346 0.0085556582 0.64093041
0.054386277 0.0098067215 0.6421873
0.054386277 0.0098067215 0.6421873
0.057853095 0.020887529 0.64266813
-0.013957742 0.026487973 0.64161789
-0.0020108451 0.025999596 0.64214844
-0.010877457 0.029007271 0.64387846
-0.0064582834 0.0022103973 0.64698118
-0.0064582834 0.0022103973 0.64698118
-0.0021843035 0.0043690801 0.6446017
0.018110715 0.0049362369 0.64547467
0.0099326437 0.03016638 0.64641678
-0.066221371 0.037529718 0.64644629
-0.066002563 -0.0029831976 0.64885592
-0.045844503 -0.002249442 0.64950919
-0.028214984 -0 0.64805937
0.058114219 0.0030189008 0.65101135
0.068994328 0.0030326992 0.65184414
0.066821814 0.026728749 0.6480509
-0.025250778 0.035648167 0.6481005
-0.025250778 0.035648167 0.6481005
-0.0064693508 0.03495843 0.64899749
0.0065266388 0.033569373 0.64888579
0.048560705 0.033385515 0.65198517
-0.037895415 0.038086385 0.64908147
-0.026535898 -0.0050019473 0.65447819
-0.022049351 -0.003041327 0.65236431
0.022149073 0.037426874 0.6531899
0.060474005 0.037214756 0.65597999
-0.044796467 0.042518958 0.65210742
-0.018016072 0.042170279 0.65389609
0.041862883 -0.0047391504 0.65949333
-0.0023275935 0.043454126 0.6561389
0.04173138 0.041538831 0.65800405
-0.025723491 0.046770558 0.65699428
-0.018148854 0.048923835 0.65930837
-0.070172355 -0.013600055 0.66187614
-0.010232477 -0.010439329 0.66258752
-0.010232477 -0.010439329 0.66258752
0.0056259665 -0.0096440315 0.66282713
0.045269255 -0.0080837905 0.66396427
0.070117444 -0.005629912 0.66282117
0.061949853 0.045862153 0.66303706
0.02605617 0.049222011 0.66296256
-0.076061554 0.055461526 0.66008413
-0.061306786 0.055204075 0.6610173
-0.041758128 0.053558748 0.66120619
-0.057260059 0.05706225 0.66282165
-0.0536834 -0.016392104 0.66667449
-0.039585564 -0.016494006 0.66790414
0.017974958 -0.011438112 0.66604745
0.017974958 -0.011438112 0.66604745
0.026087778 -0.010603197 0.66563207
0.030219048 -0.01062201 0.66597855
0.05802495 -0.0089943483 0.66610539
0.014563039 0.051779717 0.66412795
0.069795251 0.050091676 0.66703928
-0.067602925 0.064305186 0.66783816
0.0020760829 -0.014941908 0.66920942
0.057748117 -0.011632532 0.66940022
0.054216485 0.054220825 0.66915101
-0.0058012204 0.059673294 0.6688931
-0.034088664 0.063189372 0.66953135
-0.066363841 0.068884373 0.67161095
0.0021249789 -0.01869227 0.67392766
0.046386011 0.059036314 0.67241299
0.0096918456 0.062358551 0.67224586
0.0096918456 0.062358551 0.67224586
0.062603161 0.061745226 0.67584044
-0.042910937 0.072090358 0.67599642
0.0060651526 -0.021665305 0.67797256
0.013878604 -0.021404659 0.67825574
0.013878604 -0.021404659 0.67825574
0.025620271 -0.020842873 0.67846727
0.033990748 -0.020917177 0.67921472
0.030095967 -0.018917263 0.67639649
0.054281585 0.063758895 0.67681432
0.066148341 0.061852664 0.67620063
0.073723465 0.06208206 0.67696983
-0.0096978089 -0.025573209 0.68165314
0.050324351 -0.022077329 0.68194956
0.078090884 -0.019303277 0.68063247
-0.070411548 -0.032291085 0.68535292
-0.054406725 -0.030325264 0.68413246
-0.042146567 -0.030489236 0.68529701
0.069790661 -0.025378302 0.68762064
-0.07764104 -0.039053485 0.69328856
-0.02640086 -0.035202488 0.69245243
0.030536355 -0.031461313 0.69219923
0.053253748 -0.031765148 0.6943568
-0.010395814 -0.03780435 0.69697356
0.018179461 -0.038271695 0.69979441
0.029416487 -0.036058441 0.6978904
0.042461768 -0.036258571 0.69916189
-0.070210494 -0.045367438 0.70180607
-0.033630632 -0.042279005 0.7007826
-0.0067594438 -0.041531213 0.70194286
0.022339631 -0.040793374 0.70328963
0.033710457 -0.03852576 0.7013278
0.057999738 -0.037709571 0.70219982
-0.054354843 -0.05234167 0.7118119
-0.054354843 -0.05234167 0.7118119
-0.022142962 -0.050324917 0.71179432
-0.022142962 -0.050324917 0.71179432
0.006939631 -0.045600533 0.70812881
-0.069973908 -0.054762527 0.71363461
-0.069973908 -0.054762527 0.71363461
-0.021444373 -0.053101465 0.71533924
0.053592667 -0.04651399 0.71292317
-0.038603973 -0.058428347 0.7206943
0.026057225 -0.054198056 0.72043043
0.074463978 -0.052439079 0.72200239
-0.082431674 -0.066373959 0.72725713
-0.042917568 -0.064376354 0.72783458
-0.073053226 -0.063524976 0.72440886
-0.008457128 -0.059199899 0.72402048
0.041509233 -0.057473645 0.72575533
0.041509233 -0.057473645 0.72575533
0.06007041 -0.057924986 0.72777343
0.073366173 -0.055290073 0.72550035
-0.06578818 -0.066867173 0.72917771
-0.022730749 -0.064946458 0.73012847
0.027026393 -0.061645105 0.72986746
0.029216249 -0.061702415 0.73011023
-0.033905573 -0.067812189 0.73285747
0.028773941 -0.066401362 0.73598266
0.049490966 -0.063787669 0.73431635
