# .PCD v0.7 - Point Cloud Data file format
VERSION 0.7
FIELDS x y z
SIZE 4 4 4
TYPE F F F
COUNT 1 1 1
WIDTH 805
HEIGHT 1
VIEWPOINT 0 0 0 1 0 0 0
POINTS 805
DATA ascii
-0.033195402 -0.047239617 0.62292105
-0.033195402 -0.026811659 0.62292099
-0.033195402 -0.026811659 0.62292099
-0.033195402 -0.026811659 0.62292099
-0.033195402 0.025534958 0.62292105
-0.032053322 -0.04872103 0.62357122
-0.032053322 -0.034617573 0.62357128
-0.032053322 -0.0076927841 0.62357128
-0.032053322 0.0089749396 0.62357128
-0.034823369 -0.06061846 0.62449121
-0.03099039 -0.056815699 0.62467372
-0.03099039 -0.020660281 0.62467372
-0.03099039 0.001291275 0.62467372
-0.03099039 0.0051650703 0.62467378
-0.03099039 0.0051650703 0.62467378
-0.03099039 0.0064563453 0.62467372
-0.034823369 0.012897551 0.62449121
-0.03099039 0.014203966 0.62467372
-0.03099039 0.028407872 0.62467372
-0.03099039 0.042611778 0.62467372
-0.03099039 0.046485603 0.62467372
-0.03099039 0.058106989 0.62467378
-0.03099039 0.059398234 0.62467378
-0.029912125 -0.027311057 0.62579167
-0.028818361 -0.035367996 0.62692606
-0.028818361 -0.015719086 0.62692612
-0.028818361 -0.0039297938 0.62692612
-0.036484744 0.032575667 0.62609339
-0.028818361 0.034058094 0.62692606
-0.028818361 0.055016905 0.62692606
-0.036484744 0.058636189 0.62609333
-0.038180776 -0.057929471 0.62772924
-0.038180776 -0.043447092 0.62772924
-0.038180776 -0.043447092 0.62772924
-0.038180776 -0.027648181 0.62772924
-0.038180776 0.019748688 0.62772918
-0.038180776 0.019748688 0.62772918
-0.038180776 0.04213053 0.62772918
-0.027708674 -0.047500566 0.62807715
-0.027708674 -0.044861645 0.62807715
-0.027708674 0.027708679 0.62807709
-0.026582712 -0.029240996 0.62924498
-0.039912462 -0.0079824924 0.62939948
-0.039912462 -0.0013304055 0.62939942
-0.026582712 0.001329124 0.62924498
-0.026582712 0.0066456795 0.62924498
-0.026582712 0.061140239 0.62924498
-0.025440117 -0.061591864 0.6304301
-0.025440117 -0.02142325 0.6304301
-0.024280515 -0.063399106 0.63163286
-0.041680809 -0.022857219 0.63110471
-0.024280515 -0.009442389 0.63163286
-0.041680809 0.010756344 0.63110471
-0.024280515 0.017535955 0.63163286
-0.041680809 0.022857219 0.63110471
-0.041680809 0.025546312 0.63110471
-0.024280515 0.026978344 0.63163286
-0.041680809 0.029579937 0.63110471
-0.024280515 0.051258832 0.63163286
-0.024280515 0.059352338 0.63163292
-0.024280515 0.062050223 0.63163286
-0.041680928 0.065882772 0.63110518
-0.04348724 -0.053000048 0.63284701
-0.04348724 -0.053000048 0.63284701
-0.023103526 -0.047566101 0.63285369
-0.023103526 -0.031257719 0.63285369
-0.04348724 -0.016307712 0.63284707
-0.04348724 -0.010871798 0.63284707
-0.04348724 2.9802322e-08 0.63284707
-0.04348724 0.005435884 0.63284707
-0.04348724 0.0081538856 0.63284707
-0.023103526 0.024462551 0.63285369
-0.023103526 0.038052857 0.63285363
-0.023103526 0.044848025 0.63285363
-0.023103526 0.044848025 0.63285363
-0.023103526 0.044848025 0.63285363
-0.04348724 0.050282121 0.63284701
-0.04348724 0.05707705 0.63284707
-0.021908753 -0.05751048 0.63409293
-0.021908753 -0.049294695 0.63409287
-0.045332875 -0.028848171 0.63462716
-0.045332875 -0.01511097 0.63462722
-0.021908753 2.9802322e-08 0.63409293
-0.021908753 0.0068464875 0.63409287
-0.045332875 0.034343094 0.63462722
-0.045332875 0.034343094 0.63462722
-0.045332875 0.049454063 0.63462722
-0.020695794 -0.037252426 0.635351
-0.020695794 -0.012417465 0.635351
-0.020695794 -0.0041391253 0.635351
-0.019464228 -0.047270268 0.63662839
-0.019464228 -0.031976908 0.63662839
-0.019464228 -0.013902992 0.63662845
-0.047218867 -0.0069439411 0.63644588
-0.047218867 0.0152767 0.63644588
-0.019464228 0.025025457 0.63662839
-0.019464228 0.033367276 0.63662839
-0.047218867 0.041663706 0.63644594
-0.019464228 0.062563598 0.63662845
-0.047219008 0.066662163 0.63644642
-0.01821357 -0.063046947 0.63792509
-0.018213624 -0.060245037 0.63792557
-0.018213624 -0.026619881 0.63792557
-0.018213624 0.057442993 0.63792562
-0.049146838 -0.058976173 0.63830549
-0.049146838 -0.051955208 0.63830549
-0.049146838 -0.044934243 0.63830554
-0.049146838 0.021062911 0.63830549
-0.016943537 -0.0042358935 0.63924295
-0.016943537 0.014119595 0.63924295
-0.016943537 0.063538283 0.63924289
-0.016943537 0.066362202 0.63924289
-0.016943537 0.066362202 0.63924289
-0.015653461 -0.058344737 0.64058048
-0.015653461 -0.051229537 0.64058048
-0.051118061 -0.04543829 0.64020681
-0.015653461 -0.0412682 0.64058048
-0.051118061 -0.028398931 0.64020681
-0.051118061 -0.012779504 0.64020681
-0.015653461 0.0014230609 0.64058048
-0.051118061 0.012779504 0.64020675
-0.051118061 0.039758503 0.64020675
-0.015653461 0.045537382 0.64058042
-0.051118061 0.055377901 0.64020681
-0.01434302 -0.047331959 0.64193964
-0.01434302 -0.037291855 0.64193964
-0.01434302 -0.022948831 0.6419397
-0.01434302 -0.011474431 0.6419397
-0.01434302 0.01577732 0.6419397
-0.01434302 0.017211616 0.6419397
-0.01434302 0.022948831 0.6419397
-0.01434302 0.032988966 0.64193964
-0.01434302 0.032988966 0.64193964
-0.01434302 0.032988966 0.64193964
-0.01434302 0.057372063 0.6419397
-0.01434302 0.060240656 0.6419397
-0.053133842 -0.058878034 0.64215064
-0.053133842 -0.051697806 0.64215064
-0.013011675 0.0057829618 0.64332056
-0.013011675 0.027469099 0.64332056
-0.055196043 -0.063911185 0.64413965
-0.055196043 -0.029050559 0.64413965
-0.055196043 -0.024692953 0.64413971
-0.055196043 -0.0159778 0.64413965
-0.011658922 -0.0029146969 0.64472365
-0.055196043 0.033408135 0.64413965
-0.011658922 0.036434114 0.64472365
-0.055196043 0.040670782 0.64413971
-0.055196043 0.053743541 0.64413971
-0.055196043 0.059553653 0.64413965
-0.055196043 0.063911229 0.64413965
-0.055196043 0.065363735 0.64413965
-0.055196043 0.06681627 0.64413965
-0.057305932 -0.063183427 0.64617431
-0.057305932 -0.057305917 0.64617431
-0.010284241 -0.051421195 0.64614952
-0.010284241 -0.04701367 0.64614952
-0.010284241 -0.03819859 0.64614952
-0.010284241 -0.03819859 0.64614952
-0.010284241 -0.02938354 0.64614952
-0.057305932 -0.026448905 0.64617431
-0.010284241 -0.016160935 0.64614952
-0.010284241 0.013222605 0.64614958
-0.010284241 0.024976015 0.64614952
-0.057306115 0.039673477 0.64617491
-0.010284241 0.054359555 0.64614952
-0.010284241 0.057297915 0.64614952
-0.057306115 0.060244918 0.64617485
-0.0088870954 -0.0014812052 0.64759868
-0.0088870954 0.0074059367 0.64759868
-0.059465557 -0.05500564 0.64825732
-0.059465557 -0.050545722 0.64825732
-0.059465557 -0.034192681 0.64825732
-0.059465557 -0.019326299 0.64825732
-0.059465557 -0.0029732883 0.64825737
-0.059465557 0.014866412 0.64825732
-0.059465557 0.025272876 0.64825732
-0.059465557 0.040139258 0.64825737
-0.0074669267 -0.059735402 0.64907169
-0.0074669267 -0.034347832 0.64907169
-0.0074669267 -0.019414008 0.64907169
-0.0074669267 0.019414037 0.64907169
-0.0074669267 0.029867738 0.64907169
-0.0074669267 0.031361133 0.64907169
-0.0074669267 0.034347862 0.64907169
-0.0074669267 0.041814834 0.64907169
-0.0074669267 0.044801533 0.64907163
-0.0074669267 0.050775111 0.64907169
-0.0074669267 0.0642156 0.64907169
-0.0074669267 0.0642156 0.64907169
-0.0060231644 -0.06324321 0.6505692
-0.061676506 -0.06017223 0.65038985
-0.061676506 -0.04512915 0.65038979
-0.0060231644 -0.033127397 0.6505692
-0.0060231644 -0.024092674 0.6505692
-0.061676506 -0.013538718 0.65038979
-0.0060231644 -0.013552129 0.6505692
-0.0060231644 2.9802322e-08 0.6505692
-0.0060231644 0.0030116141 0.6505692
-0.061676506 0.0060172677 0.65038979
-0.061676506 0.0075215399 0.65038979
-0.061676506 0.0075215399 0.65038979
-0.0060231644 0.013552129 0.6505692
-0.0060231644 0.013552129 0.6505692
-0.0060231644 0.025598466 0.6505692
-0.061676506 0.042120546 0.65038979
-0.063940428 -0.054806083 0.65257299
-0.0045552137 -0.045552135 0.6520918
-0.0045552137 0.010628849 0.65209174
-0.063940637 0.021313578 0.65257359
-0.063940637 0.051761508 0.65257359
-0.063940637 0.054806292 0.65257359
-0.0045552137 0.059217781 0.65209174
-0.0045552137 0.059217781 0.65209174
-0.0030624624 -0.052061856 0.65364009
-0.0030624624 -0.047468156 0.65364003
-0.0030624624 -0.045936912 0.65364003
-0.0030624624 -0.027562171 0.65364003
-0.0030624624 -0.016843528 0.65364009
-0.0030624624 -0.0061249137 0.65364009
-0.0030624624 0.039811999 0.65364003
-0.066259675 -0.01695016 0.65480995
-0.066259675 -0.01695016 0.65480995
-0.066259675 0.036982179 0.65480989
-0.066259675 0.036982179 0.65480989
-0.066259891 0.063178033 0.65481055
-0.0015442714 -0.06485939 0.65521419
-0.0015442714 -0.061770841 0.65521413
-0.0015442763 -0.032429814 0.65521473
-0.0015442763 -0.032429814 0.65521473
-0.0015442763 0.032429814 0.65521479
-0.0015442763 0.032429814 0.65521479
-0.0015442763 0.033974081 0.65521479
0 -0.063859165 0.65681589
0 -0.048283756 0.65681589
0 -0.020248115 0.65681654
-0.068636075 -0.056156784 0.65710205
-0.068636075 -0.038997769 0.65710199
-0.068636075 0.0046797395 0.65710199
-0.068636075 0.020278841 0.65710199
-0.068636075 0.020278841 0.65710199
-0.068636075 0.045237392 0.65710199
0.0015710398 -0.056557447 0.65844542
0.0015710398 -0.056557447 0.65844542
-0.071071528 -0.041063577 0.65945059
-0.071071528 -0.030007958 0.65945065
-0.071071528 -0.030007958 0.65945065
-0.071071528 -0.022111148 0.65945059
-0.071071528 -0.022111148 0.65945059
-0.071071766 0.0063174963 0.65945125
-0.071071766 0.03474623 0.65945125
-0.071071766 0.041063696 0.65945125
-0.071071766 0.041063696 0.65945125
-0.071071766 0.053698719 0.65945125
0.0031695503 -0.028525949 0.66010344
0.0031695503 -0.028525949 0.66010344
0.0031695503 -0.017432511 0.66010338
0.0031695503 -0.012678206 0.66010344
0.0031695503 0.034865052 0.66010344
0.0031695503 0.058636665 0.66010344
0.0047962582 -0.054357588 0.66179061
-0.073568761 -0.052777618 0.66185921
-0.073568761 -0.030387074 0.66185921
0.0047962582 0.011191249 0.66179067
0.0047962582 0.033573806 0.66179067
-0.073569007 0.04638049 0.66185987
0.0047962582 0.047962606 0.66179061
0.0064519164 -0.051615328 0.66350794
0.0064519164 0.01451683 0.66350794
-0.076129891 -0.043734193 0.66432947
0.0081373043 -0.058588564 0.66525602
0.0081373043 -0.048823833 0.66525602
0.0081373043 -0.039059043 0.66525602
-0.078757152 -0.054145545 0.66686302
-0.07875742 0.036097139 0.66686374
0.0098532308 -0.027917475 0.66703582
0.0098532308 -0.0082109869 0.66703582
0.0098532308 0.0032844245 0.66703582
0.0098532308 0.022990882 0.66703582
0.0098532308 0.022990882 0.66703582
0.011600532 0.053030998 0.66884816
0.011600532 0.061317086 0.66884816
-0.081453666 -0.054856569 0.66946387
-0.081453666 -0.041557997 0.66946387
-0.081453666 -0.024934798 0.66946387
-0.081453666 -0.0099739134 0.66946387
-0.081453666 0.014960885 0.66946387
0.013380078 -0.033450156 0.67069387
0.013380078 -0.025087655 0.67069387
0.013380078 0.010035068 0.67069387
0.013380078 0.030105203 0.67069387
0.013380078 0.035122722 0.67069387
0.013380078 0.036795229 0.67069387
0.013380078 0.038467735 0.67069387
0.013380078 0.040140241 0.67069393
0.015192715 -0.050642341 0.67257327
0.015192769 -0.040514052 0.67257404
0.015192769 -0.040514052 0.67257404
0.015192769 -0.0067523718 0.67257404
-0.084221952 0.02358216 0.67213386
0.015192769 0.047266394 0.67257404
0.017039478 -0.059638143 0.67448878
0.017039478 -0.049414456 0.67448884
0.017039478 -0.047710508 0.67448878
0.017039478 -0.04600656 0.67448878
0.017039539 -0.023855329 0.67448956
0.017039539 0.027263284 0.67448956
0.017039539 0.061342329 0.67448956
0.01892129 -0.058483988 0.67644066
0.01892136 -0.013760984 0.67644143
0.01892136 -0.012040854 0.67644143
0.01892136 0.0017201304 0.67644143
0.01892136 0.029242098 0.67644143
0.01892136 0.053323835 0.67644137
0.02083916 -0.060780913 0.67842984
0.020839237 -0.0052097738 0.67843062
0.020839237 -0.0052097738 0.67843062
0.020839237 0.034732074 0.67843062
0.020839237 0.041678458 0.67843068
0.020839237 0.041678458 0.67843068
0.020839237 0.052098095 0.67843068
0.020839237 0.052098095 0.67843068
0.020839237 0.064254314 0.67843068
0.024787296 -0.0070820749 0.68252492
0.024787391 0.0070821345 0.68252575
0.024787391 0.056656897 0.68252575
0.026819782 -0.055427551 0.68463302
0.026819782 -0.026819766 0.68463302
0.026819782 0.0017879903 0.68463308
0.026819782 0.016091883 0.68463308
0.026819782 0.032183737 0.68463302
0.026819782 0.032183737 0.68463302
0.028892761 0.036115974 0.68678313
0.031007459 -0.040127277 0.68897659
0.033165019 -0.062645018 0.69121367
0.033165149 -0.023952633 0.69121456
0.033165149 -0.011055022 0.6912145
0.033165149 0.035007685 0.69121456
0.035367154 0.013030022 0.69349843
0.037614699 -0.050779849 0.69582891
0.037614848 0.0056422353 0.69582987
0.037614848 0.039495647 0.69582981
0.039909516 -0.057013571 0.69820911
0.039909516 -0.057013571 0.69820911
0.039909516 -0.038009077 0.69820917
0.039909516 -0.03040722 0.69820917
0.039909676 -0.017104149 0.69821006
0.039909676 -0.0095022917 0.69821
0.039909676 -0.0095022917 0.69821
0.039909676 2.9802322e-08 0.69821
0.039909676 0.036108762 0.69821006
0.044646602 -0.025235027 0.70312244
0.044646602 -0.025235027 0.70312244
0.044646788 0.031058639 0.70312345
0.044646788 0.060176134 0.70312345
0.047092065 -0.021583825 0.70565891
0.047092255 0.054940999 0.70565993
0.04959105 -0.045623779 0.70825088
0.04959105 -0.011901826 0.70825082
0.04959105 0.0079345703 0.70825088
0.04959105 0.011901855 0.70825088
0.04959105 0.011901855 0.70825088
0.052145328 -0.056156516 0.71090025
0.052145328 -0.046128541 0.71090019
0.052145328 -0.038106203 0.71090019
0.052145548 0.04612878 0.7109012
0.054756764 -0.040560573 0.7136088
0.054756764 -0.016224235 0.7136088
0.054756764 0.034476489 0.7136088
0.054756764 0.064896911 0.7136088
0.057427298 -0.004101932 0.71637863
0.060158957 -0.033191174 0.71921206
0.060158957 -0.031116694 0.719212
0.060158957 -0.020744473 0.719212
0.060158957 0.010372192 0.71921206
0.060158957 0.053935617 0.719212
0.065814234 -0.012738258 0.72507775
0.065814234 0.0063691437 0.72507763
0.065814234 0.016984344 0.72507769
0.071740478 -0.056522787 0.73122358
0.071740478 -0.054348856 0.73122358
0.071740478 -0.045653015 0.73122358
0.071740478 -0.039131165 0.73122358
0.071740478 -0.021739542 0.73122358
0.071740814 2.9802322e-08 0.73122478
0.07481166 -0.0088013709 0.73440903
0.07481201 0.019803226 0.73441023
0.07481201 0.024203897 0.73441017
0.077958323 2.9802322e-08 0.73767275
0.08118327 -0.040591627 0.7410177
0.084489889 0.057087779 0.74444818
0.084489889 0.06393832 0.74444818
-0.032624364 0.01727245 0.62324613
-0.034823369 -0.06319797 0.62449121
-0.03099039 -0.056815699 0.62467372
-0.029912125 -0.050720558 0.62579167
-0.034823369 -0.049010649 0.62449121
-0.03099039 -0.040674873 0.62467372
-0.029912125 -0.020808429 0.62579167
-0.03099039 -0.016786456 0.62467378
-0.03099039 -0.010975763 0.62467372
-0.03099039 -0.0051650703 0.62467378
-0.03099039 -0.0051650703 0.62467378
-0.034823369 0.0090282559 0.62449127
-0.034823369 0.010962933 0.62449121
-0.029912125 0.011054471 0.62579167
-0.034823369 0.018701464 0.62449121
-0.034823369 0.025150225 0.62449121
-0.03099039 0.047131225 0.62467372
-0.03099039 0.047131225 0.62467372
-0.03099039 0.058752611 0.62467378
-0.038180776 -0.019090384 0.62772918
-0.038180776 -0.015140638 0.62772918
-0.028818361 -0.0091694593 0.62692606
-0.028818361 0.022923693 0.62692612
-0.028818361 0.026853487 0.62692612
-0.038180776 0.036864191 0.62772924
-0.036484849 0.061242431 0.6260938
-0.039912462 -0.059203513 0.62939948
-0.027145693 -0.047012571 0.62866104
-0.027145693 -0.033107445 0.62866104
-0.027145693 -0.019202322 0.62866104
-0.027145693 0.013242975 0.62866104
-0.039912462 0.043238506 0.62939942
-0.027145693 0.050985478 0.6286611
-0.025053583 -0.056821853 0.630831
-0.041680809 -0.045042157 0.63110471
-0.041680809 -0.012773171 0.63110471
-0.041680809 0.016806781 0.63110471
-0.024860315 0.0188151 0.63103151
-0.024860315 0.0188151 0.63103151
-0.041680809 0.041008532 0.63110471
-0.024860315 0.043005943 0.63103151
-0.04348724 -0.065230846 0.63284707
-0.023103526 -0.061156377 0.63285363
-0.04348724 0.0027179718 0.63284707
-0.04348724 0.0047564059 0.63284707
-0.04348724 0.031256467 0.63284701
-0.04348724 0.042807773 0.63284707
-0.023103526 0.048925102 0.63285369
-0.023103526 0.048925102 0.63285369
-0.04348724 0.061153919 0.63284707
-0.045332875 -0.052888334 0.63462722
-0.021100115 -0.040827464 0.63493168
-0.021504432 -0.038894027 0.63451231
-0.045332875 0.028848171 0.63462722
-0.045332875 0.03709051 0.63462722
-0.047218867 -0.0069439411 0.63644588
-0.018838927 0.0069783628 0.63727701
-0.018838927 0.018841609 0.63727701
-0.019047361 0.031128895 0.63706082
-0.019047361 0.045067739 0.63706082
-0.049146838 -0.061082497 0.63830554
-0.016943486 -0.059302166 0.63924241
-0.049146838 -0.056869924 0.63830554
-0.016943537 -0.048712671 0.63924295
-0.049146838 -0.02106294 0.63830549
-0.049146838 -0.011233538 0.63830554
-0.016943537 -0.0070598125 0.63924295
-0.049146838 0.012637794 0.63830549
-0.016943537 0.026827306 0.63924289
-0.016943537 0.035299033 0.63924295
-0.049146838 0.040721685 0.63830549
-0.049146838 0.044934243 0.63830554
-0.015216648 -0.038997792 0.64103353
-0.051118061 -0.032658726 0.64020675
-0.014779834 -0.030993959 0.64148659
-0.01499824 -0.017144054 0.64126009
-0.051118061 0.0070997477 0.64020681
-0.051118061 0.046858251 0.64020681
-0.01499824 0.065004572 0.64126009
-0.013011675 -0.060721129 0.64332056
-0.053133842 -0.050979756 0.64215064
-0.013011675 -0.050600946 0.64332056
-0.053133842 -0.0150785 0.64215064
-0.053133842 -0.0150785 0.64215064
-0.013011675 -0.010843039 0.64332056
-0.013011675 0.039035022 0.64332056
-0.011658922 0.01093024 0.64472365
-0.055196043 0.017430365 0.64413965
-0.011658922 0.016759709 0.64472365
-0.055196043 0.021061659 0.64413965
-0.055196043 0.05083847 0.64413971
-0.0088870954 -0.047397822 0.64759862
-0.0088870954 -0.04147312 0.64759868
-0.010284241 -0.024976015 0.64614952
-0.057305932 -0.002938807 0.64617431
-0.057306115 0.035265267 0.64617491
-0.010284241 0.063174635 0.64614952
-0.0074669267 -0.053015172 0.64907169
-0.059465557 -0.037166029 0.64825732
-0.059465557 -0.037166029 0.64825732
-0.059465557 -0.020812958 0.64825732
-0.059465557 -0.014866352 0.64825726
-0.059465557 0.011149794 0.64825726
-0.0074669267 0.038828015 0.64907169
-0.0074669267 0.038828015 0.64907169
-0.059465747 0.057235777 0.64825785
-0.0060231644 -0.058725849 0.6505692
-0.061676506 -0.048889905 0.65038979
-0.0060231644 -0.028610021 0.65056914
-0.0060231644 0.0030116141 0.6505692
-0.061676506 0.021060288 0.65038979
-0.0060231644 0.02484557 0.6505692
-0.061676506 0.042872697 0.65038979
-0.0030624624 -0.019140378 0.65364009
-0.0045552137 -0.015184045 0.65209174
-0.0030624624 0.00076560676 0.65364003
-0.0045552137 0.012906447 0.65209174
-0.0030624624 0.016843528 0.65364009
-0.0030624624 0.047468185 0.65364009
-0.0030624624 0.047468185 0.65364009
-0.0030624624 0.06278047 0.65364009
-0.0015442714 -0.058682293 0.65521413
-0.0015442714 -0.050960958 0.65521413
-0.0015442763 -0.04478398 0.65521473
-0.0015442763 -0.04478398 0.65521473
-0.066259675 0.01695016 0.65480995
-0.0015442763 0.038606942 0.65521479
-0.066259786 0.046998203 0.65481025
-0.068636075 -0.05927664 0.65710199
0 -0.059186548 0.65681595
0 -0.03504476 0.65681648
0 -0.03504476 0.65681648
0 -0.018690556 0.65681654
0 -0.0046726167 0.65681648
-0.068636075 -0.0015598834 0.65710199
-0.068636075 0.018718928 0.65710199
-0.068636075 0.018718928 0.65710199
0.001571045 -0.026707739 0.65844607
-0.071071528 -0.018952399 0.65945059
-0.071071528 -0.018952399 0.65945059
-0.071071528 -0.0031587183 0.65945065
0.001571045 0.043203741 0.65844607
-0.073568761 -0.060774148 0.66185921
0.0047962582 -0.039169461 0.66179067
0.0047962582 -0.02877754 0.66179061
-0.073568761 0.020791173 0.66185921
0.0047962582 0.020783812 0.66179061
0.0047962582 0.02877757 0.66179067
0.0047962582 0.02877757 0.66179067
-0.073568761 0.033585757 0.66185921
-0.073569007 0.03678447 0.66185993
0.0047962582 0.049561352 0.66179067
0.0031695503 0.063391 0.66010338
0.0064519164 -0.037098527 0.66350794
0.0064519164 -0.0048389733 0.66350794
0.0064519164 0.011290878 0.66350794
0.0064519164 0.01451683 0.66350794
0.0064519164 0.050808847 0.66350794
0.0081373043 -0.055333674 0.66525602
-0.076129891 -0.019437373 0.66432941
0.0081373043 0.0048823953 0.66525602
-0.076129891 0.046973735 0.66432947
-0.076129891 0.053452879 0.66432947
0.0081373043 0.056961119 0.66525602
0.0081373043 0.056961119 0.66525602
0.0098532308 -0.05501385 0.66703582
0.0098532308 -0.02463308 0.66703582
-0.07875742 0.0090242922 0.66686374
0.0098532308 0.013137668 0.66703576
-0.07875742 0.021330148 0.66686374
-0.07875742 0.029534012 0.66686374
-0.07875742 0.039378703 0.6668638
-0.07875742 0.041019499 0.66686374
0.0098532308 0.04269737 0.66703582
-0.07875742 0.049223363 0.6668638
-0.081453666 -0.061505824 0.66946381
-0.081453666 -0.036571026 0.66946387
-0.081453666 -0.029090598 0.66946387
0.011600532 -0.021543831 0.6688481
-0.081453666 0.013298601 0.66946387
-0.081453666 0.029090598 0.66946387
-0.081453957 0.039064646 0.66946459
0.013380078 -0.0066900253 0.67069387
0.013380078 0.020906374 0.67069387
0.013380078 0.020906374 0.67069387
0.013380078 0.028432667 0.67069387
0.013380078 0.056865335 0.67069393
0.015192715 -0.060770869 0.67257333
0.015192715 -0.050642341 0.67257327
0.015192769 -0.023633182 0.67257404
-0.084221952 0.00084222853 0.67213392
0.017039539 -0.039190948 0.67448956
0.017039539 -0.032375127 0.67448956
0.017039539 0.0085197687 0.67448956
0.017039539 0.032375157 0.6744895
0.01892136 0.046443313 0.67644143
0.01892136 0.063644588 0.67644137
0.01892136 0.065364718 0.67644137
0.01892136 0.065364718 0.67644137
0.02083916 -0.062517494 0.6784299
0.020839237 -0.0017365813 0.67843068
0.020839237 0.010419637 0.67843068
0.020839237 0.022575855 0.67843068
0.020839237 0.052966401 0.67843068
0.022794133 -0.052601814 0.68045759
0.022794217 0.040328234 0.68045837
0.022794217 0.054355443 0.68045837
0.022794217 0.054355443 0.68045837
0.024787296 -0.028328329 0.68252492
0.024787296 -0.028328329 0.68252492
0.024787391 0.0070821345 0.68252575
0.026819782 -0.046487629 0.68463308
0.028892761 -0.018960863 0.68678319
0.028892761 -0.0072231889 0.68678319
0.028892761 0.0072231889 0.68678313
0.028892761 0.050562322 0.68678319
0.028892761 0.055076823 0.68678319
0.031007459 -0.054719031 0.68897659
0.031007459 0.058367014 0.68897653
0.033165149 -0.011055022 0.6912145
0.033165149 0.016582578 0.6912145
0.035367154 -0.048397154 0.69349849
0.035367154 -0.04653573 0.69349849
0.035367154 -0.00093071163 0.69349849
0.037614699 -0.060183525 0.69582891
0.037614699 -0.05454132 0.69582891
0.037614848 0.050780058 0.69582981
0.037614848 0.050780058 0.69582981
0.037614848 0.067706734 0.69582987
0.039909516 -0.032307684 0.69820917
0.039909676 -0.022805542 0.69821
0.039909676 0.00095026195 0.69821
0.039909676 0.066516161 0.69821
0.042252965 -0.053776473 0.70063972
0.042252965 -0.051855892 0.70063972
0.042253137 0.036491364 0.70064068
0.042253137 0.036491364 0.70064068
0.044646788 0.017470449 0.70312345
0.044646788 0.029117495 0.70312345
0.047092065 -0.021583825 0.70565891
0.047092065 0.00098109245 0.70565891
0.047092255 0.056903183 0.70565987
0.04959105 -0.065460175 0.70825088
0.04959105 -0.033721894 0.70825088
0.04959105 -0.033721894 0.70825088
0.04959105 -0.029754609 0.70825088
0.04959105 -0.0099181831 0.70825082
0.052145328 -0.050139725 0.71090025
0.052145328 -0.014039129 0.71090019
0.052145328 0.024067074 0.71090019
0.052145328 0.028078288 0.71090019
0.052145328 0.028078288 0.71090019
0.052145548 0.030084014 0.7109012
0.052145548 0.038106382 0.7109012
0.052145548 0.038106382 0.7109012
0.052145548 0.052145571 0.7109012
0.052145548 0.060167968 0.7109012
0.052145548 0.060167968 0.7109012
0.054756764 -0.048672676 0.7136088
0.054756764 -0.04461664 0.71360886
0.054756764 -0.018252224 0.71360886
0.057427298 0.055376351 0.71637869
0.060158957 -0.041488916 0.719212
0.060158957 -0.035265595 0.719212
0.060158957 -0.033191174 0.71921206
0.060158957 0.031116724 0.719212
0.060158957 0.035265625 0.71921194
0.062953576 -0.056658238 0.72210974
0.06295386 -0.04196921 0.72211087
0.06295386 -0.04196921 0.72211087
0.06295386 -0.033575356 0.72211087
0.06295386 -0.027280003 0.72211087
0.06295386 -0.025181532 0.72211087
0.065813936 -0.063690901 0.7250765
0.065814234 0.040337771 0.72507769
0.068742089 -0.032222867 0.72811359
0.068742402 0.0064446032 0.72811472
0.068742402 0.0085927844 0.72811484
0.068742402 0.034371197 0.72811478
0.071740478 -0.052174896 0.73122352
0.071740478 -0.052174896 0.73122352
0.071740478 -0.050000936 0.73122358
0.071740478 -0.034783244 0.73122358
0.071740478 -0.015217662 0.73122352
0.071740478 -0.008695811 0.73122358
0.071740814 2.9802322e-08 0.73122478
0.071740814 0.019565701 0.73122472
0.07481166 -0.037405849 0.73440903
0.07481166 -0.017602742 0.73440897
0.077958323 -0.02672857 0.73767275
0.077958323 -0.02672857 0.73767275
0.08118327 0.013530552 0.7410177
0.08118327 0.015785664 0.7410177
0.08448948 -0.059370995 0.74444687
0.08448948 0.052520514 0.74444687
-0.032624364 0.0019191615 0.62324619
-0.032624364 0.0019191615 0.62324619
-0.038180776 -0.064512357 0.62772918
-0.034823369 -0.029986784 0.62449121
-0.037332758 -0.018009774 0.62691128
-0.034823369 0.026117556 0.62449121
-0.034823369 0.026117556 0.62449121
-0.039912462 -0.046231929 0.62939942
-0.039912462 -0.046231929 0.62939942
-0.026003003 -0.042022221 0.62984622
-0.039912462 -0.022284448 0.62939942
-0.04348724 -0.054019302 0.63284707
-0.045332875 -0.033999637 0.63462722
-0.04348724 -0.0057756454 0.63284707
-0.0222029 0.0017084721 0.63378781
-0.04348724 0.018006451 0.63284707
-0.045332875 0.022323005 0.63462722
-0.0222029 0.025966685 0.63378787
-0.04348724 0.041788541 0.63284707
-0.045332875 0.058039844 0.63462722
-0.049146838 -0.062135629 0.63830549
-0.047218867 -0.062148362 0.63644594
-0.049146838 -0.050199986 0.63830554
-0.047218867 -0.046177261 0.63644594
-0.047218867 -0.021873444 0.63644588
-0.049146838 0.0017552376 0.63830554
-0.047218867 0.010068737 0.63644594
-0.053133842 -0.034106165 0.64215064
-0.051118061 -0.010294594 0.64020681
-0.051118061 0.022009179 0.64020681
-0.053133842 0.034106188 0.64215064
-0.053133842 0.034106188 0.64215064
-0.014004958 0.049940817 0.64229029
-0.014004958 0.049940817 0.64229029
-0.055196043 -0.062095545 0.64413965
-0.010276753 -0.058033049 0.64615726
-0.010276753 -0.058033049 0.64615726
-0.055196043 0.01416216 0.64413971
-0.010276753 0.01799823 0.64615726
-0.057306115 0.026081637 0.64617491
-0.010276753 0.02595561 0.64615732
-0.061676506 -0.065437265 0.65038979
-0.061676506 -0.03384687 0.65038979
-0.0067450455 -0.0059967935 0.64982045
-0.061676506 0.03384687 0.65038979
-0.061676506 0.057915762 0.65038985
-0.063940428 -0.058231447 0.65257299
-0.0023033693 0.017875563 0.65442741
-0.0023033693 0.03786638 0.65442741
-0.066259727 0.045842484 0.65481007
-0.0045552137 0.053903356 0.65209174
-0.0045552137 0.066050604 0.65209174
0.00078551989 -0.050055604 0.65763062
-0.069853917 0.025899097 0.65827662
0.0031695503 -0.064975783 0.66010338
0.0031695503 -0.021790653 0.66010344
0.0056240875 0.026295155 0.66264927
0.0031695503 0.057844296 0.66010344
0.0056240875 0.062025685 0.66264927
0.0089952676 -0.041891679 0.66614592
0.0089952676 -0.041891679 0.66614592
0.0089952676 -0.01389607 0.66614592
-0.077443525 -0.010189246 0.66559625
0.0089952676 -0.0057218969 0.66614592
-0.077443652 0.038106535 0.66559666
0.0089952676 0.061916538 0.66614592
0.011600532 -0.02568689 0.66884816
0.011600532 0.0020715371 0.66884816
0.013380078 0.045994043 0.67069393
0.017039539 0.02641131 0.67448956
-0.084221952 0.066114239 0.67213392
0.017039539 0.065602213 0.67448956
0.02083916 -0.054268651 0.67842984
0.02083916 -0.0425466 0.67842984
0.01892136 0.0021501556 0.67644143
0.022794133 -0.009643659 0.68045759
0.022794217 0.018410727 0.68045843
0.022794217 0.021917507 0.68045843
0.024787391 0.038066342 0.68252575
0.024787391 0.045591101 0.68252575
0.022794217 0.053478733 0.68045843
0.028892761 -0.029795647 0.68678313
0.026819782 0.065708481 0.68463302
0.026819782 0.065708481 0.68463302
0.031007459 -0.050159112 0.68897653
0.033165149 0.026716381 0.69121456
0.031007459 0.050159127 0.68897653
0.035367012 -0.062357619 0.6934976
0.035367154 -0.030713573 0.69349849
0.037614848 -0.029621683 0.69582981
0.039909516 -0.046561092 0.69820911
0.039909516 -0.046561092 0.69820911
0.039909676 -0.006651625 0.69821006
0.039909676 0.033258066 0.69821
0.042252965 -0.050415464 0.70063972
0.042252965 -0.050415464 0.70063972
0.044646788 0.0067940801 0.70312345
0.044646788 0.057264373 0.70312345
0.042253137 0.062419429 0.70064068
0.047092065 -0.064751565 0.70565885
0.052145328 -0.053148121 0.71090025
0.052145328 -0.025069863 0.71090019
0.049591254 0.042648494 0.70825189
0.052145548 0.068190336 0.71090126
0.054756764 -0.013182178 0.71360874
0.060158692 -0.053935379 0.71921086
0.060158957 -0.030079469 0.71921194
0.057427298 -0.021535203 0.71637869
0.060158957 0.0020744801 0.71921194
0.057427298 0.029739156 0.71637869
0.057427298 0.029739156 0.71637869
0.06295386 0.04196924 0.72211087
0.065813936 -0.05413726 0.72507656
0.065814234 -0.0095536858 0.72507775
0.070241287 -0.033496618 0.72966862
0.08448948 -0.05023697 0.74444687
0.08448948 -0.034252495 0.74444687
0.08448948 -0.010275736 0.74444687
