# .PCD v0.7 - Point Cloud Data file format
VERSION 0.7
FIELDS x y z
SIZE 4 4 4
TYPE F F F
COUNT 1 1 1
WIDTH 849
HEIGHT 1
VIEWPOINT 0 0 0 1 0 0 0
POINTS 849
DATA ascii
-0.024016935 0.055238992 0.61375916
-0.024006078 0.057614595 0.61369359
-0.025457725 0.046066403 0.61513841
-0.023155667 0.051186234 0.61591655
-0.025449956 0.053323716 0.61509371
-0.0269814 0.03556639 0.61684704
-0.020786416 0.057468355 0.61640072
-0.028422929 0.042016506 0.61797589
-0.028422929 0.045723855 0.61797589
-0.023539336 0.04212302 0.61835408
-0.022268374 0.047011018 0.61813915
-0.019819118 0.054502577 0.6183278
-0.029953862 0.021217316 0.6194604
-0.028719816 0.021227688 0.61953402
-0.029953862 0.049923092 0.6194604
-0.029953862 0.05616349 0.6194604
-0.027661975 0.021375179 0.62058121
-0.026477246 0.023955613 0.62099874
-0.031515487 0.031515479 0.62097436
-0.022690726 0.036557287 0.6209715
-0.031515487 0.056727856 0.6209743
-0.031639133 0.0050622523 0.62157142
-0.030393187 0.008864671 0.62167001
-0.027837517 0.017714798 0.62154436
-0.01769389 0.051817834 0.62136424
-0.016405953 0.056789815 0.62114054
-0.033108816 0.015280992 0.62251902
-0.033108816 0.016554415 0.62251902
-0.033108905 0.047116518 0.62251949
-0.029520854 0.0051340461 0.62373817
-0.028135091 0.011509806 0.62317711
-0.023129409 0.025699317 0.62391341
-0.03473492 -0.011578321 0.6240958
-0.03225328 -0.0064506233 0.62453675
-0.031050546 -0.0038813055 0.62497628
-0.03473492 -0.0025729537 0.6240958
-0.03473492 0.010291815 0.6240958
-0.03473492 0.011578292 0.6240958
-0.027047342 0.011591703 0.62427568
-0.03473492 0.021870136 0.6240958
-0.015513975 0.047834754 0.62486267
-0.036394626 -0.020796925 0.62570488
-0.031117851 -0.0051863194 0.62531483
-0.036394626 0.037694454 0.62570482
-0.030036451 -0.0052237213 0.6264441
-0.027401337 0.0039144754 0.62631047
-0.023585392 0.014413267 0.6269713
-0.023482516 0.016959637 0.62628132
-0.023482516 0.016959637 0.62628132
-0.018312914 0.032701641 0.62670159
-0.018312914 0.032701641 0.62670159
-0.014386091 0.045773953 0.62667274
-0.038089093 -0.031522036 0.62734759
-0.031597268 -0.014482081 0.62772608
-0.023637168 0.013131738 0.6273185
-0.038089197 0.030208677 0.62734801
-0.015752291 0.039380729 0.62725997
-0.038089197 0.045969754 0.62734801
-0.010506606 0.056472987 0.62733656
-0.038089197 0.057790488 0.62734801
-0.038089197 0.06304419 0.62734801
-0.037090402 -0.035765707 0.62870437
-0.030435123 -0.013232648 0.62853646
-0.030435123 -0.013232648 0.62853646
-0.027826147 -0.0053002238 0.62875235
-0.027826147 -0.0053002238 0.62875235
-0.021225633 0.015919238 0.62893915
-0.011943039 0.046445131 0.62898773
-0.039819524 -0.039819509 0.62902552
-0.023952669 0.005322814 0.62943429
-0.039819524 0.014600515 0.62902552
-0.019912502 0.019912511 0.62904757
-0.039819524 0.021237075 0.62902552
-0.039819524 0.04911074 0.62902552
-0.039819524 0.050438046 0.62902552
-0.0093431305 0.052054584 0.6299206
-0.041586857 -0.0093905926 0.63073891
-0.041586857 -0.0093905926 0.63073891
-0.041586857 0.026830256 0.63073891
-0.041586857 0.036220849 0.63073885
-0.039169144 -0.052675739 0.63184327
-0.037674408 -0.045747474 0.63122213
-0.033783402 -0.035134733 0.63192481
-0.030983446 -0.024247885 0.63141423
-0.01747507 0.02150777 0.63106781
-0.01747507 0.02150777 0.63106781
-0.0094272718 0.047136366 0.63137162
-0.043392401 -0.062376589 0.63248932
-0.043392401 -0.046104446 0.63248932
-0.033936735 -0.038009137 0.63266516
-0.028456502 -0.018970966 0.63237572
-0.027058832 -0.01352945 0.63211864
-0.020364439 0.0067881346 0.63268447
-0.014873884 0.027043402 0.63202566
-0.012241769 0.032644719 0.63299441
-0.012186349 0.035205007 0.63225102
-0.039526138 -0.058607727 0.63332921
-0.035430484 -0.044969469 0.63329786
-0.032825466 -0.038296342 0.63390344
-0.031407829 -0.032773405 0.63364154
-0.03006321 -0.028696716 0.6337564
-0.0054597231 0.053232312 0.63356584
-0.045237537 -0.063058361 0.63427848
-0.035756309 -0.050883964 0.63481063
-0.045237537 -0.032899976 0.63427842
-0.045237537 -0.0095958114 0.63427842
-0.019238448 0.0041225255 0.6346817
-0.045237537 0.0082250237 0.63427842
-0.015112978 0.0178608 0.6346494
-0.045237537 0.043866694 0.63427848
-0.045237537 0.050720841 0.63427848
-0.045237537 0.050720841 0.63427848
-0.045237537 0.058945894 0.63427848
-0.035921481 -0.053882226 0.63557744
-0.019282745 0.0027546883 0.63506365
-0.0096890423 0.031835407 0.63588572
-0.0096890423 0.031835407 0.63588572
-0.0069145062 0.041487068 0.63573503
-0.037536718 -0.062561184 0.63662201
-0.047123309 -0.056825176 0.63610667
-0.047123309 -0.056825176 0.63610667
-0.02925168 -0.036216348 0.6369465
-0.047123309 -0.034649491 0.63610667
-0.047123309 -0.02217567 0.63610667
-0.019461995 -0.0027802587 0.6366092
-0.002771667 0.054047495 0.63608903
-0.037624162 -0.064100429 0.63701296
-0.036426276 -0.063045472 0.63792104
-0.049051367 -0.011211753 0.63797623
-0.049051367 -0.0070073307 0.63797623
-0.049051367 -0.0070073307 0.63797623
-0.049051367 0.0168176 0.63797623
-0.011194808 0.020990282 0.6377207
-0.049051367 0.026627898 0.63797623
-0.049051367 0.04064256 0.63797629
-0.0055741966 0.041806489 0.63702041
-0.0027975922 0.048957855 0.63765377
-0.0013965266 0.054464549 0.63737983
-0.049051367 0.064467549 0.63797623
-0.015431979 0.0056116283 0.63814998
-0.0014030781 0.051913887 0.6381706
-0.051022854 -0.068030462 0.63988757
-0.051022854 -0.068030462 0.63988757
-0.051022854 -0.043936312 0.63988751
-0.01273402 0.0099042356 0.63959658
-0.051022854 0.014173031 0.63988751
-0.011327302 0.014159173 0.6397199
-0.011300554 0.015538245 0.63931632
-0.035550248 -0.068256482 0.6404559
-0.018471286 -0.011366934 0.6403181
-0.0056800577 0.031240344 0.64021504
-0.034316279 -0.067202702 0.64140165
-0.032831896 -0.06138137 0.64111543
-0.053039387 -0.057339847 0.64184248
-0.053039387 -0.054472864 0.64184248
-0.053039387 -0.047305405 0.64184254
-0.028543696 -0.047097087 0.64108056
-0.020068288 -0.02150172 0.6418367
-0.053039551 -0.0043004751 0.64184308
-0.014273659 -2.9802322e-08 0.64110243
-0.053039551 0.0014334917 0.64184308
-0.0057345098 0.025805324 0.64185822
-0.053039551 0.032970518 0.64184302
-0.0028645783 0.035807192 0.64169669
-0.0014333362 0.040133417 0.64182311
-0.053039551 0.054473042 0.64184308
-0.053039551 0.065941095 0.64184302
-0.031730402 -0.063460767 0.64290404
-0.021589426 -0.028785884 0.64254242
-0.010061551 0.010061562 0.64230937
-0.010061551 0.010061562 0.64230937
-0.0014367789 0.038793057 0.64223862
0.0014388919 0.047483414 0.64249372
-0.030457387 -0.062365144 0.64387709
-0.055102713 -0.039151907 0.64384317
-0.055102713 -0.039151907 0.64384317
-0.055102713 -0.034801692 0.64384323
-0.055102713 -0.034801692 0.64384323
-0.021746401 -0.033344448 0.64380562
-0.055102713 -0.021751076 0.64384323
-0.017393546 -0.018843025 0.64376968
-0.055102713 0.0087004304 0.64384323
-0.007249712 0.014499426 0.64382768
-0.055102713 0.018850923 0.64384329
-0.0043457206 0.024625748 0.64366239
-0.0028922798 0.030368924 0.64336866
-0.055102713 0.044952244 0.64384323
-0.055102713 0.046402305 0.64384323
-0.024729222 -0.04509443 0.64439714
-0.021799233 -0.034878761 0.64423078
-0.021799233 -0.034878761 0.64423078
-0.018874791 -0.024682403 0.64406478
-0.013074193 -0.0058107376 0.64415908
0.0014528712 0.042133242 0.64418125
-0.030680554 -0.067205042 0.6451599
-0.057214137 -0.061615229 0.64589024
-0.057214137 -0.060148194 0.64589018
-0.021959286 -0.039526701 0.64551878
-0.057214137 -0.024939477 0.64589024
-0.057214137 -0.0058680773 0.64589018
-0.057214137 -0.0058680773 0.64589018
-0.0087997988 0.0029332936 0.64584237
-0.0014649282 0.027833641 0.64563656
-0.030831158 -0.070471212 0.64602554
-0.020611608 -0.038278729 0.64652133
-0.017650157 -0.027946085 0.64635098
-0.017650157 -0.027946085 0.64635098
-0.0029420683 0.020594478 0.64637369
-0.0029420683 0.020594478 0.64637369
0.0029364466 0.041110277 0.64603436
-0.059375525 -0.062344298 0.64798558
-0.059375711 -0.0014843941 0.64798617
-0.0044425451 0.011846781 0.64755833
0.0059253983 0.045921832 0.64761889
-0.013432997 -0.022388309 0.6489715
0.0029729321 0.034188718 0.64823639
-0.022623703 -0.058821648 0.65086567
-0.022623703 -0.058821648 0.65086567
-0.016558161 -0.037632167 0.6505084
-0.015026596 -0.031555831 0.65019119
-0.015026596 -0.031555831 0.65019119
-0.061588876 -0.030043364 0.65013182
-0.0030162435 0.0060324669 0.65085053
-0.0030162435 0.0060324669 0.65085053
-0.001505484 0.012043893 0.65053213
-0.061588876 0.027038991 0.65013182
0.0045076208 0.033055872 0.65017676
0.0090360139 0.046686053 0.65059459
0.0090133213 0.048071027 0.65013814
0.012066552 0.055807799 0.65087438
-0.018279413 -0.050268412 0.65268081
-0.018279413 -0.050268412 0.65268081
-0.063855678 -0.047131568 0.65232939
-0.063855678 -0.015203714 0.65232944
-0.0060844882 -0.0091267228 0.65241981
-0.063855886 -0 0.65233004
-0.063855886 0.01976493 0.65232998
-0.063855886 0.031927943 0.65232998
-0.063855886 0.03952983 0.65233004
-0.063855886 0.03952983 0.65233004
0.013688953 0.056276768 0.65240443
-0.024420964 -0.071736619 0.65304613
0.0030643092 0.01685372 0.65375149
-0.0030862733 -0.0077156723 0.65507716
0.013937018 0.046456695 0.65573156
-0.068558447 -0.062325865 0.65688908
-0.068558447 -0.062325865 0.65688908
-0.0046739615 -0.018695831 0.65686983
-0.068558447 -0.014023304 0.65688902
-0.003110345 -0.012441397 0.65653002
-0.068558447 -0.0077907145 0.65688908
-0.068558447 0.0077907443 0.65688908
-0.068558447 0.032721072 0.65688908
-0.068558671 0.04830271 0.65688968
-0.068558671 0.04830271 0.65688968
-0.068558671 0.063884228 0.65688968
-0.068558671 0.063884228 0.65688968
-0.017207697 -0.062573433 0.65763617
-0.015614983 -0.056213945 0.65729368
-0.014064685 -0.051570505 0.65744388
0.0031284133 0.0046926141 0.65762055
0.0078192987 0.020330191 0.65757871
0.017194834 0.051584512 0.65749502
0.017194834 0.051584512 0.65749502
-0.017252816 -0.064305961 0.65813136
0.0094400477 0.022026777 0.65872324
0.0094152829 0.023538202 0.65822494
-0.070998445 -0.031554848 0.65925461
0.0015836438 -0.0079182088 0.65996683
0.0015794623 -0.0063178241 0.65946209
-0.070998684 0.0015777349 0.65925521
-0.070998684 0.011044204 0.65925521
-0.070998684 0.031554937 0.65925521
-0.0095236301 -0.046030849 0.66040474
0.01746873 0.042877793 0.66050065
0.022287082 0.057309657 0.66096759
-0.073500849 -0.044739634 0.66168106
-0.0031933677 -0.028740287 0.66154087
-0.073500849 -0.025565505 0.661681
-0.073500849 0.041543961 0.661681
0.017515229 0.041399658 0.66101098
-0.011311858 -0.06302321 0.6638701
-0.011311858 -0.06302321 0.6638701
0.0048355702 -0.008059293 0.66337246
-0.0064799613 -0.04859972 0.66435426
-0.0032453432 -0.038944125 0.66467792
0.0048749787 -0.012999952 0.66495812
0.016211852 0.025938958 0.66449851
-0.076067843 0.03722468 0.66417009
0.02271015 0.047042489 0.66461533
-0.0032541708 -0.04067716 0.66521072
0.0098009491 -2.9802322e-08 0.66598403
0.011412783 0.0065215826 0.66561049
0.026068373 0.055395335 0.66547477
-0.078701675 -0.052467793 0.66672355
-0.078701675 -0.011477351 0.66672355
0.0082054362 -0.0082054436 0.66690087
-0.078701675 -0.0032792091 0.66672355
-0.078701675 0.0049188733 0.66672355
-0.078701675 0.044269711 0.66672355
-0.004944399 -0.054388404 0.66775137
0.0032919606 -0.026335686 0.66749156
0.0032919606 -0.026335686 0.66749156
0.021359948 0.034504563 0.6671406
0.006613221 -0.018186361 0.66837573
0.011602526 -0.0033149719 0.66888249
-0.081405275 -0.051501304 0.6693446
0 -0.044984847 0.66992086
-0.081405275 -0.03821063 0.66934466
-0.081405275 -0.03821063 0.66934466
-0.081405275 -0.019935936 0.6693446
-0.081405275 -0.018274635 0.66934466
-0.081405275 0.0099680424 0.6693446
-0.081405275 0.023258626 0.66934466
0.021717876 0.025059134 0.67046404
-0.0033639737 -0.062233508 0.67183787
0.0252431 0.031974584 0.67194486
0.0252431 0.031974584 0.67194486
-0.0033734594 -0.064095706 0.67241037
0.016851237 0.003370285 0.67221653
0.02865814 0.042144328 0.67229491
0.010190543 -0.023777872 0.67382199
0.011865553 -0.016950786 0.67341822
0.033898421 0.055932403 0.67339915
0.033898421 0.055932403 0.67339915
0.033898421 0.055932403 0.67339915
-0.0017025971 -0.064698696 0.67432576
0.0017055591 -0.054577887 0.67468333
0.02898488 0.035804898 0.67461497
0.0085821245 -0.036044896 0.67599487
0.0085821245 -0.036044896 0.67599487
0.027334029 0.029042393 0.6750235
0.0051698927 -0.049975634 0.67682451
0.0051550413 -0.048113704 0.67622697
0.025898954 0.017265946 0.67722285
0.017339714 -0.013871729 0.67811298
0.026049333 0.013892949 0.678433
0.022733737 -0.0017487407 0.67989683
0.031433977 0.027941316 0.67960507
0.038444027 0.050676227 0.67974067
0.031526014 0.026271671 0.68022227
0.003524733 -0.070494652 0.68154055
0.010550002 -0.045716703 0.68105376
0.015821058 -0.028126329 0.68100083
0.028388008 0.0070970058 0.68297505
0.0089413142 -0.062589169 0.68466651
0.017964615 -0.035929233 0.68565619
0.025167106 -0.012583554 0.68579978
0.010836649 -0.063213795 0.68682063
0.02159711 -0.025196612 0.68605423
0.047115836 0.054364443 0.68754965
0.034626395 0.0091122091 0.68879229
0.018294264 -0.047565103 0.68963546
0.049574532 0.053246737 0.69044024
0.036819585 0.0092048943 0.69103003
0.016653024 -0.061061054 0.69215947
0.042593583 0.024074614 0.69234765
0.026438352 -0.043434411 0.69676065
0.041604005 0.0056732595 0.697079
0.032402046 -0.030496061 0.698879
0.032402046 -0.030496061 0.698879
0.040182296 -0.0076537728 0.69977713
0.03835411 -0.015341669 0.70029163
0.05377169 0.034567535 0.70061904
0.062705845 0.048988968 0.7053436
0.062705845 0.048988968 0.7053436
0.057217706 0.025649339 0.70696926
0.0357081 -0.049594611 0.70826799
0.039756112 -0.037768304 0.70875347
0.067422308 0.05552429 0.70817453
0.035826918 -0.051750004 0.70906478
0.037855726 -0.045825332 0.70930886
0.047901575 -0.013971299 0.70973045
0.047901575 -0.013971299 0.70973045
0.031993974 -0.067987144 0.71018004
0.037982237 -0.047977537 0.71011257
0.042066142 -0.036056668 0.71060568
0.060043331 0.024017334 0.71039987
0.060043331 0.024017334 0.71039987
0.040156443 -0.044172078 0.71116972
0.046478696 -0.028291404 0.71273786
0.054602575 -0.002022326 0.71291947
0.058570012 0.012117922 0.71259815
0.058768433 0.010132462 0.71342403
0.073990844 0.049327224 0.71690094
0.062122136 0.0041414797 0.71876431
0.04989953 -0.039503783 0.71977937
0.062337935 0.0020779669 0.71963263
0.04596328 -0.056409448 0.72099769
0.041841775 -0.071131021 0.72134161
0.046124376 -0.05870375 0.72188163
0.067102209 0.010484725 0.72192764
0.051326744 -0.057742596 0.72695774
0.055526573 -0.042712718 0.72659832
0.070510454 0.0064100623 0.72672427
0.077729896 0.021591604 0.7294383
0.071532503 -0.0021676719 0.73046285
0.074320957 -2.9802322e-08 0.73266685
0.074320957 -2.9802322e-08 0.73266685
0.080853626 0.021852374 0.73258507
0.089995742 0.048290431 0.7337662
0.059424203 -0.055022389 0.73447585
0.059424203 -0.055022389 0.73447585
0.057582404 -0.066441238 0.73614305
0.089339882 0.031268984 0.73841107
0.085315637 0.013470888 0.7398175
0.070090108 -0.042958468 0.74172753
0.063567542 -0.068108022 0.74284983
0.082179375 -0.011413813 0.74435771
0.069590136 -0.067270428 0.74881315
0.074117422 -0.050955713 0.74839044
0.076523975 -0.044059247 0.74872112
-0.021905931 0.055981845 0.61570853
-0.025877271 0.036967516 0.61754996
-0.023321997 0.047257096 0.61697328
-0.026921941 0.050784588 0.61652076
-0.026921941 0.053232029 0.61652076
-0.027402803 0.026779354 0.61915916
-0.029953862 0.044930816 0.6194604
-0.021264551 0.045030832 0.61979574
-0.02911482 0.013290882 0.62160712
-0.031977408 -0.0012790859 0.62320465
-0.023079833 0.026926458 0.62358093
-0.033108905 0.054757059 0.62251943
-0.033108905 0.054757059 0.62251943
-0.032288134 -0.0071040541 0.62470508
-0.036394626 0.0090986788 0.62570482
-0.02445088 0.020590246 0.62414527
-0.03473492 0.04695648 0.6240958
-0.015530776 0.047238737 0.62503171
-0.014169239 0.054100752 0.62429309
-0.038112517 -0.034827366 0.6274451
-0.038089093 -0.024954945 0.62734759
-0.033272173 -0.018828124 0.62735415
-0.038089093 -0.0032835305 0.62734759
-0.038089093 0.0032835305 0.62734759
-0.038089197 0.013134211 0.62734801
-0.038089197 0.057133794 0.62734801
-0.037338458 -0.040005475 0.6297738
-0.039819524 -0.015264153 0.62902552
-0.030367943 -0.01188308 0.6281839
-0.027918948 -0.0073128492 0.62928581
-0.014561206 0.039049774 0.6285944
-0.014561206 0.039049774 0.6285944
-0.010576268 0.05288133 0.62838769
-0.0079959994 0.057304651 0.62967122
-0.036970764 -0.043023437 0.6310975
-0.033783402 -0.035134733 0.63192481
-0.041586976 0.048965335 0.63073933
-0.039526138 -0.058607727 0.63332921
-0.043392401 -0.042714372 0.63248932
-0.043392401 -0.033222303 0.63248932
-0.043392401 -0.029154256 0.63248932
-0.023021722 -0.00067789853 0.63227284
-0.018955426 0.012861833 0.63224143
-0.009067066 0.043078206 0.63301289
-0.0067966683 0.05097425 0.63289022
-0.045237537 -0.045237541 0.63427842
-0.023500551 -0.013133436 0.63567281
-0.045237537 -0.0089104176 0.63427848
-0.017173152 0.010992497 0.63466793
-0.045237537 0.026731268 0.63427848
-0.045237537 0.050720841 0.63427848
-0.045237537 0.058945894 0.63427848
-0.037800279 -0.067200467 0.63780028
-0.047123309 -0.065141082 0.63610673
-0.026472628 -0.027170092 0.63698989
-0.026472628 -0.027170092 0.63698989
-0.019598635 -0.0069995224 0.63778734
-0.018105753 0.0006955862 0.63692391
-0.049051367 0.0070073605 0.63797623
-0.049051367 0.014715418 0.63797629
-0.049051367 0.0168176 0.63797623
-0.0056002904 0.039202005 0.63780785
-0.0027781029 0.052783996 0.63647747
-0.033910986 -0.059344232 0.63936323
-0.051022854 -0.053148776 0.63988751
-0.051022854 -0.032597929 0.63988751
-0.051022854 -0.022676826 0.63988757
-0.022577552 -0.021166474 0.63913864
-0.019830681 -0.014164776 0.63978803
-0.051022854 0.00070865452 0.63988757
-0.051022854 0.036849827 0.63988757
-0.051022854 0.043227687 0.63988757
-0.051022854 0.045353651 0.63988751
0 0.052963138 0.6392926
-0.053039387 -0.060923621 0.64184248
-0.025726855 -0.038590282 0.64133227
-0.053039551 -0.0086010098 0.64184302
-0.017022321 -0.0056740642 0.64003539
-0.0092656538 0.017111003 0.64092755
-0.053039551 0.018635511 0.64184308
-0.053039551 0.025086284 0.64184308
-0.053039551 0.032970518 0.64184302
-0.055102713 -0.056552753 0.64384323
-0.055102713 -0.056552753 0.64384323
-0.028888317 -0.054887787 0.64316052
-0.028749475 -0.051749051 0.64232254
-0.055102713 -0.023201168 0.64384323
-0.055102713 -0.013050616 0.64384323
-0.012932876 0.00071765482 0.64226377
-0.055102713 0.0087004304 0.64384323
-0.055102713 0.0087004304 0.64384323
-0.055102713 0.023201138 0.64384317
-0.0028783623 0.033101171 0.64252865
0.0014406267 0.046819493 0.64270312
-0.029241361 -0.062868908 0.64529133
-0.020435601 -0.032843828 0.6450038
-0.011658454 -0.0029146075 0.64471662
0.0014528712 0.042133242 0.64418125
-0.057214316 0.068950564 0.64589077
-0.030831158 -0.070471212 0.64602554
-0.059375525 -0.065313071 0.64798564
-0.059375525 -0.051211387 0.64798558
-0.013267474 -0.014741659 0.64675146
-0.0014721386 0.025026381 0.64650702
-0.025408832 -0.062774748 0.64922279
-0.011190129 -0.014924258 0.64895606
-0.0059855622 0.00074726343 0.64943445
-0.0029786942 0.013404131 0.64858419
-0.061588876 -0.063091025 0.65013176
-0.061588876 -0.045065016 0.65013182
-0.061588876 -0.033047676 0.65013176
-0.013619931 -0.031024158 0.65147865
-0.012009554 -0.021016747 0.65001428
-0.061588876 -0.0067597479 0.65013182
-0.061588876 -0.0030043125 0.65013176
-0.0030315297 0.003031522 0.6517731
-0.061588876 0.009013027 0.65013176
-0.061588876 0.009013027 0.65013176
-0.061588876 0.018777102 0.65013182
-0.061588876 0.018777102 0.65013182
0.0030027793 0.028526425 0.65003788
0.010550118 0.051243424 0.65073442
-0.061588876 0.060837805 0.65013182
-0.063855678 -0.057013996 0.65232944
-0.063855678 -0.03648895 0.65232939
-0.010732042 -0.029129803 0.65387154
-0.0045844167 -0.0068776011 0.65326679
-0.063855886 0.025086254 0.65232998
0.010671127 0.044970185 0.65282112
-0.063855886 0.047131717 0.65233004
-0.063855886 0.047131717 0.65233004
-0.063855886 0.05929476 0.65232998
-0.063855886 0.060815126 0.65233004
-0.019276921 -0.060920008 0.65498066
-0.01311502 -0.040892839 0.6550864
-0.012318664 -0.036955982 0.65467834
-0.066178322 -0.023085445 0.65458161
0.0015388302 0.0092330277 0.65455735
0.0030721782 0.015360892 0.65422648
0.0076787733 0.030715078 0.65418613
-0.066178322 0.056944132 0.65458155
-0.018806212 -0.068956092 0.65798002
-0.018635361 -0.062895343 0.65626132
-0.014817704 -0.053043798 0.65712631
-0.068558447 -0.046744376 0.65688902
-0.068558447 -0.046744376 0.65688902
-0.068558447 -0.014802396 0.65688908
-0.068558447 0.0070116669 0.65688908
0.0077786269 0.023335874 0.65659678
0.015558304 0.049007654 0.65660942
-0.070998445 -0.061531991 0.65925455
-0.070998445 -0.055221021 0.65925455
-0.014138559 -0.054983288 0.65843463
-0.0094484156 -0.040943116 0.65889156
-0.0078904424 -0.037086114 0.65929621
-0.070998445 -0.031554848 0.65925461
-0.070998684 -0.018932998 0.65925521
0.0063331746 0.0079164803 0.65992457
-0.070998684 0.034710497 0.65925521
-0.070998684 0.044965848 0.65925521
-0.070998684 0.047332495 0.65925515
-0.070998684 0.047332495 0.65925515
0.020568967 0.05537799 0.659796
0.020568967 0.05537799 0.659796
-0.0095362989 -0.04688783 0.66065967
-0.0015958562 -0.023140982 0.66144103
-0.0015958562 -0.023140982 0.66144103
0.0095531354 0.015124753 0.66099834
-0.073500849 0.017576307 0.661681
-0.073500849 0.017576307 0.661681
0.012707393 0.027003199 0.66054386
-0.073500849 0.033554792 0.661681
0.019097649 0.04694733 0.66091162
-0.073500849 0.071104094 0.66168106
-0.0048508421 -0.042040616 0.66398692
-0.0048377649 -0.040314704 0.66346073
0.0016070469 -0.016875073 0.66279185
0.004822575 -0.0064300895 0.66284955
0 -0.030966014 0.66553724
0.0048749787 -0.012999952 0.66495812
-0.076067574 -0.011329204 0.66416943
0.0089586582 -0.00081165135 0.66536731
0.013018521 0.013018519 0.66523844
0.017945146 0.027733386 0.66572875
0.024385631 0.051208705 0.66504455
-0.078701675 -0.03279236 0.66672349
-0.078701675 -0.029513121 0.66672355
0.0016400905 -0.029521644 0.66678059
0.0016356061 -0.027805299 0.66623926
-0.078701675 -0.018855616 0.66672361
0.0049217669 -0.018867895 0.66684073
0.011522727 0.00082191825 0.66750646
-0.078701675 0.021315038 0.66672355
0.024653599 0.045197144 0.66720098
-0.081405275 -0.046517313 0.66934466
0.0099504162 -0.0091223568 0.66899103
-0.081405275 -0.0066453218 0.66934466
0.011570466 -0.0016529262 0.66832966
0.013234545 0.003308624 0.66849804
-0.081405275 0.026581347 0.66934466
-0.0050275116 -0.065357655 0.67109555
0.025031831 0.036713392 0.67024475
0.03190472 0.055413455 0.67150098
0.013553174 -0.011013135 0.67330575
-0.084181741 0.0084181726 0.67203683
0.027025295 0.035470754 0.67269421
-0.0034119431 -0.071650803 0.67473316
0.0068596946 -0.04115814 0.67581367
0.0068596946 -0.04115814 0.67581367
0.0085575692 -0.034230262 0.6754021
0.023943851 0.017102778 0.67525262
0.025639884 0.023074687 0.675138
0.030804459 0.039361238 0.67538345
0.034189042 0.051283568 0.67515326
0.02060518 0.0034341812 0.67607623
0.0017402932 -0.067871422 0.67887604
0.015682794 -0.022652924 0.67914641
0.019090567 -0.0086775124 0.67829823
0.020844523 -0.0034740865 0.67848384
0.0070001772 -0.054251373 0.68005317
0.014091943 -0.035229862 0.68143511
0.0071040969 -0.063936859 0.68318921
0.037317406 0.035540372 0.68330932
0.037096996 0.03886354 0.68204242
0.019779196 -0.030567855 0.68585503
0.033903353 0.021412671 0.68419868
0.016300077 -0.04708913 0.68742561
0.016250875 -0.045141309 0.68676561
0.014608153 -0.058432639 0.68922418
0.018294264 -0.047565103 0.68963546
0.020081012 -0.040161997 0.68916702
0.030924028 -0.0018190444 0.68838418
0.043675441 0.040035814 0.68847466
0.047259007 0.052711964 0.68821436
0.01288816 -0.06996429 0.6910525
0.021994157 -0.036656946 0.69004822
0.023996487 -0.03507179 0.69162196
0.02578707 -0.027628988 0.69114518
0.038696896 0.014741659 0.69123882
0.045957346 0.040442497 0.69070578
0.016653024 -0.061061054 0.69215947
0.020455576 -0.05206871 0.69327742
0.037162706 0.00371629 0.69310087
0.044695355 0.027001992 0.69360435
0.050035279 0.04818213 0.69250011
0.033591464 -0.01119715 0.69407344
0.020713145 -0.060256392 0.69610387
0.049047466 0.032069504 0.69651771
0.055039212 0.047447592 0.69790137
0.026691144 -0.049569279 0.69894028
0.034341432 -0.024802148 0.69910288
0.034232248 -0.022821486 0.6983707
0.059326328 0.055498838 0.6998145
0.032609861 -0.034528106 0.70035464
0.032609861 -0.034528106 0.70035464
0.038477466 -0.017314821 0.70103616
0.055926435 0.038569987 0.70159435
0.057633054 0.047065467 0.70070159
0.023202764 -0.071541846 0.7022059
0.032926627 -0.040674061 0.70260382
0.034897957 -0.034897953 0.70283496
0.034897957 -0.034897953 0.70283496
0.048648421 0.007783711 0.70369947
0.04833395 0.011600167 0.70218104
0.052303802 0.023246139 0.7026422
0.027300224 -0.064350545 0.7041918
0.027300224 -0.064350545 0.7041918
0.035125654 -0.039028525 0.70436192
0.039106339 -0.027374417 0.70483172
0.046884857 -0.00097836554 0.70461673
0.05500789 0.02161026 0.70594835
0.064943045 0.053135246 0.70635927
0.035946526 -0.053919762 0.70986688
0.047901575 -0.013971299 0.70973045
0.055740152 0.01393503 0.70910519
0.034028299 -0.062051594 0.71042645
0.038237814 -0.052325398 0.71173638
0.046794869 -0.032552958 0.71439719
0.050969761 -0.020387918 0.71490788
0.051496308 -0.026778072 0.71745032
0.069734059 0.036918044 0.71638191
0.074245952 0.047434926 0.71775627
0.047936171 -0.047936201 0.7203871
0.052398488 -0.037726909 0.72180641
0.058464084 -0.014616013 0.72084838
0.075284198 0.03973332 0.72123766
0.081819668 0.058742315 0.72204792
0.074947149 0.019272119 0.72728759
0.079403274 0.032190502 0.72785342
0.081346489 0.040673256 0.72720909
0.051883221 -0.064854026 0.72975659
0.051883221 -0.064854026 0.72975659
0.079977125 0.028100103 0.72972554
0.081932917 0.036654204 0.72907197
0.078295119 0.017398924 0.73133343
0.07886862 0.013144761 0.73325646
0.072584622 -0.010997683 0.73431134
0.071089543 -0.02443704 0.73696876
0.073394246 -0.017792553 0.73727286
0.08266557 0.0089367926 0.73849648
0.081249185 -0.0045138299 0.74123871
0.087661155 0.020229489 0.74012816
0.08186695 -0.0090963244 0.74331009
0.066165529 -0.06388396 0.744214
0.07144025 -0.05530858 0.74698478
-0.02466996 0.05429253 0.61444968
-0.029973228 0.017691597 0.6195578
-0.029188395 0.033997029 0.61871815
-0.019379644 0.053996388 0.61894029
-0.021220164 0.041293424 0.6210103
-0.031515487 0.046012603 0.6209743
-0.026396258 0.0064039589 0.62657082
-0.03473492 0.029910646 0.6240958
-0.037241913 0.033970296 0.62652642
-0.041586857 -0.041922234 0.63073885
-0.041586857 -0.037897699 0.63073885
-0.041586857 -0.0020122677 0.63073891
-0.010700019 0.046170782 0.63035816
-0.039819524 0.058070138 0.62902558
-0.039263263 -0.061379384 0.63446754
-0.037652493 -0.05412633 0.63386464
-0.030054802 -0.03024417 0.63424903
-0.023500551 -0.013133436 0.63567281
-0.043392528 0.01389917 0.6324898
-0.01666148 0.018022817 0.63299835
-0.043392528 0.045765556 0.6324898
-0.0051843016 0.053810369 0.63366979
-0.050037041 -0.06201084 0.63893163
-0.047123309 -0.062022593 0.63610673
-0.050037112 -0.017969646 0.63893187
-0.047123309 -0.01767125 0.63610667
-0.021850631 -0.013986982 0.63764483
-0.019807257 -0.013441458 0.63958609
-0.047123309 -0.0020789653 0.63610667
-0.0028273482 0.043116242 0.63944966
-0.047123451 0.053706899 0.63610721
-0.054071046 -0.057848468 0.64284283
-0.013566211 0.0019616149 0.64122021
-0.0072409469 0.015205115 0.64361608
0.0017285867 0.049805451 0.64206696
-0.030330751 -0.069868065 0.64635408
-0.058294922 -0.014019243 0.6469382
-0.058294993 0.033939235 0.64693838
0.0019640806 0.037925038 0.64602542
-0.058295012 0.058105148 0.64693844
-0.058295012 0.058105148 0.64693844
-0.017252762 -0.038075987 0.64992929
-0.017252762 -0.038075987 0.64992929
-0.010815261 -0.017732982 0.65022177
-0.061588876 0.0018777177 0.65013182
-0.0044591101 0.0096604824 0.64822483
0 0.014366433 0.6513617
0.0022557992 0.025903281 0.65008616
-0.061588876 0.045816109 0.65013182
0.0096225245 0.049750283 0.65024269
-0.019276921 -0.060920008 0.65498066
-0.066178322 -0.057713643 0.65458155
-0.066178322 -0.037706256 0.65458155
-0.0091708209 -0.022163793 0.65330678
-0.0045756628 -0.0057222545 0.65291452
-0.0023005123 -0.0023047626 0.65419728
-0.063855886 0.049792372 0.65233004
-0.069778442 -0.041745316 0.65807182
-0.06977845 -0.030182928 0.65807182
0 -0.012658924 0.65981263
-0.069778569 0.013719548 0.65807211
0.0099910591 0.022344645 0.65919328
0.010893216 0.033456698 0.6566509
0.010893216 0.033456698 0.6566509
-0.069778681 0.069968544 0.65807241
-0.0087714512 -0.046663053 0.66138017
-0.004767091 -0.030987158 0.66061705
0.010423396 0.013823021 0.66230482
-0.073500849 0.026364431 0.66168106
0.0064789522 -0.0056701899 0.66432381
-0.077384621 0.002036307 0.66544646
0.013660374 0.010652974 0.66664147
0.019433688 0.037247896 0.66429192
-0.0016531926 -0.045463949 0.66836214
0.005579995 -0.029281139 0.6707772
0.018256426 0.017838344 0.66914463
0.02247378 0.029953793 0.66971481
0.031121766 0.057512268 0.67003554
0.0026006878 -0.061452895 0.67775828
0.0060615065 -0.049980983 0.67774773
0.015569441 -0.018165573 0.67762613
0.021454144 -0.0023182731 0.67875242
0.034534536 0.045756996 0.67723846
0.0035040856 -0.066577613 0.68029439
0.010565553 -0.046665817 0.68136662
0.015774701 -0.026291162 0.68037909
0.031572305 0.025431961 0.68053269
0.012673641 -0.05884327 0.68735325
0.029667854 0.00224353 0.68581551
0.036206797 0.019007206 0.68733144
0.013797455 -0.0662103 0.69081837
0.03028217 -0.010093905 0.69030833
0.033924192 0.0025195293 0.69012815
0.043675441 0.040035814 0.68847466
0.034264319 -0.0099658873 0.6943838
0.045045849 0.022522926 0.69536722
0.048816659 0.034733474 0.69544613
0.021808002 -0.061618775 0.6976614
0.041802343 0.002848655 0.69816726
0.049595006 0.025749743 0.69905972
0.033578843 -0.053331107 0.70723504
0.042533442 -0.018973758 0.70574677
0.0470002 -0.0024523363 0.70519686
0.053077452 0.014742136 0.70610094
0.029814532 -0.070562705 0.7087329
0.03414255 -0.064268321 0.71123773
0.037918981 -0.046901435 0.70971072
0.042136811 -0.037122175 0.71101189
0.063856542 0.03891094 0.70968431
0.054602575 -0.002022326 0.71291947
0.061169297 0.013251618 0.71493036
0.065383375 0.025538638 0.71544385
0.073434591 0.042407662 0.71848977
0.048357539 -0.053615645 0.72259855
0.054457404 -0.030372307 0.72163451
0.073500246 0.030448273 0.72229737
0.055427805 -0.041572735 0.72613978
0.064349763 -0.017159939 0.72772753
0.081609756 0.04612571 0.7257762
0.064931922 -0.022728115 0.73006999
0.074050359 0.0021779835 0.73170614
0.063618064 -0.038392201 0.73361027
0.070826501 -0.022133261 0.73597646
0.072451659 -0.0098817945 0.73382497
0.081749558 0.015466154 0.73550797
0.081749558 0.015466154 0.73550797
0.089507297 0.030206621 0.73891628
0.060995154 -0.07229054 0.74149919
0.06517154 -0.053935051 0.74007654
0.084238738 -0.0022766888 0.7436288
0.073547862 -0.0459674 0.74624199
0.073126666 -0.042278528 0.74465317
