# .PCD v0.7 - Point Cloud Data file format
VERSION 0.7
FIELDS x y z
SIZE 4 4 4
TYPE F F F
COUNT 1 1 1
WIDTH 487
HEIGHT 1
VIEWPOINT 0 0 0 1 0 0 0
POINTS 487
DATA ascii
0.026681015 -0.010005355 0.60299927
0.027699346 -0.0066478252 0.60254842
0.024623502 -0.023504257 0.60390955
0.024623502 -0.011192501 0.60390955
0.023584241 -0.022461146 0.60436934
0.023584241 -0.020215064 0.60436934
0.023584241 -0.012353659 0.6043694
0.023584241 -0.0022461116 0.60436934
0.023584241 0.0078614056 0.6043694
0.023584241 0.010107547 0.60436934
0.020423582 -0.013615698 0.60576767
0.021484355 -0.010176808 0.6052984
0.020423582 0.0068078637 0.60576773
0.02042363 0.013615757 0.60576802
0.021484355 0.026007384 0.6052984
0.02042363 0.029500782 0.60576802
0.019355487 -0.025048286 0.60624027
0.018280042 -0.023992509 0.60671639
0.019355487 -0.023909718 0.60624021
0.019355536 -0.018216938 0.60624057
0.018280042 -0.015995026 0.60671639
0.018280042 0.0011425018 0.60671639
0.018280042 0.011425048 0.60671639
0.018280042 0.020565063 0.60671639
0.018280042 0.027420044 0.60671645
0.019355536 0.045542419 0.60624057
0.017197078 -0.019490004 0.6071955
0.03111705 -0.003457427 0.60792112
0.017197078 0.0091717541 0.6071955
0.026392994 0.017212838 0.60732216
0.015008418 -0.020780921 0.60816383
0.013902563 -0.0034756362 0.60865313
0.015008418 -0.0034634769 0.60816383
0.015008418 0.0069269538 0.60816383
0.015008418 0.013853967 0.60816383
0.015008418 0.018471926 0.60816383
0.015008418 0.041561782 0.60816383
0.01166739 -0.025668293 0.60964203
0.012788913 -0.01395154 0.60914582
0.01166742 -0.011667401 0.60964233
0.012788913 -0.0046505034 0.60914576
0.01166742 0.0093339682 0.60964233
0.01166742 0.018667877 0.60964233
0.012788945 0.02790314 0.60914612
0.012788945 0.029065788 0.60914612
0.0094004078 -0.0070503056 0.61064529
0.0094004078 -0.0035251379 0.61064529
0.010537935 0.0023417771 0.61014205
0.0094004078 0.015275657 0.61064529
0.010537935 0.015221447 0.61014199
0.0094004078 0.024676085 0.61064529
0.010537935 0.024588525 0.61014205
0.010537935 0.024588525 0.61014205
0.010537935 0.033955574 0.61014205
0.0094004078 0.041126758 0.61064529
0.0071008746 -0.026036531 0.61166269
0.0071008746 -0.02130264 0.61166269
0.030800849 0.0059232414 0.61180377
0.0082547497 0.016509473 0.61115217
0.0071008746 0.028403521 0.61166263
0.0071008746 0.041421771 0.61166269
0.0059386929 -0.011877388 0.61217684
0.0059386929 -0.0095019042 0.6121769
0.0059386929 -0.0047509372 0.61217684
0.0059386929 -0.0035632253 0.6121769
0.0059386929 0.0011877716 0.6121769
0.0059386929 0.015440613 0.61217684
0.0059386929 0.027318001 0.6121769
0.004768128 0.032184869 0.6126951
0.004768128 0.039337069 0.61269516
0.0059387083 0.039195478 0.61217719
0.0024014129 -0.021612704 0.61374223
0.0035890604 -0.01555261 0.61321676
0.0035890604 -0.01555261 0.61321676
0.0035890604 0.014356226 0.61321676
0.0035890604 0.020337999 0.61321676
0.0035890604 0.025123447 0.61321676
0.0024014129 0.027616262 0.61374223
0.0035890604 0.031105191 0.61321676
0.0035890604 0.031105191 0.61321676
0.0035890604 0.041872382 0.61321676
0.0012050911 -0.026512027 0.61427152
0 -0.024190187 0.61480469
0.0012050911 -0.0096407235 0.61427152
0 -0.0012094975 0.61480463
0 0.025399685 0.61480469
0 0.030237734 0.61480463
0 0.037494749 0.61480463
-0.0012139573 0.014567524 0.61534172
-0.0012139573 0.018209368 0.61534178
-0.003668865 -0.019567281 0.6164279
-0.003668865 -0.015898407 0.61642784
-0.004910029 -0.0073650181 0.61697733
-0.004910029 -0 0.61697739
-0.004910029 0.017185122 0.61697733
-0.0036688745 0.029351026 0.61642826
-0.0036688745 0.030573964 0.61642826
-0.004910029 0.031915218 0.61697733
-0.0036688745 0.036688775 0.61642826
-0.004910029 0.038052738 0.61697733
-0.0036688745 0.041580617 0.61642826
-0.0061604511 -0.028338045 0.61753058
-0.0061604511 -0.0061604679 0.61753058
0.035810169 -0.0049393475 0.61786169
0.035810169 -0.0049393475 0.61786169
-0.0086895181 -0.031033993 0.61864948
-0.0074202456 -0.027207613 0.61808801
-0.0086895181 -0 0.61864948
-0.0086895181 0.026068568 0.61864948
-0.0086895181 0.039723545 0.61864948
-0.0086895181 0.042206228 0.61864948
-0.011256928 -0.027516961 0.61978543
-0.0099683767 -0.02741304 0.61921531
-0.011256928 -0.0062538087 0.61978537
-0.0099683767 -0.0037381053 0.61921531
-0.011256928 0.0012507439 0.61978543
-0.0099683767 0.0074762702 0.61921531
-0.0099683767 0.0074762702 0.61921531
-0.0099683767 0.0149526 0.61921531
-0.0099683767 0.0174447 0.61921525
-0.0099683767 0.02242887 0.61921531
0.02869775 0.031193197 0.6194182
-0.012555318 -0.010044277 0.62036026
-0.013863597 0.0025206804 0.62093902
0.033847112 0.0087751746 0.62012661
-0.012555318 0.032643825 0.6203602
-0.012555318 0.036410451 0.6203602
-0.015181906 -0.031628966 0.62152231
-0.015181906 -0.0088561177 0.62152231
-0.017849082 -0.030598432 0.6227023
-0.016510362 -0.01905039 0.62211001
0.038246177 -0.0063743591 0.62269485
-0.016510362 -0.0050801039 0.62211001
-0.017849082 0.0012749135 0.62270236
-0.016510362 0.0063501596 0.62211001
-0.016510362 0.01270026 0.62211001
-0.016510362 0.015240341 0.62211007
-0.016510362 0.016510367 0.62211001
-0.016510362 0.022860497 0.62211007
-0.016510362 0.029210657 0.62211001
-0.020557798 -0.015418321 0.62390071
-0.020557798 -0.012848645 0.62390077
-0.019198189 -0.0089591444 0.62329924
-0.020557798 -0.0051394701 0.62390077
-0.019198189 -0.003839612 0.62329924
-0.019198189 0.017918319 0.62329918
-0.019198189 0.024317712 0.62329924
0.030926926 0.030926913 0.62435454
-0.0219281 0.032247186 0.62450737
-0.024700975 -0.02860114 0.62573421
-0.023309097 -0.028488874 0.62511837
-0.024700975 -0.015600592 0.62573421
-0.023309097 0.0025899112 0.62511837
-0.023309097 0.011654556 0.62511837
-0.024700975 0.018200725 0.62573415
-0.023309097 0.024604052 0.62511837
-0.023309097 0.036258608 0.62511837
-0.027517892 -0.026207507 0.62698048
-0.026103865 -0.0078311563 0.62635493
-0.027517892 0.028828263 0.62698048
-0.026103865 0.036545396 0.62635487
-0.0289432 -0.019733965 0.62761104
-0.0289432 -0.014471591 0.62761104
-0.0289432 0.0013155937 0.62761104
-0.030379912 -0.033021629 0.62824672
-0.031828173 -0.029175848 0.62888747
-0.031828173 -0.023871124 0.62888747
-0.031828173 -0.023871124 0.62888747
-0.031828262 -0.0092832446 0.62888789
-0.030379912 -0.0026417375 0.62824672
-0.030379912 0.011887789 0.62824672
-0.030379912 0.011887789 0.62824672
-0.031828262 0.019892663 0.62888795
-0.031828262 0.019892663 0.62888795
-0.031828262 0.025197387 0.62888789
-0.031828262 0.025197387 0.62888789
-0.031828262 0.031828254 0.62888789
-0.033288218 -0.0079891384 0.62953383
-0.033288218 -0.0079891384 0.62953383
-0.033288218 -0.0026630461 0.62953383
-0.033288218 0.01331529 0.62953383
-0.036243759 -0.030874312 0.63084149
-0.036243759 -0.024162501 0.63084149
-0.034760002 -0.017379999 0.63018501
-0.034760002 -0.017379999 0.63018501
-0.036243759 0.008054167 0.63084149
-0.036243759 0.012081236 0.63084149
-0.037739635 -0.028304696 0.63150322
-0.037739635 2.9802322e-08 0.63150328
-0.037739635 0.032348275 0.63150334
-0.040768348 -0.038050443 0.63284326
-0.040768348 -0.0054357648 0.63284326
-0.039247781 0.020300567 0.63217056
-0.039247781 0.02571407 0.63217056
-0.042301614 -0.019103944 0.63352209
-0.042301614 0.0013645589 0.63352209
-0.045406263 -0.031646788 0.63489568
-0.043847494 -0.030145168 0.63420606
-0.045406263 0.0082556903 0.63489568
-0.043847494 0.0082214177 0.63420606
-0.045406263 0.0096316338 0.63489568
-0.043847494 0.026034504 0.634206
-0.045406263 0.027518958 0.63489568
-0.046978086 -0.027634144 0.63559109
-0.046978086 -0.006908536 0.63559109
-0.046978086 -0.0013816953 0.63559103
-0.050161555 -0.040407926 0.63699961
-0.050161555 -0.03762114 0.63699949
-0.048563126 -0.03330043 0.6362924
-0.048563126 -0.015262693 0.63629234
-0.050161555 0.029260933 0.63699955
-0.051773541 -0.032183558 0.63771278
-0.051773541 0.0027985573 0.63771278
-0.051773541 0.0041978657 0.63771272
-0.053399406 0.016862988 0.6384325
-0.053399406 0.021078736 0.6384325
0.036560029 0.033747703 0.63854206
-0.05503903 -0.026813865 0.63915789
-0.05503903 -0.026813865 0.63915789
-0.056692734 -0.015590459 0.63988954
-0.056692734 -0.012755871 0.63988954
-0.056692734 0.0028346181 0.6398896
-0.056692734 0.0099212229 0.6398896
-0.056692734 0.025511742 0.6398896
-0.05503903 0.032458931 0.63915789
-0.056692734 0.034015656 0.63988954
-0.058360711 -0.021351457 0.6406275
-0.058360711 0.017081201 0.6406275
-0.060043134 -0.018584758 0.64137191
-0.061740194 -0.040202886 0.64212275
-0.061740194 -0.038767099 0.64212275
-0.061740194 -0.015794009 0.64212275
-0.061740194 -0.0043074787 0.64212275
-0.061740194 0.0014358163 0.64212275
-0.063452095 0.014420956 0.64288008
-0.063452281 0.021631479 0.64288068
-0.061740194 0.021537274 0.64212275
-0.061740194 0.027280539 0.64212275
-0.065179214 -0.030416965 0.64364469
-0.065179214 -0.030416965 0.64364469
-0.065179214 -0.0086905658 0.64364475
0.037672151 0.039121091 0.64370531
-0.066921368 -0.037825108 0.6444155
0.051078353 -0.02043134 0.64496708
-0.066921368 -0.014548093 0.6444155
-0.066921368 -0.0043644607 0.64441556
-0.066921368 0.014548153 0.6444155
-0.070452169 -0.029355079 0.64597768
-0.070452169 -0.011742026 0.64597762
-0.068678953 0.0058450103 0.64519316
-0.068678953 0.0087675452 0.6451931
-0.070452169 0.023484051 0.64597768
-0.070452169 0.023484051 0.64597768
-0.072241239 -0.041280687 0.64676917
-0.072241239 -0.029486239 0.64676917
-0.072241239 -0.017691731 0.64676917
-0.074046358 -0 0.64756787
0.040617917 0.039113551 0.6503973
0.039264798 0.046815723 0.6510995
0.049521964 0.020767272 0.66163731
0.049521964 0.020767272 0.66163731
0.052875292 0.0064091086 0.66221666
0.058213342 -0.0033264756 0.66957474
0.067027666 -0.019402742 0.68172401
0.064887211 2.9802322e-08 0.6863758
0.064887211 2.9802322e-08 0.6863758
0.065025531 0.013005108 0.69306916
0.065025531 0.013005108 0.69306916
0.061898705 0.031887203 0.69522339
0.074927956 -0.017291039 0.70071703
0.073367648 -0.0077229142 0.70186359
0.07594908 -0.015579313 0.70387757
0.074840806 0.0080908835 0.71296853
0.075915396 0.010258853 0.71647435
0.070877485 0.041692644 0.72044146
0.029715754 -0.019260198 0.60165632
0.03244542 -0.017900944 0.60385615
0.027190149 -0.01276315 0.60277367
0.028710922 -0.012699082 0.60210085
0.023061063 -0.012937225 0.60460079
0.023061061 0.01293724 0.60460085
0.023061061 0.01293724 0.60460085
0.032174587 -0.009192735 0.60751188
0.01881779 0.015397184 0.60647845
0.01665182 0.032731421 0.60743678
0.022968501 0.033304334 0.60743129
0.01665182 0.04077071 0.60743678
0.015008418 -0.01500839 0.60816383
0.015008418 -0.0069269538 0.60816383
0.013345754 0.011025608 0.60889959
0.015008418 0.028862357 0.60816377
0.015008418 0.038675547 0.60816383
0.01334577 0.044682734 0.60889977
0.0071008746 -0.026628271 0.61166269
0.0071008746 -0.018935651 0.61166269
0.0071008746 -0.01124303 0.61166263
0.0088275783 -0.011182919 0.61089873
0.010537935 -0.0070252717 0.61014205
0.0088275783 0.014714383 0.61089873
0.027268983 0.022526532 0.61191964
0.0053534047 0.0029747039 0.61243582
0.0053534042 0.0071392953 0.61243582
0.0053534182 0.038671337 0.61243618
0.0055485154 0.043206107 0.61234987
0.0055485154 0.043206107 0.61234987
-0.0024368793 0.01279363 0.61588275
0.00060254557 0.015091255 0.61453807
0.00060254557 0.021127746 0.61453807
0.027965128 0.026749283 0.61557323
-0.0024368854 0.034725636 0.61588317
-0.0024368854 0.040817827 0.61588323
-0.004910029 -0.022708878 0.61697733
-0.003668865 -0.020790219 0.61642784
-0.0061604511 0.038810849 0.61753058
-0.0074202456 -0.014840484 0.61808795
-0.0093289474 0.0031092763 0.61893237
0.033552762 0.0074561834 0.61881065
-0.0093289474 0.01119335 0.61893237
-0.0074202456 0.027207553 0.61808795
-0.0074202456 0.027207553 0.61808795
-0.013209442 -0.018868923 0.62064946
-0.015181906 -0.013284162 0.62152231
-0.013209442 -0.013208225 0.62064946
0.036440048 -0.0025131106 0.62048358
-0.015181906 0.0031629205 0.62152231
-0.015181906 0.0088561475 0.62152231
-0.015181906 0.0088561475 0.62152231
-0.013209458 0.018868953 0.62064964
-0.013209458 0.028932378 0.62064958
-0.017402843 -0.028860908 0.62250495
-0.020557798 -0.021200195 0.62390077
-0.017179722 -0.02099593 0.62240618
-0.017179722 -0.0050899237 0.62240618
-0.020557798 -0.0032121688 0.62390077
-0.020557798 0.012848645 0.62390071
-0.020557856 0.019272983 0.62390113
-0.019198189 0.023037821 0.62329924
-0.019198189 0.028797284 0.62329924
-0.019198189 0.035196707 0.62329924
-0.024700975 -0.018850744 0.62573421
-0.023309097 -0.011007041 0.62511837
-0.023309097 -0.0032373965 0.62511837
0.038941011 -0.0038940907 0.62549067
-0.0219281 0.0090292096 0.62450743
-0.023309097 0.011007071 0.62511837
0.031208359 0.032508701 0.62577003
0.031208359 0.032508701 0.62577003
-0.023309097 0.040790915 0.62511837
-0.0289432 -0.02499637 0.62761104
-0.0289432 -0.015129387 0.62761104
-0.026810879 -0.0052311122 0.62666768
-0.0289432 -0.0032889843 0.62761104
0.038116001 0.0039430261 0.62745965
-0.0289432 0.0092092156 0.62761104
-0.026810879 0.017001197 0.62666768
-0.026810879 0.024847895 0.62666768
-0.031104043 -0.031102709 0.6285671
-0.031104043 -0.031102709 0.6285671
-0.033288218 -0.019307181 0.62953389
-0.033288218 -0.0093207061 0.62953389
-0.033288218 -0.0093207061 0.62953389
-0.033288218 0.0033288449 0.62953389
-0.031104108 0.019191079 0.62856746
-0.033288218 0.029293627 0.62953389
-0.033288218 0.035285503 0.62953389
-0.036991697 -0.02690205 0.63117242
-0.036991697 -0.02690205 0.63117242
-0.040768348 -0.035332561 0.63284326
-0.040768348 -0.033294156 0.63284326
-0.040768348 0.0027178824 0.63284332
-0.042301614 0.021150813 0.63352209
-0.042301614 0.023197681 0.63352209
-0.039247781 0.031127602 0.63217056
-0.043847494 -0.034940973 0.63420606
-0.046978086 -0.019343913 0.63559109
-0.046978086 -0.019343913 0.63559109
-0.043847494 -0.013017207 0.634206
0.045700606 -0.013848692 0.63597232
-0.046978086 0.006908536 0.63559109
-0.043847494 0.013017222 0.63420606
-0.046978086 0.024870753 0.63559109
-0.043847494 0.028774917 0.63420606
-0.045406263 0.035086647 0.63489568
-0.050967548 -0.029322907 0.6373561
-0.048563126 -0.02497533 0.63629234
-0.048563126 -0.0048563033 0.63629234
-0.048563126 0.0048563182 0.63629234
0.04199297 0.006998837 0.63777077
-0.050967548 0.013265163 0.63735616
-0.05339925 -0.037238941 0.63843203
-0.05503903 -0.0014112592 0.63915795
-0.053399406 0.012647241 0.6384325
-0.056692734 0.014881849 0.6398896
-0.053399406 0.021078736 0.6384325
-0.053399406 0.021078736 0.6384325
-0.058360711 -0.017081171 0.64062756
-0.060043134 -0.0014295876 0.64137191
-0.063452095 -0.033168167 0.64288014
-0.061740194 -0.0028716028 0.64212275
-0.065179214 0.010863215 0.64364469
0.051078353 -0.02043134 0.64496708
-0.068678953 -0.016804397 0.6451931
-0.066921368 0.024731815 0.6444155
-0.066921368 0.024731815 0.6444155
-0.072241239 -0.041280687 0.64676917
-0.074046358 -0.039244547 0.64756781
-0.074046358 -0.028878078 0.64756787
-0.072241239 -0.011057347 0.64676923
-0.072241239 -0.0088458955 0.64676923
-0.074046358 0.020732999 0.64756787
0.042845383 0.022161424 0.64714533
0.056356397 -0.018785447 0.65777129
0.041942723 0.045049608 0.65632021
0.045679364 0.033078164 0.65894163
0.049521964 0.020767272 0.66163731
0.049521964 0.020767272 0.66163731
0.047786526 0.041195303 0.66771251
0.054716047 0.011606395 0.6689499
0.05535838 0.013420224 0.67129952
0.06252116 -0.0052100718 0.67844218
0.05646608 0.043715715 0.68867701
0.058762535 0.036726594 0.69046867
0.075341545 0.023021042 0.72142994
0.07192678 0.044425368 0.72416681
0.033624373 -0.018245652 0.60636675
0.022007514 -0.009877326 0.6050669
0.022007518 0.0062086135 0.6050669
0.022007518 0.0062086135 0.6050669
0.017734805 0.022174221 0.60695761
0.017734805 0.022174221 0.60695761
0.017734805 0.041916862 0.60695761
0.014177077 -0.021992516 0.60853165
0.010344312 -0.0099585243 0.6102277
0.032835312 -0.0064473897 0.61036032
0.014177086 0.014179887 0.60853171
0.0018483745 -0.022049421 0.61398685
0.03475941 -0.0089869946 0.61348796
0.0017486791 0.001854683 0.61403102
0.0053534107 0.033911731 0.612436
-0.003668865 -0.0058090463 0.6164279
-0.003668865 -0.0058090463 0.6164279
-0.0061635757 0.021869797 0.61753196
-0.0061635757 0.033985101 0.61753196
0.027065199 0.034453671 0.61730683
0.027065199 0.034453671 0.61730683
-0.020557798 -0.026018448 0.62390077
-0.020557798 -0.026018448 0.62390077
0.035771165 0.0057517886 0.62301707
-0.018188955 0.034137838 0.62285268
0.041419216 -0.0060093254 0.63008606
0.04040939 0.0013470054 0.63139892
0.037620421 0.0134359 0.63098931
0.036061827 0.018698722 0.63002813
0.031786963 0.035760343 0.62868017
0.029337028 0.049339563 0.62977195
-0.042305779 -0.037525967 0.63352364
-0.042305779 -0.029906131 0.63352364
-0.04230582 -0.022174453 0.63352382
-0.042305823 -0.0020468533 0.63352382
-0.042305823 0.0098932339 0.63352382
-0.046192177 0.021716535 0.63524342
-0.054219142 -0.038022 0.63879496
-0.056692734 -0.013818853 0.6398896
-0.054219216 -0.0021123812 0.6387952
-0.049765337 0.010091456 0.63682425
-0.056692734 0.01381886 0.6398896
-0.05421922 0.026052691 0.63879526
-0.049765378 0.026098602 0.63682437
0.047306594 -0.0093143731 0.6418469
-0.066921368 -0.033824377 0.6444155
-0.066921368 -0.017821424 0.6444155
0.036732059 0.048486322 0.64616221
0.039059486 0.045823738 0.65014631
0.056668513 -0.018098101 0.65881789
0.055011448 -0.011002302 0.65853179
0.051715538 0.0031342804 0.65797436
0.052370563 0.017188773 0.6663568
0.047786526 0.041195303 0.66771251
0.063290589 -0.0035161376 0.68102217
0.064190954 0.01100418 0.69019079
0.063469589 0.022401065 0.69414109
0.072780371 0.0039340854 0.7062465
0.067905307 0.033952624 0.70988929
0.079186901 -0.010152161 0.71389914
0.075341545 0.023021042 0.72142994
0.085243411 2.9802322e-08 0.73264492
0.091099627 -0.004554987 0.74372154
