# .PCD v0.7 - Point Cloud Data file format
VERSION 0.7
FIELDS x y z
SIZE 4 4 4
TYPE F F F
COUNT 1 1 1
WIDTH 548
HEIGHT 1
VIEWPOINT 0 0 0 1 0 0 0
POINTS 548
DATA ascii
0.061245102 0.017863184 0.62282366
0.059475772 0.011636555 0.62487715
0.059345871 0.012901276 0.62453628
0.05175063 0.015525192 0.62497544
0.060000606 0.006521821 0.62625444
0.060000606 0.006521821 0.62625444
0.056043435 0.0091233552 0.6261307
0.045857813 0.011792004 0.62696207
0.047110826 0.011777729 0.6267702
0.052092627 0.011720836 0.6260075
0.052092627 0.011720836 0.6260075
0.040544417 0.015694618 0.62667972
0.061638255 0.0026229322 0.62711042
0.039371323 0.014436156 0.62722212
0.043731216 0.0066259801 0.62876856
0.033158347 0.011937022 0.62890679
0.059959166 -0.0053296983 0.62964219
0.051998481 -0.0013332963 0.62974697
0.051881377 2.9802322e-08 0.62938452
0.037334666 0.0066669285 0.6297574
0.034519657 0.010621399 0.62906921
0.025273409 0.014631987 0.62937093
0.025273409 0.014631987 0.62937093
0.046791114 -0 0.6301809
0.038882975 0.002681613 0.63065207
0.036127381 0.0053521991 0.6303212
0.032087423 0.0080218613 0.63019139
0.024135903 0.010727108 0.63066304
0.055402558 -0.010810226 0.63191825
0.056682851 -0.010796696 0.63171422
0.048617374 -0.0067523718 0.63182175
0.029688474 0.0040484369 0.63170028
0.029688474 0.0040484369 0.63170028
0.0080925813 0.016185164 0.63161427
0.062338471 -0.016262203 0.63238931
0.05707372 -0.014947891 0.63283759
0.0595049 -0.013523847 0.63205135
0.051542528 -0.010851055 0.63253391
0.040727355 -0.005430311 0.63267833
0.032603521 -0.0013584793 0.63278723
0.032528713 -0 0.63241088
0.0013572471 0.016286969 0.63263834
0.066918716 -0.023216695 0.63365722
0.055785082 -0.014966726 0.63304448
0.044940043 -0.0095327497 0.63319027
0.061912585 -0.024764985 0.63488209
0.039877743 -0.012375832 0.63479269
-0.004120871 0.012362599 0.63461518
-0.0082540745 0.013756782 0.63486326
-0.0095973443 0.016452581 0.6343044
0.057783902 0.022012949 0.6348787
0.064952075 -0.029021114 0.63562131
0.067542963 -0.028946966 0.63519508
0.050951447 -0.019278914 0.63503069
0.041489467 -0.016595811 0.63574487
0.01246172 -0.0013846457 0.63594443
0.0082622282 0.0041310787 0.63502729
-0.017960582 0.016579002 0.63557601
0.058279347 -0.027752042 0.63630271
0.052876905 -0.026438415 0.63677269
0.052876905 -0.026438415 0.63677269
0.044453435 -0.020837545 0.63649178
0.047110461 -0.02078402 0.63606107
0.034797683 -0.01670289 0.63682222
0.0041664685 0.001388818 0.63644987
0.0041567078 0.0027711689 0.63605708
-0.0027759569 0.0055518746 0.63634801
-0.018087389 0.012522042 0.63675344
-0.026453406 0.01670742 0.63686776
-0.024970043 0.018033922 0.63625699
0.06440524 -0.036402941 0.63781285
0.06440524 -0.036402941 0.63781285
0.064253137 -0.034920186 0.63741374
0.058831632 -0.033618093 0.63788998
0.032172594 -0.018184483 0.63765526
0.023795946 -0.013997614 0.6377703
0.023795946 -0.013997614 0.6377703
0.012549861 -0.0055777133 0.63712662
0 -0.0014008284 0.63789749
-0.005592552 0.0027962923 0.63757432
-0.011190203 0.0055951178 0.63765121
-0.01541002 0.0070045292 0.63790905
-0.02102326 0.0098108351 0.6379863
-0.020973559 0.011185914 0.6375863
-0.033631835 0.016815931 0.63795918
0.067509905 -0.04078725 0.63857841
0.066032499 -0.03933847 0.6383962
0.023966178 -0.018327057 0.63897902
0.019626601 -0.012617111 0.63802844
0.011276418 -0.011276394 0.63895214
0.0042059869 -0.004205972 0.63804001
0.053762641 -0.036784917 0.63958633
0.053762641 -0.036784917 0.63958633
0.039565302 -0.028260916 0.6393739
0.035296187 -0.025413275 0.63922918
0.021252891 -0.019836038 0.63983417
0.025403388 -0.019758195 0.63916302
0.0056542652 -0.0098949671 0.63943666
0.0056542652 -0.0098949671 0.63943666
-0.0028290877 -0.0056581795 0.63955468
-0.007083639 -0.0042501688 0.63981825
-0.031191764 0.0085068345 0.63994861
0.068322465 -0.048395097 0.6406219
0.068322465 -0.048395097 0.6406219
0.056851141 -0.041217089 0.64036763
0.051313102 -0.039910167 0.6408608
0.04541371 -0.03406027 0.64011407
0.028422918 -0.025580585 0.64035159
0.029804805 -0.025546968 0.64012593
0.019862115 -0.019862145 0.64005911
0.015630115 -0.018471986 0.64032429
0.004276982 -0.014256626 0.64089662
-0.02277841 0.0014236569 0.64065397
-0.044156581 0.012819678 0.6407451
-0.039726019 0.012769073 0.6400668
0.062809221 -0.047106892 0.6411165
0.057125866 -0.044272542 0.64119667
0.045853958 -0.040122211 0.64177477
0.030021021 -0.030020982 0.64136875
0.01144004 -0.020020068 0.64142096
0.0085613253 -0.017122656 0.64104468
-0.012879944 -0.0071555078 0.64155376
-0.017200084 -0.0057334006 0.64182365
-0.028693527 -0 0.64198488
-0.024292588 -0 0.64129674
-0.025693517 0.0014274418 0.64110869
-0.032969132 0.0028668642 0.64183569
-0.031417709 0.0042842329 0.64118838
-0.048740376 0.011468321 0.64184779
-0.044263318 0.011422843 0.64116073
-0.050119031 0.012887776 0.64165843
-0.05860981 0.018583596 0.64136088
0.061761774 -0.050271183 0.6421833
0.056042556 -0.047420591 0.64226401
0.047453959 -0.043139935 0.64238596
0.030240394 -0.034560442 0.64262974
0.012946834 -0.02445513 0.64245093
0.0028829456 -0.020180583 0.64280528
0.004318635 -0.020153582 0.64257258
-0.0057699392 -0.015867293 0.64292741
-0.0014367221 -0.015803963 0.64223182
-0.048858803 0.010059148 0.64226824
-0.050240673 0.01148358 0.64207798
-0.063457511 0.015864402 0.64289504
-0.066195883 0.018707514 0.64251173
0.047685839 -0.046240807 0.64323413
0.028980264 -0.037674338 0.6437155
0.024611717 -0.034745961 0.64356279
0.013042039 -0.028982282 0.64372784
-0.027422028 -0.0043297708 0.64302152
-0.033291981 -0.0028949678 0.64353013
-0.056558166 0.0087012649 0.64385986
-0.053513724 0.0086778998 0.64339
0.046645325 -0.051018357 0.64476001
0.045137398 -0.049505532 0.64456427
0.045026552 -0.047931522 0.64413267
0.031949025 -0.040662378 0.64410365
0.017447328 -0.033440709 0.64431071
0.0072668139 -0.027613878 0.6442405
0.0029041797 -0.024685562 0.6440869
0.0029041797 -0.024685562 0.6440869
-0.024771543 -0.011657149 0.64469767
-0.043620471 -0 0.64431936
0.032266028 -0.046932369 0.64584291
0.021936249 -0.039485246 0.64533341
0.014651007 -0.036627531 0.64565742
0.014651007 -0.036627531 0.64565742
0.010221353 -0.032124221 0.64506507
0.0014612363 -0.027763516 0.64519095
-0.033621222 -0.0087707639 0.64525807
-0.03806724 -0.0073205829 0.64553958
-0.055716321 0.0014662147 0.64579242
0.03242695 -0.050114363 0.64672595
0.023600167 -0.045725346 0.64685369
0.024978733 -0.044080108 0.64616883
0.010323333 -0.038343787 0.64682359
0.0058791768 -0.033805281 0.64622396
0.0058791768 -0.033805281 0.64622396
0.0058791768 -0.033805281 0.64622396
-0.022124672 -0.020649672 0.64684975
-0.022069566 -0.019126922 0.64640623
-0.028037976 -0.017708212 0.64693487
-0.02351444 -0.017635852 0.64620686
-0.029407134 -0.014703542 0.64629185
-0.05458203 -0.0029504001 0.64687532
-0.064720467 0.0044127703 0.6463598
-0.070462465 0.0088078082 0.64600354
-0.017694492 0.022118121 0.64679694
0.023718545 -0.048919499 0.64774668
-0.01036662 -0.029618889 0.64757007
-0.019266181 -0.025194228 0.64769906
-0.029628107 -0.019258261 0.64762557
-0.04284618 -0.010342181 0.64714867
-0.048779488 -0.0073908269 0.64723462
-0.053166758 -0.0044305325 0.64707619
-0.053166758 -0.0044305325 0.64707619
0.016377967 -0.047645003 0.64853096
0.0074499287 -0.043209583 0.64866138
-0.026860734 -0.025368452 0.64893615
-0.037291266 -0.019391477 0.6488623
-0.037197452 -0.01785481 0.64840931
-0.049148142 -0.0119147 0.64858311
0.011991079 -0.049463183 0.64973551
0.0089727603 -0.046359211 0.64932215
-0.0030014254 -0.042019933 0.64995617
-0.032845758 -0.022394836 0.64902383
-0.035840459 -0.020906895 0.6490677
-0.071890377 -0.0029954314 0.64959443
0.0060290429 -0.049739599 0.65074658
0.0030152621 -0.048244178 0.65079129
0.0045165815 -0.048176855 0.65053731
-0.018076519 -0.036153078 0.65063989
-0.031548128 -0.027041227 0.65014678
-0.055552121 -0.013512641 0.65004015
0 -0.048379391 0.65130132
-0.028755721 -0.033296108 0.6514948
-0.040799104 -0.02568832 0.65120739
-0.06206096 -0.015136838 0.65152174
-0.016760234 -0.044186085 0.65272588
-0.027414346 -0.038075477 0.65264881
-0.051618952 -0.022773087 0.65206766
-0.054668888 -0.021260113 0.65211296
-0.059322808 -0.019774258 0.65241683
-0.062380262 -0.018257648 0.65246177
-0.068500109 -0.015222251 0.6525529
-0.076256648 -0.012201041 0.65290391
-0.029128503 -0.041393131 0.65386313
-0.042918697 -0.033721834 0.65383077
-0.038555752 -0.040097982 0.65496778
-0.036864702 -0.03840071 0.65421921
-0.049330276 -0.033914566 0.65488821
-0.072119527 -0.018413484 0.65402955
-0.044513445 0.023024201 0.65408856
-0.041759599 -0.040212929 0.65550148
-0.044864208 -0.038676023 0.65554857
-0.071036942 -0.023164213 0.65521538
-0.015498882 0.024798185 0.65589213
-0.029511079 -0.049702823 0.65629369
-0.034138855 -0.046552956 0.65611887
-0.046722829 -0.042050511 0.65680224
-0.069940642 -0.027976274 0.65641707
-0.064197503 -0.036013246 0.657812
-0.060889181 -0.035908997 0.65726501
-0.04079482 -0.050209016 0.65820301
-0.04709487 -0.047094852 0.65829921
-0.053543698 -0.045669645 0.6589011
-0.06919615 -0.036170721 0.65863854
-0.074040957 -0.034657478 0.65896446
-0.075325012 -0.031385392 0.65823191
-0.048996247 -0.050576776 0.6595903
-0.067885794 -0.039468467 0.65937483
-0.063069724 0.023651153 0.65913385
-0.065234147 -0.046141207 0.66086411
-0.073138312 -0.04133904 0.66072965
-0.078254163 -0.041522592 0.66158193
-0.07202331 -0.046415031 0.66200376
-0.072613053 -0.051635921 0.66358572
-0.0081044249 0.027555048 0.66446221
-0.0081044249 0.027555048 0.66446221
0.065001056 0.030875504 0.66496217
-0.013066848 0.027767062 0.66596764
0.062067743 0.031033844 0.6659683
0.062067743 0.031033844 0.6659683
-0.014738002 0.027838409 0.66647458
-0.03727182 0.028800964 0.67330897
0 0.030576557 0.67385519
0.059665456 0.035097361 0.68063521
0.017597087 0.03343448 0.68121976
0.058070604 0.035194308 0.68122053
0.01242092 0.033713937 0.6829952
0.010676248 0.033808142 0.68359363
0.041623369 0.036194235 0.68725562
0.081669405 0.038112402 0.68787897
-0.0036400964 0.034580946 0.68850338
0.018791195 0.037582397 0.69563395
0.056877039 0.039813936 0.69765973
0.011409326 0.038031071 0.69834208
-0.046611309 0.03690064 0.70324093
-0.048701961 0.037013501 0.70395803
-0.026206687 0.040318012 0.71214467
-0.026001323 0.045502335 0.73035723
0.065900438 0.050523669 0.73396701
-0.066693291 0.04829514 0.74641073
-0.053697079 0.053697079 0.76343191
0.062794201 0.0090631396 0.62509233
0.056901701 0.012932211 0.62490958
0.048715223 0.014938749 0.62561733
0.051077042 0.0091676712 0.62689501
0.027678687 0.018452466 0.62790477
0.059329201 -0.0053329915 0.62974161
0.050960764 0.0033084303 0.6285848
0.035122119 0.011264972 0.62879145
0.038757276 0.011010131 0.62829578
0.029221585 0.013282508 0.62913859
0.029221585 0.013282508 0.62913859
0.055213407 -0.0087541044 0.63136137
0.052930441 -0.0046908259 0.63055903
0.043135807 -0.0026960075 0.6315214
0.03487207 0.0046935529 0.63070536
0.020777151 0.012733884 0.63061535
0.0047242432 0.017548785 0.63175201
0.060838297 -0.02050744 0.6338352
0.066458344 -0.018988073 0.63252312
0.06219596 -0.014872938 0.63201535
0.051071782 -0.012939073 0.63320309
0.042928778 -0.0088591948 0.63331252
0.040821057 -0.0068035126 0.63305539
0.036540829 -0.0013533533 0.6321696
0.023138596 0.0027221739 0.63310272
0.012918413 0.0088384226 0.63295591
0.0068145171 0.010903209 0.63332111
0.00068254216 0.01297573 0.63368881
0.043227695 -0.013037845 0.63445801
0.037135873 -0.011003196 0.63482994
0.037006833 -0.0089098364 0.63425303
0.037006833 -0.0089098364 0.63425303
0.028802348 -0.0048011988 0.63436371
0.028802348 -0.0048011988 0.63436371
0.00068970677 0.0069014877 0.63542068
-0.011007899 0.015135854 0.63490051
0.026798584 0.020614877 0.63469976
0.067110822 -0.037051588 0.63757479
0.066873595 -0.034829974 0.63697821
0.059212491 -0.030651391 0.63698375
0.046886854 -0.026592806 0.63775337
0.030668391 -0.015334189 0.63707697
0.025133394 -0.013265684 0.63735241
0.016707759 -0.0069615841 0.63687122
0.016707759 -0.0069615841 0.63687122
0.00069702731 0.00069666654 0.63719028
0.00069702731 0.00069666654 0.63719028
-0.0069750058 0.00488168 0.63719571
0.00069294113 0.0041603297 0.63620251
-0.020973559 0.011185914 0.6375863
-0.016713817 0.011142522 0.63693213
-0.028698357 0.014699012 0.63779163
0.058901243 -0.039111882 0.63944662
0.062723897 -0.039467007 0.63895017
0.063161947 -0.037196204 0.63823348
0.038791053 -0.026801392 0.63907862
0.024923248 -0.019281795 0.6391021
0.016987797 -0.016987801 0.63968819
0.014839814 -0.01484111 0.63941175
0.0070754932 -0.01132077 0.63962162
-0.0028358703 -0.0070896745 0.63996398
0.0046786643 -0.0051471097 0.63823485
-0.0049140034 -0 0.63826627
-0.046790872 0.017014861 0.63996041
-0.040904105 0.016925842 0.63906491
-0.024064388 0.01981771 0.63967645
-0.024064388 0.01981771 0.63967645
0.066987455 -0.048458993 0.64084882
0.049420279 -0.038966566 0.64088762
0.041219927 -0.032691658 0.64037949
0.0086028343 -0.020073295 0.6418798
0.0028413776 -0.011365503 0.6402964
-0.0049730451 -0.0071036816 0.64030218
-0.018612988 -0.0042952895 0.64163387
-0.011351348 -0.0028378367 0.64008272
-0.038720861 0.0057364404 0.64191604
-0.035062186 0.005007945 0.64155203
-0.02484386 0.004258886 0.64016771
-0.032652479 0.0085180402 0.64017379
-0.057242814 0.017172843 0.64154959
0.066801645 -0.053154372 0.64221764
0.054945912 -0.050608069 0.64334512
0.03335635 -0.04060775 0.64386797
0.021010924 -0.033328459 0.64372146
0.01522186 -0.030444697 0.64380413
0.027300294 -0.031610876 0.64224815
0.0072489781 -0.026096284 0.64380991
0.007213613 -0.023083568 0.64295614
-0.0086993873 -0.017398775 0.64382225
-0.0028842916 -0.017305732 0.64288652
-0.017411115 -0.013058364 0.64394641
-0.023168867 -0.0086883307 0.64359975
-0.024589719 -0.0072322786 0.64340663
-0.044914041 0.0028977096 0.64369452
-0.048977803 0.0086431205 0.64269066
-0.062388297 0.01160714 0.64394212
-0.067123994 0.017322212 0.64305198
0.062761717 0.024527892 0.64296752
0.035103861 -0.046805114 0.64536291
0.013171165 -0.03512308 0.64545971
-0.0073295254 -0.024920374 0.64575452
-0.023340374 -0.013128966 0.64489365
-0.036644105 -0.0087946057 0.64573753
-0.052640807 0.0014622509 0.64531267
-0.045079894 0.00072622299 0.6443404
-0.073234148 0.011717469 0.64560694
0.025103465 -0.047253579 0.64705449
0.019230057 -0.045117587 0.64736354
0.019230057 -0.045117587 0.64736354
0.014797678 -0.042913228 0.64742792
0.0051730135 -0.036953703 0.64723241
-0.014796241 -0.026633263 0.64741057
-0.014796241 -0.026633263 0.64741057
-0.057054672 -0.0044457763 0.64768845
-0.048597377 -0.0051551759 0.64656842
-0.063012809 -0.0014826059 0.64777488
-0.063062944 0.00049209595 0.64721894
-0.069330677 0.0051620156 0.64686698
0.014779629 0.023647428 0.64721
0.00074913114 -0.04347989 0.64978635
0.0074499287 -0.043209583 0.64866138
0.0074499287 -0.043209583 0.64866138
-0.0014910718 -0.038767874 0.64879239
-0.0014910718 -0.038767874 0.64879239
-0.0074778451 -0.037389189 0.64933521
-0.016505061 -0.034510583 0.64992565
-0.017224045 -0.032949373 0.64959228
-0.032763056 -0.020849228 0.64857006
-0.046509683 -0.018003762 0.64990783
-0.043333583 -0.017184928 0.64917743
-0.035660263 -0.017830104 0.64816141
-0.056916103 -0.011234373 0.64960366
-0.067372784 -0.0052410364 0.64952886
-0.069150135 -0 0.64831161
0.006812132 -0.052987382 0.65155107
0.010533523 -0.051162809 0.6504482
-0.0060659191 -0.047010869 0.6518594
-0.034826621 -0.030283988 0.65158433
-0.033308417 -0.031038359 0.65156239
-0.060617372 -0.01666975 0.65173322
-0.075285718 -0.0045171082 0.6505599
-0.075285718 -0.0045171082 0.6505599
-0.016781878 -0.045006946 0.6529634
-0.016934797 -0.050804377 0.65464145
-0.016890831 -0.049136937 0.65415895
-0.023074489 -0.046919137 0.65449333
-0.055001594 -0.034085125 0.65582418
-0.05376504 -0.029186726 0.6542331
-0.072876059 -0.024808854 0.6559726
-0.010770584 0.024618506 0.65453619
-0.046599966 -0.040386617 0.65630794
-0.076397039 -0.026505113 0.65700698
0.050803378 0.028137803 0.65750033
-0.053401504 -0.043977708 0.65839624
-0.068067491 -0.041157097 0.65988487
-0.061212551 -0.039238811 0.65826583
-0.077417724 -0.034758955 0.65952134
-0.07552541 -0.033042371 0.65873587
-0.060194608 -0.045937985 0.66001809
-0.060194608 -0.045937985 0.66001809
-0.073335461 -0.043044716 0.66124701
-0.060846679 -0.052840501 0.66208947
-0.070893407 -0.051558822 0.66329479
-0.070604771 -0.048943028 0.662503
0.033017211 0.02899161 0.66322619
-0.061378445 0.026542038 0.66904831
0.056109909 0.03135553 0.6680119
0.056109909 0.03135553 0.6680119
-0.068729796 0.026821375 0.67115581
-0.028423009 0.028423011 0.67062533
-0.010357916 0.031073749 0.67718935
-0.0068680695 0.03090632 0.67606646
0.029347539 0.032800198 0.67719007
0.00090228854 0.034335703 0.68694532
0.039927114 0.036297381 0.68787813
0.029542908 0.036928654 0.69168818
-0.073939562 0.034125954 0.69765782
-0.028354 0.035915077 0.69697952
-0.048701961 0.037013501 0.70395803
-0.048701961 0.037013501 0.70395803
-0.030431133 0.040574849 0.71369499
0.051707044 0.045502216 0.71846783
0.045949876 0.045949876 0.72092414
-0.061579496 0.042468637 0.72512496
-0.012740642 0.044592291 0.72512603
0.034088705 0.04687199 0.7259835
0.030028526 0.047187716 0.72771579
-0.035146736 0.046130061 0.73396575
0.061934315 0.050874591 0.73580891
0.063924246 0.050698549 0.7348848
-0.074398562 0.048824072 0.74945098
-0.040713251 0.052687734 0.75789374
-0.040713251 0.052687734 0.75789374
-0.045847859 0.053086996 0.76008445
0.045983732 0.010180207 0.62740237
0.045983732 0.010180207 0.62740237
0.026249925 0.010175838 0.63048959
0.029025946 0.017151684 0.62806511
0.053475849 -0.010830641 0.63222587
0.053475849 -0.010830641 0.63222587
0.018671738 -0.0041493773 0.63576204
0.026170902 0.0016973503 0.63292098
0.0017135292 0.0099432468 0.63439298
0.0017016917 0.013961418 0.63324827
0.043946888 -0.032605737 0.63992858
0.053872 -0.034157246 0.63881922
0.001769525 -0.0088511109 0.63974649
-0.0057446621 0.001679647 0.63791704
0.057139199 -0.052076653 0.64342105
0.042294335 -0.045437068 0.64384806
0.062432155 -0.043276876 0.64008248
0.030055055 -0.033652827 0.64239991
0.037825532 -0.030545857 0.64029819
0.022025581 -0.022026911 0.64033824
-0.014028028 -0.0097132046 0.64246297
-0.025918797 0.0046152845 0.64023411
-0.037985656 0.010368278 0.64047974
-0.031492036 0.020040393 0.6415962
0.0018313513 -0.030057542 0.64578736
0.0018313513 -0.030057542 0.64578736
-0.017775362 -0.025674935 0.64760309
-0.030125953 -0.013961472 0.64619261
-0.061497159 -0.0019762616 0.64767873
-0.062274225 0.0059514726 0.64553815
-0.070222579 0.01400638 0.64448273
-0.066846669 0.013078719 0.64421946
-0.04962451 0.020584002 0.64628345
-0.04962451 0.020584002 0.64628345
0.021574907 -0.050095275 0.64841723
0.0096643791 -0.04312028 0.64828962
-0.014207238 -0.033648446 0.64932024
-0.030128974 -0.026381303 0.64973658
-0.030128974 -0.026381303 0.64973658
-0.068955481 -0.012123942 0.65174037
-0.045829449 -0.014159184 0.64870441
-0.0099694133 -0.052144855 0.65393472
-0.010139257 -0.046641015 0.65239084
-0.045813173 -0.037887875 0.65547216
-0.057298128 -0.032520533 0.65573645
-0.037870478 -0.034242861 0.65319002
-0.054304309 -0.026160059 0.65345383
-0.058521476 -0.019760311 0.65228724
-0.074051544 -0.014125839 0.65310812
-0.057413936 -0.04582838 0.6595518
-0.070268363 -0.038294889 0.6594125
-0.070268363 -0.038294889 0.6594125
-0.070262209 -0.02717343 0.65623832
-0.058681548 -0.047579616 0.66024977
-0.058681548 -0.047579616 0.66024977
-0.080838233 0.024251461 0.66396487
0.058357548 0.031234175 0.66724098
-0.062384576 0.029873744 0.68092632
-0.038744867 0.03243652 0.68632805
-0.012925023 0.035082191 0.69168812
0.018791195 0.037582397 0.69563395
0.021513328 0.03741686 0.69463491
-0.028354 0.035915077 0.69697952
0.05165061 0.040172726 0.69972187
0.045431249 0.04059945 0.7021749
-0.013827191 0.044666767 0.72555423
-0.051773205 0.047271192 0.74052489
-0.016156802 0.050778508 0.74741822
-0.053697079 0.053697079 0.76343191
-0.057692461 0.054007754 0.76513648
