# .PCD v0.7 - Point Cloud Data file format
VERSION 0.7
FIELDS x y z
SIZE 4 4 4
TYPE F F F
COUNT 1 1 1
WIDTH 638
HEIGHT 1
VIEWPOINT 0 0 0 1 0 0 0
POINTS 638
DATA ascii
-0.060617555 0.0012370944 0.6181345
-0.048464593 0.0062133968 0.6188091
-0.053778686 0.0012506545 0.61977303
-0.052443773 0.0024973154 0.61953086
-0.047463547 0.0087432861 0.61957669
-0.054150585 -0.0012593269 0.62081701
-0.054150585 -0.0012593269 0.62081701
-0.040139373 0.0075261295 0.62021822
-0.059573311 -0.0063375533 0.62180698
-0.059366621 -0.0050525069 0.6212762
-0.046951029 -0 0.62197953
-0.041748565 0.0037953258 0.62151611
-0.058414057 -0.0063493848 0.62209111
-0.049650781 -0.002546221 0.62248057
-0.031766661 0.0076240003 0.62218714
-0.06158432 -0.011547059 0.62367678
-0.039640505 0.0012787282 0.62316
-0.061801948 -0.012875378 0.62422395
-0.047614869 -0.0051475465 0.62414527
-0.034785774 0.0012883842 0.62432313
-0.023255629 0.0064598918 0.62475979
-0.057081651 -0.0129731 0.62540329
-0.036391824 -0.0025993884 0.62569273
-0.022083739 0.0051961839 0.6256125
-0.022005223 0.0064721107 0.62505507
-0.06127993 -0.016949773 0.62619007
-0.060090668 -0.016982138 0.62649071
-0.060090668 -0.016982138 0.62649071
-0.05107959 -0.013097346 0.62690288
-0.039262503 -0.0065437555 0.62678421
-0.064566135 -0.022400498 0.62786168
-0.027661867 -0.0026344359 0.62780803
-0.017078217 0.0039411485 0.62738281
-0.059538808 -0.021169335 0.62851459
-0.046362482 -0.014571071 0.62870258
-0.046194404 -0.013198406 0.62812293
-0.034414656 -0.0079418421 0.6285817
-0.0039744508 0.0079489052 0.62872368
-0.052992824 0.013248205 0.6287241
-0.065274887 -0.026642799 0.62960768
-0.063846633 0.01463154 0.62936604
-0.04279292 -0.016047359 0.63022798
-0.034922428 -0.013431698 0.63093913
-0.034794059 -0.012044102 0.63034314
-0.021437226 -0.005359292 0.63053548
-0.013358686 -0 0.63005775
-0.0093715852 0.0013387799 0.63041133
-0.034767967 0.012035072 0.63022196
-0.034767967 0.012035072 0.63022196
-0.045793001 -0.020202786 0.63138366
-0.044369388 -0.018823415 0.63110286
-0.028380573 -0.012163103 0.63193929
-0.02558882 -0.0094274282 0.63137484
-0.043431036 -0.021715552 0.63263506
-0.062794067 -0.034127176 0.63358486
-0.057361554 -0.031412303 0.63366491
-0.021839082 -0.012284458 0.63356727
-0.067243055 -0.038424611 0.63445622
0.009635672 0.0013765097 0.63496536
0.009635672 0.0013765097 0.63496536
0.017840462 0.0068617165 0.63446057
-0.059141457 0.016504616 0.63482749
-0.041342944 -0.026183873 0.63515532
-0.041342944 -0.026183873 0.63515532
-0.034538973 -0.023486495 0.63557303
-0.024842279 -0.017941624 0.63540012
-0.013814823 -0.01243335 0.63556379
-0.013814823 -0.01243335 0.63556379
-0.012411316 -0.011032254 0.63526839
0.0055354442 -0.0027677119 0.63585097
-0.0027620038 0.011048049 0.6355058
-0.063993618 -0.041734964 0.6367327
-0.063993618 -0.041734964 0.6367327
-0.036121707 -0.026396632 0.63650703
-0.030579627 -0.023629695 0.63658994
-0.026470019 -0.022290558 0.63697326
-0.0013909363 -0.0083456337 0.63670504
0.015323032 2.9802322e-08 0.63695443
0.02639221 0.006945312 0.63647896
-0.041566346 0.015241027 0.63605416
-0.041566346 0.015241027 0.63605416
-0.038975585 0.015311867 0.63683158
-0.064239085 -0.043291539 0.63737679
-0.062971175 -0.043380111 0.63772172
-0.058682211 -0.040518641 0.63746053
-0.058682211 -0.040518641 0.63746053
-0.046070538 -0.033505827 0.63732553
-0.046070538 -0.033505827 0.63732553
-0.040506337 -0.030728906 0.63740921
-0.013973897 -0.016768694 0.63748401
0.020905396 0.0027874112 0.63703775
-0.023729593 0.013958603 0.63729912
-0.051600274 0.016735226 0.63714749
-0.035206884 -0.030982047 0.638798
0.0042070355 -0.0084140897 0.63808215
0.0098213125 -0.0056121647 0.63816661
0.029515466 0.0042164922 0.63846278
0.029515466 0.0042164922 0.63846278
-0.018316967 0.014089942 0.6388852
-0.063459009 -0.046536595 0.63903034
-0.012749326 -0.021248877 0.63980186
0.016945055 -0.0042362511 0.63925821
0.035291336 0.0056466162 0.63920581
-0.029715292 0.015565187 0.63961136
-0.029715292 0.015565187 0.63961136
-0.070821099 0.019829929 0.63978142
-0.017092407 -0.02563858 0.64074039
-0.0099573946 -0.021337271 0.6405133
-0.0099573946 -0.021337271 0.6405133
0.014227633 -0.0085365772 0.64054686
0.042791247 0.0057054758 0.64098281
-0.055396874 0.018465638 0.64026546
-0.068311356 0.019924194 0.64059389
-0.058527481 -0.04853496 0.64111853
-0.047341157 -0.044472009 0.64197326
-0.047155492 -0.042868644 0.64129418
-0.012899907 -0.025799841 0.64182156
-0.0071421359 -0.021426409 0.64123052
0.0057315016 -0.015761644 0.6417675
0.011468846 -0.012902439 0.64185566
0.015744682 -0.010019362 0.64158154
0.025736351 -0.0042893589 0.64139593
0.0471806 0.0071485639 0.64138603
-0.0085955849 0.014325947 0.64173394
-0.058990076 -0.051796168 0.64248049
-0.035901137 -0.038773239 0.64215016
-0.022957889 -0.031567097 0.64200801
0 -0.020129234 0.64236212
0.0072078472 -0.017298847 0.64281696
0.011514185 -0.014392734 0.64253974
-0.018771382 -0.031766951 0.64310455
-0.013002248 -0.028893888 0.64319414
0.024544418 -0.0086627603 0.64308488
-0.0014499424 0.014499426 0.64382768
-0.066801265 -0.059540227 0.64410037
-0.039227404 -0.045038849 0.64418066
-0.027633015 -0.039267987 0.64436203
-0.024730669 -0.037823349 0.64440739
-0.0058171363 -0.027631402 0.64435172
-0.0058171363 -0.027631402 0.64435172
0.043821234 -0.0029214323 0.64512718
0.051260881 2.9802322e-08 0.64559656
0.0043923738 0.014641255 0.64553964
-0.054070424 0.020459086 0.64520621
-0.047119442 -0.054481834 0.64654845
0.01468675 -0.020561457 0.6460889
0.035312735 -0.010299534 0.64641345
0.047132954 -0.0044186711 0.64659941
0.057379976 0.0014713109 0.64640349
-0.053196512 -0.059107229 0.64717603
-0.038470227 -0.05178687 0.64741063
-0.035520323 -0.050320446 0.64745754
-0.031029457 -0.047282964 0.64716542
-0.0074035455 -0.035537004 0.64754152
0.0014818792 -0.031119466 0.64768279
0.054866351 -0.0029657483 0.64780295
0.072480254 0.0073959529 0.647358
0.072480254 0.0073959529 0.647358
0.02669316 0.013346612 0.64781243
-0.031159623 0.019289285 0.64791363
0 -0.034288049 0.64875782
0 -0.032663494 0.6480239
0 -0.032663494 0.6480239
0.014866671 -0.025273353 0.64826071
0.0014926165 0.016418785 0.64897889
-0.023998141 -0.049496204 0.64985615
-0.016475765 -0.044933885 0.6496042
-0.016475765 -0.044933885 0.6496042
0.034463637 -0.017981023 0.6496793
0.041897412 -0.013467014 0.64942789
0.052528609 -0.0090048909 0.6499688
0.050916057 -0.0089851618 0.64957207
0.050916057 -0.0089851618 0.64957207
0.062705144 -0.0014929771 0.6490227
-0.031672176 -0.055803329 0.65085977
-0.030105652 -0.054190189 0.65050781
0.027120832 -0.024107426 0.65068042
0.05577505 -0.0090445578 0.65076745
-0.030230643 -0.055926681 0.65126222
0.015113485 -0.031738311 0.65124005
0.022732681 -0.028794736 0.65174258
0.063486181 -0.006046325 0.65126747
-0.0060428819 0.018128633 0.65116417
-0.025867568 -0.056299984 0.65248013
-0.021266889 -0.053167224 0.65217131
0.030393971 -0.025834858 0.65224797
0.04565262 -0.018261045 0.6524961
0.050343521 -0.016781151 0.65295565
0.053186197 -0.013676465 0.65223676
0.063750662 -0.0075893402 0.65202755
0.066804431 -0.0060730875 0.65207702
-0.018387167 -0.055161506 0.65376472
-0.012264792 -0.052125365 0.65386558
-0.0045927558 -0.04745847 0.65360236
0.036799867 -0.026066571 0.65389317
0.065964989 -0.010738492 0.6539827
-0.042886838 0.022975117 0.65369338
-0.012316658 -0.053885341 0.65464813
0.0030833834 -0.046250761 0.65490282
0.026207136 -0.033915102 0.65489125
0.055290222 -0.016894251 0.65419638
0.063145705 -0.013861239 0.65471536
0.064558133 -0.012296826 0.65434831
0.03252909 -0.032529086 0.65578544
0.052648369 -0.021678716 0.65572238
0.071045302 -0.010811239 0.65523732
0.067976147 0.012359291 0.65529156
0.067976147 0.012359291 0.65529156
-0.051174343 0.024811804 0.65599471
-0.0015509004 -0.051179707 0.65601432
0.024925988 -0.038946837 0.65685618
0.04516302 -0.028032184 0.6567924
0.063684523 -0.017086089 0.65630174
0.071347974 -0.012408316 0.65603155
0.040335722 0.015513718 0.65607148
-0.0062408997 -0.056168079 0.6571399
0.057933755 -0.023486644 0.65781009
0.057933755 -0.023486644 0.65781009
0.029692113 0.017190158 0.65744388
0.0062747509 -0.051766694 0.65816146
0.015700012 -0.047100037 0.65832007
0.015700012 -0.047100037 0.65832007
0.026890226 -0.044289768 0.65974158
0.033092171 -0.039395481 0.65902215
0.033092171 -0.039395481 0.65902215
0.039690055 0.017463654 0.66044468
0.011202714 -0.057613969 0.66198802
0.011202714 -0.057613969 0.66198802
0.043143556 -0.039947718 0.66168886
0.051057309 -0.035101891 0.66140294
0.055745494 -0.03185457 0.66106343
0.065357372 -0.027099401 0.66122687
0.070323467 -0.025572151 0.66173124
0.071774378 -0.023924798 0.661336
-0.066972017 0.028702289 0.66128594
-0.066972017 0.028702289 0.66128594
0.0353617 -0.046613157 0.66282845
0.068866588 -0.027226299 0.66212809
0.024354625 -0.056827426 0.66479498
0.048706237 -0.04383558 0.66478288
0.066522457 -0.034072489 0.66465706
0.044111438 -0.049012721 0.66601604
0.044111438 -0.049012721 0.66601604
0.075263411 0.016361594 0.66630626
0.032862946 -0.057510108 0.66714954
0.052673016 -0.047734916 0.66749775
0.054204445 -0.045991659 0.66707855
0.03632379 -0.057787836 0.66810727
0.03632379 -0.057787836 0.66810727
0.076218173 -0.038109094 0.66881162
0.051368739 0.019884676 0.66882849
0.051602706 -0.0532673 0.66973948
0.064700283 -0.044792503 0.66906095
0.05004511 -0.055049628 0.67017013
0.063465744 -0.048434377 0.6704092
0.080286436 -0.040143192 0.67070889
0.0066729165 0.02502346 0.67017722
0.064211927 0.02027747 0.67277956
-0.010284876 0.029140472 0.67571986
-0.077186696 0.036020428 0.67585433
0.0833496 -0.05556643 0.6784122
0.083749041 -0.057577461 0.67941672
-0.049037926 0.035027057 0.68021131
-0.028202597 0.033490598 0.68157625
0.0088494234 0.030088067 0.68244809
0.046206325 0.026657492 0.68332708
-0.058618709 0.037302822 0.68322545
-0.068476908 0.039644539 0.68632764
-0.0073088496 0.034717053 0.68936819
0.072091118 0.027727365 0.69193661
0.018508939 0.033316135 0.69222677
-0.035212774 0.038919389 0.6925177
-0.057122026 0.043793559 0.69864535
-0.057122026 0.043793559 0.69864535
-0.0096862875 0.040682405 0.70265174
-0.027192501 0.042731076 0.7032631
-0.060726892 0.047014385 0.70526814
-0.03933223 0.045232058 0.70619512
-0.033765141 0.045682251 0.70855784
0.0061670835 0.045225292 0.71694839
-0.010342631 0.047576129 0.71849728
-0.045922067 0.052184194 0.72077155
0.025454862 0.046667278 0.72486031
-0.012800577 0.051202297 0.72633183
0.010712707 0.049278468 0.72743177
-0.011094389 0.055471957 0.73664641
0.060487963 0.049286485 0.73923159
0.024981003 0.054504037 0.74293804
0.073056094 0.050226092 0.74438697
0.059958726 0.057560354 0.7583105
0.035947505 0.059912533 0.75808728
0.016897701 0.062762946 0.76019454
0.016897701 0.062762946 0.76019454
-0.060563598 0.0048940778 0.61649585
-0.060563598 0.0048940778 0.61649585
-0.054838091 0.008626312 0.61755967
-0.051200941 0.0031209439 0.61954802
-0.043374714 0.0050290376 0.62056816
-0.043408193 0.0088075697 0.62068564
-0.05500697 -0.0070368797 0.62322104
-0.044500865 0.00063461065 0.62228209
-0.033207428 0.0051088631 0.62297684
-0.047265958 -0.0071235001 0.62512136
-0.042789277 -0.0051865876 0.625323
-0.037255477 -0.0030331514 0.62568104
-0.063141763 -0.021047235 0.6275934
-0.058685876 -0.015649557 0.6262266
-0.030861668 -0.0032844171 0.62733215
-0.028819319 -0.0013099313 0.62693137
-0.013165455 0.0052662194 0.62772524
-0.057322763 -0.022662491 0.629722
-0.041233357 -0.013301075 0.6293624
-0.024665354 -0.0053331852 0.62974739
-0.017328329 -0.0013329387 0.62970519
-0.037275869 0.011981517 0.62950397
-0.013507335 -0.0040522218 0.63185209
-0.016738769 -0.00267829 0.6304543
-0.010709161 0.00066812336 0.63039285
-0.0046827877 0.0040144175 0.6303302
-0.0013422306 0.0046965778 0.6308257
-0.0067069107 0.0093896687 0.63072324
-0.020758439 0.010714412 0.63047224
-0.065142289 -0.033250973 0.63262427
-0.060865819 -0.029756635 0.63207424
-0.060865819 -0.029756635 0.63207424
-0.050636899 -0.025319278 0.63252962
-0.023201257 -0.012966692 0.63354766
-0.022985792 -0.009464711 0.63201767
-0.015023513 -0.0088788122 0.63366759
-0.0088073146 -0.0027101487 0.63237613
0.012298728 0.0054661334 0.63375831
0.0040975856 0.0095610321 0.6336782
-0.062643185 -0.037173286 0.63499719
-0.055056494 -0.033033878 0.63495171
-0.054849125 -0.031538248 0.63432598
-0.034931831 -0.02298235 0.63525081
-0.031123493 -0.022132769 0.6357829
-0.026932366 -0.019336551 0.63552761
-0.010992032 -0.0089323223 0.63466108
0.01099276 0.0027481914 0.63467205
-0.031008489 0.01378192 0.63516641
-0.065753534 -0.044768363 0.6376797
-0.046720296 -0.033471763 0.6371541
-0.015398927 -0.018198699 0.63778728
-0.027060721 0.01387772 0.63632286
-0.070329726 -0.049230799 0.6385951
-0.054826666 -0.040768534 0.63850063
-0.043963637 -0.038290888 0.63999379
-0.044938523 -0.035108238 0.63832164
-0.026881402 -0.028296202 0.63958687
-0.012675413 -0.019014493 0.63881052
0.0049521513 -0.011317521 0.6395725
0.032586202 0.002833575 0.639826
0.030924942 0.0049185306 0.6384846
-0.0049271081 0.012671858 0.63876259
-0.045153216 0.016932487 0.63913149
-0.035080962 -0.037229568 0.64165056
-0.035080962 -0.037229568 0.64165056
-0.02070681 -0.028562143 0.64119196
0.018539181 -0.007130444 0.64094853
0.039374363 0.004743 0.64059579
-0.063157402 -0.053109586 0.64207166
-0.054803047 -0.050476491 0.64289129
-0.049059458 -0.047616541 0.64298064
-0.041110918 -0.043275431 0.6429311
-0.02522889 -0.03460066 0.64283198
-0.02522889 -0.03460066 0.64283198
-0.0050542364 -0.024552837 0.64314473
0.010805349 -0.015127838 0.64270139
0.018722601 -0.010802925 0.64265162
0.022961097 -0.0071753263 0.64203221
0.028944319 -0.0072360933 0.64349854
0.033298947 -0.0050686896 0.64356673
-0.064828761 -0.059730582 0.64466071
-0.051206131 -0.054132193 0.64540774
-0.0072850287 -0.029140115 0.64468026
-0.0051150941 -0.02923356 0.64524436
0.023328925 -0.013122529 0.64480722
0.030762374 -0.010988027 0.64563012
0.040971473 -0.0051229 0.64543605
0.049299709 -0.00097720826 0.64556646
0.050851744 0.002905786 0.64418548
0.055564605 0.0029244423 0.64531052
0.056806289 0.0050965548 0.64462781
0.030625734 0.011666954 0.64484477
0.042886287 0.010176212 0.64428639
-0.02486662 0.017552942 0.64537275
-0.0088021196 0.016137242 0.6458891
-0.048782893 -0.056914881 0.64724708
-0.050731942 -0.055879533 0.64631093
-0.040722255 -0.053310171 0.64755708
-0.028984863 -0.045200538 0.64671671
-0.027060967 -0.044777535 0.64698851
0.0073832329 -0.026579618 0.64705116
0.058740247 0.0029369891 0.64606851
0.025147943 0.013313621 0.64737034
-0.022048902 0.01763913 0.64623994
-0.060777247 0.022235572 0.64774227
-0.041056238 -0.056733362 0.64902318
-0.037375268 -0.055315375 0.64926791
-0.03141192 -0.052353203 0.64936382
-0.029143304 -0.050815374 0.64921474
0.013405602 -0.026811212 0.64860404
0.025348539 -0.020875305 0.64879471
0.014896194 0.014896184 0.64861709
-0.022735452 -0.053049386 0.65176493
-0.012800552 -0.045181349 0.65059984
-0.012800552 -0.045181349 0.65059984
-0.010577241 -0.045331061 0.65120214
-0.0030178325 -0.040740758 0.65094644
0.00075320032 -0.037618622 0.65044296
0.010597166 -0.034819245 0.6515457
0.010597166 -0.034819245 0.6515457
0.036909495 -0.018832497 0.65065187
0.04546259 -0.016669631 0.65173149
0.049013846 -0.012820333 0.65084702
0.060698543 -0.0091047883 0.65197819
0.060827211 -0.0065361662 0.65084934
0.071239807 -0.0030314624 0.65177023
0.06462916 0.010521024 0.65023273
0.049575154 0.012018204 0.65014505
-0.009201101 -0.050606042 0.653916
0.016872246 -0.036812186 0.65395504
0.027577352 -0.030641496 0.65374196
0.054827634 -0.013706923 0.65264523
0.071537636 -0.0045662224 0.65253514
-0.074786544 0.025946349 0.65303952
-0.062289611 0.024308145 0.65219486
-0.0046316939 -0.05094862 0.65516907
-0.0030947928 -0.051064104 0.65559143
0.044970654 -0.026362091 0.65599155
0.044970654 -0.026362091 0.65599155
0.04459079 -0.023064196 0.65441048
0.05837784 -0.015362561 0.65424693
0.06934423 -0.010786891 0.65481722
0.050825752 0.013861567 0.65471959
0.038684148 0.015473664 0.65558773
-0.0261181 0.021509022 0.65425903
-0.0093587535 -0.057712317 0.65708768
0.014834924 -0.045282796 0.65729105
0.013977416 -0.043485284 0.65627342
0.024925988 -0.038946837 0.65685618
0.010876936 0.018646181 0.65637016
-0.0046592155 0.020189941 0.6562764
-0.0031483071 -0.058243692 0.65882128
0.011056901 -0.052125365 0.65947354
0.011009137 -0.05032745 0.65864992
0.030062234 -0.04272002 0.65979534
0.044262078 -0.034777343 0.65962219
0.072584912 -0.018935174 0.65927744
0.036322292 0.017371535 0.65943408
0.022156386 0.018991202 0.65984076
0.0015693546 0.020401627 0.65824199
0.0015693546 0.020401627 0.65824199
0.0047566383 -0.057079643 0.66019642
0.023003602 -0.047591761 0.66029859
0.072900638 -0.020602345 0.66010594
0.072900638 -0.020602345 0.66010594
0.01686905 -0.056227013 0.6627242
0.030526718 -0.049005195 0.66274631
0.036892883 -0.044913054 0.66242862
0.051508784 -0.038631558 0.66310596
0.054502711 -0.035266459 0.66230589
0.078707948 0.01445657 0.66269982
0.060843997 0.016011596 0.66208094
0.062612541 0.016054511 0.66259909
0.019431958 -0.058295846 0.66427451
0.031005366 -0.055483252 0.66578716
0.047181092 -0.045554131 0.66519248
0.021064064 0.021064073 0.66439313
0.0089688543 0.022826999 0.66562277
-0.024398552 0.026025146 0.6651485
0.036941793 -0.055004343 0.66699851
0.036941793 -0.055004343 0.66699851
0.054966934 -0.045123681 0.66686982
0.075530931 -0.034481525 0.66700828
-0.0049089589 0.024544805 0.66632539
-0.053167772 0.029447392 0.66628265
0.052912246 -0.049605221 0.66840017
0.067729592 -0.041298509 0.6682111
0.049574353 0.01982978 0.66827589
0.066825889 -0.046778113 0.67046905
0.066825889 -0.046778113 0.67046905
0.025106927 0.023433179 0.67084908
0.0066729165 0.02502346 0.67017722
0.060946114 -0.055867285 0.67316097
0.07116805 -0.050834328 0.67334569
0.07116805 -0.050834328 0.67334569
0.080639459 -0.051472008 0.67591143
0.054660548 0.022205859 0.67499512
0.081020989 -0.053439349 0.67689133
0.082562029 -0.051601261 0.6764316
-0.0068960828 0.029308349 0.67691183
-0.0051869927 0.029392958 0.67751259
-0.024947282 0.030970603 0.67649746
0.040514033 0.026422232 0.6814335
-0.049037926 0.035027057 0.68021131
-0.066513754 0.036757618 0.6800915
0.042400211 0.026500165 0.68206072
0.030284375 0.028502911 0.68384224
-0.077110574 0.03899911 0.68278635
0.034999624 0.028716549 0.68545365
0.061893325 0.027305871 0.68854487
0.05559323 0.029649734 0.69249403
0.0056012981 0.035474867 0.69418293
-0.011230818 0.037436038 0.69475073
0.072205894 0.030402482 0.69817317
-0.020903977 0.039907575 0.69819802
-0.030876881 0.042455733 0.70175219
-0.055393852 0.047480464 0.70761228
-0.075129248 0.049427122 0.70745945
0.083463609 0.03378287 0.70868385
-0.072253563 0.053674072 0.71799779
-0.085765392 0.056479633 0.72131145
-0.080331929 0.057077974 0.72398627
0.067972697 0.042482942 0.72521126
-0.012800577 0.051202297 0.72633183
-0.053452775 0.055590868 0.726897
-0.071015857 0.058103889 0.72857302
-0.069112189 0.0583134 0.72950971
0.063124523 0.045710862 0.73155594
-0.0043285522 0.051942617 0.73005539
0.0043920558 0.052704692 0.73388815
0.030993853 0.05091846 0.7360391
0.030993853 0.05091846 0.7360391
-0.033259273 0.057649404 0.73645407
0.035685357 0.051297724 0.7380293
0.022624217 0.054298103 0.74190259
-0.045149434 0.060951769 0.74130511
-0.038816117 0.061649114 0.74442297
0.032159984 0.055131376 0.74609363
0.054723762 0.057103097 0.75601029
-0.06158844 -0.0020290278 0.61937642
-0.060880881 -0.0037658662 0.62033075
-0.049815577 -0.0020361438 0.6222105
-0.041912563 0.0057618832 0.62058872
-0.03793104 0.0060027186 0.62143719
-0.039546825 -0.0092275739 0.62792826
-0.021889983 0.0091488585 0.6265707
-0.049778216 -0.018103933 0.62947714
-0.017741157 -0.0018687368 0.62984771
0.0013449114 0.0063007819 0.6307472
-0.037802484 -0.022055512 0.6341418
-0.037802484 -0.022055512 0.6341418
0.021406408 0.0064440072 0.63550681
0.018126249 0.0082072839 0.6339215
0.018126249 0.0082072839 0.6339215
-0.034255572 0.013703069 0.63421476
-0.069673486 -0.050097167 0.6391443
-0.05398481 -0.041815288 0.63917595
-0.022366418 -0.022184584 0.63791209
-0.02493681 -0.019395292 0.63603407
-0.010272837 -0.017909586 0.63888913
0.018050592 -0.0046013594 0.63968885
0.0069333352 -0.0027733445 0.6361897
0.0059573855 0.011209674 0.63794494
0.0059573855 0.011209674 0.63794494
-0.01797308 0.014098331 0.63898587
-0.0059711346 0.012649566 0.63846385
-0.038103346 -0.042261474 0.64319634
-0.031919986 -0.040625423 0.64394426
-0.018846128 -0.033343166 0.64379865
-0.0099351201 -0.026072714 0.6426577
0.0050703748 -0.020278454 0.64364868
0.026140269 -0.002135016 0.64051998
0.038148366 0.0045016361 0.64041007
0.034432426 0.010042131 0.64197439
-0.0061117783 0.014386252 0.64246154
-0.03110617 0.017362058 0.64345306
-0.054286581 -0.057968866 0.64639974
-0.020333696 -0.03485778 0.64412516
-0.0024688966 -0.033084743 0.6476205
0.013980662 -0.021709684 0.64643776
0.010913256 -0.018914953 0.64443791
0.028879683 -0.01629065 0.64757282
0.038232096 -0.0064885169 0.64539427
0.066115595 0.0063083819 0.64631909
-0.056716379 0.020359725 0.64434958
0.038132049 0.013590679 0.65108651
-0.022374092 -0.060180925 0.65507287
-0.013986307 -0.054108609 0.65434742
-0.0057146419 -0.046305463 0.65281171
0.010017494 -0.04237967 0.65482163
0.03394036 -0.030083101 0.65501994
0.053730927 -0.020487443 0.6554445
0.061147235 -0.017028093 0.6556654
0.073759452 -0.0030415654 0.65238041
0.053342853 0.013915285 0.65543985
0.065835774 0.012319632 0.65469301
-0.041815773 0.023019359 0.65404952
-0.0092464704 0.020034045 0.65482873
-0.0092464704 0.020034045 0.65482873
0.0019636524 -0.05413026 0.65819246
0.014771588 -0.043534711 0.65648639
0.054059796 -0.025855929 0.65794867
0.062450729 -0.018139428 0.65648091
0.0023813315 -0.058716804 0.66036481
0.017719615 -0.056914207 0.66323918
0.038922399 -0.039715797 0.66056895
-0.043657277 0.027487904 0.66398561
0.017810298 -0.059096903 0.66424644
0.058118176 -0.03838563 0.66458434
0.069577172 -0.03807874 0.66720104
0.074144319 -0.030308317 0.66478968
0 0.024747759 0.66795838
-0.032961857 0.028017581 0.66774654
0.025981352 0.023466006 0.67113221
-0.065793067 0.033959404 0.67376733
0.013883231 0.027759772 0.67823529
-0.018274983 0.03133072 0.67891252
0.054450087 0.026998229 0.68606889
-0.083346322 0.041673183 0.68751693
-0.083346322 0.041673183 0.68751693
0.081179917 0.025539324 0.68900895
0.081179917 0.025539324 0.68900895
0.02640623 0.030957416 0.68862116
-0.026437283 0.036467165 0.68890274
0.013234778 0.035922974 0.69702965
-0.025451507 0.039593562 0.69639289
-0.025451507 0.039593562 0.69639289
-0.061392915 0.043448359 0.69683367
-0.06638369 0.046520047 0.70278198
0.046874933 0.037897542 0.70957452
0.072455533 0.036227763 0.71175289
0.012052463 0.042183638 0.71128094
-0.050866619 0.04787603 0.70960194
-0.0060425936 0.044312358 0.71193933
0.074719593 0.036350071 0.71257311
-0.0040419884 0.044461876 0.71275973
-0.082050212 0.052675307 0.71336079
0.046236828 0.04109782 0.71685147
-0.070064023 0.058208644 0.72904134
0.066755712 0.045961574 0.73299712
-0.01434095 0.05516535 0.73516583
-0.04151348 0.056807935 0.73254734
0.017963577 0.053890735 0.73985356
0.049571078 0.056652665 0.75374502
0.048908737 0.061135918 0.76399446
