# .PCD v0.7 - Point Cloud Data file format
VERSION 0.7
FIELDS x y z
SIZE 4 4 4
TYPE F F F
COUNT 1 1 1
WIDTH 640
HEIGHT 1
VIEWPOINT 0 0 0 1 0 0 0
POINTS 640
DATA ascii
-0.052003756 0.015053719 0.63399911
-0.045161154 0.015053719 0.63399911
-0.034212995 0.015053719 0.63399911
-0.01231668 0.015053719 0.63399911
-0.0054740794 0.015053719 0.63399911
0.0054740794 0.015053719 0.63399911
0.01231668 0.015053719 0.63399911
0.034212995 0.015053719 0.63399911
0.045161154 0.015053719 0.63399911
0.052003756 0.015053719 0.63399911
0.065688953 0.015053719 0.63399911
-0.0095578833 0.016384929 0.63362396
0 0.016384929 0.63362396
0 0.016384929 0.63362396
0.0095578833 0.016384929 0.63362396
-0.057217356 0.017710149 0.63325042
-0.029970996 0.017710149 0.63325042
-0.02724636 0.017710149 0.63325042
-0.016347816 0.017710149 0.63325042
0.016347816 0.017710149 0.63325042
0.02724636 0.017710149 0.63325042
0.029970996 0.017710149 0.63325042
0.057217356 0.017710149 0.63325042
-0.061864857 0.012372971 0.63475412
-0.026120715 0.012372971 0.63475412
0.026120715 0.012372971 0.63475412
0.061864857 0.012372971 0.63475412
-0.065838628 0.0137164 0.63437545
-0.065838628 0.0137164 0.63437545
-0.060352076 0.0137164 0.63437545
0.060352076 0.0137164 0.63437545
0.065838628 0.0137164 0.63437545
-0.034606662 0.0083055794 0.63589984
0.034606662 0.0083055794 0.63589984
-0.053862378 0.0096676052 0.63551599
-0.042813685 0.0096676052 0.63551599
-0.040051512 0.0096676052 0.63551599
-0.038670424 0.0096676052 0.63551599
0.038670424 0.0096676052 0.63551599
0.040051512 0.0096676052 0.63551599
0.042813685 0.0096676052 0.63551599
0.053862378 0.0096676052 0.63551599
-0.057017315 0.0055626631 0.63667238
0.057017315 0.0055626631 0.63667238
-0.047173534 0.0069372952 0.63628501
-0.044398621 0.0069372952 0.63628501
-0.027749138 0.0069372952 0.63628501
0.027749138 0.0069372952 0.63628501
0.044398621 0.0069372952 0.63628501
0.047173534 0.0069372952 0.63628501
-0.037722386 0.0027942657 0.63745207
-0.0055885012 0.0027942657 0.63745207
0.0055885012 0.0027942657 0.63745207
0.037722386 0.0027942657 0.63745207
-0.068300627 0.0041816533 0.6370616
-0.018120574 0.0041816533 0.6370616
-0.011151123 0.0041816533 0.6370616
0.011151123 0.0041816533 0.6370616
0.018120574 0.0041816533 0.6370616
0.065512843 0.0041816533 0.6370616
-0.063164204 -0 0.6382395
-0.033687573 -0 0.6382395
-0.033687573 -0 0.6382395
-0.028072979 -0 0.6382395
0.028072979 -0 0.6382395
0.033687573 -0 0.6382395
0.033687573 -0 0.6382395
0.063164204 -0 0.6382395
-0.063759245 -0.0056675076 0.63983572
-0.053841144 -0.0056675076 0.63983572
-0.048173655 -0.0056675076 0.63983572
-0.01983621 -0.0056675076 0.63983572
-0.015585595 -0.0056675076 0.63983572
-0.0085012335 -0.0056675076 0.63983572
-0.0085012335 -0.0056675076 0.63983572
-0.0085012335 -0.0056675076 0.63983572
0.0085012335 -0.0056675076 0.63983572
0.0085012335 -0.0056675076 0.63983572
0.0085012335 -0.0056675076 0.63983572
0.015585595 -0.0056675076 0.63983572
0.01983621 -0.0056675076 0.63983572
0.048173655 -0.0056675076 0.63983572
0.053841144 -0.0056675076 0.63983572
0.063759245 -0.0056675076 0.63983572
-0.070677266 -0.0042406023 0.6394341
-0.04664699 -0.0042406023 0.6394341
-0.042406354 -0.0042406023 0.6394341
-0.029684449 -0.0042406023 0.6394341
-0.029684449 -0.0042406023 0.6394341
0 -0.0042406023 0.6394341
0.029684449 -0.0042406023 0.6394341
0.029684449 -0.0042406023 0.6394341
0.042406354 -0.0042406023 0.6394341
0.04664699 -0.0042406023 0.6394341
-0.0380762 -0.002820462 0.63903391
-0.0042306888 -0.002820462 0.63903391
0.0042306888 -0.002820462 0.63903391
0.0380762 -0.002820462 0.63903391
-0.052672531 -0.0085414946 0.64064568
-0.048401788 -0.0085414946 0.64064568
-0.031318802 -0.0085414946 0.64064568
-0.012812237 -0.0085414946 0.64064568
0.012812237 -0.0085414946 0.64064568
0.031318802 -0.0085414946 0.64064568
0.048401788 -0.0085414946 0.64064568
0.052672531 -0.0085414946 0.64064568
0 -0.0071010888 0.64023978
-0.041579109 -0.012903839 0.64187455
-0.041579109 -0.012903839 0.64187455
-0.0014337624 -0.012903839 0.64187455
0.0014337624 -0.012903839 0.64187455
0.041579109 -0.012903839 0.64187455
0.041579109 -0.012903839 0.64187455
-0.027176674 -0.01144281 0.6414628
0.027176674 -0.01144281 0.6414628
-0.06278608 -0.0099886954 0.64105302
-0.018550433 -0.0099886954 0.64105302
-0.014269564 -0.0099886954 0.64105302
0.014269564 -0.0099886954 0.64105302
0.018550433 -0.0099886954 0.64105302
0.06278608 -0.0099886954 0.64105302
-0.037456352 -0.015846908 0.64270341
-0.02737195 -0.015846908 0.64270341
-0.01440629 -0.015846908 0.64270341
0.01440629 -0.015846908 0.64270341
0.02737195 -0.015846908 0.64270341
0.037456352 -0.015846908 0.64270341
-0.048864298 -0.014371872 0.64228773
-0.033055261 -0.014371872 0.64228773
-0.020120593 -0.014371872 0.64228773
0.020120593 -0.014371872 0.64228773
0.033055261 -0.014371872 0.64228773
0.048864298 -0.014371872 0.64228773
-0.06239539 -0.020314783 0.64396203
-0.056591164 -0.020314783 0.64396203
-0.04498272 -0.020314783 0.64396203
-0.02902111 -0.020314783 0.64396203
0.02902111 -0.020314783 0.64396203
0.04498272 -0.020314783 0.64396203
0.056591164 -0.020314783 0.64396203
0.06239539 -0.020314783 0.64396203
-0.040531728 -0.018818289 0.64354026
-0.024608551 -0.018818289 0.64354026
0 -0.018818289 0.64354026
0.024608551 -0.018818289 0.64354026
0.040531728 -0.018818289 0.64354026
-0.056319311 -0.017329007 0.64312059
-0.0043322546 -0.017329007 0.64312059
0.0043322546 -0.017329007 0.64312059
0.056319311 -0.017329007 0.64312059
-0.064155929 -0.023329467 0.64481109
-0.05686548 -0.023329467 0.64481109
0.05686548 -0.023329467 0.64481109
0.064155929 -0.023329467 0.64481109
-0.011636493 -0.021818399 0.64438522
0.011636493 -0.021818399 0.64438522
0.069818959 -0.021818399 0.64438522
-0.068864003 -0.026373446 0.64566839
-0.068864003 -0.026373446 0.64566839
-0.043955743 -0.026373446 0.64566839
-0.036629785 -0.026373446 0.64566839
-0.013186724 -0.026373446 0.64566839
0.013186724 -0.026373446 0.64566839
0.036629785 -0.026373446 0.64566839
0.043955743 -0.026373446 0.64566839
0.068864003 -0.026373446 0.64566839
0.068864003 -0.026373446 0.64566839
-0.0073081702 -0.024847746 0.64523894
0.0073081702 -0.024847746 0.64523894
-0.039851405 -0.030995518 0.64697039
0.039851405 -0.030995518 0.64697039
-0.061839454 -0.029447377 0.64653468
-0.050060511 -0.029447377 0.64653468
-0.050060511 -0.029447377 0.64653468
0.050060511 -0.029447377 0.64653468
0.050060511 -0.029447377 0.64653468
0.061839454 -0.029447377 0.64653468
-0.045531899 -0.027906656 0.64610052
-0.027906647 -0.027906656 0.64610052
0.027906647 -0.027906656 0.64610052
0.045531899 -0.027906656 0.64610052
-0.0059330421 -0.034114987 0.6478495
0.0059330421 -0.034114987 0.6478495
-0.071021296 -0.032551438 0.64740884
-0.066582464 -0.032551438 0.64740884
-0.042908695 -0.032551438 0.64740884
-0.042908695 -0.032551438 0.64740884
-0.011836882 -0.032551438 0.64740884
0.011836882 -0.032551438 0.64740884
0.042908695 -0.032551438 0.64740884
0.042908695 -0.032551438 0.64740884
0.066582464 -0.032551438 0.64740884
-0.068568096 -0.037265301 0.64873677
-0.037265271 -0.037265301 0.64873677
-0.022359163 -0.037265301 0.64873677
-0.01788733 -0.037265301 0.64873677
-0.013415497 -0.037265301 0.64873677
0.013415497 -0.037265301 0.64873677
0.01788733 -0.037265301 0.64873677
0.022359163 -0.037265301 0.64873677
0.037265271 -0.037265301 0.64873677
0.068568096 -0.037265301 0.64873677
-0.059476972 -0.035686195 0.64829177
0 -0.035686195 0.64829177
0.059476972 -0.035686195 0.64829177
-0.055427268 -0.040446937 0.64963287
-0.040446926 -0.040446937 0.64963287
0.040446926 -0.040446937 0.64963287
0.055427268 -0.040446937 0.64963287
-0.074715786 -0.038852245 0.64918399
-0.074715786 -0.038852245 0.64918399
-0.019426104 -0.038852245 0.64918399
0.019426104 -0.038852245 0.64918399
-0.0392421 -0.045279324 0.65099412
0.0392421 -0.045279324 0.65099412
-0.033121705 -0.043660402 0.65053791
-0.012044256 -0.043660402 0.65053791
0.012044256 -0.043660402 0.65053791
0.033121705 -0.043660402 0.65053791
-0.048056837 -0.042049736 0.6500845
-0.01952309 -0.042049736 0.6500845
-0.0045053284 -0.042049736 0.6500845
0.0045053284 -0.042049736 0.6500845
0.01952309 -0.042049736 0.6500845
0.048056837 -0.042049736 0.6500845
-0.0091015371 -0.048541516 0.65191293
0.0091015371 -0.048541516 0.65191293
-0.071116172 -0.046906441 0.65145266
-0.0605244 -0.046906441 0.65145266
-0.054471962 -0.046906441 0.65145266
-0.039340861 -0.046906441 0.65145266
-0.034801532 -0.046906441 0.65145266
-0.031775311 -0.046906441 0.65145266
-0.00302622 -0.046906441 0.65145266
0.00302622 -0.046906441 0.65145266
0.031775311 -0.046906441 0.65145266
0.034801532 -0.046906441 0.65145266
0.039340861 -0.046906441 0.65145266
0.054471962 -0.046906441 0.65145266
0.0605244 -0.046906441 0.65145266
0.071116172 -0.046906441 0.65145266
-0.045738485 -0.051836967 0.65284157
-0.036590792 -0.051836967 0.65284157
0.036590792 -0.051836967 0.65284157
0.045738485 -0.051836967 0.65284157
-0.041060515 -0.050185084 0.65237606
-0.0045622792 -0.050185084 0.65237606
0.0045622792 -0.050185084 0.65237606
0.041060515 -0.050185084 0.65237606
-0.072996467 0.024332166 0.65237606
-0.071475714 0.024332166 0.65237606
-0.068434194 0.024332166 0.65237606
-0.066913433 0.024332166 0.65237606
-0.051705834 0.024332166 0.65237606
-0.047143552 0.024332166 0.65237606
-0.045622796 0.024332166 0.65237606
-0.041060515 0.024332166 0.65237606
-0.041060515 0.024332166 0.65237606
-0.036498234 0.024332166 0.65237606
-0.034977477 0.024332166 0.65237606
-0.0091245584 0.024332166 0.65237606
-0.0030415196 0.024332166 0.65237606
-0.0030415196 0.024332166 0.65237606
0.0030415196 0.024332166 0.65237606
0.0030415196 0.024332166 0.65237606
0.0091245584 0.024332166 0.65237606
0.034977477 0.024332166 0.65237606
0.036498234 0.024332166 0.65237606
0.041060515 0.024332166 0.65237606
0.041060515 0.024332166 0.65237606
0.045622796 0.024332166 0.65237606
0.047143552 0.024332166 0.65237606
0.051705834 0.024332166 0.65237606
0.066913433 0.024332166 0.65237606
0.068434194 0.024332166 0.65237606
0.071475714 0.024332166 0.65237606
-0.04258994 0.030664742 0.67444658
-0.04258994 0.030664742 0.67444658
-0.040886343 0.030664742 0.67444658
0.040886343 0.030664742 0.67444658
0.04258994 0.030664742 0.67444658
0.04258994 0.030664742 0.67444658
-0.07793998 0.03443861 0.68759918
-0.072502308 0.03443861 0.68759918
-0.063439518 0.03443861 0.68759918
-0.059814405 0.03443861 0.68759918
0.059814405 0.03443861 0.68759918
0.063439518 0.03443861 0.68759918
0.072502308 0.03443861 0.68759918
0.07793998 0.03443861 0.68759918
-0.0600284 0.038727999 0.70254827
-0.0561556 0.038727999 0.70254827
-0.054219201 0.038727999 0.70254827
-0.040664401 0.038727999 0.70254827
-0.038728002 0.038727999 0.70254827
-0.0367916 0.038727999 0.70254827
-0.034855202 0.038727999 0.70254827
-0.0019364001 0.038727999 0.70254827
0 0.038727999 0.70254827
0.0019364001 0.038727999 0.70254827
0.034855202 0.038727999 0.70254827
0.0367916 0.038727999 0.70254827
0.038728002 0.038727999 0.70254827
0.040664401 0.038727999 0.70254827
0.054219201 0.038727999 0.70254827
0.0561556 0.038727999 0.70254827
0.0600284 0.038727999 0.70254827
-0.058195636 0.043646723 0.71969116
-0.047803558 0.043646723 0.71969116
0.047803558 0.043646723 0.71969116
0.058195636 0.043646723 0.71969116
-0.085230604 0.049344033 0.73954737
-0.076258957 0.049344033 0.73954737
-0.07401605 0.049344033 0.73954737
-0.071773142 0.049344033 0.73954737
-0.069530226 0.049344033 0.73954737
-0.067287318 0.049344033 0.73954737
-0.065044403 0.049344033 0.73954737
-0.04485821 0.049344033 0.73954737
-0.04037239 0.049344033 0.73954737
-0.038129479 0.049344033 0.73954737
-0.035886571 0.049344033 0.73954737
0.035886571 0.049344033 0.73954737
0.038129479 0.049344033 0.73954737
0.04037239 0.049344033 0.73954737
0.04485821 0.049344033 0.73954737
0.067287318 0.049344033 0.73954737
0.069530226 0.049344033 0.73954737
0.071773142 0.049344033 0.73954737
0.07401605 0.049344033 0.73954737
-0.060891714 0.056020379 0.76281536
-0.060891714 0.056020379 0.76281536
-0.026792355 0.056020379 0.76281536
-0.024356686 0.056020379 0.76281536
-0.021921016 0.056020379 0.76281536
-0.019485349 0.056020379 0.76281536
-0.01704968 0.056020379 0.76281536
-0.014614012 0.056020379 0.76281536
-0.012178343 0.056020379 0.76281536
-0.0097426744 0.056020379 0.76281536
-0.0024356686 0.056020379 0.76281536
-0.0024356686 0.056020379 0.76281536
0 0.056020379 0.76281536
0 0.056020379 0.76281536
0.0024356686 0.056020379 0.76281536
0.0024356686 0.056020379 0.76281536
0.0097426744 0.056020379 0.76281536
0.012178343 0.056020379 0.76281536
0.014614012 0.056020379 0.76281536
0.01704968 0.056020379 0.76281536
0.019485349 0.056020379 0.76281536
0.021921016 0.056020379 0.76281536
0.024356686 0.056020379 0.76281536
0.026792355 0.056020379 0.76281536
0.060891714 0.056020379 0.76281536
0.060891714 0.056020379 0.76281536
-0.065004691 0.015053719 0.63399911
-0.021212058 0.015053719 0.63399911
0.0047898195 0.015053719 0.63399911
0.021212058 0.015053719 0.63399911
-0.06094199 0.016826671 0.63349944
-0.051144935 0.017047539 0.63343716
-0.045007542 0.017047539 0.63343716
-0.021139907 0.017047539 0.63343716
0.047053337 0.017047539 0.63343716
0.051144935 0.017047539 0.63343716
-0.064985797 0.0089865923 0.63570791
-0.015209442 0.0089865923 0.63570791
0.064985797 0.0089865923 0.63570791
-0.046849322 0.011023372 0.63513398
-0.035136994 0.011023372 0.63513398
-0.026869465 0.011023372 0.63513398
0.026869465 0.011023372 0.63513398
0.028936347 0.011023372 0.63513398
0.028936347 0.011023372 0.63513398
0.035136994 0.011023372 0.63513398
-0.04531581 0.013044685 0.63456476
0.04531581 0.013044685 0.63456476
-0.03708094 0.019227177 0.63458431
-0.028840732 0.019227177 0.63458431
-0.028840732 0.019227177 0.63458431
0.028840732 0.019227177 0.63458431
0.03708094 0.019227177 0.63458431
-0.018905124 0.0014003813 0.63784492
-0.0091024674 0.0014003813 0.63784492
-0.0014003796 0.0014003813 0.63784492
0.0091024674 0.0014003813 0.63784492
0.018905124 0.0014003813 0.63784492
0.06511765 0.0014003813 0.63784492
-0.057282139 0.0027942657 0.63745207
-0.048899382 0.0027942657 0.63745207
-0.041215196 0.0027942657 0.63745207
0.041215196 0.0027942657 0.63745207
0.041215196 0.0027942657 0.63745207
0.057282139 0.0027942657 0.63745207
-0.004872974 0.0048721582 0.63686699
-0.058966916 0.0069372952 0.63628501
-0.052723363 0.0069372952 0.63628501
-0.013180841 0.0069372952 0.63628501
0.00069372845 0.0069372952 0.63628501
0.00069372845 0.0069372952 0.63628501
0.054804549 0.0069372952 0.63628501
-0.066959932 -0.0047162375 0.63956797
-0.043163866 -0.004954055 0.63963491
-0.033008229 -0.0047162375 0.63956797
-0.024766153 -0.004954055 0.63963491
0.0070760436 -0.004954055 0.63963491
0.024766153 -0.004954055 0.63963491
0.043163866 -0.004954055 0.63963491
-0.060639873 -0.002820462 0.63903391
-0.036665969 -0.002820462 0.63903391
0.036665969 -0.002820462 0.63903391
-0.037283633 -0.001406908 0.63863552
0.037283633 -0.001406908 0.63863552
0.06331183 -0.001406908 0.63863552
-0.027241483 -0.012903839 0.64187455
-0.018638909 -0.012903839 0.64187455
-0.0050181681 -0.012903839 0.64187455
0.018638909 -0.012903839 0.64187455
0.027241483 -0.012903839 0.64187455
-0.025031146 -0.01144281 0.6414628
0.025031146 -0.01144281 0.6414628
0.0071263462 -0.009265095 0.64084935
-0.061069421 -0.0071010888 0.64023978
-0.044736903 -0.0071010888 0.64023978
-0.042606577 -0.0071010888 0.64023978
-0.0014202191 -0.0071010888 0.64023978
0.042606577 -0.0071010888 0.64023978
0.044736903 -0.0071010888 0.64023978
-0.036912825 -0.018818289 0.64354026
0.036912825 -0.018818289 0.64354026
-0.053431142 -0.017329007 0.64312059
-0.043322545 -0.017329007 0.64312059
-0.027437614 -0.017329007 0.64312059
0.0007220424 -0.017329007 0.64312059
0.0007220424 -0.017329007 0.64312059
0.0050542969 -0.017329007 0.64312059
0.027437614 -0.017329007 0.64312059
0.043322545 -0.017329007 0.64312059
0.053431142 -0.017329007 0.64312059
-0.017266884 -0.01510939 0.64249557
0.015108525 -0.01510939 0.64249557
0.045067392 -0.014863551 0.64242631
0.058995191 -0.01510939 0.64249557
-0.018763069 0.021649718 0.64302737
-0.015154787 0.021649718 0.64302737
0.0028866259 0.021649718 0.64302737
0.018763069 0.021649718 0.64302737
0.057010867 0.021649718 0.64302737
-0.013186724 -0.026373446 0.64566839
-0.013186724 -0.026373446 0.64566839
0.013186724 -0.026373446 0.64566839
0.013186724 -0.026373446 0.64566839
-0.059196178 -0.024847746 0.64523894
-0.052618824 -0.024847746 0.64523894
0.052618824 -0.024847746 0.64523894
0.059196178 -0.024847746 0.64523894
-0.045200769 -0.023329467 0.64481109
-0.026974652 -0.023329467 0.64481109
-0.0051033124 -0.023329467 0.64481109
-0.0051033124 -0.023329467 0.64481109
0.0051033124 -0.023329467 0.64481109
0.0051033124 -0.023329467 0.64481109
0.026974652 -0.023329467 0.64481109
0.045200769 -0.023329467 0.64481109
-0.034909479 -0.021818399 0.64438522
0.034909479 -0.021818399 0.64438522
0.061091587 -0.021818399 0.64438522
-0.05339738 -0.034114987 0.6478495
0.05339738 -0.034114987 0.6478495
-0.065102853 -0.032551438 0.64740884
-0.048827138 -0.032551438 0.64740884
-0.028852401 -0.032551438 0.64740884
-0.017015519 -0.032551438 0.64740884
0.017015519 -0.032551438 0.64740884
0.028852401 -0.032551438 0.64740884
0.048827138 -0.032551438 0.64740884
0.065102853 -0.032551438 0.64740884
0.071021296 -0.032551438 0.64740884
-0.033209503 -0.030995518 0.64697039
0.033209503 -0.030995518 0.64697039
-0.069201291 -0.029447377 0.64653468
-0.069201291 -0.029447377 0.64653468
-0.048588142 -0.029447377 0.64653468
-0.033128276 -0.029447377 0.64653468
0.033128276 -0.029447377 0.64653468
0.048588142 -0.029447377 0.64653468
-0.055078909 -0.027906656 0.64610052
-0.019094022 -0.027906656 0.64610052
0.019094022 -0.027906656 0.64610052
0.055078909 -0.027906656 0.64610052
-0.062917441 -0.040446937 0.64963287
-0.062917441 -0.040446937 0.64963287
-0.017227393 -0.040446937 0.64963287
-0.0029960687 -0.040446937 0.64963287
0.017227393 -0.040446937 0.64963287
0.062917441 -0.040446937 0.64963287
0.068909578 -0.040446937 0.64963287
-0.0089658936 -0.038852245 0.64918399
0.0089658936 -0.038852245 0.64918399
0.019426104 -0.038852245 0.64918399
-0.0074530542 -0.037265301 0.64873677
-0.0074530542 -0.037265301 0.64873677
-0.066911593 -0.035686195 0.64829177
-0.0014869244 -0.035686195 0.64829177
0.066911593 -0.035686195 0.64829177
-0.048541531 -0.048541516 0.65191293
0.033372302 -0.048541516 0.65191293
0.048541531 -0.048541516 0.65191293
0.069019988 -0.048541516 0.65191293
-0.0151311 -0.046906441 0.65145266
0.000756555 -0.046906441 0.65145266
0.0151311 -0.046906441 0.65145266
-0.055089869 -0.045279324 0.65099412
-0.055089869 -0.045279324 0.65099412
-0.027167607 -0.045279324 0.65099412
0.021130361 -0.045279324 0.65099412
0.027167607 -0.045279324 0.65099412
0.027167607 -0.045279324 0.65099412
0.040751409 -0.045279324 0.65099412
0.055089869 -0.045279324 0.65099412
-0.045109622 -0.042855069 0.65031123
-0.034584045 -0.042855069 0.65031123
-0.030824909 -0.042855069 0.65031123
0.030824907 -0.042855069 0.65031123
0.034584045 -0.042855069 0.65031123
-0.066998273 -0.051011026 0.65260881
-0.038828544 -0.051011026 0.65260881
0.038828544 -0.051011026 0.65260881
0.066998273 -0.051011026 0.65260881
-0.06919457 0.024332166 0.65237606
0.06919457 0.024332166 0.65237606
-0.02490842 0.027318895 0.66278559
0.02490842 0.027318895 0.66278559
0.070707768 0.027318895 0.66278559
-0.074958295 0.030664742 0.67444658
-0.066440307 0.030664742 0.67444658
-0.059625916 0.030664742 0.67444658
-0.037479147 0.030664742 0.67444658
-0.02299857 0.030664742 0.67444658
-0.013628781 0.030664742 0.67444658
-0.008517988 0.030664742 0.67444658
0.013628781 0.030664742 0.67444658
0.02299857 0.030664742 0.67444658
0.037479147 0.030664742 0.67444658
0.059625916 0.030664742 0.67444658
0.066440307 0.030664742 0.67444658
0.074958295 0.030664742 0.67444658
-0.077456005 0.038727999 0.70254827
-0.075519599 0.038727999 0.70254827
-0.069710404 0.038727999 0.70254827
-0.0464736 0.038727999 0.70254827
-0.044537202 0.038727999 0.70254827
0.0038728002 0.038727999 0.70254827
0.044537202 0.038727999 0.70254827
0.0464736 0.038727999 0.70254827
0.069710404 0.038727999 0.70254827
0.075519599 0.038727999 0.70254827
0.077456005 0.038727999 0.70254827
-0.0020784156 0.043646723 0.71969116
0.0020784156 0.043646723 0.71969116
-0.013457463 0.049344033 0.73954737
-0.013457463 0.049344033 0.73954737
-0.011214552 0.049344033 0.73954737
-0.0067287316 0.049344033 0.73954737
0.0067287316 0.049344033 0.73954737
0.011214552 0.049344033 0.73954737
0.013457463 0.049344033 0.73954737
0.013457463 0.049344033 0.73954737
-0.077941395 0.056020379 0.76281536
-0.0024356686 0.056020379 0.76281536
0 0.056020379 0.76281536
0.0024356686 0.056020379 0.76281536
-0.041926283 0.010004982 0.63542092
0.010007167 0.010004982 0.63542092
0.034162402 0.010004982 0.63542092
-0.04609498 0.014049202 0.63428193
-0.04609498 0.014049202 0.63428193
-0.014051347 0.014049202 0.63428193
0.04609498 0.014049202 0.63428193
-0.05405917 0.018137358 0.63401073
-0.034158055 -0.002113685 0.63883471
0.034158055 -0.002113685 0.63883471
0.034158055 -0.002113685 0.63883471
-0.017854905 0.0013982158 0.63784552
0.021890413 0.0059047267 0.636576
-0.038090207 -0.020314783 0.64396203
0.018138194 -0.020314783 0.64396203
-0.026213109 -0.014006615 0.64218509
-0.014004263 -0.014006615 0.64218509
-0.0061044223 -0.014006615 0.64218509
0.026213109 -0.014006615 0.64218509
0.041941609 -0.010353953 0.64115608
0.041941609 -0.010353953 0.64115608
-0.072165653 0.021649718 0.64302737
0.018041413 0.021649718 0.64302737
-0.073361173 -0.033593804 0.64770263
-0.014004642 -0.030221447 0.64675254
0.0099506676 -0.030221447 0.64675254
0.072234474 -0.030221447 0.64675254
-0.037728872 -0.026375949 0.64566934
-0.030036576 -0.026375949 0.64566934
0.037728872 -0.026375949 0.64566928
0.037728872 -0.026375949 0.64566928
0.05799716 -0.026375949 0.64566928
0.069963247 -0.026375949 0.64566934
-0.054248121 -0.022573933 0.64459813
-0.049879145 -0.022573933 0.64459813
-0.049879145 -0.022573933 0.64459813
-0.065986142 -0.048541516 0.65191293
-0.042094607 -0.048541516 0.65191293
-0.050247755 -0.046092883 0.65122336
-0.034002241 -0.046092883 0.65122336
-0.029846413 -0.046092883 0.65122342
0.029846413 -0.046092883 0.65122342
-0.057969756 -0.041651003 0.64997208
-0.073876932 -0.038058773 0.64896035
-0.026118107 -0.038058773 0.64896035
0.026118107 -0.038058773 0.64896035
0.042162091 -0.038058773 0.64896035
0.054101795 -0.038058773 0.64896035
0.073130697 -0.038058773 0.64896035
-0.026021175 -0.035686195 0.64829177
0.0063194283 -0.035686195 0.64829177
-0.0098974723 -0.051011026 0.65260881
0.0057100803 -0.051011026 0.65260881
-0.034148641 0.027318895 0.66278559
0.013659455 0.027318895 0.66278559
0.021694429 0.027318895 0.66278559
-0.069783472 0.03443861 0.68759918
-0.066158354 0.03443861 0.68759918
0.073408589 0.03443861 0.68759918
-0.014523 0.038727999 0.70254827
-0.06131326 0.043646723 0.71969116
-0.061680041 0.049344033 0.73954737
-0.050465487 0.049344033 0.73954737
-0.017943285 0.049344033 0.73954737
0.014578918 0.049344033 0.73954737
0.050465487 0.049344033 0.73954737
0.061680041 0.049344033 0.73954737
