# .PCD v0.7 - Point Cloud Data file format
VERSION 0.7
FIELDS x y z
SIZE 4 4 4
TYPE F F F
COUNT 1 1 1
WIDTH 1357
HEIGHT 1
VIEWPOINT 0 0 0 1 0 0 0
POINTS 1357
DATA ascii
0.032378454 0.0013491213 0.63165516
0.032697044 -0 0.63325751
0.033021968 -0.0013759434 0.63489181
0.033353411 -0.002779454 0.63655883
0.033691578 -0.0042114258 0.63825965
0.03403667 -0.0056727827 0.63999534
0.034388904 -0.0071643591 0.64176691
0.034748506 -0.008687079 0.64357561
0.0351156 -0.010242015 0.64542192
0.035490647 -0.011830211 0.64730829
0.035873786 -0.013452679 0.64923537
0.036265291 -0.015110552 0.65120447
0.036665432 -0.016804993 0.65321702
0.037074506 -0.018537223 0.65527451
0.037492808 -0.020308584 0.65737838
0.037920658 -0.022120386 0.65953028
0.038358387 -0.023973972 0.6617319
0.038806204 -0.02587077 0.66398424
0.039264739 -0.027812511 0.66629052
0.039734237 -0.029800683 0.66865194
0.040215101 -0.031836957 0.67107046
0.040707745 -0.03392309 0.67354828
0.041212611 -0.036061049 0.67608756
0.041730154 -0.038252622 0.67869055
0.042260863 -0.040499985 0.68135989
0.042805083 -0.042805076 0.68409705
0.043363664 -0.045170516 0.68690658
0.043937024 -0.047598451 0.68979031
0.044525743 -0.050091445 0.69275129
0.045130454 -0.05265221 0.69579279
0.045751814 -0.055283457 0.69891798
0.04639053 -0.057988167 0.7021305
0.047047328 -0.060769439 0.70543391
0.047722992 -0.063630641 0.70883226
0.048418138 -0.066574901 0.71232855
0.049134046 -0.069606572 0.71592927
0.039750017 0.071550012 0.66073418
0.03935384 0.069262773 0.65882128
0.038965613 0.067020833 0.65694678
0.038584843 0.064822555 0.65510821
0.038211443 0.062666744 0.65330529
0.037845321 0.060552508 0.65153754
0.037486032 0.058478206 0.64980274
0.037133615 0.056443125 0.64810109
0.036787648 0.054445744 0.64643061
0.036448181 0.052485406 0.64479148
0.036114812 0.050560743 0.64318192
0.035787594 0.048671126 0.64160192
0.035466146 0.046815336 0.64004982
0.035150424 0.044992566 0.63852537
0.034840371 0.043202072 0.63702834
0.034535643 0.041442782 0.635557
0.034236297 0.039714158 0.63411158
0.033941999 0.038015038 0.63269061
0.033652812 0.036345035 0.63129425
0.033368416 0.034703135 0.62992114
0.033088882 0.033088893 0.62857139
0.032813899 0.031501353 0.62724364
0.03254354 0.029940069 0.62593824
0.032277513 0.028404206 0.62465376
0.032015797 0.026893258 0.62339008
0.031758375 0.025406748 0.62214708
0.031504981 0.023943782 0.62092364
0.031255677 0.022504091 0.61971992
0.031010207 0.021086961 0.61853462
0.030768644 0.019691914 0.61736828
0.030530736 0.018318415 0.61621958
0.030296555 0.016966045 0.61508888
0.030113149 0.015658855 0.61420327
0.030377418 0.014581174 0.61547923
0.030646367 0.013484389 0.6167779
0.03092012 0.012368053 0.61809969
0.031198807 0.011231571 0.61944532
0.031482566 0.010074437 0.6208154
0.031771448 0.008896023 0.6222102
0.032065764 0.0076957941 0.62363136
0.032365583 0.006473124 0.62507904
0.032671068 0.0052273571 0.62655395
0.032982368 0.0039578974 0.62805712
0.033299662 0.0026639998 0.62958908
0.033623122 0.0013449192 0.63115096
0.033952825 -0 0.63274288
0.034289159 -0.0013715327 0.63436681
0.034632225 -0.0027705729 0.63602328
0.034982227 -0.0041978657 0.63771319
0.03533937 -0.0056542754 0.63943768
0.035703883 -0.0071407855 0.64119774
0.036075994 -0.0086582005 0.6429944
0.036455944 -0.010207713 0.64482903
0.036843982 -0.011790037 0.64670265
0.037240248 -0.013406485 0.64861596
0.037645258 -0.01505807 0.65057147
0.038059168 -0.016746044 0.65257007
0.038482282 -0.018471479 0.65461302
0.038914911 -0.020235777 0.65670192
0.039357383 -0.022040129 0.65883839
0.039810024 -0.023886025 0.66102397
0.040273204 -0.025774866 0.66326034
0.040747143 -0.027708054 0.66554874
0.041232519 -0.029687405 0.66789234
0.041729596 -0.031714499 0.67029244
0.042238802 -0.033791035 0.67275107
0.042760592 -0.035918891 0.6752705
0.043295428 -0.038099974 0.67785293
0.043843821 -0.040336341 0.68050081
0.044406276 -0.042630017 0.68321657
0.044983361 -0.044983327 0.68600297
0.045575459 -0.047398478 0.68886191
0.046183534 -0.04987821 0.69179797
0.046808053 -0.052424997 0.69481337
0.047449697 -0.055041611 0.6979115
0.048109174 -0.057731003 0.70109576
0.04878724 -0.060496151 0.70436972
0.049484696 -0.063340396 0.70773733
0.050202381 -0.066267133 0.71120262
0.050940968 -0.069279701 0.71476889
0.041155018 0.071229845 0.65987527
0.040746655 0.068955898 0.65797937
0.040346451 0.066726834 0.65612131
0.039953902 0.064540893 0.65429884
0.039569043 0.062397361 0.65251201
0.039191402 0.060294509 0.65075874
0.038820904 0.058231384 0.64903867
0.038457464 0.056207061 0.64735132
0.038100649 0.05422014 0.64569473
0.037750512 0.052269965 0.64406908
0.037406635 0.050355107 0.64247262
0.037069079 0.048474967 0.64090538
0.036737449 0.046628296 0.63936573
0.036411811 0.044814527 0.63785392
0.036091786 0.043032527 0.63636816
0.035777446 0.04128167 0.63490868
0.035468426 0.039560944 0.63347405
0.035164703 0.037869662 0.63206398
0.034866236 0.036207259 0.63067818
0.034572694 0.034572691 0.62931538
0.034284148 0.032965541 0.62797576
0.034000289 0.031384885 0.6266579
0.033721182 0.029830307 0.62536204
0.033446528 0.028300911 0.62408698
0.033176403 0.026796371 0.62283278
0.032910515 0.025315762 0.62159836
0.032648947 0.023858875 0.62038398
0.032391414 0.022424847 0.61918837
0.032137912 0.02101326 0.61801142
0.031888433 0.019623667 0.61685312
0.031642716 0.018255383 0.6157124
0.031400837 0.016908139 0.61458933
0.031230986 0.015615493 0.61380082
0.031504296 0.014540464 0.61506969
0.031782437 0.01344645 0.61636102
0.032065533 0.012332916 0.6176753
0.032353714 0.011199355 0.61901331
0.032647125 0.01004526 0.62037557
0.032945905 0.0088700652 0.62176263
0.033250112 0.0076730847 0.62317502
0.033560086 0.0064538717 0.62461412
0.03387589 0.0052116811 0.62608033
0.034197696 0.0039458871 0.62757438
0.034525674 0.0026558042 0.6290971
0.034860004 0.0013407767 0.63064927
0.035200872 -0 0.63223183
0.035548471 -0.0013672411 0.63384563
0.035902902 -0.0027617514 0.63549113
0.036264572 -0.0041843653 0.63717031
0.036633611 -0.0056359172 0.63888365
0.037010234 -0.007117331 0.64063221
0.03739468 -0.0086295307 0.64241707
0.037787199 -0.01017347 0.64423943
0.038188044 -0.011750191 0.64610052
0.038597487 -0.013360679 0.64800137
0.039015677 -0.015006006 0.64994293
0.039443158 -0.016687512 0.65192759
0.039880112 -0.018406212 0.65395623
0.040326852 -0.020163447 0.65603036
0.040783715 -0.021960437 0.65815139
0.041251052 -0.023798645 0.66032112
0.041729216 -0.025679499 0.66254115
0.042218603 -0.027604461 0.66481316
0.04271945 -0.02957499 0.66713846
0.043232478 -0.031592965 0.66952032
0.043757983 -0.033659965 0.67196012
0.044296414 -0.035777897 0.67445993
0.04484826 -0.037948519 0.67702198
0.045414034 -0.040173948 0.67964864
0.045994263 -0.042456239 0.68234253
0.046589509 -0.044797599 0.68510604
0.047200363 -0.047200382 0.68794215
0.047827262 -0.049666792 0.69085264
0.048471235 -0.052199751 0.69384241
0.049132783 -0.054801941 0.69691384
0.049812637 -0.057476103 0.70007014
0.050511573 -0.060225308 0.70331514
0.051230397 -0.063052773 0.7066524
0.051969979 -0.065961897 0.71008611
0.052731223 -0.068956196 0.71362036
0.042976145 0.073218614 0.66094041
0.042547502 0.07091254 0.65902406
0.042127185 0.068651706 0.6571449
0.041715227 0.066435367 0.65530312
0.041311115 0.064261734 0.65349644
0.040914889 0.062130004 0.65172499
0.040526062 0.060038626 0.64998668
0.040144682 0.057986796 0.64828157
0.03977029 0.055972993 0.64660776
0.039402939 0.053996652 0.64496541
0.03904219 0.052056283 0.64335263
0.038687989 0.05015108 0.64176905
0.038340271 0.048280388 0.6402145
0.037998635 0.046442777 0.63868713
0.037663147 0.044637829 0.63718724
0.037333418 0.042864263 0.6357131
0.037009522 0.041121691 0.63426501
0.036691088 0.039408982 0.63284141
0.036378197 0.037725568 0.63144249
0.036070492 0.036070496 0.63006681
0.035768051 0.034443319 0.62871468
0.035470542 0.032843083 0.6273846
0.035177939 0.031269282 0.6260764
0.034890216 0.02972129 0.62479007
0.034607071 0.028198332 0.62352425
0.034328576 0.02670005 0.62227917
0.03405444 0.02522549 0.62105358
0.033784736 0.023774445 0.61984777
0.033519179 0.022346139 0.61866051
0.033257853 0.020940155 0.6174922
0.033000484 0.019555867 0.61634153
0.032747068 0.018192798 0.61520863
0.0324976 0.016850621 0.6140933
0.032342728 0.015572399 0.61340094
0.032624904 0.014499962 0.61466241
0.032912128 0.013408631 0.61594653
0.033204451 0.012297958 0.61725342
0.033502016 0.011167318 0.6185838
0.033804964 0.010016263 0.61993825
0.034113441 0.0088442266 0.62131733
0.034427598 0.007650584 0.62272185
0.0347475 0.0064347088 0.62415206
0.0350735 0.0051960945 0.62560952
0.035405673 0.0039339364 0.62709463
0.035744201 0.0026477277 0.62860811
0.036089264 0.001336664 0.63015074
0.036441054 -0 0.63172358
0.036799774 -0.0013629496 0.63332731
0.037165619 -0.0027530193 0.63496292
0.037538707 -0.004170984 0.63663089
0.037919469 -0.005617708 0.6383332
0.038308039 -0.0070940852 0.64007038
0.038704652 -0.0086010396 0.64184356
0.039109565 -0.010139495 0.64365387
0.039523039 -0.011710554 0.64550239
0.039945349 -0.013315111 0.64739048
0.040376782 -0.014954358 0.64931923
0.040817637 -0.016629398 0.65129018
0.041268092 -0.018341333 0.6533041
0.041728731 -0.020091593 0.65536356
0.042199776 -0.021881372 0.65746945
0.042681575 -0.023711979 0.6596235
0.043174505 -0.025584877 0.66182721
0.043678951 -0.027501553 0.66408247
0.044195324 -0.02946353 0.66639102
0.044724051 -0.031472445 0.66875488
0.045265421 -0.033529907 0.67117518
0.045820225 -0.035637975 0.67365563
0.046388797 -0.037798285 0.67619765
0.046971656 -0.040012896 0.67880338
0.047569349 -0.042283863 0.68147552
0.04818245 -0.044613361 0.68421656
0.048811559 -0.047003716 0.68702912
0.049457315 -0.049457312 0.68991625
0.050120384 -0.051976681 0.69288057
0.050801273 -0.054564327 0.6959247
0.051501129 -0.057223439 0.69905365
0.052220531 -0.059956908 0.70226991
0.052960318 -0.062767774 0.70557725
0.053721365 -0.065659404 0.70897979
0.054504611 -0.068635434 0.7124815
0.044368345 0.072890848 0.66008031
0.043927636 0.070597976 0.65818036
0.04349573 0.068350434 0.65631837
0.043072097 0.066146433 0.65449202
0.042656638 0.06398499 0.65270096
0.042249251 0.061864972 0.65094471
0.041849438 0.059784919 0.64922106
0.041457254 0.057744026 0.64753032
0.041072223 0.055740863 0.64587045
0.040694404 0.053774774 0.64424157
0.040323354 0.051844329 0.64264196
0.039959125 0.049948901 0.64107174
0.0396013 0.048087269 0.63952911
0.039249942 0.046258867 0.63801432
0.038904648 0.044462442 0.63652581
0.038565379 0.0426974 0.63506317
0.038232084 0.040962964 0.63362628
0.037904397 0.039258152 0.63221359
0.037582379 0.037582397 0.63082534
0.037265688 0.035934746 0.6294601
0.036954392 0.034314811 0.62811798
0.036648147 0.032721549 0.6267978
0.036347043 0.031154633 0.62549967
0.036050744 0.029613107 0.62422234
0.035759237 0.028096527 0.62296557
0.035472501 0.026604384 0.62172949
0.035190232 0.025135875 0.6205126
0.034912515 0.023690641 0.61931533
0.034639057 0.022267938 0.61813641
0.034369938 0.020867467 0.6169762
0.034104876 0.019488513 0.61583352
0.033843964 0.01813069 0.61470866
0.033586927 0.01679346 0.61360055
0.033448275 0.015529543 0.61300284
0.033739369 0.014459729 0.61425781
0.034035485 0.01337108 0.61553437
0.034336932 0.012263209 0.61683393
0.034643773 0.011135489 0.61815673
0.034956142 0.0099875033 0.61950338
0.035274196 0.0088185668 0.62087452
0.035598092 0.0076281726 0.62227088
0.035927989 0.0064157546 0.62369311
0.036263961 0.0051805675 0.6251415
0.036606375 0.0039221048 0.62661767
0.036955319 0.0026396811 0.62812203
0.03731098 0.0013325214 0.62965536
0.037673552 2.9802322e-08 0.63121837
0.038043238 -0.0013586879 0.63281214
0.038420253 -0.0027443171 0.6344375
0.038804814 -0.0041576326 0.6360954
0.039197154 -0.0055995882 0.63778681
0.039597388 -0.0070709288 0.63951224
0.040006001 -0.0085727274 0.6412738
0.040423136 -0.010105789 0.64307213
0.04084906 -0.011671126 0.64490831
0.041284055 -0.013269871 0.64678365
0.041728415 -0.014903009 0.64869928
0.042182446 -0.016571671 0.6506567
0.042646464 -0.018277079 0.65265715
0.043120664 -0.020020306 0.65470141
0.043605674 -0.021802813 0.65679234
0.044101715 -0.02362594 0.65893084
0.044609178 -0.02549094 0.66111857
0.045128446 -0.027399421 0.66335714
0.045659952 -0.029352814 0.66564858
0.046204124 -0.031352788 0.6679945
0.046761427 -0.033400983 0.6703971
0.047332332 -0.035499245 0.67285836
0.047917183 -0.037649214 0.67537963
0.04851684 -0.039853126 0.67796487
0.049131699 -0.042112857 0.68061554
0.049762342 -0.044430643 0.68333435
0.050409384 -0.04680872 0.68612379
0.051073477 -0.04924944 0.68898684
0.051755294 -0.051755279 0.69192612
0.052455567 -0.054329008 0.6949451
0.053174838 -0.05697301 0.69804591
0.053914323 -0.059690833 0.70123392
0.054674674 -0.062485337 0.70451188
0.055456772 -0.065359741 0.70788354
0.056261569 -0.068317622 0.71135312
0.045747984 0.072565794 0.65922725
0.045295577 0.070286244 0.6573441
0.044852171 0.068051577 0.65549845
0.044417214 0.065860003 0.65368795
0.043990761 0.063710779 0.65191293
0.043572277 0.061602175 0.65017104
0.043161683 0.059533358 0.64846194
0.042758889 0.057503372 0.64678526
0.042363409 0.0555107 0.64513916
0.041975308 0.053554714 0.64352369
0.041594125 0.051634103 0.64193708
0.041219927 0.049748212 0.64037949
0.040852282 0.047895789 0.63884914
0.040491257 0.046076298 0.63734639
0.040136438 0.044288516 0.6358695
0.0397879 0.042531878 0.63441873
0.039445248 0.040805459 0.63299251
0.039108448 0.039108425 0.6315906
0.038777463 0.0374403 0.63021284
0.038451925 0.035800099 0.62885785
0.038131908 0.034187227 0.62752581
0.037817072 0.032600909 0.62621534
0.0375075 0.031040698 0.62492669
0.03720285 0.0295057 0.62365866
0.036903206 0.027995527 0.62241143
0.036608256 0.026509464 0.62118363
0.036318079 0.025046945 0.61997581
0.036032371 0.023607403 0.61878657
0.035751123 0.022190362 0.61761594
0.035474326 0.020795286 0.61646378
0.035201687 0.019421607 0.61532897
0.034933303 0.018068969 0.6142118
0.034668885 0.016736686 0.6131112
0.03454775 0.015486956 0.612607
0.03484758 0.014419675 0.613855
0.035152659 0.013333768 0.61512488
0.035463035 0.012228638 0.61641681
0.035779033 0.011103839 0.61773211
0.036100715 0.0099588335 0.61907113
0.036428232 0.0087930262 0.62043434
0.036761746 0.0076058805 0.6218226
0.037101425 0.0063968003 0.62323648
0.037447438 0.0051651895 0.6246767
0.037799966 0.0039103329 0.62614411
0.038159091 0.0026316643 0.62763894
0.038525213 0.0013284385 0.62916291
0.038898423 -2.9802322e-08 0.63071638
0.039278939 -0.0013544559 0.6323002
0.039666973 -0.0027356446 0.63391542
0.040062752 -0.0041444004 0.63556284
0.040466506 -0.0055815876 0.63724339
0.040878482 -0.0070480406 0.63895822
0.04129893 -0.0085446239 0.64070827
0.041727994 -0.010072291 0.64249426
0.042166192 -0.011632055 0.64431822
0.042613696 -0.0132249 0.64618093
0.043070797 -0.014851987 0.64808357
0.04353781 -0.016514331 0.65002751
0.044015065 -0.018213123 0.65201402
0.044502899 -0.019949585 0.65404463
0.045001663 -0.021724939 0.65612078
0.045511588 -0.023540497 0.65824324
0.046033349 -0.025397718 0.66041505
0.04656722 -0.027298033 0.66263723
0.047113616 -0.029242933 0.66491157
0.047672987 -0.031234026 0.6672399
0.048245799 -0.033272982 0.66962421
0.048832543 -0.035361499 0.67206657
0.049433738 -0.037501425 0.67456889
0.050049733 -0.039694637 0.67713302
0.050681464 -0.041943282 0.67976254
0.051329345 -0.044249415 0.68245929
0.051994003 -0.046615303 0.68522596
0.052676104 -0.049043268 0.68806517
0.053376339 -0.051535755 0.69097978
0.054095443 -0.054095417 0.693973
0.054834183 -0.056724995 0.69704795
0.055593383 -0.05942741 0.70020807
0.056373663 -0.062205434 0.70345598
0.057176404 -0.065062821 0.7067973
0.058002334 -0.06800276 0.71023524
0.047115374 0.072243601 0.65838176
0.046651486 0.069977224 0.65651524
0.046196796 0.067755282 0.65468574
0.045750741 0.065576047 0.65289092
0.045313355 0.063438743 0.65113097
0.044884115 0.061341643 0.64940381
0.044463065 0.059284091 0.64770967
0.04404971 0.057264596 0.64604652
0.043644104 0.055282503 0.64441442
0.043245763 0.053336471 0.6428116
0.042854633 0.051425576 0.64123785
0.042470638 0.049549103 0.63969278
0.04209334 0.047705799 0.63817465
0.041722808 0.04589507 0.63668376
0.041358624 0.044115871 0.63521838
0.041000858 0.042367578 0.63377881
0.040649116 0.040649116 0.63236356
0.040303469 0.03896004 0.6309728
0.03996354 0.037299305 0.62960494
0.039629407 0.035666496 0.62826055
0.039300706 0.034060627 0.62693799
0.038977411 0.032481164 0.62563711
0.038659502 0.030927628 0.62435794
0.03834663 0.029399097 0.62309903
0.038038883 0.027895182 0.62186074
0.037735939 0.026415169 0.62064177
0.037437875 0.024958581 0.61944252
0.037144389 0.023524791 0.61826158
0.036855567 0.022113353 0.61709946
0.036571104 0.020723641 0.61595488
0.036291093 0.019355237 0.61482823
0.036015246 0.018007606 0.61371827
0.035743561 0.01668033 0.61262512
0.035641205 0.015444547 0.61221325
0.03594967 0.014379889 0.61345446
0.036263522 0.013296634 0.61471725
0.036582898 0.012194306 0.61600232
0.036907956 0.011072367 0.61731029
0.03723884 0.0099303722 0.61864161
0.037575606 0.0087676346 0.61999673
0.037918624 0.0075837076 0.62137687
0.038267963 0.0063780248 0.62278247
0.038623795 0.0051498413 0.62421429
0.03898631 0.0038986206 0.62567294
0.039355692 0.0026237071 0.62715924
0.039732143 0.0013244152 0.62867391
0.040115751 -0 0.63021743
0.040506955 -0.001350224 0.63179147
0.040905863 -0.0027270615 0.63339657
0.041312702 -0.0041312575 0.63503361
0.041727718 -0.0055636764 0.63670349
0.042151161 -0.007025212 0.63840735
0.042583283 -0.0085166395 0.64014602
0.043024357 -0.010039002 0.64192075
0.043474663 -0.011593252 0.64373267
0.043934356 -0.013180256 0.64558232
0.044404019 -0.014801323 0.64747208
0.044883829 -0.016457409 0.64940274
0.045374122 -0.018149644 0.65137553
0.045875248 -0.019879252 0.65339184
0.046387561 -0.021647513 0.65545321
0.046911448 -0.023455709 0.65756118
0.047447305 -0.025305182 0.65971732
0.047995381 -0.027197331 0.66192257
0.048556436 -0.029133856 0.66418016
0.04913076 -0.031116158 0.66649103
0.049718834 -0.033145875 0.66885728
0.050321158 -0.035224825 0.67128086
0.050938252 -0.037354678 0.67376381
0.051570673 -0.039537489 0.67630839
0.052218989 -0.041775227 0.67891705
0.052883815 -0.044069856 0.68159223
0.053565588 -0.046423495 0.68433535
0.054265376 -0.048838854 0.68715113
0.05498369 -0.051318079 0.69004142
0.055721276 -0.053863883 0.6930092
0.056478918 -0.056478918 0.6960578
0.057257451 -0.059166014 0.69919032
0.058057744 -0.061928272 0.70241046
0.058880724 -0.064768791 0.70572186
0.059727125 -0.06769073 0.70912749
0.06059847 -0.070698231 0.71263355
0.048470672 0.071924269 0.65754372
0.04799569 0.069671154 0.65569419
0.047529772 0.06746164 0.65388
0.047072813 0.065294564 0.65210062
0.046624698 0.063168973 0.6503557
0.046184897 0.061083257 0.64864314
0.045753457 0.059036732 0.64696318
0.045329861 0.057027876 0.6453138
0.044914179 0.055056095 0.64369512
0.044505913 0.053119987 0.64210534
0.044105131 0.051218867 0.64054477
0.043711375 0.049351543 0.6390115
0.04332472 0.047517449 0.63750589
0.042944714 0.045715362 0.6360262
0.042571321 0.043944597 0.63457227
0.042204484 0.042204499 0.63314384
0.041843794 0.040494025 0.63173938
0.041489337 0.038812608 0.63035917
0.041140717 0.037159383 0.62900168
0.04079802 0.035533786 0.62766725
0.040460877 0.033934951 0.62635446
0.040129367 0.032362401 0.62506366
0.03980314 0.030815363 0.6237933
0.039482277 0.029293299 0.62254387
0.039166443 0.027795553 0.62131405
0.038855623 0.02632159 0.62010378
0.038549799 0.024870843 0.61891294
0.038248651 0.023442745 0.61774027
0.037952267 0.022036821 0.61658621
0.037660345 0.020652473 0.61544955
0.03737298 0.019289285 0.61433053
0.037089869 0.01794669 0.61322808
0.036811016 0.016624331 0.61214226
0.036728691 0.015402377 0.61182171
0.037045691 0.014340281 0.61305606
0.037368212 0.013259679 0.61431193
0.037696399 0.012160152 0.61558986
0.038030401 0.011041105 0.61689043
0.038370371 0.0099020302 0.61821425
0.038716476 0.0087424219 0.61956191
0.039068781 0.0075617135 0.62093377
0.03942766 0.006359309 0.6223312
0.039793193 0.0051346123 0.62375456
0.04016557 0.0038869977 0.62520456
0.040544979 0.0026158094 0.62668192
0.040931623 0.0013203919 0.62818748
0.041325714 -0 0.629722
0.041727465 -0.0013460219 0.63128644
0.042136986 -0.0027185082 0.63288105
0.042554747 -0.0041181743 0.63450772
0.042980876 -0.0055458844 0.63616705
0.043415625 -0.0070025325 0.63785994
0.043859258 -0.0084888637 0.6395874
0.044312052 -0.010005951 0.64135051
0.044774294 -0.011554629 0.64315039
0.045246281 -0.013136029 0.6449883
0.045728181 -0.014751017 0.64686477
0.046220597 -0.016400874 0.64878219
0.046723742 -0.018086612 0.65074134
0.047237955 -0.019809455 0.65274364
0.04776362 -0.021570653 0.65479052
0.048301108 -0.023371488 0.65688348
0.048850834 -0.025213361 0.65902412
0.049413219 -0.027097583 0.66121387
0.049988531 -0.029025584 0.66345406
0.050577573 -0.030999154 0.66574776
0.051180661 -0.033019781 0.66809613
0.051798303 -0.035089195 0.67050117
0.052431036 -0.037209153 0.67296499
0.053079423 -0.039381534 0.67548972
0.053744044 -0.041608274 0.67807764
0.054425519 -0.043891519 0.68073124
0.055124495 -0.046233445 0.68345302
0.05584145 -0.048636109 0.68624473
0.056577515 -0.051102251 0.68911088
0.05733325 -0.053634346 0.69205362
0.05810944 -0.056234956 0.69507611
0.058906943 -0.058906943 0.69818145
0.059726633 -0.061653286 0.70137328
0.060569465 -0.064477146 0.70465517
0.061436422 -0.067381889 0.708031
0.06232829 -0.070370674 0.7115038
0.049814042 0.071607709 0.65671313
0.049328022 0.069367528 0.65487975
0.048851237 0.067170471 0.65308118
0.048383731 0.065015674 0.65131766
0.047924943 0.062901527 0.64958704
0.047474921 0.060827255 0.64788944
0.04703312 0.058791429 0.64622289
0.046599474 0.056793123 0.64458704
0.046173885 0.054831505 0.64298165
0.045755867 0.052905262 0.64140481
0.045345485 0.051013678 0.63985676
0.04494226 0.049155653 0.6383357
0.04454628 0.047330439 0.63684201
0.044157088 0.045537025 0.63537383
0.043774761 0.043774784 0.63393164
0.043398876 0.042042673 0.63251376
0.043029387 0.040340066 0.63111997
0.042666264 0.038666308 0.62975019
0.042309098 0.037020475 0.62840289
0.041957974 0.03540206 0.62707835
0.041612517 0.033810169 0.62577522
0.041272815 0.032244384 0.62449384
0.040938508 0.030703902 0.62323272
0.040609676 0.029188216 0.62199235
0.040285982 0.02769658 0.62077123
0.039967511 0.026228666 0.61956996
0.039653931 0.024783701 0.61838698
0.039345231 0.023361236 0.61722255
0.039041407 0.021960825 0.61607641
0.038742136 0.020581752 0.61494756
0.038447518 0.01922375 0.61383617
0.038157251 0.017886221 0.61274123
0.037871424 0.01656875 0.61166304
0.037810255 0.015360445 0.61143225
0.038135692 0.014300883 0.61265993
0.038466781 0.013222992 0.61390889
0.038803674 0.012126118 0.61517966
0.039146516 0.011009961 0.61647296
0.039495472 0.009873867 0.61778933
0.039850704 0.0087173581 0.6191293
0.040212385 0.0075398088 0.62049365
0.040580578 0.0063407421 0.62188256
0.040955693 0.0051194727 0.62329751
0.041337803 0.0038754344 0.62473893
0.041727111 0.0026079714 0.62620747
0.042123824 0.0013163686 0.62770396
0.042528149 2.9802322e-08 0.62922919
0.042940315 -0.0013418794 0.63078392
0.043360546 -0.0027100444 0.63236916
0.043788958 -0.0041052103 0.63398516
0.04422605 -0.0055282712 0.63563401
0.044671953 -0.0069799721 0.63731605
0.045126941 -0.0084612966 0.63903236
0.045591291 -0.0099731088 0.64078403
0.046065297 -0.011516303 0.64257205
0.046549264 -0.013091952 0.64439762
0.047043514 -0.014701098 0.64626205
0.047548365 -0.016344786 0.64816648
0.048064016 -0.018023998 0.65011162
0.048591129 -0.019740164 0.65210003
0.049129937 -0.021494359 0.65413249
0.049680825 -0.023287892 0.65621054
0.050244208 -0.025122106 0.65833575
0.050820515 -0.026998401 0.66050971
0.051410198 -0.028918236 0.66273409
0.052013721 -0.030883133 0.66501069
0.052631401 -0.032894582 0.66734076
0.053264119 -0.034954548 0.66972744
0.053912234 -0.037064642 0.67217231
0.054576315 -0.039226711 0.67467737
0.055256955 -0.041442722 0.6772449
0.055954795 -0.043714672 0.67987728
0.056670479 -0.046044767 0.68257695
0.057404712 -0.048435211 0.68534666
0.058158219 -0.050888449 0.68818909
0.058931541 -0.053406715 0.6911062
0.05972594 -0.05599305 0.69410288
0.060542051 -0.058650076 0.69718134
0.061380778 -0.061380774 0.70034516
0.062243063 -0.064188153 0.70359796
0.063129924 -0.067075521 0.70694339
0.064042419 -0.070046395 0.71038544
0.051145643 0.07129392 0.65588969
0.050648794 0.069066554 0.65407228
0.050161343 0.066881806 0.65228927
0.049683347 0.064738899 0.65054077
0.049214222 0.062636256 0.64882481
0.048754018 0.060573161 0.64714146
0.0483022 0.058548123 0.64548874
0.047858816 0.056560427 0.6438669
0.047423366 0.054608732 0.64227402
0.046995763 0.052692205 0.64070988
0.046575941 0.050810099 0.63917422
0.046163414 0.048961222 0.63766521
0.045758266 0.04714489 0.6361832
0.045360036 0.045360059 0.63472652
0.04496881 0.043606132 0.63329554
0.044584144 0.041882068 0.63188839
0.044206128 0.040187389 0.63050568
0.043834351 0.038521081 0.62914574
0.043468893 0.036882699 0.62780899
0.043109357 0.035271317 0.62649381
0.042755723 0.03368631 0.62520021
0.042407956 0.032127261 0.62392813
0.042065687 0.030593246 0.62267613
0.041729014 0.029083878 0.6214447
0.041397575 0.027598411 0.62023228
0.041071467 0.026136398 0.61903936
0.040750351 0.024697214 0.61786479
0.040434323 0.023280352 0.61670882
0.040123057 0.021885276 0.61557025
0.039816644 0.020511627 0.61444938
0.03951478 0.019158661 0.61334521
0.039217457 0.01782611 0.6122576
0.038924672 0.016513526 0.61118662
0.03888604 0.015318722 0.61104536
0.039219823 0.014261782 0.61226624
0.039559286 0.013186455 0.61350799
0.039904777 0.012092382 0.61477172
0.040256359 0.010979027 0.61605781
0.040614188 0.0098458827 0.61736673
0.040978435 0.0086924136 0.61869907
0.041349277 0.0075180531 0.62005562
0.041726891 0.0063222349 0.62143689
0.042111356 0.0051044226 0.62284321
0.042503081 0.0038639307 0.6242761
0.042902164 0.0026001632 0.62573594
0.043308813 0.0013124049 0.62722337
0.043723244 -2.9802322e-08 0.62873936
0.044145688 -0.0013377368 0.63028461
0.044576373 -0.0027016103 0.63186002
0.04501554 -0.0040923357 0.63346648
0.04546345 -0.0055107176 0.63510484
0.045920227 -0.0069576204 0.63677573
0.046386413 -0.0084338784 0.63848096
0.046862163 -0.0099404454 0.64022118
0.047347769 -0.011478215 0.64199746
0.047843546 -0.013048261 0.64381099
0.048349824 -0.014651418 0.6456629
0.04886692 -0.016288966 0.6475544
0.0493952 -0.01796189 0.64948678
0.049934868 -0.019671291 0.65146083
0.050486624 -0.021418571 0.6534791
0.051050708 -0.023204863 0.65554243
0.051627535 -0.025031537 0.65765244
0.052217547 -0.026899934 0.65981066
0.052821204 -0.028811544 0.66201878
0.053438984 -0.030767888 0.66427851
0.054071382 -0.032770544 0.66659182
0.054718923 -0.034821123 0.66896045
0.055381972 -0.036921322 0.67138582
0.056061484 -0.039073139 0.6738714
0.056757879 -0.041278452 0.67641878
0.057471797 -0.043539226 0.67903018
0.058203895 -0.045857638 0.6817081
0.058954891 -0.048235804 0.68445516
0.059725519 -0.050676197 0.6872741
0.060516562 -0.053181231 0.69016761
0.061328594 -0.055753261 0.69313794
0.062162969 -0.058395505 0.69619
0.063020356 -0.061110675 0.69932628
0.063901722 -0.063901722 0.70255017
0.0648081 -0.066771954 0.70586562
0.065740548 -0.069724828 0.70927644
0.052983273 0.073241591 0.65691137
0.052465793 0.070983142 0.65507412
0.051958147 0.068768144 0.65327191
0.05146024 0.066595614 0.65150416
0.050971944 0.06446448 0.64977056
0.05049267 0.06237334 0.6480689
0.050022475 0.060321212 0.64639962
0.049560811 0.058306843 0.64476055
0.049107738 0.056329459 0.64315206
0.048662726 0.054387778 0.64157206
0.048225854 0.052481055 0.64002109
0.047796611 0.050608188 0.63849711
0.047375083 0.048768491 0.63700056
0.04696079 0.046960801 0.63552964
0.046553675 0.045184433 0.63408434
0.046153691 0.043438792 0.6326642
0.045760393 0.041722715 0.63126791
0.045373872 0.040035784 0.62989557
0.044993695 0.038376957 0.62854588
0.044619963 0.036745846 0.62721896
0.044252269 0.035141528 0.62591362
0.0438907 0.033563524 0.62462986
0.043534879 0.032010943 0.62336659
0.043184891 0.030483454 0.62212408
0.042840376 0.028980285 0.62090087
0.042501312 0.027500868 0.61969709
0.042167686 0.026044756 0.61851263
0.041839145 0.024611264 0.61734623
0.041515794 0.023200005 0.61619824
0.041197293 0.021810323 0.61506748
0.04088375 0.02044189 0.61395431
0.040574837 0.01909408 0.61285752
0.040270664 0.017766446 0.61177766
0.039970916 0.016458631 0.61071336
0.039955903 0.015277267 0.61066014
0.040297933 0.014222801 0.61187446
0.040645871 0.013150185 0.61310971
0.040999759 0.012058735 0.61436617
0.041359976 0.010948211 0.61564505
0.041726578 0.0098180175 0.61694652
0.042099733 0.0086675882 0.61827141
0.042479627 0.0074964166 0.61962008
0.042866439 0.0063039064 0.62099344
0.043260355 0.005089432 0.62239194
0.043661583 0.0038524866 0.62381643
0.044070199 0.002592355 0.62526721
0.044486661 0.0013084412 0.62674576
0.044911068 -0 0.62825251
0.045343652 -0.0013336241 0.62978828
0.045784652 -0.0026932061 0.63135403
0.04623431 -0.0040794909 0.63295043
0.046692889 -0.0054932833 0.63457853
0.047160659 -0.006935358 0.63623929
0.047637891 -0.0084066689 0.63793361
0.048124738 -0.0099080205 0.63966203
0.048621785 -0.011440426 0.64142668
0.04912921 -0.01300478 0.64322823
0.049647342 -0.014602154 0.64506775
0.050176512 -0.016233593 0.64694649
0.050717086 -0.017900169 0.6488657
0.051269434 -0.019603014 0.65082669
0.051833943 -0.02134341 0.6528309
0.052410852 -0.02312243 0.65487909
0.053000923 -0.024941623 0.65697402
0.053604435 -0.026802212 0.65911669
0.054221846 -0.028705657 0.66130865
0.054853644 -0.030653507 0.66355181
0.055500343 -0.032647252 0.66584778
0.056162473 -0.034688592 0.66819853
0.056840587 -0.036779195 0.67060602
0.057535283 -0.038920939 0.67307246
0.058246955 -0.041115463 0.6755991
0.058976665 -0.04336521 0.67818981
0.059724897 -0.04567197 0.68084627
0.060492359 -0.048038065 0.68357104
0.0612798 -0.050465733 0.68636662
0.062088009 -0.052957416 0.68923604
0.062917829 -0.055515736 0.69218218
0.063770123 -0.058143318 0.69520801
0.064645566 -0.060842872 0.69831622
0.065545648 -0.063617855 0.7015118
0.066471152 -0.06647113 0.70479757
0.067423165 -0.069406182 0.70817751
0.054302365 0.072920322 0.65608627
0.053774305 0.070674807 0.65426505
0.053256247 0.068472296 0.65247834
0.052748237 0.066312045 0.65072632
0.052249663 0.064192474 0.64900678
0.051760592 0.062112749 0.64731997
0.051280431 0.060071349 0.64566398
0.050809097 0.05806756 0.64403844
0.050346497 0.056100428 0.64244294
0.049892105 0.054168582 0.64087582
0.049445983 0.052271485 0.63933718
0.049007621 0.050407857 0.63782537
0.048577104 0.04857713 0.63634062
0.048153952 0.046778142 0.63488114
0.047738243 0.045010328 0.63344741
0.047329515 0.043272704 0.63203776
0.046927858 0.041564673 0.63065249
0.046532832 0.039885312 0.6292901
0.0461444 0.038233966 0.62795049
0.045762524 0.036610037 0.62663341
0.045386795 0.035012692 0.6253376
0.045017309 0.033441454 0.62406325
0.044653669 0.031895489 0.62280911
0.044295978 0.030374378 0.62157547
0.043943848 0.028877407 0.62036109
0.043597393 0.02740404 0.61916614
0.043256242 0.02595377 0.61798954
0.042920388 0.02452594 0.61683124
0.042589821 0.023120165 0.61569118
0.042264197 0.021735877 0.61456811
0.041943625 0.020372599 0.61346257
0.041627768 0.019029826 0.61237317
0.04131674 0.017707169 0.61130047
0.041010223 0.016404122 0.61024332
0.041019991 0.01523602 0.610277
0.041370172 0.014184028 0.61148477
0.041726381 0.013114005 0.61271328
0.042088784 0.012025356 0.61396313
0.042457424 0.010917634 0.61523449
0.042832691 0.0097903311 0.61652875
0.043214653 0.0086429417 0.61784613
0.04360348 0.0074748993 0.61918718
0.043999374 0.0062856078 0.62055254
0.044402521 0.0050745904 0.62194294
0.04481313 0.0038411319 0.62335908
0.045231402 0.0025846362 0.62480164
0.045657549 0.0013045073 0.62627137
0.046091679 -0 0.62776864
0.046534274 -0.0013295412 0.62929511
0.046985451 -0.0026848614 0.63085109
0.047445461 -0.0040667355 0.63243765
0.047914568 -0.0054759383 0.6340555
0.048393048 -0.0069133043 0.63570577
0.048881177 -0.0083796382 0.6373893
0.049379252 -0.009875834 0.63910711
0.049887437 -0.011402845 0.64085972
0.050406344 -0.012961626 0.64264935
0.050936151 -0.014553189 0.64447659
0.05147722 -0.016178548 0.64634275
0.052029908 -0.017838806 0.64824885
0.052594591 -0.019535124 0.65019637
0.053171668 -0.021268666 0.65218663
0.053761549 -0.023040652 0.65422106
0.054364655 -0.024852395 0.65630114
0.054981276 -0.026705205 0.65842772
0.055612225 -0.028600544 0.66060382
0.056257825 -0.03053996 0.66283047
0.056918595 -0.032524914 0.66510934
0.057595067 -0.034557015 0.66744232
0.058287814 -0.036638051 0.66983157
0.058997422 -0.038769752 0.67227888
0.059724528 -0.040953964 0.67478669
0.060469557 -0.043192536 0.67735612
0.061233632 -0.045487851 0.67999136
0.062017269 -0.047841907 0.68269402
0.062821217 -0.050256997 0.68546677
0.063646294 -0.052735507 0.68831229
0.064493321 -0.05527997 0.69123358
0.065363199 -0.057893127 0.69423378
0.066256866 -0.060577691 0.69731593
0.067175306 -0.0633367 0.70048344
0.068119287 -0.066173017 0.70373911
0.069090463 -0.069090486 0.70708859
0.055609941 0.072601885 0.65526837
0.055071499 0.070369154 0.65346301
0.054543216 0.068179011 0.65169162
0.054025143 0.066030711 0.64995444
0.053516641 0.063922703 0.64824939
0.053017803 0.061854094 0.64657676
0.052528001 0.059823573 0.64493448
0.052047335 0.057830393 0.64332271
0.051575225 0.055873185 0.64173967
0.051111605 0.053951144 0.64018512
0.050656401 0.052063525 0.63865876
0.050209079 0.050209075 0.63715887
0.049769737 0.048387259 0.63568574
0.049337871 0.046596885 0.63423771
0.048913579 0.044837445 0.632815
0.048496384 0.043107927 0.63141608
0.048086379 0.041407734 0.6300413
0.047683116 0.039735943 0.62868917
0.047286689 0.038092077 0.62735987
0.046896674 0.036475211 0.62605214
0.04651304 0.034884751 0.62476581
0.046135757 0.033320248 0.62350076
0.04576442 0.031780839 0.62225562
0.045399133 0.030266106 0.62103075
0.045039516 0.028775245 0.61982501
0.044685662 0.027307868 0.61863852
0.044337217 0.025863409 0.61747015
0.043994274 0.024441272 0.61632013
0.043656487 0.02304092 0.61518759
0.043323953 0.021661997 0.61407256
0.042996339 0.020303845 0.61297405
0.042673647 0.018966079 0.61189204
0.042355862 0.01764828 0.61082649
0.042042676 0.016349912 0.60977638
0.042078342 0.015194952 0.60989594
0.042436585 0.014145553 0.61109716
0.042800974 0.013078094 0.61231899
0.043171681 0.011992127 0.61356199
0.043548867 0.010887206 0.61482674
0.043932695 0.0097628534 0.61611372
0.044323239 0.0086184144 0.61742324
0.044720907 0.0074534714 0.61875665
0.045125771 0.006267488 0.62011421
0.045538034 0.0050597787 0.62149656
0.045957901 0.0038298368 0.62290436
0.046385583 0.002576977 0.62433845
0.046821296 0.0013005733 0.62579942
0.047265273 2.9802322e-08 0.6272881
0.047717754 -0.0013254881 0.62880528
0.048178848 -0.0026766062 0.63035136
0.048649073 -0.0040540993 0.63192809
0.049128566 -0.0054587424 0.63353586
0.049617611 -0.00689134 0.63517565
0.050116483 -0.0083527565 0.63684845
0.050625496 -0.0098438263 0.63855517
0.051144954 -0.011365563 0.64029694
0.051675174 -0.01291877 0.64207482
0.052216351 -0.014504522 0.64388943
0.052769147 -0.016123921 0.64574301
0.053333767 -0.01777792 0.64763623
0.053910606 -0.019467711 0.64957041
0.054500055 -0.021194458 0.6515469
0.055102542 -0.022959411 0.65356708
0.055718493 -0.024763793 0.65563238
0.056348372 -0.026608944 0.65774441
0.056992464 -0.028496206 0.65990406
0.057651646 -0.030427247 0.66211438
0.058326252 -0.032403469 0.66437638
0.059016839 -0.034426481 0.6666919
0.05972397 -0.03649798 0.66906303
0.060448252 -0.038619697 0.67149162
0.061190322 -0.040793538 0.67397982
0.061950833 -0.043021441 0.67652988
0.06273026 -0.045305192 0.67914331
0.063529782 -0.047647327 0.68182421
0.064349942 -0.05004999 0.68457431
0.065191559 -0.052515417 0.68739629
0.066055492 -0.055046231 0.69029307
0.066942617 -0.057645023 0.6932677
0.067853905 -0.060314596 0.69632334
0.068790346 -0.06305781 0.69946331
0.069752991 -0.065877825 0.70269108
0.070742667 -0.068777561 0.70600951
0.056906331 0.072286457 0.65445817
0.056357529 0.070066124 0.65266776
0.05581921 0.06788826 0.65091151
0.055291254 0.065751791 0.64918911
0.054773021 0.063655138 0.64749843
0.054264579 0.061597675 0.64583963
0.053765327 0.059577793 0.64421088
0.053275336 0.057594985 0.64261234
0.052794039 0.05564779 0.64104205
0.052321516 0.053735614 0.6395005
0.051857226 0.051857203 0.63798577
0.05140125 0.050012022 0.63649815
0.050953079 0.048198879 0.63503599
0.050512649 0.046417028 0.63359916
0.050079916 0.044665843 0.63218737
0.049654394 0.042944342 0.63079917
0.049236178 0.041251957 0.62943476
0.048824813 0.039587706 0.62809265
0.048420403 0.037951142 0.62677324
0.048022497 0.036341369 0.62547517
0.047631215 0.034757912 0.62419862
0.047246125 0.033199996 0.62294227
0.046867341 0.031667143 0.62170649
0.046494454 0.03015855 0.62049001
0.046127457 0.028673828 0.61929268
0.045766331 0.027212411 0.61811453
0.045410689 0.025773644 0.61695427
0.045060657 0.02435711 0.61581224
0.044715859 0.022962213 0.61468744
0.044376414 0.021588534 0.61357999
0.044041973 0.020235509 0.61248887
0.043712642 0.018902749 0.61141449
0.043388095 0.017589808 0.61035562
0.043068327 0.016296148 0.60931242
0.043131009 0.015154153 0.60951692
0.04349722 0.014107198 0.61071169
0.0438697 0.013042331 0.61192685
0.044248611 0.011959076 0.61316305
0.04463413 0.010856986 0.61442077
0.045026425 0.0097354352 0.6157006
0.045425676 0.0085940659 0.61700314
0.045831952 0.0074322224 0.61832857
0.046245676 0.0062494576 0.61967838
0.046666946 0.0050450861 0.62105274
0.047095962 0.0038186014 0.62245238
0.047532931 0.0025693476 0.623878
0.047978092 0.0012967288 0.62533027
0.048431665 -0 0.62681001
0.048893899 -0.0013214648 0.62831807
0.04936504 -0.0026683509 0.62985516
0.049845207 -0.0040414929 0.63142163
0.050334953 -0.0054415762 0.63301939
0.050834417 -0.0068694949 0.63464892
0.051343895 -0.0083260238 0.63631099
0.051863685 -0.0098120272 0.63800681
0.052394107 -0.011328429 0.63973731
0.052935496 -0.012876213 0.64150357
0.053488184 -0.014456272 0.64330673
0.054052375 -0.016069591 0.64514732
0.054628756 -0.017717451 0.64702773
0.055217568 -0.019400716 0.64894873
0.05581921 -0.021120787 0.65091157
0.056434106 -0.022878706 0.65291762
0.057062704 -0.024675757 0.65496838
0.057705458 -0.026513308 0.65706533
0.058362857 -0.028392732 0.65921009
0.059035413 -0.030315489 0.66140425
0.059723444 -0.032282889 0.6636489
0.060427904 -0.03429693 0.6659472
0.061149187 -0.036358953 0.66830033
0.061887898 -0.038470834 0.67071033
0.062644675 -0.040634394 0.67317927
0.063420191 -0.042851448 0.67570937
0.064215139 -0.045124173 0.67830288
0.065030277 -0.047454536 0.6809622
0.065866128 -0.049844623 0.68368912
0.066723995 -0.052297175 0.68648779
0.067604505 -0.054814428 0.68936044
0.068508565 -0.057399094 0.69230998
0.069437139 -0.060053736 0.69533932
0.070391215 -0.062781364 0.698452
0.071371891 -0.065584958 0.70165139
0.072380267 -0.068467826 0.70494115
0.058191311 0.071973473 0.65365446
0.057632521 0.069765717 0.65187937
0.057084545 0.067600101 0.65013874
0.056546718 0.065475196 0.64843023
0.056019098 0.063390046 0.64675421
0.055501062 0.061343312 0.64510864
0.054992523 0.05933404 0.64349318
0.054493383 0.057361454 0.64190763
0.054003056 0.055424213 0.64035004
0.053521644 0.053521633 0.63882077
0.053048573 0.05165258 0.63731807
0.052583952 0.0498164 0.63584208
0.052127238 0.048011929 0.63439137
0.051678546 0.04623872 0.63296598
0.051237363 0.044495642 0.63156456
0.050803795 0.042782128 0.63018733
0.050377361 0.041097313 0.6288327
0.049958028 0.039440572 0.62750059
0.04954575 0.037811249 0.62619102
0.049140088 0.036208481 0.62490237
0.048741151 0.034631908 0.62363511
0.048348505 0.033080578 0.62238783
0.047962267 0.031554133 0.62116086
0.047582019 0.030051798 0.61995304
0.047207881 0.028573215 0.61876452
0.046839457 0.02711761 0.61759418
0.046476863 0.025684565 0.61644238
0.046119716 0.024273545 0.61530787
0.045768023 0.022884011 0.61419064
0.045421761 0.021515578 0.61309075
0.045080587 0.020167649 0.61200696
0.044744615 0.018839866 0.61093974
0.044413503 0.017531663 0.60988796
0.044087362 0.016242713 0.60885191
0.044178143 0.015113592 0.60914028
0.044552118 0.01406908 0.61032826
0.044932593 0.013006806 0.61153686
0.045319621 0.011926234 0.61276627
0.045713376 0.010826886 0.61401713
0.046114031 0.0097082257 0.61528981
0.046521775 0.0085698366 0.61658502
0.046936788 0.0074110925 0.61790335
0.047359277 0.0062315166 0.61924541
0.047789313 0.005030483 0.62061149
0.048227359 0.0038073957 0.62200302
0.048673511 0.002561748 0.62342024
0.049127989 0.0012928545 0.62486392
0.049591038 -0 0.62633491
0.050062902 -0.0013174415 0.62783378
0.05054383 -0.0026602149 0.62936151
0.051034085 -0.0040290058 0.63091886
0.051533945 -0.0054246187 0.63250673
0.052043542 -0.0068478584 0.63412547
0.052563477 -0.0082994998 0.63577712
0.053093903 -0.0097804666 0.63746208
0.053635143 -0.011291593 0.63918132
0.054187529 -0.012833893 0.64093602
0.054751415 -0.01440829 0.64272732
0.055327155 -0.016015768 0.64455616
0.055915136 -0.017657399 0.64642394
0.056515567 -0.019334257 0.64833128
0.057129219 -0.021047592 0.65028059
0.057756346 -0.022798538 0.65227276
0.05839739 -0.024588376 0.65430909
0.059052825 -0.026418358 0.65639114
0.059723139 -0.028289914 0.65852046
0.060408846 -0.030204415 0.66069865
0.061110482 -0.032163411 0.66292751
0.061828606 -0.034168422 0.66520864
0.062563591 -0.036221027 0.66754341
0.063316487 -0.038323134 0.66993511
0.064087719 -0.040476441 0.67238498
0.064877979 -0.042682886 0.67489535
0.065687969 -0.044944406 0.67746836
0.066518433 -0.047263086 0.68010634
0.067370169 -0.049641162 0.68281198
0.068244003 -0.052080959 0.68558776
0.069140531 -0.054584622 0.68843567
0.070061207 -0.057155192 0.69136029
0.07100673 -0.059795141 0.69436395
0.071978122 -0.062507302 0.69744962
0.072976463 -0.065294772 0.70062089
0.074002884 -0.068160564 0.7038815
0.059465215 0.07166326 0.6528576
0.058896631 0.069467843 0.65109777
0.058339003 0.067314267 0.64937186
0.057791658 0.065200865 0.64767772
0.057254661 0.063126951 0.64601564
0.05672738 0.061091036 0.64438361
0.056209892 0.059092492 0.64278191
0.055701591 0.05712986 0.64120865
0.055202566 0.055202574 0.63966411
0.054712247 0.053309351 0.63814646
0.054230552 0.051449507 0.63665557
0.053757429 0.049622238 0.6351912
0.053292334 0.047826469 0.63375163
0.052835364 0.046061605 0.63233721
0.052386023 0.044326663 0.63094646
0.051944397 0.042621076 0.6295796
0.051510021 0.040943891 0.6282351
0.051082984 0.0392946 0.62691337
0.050662834 0.037672371 0.62561297
0.050249543 0.036076605 0.6243338
0.049843065 0.034506738 0.62307566
0.049442988 0.032961965 0.62183738
0.049049404 0.031441927 0.62061918
0.048661914 0.029945791 0.61941987
0.048280627 0.028473198 0.6182397
0.047905136 0.027023435 0.61707747
0.047535565 0.025596082 0.61593366
0.047171537 0.024190515 0.61480689
0.04681316 0.022806436 0.61369765
0.046460066 0.021443129 0.6126048
0.046112265 0.020100236 0.61152828
0.04576974 0.018777341 0.61046809
0.045432158 0.017473906 0.60942328
0.045099627 0.016189635 0.60839403
0.045219582 0.01507318 0.6087653
0.04560145 0.014031231 0.6099472
0.04598983 0.012971491 0.61114931
0.046384767 0.01189357 0.61237168
0.046786658 0.010796905 0.61361563
0.047195576 0.0096811652 0.61488134
0.047611702 0.0085456669 0.61616927
0.048035238 0.0073900521 0.61748016
0.048466373 0.0062136352 0.61881459
0.04890532 0.0050159395 0.62017322
0.049352288 0.0037963092 0.62155664
0.049807373 0.0025542378 0.62296516
0.05027106 0.00128901 0.62440038
0.050743461 -2.9802322e-08 0.62586254
0.051224828 -0.001313448 0.62735242
0.051715411 -0.0026520491 0.62887084
0.052215487 -0.0040165782 0.63041866
0.052725323 -0.0054077506 0.63199669
0.053245217 -0.0068262815 0.63360584
0.053775463 -0.0082731545 0.63524699
0.054316223 -0.0097490847 0.63692081
0.054868124 -0.011254996 0.63862896
0.055431359 -0.012791872 0.64037222
0.056006279 -0.014360577 0.64215171
0.05659325 -0.015962213 0.64396846
0.057192653 -0.017597735 0.64582366
0.05780489 -0.019268274 0.64771867
0.058430377 -0.020974964 0.64965463
0.059069358 -0.022718996 0.65163237
0.059722658 -0.024501592 0.65365446
0.060390577 -0.026324093 0.65572178
0.061073601 -0.028187811 0.65783584
0.061772257 -0.030094177 0.65999824
0.062487073 -0.032044649 0.66221076
0.063218638 -0.034040809 0.66447496
0.063967526 -0.036084235 0.66679293
0.064734377 -0.038176686 0.66916645
0.065519594 -0.040319771 0.67159683
0.066324346 -0.042515606 0.67408764
0.067149103 -0.044766068 0.67664039
0.067994632 -0.047073185 0.67925745
0.06886173 -0.049439162 0.68194121
0.069751225 -0.051866293 0.68469429
0.070663996 -0.054356933 0.68751949
0.071600981 -0.056913584 0.69041955
0.072562866 -0.059538752 0.69339675
0.07355123 -0.062235653 0.6964559
0.074566893 -0.065007031 0.69959956
0.075610995 -0.067856044 0.70283115
0.076684766 -0.07078591 0.70615458
0.060728181 0.071355611 0.65206766
0.060150184 0.06917268 0.65032339
0.059582897 0.067030787 0.64861143
0.059026212 0.064928859 0.64693147
0.058480013 0.062866032 0.64528316
0.05794365 0.060840815 0.6436646
0.057417214 0.058852613 0.6420759
0.056900084 0.056900054 0.64051533
0.056392353 0.054982543 0.63898313
0.05589344 0.053098768 0.63747752
0.055403441 0.051248163 0.63599885
0.054921798 0.049429655 0.63454533
0.054448456 0.04764241 0.63311684
0.053983361 0.045885891 0.63171327
0.053525984 0.044158965 0.63033307
0.05307645 0.042461157 0.62897646
0.052634254 0.040791541 0.62764204
0.052199513 0.039149612 0.62633008
0.051771745 0.037534475 0.62503922
0.051351078 0.035945743 0.6237697
0.050937053 0.034382522 0.62252021
0.050529785 0.032844365 0.62129122
0.05012884 0.031330526 0.62008131
0.049734216 0.029840529 0.6188904
0.049345881 0.028373867 0.61771852
0.048963439 0.026929885 0.61656439
0.048587006 0.025508195 0.61542833
0.048216186 0.024108082 0.61430931
0.047851112 0.022729278 0.61320764
0.047491401 0.021371126 0.61212212
0.047137182 0.0200333 0.61105311
0.046788085 0.018715262 0.60999966
0.046444241 0.017416567 0.60896206
0.046105292 0.016136855 0.60793918
0.046255462 0.015033036 0.60839236
0.04664503 0.013993531 0.60956794
0.047041222 0.012936354 0.61076355
0.047444198 0.011861026 0.61197966
0.047854021 0.010767192 0.6132164
0.048271105 0.0096542239 0.61447507
0.048695523 0.0085217059 0.61575586
0.049127474 0.0073691308 0.61705941
0.049567152 0.0061959028 0.61838627
0.050014775 0.0050014853 0.61973703
0.050470553 0.0037853122 0.62111247
0.050934717 0.0025467277 0.62251318
0.051407497 0.0012852252 0.62393999
0.051888991 -0 0.62539303
0.052379739 -0.0013094842 0.62687397
0.052879859 -0.0026440024 0.62838322
0.05338962 -0.0040042102 0.62992156
0.053909305 -0.0053909421 0.63148981
0.054439202 -0.0068049133 0.63308901
0.054979626 -0.0082469285 0.63471985
0.055530883 -0.0097179413 0.63638341
0.056093141 -0.011218607 0.63808018
0.056667075 -0.012750059 0.63981211
0.057252873 -0.014313191 0.64157993
0.057850905 -0.015908986 0.64338464
0.058461562 -0.017538428 0.64522743
0.059085254 -0.019202709 0.64710963
0.059722394 -0.020902842 0.64903235
0.060373425 -0.02264002 0.65099704
0.061038807 -0.024415553 0.653005
0.061718818 -0.026230484 0.65505713
0.062414352 -0.028086454 0.65715611
0.063125744 -0.029984713 0.65930289
0.06385354 -0.031926781 0.66149926
0.064598314 -0.033914149 0.66374677
0.065360673 -0.035948366 0.66604739
0.066141233 -0.038031161 0.66840297
0.066940665 -0.040164381 0.67081547
0.067759417 -0.042349637 0.6732862
0.068598695 -0.044589162 0.67581898
0.069459014 -0.046884835 0.67841524
0.0703412 -0.049238831 0.68107748
0.07124608 -0.051653415 0.68380821
0.072174534 -0.054130882 0.68661004
0.073127516 -0.056673795 0.68948591
0.074105993 -0.059284776 0.69243872
0.075111024 -0.061966568 0.69547164
0.076143369 -0.064721853 0.69858706
0.077204809 -0.067554176 0.70179027
0.078296266 -0.070466608 0.70508397
0.061980356 0.071050644 0.6512844
0.061392937 0.068879873 0.64955497
0.060816355 0.066749662 0.64785737
0.060250692 0.064659297 0.64619195
0.059695274 0.062607288 0.6445567
0.059149999 0.060592681 0.64295137
0.058614776 0.058614761 0.64137554
