# .PCD v0.7 - Point Cloud Data file format
VERSION 0.7
FIELDS x y z
SIZE 4 4 4
TYPE F F F
COUNT 1 1 1
WIDTH 783
HEIGHT 1
VIEWPOINT 0 0 0 1 0 0 0
POINTS 783
DATA ascii
-0.0579498 0.051364571 0.62778503
-0.055313714 0.055313706 0.62777925
-0.054252699 0.054252684 0.62853289
-0.054879051 0.046847999 0.63037699
-0.049521491 0.054875225 0.63036555
-0.059182417 0.037661552 0.63116664
-0.05649038 0.041695297 0.63116109
-0.049905673 0.049905658 0.63161892
-0.053016387 0.040781856 0.63289756
-0.061742533 0.026069105 0.634426
-0.046717461 0.043969363 0.63466579
-0.046717461 0.043969363 0.63466579
-0.060829319 0.019354761 0.63568479
-0.060708724 0.020696193 0.63535392
-0.056622565 0.026239753 0.63551021
-0.046995949 0.040084779 0.63565451
-0.038621552 0.053794295 0.63530529
-0.038621552 0.053794295 0.63530529
-0.056961827 0.022228986 0.636509
-0.051298402 0.031888217 0.63616264
-0.050060738 0.031983256 0.63666147
-0.042975076 0.044361383 0.63614446
-0.060102865 0.013977438 0.63752639
-0.055850334 0.02094388 0.63734746
-0.047467597 0.033506572 0.63732898
-0.044763595 0.036370426 0.63766176
-0.037727848 0.047509164 0.6374765
-0.034861963 0.052990198 0.63713253
-0.050464213 0.026633918 0.63801432
-0.058004629 0.0099032223 0.63957918
-0.049510513 0.022633374 0.63955981
-0.033839956 0.047939956 0.63900596
-0.061335418 -0 0.64098644
-0.057347011 0.002867341 0.64186406
-0.054253995 0.0099941492 0.6411472
-0.042825632 0.027122915 0.64112115
-0.039969023 0.031404227 0.64111441
-0.028603736 0.04719615 0.64144295
-0.064721562 -0.010067791 0.64241707
-0.047550038 0.014409095 0.64273739
-0.040299896 0.025907099 0.64254081
-0.031595301 0.040212184 0.6421628
-0.031595301 0.040212184 0.6421628
-0.021561647 0.054622829 0.64231884
-0.021561647 0.054622829 0.64231884
-0.062099446 -0.0086650252 0.6431312
-0.034683686 0.031793386 0.64324957
-0.021741398 0.049280524 0.64376533
-0.062488832 -0.013079017 0.64422429
-0.056909379 -0.0072960854 0.64494693
-0.030568752 0.033480048 0.64451724
-0.023312669 0.043711245 0.64468461
-0.020355217 0.049434096 0.64431071
-0.061354846 -0.014608294 0.6451419
-0.061354846 -0.014608294 0.6451419
-0.051175866 -0 0.64530337
-0.043907009 0.010244936 0.64547229
-0.035047781 0.024825513 0.6450808
-0.021970313 0.042475939 0.64560753
-0.06328205 -0.022075146 0.64645112
-0.06328205 -0.022075146 0.64645112
-0.035344649 0.019145012 0.64657402
-0.030957537 0.025060892 0.646752
-0.025058908 0.033903241 0.64673811
-0.014722945 0.050058007 0.6465258
-0.051940203 -0.010388047 0.6479395
-0.039976638 0.0088836849 0.64753032
-0.026618149 0.029575735 0.64730942
-0.0074156979 0.056359291 0.64783496
-0.065377563 -0.031202942 0.64816254
-0.059684489 -0.025365919 0.64891803
-0.059684489 -0.025365919 0.64891803
-0.041679915 0.0029771328 0.64849019
-0.032814864 0.014915854 0.64885432
-0.022298953 0.032705158 0.64825219
-0.020834247 0.034227699 0.64844102
-0.0089467131 0.050698042 0.64879811
-0.065940894 -0.037466407 0.64970803
-0.062941179 -0.032969177 0.64970106
-0.034417801 0.01047501 0.64943874
-0.029958976 0.016477466 0.64962256
-0.017933944 0.0358679 0.64920568
-0.013493173 0.040479511 0.64977854
-0.048153248 -0.013543099 0.6504482
-0.045141801 -0.0090283453 0.65044069
-0.037655216 0.0015062094 0.65061963
-0.037573896 0.0030059218 0.65022695
-0.028552711 0.016530514 0.65020502
-0.010516945 0.043570191 0.6501624
-0.060462646 -0.034766018 0.65126628
-0.056107592 -0.030328423 0.65185237
-0.056107592 -0.030328423 0.65185237
-0.052957155 -0.024208993 0.65144682
-0.052957155 -0.024208993 0.65144682
-0.027315045 0.012140036 0.6519829
-0.015172589 0.030345201 0.65195346
-0.012084874 0.037765265 0.65115082
-0.0030208614 0.051354617 0.65112925
-0.0030208614 0.051354617 0.65112925
-0.065499537 -0.047220618 0.65267611
-0.059401773 -0.03807804 0.6526612
-0.05014715 -0.022794157 0.65223736
-0.048786458 -0.022868663 0.65283686
-0.035020642 -0.0015226007 0.65260255
-0.035020642 -0.0015226007 0.65260255
-0.031904232 0.0045577586 0.65219373
-0.012190755 0.03200075 0.65274841
-0.012190755 0.03200075 0.65274841
-0.006094906 0.041140616 0.65273416
-0.0045561064 0.045561075 0.65212768
-0.0045561064 0.045561075 0.65212768
-0.059663113 -0.041305214 0.65347016
-0.055130932 -0.03522253 0.6536622
-0.055130932 -0.03522253 0.6536622
-0.047312867 -0.021367073 0.65303528
-0.042778552 -0.015278041 0.65322655
-0.039808784 -0.012248874 0.65362513
-0.032114647 -0 0.65340322
0.0045856102 0.055027366 0.65331483
-0.064611726 -0.052304715 0.65450233
-0.061396666 -0.046047479 0.65408492
-0.027738597 0.0015410483 0.65482324
-0.023088545 0.0092354417 0.6546064
-0.013851456 0.023085773 0.65458393
-0.013820893 0.024570495 0.65417409
-0.0061624041 0.033893228 0.65477109
-0.0030810717 0.038513422 0.65476322
-0.001542215 0.040097594 0.654966
-0.066667497 -0.060465857 0.65595478
-0.047837704 -0.029319882 0.65507901
-0.023139795 0.0077132583 0.65501881
-0.015442057 0.018530458 0.6552062
-0.015442057 0.018530458 0.6552062
-0.0077460366 0.027885735 0.65581
0.0031014346 0.043420106 0.65599221
-0.065334223 -0.0606675 0.65657884
-0.052999526 -0.043646663 0.65696907
-0.0093474919 0.02181083 0.65686113
-0.06413608 -0.062571764 0.65763122
-0.04061345 -0.026554942 0.65736097
-0.023451846 -0.0015634298 0.65753001
-0.012519912 0.014084905 0.65771496
-0.0015595041 0.032749593 0.65705293
-0.0015595041 0.032749593 0.65705293
0.007831688 0.043857455 0.6578778
0.010939272 0.050008118 0.65744513
-0.067571335 -0.070714146 0.65849209
-0.028239192 -0.010981888 0.65818036
-0.018823816 0.0031372905 0.65815711
-0.014132922 0.0094219446 0.65835911
-0.063354038 -0.069689438 0.65999186
-0.058399308 -0.05997768 0.659329
-0.045764942 -0.041030616 0.65929782
-0.03791343 -0.030014783 0.65949392
-0.031520348 -0.018912196 0.65904623
-0.025328964 -0.012664467 0.65989643
-0.006316287 0.017369777 0.65941495
0.0031649435 0.030066937 0.65982538
0.017384138 0.052152425 0.65957242
-0.0031796698 0.017488182 0.66071415
0.017463507 0.049215347 0.66044337
-0.059205525 -0.070406556 0.66195923
-0.031881537 -0.027099311 0.66122621
-0.031881537 -0.027099311 0.66122621
0.0031940045 0.023955047 0.66157931
-0.054589927 -0.065829024 0.66261554
-0.053044535 -0.064296395 0.66283572
-0.025679694 -0.022469699 0.66254246
-0.0096056778 0.0032019019 0.66205543
0.0016062574 0.017668843 0.66269654
0.017624442 0.043260008 0.66220939
0.025721714 0.053051054 0.66285944
-0.045264143 -0.056580186 0.66394222
-0.038794655 -0.046876848 0.66392612
-0.029024806 -0.030637264 0.66344881
-0.029024806 -0.030637264 0.66344881
-0.074239351 -0.019366801 0.66361898
-0.074239351 -0.019366801 0.66361898
-0.074239098 -0.012911171 0.66361833
-0.01452648 -0.0096843243 0.66363764
-0.0064480426 0.0032240152 0.66339099
-0.0032238893 0.0080597401 0.66338307
-0.0016100444 0.011270344 0.66315371
-0.027507398 -0.030743539 0.66412389
-0.022730984 -0.025978237 0.66479504
-0.030960888 -0.040737987 0.66550463
-0.021230839 -0.027763397 0.66594172
-0.019528454 -0.02278319 0.66524518
-0.019528454 -0.02278319 0.66524518
0.0097604962 0.021147758 0.66517013
-0.041031741 -0.060727 0.66692293
-0.041031741 -0.060727 0.66692293
0.0032767693 0.0065535307 0.66657466
0.014725909 0.024543196 0.6663124
0.024597859 0.037716717 0.66675246
-0.042825472 -0.065885365 0.66763073
-0.026286243 -0.039429367 0.66711855
0.0098526487 0.014779001 0.66702408
-0.011566258 -0.021480173 0.66825712
-0.0016560457 -0.0082802176 0.66870654
0.03797885 0.052840114 0.66812813
-0.01164931 -0.026626974 0.6696893
-0.0083007077 -0.01992169 0.66920096
0.008318739 0.0033274889 0.66963625
0.008318739 0.0033274889 0.66963625
0.013293227 0.011631578 0.66938347
-0.036756057 -0.066829205 0.67047906
-0.03170374 -0.058401614 0.67022413
-0.025087202 -0.050174385 0.67069036
0.041876029 0.048576176 0.67099953
0.023484539 0.020129621 0.6712923
0.04025035 0.045281619 0.67124778
-0.033819336 -0.071020588 0.6729219
-0.010142643 -0.035499245 0.67285836
0.0067767194 -0.011859268 0.67330968
0.015264527 -2.9802322e-08 0.67353654
0.023713246 0.013550431 0.67326427
0.028827826 0.020349056 0.67349976
0.028827826 0.020349056 0.67349976
0.042489916 0.039090753 0.67396355
0.042386405 0.040690958 0.67346376
0.047411874 0.049105197 0.6732012
-0.030659674 -0.071539223 0.67441249
-0.022113526 -0.05783537 0.67413789
-0.015307987 -0.047624856 0.67411941
-0.013656893 -0.04779914 0.67487073
-0.001704753 -0.028980792 0.674586
0.027299093 0.013649553 0.67475986
0.039284572 0.030744433 0.674981
-0.0240207 -0.066914797 0.67591518
-0.0017131456 -0.032549739 0.67559904
0.0068602674 -0.020580769 0.67583102
0.024005534 0.0051440299 0.67578447
0.053200476 0.048052043 0.67596108
0.058273148 0.056559235 0.67569214
-0.022387277 -0.067161828 0.67667973
0.015491149 -0.010327429 0.67657602
0.046454664 0.036131412 0.67649209
-0.02079339 -0.069311321 0.67796952
-0.017283967 -0.062222302 0.67744011
0.031091467 0.010363847 0.67730808
0.032858767 0.012105852 0.67756224
0.043122225 0.029323131 0.67701662
-0.015613419 -0.062453657 0.67821598
-0.010447338 -0.057460338 0.67898828
0.01392532 -0.020888001 0.67892098
0.013890527 -0.019099474 0.67839599
0.038282361 0.015660971 0.67885363
0.04871637 0.031317681 0.67882502
-0.0034908582 -0.048871994 0.67949605
0.001747501 -0.041940004 0.67974609
0.01047068 -0.027921796 0.6794579
0.043663625 0.020958573 0.67963076
0.055810444 0.040113747 0.67933279
-0.017501416 -0.071755826 0.68006492
-0.0052562063 -0.054314107 0.68029749
0.014030647 -0.026307464 0.68051016
0.021044018 -0.015782982 0.68049061
0.031561691 -0 0.68046153
0.04207648 0.015778691 0.6804325
0.068436995 0.054398596 0.68062663
0.068436995 0.054398596 0.68062663
-0.0035262587 -0.056420147 0.68163264
-0.0035262587 -0.056420147 0.68163264
0.0052954927 -0.044129103 0.68187833
0.0088253934 -0.038831741 0.68186796
0.0088253934 -0.038831741 0.68186796
0.051029459 0.026394576 0.68121105
0.0017697387 -0.05132243 0.68243051
0.021204386 -0.021204382 0.68210375
0.03361094 -0.0035379827 0.68234092
0.037147265 0.0017689168 0.68233132
0.04068312 0.0070753396 0.68232095
0.058506772 0.031912804 0.68281603
-0.0053368579 -0.06582126 0.68354273
0.042722683 0.0053403676 0.68368262
0.062367585 0.03385669 0.6839022
-0.0089179939 -0.073127538 0.68410355
0 -0.062659621 0.68490946
0.010712551 -0.044635624 0.68432403
0.016088339 -0.037539452 0.68458569
0.067969933 0.039351016 0.68471724
0.001797172 -0.06290099 0.6857419
0.037722822 -0.0089816153 0.68563974
0.06097769 0.026901931 0.68529403
0.071913682 0.041350365 0.68582284
0 -0.068559766 0.68659091
0.010823701 -0.052314579 0.68656015
0.010823701 -0.052314579 0.68656015
0.014430939 -0.046900541 0.68655014
0.02708862 -0.028894544 0.68679655
0.0739967 0.041510344 0.68666244
0.080998108 0.053998739 0.68607831
0.056107722 0.012669504 0.68728155
0.059724603 0.018098354 0.6872707
0.063341364 0.023526818 0.68726063
0.03271639 -0.025446057 0.68820512
0.049128249 -0.001819551 0.68844497
0.067307822 0.025467843 0.68839258
0.067307822 0.025467843 0.68839258
0.0073109698 -0.067626476 0.68943214
0.054798149 0.0036532283 0.68929487
0.060352847 0.010973275 0.68956876
0.073046692 0.031044871 0.68924201
0.018371288 -0.055113852 0.69056517
0.018371288 -0.055113852 0.69056517
0.033061892 -0.033061892 0.69052207
0.038620543 -0.025747061 0.69079995
0.064345792 0.012869179 0.69072479
0.068019509 0.018383652 0.69071448
0.020288317 -0.055331796 0.69144201
0.042408776 -0.022126287 0.6913777
0.068199657 0.016589105 0.69130218
0.011111892 -0.072227299 0.69235814
0.018518005 -0.061109394 0.6923362
0.062924728 0.0055521429 0.69220668
0.031686231 -0.046597391 0.69379628
0.067159057 0.0055965781 0.69399345
0.068930432 0.0093149245 0.69368631
0.078340791 0.022383094 0.69396049
0.089279667 0.04091987 0.6933251
0.024298115 -0.059810728 0.69442278
0.037425533 -0.041168094 0.69468719
0.084043048 0.029881984 0.69424617
0.048777197 -0.026264608 0.69526291
0.048777197 -0.026264608 0.69526291
0.063945495 -0.0056422651 0.6958307
0.079190053 0.01508382 0.69640136
0.034144029 -0.05690673 0.69777906
0.034144029 -0.05690673 0.69777906
0.039777383 -0.047354013 0.69744956
0.064468667 -0.011376858 0.69768816
0.075627908 0.0075627863 0.69703156
0.088968508 0.026501268 0.69730306
0.030434668 -0.064673662 0.69841588
0.066635385 -0.0114232 0.69862133
0.089455128 0.022839606 0.69855285
0.067002229 -0.015314817 0.69988656
0.087915123 0.017200798 0.69950616
0.036487784 -0.063373506 0.70061803
0.046020452 -0.047937989 0.7002691
0.057675812 -0.032682955 0.70087361
0.071022838 -0.011517227 0.70051265
0.086361937 0.011514932 0.70046651
0.069779024 -0.021321356 0.7027784
0.090948567 0.011610448 0.70238853
0.072016567 -0.021410316 0.70375454
0.085506424 -0 0.70338458
0.050691418 -0.054590732 0.70415014
0.066275381 -0.031188428 0.70410258
0.081852704 -0.0077954531 0.704054
0.045035277 -0.066573888 0.70516235
0.045035277 -0.066573888 0.70516235
0.080469653 -0.015701413 0.70571995
0.053161342 -0.059068173 0.70647603
0.081388079 -0.023820907 0.70842391
0.065708697 -0.049779296 0.70915997
0.067795277 -0.047855467 0.70949864
0.059997592 -0.061997503 0.71021575
0.058588788 -0.072730929 0.71267629
0.064550899 -0.062533706 0.71230358
0.081142031 -0.042599559 0.71367186
0.071320742 -0.061132073 0.71478057
0.071320742 -0.061132073 0.71478057
0.075613692 -0.057221174 0.71549004
0.074557997 -0.070415884 0.71880263
0.074336469 -0.068141758 0.71805978
-0.052590761 0.053257421 0.62952262
-0.060112517 0.027323902 0.63371825
-0.056875385 0.037239194 0.63226759
-0.048697669 0.050050378 0.63209105
-0.050892569 0.037137836 0.63483864
-0.050892569 0.037137836 0.63483864
-0.042467158 0.052056491 0.63416672
-0.061742533 0.054882288 0.63442594
-0.053162593 0.023783267 0.63768023
-0.049012121 0.029407293 0.63784087
-0.048523664 0.036046177 0.6361562
-0.039165247 0.044760317 0.63764924
-0.029216556 0.053250533 0.63945699
-0.06087932 0.00047451258 0.64104497
-0.051186346 0.017062157 0.64043576
-0.045036465 0.022876233 0.64139187
-0.046870332 0.024145305 0.64025104
-0.044028115 0.028405219 0.6402449
-0.029183144 0.049114212 0.64065039
-0.063743487 -0.013038456 0.64367956
-0.059270483 -0.0050604194 0.64330608
-0.053207412 0.0071901977 0.64239067
-0.047797631 0.01086235 0.64364302
-0.047797631 0.01086235 0.64364302
-0.043540493 0.015964836 0.64399755
-0.044759244 0.017326146 0.64309186
-0.027512511 0.041268021 0.64359641
-0.057028953 -0.0087736547 0.64531702
-0.05280567 -0.0044004619 0.64586544
-0.055159755 -0.0014515519 0.64402443
-0.055159755 -0.0014515519 0.64402443
-0.027860524 0.032991976 0.64580739
-0.021473741 0.043436736 0.64554447
-0.038210608 0.016166031 0.64620519
-0.038210608 0.016166031 0.64620519
-0.02521923 0.029669702 0.6478765
-0.062941179 -0.032969177 0.64970106
-0.061112151 -0.026829749 0.64872825
-0.058004465 -0.020822108 0.64833641
-0.050671555 -0.011178359 0.64870405
-0.050671555 -0.011178359 0.64870405
-0.04340158 -0.0029931962 0.64946049
-0.038618594 0.0089119673 0.64809936
-0.038618594 0.0089119673 0.64809936
-0.031423755 0.014963716 0.64943182
-0.029067766 0.020870015 0.64874947
-0.023965357 0.025463223 0.64960873
-0.023202538 0.026946291 0.64950991
-0.014880434 0.043153286 0.64842689
-0.01272095 0.042657316 0.64948606
-0.0067411764 0.050942421 0.64966571
-0.055985432 -0.028749287 0.65145385
-0.055985432 -0.028749287 0.65145385
-0.036880713 0.0030107796 0.65052015
-0.027049452 0.01878354 0.6502018
-0.022736326 0.019704849 0.6517719
-0.021128092 0.024900153 0.65097457
-0.0045313844 0.049089178 0.65113294
-0.00151204 0.052921444 0.6513235
-0.00151204 0.052921444 0.6513235
-0.057271056 -0.036654264 0.65316087
-0.057271056 -0.036654264 0.65316087
-0.047521446 -0.024527162 0.65384752
-0.042872671 -0.016842812 0.65363228
-0.031262599 0.0030501634 0.65289581
-0.027434682 0.0091449022 0.65278518
-0.021313056 0.019028708 0.65256935
-0.013195793 0.030961543 0.65261781
-0.0091427127 0.036570817 0.65274131
-0.0045962553 0.039834201 0.65374315
-0.065043256 -0.057300001 0.65574259
-0.043157797 -0.021578908 0.65486151
-0.035408199 -0.009236902 0.65463668
-0.035329934 -0.0076803863 0.65422583
-0.024765316 0.0030956566 0.655644
-0.024765316 0.0030956566 0.655644
-0.013102309 0.023123994 0.65489143
-0.010844913 0.023239136 0.65581793
0.0092725474 0.054861739 0.65535337
-0.05518369 -0.045080677 0.65644968
-0.035004869 -0.015558288 0.6566093
-0.032799795 -0.014838874 0.65734148
-0.02660978 -0.0070446283 0.65775025
-0.018781422 0.0046953559 0.65773064
-0.018718272 0.0070184916 0.65709543
0 0.032859445 0.65768433
0.0046886471 0.04063496 0.65746069
0.0093243448 0.051283926 0.65639544
-0.051030219 -0.045535848 0.65834415
-0.04322359 -0.034579918 0.65853894
-0.04322359 -0.034579918 0.65853894
-0.039315455 -0.029094338 0.65863597
-0.033059649 -0.020465493 0.65883517
-0.020508472 -0.0031551421 0.65923423
-0.012548169 0.012548178 0.65814131
-0.0094107212 0.017252982 0.65813321
-0.0031651983 0.020573795 0.6598407
-0.001577185 0.025234997 0.6591872
-0.0031366569 0.026661575 0.65811813
0.017364446 0.052881747 0.65935636
-0.057537965 -0.067127615 0.66173321
-0.057537965 -0.067127615 0.66173321
-0.041451175 -0.041451186 0.66125029
-0.03935378 -0.038822949 0.66139269
-0.027128683 -0.020745456 0.66143483
-0.01516515 -0.0031929463 0.66151571
-0.0047860085 0.012762696 0.6613782
0.015144499 0.043038398 0.66121864
-0.054843161 -0.069360465 0.66351455
-0.054843161 -0.069360465 0.66351455
-0.051614977 -0.06451872 0.66350663
-0.044847313 -0.049652368 0.66214514
-0.044847313 -0.049652368 0.66214514
-0.037134264 -0.043592364 0.66369545
-0.022572925 -0.020960569 0.66343224
-0.019258134 -0.012838751 0.66252595
0.0032161551 0.019296974 0.66291624
-0.074238844 0.020980567 0.66361761
0.011294555 0.029043138 0.66357177
0.009625406 0.030480474 0.66245234
0.01445386 0.036937654 0.66266358
-0.046936277 -0.05988422 0.66417348
-0.040648025 -0.053655356 0.66507018
-0.037570305 -0.052271694 0.66598397
-0.031033657 -0.042467088 0.66596693
-0.024270155 -0.025888145 0.66411525
-0.013017848 -0.013017833 0.66522831
-0.012987483 -0.011364043 0.66477013
-0.003246458 0.0032464862 0.66474521
0.011427094 0.021221757 0.66585732
-0.044526301 -0.06926313 0.66787082
-0.041031741 -0.060727 0.66692293
-0.0016404208 -0.001640439 0.66682047
0.0032690621 0.0081726611 0.66610944
0.016419711 0.024629563 0.66700757
0.019702764 0.029554158 0.66699862
0.021268915 0.034357458 0.66629529
0.021268915 0.034357458 0.66629529
0.02781079 0.044170111 0.66627824
0.031302191 0.044482082 0.66767299
0.031302191 0.044482082 0.66767299
-0.031552333 -0.054801404 0.66926223
-0.014924779 -0.029021412 0.6689797
-0.0033082194 -0.00992468 0.66847283
-0.0016580208 -0.0091200918 0.66894495
0.011631835 0.0091383159 0.66938794
0.013293227 0.011631578 0.66938347
0.016615834 0.016615838 0.66937494
0.016615834 0.016615838 0.66937494
0.02664548 0.029976189 0.66982871
0.039770883 0.053027868 0.66883624
-0.023498971 -0.050354928 0.67141676
0.0033397004 -0.0066793859 0.6703729
-0.0084212944 -0.030316681 0.67211217
-0.0033970918 -0.028875262 0.67383677
-0.0033805785 -0.025354356 0.67284012
0.022908984 0.011030525 0.67364097
0.032296631 0.023797542 0.67399091
-0.025579324 -0.064800978 0.67465061
-0.022167707 -0.05968228 0.67464101
-0.022113526 -0.05783537 0.67413789
-0.017030083 -0.051090211 0.67437541
-0.001708939 -0.030760914 0.67509133
0.010289953 -0.015434921 0.67582202
0.032455288 0.020498067 0.67499888
0.042751215 0.035054937 0.67522526
0.047702268 0.045145765 0.67445314
0.051358886 0.047077924 0.67545629
-0.017283967 -0.062222302 0.67744011
0 -0.038110852 0.67791271
0.044679955 0.0343692 0.67624056
0.046454664 0.036131412 0.67649209
-0.019179601 -0.071487606 0.67927527
-0.0017345124 -0.041628271 0.67817831
0.0087148175 -0.029630333 0.67919838
0.0086821988 -0.026915893 0.67841095
0.010418393 -0.024309546 0.67840594
0.015685225 -0.019170851 0.67917907
0.022541462 -0.0052018762 0.67811143
0.022541462 -0.0052018762 0.67811143
0.034716882 0.012150913 0.678339
-0.014035803 -0.068424523 0.68058807
-0.010526384 -0.063158303 0.68057865
-0.010526384 -0.063158303 0.68057865
-0.0088051008 -0.063396692 0.68137807
-0.0017564122 -0.050935984 0.68082184
0.026403101 -0.010561258 0.6812799
0.028198285 -0.0088119507 0.68154377
0.031561691 -0 0.68046153
0.035244703 0.0017622411 0.68152469
0.063097395 0.047323048 0.68037438
0.07027895 0.056223154 0.68088961
0.028341932 -0.012399614 0.68262744
0.03188324 -0.0070851445 0.68261784
0.039114274 0.00088784099 0.68341821
0.056952853 0.026696652 0.68364215
0.061891951 0.038903534 0.68226182
0.068959124 0.049509138 0.68224263
0.0053497874 -0.051714599 0.6840629
0.010740144 -0.046540618 0.68487912
0.017060488 -0.039504468 0.68555939
0.023356574 -0.030543178 0.68568009
0.028707478 -0.021530598 0.68538535
0.05194946 0.014330894 0.68504047
0.067795694 0.041034222 0.68416375
0.071360387 0.046384245 0.68415314
0.075311378 0.048414439 0.6852538
0.0054192566 -0.061418235 0.68685818
0.0054052272 -0.059457451 0.68629366
0.014468441 -0.048830986 0.68711597
0.023539053 -0.036213934 0.68737453
0.02900682 -0.029006839 0.68764371
0.037918705 -0.012639552 0.68676567
0.043501884 -0.0072503388 0.68760169
0.043276466 -0.003606379 0.68646789
0.063506506 0.021773696 0.68783021
0.074286073 0.038953707 0.68751442
0.0018206934 -0.072827727 0.68858123
0.014620525 -0.056654543 0.68941081
0.018226877 -0.049212545 0.68882197
0.018226877 -0.049212545 0.68882197
0.034760177 -0.027442247 0.68964231
0.043729831 -0.010932475 0.68874824
0.069397576 0.025567532 0.68925226
0.069397576 0.025567532 0.68925226
0.029545911 -0.042472243 0.69171083
0.034944031 -0.031265676 0.69081026
0.045972366 -0.014711112 0.69077832
0.053464215 -0.0055308044 0.69134557
0.057300504 -0.0018483996 0.69192618
0.06609527 0.016523808 0.69042653
0.079038329 0.034923911 0.69068253
0.084882796 0.040596128 0.69154888
0.016733482 -0.06693393 0.69323856
0.024168208 -0.055772752 0.69321644
0.029703652 -0.046411961 0.6929009
0.037027016 -0.033324301 0.69228184
0.038929306 -0.031514227 0.6925748
0.042863179 -0.029817849 0.69376254
0.046339866 -0.020389557 0.6925528
0.050044697 -0.014828026 0.69254231
0.02056092 -0.065421134 0.69443345
0.02252033 -0.065684319 0.69534111
0.052526787 -0.020635515 0.69525218
0.056428112 -0.016928434 0.69585335
0.069488734 0.0037561655 0.69550771
0.074814625 0.014962941 0.69457722
0.082732908 0.022563547 0.69577563
0.088010304 0.033706069 0.69484204
0.091504499 0.041083664 0.69422394
0.062150333 -0.0094166994 0.69614375
0.069771424 0.00094160438 0.69642997
0.086723663 0.026394159 0.69637954
0.088968508 0.026501268 0.69730306
0.032380369 -0.062855989 0.69872504
0.034425657 -0.063113719 0.69966769
0.034237348 -0.058964312 0.69840491
0.039886098 -0.049382806 0.69807452
0.041956261 -0.049584657 0.69901174
0.053244811 -0.030425638 0.69834763
0.067002229 -0.015314817 0.69988656
0.068444118 -0.007604897 0.69830239
0.072242789 -0.0019011199 0.69829035
0.078261331 0.0038176179 0.69921821
0.082074642 0.0095435679 0.69920617
0.085887909 0.015268981 0.69919491
0.050129276 -0.046273172 0.70154023
0.05368508 -0.036429167 0.70024562
0.061517864 -0.02691409 0.70086235
0.082985684 0.001929909 0.70176363
0.086361937 0.011514932 0.70046651
0.088400997 0.013452321 0.70078123
0.04089094 -0.068151563 0.70385045
0.04089094 -0.068151563 0.70385045
0.075693913 -0.013586074 0.70308781
0.081852704 -0.0077954531 0.704054
0.092231527 0.0019623935 0.70568347
0.09197183 0.0039137006 0.70501649
-0.092083164 0.0058776736 0.70530248
0.051121261 -0.060952276 0.70614576
0.058980182 -0.049150139 0.70612204
0.063266471 -0.047449827 0.70745844
0.069094218 -0.037508279 0.70710158
0.053770043 -0.0677104 0.7091974
0.070291094 -0.050207913 0.71122944
0.078543 -0.040278465 0.71190614
0.08633966 -0.026102692 0.71117896
0.058588788 -0.072730929 0.71267629
0.066857219 -0.062805265 0.71336114
0.077089228 -0.048687935 0.71368545
0.082342766 -0.053522795 0.71729541
0.082342766 -0.053522795 0.71729541
0.080644637 -0.059966534 0.71841109
-0.051305141 0.047254771 0.63177985
-0.062028505 0.0059889872 0.63898492
-0.053773023 0.022265298 0.63785368
-0.045994323 0.033666752 0.63790947
-0.041431021 0.045599364 0.63644761
-0.041431021 0.045599364 0.63644761
-0.04217371 0.021987541 0.64286184
-0.063298471 -0.025912039 0.64753771
-0.058322132 -0.018066078 0.64741611
-0.045606554 0.0064512193 0.64583147
-0.037990626 0.014016375 0.64691132
-0.018227756 0.045721412 0.64627266
-0.046418816 -0.0099158557 0.65015125
-0.0313171 0.0070715747 0.6517266
-0.022383954 0.025841212 0.65017271
-0.014173719 0.034021635 0.65133011
-0.0025223116 0.050708257 0.65152532
-0.062906332 -0.053368896 0.65553039
-0.058386065 -0.042256363 0.65428388
-0.046059284 -0.025576144 0.65476757
-0.042370345 -0.022152722 0.65535945
-0.01795708 0.014481813 0.6552915
-0.0077460366 0.027885735 0.65581
-0.0030947826 0.035589993 0.65559077
-0.0015203066 0.049409121 0.65232134
-0.068295427 -0.063638911 0.65616751
-0.068295427 -0.063638911 0.65616751
-0.057936229 -0.054025754 0.65782964
-0.017886762 0.010109775 0.65656757
-0.012408262 0.020163417 0.6560303
-0.0026334678 0.022384703 0.65955055
-0.0023310219 0.033619769 0.65647709
0.020544065 0.056891292 0.65956473
-0.06295456 -0.073315755 0.66119528
-0.057621699 -0.066406436 0.66149205
-0.050055817 -0.058414742 0.66242921
-0.044437934 -0.042850882 0.6603803
-0.037580036 -0.034202576 0.66082954
-0.017847303 -0.0060588093 0.66119295
0.005443274 0.025768105 0.66201848
0.013765109 0.038248945 0.6619975
-0.031327967 -0.049465179 0.66783673
-0.026084384 -0.038231369 0.66686261
-0.013822195 -0.013824545 0.66511679
0.0020589046 0.0022595059 0.66728067
0.03035517 0.045936424 0.66685605
-0.045484863 -0.072778121 0.6684655
-0.045484863 -0.072778121 0.6684655
-0.037488848 -0.06214115 0.66883147
-0.037488848 -0.06214115 0.66883147
-0.023555866 -0.052159429 0.67190731
-0.022929266 -0.049216174 0.67133451
-0.0058597885 -0.022399105 0.67094415
0.01156278 0.013214588 0.66819715
0.01156278 0.013214588 0.66819715
0.021802237 0.017886385 0.67121637
0.019843273 0.024804085 0.66841203
0.022324041 0.028523929 0.66840649
0.034173355 0.034732424 0.67167205
0.045924552 0.056777596 0.67038244
-0.022237103 -0.062159441 0.67531765
-0.015421106 -0.053117096 0.67563659
0.017148366 -0.0051445067 0.67580318
0.018542802 0.0092703998 0.67228723
0.038272697 0.026847154 0.67566133
0.038272697 0.026847154 0.67566133
0.046753921 0.049569242 0.67278928
0.050213158 0.053595185 0.6731118
-0.0060506938 -0.045825601 0.67754036
0.021771414 -0.0095797926 0.67903179
0.018886024 -0.0034338236 0.67605364
0.027501455 0.0085942447 0.67628658
0.05824393 0.046071202 0.67866886
0.057918321 0.049701713 0.67749566
0.01365684 -0.030170474 0.68145245
0.01365684 -0.030170474 0.68145245
0.022047456 -0.018519595 0.68169707
0.022047456 -0.018519595 0.68169707
0.034518812 -0.0026562884 0.68247521
0.043828763 0.018406972 0.68042815
0.047273252 0.024512053 0.68015176
-0.0059619406 -0.070959389 0.68474174
-0.0059619406 -0.070959389 0.68474174
0.033221792 -0.022348782 0.68753684
0.033221792 -0.022348782 0.68753684
0.04955332 0.0063054115 0.68630981
0.061756358 0.029533669 0.68487495
0.074566774 0.042694639 0.68656743
0.074566774 0.042694639 0.68656743
0.0072727422 -0.063636482 0.6882785
0.016600374 -0.060868025 0.69145322
0.026445385 -0.037386969 0.6889438
0.048956025 -0.013854727 0.69180191
0.050186865 -0.0025111474 0.6890918
0.054113101 0.0020071387 0.68947262
0.037628025 -0.045153648 0.69590938
0.041905958 -0.030730926 0.69361621
0.066007949 0.0065064058 0.69324476
0.073832944 0.014017306 0.6944294
0.076993383 0.015023082 0.69548517
0.081454597 0.025779223 0.69431549
0.081454597 0.025779223 0.69431549
0.040160254 -0.054504499 0.69965041
0.061789505 -0.021658063 0.69947982
0.069443531 -0.0066600814 0.69845736
0.0746352 0.0066117942 0.69688094
0.0746352 0.0066117942 0.69688094
0.037526019 -0.070521101 0.70309627
0.041777082 -0.065092802 0.70335573
0.049506258 -0.069308758 0.70784152
0.065777153 -0.042096894 0.70699978
0.077367373 -0.018608227 0.70523
0.084990315 -0.014825299 0.70739108
0.089357033 -0.0029471517 0.70586127
0.077054471 -0.040872019 0.71144265
0.085843958 -0.02196008 0.70978743
0.062024664 -0.073206812 0.71427202
0.062024664 -0.073206812 0.71427202
0.073680319 -0.061400265 0.71585965
0.073680319 -0.061400265 0.71585965
0.07765545 -0.054155946 0.71548414
0.074116565 -0.065881371 0.71732247
0.078046501 -0.065613508 0.71891606
