# .PCD v0.7 - Point Cloud Data file format
VERSION 0.7
FIELDS x y z
SIZE 4 4 4
TYPE F F F
COUNT 1 1 1
WIDTH 1351
HEIGHT 1
VIEWPOINT 0 0 0 1 0 0 0
POINTS 1351
DATA ascii
0.016987169 -0.018293858 0.62653744
0.017020255 -0.019638747 0.62684464
0.017053518 -0.020988911 0.62715346
0.01708691 -0.02234444 0.62746358
0.017120387 -0.023705155 0.62777442
0.017154042 -0.025071263 0.62808686
0.01718783 -0.026442796 0.62840062
0.017221751 -0.027819753 0.62871557
0.017255757 -0.029202044 0.62903136
0.017289948 -0.030589879 0.62934887
0.017324274 -0.031983286 0.62966758
0.017358735 -0.033382207 0.6299876
0.017393285 -0.034786552 0.63030839
0.017428024 -0.036196649 0.63063097
0.0174629 -0.037612379 0.63095474
0.017497867 -0.039033711 0.63127947
0.017533025 -0.040460855 0.63160592
0.017568324 -0.041893721 0.63193369
0.017603764 -0.043332338 0.63226277
0.017230216 0.029537529 0.61736631
0.017261866 0.028358757 0.61763924
0.017293587 0.027175635 0.61791271
0.01732547 0.025988221 0.61818761
0.01735747 0.024796426 0.61846352
0.017389588 0.023600131 0.6187405
0.017421782 0.022399455 0.61901808
0.01745414 0.021194339 0.61929703
0.017486617 0.019984722 0.61957711
0.01751917 0.018770576 0.61985773
0.01755189 0.017551899 0.6201399
0.017584734 0.016328692 0.62042302
0.017617654 0.015100837 0.62070692
0.017650744 0.013868421 0.62099218
0.017683959 0.012631416 0.62127858
0.017717298 0.011389703 0.62156606
0.017750718 0.01014325 0.62185419
0.017784309 0.0088921487 0.62214386
0.017818028 0.0076363087 0.62243462
0.01785183 0.0063756406 0.62272602
0.017885806 0.0051102042 0.62301898
0.017919911 0.0038399994 0.62331307
0.017954146 0.0025648773 0.62360817
0.017988466 0.0012848973 0.62390411
0.018022966 -2.9802322e-08 0.6242016
0.018057596 -0.0012898445 0.62450022
0.018092362 -0.0025846064 0.62479991
0.01812721 -0.0038844049 0.62510043
0.018162245 -0.0051891804 0.62540245
0.018197414 -0.0064991117 0.62570572
0.01823272 -0.0078140199 0.62601012
0.018268112 -0.0091340244 0.62631524
0.018303694 -0.010459274 0.62662208
0.018339414 -0.01178959 0.62693006
0.018375224 -0.013125151 0.62723887
0.018411223 -0.014465988 0.62754923
0.018447364 -0.015812039 0.62786084
0.018483648 -0.017163396 0.62817371
0.018520024 -0.018520027 0.62848735
0.018556591 -0.019882053 0.6288026
0.018593308 -0.021249473 0.62911916
0.018630167 -0.022622317 0.62943697
0.018667122 -0.024000585 0.62975562
0.018704277 -0.025384367 0.63007593
0.018741578 -0.026773661 0.63039756
0.018778976 -0.02816844 0.63072002
0.018816577 -0.029568881 0.63104427
0.018854329 -0.030974954 0.63136971
0.018892232 -0.032386661 0.63169658
0.018930234 -0.033803999 0.63202417
0.018968444 -0.03522709 0.63235366
0.019006809 -0.036655962 0.63268447
0.019045329 -0.038090676 0.63301665
0.019083951 -0.039531052 0.6333496
0.019122785 -0.040977418 0.63368446
0.019161776 -0.042429656 0.63402063
0.019200927 -0.043887794 0.63435817
0.018710488 0.028689444 0.61937451
0.018745273 0.02749306 0.61965448
0.018780237 0.026292354 0.61993581
0.018815331 0.025087088 0.62021822
0.018850507 0.023877323 0.62050128
0.018885864 0.022663057 0.62078583
0.018921355 0.021444231 0.62107146
0.018956928 0.020220727 0.62135768
0.018992687 0.018992722 0.62164545
0.019028582 0.017760038 0.62193429
0.019064559 0.016522646 0.62222385
0.019100726 0.015280604 0.62251484
0.019137029 0.014033854 0.62280703
0.019173469 0.012782305 0.62310022
0.019209998 0.011525989 0.62339425
0.01924672 0.010264903 0.62368977
0.01928358 0.0089990497 0.62398636
0.019320583 0.007728219 0.62428415
0.019357676 0.0064525902 0.62458265
0.019394962 0.0051720142 0.62488276
0.019432394 0.0038864911 0.625184
0.019469971 0.0025959909 0.62548637
0.019507639 0.0013005137 0.62578946
0.019545509 -0 0.62609416
0.019583523 -0.0013055503 0.62640011
0.019621633 -0.0026161969 0.62670684
0.019659946 -0.0039319992 0.62701517
0.019698408 -0.0052528977 0.6273247
0.01973702 -0.0065790117 0.62763536
0.01977573 -0.0079102516 0.62794691
0.019814648 -0.009246856 0.62826008
0.019853719 -0.010588616 0.62857449
0.019892944 -0.011935741 0.62889016
0.019932268 -0.01328817 0.6292066
0.019971805 -0.014645964 0.62952483
0.020011498 -0.016009212 0.62984419
0.020051293 -0.017377794 0.6301645
0.020091305 -0.018751889 0.63048649
0.020131474 -0.020131469 0.63080972
0.020171806 -0.021516591 0.63113427
0.020212242 -0.022907168 0.63145965
0.020252898 -0.024303466 0.63178682
0.020293718 -0.025705367 0.63211536
0.020334702 -0.027112931 0.63244522
0.020375796 -0.028526098 0.6327759
0.020417113 -0.029945105 0.63310838
0.020458598 -0.031369865 0.63344216
0.020500252 -0.032800406 0.63377738
0.020542016 -0.03423667 0.63411355
0.020584011 -0.035678953 0.63445145
0.020626178 -0.037127078 0.63479078
0.020668458 -0.038581103 0.635131
0.020710973 -0.040041208 0.63547313
0.020753661 -0.041507304 0.63581669
0.020796528 -0.042979479 0.63616163
0.020839509 -0.044457614 0.63650751
0.02019329 0.029027849 0.62115073
0.020231275 0.027817994 0.62143731
0.020269457 0.026603669 0.62172538
0.020307783 0.025384724 0.62201452
0.0203462 0.02416113 0.62230438
0.020384818 0.022932917 0.62259567
0.020423582 0.021700054 0.62288815
0.020462438 0.020462424 0.62318134
0.0205015 0.019220144 0.62347603
0.020540711 0.017973095 0.62377179
0.020580014 0.016721278 0.62406832
0.020619525 0.015464664 0.6243664
0.020659188 0.014203191 0.62466562
0.020699004 0.01293692 0.62496603
0.020738918 0.011665672 0.62526715
0.020779042 0.010389507 0.62556994
0.020819321 0.0091084838 0.6258738
0.0208597 0.0078223944 0.62617838
0.020900294 0.0065313578 0.62648463
0.020941045 0.0052352548 0.62679213
0.020981956 0.003934145 0.62710071
0.021022968 0.0026279092 0.62741017
0.0210642 0.0013165474 0.62772119
0.021105595 -0 0.62803358
0.021147151 -0.0013216734 0.62834704
0.021188814 -0.002648592 0.62866139
0.021230698 -0.003980726 0.62897736
0.021272751 -0.0053181946 0.62929469
0.021314908 -0.0066608787 0.62961268
0.021357296 -0.0080089867 0.62993246
0.021399852 -0.0093624294 0.63025355
0.021442577 -0.010721296 0.63057584
0.021485411 -0.012085497 0.63089895
0.021528477 -0.013455302 0.63122398
0.021571718 -0.014830559 0.63155013
0.021615133 -0.016211361 0.63187772
0.021658661 -0.017597646 0.63220608
0.021702427 -0.018989623 0.63253629
0.021746371 -0.020387232 0.63286781
0.021790491 -0.021790504 0.63320071
0.021834731 -0.023199409 0.63353443
0.021879211 -0.024614096 0.63387001
0.021923874 -0.026034594 0.63420695
0.021968655 -0.027460814 0.63454479
0.022013683 -0.028892994 0.63488454
0.022058899 -0.030330986 0.63522565
0.022104299 -0.031774908 0.63556814
0.02214982 -0.033224732 0.63591158
0.022195594 -0.034680605 0.63625693
0.022241559 -0.036142558 0.63660377
0.022287717 -0.037610501 0.63695192
0.022333998 -0.039084524 0.63730115
0.022380538 -0.040564686 0.63765222
0.022427274 -0.042051107 0.63800484
0.022474138 -0.043543667 0.63835841
0.021711435 0.029374301 0.62296897
0.021752821 0.028150707 0.62326276
0.021794366 0.026922435 0.62355781
0.021836013 0.025689423 0.6238535
0.021877876 0.024451733 0.62415081
0.021919902 0.023209304 0.62444919
0.021962089 0.021962106 0.62474871
0.022004379 0.020709962 0.62504905
0.02204689 0.019453138 0.62535095
0.022089571 0.018191427 0.62565392
0.02213235 0.016924739 0.62595773
0.022175362 0.015653193 0.62626314
0.022218538 0.01437673 0.62656969
0.022261823 0.01309517 0.62687707
0.022305336 0.011808693 0.62718606
0.02234902 0.01051721 0.62749618
0.022392878 0.0092206001 0.62780762
0.022436844 0.0079188645 0.62811983
0.022481045 0.0066120625 0.6284337
0.022525424 0.0053001344 0.62874877
0.022569913 0.0039829016 0.62906468
0.022614641 0.0026605725 0.62938225
0.022659548 0.0013329089 0.62970114
0.022704633 -0 0.63002127
0.022749834 -0.0013382137 0.63034225
0.022795279 -0.0026817918 0.63066494
0.022840906 -0.0040307343 0.63098896
0.022886718 -0.0053851008 0.63131416
0.022932643 -0.0067449212 0.63164032
0.022978824 -0.0081101656 0.63196826
0.023025189 -0.0094809532 0.63229746
0.023071676 -0.010857224 0.63262749
0.023118418 -0.012239128 0.63295937
0.023165351 -0.013626665 0.63329268
0.02321247 -0.015019834 0.63362724
0.02325972 -0.016418636 0.63396275
0.023307228 -0.01782316 0.63430005
0.023354927 -0.019233465 0.63463879
0.023402825 -0.020649552 0.63497889
0.023450851 -0.022071391 0.63531989
0.023499144 -0.023499101 0.63566279
0.023547636 -0.024932802 0.63600713
0.02359633 -0.026372373 0.6363529
0.023645151 -0.027817816 0.63669956
0.023694249 -0.029269367 0.63704813
0.023743547 -0.03072691 0.63739824
0.023792986 -0.032190502 0.63774925
0.023842698 -0.033660293 0.63810223
0.023892619 -0.035136223 0.63845676
0.023942752 -0.036618322 0.63881272
0.023993019 -0.038106561 0.63916957
0.024043573 -0.039601177 0.63952857
0.024094339 -0.041102111 0.63988912
0.024145324 -0.042609364 0.64025104
0.024196448 -0.044122934 0.64061409
0.023266317 0.029729187 0.6248315
0.023311205 0.028491497 0.62513256
0.023356268 0.027248979 0.6254347
0.023401439 0.026001573 0.62573767
0.02344685 0.024749458 0.62604219
0.023492441 0.023492426 0.6263479
0.023538141 0.022230476 0.62665439
0.023584086 0.020963639 0.62696254
0.023630207 0.019691825 0.62727183
0.023676449 0.018415004 0.62758195
0.023722935 0.017133236 0.62789369
0.023769604 0.015846401 0.62820661
0.02381639 0.014554471 0.62852037
0.023863429 0.013257474 0.6288358
0.023910653 0.011955321 0.62915254
0.023958065 0.010648042 0.62947047
0.024005597 0.0093355179 0.62978923
0.024053385 0.0080178082 0.63010967
0.024101367 0.0066948533 0.63043153
0.024149539 0.0053665638 0.63075453
0.024197834 0.0040329993 0.63107836
0.024246393 0.0026940107 0.63140404
0.024295148 0.0013497472 0.63173097
0.024344027 2.9802322e-08 0.6320588
0.024393177 -0.001355201 0.63238835
0.024442524 -0.0027157962 0.63271928
0.02449207 -0.0040820539 0.63305163
0.024541745 -0.0054537356 0.6333847
0.024591696 -0.0068310201 0.63371968
0.024641851 -0.0082139671 0.63405609
0.024692209 -0.0096025169 0.63439375
0.024742702 -0.010996759 0.63473237
0.024793474 -0.012396693 0.63507283
0.024844455 -0.013802469 0.63541472
0.024895575 -0.015213966 0.63575757
0.024946976 -0.016631305 0.63610226
0.02499859 -0.018054545 0.63644838
0.02505042 -0.019483656 0.636796
0.02510239 -0.020918667 0.63714451
0.02515465 -0.022359699 0.63749492
0.02520713 -0.023806751 0.63784689
0.025259828 -0.025259823 0.63820028
0.025312673 -0.026718944 0.63855469
0.025365813 -0.028184235 0.63891101
0.025419177 -0.029655695 0.63926893
0.025472768 -0.031133384 0.63962829
0.025526507 -0.032617211 0.63998872
0.025580551 -0.034107387 0.64035112
0.025634823 -0.03560394 0.64071506
0.025689248 -0.037106693 0.64108008
0.025743986 -0.038615972 0.64144713
0.025798954 -0.040131718 0.64181578
0.025854159 -0.041653931 0.64218599
0.025909521 -0.043182522 0.6425572
0.024907777 0.028840631 0.62704802
0.024956519 0.02758351 0.62735772
0.02500538 0.026321471 0.62766814
0.025054501 0.025054544 0.62798023
0.025103817 0.023782581 0.62829351
0.025153257 0.022505552 0.62860763
0.025202964 0.021223575 0.62892342
0.025252866 0.019936502 0.62924045
0.025302896 0.018644273 0.62955832
0.025353195 0.017346919 0.62987787
0.025403693 0.016044438 0.63019872
0.025454322 0.014736742 0.63052034
0.025505228 0.0134238 0.63084376
0.025556337 0.012105644 0.63116848
0.025607577 0.010782152 0.63149399
0.025659095 0.0094533563 0.63182133
0.025710825 0.0081192255 0.63214993
0.025762759 0.0067796707 0.63247991
0.025814831 0.0054346919 0.63281077
0.025867188 0.0040842891 0.63314337
0.02591976 0.0027284026 0.63347739
0.025972543 0.0013670027 0.63381273
0.026025467 -0 0.63414896
0.026078684 -0.0013725758 0.63448703
0.02613212 -0.0027507246 0.63482648
0.026185697 -0.0041345656 0.63516688
0.02623957 -0.0055240989 0.63550919
0.026293667 -0.0069194138 0.63585287
0.026347989 -0.008320421 0.63619804
0.026402455 -0.0097272098 0.63654399
0.026457226 -0.011139899 0.63689202
0.026512224 -0.012558371 0.63724136
0.026567454 -0.013982892 0.63759232
0.026622834 -0.015413195 0.6379441
0.026678523 -0.016849577 0.63829792
0.026734445 -0.01829198 0.63865322
0.026790604 -0.019740462 0.63901001
0.026846919 -0.021194935 0.63936782
0.026903553 -0.022655576 0.63972759
0.026960423 -0.024122477 0.64008892
0.027017456 -0.025595486 0.64045125
0.027074808 -0.027074784 0.64081562
0.027132409 -0.02856043 0.64118159
0.027190255 -0.030052364 0.64154905
0.027248261 -0.031550616 0.64191759
0.027306605 -0.033055395 0.64228827
0.027365195 -0.034566522 0.6426605
0.027424036 -0.036084205 0.64303434
0.02748305 -0.037608385 0.64340925
0.027542399 -0.039139181 0.64378631
0.027602008 -0.040676624 0.64416504
0.027661789 -0.042220622 0.64454484
0.027721914 -0.043771446 0.64492679
0.026543966 0.029198349 0.62901115
0.026596475 0.027926296 0.62932807
0.02664927 0.026649266 0.62964666
0.026702277 0.025367141 0.62996662
0.026755417 0.024079889 0.63028735
0.026808847 0.022787541 0.63060981
0.026862489 0.021490037 0.63093352
0.026916346 0.020187259 0.63125861
0.026970342 0.018879235 0.63158453
0.027024634 0.017566025 0.63191223
0.027079146 0.016247481 0.63224125
0.027133796 0.014923573 0.6325711
0.02718875 0.013594389 0.63290274
0.027243925 0.012259781 0.63323569
0.027299246 0.01091969 0.63356972
0.027354872 0.0095742345 0.63390535
0.027410723 0.0082232356 0.63424248
0.027466726 0.0068666637 0.63458043
0.027523035 0.005504638 0.6349203
0.027579576 0.0041369498 0.6352616
0.027636351 0.0027636588 0.63560426
0.027693279 0.0013846755 0.63594782
0.027750522 -2.9802322e-08 0.63629335
0.027808005 -0.0013903975 0.63664031
0.027865725 -0.0027865767 0.63698864
0.027923603 -0.0041885376 0.63733792
0.027981803 -0.0055963695 0.63768923
0.028040245 -0.0070100725 0.63804197
0.028098935 -0.0084296465 0.6383962
0.028157786 -0.0098552108 0.63875139
0.028216969 -0.011286765 0.6391086
0.028276401 -0.01272437 0.6394673
0.028336 -0.014168024 0.63982701
0.028395934 -0.015617758 0.64018869
0.028456124 -0.017073661 0.64055204
0.028516568 -0.018535763 0.64091682
0.028577182 -0.020004034 0.64128268
0.028638143 -0.021478623 0.64165056
0.028699366 -0.022959501 0.64202011
0.02876085 -0.024446726 0.6423912
0.02882251 -0.025940269 0.64276338
0.028884523 -0.02744031 0.64313763
0.028946802 -0.028946817 0.64351356
0.029009262 -0.030459702 0.6438905
0.029072084 -0.031979263 0.64426965
0.029135175 -0.03350544 0.64465046
0.029198542 -0.035038263 0.64503288
0.029262096 -0.036577612 0.6454165
0.029326016 -0.038123816 0.64580226
0.029390218 -0.039676785 0.64618975
0.029454701 -0.041236579 0.64657903
0.029519375 -0.042803079 0.64696926
0.029584425 -0.044376612 0.64736193
0.028221253 0.029565156 0.63102347
0.028277786 0.028277785 0.63134849
0.028334627 0.026985377 0.63167512
0.028391697 0.025687695 0.63200325
0.028448913 0.024384767 0.63233215
0.028506445 0.023076653 0.63266289
0.028564211 0.021763206 0.63299483
0.028622126 0.020444334 0.63332778
0.028680362 0.019120246 0.63366246
0.028738834 0.017790675 0.63399863
0.028797463 0.01645568 0.63433564
0.028856415 0.015115291 0.63467443
0.028915608 0.013769358 0.63501471
0.028974958 0.012417823 0.63535589
0.029034641 0.011060804 0.63569891
0.029094566 0.0096981823 0.63604343
0.029154742 0.0083299279 0.63638932
0.029215079 0.0069559813 0.63673609
0.029275754 0.0055763125 0.6370849
0.029336683 0.0041909814 0.63743514
0.029397776 0.0027997792 0.63778627
0.029459214 0.0014028251 0.63813943
0.02952091 -2.9802322e-08 0.63849407
0.029582862 -0.0014086962 0.63885021
0.029644988 -0.002823323 0.6392073
0.029707465 -0.0042439401 0.63956642
0.029770205 -0.0056704879 0.63992703
0.029833211 -0.0071031153 0.64028919
0.029896393 -0.0085418224 0.64065242
0.029959934 -0.0099866092 0.64101762
0.030023744 -0.011437595 0.64138448
0.030087829 -0.012894779 0.64175284
0.030152097 -0.014358133 0.64212221
0.030216731 -0.015827805 0.64249372
0.030281642 -0.017303795 0.64286685
0.03034674 -0.018786043 0.64324105
0.030412214 -0.020274818 0.64361739
0.030477967 -0.02177 0.6439954
0.030544007 -0.02327159 0.64437497
0.030610241 -0.024779677 0.64475572
0.030676857 -0.02629441 0.64513862
0.030743761 -0.027815789 0.64552319
0.030810958 -0.029343784 0.64590943
0.030878358 -0.030878365 0.64629686
0.030946145 -0.032419741 0.64668643
0.031014232 -0.033967972 0.64707792
0.031082522 -0.035522908 0.64747047
0.031151211 -0.037084788 0.6478653
0.031220205 -0.038653582 0.64826185
0.031289503 -0.04022935 0.64866018
0.031359009 -0.041812003 0.64905971
0.031428929 -0.043401867 0.64946163
0.030001959 0.028638244 0.63342035
0.030063037 0.027330041 0.63375545
0.030124363 0.026016504 0.63409197
0.030185852 0.024697512 0.63442934
0.030247679 0.023373216 0.63476861
0.030309761 0.022043467 0.63510919
0.030372011 0.020708203 0.63545072
0.030434605 0.019367486 0.63579416
0.030497458 0.018021226 0.63613904
0.03056048 0.016669363 0.63648486
0.030623853 0.015311956 0.63683259
0.030687492 0.013948858 0.63718176
0.030751305 0.012580067 0.63753188
0.030815473 0.011205614 0.63788402
0.030879909 0.0098254085 0.63823754
0.030944526 0.0084394217 0.63859206
0.031009503 0.0070476234 0.63894856
0.031074755 0.0056499243 0.6393066
0.031140285 0.0042464137 0.63966614
0.031205993 0.0028369129 0.64002669
0.031272076 0.0014214516 0.64038932
0.031338438 2.9802322e-08 0.64075345
0.031405084 -0.0014275014 0.64111912
0.031471919 -0.0028610826 0.64148581
0.031539135 -0.0043008029 0.64185458
0.031606637 -0.0057466328 0.64222497
0.031674333 -0.0071986914 0.64259636
0.031742416 -0.0086570382 0.64296997
0.03181079 -0.010121614 0.64334518
0.031879462 -0.011592507 0.64372194
0.031948335 -0.013069808 0.64409983
0.0320176 -0.014553428 0.64447987
0.03208717 -0.016043603 0.64486158
0.032157041 -0.017540216 0.64524496
0.032227121 -0.019043267 0.64562941
0.0322976 -0.020553023 0.64601624
0.032368395 -0.022069365 0.64640462
0.032439496 -0.023592353 0.64679474
0.03251081 -0.025121987 0.64718604
0.032582544 -0.026658446 0.64757961
0.032654591 -0.028201669 0.64797497
0.032726854 -0.029751718 0.64837146
0.032799542 -0.031308621 0.64877021
0.032872554 -0.032872558 0.64917088
0.03294589 -0.034443408 0.64957327
0.033019453 -0.036021233 0.64997685
0.033093449 -0.03760618 0.65038288
0.033167776 -0.039198279 0.65079069
0.033242438 -0.040797532 0.65120041
0.033317331 -0.042403877 0.65161133
0.033392668 -0.044017583 0.65202469
0.031770654 0.029008001 0.63554573
0.031836171 0.027683616 0.63588959
0.031901859 0.026353747 0.6362344
0.031967919 0.025018364 0.63658106
0.032034248 0.023677498 0.63692915
0.032100856 0.022331059 0.63727868
0.032167647 0.020978898 0.63762927
0.032234807 0.019621223 0.63798177
0.032302253 0.018257827 0.6383357
0.032369882 0.016888648 0.63869065
0.032437894 0.015513778 0.63904762
0.03250619 0.014133185 0.63940603
0.03257468 0.012746602 0.6397655
0.032643553 0.011354268 0.640127
0.032712724 0.009956032 0.64049
0.032782085 0.008551836 0.640854
0.032851841 0.0071417391 0.64122009
0.032921895 0.0057255626 0.64158773
0.032992147 0.0043033659 0.64195651
0.033062801 0.00287503 0.64232731
0.03313376 0.0014405847 0.64269972
0.033205021 2.9802322e-08 0.64307374
0.033276491 -0.0014467835 0.64344877
0.03334837 -0.0028998554 0.64382607
0.033420559 -0.0043592155 0.64420491
0.033493061 -0.0058248937 0.64458543
0.033565775 -0.0072969198 0.64496708
0.033638909 -0.0087753236 0.64535087
0.033712365 -0.010260284 0.64573646
0.033786144 -0.011751682 0.64612359
0.033860136 -0.013249636 0.64651197
0.03393456 -0.014754176 0.64690256
0.034009311 -0.016265333 0.64729488
0.03408429 -0.017783135 0.64768839
0.034159705 -0.019307643 0.64808416
0.034235455 -0.020838976 0.64848173
0.034311537 -0.022377074 0.64888102
0.034387857 -0.023921967 0.64928156
0.03446462 -0.025473833 0.64968449
0.03454173 -0.027032644 0.6500892
0.034619186 -0.028598458 0.65049565
0.034696877 -0.030171186 0.6509034
0.03477503 -0.031751096 0.65131354
0.034853537 -0.033338159 0.65172559
0.034932282 -0.034932286 0.65213895
0.0350115 -0.036533773 0.65255469
0.035091083 -0.038142473 0.65297234
0.035171021 -0.039758533 0.6533919
0.035251211 -0.041381836 0.65381271
0.035331886 -0.043012679 0.65423608
0.033585619 0.029387414 0.63772678
0.033655785 0.028046489 0.63807958
0.033726141 0.026699871 0.63843346
0.033796895 0.02534768 0.63878936
0.033867948 0.023989797 0.63914675
0.033939198 0.022626132 0.63950509
0.034010846 0.021256804 0.63986546
0.0340828 0.019881666 0.64022738
0.034154959 0.018500596 0.64059031
0.034227524 0.017113775 0.64095527
0.034300402 0.015720993 0.64132184
0.034373481 0.014322311 0.64168936
0.034446977 0.012917638 0.64205909
0.034520794 0.011506915 0.64243031
0.034594923 0.010090172 0.64280313
0.034669265 0.00866732 0.64317709
0.034744035 0.0072383285 0.64355314
0.03481913 0.0058031976 0.64393079
0.034894444 0.0043618083 0.64430964
0.034970187 0.0029141605 0.64469057
0.035046261 0.001460284 0.64507318
0.035122562 -0 0.64545697
0.035199303 -0.0014666319 0.64584297
0.035276379 -0.0029397011 0.64623058
0.035353791 -0.0044192374 0.64661998
0.035431437 -0.0059052408 0.64701045
0.035509534 -0.0073978007 0.6474033
0.035587978 -0.0088969767 0.64779782
0.035666768 -0.010402799 0.64819407
0.035745796 -0.011915237 0.64859158
0.035825286 -0.01343447 0.64899141
0.035905134 -0.014960468 0.64939296
0.035985332 -0.016493261 0.64979637
0.03606578 -0.018032879 0.65020096
0.036146704 -0.01957944 0.650608
0.03622799 -0.021133006 0.65101683
0.036309525 -0.022693425 0.65142691
0.036391549 -0.024261057 0.65183949
0.036473941 -0.025835723 0.65225387
0.036556702 -0.027417541 0.65267015
0.036639728 -0.029006422 0.65308768
0.036723252 -0.030602723 0.65350783
0.036807153 -0.032206237 0.65392977
0.036891442 -0.033817142 0.65435374
0.036975995 -0.035435319 0.65477896
0.037061058 -0.037061065 0.65520686
0.037146512 -0.038694263 0.65563667
0.037232243 -0.04033491 0.65606785
0.03731849 -0.041983306 0.65650165
0.037405137 -0.043639302 0.65693742
0.035448696 0.029776901 0.63996559
0.035523735 0.028418988 0.64032793
0.035598986 0.027055234 0.64069122
0.035674665 0.025685757 0.64105666
0.035750665 0.02431044 0.64142358
0.03582688 0.022929221 0.64179158
0.035903536 0.021542162 0.64216167
0.035980515 0.020149082 0.64253342
0.036057718 0.018750042 0.64290619
0.036135361 0.017344952 0.6432811
0.036213338 0.015933871 0.64365757
0.036291543 0.014516652 0.64403522
0.036370195 0.013093293 0.64441496
0.036449194 0.011663765 0.64479637
0.036528423 0.010227978 0.64517891
0.036608107 0.0087859333 0.64556372
0.036688145 0.0073376596 0.64595014
0.036768414 0.0058829486 0.64633775
0.036849152 0.0044218898 0.64672756
0.036930244 0.0029544234 0.64711916
0.037011698 0.0014804602 0.64751238
0.03709339 -2.9802322e-08 0.64790684
0.037175562 -0.0014869869 0.64830363
0.0372581 -0.0029806495 0.64870214
0.037340887 -0.0044808984 0.64910185
0.037424166 -0.0059878826 0.64950395
0.03750781 -0.0075015426 0.64990789
0.03759183 -0.0090220273 0.65031356
0.037676111 -0.010549337 0.65072048
0.037760887 -0.012083471 0.65112984
0.037846047 -0.013624519 0.65154099
0.037931595 -0.015172631 0.65195405
0.038017403 -0.016727626 0.65236837
0.038103726 -0.018289804 0.65278518
0.038190443 -0.019859046 0.65320385
0.038277555 -0.02143541 0.65362453
0.038364939 -0.023018956 0.65404642
0.038452849 -0.024609834 0.65447092
0.038541164 -0.026207983 0.65489733
0.038629755 -0.027813405 0.65532506
0.038718887 -0.029426336 0.65575546
0.038808428 -0.031046718 0.65618777
0.038898382 -0.03267464 0.65662217
0.038988627 -0.034309983 0.65705782
0.039079424 -0.035953045 0.65749633
0.039170645 -0.037603825 0.65793675
0.039262291 -0.039262295 0.6583792
0.039354231 -0.040928394 0.65882313
0.039446741 -0.04260245 0.65926987
0.039539687 -0.044284433 0.65971863
0.037441857 0.028801411 0.64263612
0.037522357 0.027420223 0.64300984
0.037603203 0.026032984 0.64338517
0.03768428 0.024639726 0.64376163
0.037765827 0.023240536 0.64414018
0.037847728 0.021835238 0.64452046
0.037929863 0.0204238 0.64490181
0.038012479 0.019006222 0.64528537
0.038095452 0.017582536 0.64567053
0.03817879 0.016152561 0.64605749
0.038262371 0.014716297 0.64644551
0.03834644 0.013273776 0.64683586
0.038430881 0.011824876 0.64722788
0.038515572 0.010369599 0.64762104
0.038600761 0.0089078844 0.64801657
0.038686324 0.0074397027 0.6484139
0.038772147 0.0059649646 0.64881229
0.038858473 0.00448367 0.64921308
0.038945187 0.0029958189 0.64961565
0.039032161 0.0015012324 0.65001953
0.039119653 -0 0.65042567
0.039207537 -0.0015079677 0.65083373
0.039295815 -0.0030227602 0.65124357
0.039384369 -0.0045443475 0.65165466
0.039473444 -0.006072849 0.6520682
0.039562929 -0.0076082647 0.6524837
0.039652817 -0.0091506541 0.65290099
0.039742984 -0.010700017 0.6533196
0.039833695 -0.012256533 0.65374076
0.039924819 -0.013820142 0.65416384
0.04001623 -0.015390843 0.65458822
0.040108193 -0.016968846 0.65501517
0.04020058 -0.018554121 0.65544415
0.040293392 -0.020146698 0.65587497
0.040386502 -0.021746576 0.65630728
0.040480174 -0.023353964 0.65674222
0.040574286 -0.024968773 0.65717912
0.040668834 -0.026591152 0.65761805
0.040763691 -0.028221011 0.65805852
0.040859126 -0.029858589 0.65850151
0.040955007 -0.031503856 0.65894669
0.041051202 -0.033156723 0.65939325
0.041147988 -0.034817517 0.65984267
0.041245233 -0.036486149 0.66029412
0.04134294 -0.038162708 0.66074777
0.041440967 -0.039847076 0.66120291
0.041539606 -0.04153958 0.66166073
0.04163871 -0.04324019 0.66212094
0.039412431 0.029194415 0.64500785
0.039498325 0.027795136 0.64539194
0.039584596 0.026389748 0.64577758
0.039671119 0.024978131 0.64616442
0.039758146 0.023560405 0.64655346
0.039845552 0.02213642 0.64694428
0.039933223 0.020706147 0.64733618
0.040021405 0.019269556 0.64773047
0.040109977 0.017826647 0.64812642
0.040198818 0.0163773 0.64852363
0.040288176 0.014921576 0.64892316
0.040377934 0.013459325 0.64932442
0.040467963 0.011990517 0.64972693
0.040558524 0.010515183 0.65013182
0.040649496 0.0090332031 0.65053844
0.04074087 0.0075446069 0.65094703
0.040832527 0.0060492754 0.65135676
0.040924732 0.0045471787 0.65176898
0.04101735 0.003038317 0.65218306
0.041110259 0.0015226007 0.65259844
0.041203722 -0 0.65301627
0.041297611 -0.0015295446 0.65343606
0.041391794 -0.0030660629 0.65385711
0.041486543 -0.0046096146 0.65428078
0.041581728 -0.0061602294 0.65470624
0.041677348 -0.0077180564 0.65513384
0.041773271 -0.0092829466 0.65556264
0.041869778 -0.010855138 0.65599412
0.041966729 -0.012434572 0.65642756
0.04206413 -0.014021367 0.65686303
0.042161845 -0.015615523 0.65729988
0.042260159 -0.0172171 0.6577394
0.042358927 -0.018826187 0.65818095
0.04245802 -0.020442724 0.65862399
0.04255772 -0.022066981 0.65906972
0.042657889 -0.023698837 0.65951753
0.042758528 -0.025338382 0.65996748
0.042859502 -0.026985615 0.66041887
0.042961098 -0.028640717 0.66087312
0.043063175 -0.030303687 0.66132951
0.04316574 -0.031974614 0.66178799
0.043268647 -0.033653438 0.66224813
0.043372191 -0.035340309 0.66271108
0.043476235 -0.037035286 0.66317618
0.043580778 -0.038738459 0.6636436
0.043685678 -0.040449709 0.66411257
0.043791231 -0.042169333 0.66458446
0.043897297 -0.043897301 0.66505861
0.041437522 0.029598236 0.6474452
0.041529082 0.02818045 0.64783996
0.041621048 0.026756376 0.64823645
0.04171329 0.025325954 0.64863408
0.041806072 0.023889214 0.64903408
0.041899268 0.022446066 0.64943588
0.041992746 0.020996392 0.64983886
0.04208678 0.01954028 0.65024424
0.042181235 0.018077672 0.65065145
0.04227598 0.016608417 0.65105987
0.042371288 0.015132606 0.65147078
0.042467024 0.01365009 0.65188354
0.042563058 0.012160867 0.6522975
0.042659663 0.01066494 0.65271401
0.04275671 0.0091621578 0.65313238
0.042854059 0.0076525211 0.65355206
0.042951994 0.0061360002 0.65397429
0.043050379 0.004612565 0.65439844
0.043149073 0.0030820966 0.65482384
0.043248359 0.0015446246 0.65525192
0.043348104 2.9802322e-08 0.65568197
0.043448314 -0.0015516877 0.65611392
0.043548841 -0.0031106174 0.65654731
0.043649983 -0.0046767592 0.65698338
0.043751586 -0.0062502325 0.65742141
0.043853529 -0.0078309774 0.65786088
0.043956086 -0.009419173 0.65830302
0.044059128 -0.01101476 0.65874726
0.044162653 -0.012617886 0.65919352
0.044266522 -0.014228523 0.65964139
0.044371024 -0.015846789 0.66009188
0.044476021 -0.017472714 0.66054451
0.044581518 -0.019106358 0.6609993
0.044687364 -0.020747691 0.66145563
0.04479387 -0.022396922 0.66191477
0.044900879 -0.024054021 0.66237611
0.04500825 -0.025719017 0.662839
0.04511629 -0.02739203 0.66330481
0.045224849 -0.029073119 0.66377282
0.045333933 -0.030762285 0.66424298
0.04544339 -0.032459557 0.66471493
0.045553531 -0.034165144 0.66518974
0.045664206 -0.035879016 0.66566694
0.045775421 -0.037601262 0.6661464
0.045887023 -0.039331675 0.66662741
0.045999322 -0.041070819 0.66711164
0.046112183 -0.042818457 0.66759819
0.043616932 0.028576612 0.65035689
0.043714743 0.027133346 0.65076399
0.043813135 0.025683582 0.65117347
0.043911967 0.024227321 0.65158492
0.044011109 0.022764385 0.65199757
0.044110835 0.021294892 0.65241271
0.044211019 0.019818723 0.65282971
0.044311516 0.018335789 0.65324801
0.044412609 0.01684618 0.65366876
0.044514172 0.015349716 0.6540916
0.044616196 0.013846397 0.65451622
0.044718545 0.012336165 0.65494227
0.044821508 0.010818988 0.65537083
0.044924948 0.0092948079 0.65580142
0.045028724 0.0077635944 0.65623337
0.045133121 0.0062252581 0.65666795
0.045238007 0.0046797991 0.65710449
0.045343231 0.0031271279 0.65754247
0.045449097 0.0015671849 0.65798318
0.045555457 -0 0.65842587
0.045662165 -0.0015745461 0.65886998
0.045769528 -0.003156513 0.6593169
0.045877397 -0.0047459006 0.6597659
0.045985777 -0.0063428581 0.66021705
0.046094511 -0.0079473257 0.66066962
0.046203915 -0.0095594525 0.66112506
0.046313845 -0.011179179 0.66158259
0.046424139 -0.012806624 0.66204166
0.046535119 -0.014441907 0.6625036
0.046646632 -0.016085058 0.6629678
0.046758674 -0.017736048 0.66343415
0.046871103 -0.019394904 0.6639021
0.046984229 -0.021061897 0.66437304
0.04709791 -0.022736907 0.66484618
0.047212139 -0.024420083 0.66532171
0.047326755 -0.026111305 0.66579878
0.047442097 -0.027810872 0.66627884
0.047558006 -0.029518783 0.66676134
0.047674313 -0.03123489 0.66724545
0.047791358 -0.032959551 0.6677326
0.047908973 -0.034692734 0.66822219
0.04802718 -0.036434412 0.66871428
0.048145793 -0.038184583 0.66920793
0.048265167 -0.039943576 0.66970485
0.048385136 -0.041711301 0.67020422
0.048505701 -0.043487847 0.67070609
0.045764323 0.0289841 0.65294552
0.045868419 0.027521074 0.65336442
0.045973137 0.026051402 0.65378577
0.046078328 0.024575114 0.65420902
0.046183858 0.023091942 0.65463364
0.046290018 0.021602005 0.65506077
0.046396673 0.020105243 0.65548992
0.046503663 0.018601477 0.65592039
0.046611305 0.017090797 0.65635359
0.046719439 0.015573144 0.65678865
0.046828084 0.014048427 0.65722579
0.046937078 0.012516558 0.65766436
0.047046736 0.010977566 0.65810555
0.047156904 0.009431392 0.65854889
0.047267437 0.0078778863 0.6589936
0.047378644 0.0063171685 0.65944105
0.047490381 0.0047490299 0.65989065
0.047602478 0.0031735003 0.66034174
0.047715273 0.0015904903 0.66079557
0.0478286 -0 0.66125154
0.047942307 -0.0015980601 0.66170907
0.048056714 -0.0032037795 0.66216946
0.048171677 -0.004817158 0.66263199
0.048287019 -0.0064382553 0.66309607
0.048403084 -0.008067131 0.66356307
0.048519708 -0.0097039044 0.66403234
0.048636895 -0.011348605 0.66450387
0.04875448 -0.013001204 0.66497701
0.048872806 -0.014661849 0.66545308
0.048991702 -0.01633054 0.66593152
0.049111184 -0.018007457 0.66641229
0.049231082 -0.019692451 0.66689467
0.049351733 -0.021385729 0.66738021
0.049472976 -0.023087382 0.66786802
0.049594644 -0.02479732 0.66835761
0.049717091 -0.026515782 0.66885018
0.049840137 -0.028242737 0.66934538
0.049963798 -0.029978275 0.66984296
0.050087895 -0.031722337 0.67034227
0.050212793 -0.033475161 0.67084479
0.050338313 -0.035236806 0.67134988
0.050464455 -0.037007242 0.67185742
0.050591059 -0.038786501 0.67236686
0.050718471 -0.040574759 0.67287946
0.050846536 -0.042372108 0.6733948
0.050975066 -0.044178367 0.67391193
0.047973841 0.029403359 0.65560913
0.048084542 0.027920067 0.65604013
0.04819591 0.026430011 0.65647382
0.048307795 0.02493304 0.65690958
0.048420046 0.023429066 0.65734661
0.048532978 0.021918118 0.65778637
0.048646439 0.020400107 0.65822816
0.048760265 0.018874943 0.65867138
0.048874792 0.017342687 0.65911734
0.048989858 0.015803188 0.65956539
0.049105301 0.014256388 0.66001493
0.049221456 0.012702316 0.66046721
0.049338166 0.011140853 0.66092163
0.049455255 0.0095719993 0.66137761
0.049573071 0.0079956651 0.66183639
0.049691454 0.0064117908 0.66229737
0.049810231 0.0048203468 0.66275984
0.049929753 0.0032212734 0.66322523
0.050049841 0.001614511 0.66369283
0.050170511 -0 0.6641627
0.050291594 -0.0016222894 0.66463423
0.050413437 -0.0032524765 0.66510868
0.050535869 -0.0048905909 0.6655854
0.050658725 -0.006536603 0.66606379
0.050782356 -0.0081906915 0.66654515
0.050906587 -0.0098528862 0.6670289
0.051031251 -0.011523157 0.66751438
0.051156711 -0.013201714 0.66800284
0.051282782 -0.014888555 0.66849381
0.051409483 -0.016583711 0.66898715
0.051536623 -0.018287182 0.66948223
0.051664583 -0.019999206 0.66998047
0.051793177 -0.021719694 0.6704812
0.051922411 -0.023448795 0.67098445
0.05205211 -0.025186509 0.67148948
0.052182641 -0.026932985 0.67199779
0.052313831 -0.028688252 0.6725086
0.05244549 -0.030452222 0.67302126
0.052578006 -0.032225221 0.67353725
0.052711193 -0.034007221 0.67405593
0.052845057 -0.035798252 0.67457712
0.052979406 -0.037598252 0.67510027
0.053114641 -0.039407611 0.67562681
0.053250562 -0.041226238 0.67615604
0.05338718 -0.043054163 0.67668808
0.050248049 0.029834807 0.65835023
0.050365869 0.028330803 0.6587947
0.050484244 0.026819766 0.6592412
0.050603006 0.025301516 0.65968919
0.050722502 0.023776203 0.66013998
0.050842561 0.022243619 0.66059285
0.050963186 0.020703793 0.66104794
0.051084217 0.019156605 0.66150439
0.051205996 0.017602056 0.66196382
0.051328357 0.016040117 0.6624254
0.051451128 0.014470637 0.66288853
0.051574662 0.012893647 0.66335452
0.051698796 0.011309117 0.66382277
0.051823348 0.0097168684 0.66429263
0.051948681 0.0081169903 0.66476536
0.052074619 0.006509304 0.66524047
0.052200995 0.0048938692 0.66571712
0.052328162 0.0032704771 0.66619688
0.052455954 0.0016392469 0.66667891
0.05258419 2.9802322e-08 0.6671626
0.05271323 -0.0016473234 0.66764951
0.052842908 -0.0033026934 0.66813862
0.052973043 -0.0049661994 0.66862947
0.053104006 -0.0066379905 0.66912353
0.05323562 -0.0083180666 0.66962004
0.053367883 -0.010006458 0.67011893
0.053500619 -0.011703283 0.67061967
0.053634208 -0.013408542 0.6711235
0.053768463 -0.015122384 0.67162997
0.0539032 -0.016844749 0.67213821
0.054038811 -0.018575847 0.67264974
0.054175101 -0.020315647 0.67316389
0.054312084 -0.022064298 0.6736806
0.054449566 -0.023821682 0.67419922
0.054587938 -0.025588095 0.67472124
0.054727014 -0.027363509 0.67524588
0.054866806 -0.029147983 0.67577314
0.055007111 -0.030941516 0.67630243
0.055148341 -0.032744318 0.67683518
0.055290293 -0.034556419 0.67737067
0.055432774 -0.036377758 0.67790812
0.055576198 -0.038208634 0.67844915
0.055720367 -0.040048987 0.67899299
0.055865288 -0.041898936 0.67953962
0.056010753 -0.043758392 0.68008834
0.05271532 0.028753817 0.66163146
0.052841075 0.027221173 0.66209143
0.052967243 0.025681108 0.66255295
0.053094201 0.024133772 0.66301739
0.05322177 0.022578925 0.66348404
0.053349767 0.021016568 0.66395217
0.053478569 0.01944676 0.66442335
0.053607989 0.017869353 0.66489673
0.053737856 0.016284198 0.66537178
0.05386854 0.014691412 0.66584986
0.053999856 0.013090879 0.66633016
0.054131821 0.011482507 0.6668129
0.054264236 0.0098662376 0.66729724
0.054397497 0.0082420409 0.66778469
0.05453141 0.0066098571 0.66827452
0.054665793 0.0049695969 0.66876614
0.054801036 0.0033212602 0.6692608
0.054936945 0.0016647577 0.66975796
0.055073339 -0 0.67025685
0.055210602 -0.001673013 0.67075896
0.055348556 -0.00335446 0.67126358
0.055487003 -0.0050442815 0.67177004
0.05562634 -0.0067425668 0.67227972
0.055766381 -0.0084494352 0.67279196
0.055906929 -0.010164887 0.67330605
0.056048386 -0.01188904 0.67382348
0.056190565 -0.013621926 0.67434353
0.056333464 -0.015363693 0.67486632
0.056476887 -0.017114192 0.6753909
0.05662125 -0.018873721 0.67591894
0.05676635 -0.02064231 0.67644972
0.05691199 -0.02241987 0.67698252
0.057058591 -0.024206668 0.67751873
0.057205942 -0.026002705 0.67805767
0.057354063 -0.02780804 0.67859948
0.057502735 -0.029622614 0.67914331
0.057652395 -0.031446755 0.67969072
0.057802837 -0.033280432 0.68024111
0.057954066 -0.035123646 0.68079424
0.058105871 -0.036976457 0.68134952
0.058258694 -0.038839102 0.68190855
0.058412317 -0.040711612 0.6824705
0.058566753 -0.042593986 0.68303543
0.055135999 0.029189676 0.66455424
0.055269524 0.02763477 0.66502827
0.055403505 0.026072204 0.66550398
0.055538327 0.024502218 0.6659826
0.055673808 0.022924513 0.66646367
0.055809759 0.021339059 0.66694629
0.055946574 0.019745886 0.66743201
0.056084055 0.018144846 0.66792011
0.056222018 0.016535878 0.66840994
0.056360856 0.014919043 0.66890287
0.05650039 0.01329422 0.66939825
0.056640409 0.011661261 0.66989541
0.056781325 0.010020226 0.67039573
0.056922954 0.0083710551 0.6708985
0.057065073 0.006713599 0.67140305
0.057208121 0.0050477982 0.67191094
0.05735188 0.0033736527 0.67242134
0.05749616 0.0016910732 0.67293358
0.057641372 2.9802322e-08 0.6734491
0.057787325 -0.0016995966 0.67396724
0.057934016 -0.003407836 0.67448807
0.058081243 -0.0051248074 0.67501074
0.058229428 -0.0068505108 0.67553687
0.058378376 -0.0085850358 0.67606568
0.058527876 -0.010328472 0.67659646
0.058678359 -0.012080848 0.6771307
0.058829609 -0.013842255 0.67766768
0.05898143 -0.015612721 0.67820674
0.059134252 -0.017392457 0.67874932
0.059287868 -0.019181341 0.67929471
0.059442289 -0.020979613 0.67984289
0.059597295 -0.022787213 0.68039322
0.059753329 -0.024604321 0.68094718
0.059910186 -0.026430964 0.68150401
0.060067866 -0.028267205 0.68206388
0.06022615 -0.030113101 0.68262589
0.060385503 -0.031968802 0.68319166
0.060545698 -0.033834338 0.6837604
0.060706515 -0.035709709 0.6843313
0.060868423 -0.037595212 0.68490613
0.061031196 -0.039490759 0.68548405
0.061194841 -0.041396499 0.68606508
0.061359134 -0.043312311 0.68664831
0.057631187 0.029638886 0.66756696
0.057772707 0.028061032 0.66805506
0.057915125 0.026475489 0.6685462
0.058058247 0.024882078 0.66903985
0.058201868 0.02328077 0.66953516
0.058346413 0.021671504 0.67003369
0.058491677 0.020054311 0.67053473
0.058637664 0.018428981 0.67103815
0.058784172 0.016795486 0.67154348
0.058931626 0.015153855 0.67205203
0.059079822 0.013503969 0.67256314
0.059228551 0.011845708 0.67307609
0.059378248 0.010179132 0.67359239
0.059528701 0.0085040927 0.67411131
0.059679706 0.0068205595 0.67463201
0.05983169 0.005128473 0.67515624
0.059984453 0.0034276843 0.67568314
0.060137779 0.0017182231 0.67621189
0.06029211 -0 0.67674416
0.060447238 -0.0017270446 0.67727911
0.060602937 -0.0034630299 0.67781615
0.060759671 -0.0052079856 0.67835677
0.060917217 -0.0069619715 0.67890006
0.061075356 -0.0087250471 0.67944551
0.061234541 -0.010497361 0.67999452
0.061394561 -0.012278914 0.6805464
0.061555419 -0.014069825 0.68110114
0.061716892 -0.015870064 0.68165809
0.061879449 -0.01767984 0.68221867
0.062042858 -0.019499183 0.68278229
0.062206902 -0.021328092 0.68334806
0.062372051 -0.023166776 0.68391764
0.06253808 -0.025015235 0.68449026
0.062704995 -0.026873559 0.68506593
0.062872559 -0.028741747 0.68564385
0.06304127 -0.030620039 0.68622565
0.063210882 -0.032508463 0.68681067
0.063381419 -0.034407049 0.68739879
0.063552625 -0.036315769 0.68798923
0.06372501 -0.038234979 0.68858379
0.063898325 -0.040164649 0.68918157
0.064072341 -0.042104691 0.68978173
0.064247556 -0.044055462 0.690386
0.060354538 0.028500736 0.67117739
0.060505658 0.02689141 0.67168409
0.060657535 0.025274009 0.67219335
0.060809955 0.023648351 0.67270446
0.060963366 0.022014529 0.67321885
0.061117556 0.02037251 0.6737358
0.061272305 0.018722117 0.67425472
0.061428063 0.017063379 0.67477697
0.061584607 0.015396148 0.67530191
0.061741732 0.013720393 0.67582875
0.061899889 0.012036085 0.67635906
0.062058859 0.010343164 0.6768921
0.062218413 0.0086414218 0.67742711
0.062379025 0.0069310367 0.67796564
0.062540464 0.0052117407 0.67850691
0.062702738 0.0034834743 0.6790511
0.06286563 0.0017462969 0.67959726
0.063029602 2.9802322e-08 0.68014705
0.063194431 -0.0017553866 0.68069983
0.063359894 -0.0035200119 0.68125457
0.063526459 -0.0052938461 0.68181306
0.063693903 -0.0070771277 0.68237448
0.063861988 -0.0088697076 0.6829381
0.064031206 -0.010671854 0.68350554
0.064201318 -0.012483627 0.68407595
0.0643721 -0.014304936 0.68464863
0.064544037 -0.01613602 0.68522507
0.064716898 -0.01797694 0.68580472
0.064890429 -0.019827634 0.68638659
0.065065153 -0.021688372 0.68697238
0.065240815 -0.023559183 0.68756145
0.065417424 -0.025440127 0.68815362
0.065594748 -0.027331144 0.68874818
0.065773286 -0.029232562 0.68934685
0.0659528 -0.031144381 0.6899488
0.066133291 -0.03306663 0.69055396
0.066314526 -0.034999311 0.69116163
0.066497006 -0.03694275 0.69177353
0.066680498 -0.038896948 0.69238883
0.066865005 -0.040861934 0.69300747
0.067050271 -0.042837679 0.69362867
0.063018568 0.028954506 0.67439914
0.063178882 0.027320594 0.67492205
0.063340008 0.025678396 0.67544776
0.063501723 0.024027705 0.67597532
0.063664503 0.02236864 0.6765064
0.063828111 0.020701021 0.67704022
0.063992344 0.01902476 0.67757601
0.06415765 0.017339915 0.67811525
0.064323813 0.015646309 0.67865735
0.064490594 0.01394394 0.67920148
0.064658493 0.012232691 0.67974925
0.064827263 0.010512531 0.68029988
0.064996675 0.0087833405 0.68085259
0.065167218 0.0070450902 0.681409
0.065338656 0.0052977204 0.68196827
0.065510757 0.0035411417 0.68252969
0.065684013 0.0017752647 0.68309498
0.065858185 -0 0.68366319
0.066033036 -0.0017846823 0.68423367
0.066209063 -0.0035788417 0.6848079
0.066386044 -0.0053826272 0.68538535
0.066563964 -0.0071960986 0.68596578
0.066742592 -0.0090192556 0.68654853
0.066922434 -0.010852277 0.68713522
0.067103237 -0.012695223 0.68772513
0.06728477 -0.014548063 0.68831742
0.067467555 -0.016411006 0.6889137
0.067651324 -0.018284142 0.68951321
0.067835838 -0.02016741 0.69011521
0.068021633 -0.02206105 0.69072133
0.068208441 -0.02396515 0.69133079
0.068396278 -0.025879651 0.69194359
0.068584889 -0.027804673 0.69255894
0.068774804 -0.029740453 0.69317853
0.068965778 -0.031686932 0.69380152
0.069157548 -0.03364417 0.69442713
0.06935066 -0.035612494 0.69505727
0.069544844 -0.037591785 0.69569075
0.069740124 -0.039582223 0.69632787
0.069936231 -0.041583717 0.6969676
0.070133716 -0.043596655 0.69761193
0.065768801 0.029422909 0.67772508
0.065938823 0.027763724 0.67826515
0.066109471 0.026095867 0.67880726
0.066281259 0.024419397 0.679353
0.066453941 0.022734225 0.67990148
0.066627517 0.021040261 0.68045294
0.066801764 0.019337356 0.68100637
0.066977173 0.01762554 0.68156362
0.067153506 0.015904784 0.68212372
0.067330509 0.014174879 0.68268597
0.067508705 0.012435824 0.68325204
0.067687854 0.01068753 0.68382114
0.067867696 0.0089299977 0.68439239
0.068048753 0.0071630478 0.68496758
0.068230778 0.0053866506 0.6855458
0.068413518 0.0036007166 0.68612629
0.068597503 0.0018051863 0.68671072
0.068782479 -0 0.6872983
0.068968192 -0.0018149614 0.68788826
0.069155172 -0.0036397576 0.68848222
0.069343179 -0.0054744482 0.68907946
0.069531932 -0.0073191524 0.68967903
0.069721997 -0.0091739297 0.69028282
0.069913089 -0.011038899 0.69088984
0.07010524 -0.012914151 0.69150019
0.070298173 -0.014799625 0.69211304
0.070492446 -0.016695589 0.69273025
0.070687801 -0.018602073 0.69335079
0.07088396 -0.020519048 0.6939739
0.071081497 -0.022446752 0.69460136
0.071280129 -0.024385303 0.69523239
0.071479589 -0.026334584 0.69586599
0.071680464 -0.028294891 0.69650406
0.071882464 -0.030266315 0.69714576
0.072085612 -0.032248825 0.69779104
0.072289608 -0.034242421 0.698439
0.072495066 -0.036247522 0.69909173
0.072701693 -0.038264066 0.6997481
0.072909504 -0.040292084 0.70040822
0.073118202 -0.042331576 0.70107114
0.068609476 0.02990669 0.68116045
0.068789758 0.028221428 0.68171847
0.06897074 0.026527226 0.68227863
0.069152929 0.024824142 0.68284249
0.069336079 0.023112029 0.68340939
0.069519952 0.021390736 0.6839785
0.069705054 0.019660413 0.68455142
0.069891155 0.017920792 0.68512738
0.070077978 0.016171813 0.68570566
0.070266075 0.014413565 0.68628788
0.070455179 0.012645781 0.6868732
0.070645042 0.01086846 0.68746078
0.070836194 0.0090815723 0.68805242
0.071028389 0.0072849393 0.68864733
0.071221627 0.0054785907 0.68924546
0.07141564 0.003662318 0.68984592
0.071611002 0.0018361807 0.69045061
0.071807422 -0 0.69105852
0.072004646 -0.0018462539 0.69166899
0.072203249 -0.0037027299 0.69228363
0.072402939 -0.005569458 0.69290173
0.072603457 -0.0074464679 0.69352233
0.072805367 -0.0093340278 0.69414735
0.073008411 -0.011232048 0.69477576
0.073212296 -0.013140678 0.69540685
0.073417619 -0.015060037 0.69604236
0.073624097 -0.016990155 0.69668138
0.073831439 -0.01893115 0.6973232
0.074040256 -0.020883143 0.69796944
0.074250259 -0.022846222 0.69861948
0.074461147 -0.024820387 0.69927227
0.074673541 -0.026805878 0.69992959
0.074887156 -0.028802723 0.70059079
0.075101994 -0.030811071 0.70125574
0.075317763 -0.032830805 0.70192349
0.075535081 -0.034862339 0.70259613
0.075753652 -0.036905617 0.70327264
0.075973496 -0.038960755 0.70395315
0.076194309 -0.041027695 0.70463657
0.076416723 -0.043106824 0.70532501
0.071736284 0.02869451 0.68528748
0.071928181 0.026973099 0.68586659
0.072121389 0.025242478 0.68644965
0.072315633 0.023502588 0.6870358
0.072510652 0.021753222 0.68762439
0.072707005 0.019994438 0.68821692
0.072904415 0.018226117 0.68881267
0.073102623 0.01644811 0.68941087
0.073302202 0.014660448 0.69001305
0.073502868 0.01286301 0.69061863
0.073704354 0.011055648 0.69122672
0.073907234 0.0092384219 0.69183892
0.074111231 0.0074111223 0.69245458
0.074316062 0.0055737197 0.69307268
0.074522324 0.0037261248 0.69369513
0.074729741 0.001868248 0.69432104
0.074938014 -0 0.69494963
0.075147748 -0.0018787086 0.69558251
0.075358659 -0.0037679076 0.69621903
0.075570762 -0.0056678057 0.69685906
0.075783759 -0.007578373 0.6975019
0.075998262 -0.0094997883 0.6981492
0.076213986 -0.011432111 0.69880021
0.076430626 -0.013375372 0.69945395
0.076648809 -0.015329778 0.70011234
0.076868244 -0.017295331 0.70077455
0.077088624 -0.019272178 0.70143962
0.077310592 -0.021260381 0.70210946
0.077533841 -0.023260176 0.70278323
0.077758059 -0.025271386 0.7034598
0.077983901 -0.027294338 0.70414138
0.078211062 -0.029329151 0.70482689
0.078439549 -0.031375825 0.7055164
0.078669041 -0.033434331 0.70620894
0.078900211 -0.035505086 0.70690656
0.079132751 -0.03758803 0.70760828
0.079366326 -0.039683163 0.70831317
0.079601623 -0.041790873 0.70902324
0.079838321 -0.04391107 0.7097376
0.074782982 0.029183596 0.68897736
0.074986741 0.02743417 0.68957734
0.075191617 0.025675178 0.69018048
0.07539732 0.023906469 0.69078612
0.075604446 0.022128165 0.69139588
0.075812712 0.020340025 0.69200909
0.076022133 0.018541992 0.69262564
0.076232404 0.016734004 0.69324476
0.076444156 0.014915913 0.69386816
0.076657079 0.013087809 0.69449502
0.076870888 0.011249393 0.69512451
0.077086203 0.0094007552 0.69575846
0.077302724 0.0075417459 0.69639599
0.077520154 0.0056722164 0.69703609
0.077739127 0.0037921667 0.69768083
0.077959336 0.0019014776 0.69832909
0.078180484 -0 0.69898027
0.078403212 -0.001912266 0.69963598
0.078627199 -0.0038354993 0.70029545
0.078852162 -0.00576967 0.70095772
0.079078734 -0.0077149868 0.70162481
0.07930661 -0.0096715391 0.70229566
0.079535477 -0.011639357 0.70296955
0.079765998 -0.013618588 0.70364821
0.07999786 -0.015609354 0.70433086
0.080231071 -0.017611682 0.70501745
0.080465317 -0.019625664 0.70570707
0.080701262 -0.021651566 0.70640182
0.0809386 -0.02368933 0.70710051
0.081177004 -0.025739044 0.70780241
0.081417151 -0.027800977 0.70850945
0.081658721 -0.0298751 0.70922071
0.081901386 -0.03196153 0.70993519
0.082145847 -0.034060448 0.71065485
0.082391769 -0.036172032 0.71137893
0.082639173 -0.038296193 0.7121073
0.082887709 -0.040433019 0.71283901
0.083138101 -0.042582929 0.7135762
0.077935651 0.029689789 0.69279617
0.078151703 0.027911305 0.69341707
0.078368939 0.026122987 0.69404143
