# .PCD v0.7 - Point Cloud Data file format
VERSION 0.7
FIELDS x y z
SIZE 4 4 4
TYPE F F F
COUNT 1 1 1
WIDTH 488
HEIGHT 1
VIEWPOINT 0 0 0 1 0 0 0
POINTS 488
DATA ascii
-0.06070146 -0.026978403 0.63163334
-0.066081867 -0.024275005 0.63159573
-0.062148482 -0.024318993 0.63189077
-0.050262172 -0.024451882 0.63278198
-0.059648804 -0.021690458 0.63244611
-0.055683114 -0.021729976 0.63274425
-0.04627119 -0.024496526 0.63308144
-0.03958711 -0.0245713 0.63358295
-0.047866452 -0.017778933 0.63388956
-0.059911594 -0.016339511 0.63316703
-0.059911594 -0.016339511 0.63316703
-0.064020641 -0.01362142 0.63322914
-0.061506804 -0.010934532 0.63379359
-0.030160457 -0.02467671 0.63428998
-0.02880716 -0.02469188 0.63439131
-0.042452887 -0.019172251 0.63411111
-0.035715044 -0.01923117 0.63461906
-0.034362465 -0.019242972 0.6347208
-0.034362465 -0.019242972 0.6347208
-0.050764315 -0.012348086 0.63442022
-0.048132792 -0.011001766 0.63480818
-0.061711531 -0.0068568289 0.63434279
-0.055023316 -0.006877929 0.63485169
-0.06458997 -0.0027485192 0.63469136
-0.06458997 -0.0027485192 0.63469136
-0.017900972 -0.026162982 0.63502252
-0.016589621 -0.022119462 0.63568282
-0.012465335 -0.02216059 0.63599288
-0.022089573 -0.020708919 0.63545704
-0.024931403 -0.015235841 0.63599783
-0.040118694 -0.0083004236 0.63579565
-0.046943087 -0.00690341 0.63546681
-0.049754161 -0.0041461885 0.63563353
-0.057961255 -0.0013800263 0.63538849
-0.059370935 -0 0.6354717
-0.059370935 -0 0.6354717
-0.055331275 -0 0.63578099
-0.0041659176 -0.023606867 0.6364277
0.0013920958 -0.023665607 0.63684493
-0.0097072674 -0.022188008 0.63619995
-0.015267809 -0.018043756 0.63634849
-0.011124576 -0.018077433 0.63666105
-0.034632023 -0.0096969604 0.63602233
-0.047100931 -0.0027706623 0.63602722
-0.038977537 -0.0013920665 0.63683999
-0.044485085 -0 0.6366111
-0.059704293 0.0069423616 0.63640755
-0.066814497 0.013919681 0.63682961
0.011185502 -0.02376917 0.63758028
0.0097922683 -0.022382319 0.63766575
0.0013968156 -0.01955542 0.63741469
-0.0083726775 -0.015349895 0.63724941
0.0014015675 -0.015417218 0.63798833
-0.0083821323 -0.013970226 0.63743961
-0.0083821323 -0.013970226 0.63743961
-0.0041989363 -0.013996452 0.63775629
-0.015388762 -0.0083938837 0.63767576
-0.033454847 -0.0027879179 0.63706899
-0.023801021 -0.002800107 0.6378063
-0.030774789 -0 0.63766074
-0.030809628 0.0014004409 0.63785183
-0.047526993 0.0083871186 0.63753986
-0.054407783 0.009765476 0.63720417
-0.06133027 0.012544841 0.63705909
-0.0504307 0.012607694 0.63790196
-0.0504307 0.012607694 0.63790196
-0.061608121 0.018202424 0.63782132
-0.06726905 0.022423029 0.63797271
0.022457918 -0.025265127 0.63823599
0.022457918 -0.025265127 0.63823599
0.019715503 -0.019715488 0.63879496
0.012663232 -0.016884297 0.63864714
0.0056168316 -0.015446305 0.63830698
0.0056168316 -0.015446305 0.63830698
0.011261941 -0.015485168 0.63873369
-0.0014061843 -0.0098433197 0.63854563
-0.0014061843 -0.0098433197 0.63854563
-0.012678407 -0.0014086664 0.63885069
-0.015493984 -0 0.63883042
-0.035064247 0.0056102574 0.63810933
-0.028171636 0.0070429444 0.63883495
-0.029595302 0.0084557831 0.63892174
-0.035224099 0.011271715 0.63888109
-0.040850088 0.014086276 0.63884002
-0.054716468 0.016835868 0.63815957
-0.046526466 0.018328577 0.63899326
-0.0535293 0.021129996 0.63884515
-0.066058621 0.025299042 0.63846326
-0.063399412 0.026768655 0.63887048
-0.068939745 0.028138667 0.63863605
0.043925807 -0.025505304 0.63984644
0.031067235 -0.022594362 0.63926536
0.024040408 -0.016969711 0.6395061
0.016935542 -0.015524238 0.63916254
0.012692142 -0.014102399 0.63903493
0.022689819 -0.012763053 0.63998562
0.0084937969 -0.0070781708 0.63968611
-0.0084682759 -0.0014113486 0.63917267
-0.0084682759 -0.0014113486 0.63917267
-0.0070856358 0.0028342605 0.63986647
-0.012751047 0.0056671202 0.63982499
-0.033913825 0.014130741 0.63937747
-0.047960829 0.019748569 0.63908011
-0.048125602 0.024062783 0.63966513
-0.063471884 0.028209716 0.63906491
-0.066436425 0.032511413 0.63943362
0.038380638 -0.018479586 0.64039499
0.031209836 -0.017023534 0.64004779
0.028369086 -0.015603006 0.64002675
0.029944023 -0.0099813342 0.64092618
0.025676377 -0.0071323216 0.64099371
0.005674839 -0.0028374195 0.64005756
0.0071062217 -0.001421243 0.64036345
0 -0 0.64001644
-0.0085463319 0.0099707246 0.64074302
-0.019885937 0.012783825 0.64026445
-0.022724053 0.014202535 0.64024389
-0.02702648 0.018491805 0.64050853
-0.042571519 0.024123877 0.64009869
-0.051302735 0.034201801 0.64082599
-0.049909417 0.034223646 0.64093548
-0.052755013 0.035645306 0.64091474
-0.059900519 0.039933652 0.640962
-0.071111403 0.042666852 0.64048219
0.06293679 -0.02431646 0.6414665
0.051468499 -0.018585831 0.6413818
0.051468499 -0.018585831 0.6413818
0.047198165 -0.015732676 0.64145029
0.047252797 -0.014319003 0.64165008
0.014307237 0.00286147 0.64150774
0.014307237 0.00286147 0.64150774
0.0057076016 0.0042807162 0.64104623
0.0071390509 0.0042834282 0.64115608
-0.022828961 0.019975364 0.64103526
-0.027245946 0.028679967 0.64190292
-0.045771934 0.03575933 0.64146543
-0.041560572 0.035828084 0.64179736
-0.05014091 0.040112704 0.64173394
-0.06281776 0.042830288 0.64113992
-0.06427864 0.044280857 0.64122897
-0.061500262 0.044337392 0.64144915
-0.057319533 0.044422626 0.64178115
-0.057386011 0.045908809 0.64198172
0.067513622 -0.0215469 0.64220017
0.063155867 -0.02009505 0.64206743
0.066111527 -0.020120859 0.64229035
0.067592114 -0.020133823 0.64240175
0.06175258 -0.018669397 0.6421575
0.053116407 -0.014355779 0.64209384
0.056059603 -0.014374226 0.6423167
0.050297506 -0.011496544 0.64227402
0.047472738 -0.0086314082 0.64245456
0.034486573 -0.0028738976 0.64225817
0.040385012 -0.0014423132 0.6429078
0.040385012 -0.0014423132 0.6429078
0.03456698 2.9802322e-08 0.64266264
0.028798709 0.002879858 0.64261967
0.011497622 0.01006043 0.64228982
-0.005744583 0.018669903 0.64216226
-0.0014405939 0.020168304 0.64269918
-0.012913852 0.021523118 0.64200854
-0.017265441 0.027336925 0.64248109
-0.017265441 0.027336925 0.64248109
-0.025828488 0.028698325 0.64201385
-0.020140501 0.028772146 0.64245939
-0.027277566 0.030148894 0.64210385
-0.018757626 0.031743705 0.64297688
-0.033050537 0.034487486 0.64226294
-0.03167076 0.035989553 0.64257681
-0.040293392 0.040293366 0.6425128
-0.045984752 0.04167369 0.64226824
-0.041802838 0.043244332 0.64280581
0.065010436 -0.013002068 0.64319199
0.059217073 -0.010110199 0.64314878
0.056453526 -0.0057901144 0.64353597
0.062405158 -0.0058051348 0.64398944
0.047639079 -0.0043308139 0.64306313
0.05059167 -0.0043364167 0.64328855
0.055099335 -0.0028999746 0.6438325
0.040432274 -0 0.64311153
0.043427121 0.0014475882 0.64354134
0.046436772 0.0029022694 0.64397335
0.031793572 0.0057806671 0.64325064
0.033299226 0.0072389543 0.6435681
0.024574598 0.010118961 0.64329922
0.018787686 0.013006896 0.64325595
0.0028867673 0.020207375 0.64303595
-0.0043313545 0.024544358 0.64308441
0 0.026069045 0.64362705
0 0.026069045 0.64362705
-0.0043465863 0.028977245 0.64369726
-0.0043465863 0.028977245 0.64369726
-0.011566959 0.030363262 0.64333606
-0.01158053 0.031846464 0.6435408
-0.024551842 0.036105633 0.64313763
-0.014507837 0.036269605 0.64392924
-0.03032124 0.038984478 0.64309454
-0.037639029 0.046324968 0.64355153
-0.03621478 0.04635492 0.64366454
0.062699579 2.9802322e-08 0.64481592
0.053803876 0.0014541447 0.64433664
0.053803876 0.0014541447 0.64433664
0.058280051 0.0014569759 0.64467978
0.058280051 0.0014569759 0.64467978
0.048031729 0.0058220327 0.64449936
0.052500769 0.0058334172 0.6448431
0.037760139 0.0087138712 0.64411378
0.034933243 0.013099968 0.64450479
0.027630633 0.015996665 0.64434689
0.030614963 0.017494291 0.64478284
0.020365117 0.020365119 0.64439607
-0.0029064124 0.031970531 0.64422166
-0.024754291 0.046596318 0.64457512
0.071559422 -0.0029208064 0.64508957
0.065779231 0.0014618039 0.64525419
0.060130462 0.0087995827 0.64583802
0.042398926 0.014620304 0.64528704
0.049872026 0.014668226 0.64586544
0.042549919 0.019074082 0.64591551
0.03220775 0.021959811 0.64552319
0.03220775 0.021959811 0.64552319
0.026376473 0.026376486 0.64568865
0.01606431 0.027747422 0.64508903
0.01606431 0.027747422 0.64508903
0.020485623 0.027801931 0.64543504
-0.0043825433 0.039442897 0.64514405
0.0014646739 0.039546192 0.64560592
0.0014646739 0.039546192 0.64560592
-0.0029340126 0.044010192 0.64588749
-0.010247603 0.045382231 0.64551771
0.061710823 0.010285139 0.64616495
0.066328272 0.011791706 0.64672697
0.051433682 0.016164839 0.64619255
0.044150952 0.022075474 0.64645386
0.032322608 0.026445776 0.64615333
0.038300063 0.026515454 0.64662051
0.022041567 0.032327622 0.64618099
0.014698536 0.036746323 0.64623117
0.010280917 0.038186282 0.64609218
0.020656787 0.038362622 0.64691091
0.016236974 0.041330487 0.64698374
0.010317698 0.042744756 0.64672649
0.069533631 0.014794379 0.64738822
0.069533631 0.014794379 0.64738822
0.062005594 0.016239554 0.64701211
0.068254195 0.019289225 0.64791304
0.063829094 0.022265971 0.64798677
0.056287758 0.023700148 0.64760762
0.042906415 0.029590636 0.64739937
0.04598137 0.031148672 0.64785063
0.044521995 0.032649487 0.64794677
0.038529705 0.034083962 0.64768672
0.026597178 0.036940545 0.64716876
0.022226514 0.042971283 0.64766932
0.071402252 0.020825654 0.64836693
0.069952354 0.022325248 0.64846361
0.056490861 0.028245479 0.64825279
0.062603675 0.02832076 0.64873111
0.051990002 0.029708564 0.64811122
0.0341799 0.040124238 0.64819014
0.0341799 0.040124238 0.64819014
0.029698212 0.041577488 0.64804864
0.037291266 0.043257892 0.64886224
0.035818949 0.044773698 0.64895952
0.070205979 0.026887357 0.64911503
0.069167428 0.036087394 0.65030944
0.069167428 0.036087394 0.65030944
0.063059971 0.037535697 0.65004247
0.061742153 0.042165399 0.65058309
0.052686404 0.046665132 0.65051299
0.06950558 0.042307764 0.6511969
-0.044987231 -0.02317524 0.63336289
-0.053148173 -0.019078821 0.63330543
-0.049149714 -0.019113779 0.63360679
-0.049149714 -0.019113779 0.63360679
-0.058844991 -0.010947883 0.63399523
-0.02880716 -0.02469188 0.63439131
-0.026773896 -0.024714544 0.63454366
-0.019287581 -0.024798304 0.63510537
-0.024820169 -0.020683467 0.63525188
-0.033008225 -0.019254774 0.63482267
-0.043267995 -0.015109509 0.63461155
-0.044921383 -0.012834351 0.63480008
-0.035273992 -0.011066407 0.63578343
-0.037356261 -0.0096849203 0.6358152
-0.06725575 -0.0027451217 0.63448751
-0.051219057 -0.0013842881 0.63590378
-0.062865876 0.0027633309 0.63558674
-0.0027727727 -0.026341349 0.63615578
-0.0048530707 -0.024959758 0.63618791
0.00278279 -0.025045127 0.63676035
-0.022874793 -0.015249997 0.6361531
-0.015328052 -0.013237476 0.6370095
-0.031287152 -0.0069527328 0.63665831
-0.020991549 -0.0048976541 0.63773108
-0.038933612 -0.0027809739 0.63665068
-0.045191295 0.00069565326 0.6366533
-0.039176043 0.0048974156 0.63769579
-0.037334558 0.0046670935 0.63780475
-0.050884359 0.006970495 0.63708663
-0.057094447 0.0090519488 0.63689947
-0.055150121 0.011169702 0.63734174
-0.064859971 0.015343294 0.63717651
-0.062897608 0.016772717 0.63752437
-0.060926862 0.018208116 0.63787419
0.026810605 -0.021166235 0.63913709
0.012663232 -0.016884297 0.63864714
0.022650845 -0.014864206 0.63969153
0.00070237735 -0.012638822 0.63831961
0.0028112726 -0.012650728 0.63847947
-0.0014118036 -0.0049409121 0.63922393
-0.0070532952 -0.0028213263 0.63908571
-0.0028363976 0.0014182031 0.63999587
-0.0028363976 0.0014182031 0.63999587
-0.014827942 0.0028243959 0.63927251
-0.035064247 0.0056102574 0.63810933
-0.025386481 0.0070518255 0.63904959
-0.019093804 0.0070718825 0.639534
-0.029276367 0.014638464 0.63980275
-0.029276367 0.014638464 0.63980275
-0.034728244 0.018427342 0.63991016
-0.046632901 0.021196783 0.6393826
-0.046632901 0.021196783 0.6393826
-0.058938563 0.029234191 0.63955355
-0.055249505 0.029041827 0.63980937
-0.053144358 0.028343812 0.63987392
-0.062929742 0.031111434 0.63950789
-0.070785664 0.03680855 0.63969582
-0.068727046 0.036843508 0.63985801
0.057135195 -0.02285409 0.64122486
0.060909189 -0.020780295 0.64180088
0.036978152 -0.017066836 0.64048326
0.026995523 -0.012787342 0.6403119
0.047307696 -0.012902081 0.64185089
0.02918832 -0.011390463 0.6406731
0.021319313 -0.00923796 0.6403687
0.014932561 -0.0049770176 0.64047003
0.025042105 -0.0028619617 0.64153683
0.02510025 1.4901161e-08 0.64193785
0.0071308203 0.0028523207 0.64095736
0.012890646 0.0050134361 0.64169729
-0.0071100919 0.0071100593 0.64045697
-0.0014272883 0.0085637569 0.64109302
0.0071721841 0.010041058 0.64195597
-0.0071429568 0.012857348 0.64125031
-0.022776419 0.017082304 0.64063895
-0.017125908 0.017125875 0.64107746
-0.010746712 0.018628046 0.64177352
-0.0086058378 0.018646002 0.64194024
-0.032708295 0.021331519 0.64046675
-0.024973888 0.021406397 0.64106941
-0.039040789 0.022714794 0.64017379
-0.03134222 0.022794306 0.64077413
-0.025046187 0.025046833 0.64156812
-0.04823599 0.026955456 0.64005697
-0.041273434 0.027041227 0.64060217
-0.046927892 0.029152602 0.64046162
-0.030781349 0.028634027 0.64162576
-0.038609434 0.03145957 0.64141786
-0.040762257 0.032896057 0.64145207
-0.052877061 0.038585961 0.6413129
-0.064822063 0.041315332 0.64077652
-0.05087015 0.04084 0.64177871
-0.071111403 0.042666852 0.64048219
-0.063036196 0.047277153 0.64173913
0.053116407 -0.014355779 0.64209384
0.061192945 -0.015117772 0.64260679
0.065124646 -0.010853693 0.64349836
0.065124646 -0.010853693 0.64349836
0.046738677 -0.0086286217 0.64239883
0.059286471 -0.0086760819 0.64335316
0.038804546 -0.0050297976 0.64229012
0.055002563 -0.005065605 0.64352512
0.036849063 0.0028900951 0.64323735
0.018700244 0.0071924031 0.64244401
0.012928101 0.008618772 0.64219964
0.020902673 0.0086492896 0.64281428
0.0071805101 0.011488825 0.64215696
0.030937416 0.010634999 0.64385766
0.017361706 0.015191913 0.64344943
0.023195378 0.014497101 0.64379978
-0.0028726493 0.017235905 0.64218384
0.0072140531 0.017313719 0.64296681
0.010851465 0.018808797 0.64345205
0.014508773 0.020312279 0.64394045
-0.020093767 0.025834888 0.64205641
-0.018670462 0.025851399 0.64216751
0.0043533002 0.026119769 0.64396739
-0.012989261 0.02886501 0.64301997
-0.023028309 0.03094472 0.64253926
-0.023028309 0.03094472 0.64253926
-0.031173354 0.035010397 0.64247918
-0.028845478 0.036778405 0.64290196
-0.024638209 0.040580541 0.64375091
-0.034707248 0.043384075 0.64336812
-0.051017988 0.044551104 0.64228141
0.071432956 -0.0051018894 0.64477801
0.050889134 0.0029079318 0.64431447
0.045035698 0.0050851107 0.64416826
0.062959537 0.0051250458 0.64554572
0.045115158 0.0072766244 0.64447773
0.054806858 0.0073075593 0.64522398
0.039237898 0.0087195039 0.64422756
0.048977613 0.010965519 0.64528453
0.037153143 0.013112783 0.64467674
0.01894271 0.023314089 0.64469552
0.01090252 0.024711862 0.6442737
0.01682014 0.029252023 0.64535558
0.01682014 0.029252023 0.64535558
0.013180843 0.032952547 0.64558947
-0.002913266 0.034959167 0.64463532
-0.010924006 0.039327294 0.64462721
-0.0014662279 0.042520612 0.6457935
-0.0051353266 0.04548645 0.6459235
0.064966358 0.014765114 0.64703441
0.046988253 0.017620593 0.64605361
0.030851489 0.027179122 0.64614236
0.030906631 0.02943489 0.64645934
0.025028236 0.033126056 0.64652032
0.043009296 0.032627761 0.64782763
0.020607628 0.035327345 0.64648706
0.031054508 0.035490841 0.64730942
0.034788396 0.034788601 0.64749777
0.0088169007 0.03967607 0.64618647
0.016950503 0.039059751 0.64672393
0.0051472192 0.042646393 0.64631701
0.072762907 0.017819464 0.6480543
0.072762907 0.017819464 0.6480543
0.073202722 0.025396854 0.64913779
0.055000816 0.028987363 0.64824158
0.055000816 0.028987363 0.64824158
0.064943969 0.029113151 0.6490202
0.062755108 0.031377584 0.64916629
0.049249653 0.037310362 0.64895439
0.059207335 0.037472859 0.64973903
0.03880889 0.04328683 0.64898288
0.03880889 0.04328683 0.64898288
0.054030627 0.042023838 0.6499728
0.054030627 0.042023838 0.6499728
0.069336206 0.039190024 0.65075237
0.064880833 0.043002874 0.65093923
0.071108229 0.043119282 0.65143228
0.058794416 0.045226485 0.65078139
-0.033517323 -0.025308996 0.63394529
-0.054189764 -0.018062409 0.63336647
-0.058104306 -0.0018957891 0.63530588
0.025993256 -0.02599261 0.6384061
-0.013168313 -0.020792395 0.63612854
-0.013168313 -0.020792395 0.63612854
0.0017493677 -0.017836327 0.63767987
0.018028915 -0.013785241 0.63948715
-0.010186063 -0.0059704073 0.63840961
0.0099198297 -0.0066127977 0.6398598
-0.033816583 -0.0020914041 0.63713795
-0.041874342 0.013724836 0.63871181
-0.045966893 0.021923192 0.63953406
0.053751566 -0.024917234 0.64067996
0.041977257 -0.013931725 0.64130008
0.041977257 -0.013931725 0.64130008
0.05380705 -0.014264307 0.64215958
0.026004583 0.0015815765 0.64222604
0.0061742752 0.010118118 0.64189041
-0.025904609 0.015259188 0.64014661
-0.010172948 0.013923171 0.64116603
-0.026129369 0.02613114 0.64163536
-0.014035603 0.026274128 0.64258093
-0.0097355563 0.026324963 0.6429171
-0.053938787 0.030754983 0.64014697
-0.053938787 0.030754983 0.64014697
-0.018073454 0.033978961 0.6433391
-0.03403338 0.038176108 0.64269865
0.066175789 0.0018292498 0.64533544
0.054010741 0.0062048994 0.64501023
0.041866332 0.0098305102 0.64458269
0.025838114 0.018195834 0.64451444
0.025838114 0.018195834 0.64451444
0.049742986 0.017692933 0.64627475
0.049742986 0.017692933 0.64627475
0.013840004 0.025859699 0.64465755
0.044521995 0.032649487 0.64794677
0.0096902205 0.038026102 0.646025
0.021768399 0.038002513 0.64694631
-0.022217646 0.045893975 0.64467204
0.021263322 0.044999383 0.64787674
0.070550241 0.019308433 0.6480912
0.061931506 0.030220713 0.64894307
0.050209861 0.04234219 0.6497246
0.065818414 0.046148814 0.65144676
