# .PCD v0.7 - Point Cloud Data file format
VERSION 0.7
FIELDS x y z
SIZE 4 4 4
TYPE F F F
COUNT 1 1 1
WIDTH 538
HEIGHT 1
VIEWPOINT 0 0 0 1 0 0 0
POINTS 538
DATA ascii
0.029715754 0.013206989 0.60165632
0.029715754 0.019810498 0.60165632
0.026681015 -0.0033351183 0.60299921
0.026681015 0.011117101 0.60299927
0.027699346 0.011079758 0.60254836
0.028710922 0.015459746 0.60210085
0.025655737 -0.011154681 0.60345286
0.025655737 0.021193862 0.60345286
0.022537883 -0.0067613721 0.60483229
0.028155033 -0.0022523999 0.60474867
0.023584241 0.005615294 0.60436934
0.023584241 0.0078614056 0.6043694
0.023584241 0.010107547 0.60436934
0.022537883 0.019157231 0.60483229
0.023584241 0.025830388 0.60436934
0.02042363 -0.038577974 0.60576802
0.021484355 -0.032791898 0.6052984
0.021484355 -0.032791898 0.6052984
0.02042363 -0.029500782 0.60576802
0.02042363 -0.018154323 0.60576802
0.02042363 -0.014750391 0.60576802
0.02042363 -0.012481123 0.60576802
0.021484355 0.011307538 0.6052984
0.020423582 0.017019659 0.60576773
0.020423582 0.024962157 0.60576773
0.019355536 -0.03643392 0.60624051
0.018280042 -0.026277572 0.60671639
0.018280042 -0.02513507 0.60671639
0.018280042 0.0011425018 0.60671639
0.018280042 0.019422561 0.60671639
0.017197078 -0.044712409 0.6071955
0.017197078 -0.037833571 0.6071955
0.017197078 -0.034394175 0.60719556
0.017197078 -0.029808253 0.6071955
0.017197078 -0.020636499 0.6071955
0.017197078 -0.019490004 0.6071955
0.016106563 -0.016106546 0.607678
0.016106563 -0.016106546 0.607678
0.015008418 -0.047334254 0.60816383
0.013902595 -0.044024885 0.60865343
0.015008418 -0.034634829 0.60816383
0.013902595 -0.028963745 0.60865343
0.015008418 -0.027707845 0.60816383
0.015008418 -0.021935374 0.60816383
0.015008418 -0.0057724416 0.60816383
0.015008418 -0.0034634769 0.60816383
0.015008418 0.0092359483 0.60816383
0.015008418 0.013853967 0.60816383
0.015008418 0.018471926 0.60816383
0.015008418 0.020780921 0.60816383
0.013902563 0.024329484 0.60865307
0.012788945 -0.017439455 0.60914612
0.012788945 -0.017439455 0.60914612
0.012788945 -0.011626303 0.60914612
0.01166742 0.0011667609 0.60964239
0.01166742 0.0070004761 0.60964233
0.012788913 0.012788922 0.60914576
0.0094004078 -0.02585113 0.61064529
0.0094004078 -0.019975871 0.61064529
0.010537935 0.0023417771 0.61014205
0.034150016 0.01295343 0.61095142
0.0094004078 0.015275657 0.61064529
0.010537935 0.015221447 0.61014199
0.010537935 0.018734097 0.61014205
0.010537935 0.018734097 0.61014205
0.010537935 0.024588525 0.61014205
0.010537935 0.024588525 0.61014205
0.0094004078 0.02585113 0.61064535
0.0082547497 -0.031839758 0.61115217
0.0071008746 -0.027220011 0.61166269
0.0071008746 -0.0177522 0.61166269
0.0082547497 -0.010613203 0.61115217
0.0071008746 -0 0.61166269
0.0082547497 0.016509473 0.61115217
0.0082547497 0.02476424 0.61115217
0.0059387083 -0.041570961 0.61217725
0.0059387083 -0.039195448 0.61217719
0.0059386929 -0.0035632253 0.6121769
0.0059386929 0.0011877716 0.6121769
0.0059386929 0.015440613 0.61217684
0.0035890604 -0.034694225 0.61321676
0.0035890604 -0.0334979 0.61321676
0.0035890604 -0.021534353 0.61321676
0.0035890604 -0.021534353 0.61321676
0.0024014129 -0.019211322 0.61374223
0.0024014129 0.027616262 0.61374223
0 -0.024190187 0.61480469
0 -0.019352078 0.61480463
0.0012050911 -0.0096407235 0.61427152
0.0012050911 -0.0096407235 0.61427152
0 -0.0012094975 0.61480463
0.032527175 -0.0012047291 0.61422551
0 0.0072570741 0.61480463
0 0.025399685 0.61480469
-0.0024368854 -0.040208608 0.61588317
-0.0024368854 -0.03899014 0.61588317
-0.0012139573 -0.035204753 0.61534172
-0.0012139573 -0.014567494 0.61534178
-0.0024368793 0.0024368763 0.61588281
-0.0012139573 0.0097116828 0.61534172
-0.0012139573 0.026707083 0.61534172
0.025776112 -0.038050458 0.61696851
0.025776112 -0.038050458 0.61696851
-0.004910029 -0.03068763 0.61697733
-0.0036688745 -0.02690509 0.61642826
-0.0036688745 -0.02690509 0.61642826
-0.004910029 -0.01841265 0.61697739
-0.004910029 -0.004910022 0.61697733
-0.003668865 0.019567281 0.61642784
0.033371281 -0.0049439073 0.61799932
-0.0061604511 0.0024641752 0.61753058
-0.0061604511 0.028338075 0.61753058
-0.0086895181 -0.042206213 0.61864948
-0.0074202456 -0.037101209 0.61808789
-0.0086895181 -0.031033993 0.61864948
-0.0074202456 -0.027207613 0.61808801
-0.0086895181 -0.026068568 0.61864954
-0.0074202456 -0.021024019 0.61808795
-0.0074202456 -0.013603777 0.61808795
-0.0086895181 -0 0.61864948
-0.0086895181 0.021103144 0.61864954
-0.0074202456 0.023497432 0.61808795
-0.0086895181 0.029792637 0.61864954
-0.011256958 -0.016260028 0.61978579
-0.011256958 -0.016260028 0.61978579
-0.0099683767 -0.0087223053 0.61921525
-0.0099683767 -0.0037381053 0.61921531
-0.011256928 0.0012507439 0.61978543
-0.0099683767 0.0074762702 0.61921531
-0.0099683767 0.0074762702 0.61921531
-0.0099683767 0.026166975 0.61921531
-0.011256928 0.028767705 0.61978543
-0.012555318 -0.038921475 0.62036026
-0.013863597 -0.032768518 0.62093902
-0.013863597 -0.012603253 0.62093908
-0.013863597 0.0025206804 0.62093902
-0.012555285 0.025110573 0.62035984
-0.013863597 0.027727187 0.62093902
-0.013863597 0.034028828 0.62093902
-0.017849082 -0.033148289 0.62270236
-0.017849082 -0.028048575 0.62270236
-0.016510362 -0.017780334 0.62211001
-0.017849082 0.0012749135 0.62270236
-0.016510362 0.0063501596 0.62211001
-0.016510362 0.01270026 0.62211001
-0.016510362 0.015240341 0.62211007
-0.016510362 0.016510367 0.62211001
-0.017849082 0.020398974 0.62270236
-0.016510362 0.029210657 0.62211001
-0.019198189 -0.037116498 0.62329918
-0.020557856 -0.035976231 0.62390119
-0.020557856 -0.029551923 0.62390113
-0.019198189 -0.023037821 0.62329924
-0.020557856 -0.014133513 0.62390119
-0.019198189 -0.014078677 0.62329924
-0.019198189 -0.0089591444 0.62329924
-0.020557798 -0.0051394701 0.62390077
-0.019198189 -0.0051195025 0.62329924
-0.019198189 0.0038396716 0.62329918
-0.020557798 0.021842688 0.62390077
-0.0219281 -0.032247186 0.62450743
0.032511301 -0.024708569 0.62578255
-0.023309097 -0.023309082 0.62511837
-0.024700975 -0.018200725 0.62573421
-0.023309097 0.011654556 0.62511837
-0.024700975 0.019500762 0.62573421
-0.024700975 0.03250128 0.62573421
-0.027517892 0.027517915 0.62698042
-0.026103865 0.032629848 0.62635487
-0.0289432 -0.03552115 0.62761104
-0.0289432 0.0013155937 0.62761104
-0.0289432 0.0013155937 0.62761104
-0.031828262 -0.035806805 0.62888795
-0.031828262 -0.029175907 0.62888789
-0.030379998 -0.021133929 0.62824714
-0.031828262 -0.014587939 0.62888789
-0.031828262 -0.0026523769 0.62888795
-0.030379912 0.011887789 0.62824672
-0.030379912 0.011887789 0.62824672
-0.031828262 0.019892663 0.62888795
-0.031828262 0.025197387 0.62888789
-0.031828262 0.030502111 0.62888789
-0.030379912 0.034342527 0.62824672
-0.033288218 -0.0079891384 0.62953383
-0.033288218 -0.0079891384 0.62953383
-0.033288218 -0.0026630461 0.62953383
-0.033288218 0.01331529 0.62953383
-0.033288218 0.037282795 0.62953389
-0.036243759 -0.030874312 0.63084149
-0.034760002 -0.017379999 0.63018501
-0.034760002 -0.017379999 0.63018501
-0.036243759 -0.014765978 0.63084149
-0.036243759 -0.013423651 0.63084149
-0.036243759 0.0026847124 0.63084149
-0.036243759 0.008054167 0.63084149
-0.036243759 0.012081236 0.63084149
-0.036243759 0.026847243 0.63084143
-0.034760002 0.032086164 0.63018501
-0.036243759 0.03490141 0.63084149
-0.036243759 0.038928479 0.63084149
-0.040768467 -0.033973694 0.63284373
-0.040768348 -0.0054357648 0.63284326
-0.039247781 0.012180328 0.63217056
-0.039247781 0.020300567 0.63217056
-0.039247781 0.020300567 0.63217056
-0.040768348 0.024461031 0.63284326
-0.040768348 0.024461031 0.63284326
-0.039247781 0.033834308 0.63217056
-0.042301614 0.0013645589 0.63352209
-0.045406263 -0.031646788 0.63489568
-0.045406263 -0.027518928 0.63489568
-0.043847494 -0.027404666 0.63420606
-0.043847494 -0.0068511665 0.63420606
-0.043847494 0.0082214177 0.63420606
-0.045406263 0.0096316338 0.63489568
-0.043847494 0.026034504 0.634206
-0.045406263 0.027518958 0.63489568
-0.043847494 0.03151539 0.634206
-0.043847494 0.03151539 0.634206
-0.045406263 0.037150592 0.63489568
-0.046978086 -0.027634144 0.63559109
-0.046978086 -0.006908536 0.63559109
-0.046978086 -0.0027634203 0.63559109
-0.046978086 -0.0013816953 0.63559103
-0.050161555 -0.032047659 0.63699949
-0.048563126 -0.0097126067 0.63629234
-0.050161555 -0.0055734813 0.63699955
-0.051773541 0.0027985573 0.63771278
-0.051773541 0.0041978657 0.63771272
-0.051773541 0.030784279 0.63771272
-0.051773541 0.033582866 0.63771272
-0.053399406 -0.0070262253 0.6384325
-0.053399406 0.016862988 0.6384325
-0.053399406 0.026699722 0.63843256
-0.056692734 -0.015590459 0.63988954
-0.056692734 -0.012755871 0.63988954
-0.056692734 0.0014173687 0.63988954
-0.056692734 0.0028346181 0.6398896
-0.056692734 0.0099212229 0.6398896
-0.056692734 0.025511742 0.6398896
-0.056692734 0.036850274 0.6398896
-0.058360711 0.017081201 0.6406275
0.035766467 -0.041489094 0.64149988
-0.060043134 -0.024303168 0.64137191
0.047245927 0.011453569 0.64162493
-0.063452281 -0.025957733 0.64288068
-0.063452281 -0.017305195 0.64288068
-0.061740194 -0.015794009 0.64212275
-0.061740194 0.0014358163 0.64212275
-0.063452095 0.014420956 0.64288008
-0.063452095 0.024515599 0.6428802
0.036128286 -0.043353945 0.64324689
-0.065179214 -0.0086905658 0.64364475
-0.065179013 0.042004228 0.64364421
-0.066921368 -0.013093293 0.64441556
-0.066921368 -0 0.6444155
-0.066921368 0.014548153 0.6444155
0.049487997 0.016010821 0.64450204
-0.066921368 0.027641445 0.6444155
-0.066921368 0.029096246 0.6444155
-0.070452169 -0.022016287 0.64597762
-0.068678953 0.0058450103 0.64519316
-0.068678953 0.0087675452 0.6451931
-0.070452169 0.023484051 0.64597768
-0.070452169 0.023484051 0.64597768
-0.068678953 0.036531359 0.6451931
-0.068678953 0.043837637 0.6451931
0.041257281 -0.026522547 0.6466682
-0.072241239 -0.017691731 0.64676917
-0.072241239 -0.017691731 0.64676917
-0.072241239 0.032434851 0.64676917
-0.074046358 -0 0.64756787
0.040352266 -0.035868675 0.64920962
0.044789955 -0.01492998 0.64902496
0.045262862 -0.016596377 0.65092784
0.047592927 -0.012282044 0.65412587
0.045366649 -0.029722959 0.65763992
0.056588661 0.020434827 0.65855008
0.045868799 -0.031633645 0.65973008
0.045868799 -0.031633645 0.65973008
0.053878739 0.0047540367 0.66009057
0.051124282 -0.011183441 0.6616556
0.048324544 -0.027383894 0.66324711
0.061284859 0.021532536 0.66874295
0.054151822 -0.020306945 0.67307609
0.062739536 0.01865229 0.67348874
0.049721599 -0.046292514 0.67576718
0.055319961 -0.037474811 0.68421412
0.064379409 0.0035766661 0.68467301
0.062149972 -0.016451448 0.68945605
0.070854314 0.014916688 0.69387972
0.065343834 -0.011201799 0.69416696
0.067772269 -0.003765136 0.69604957
0.073157676 -0.0019772351 0.70747745
0.065670237 -0.039800107 0.70901918
0.079113409 2.9802322e-08 0.72011548
0.078595549 -0.012745202 0.72521824
0.086123362 0.015071601 0.72870439
0.025139619 -0.002793394 0.60368121
0.028710922 0.017116144 0.60210085
0.028710922 0.017116144 0.60210085
0.03047185 0.0079001188 0.60503662
0.021774724 -0.036673203 0.60714316
0.01665182 -0.03502835 0.60743678
0.023037868 -0.032253012 0.60784996
0.01881779 0.0028513372 0.60647845
0.01881779 0.005132392 0.60647845
0.01881779 0.018818781 0.60647845
0.01166742 -0.040835962 0.60964233
0.015008418 -0.032903083 0.60816383
0.01166742 -0.030918658 0.60964233
0.024314044 -0.027787477 0.60856438
0.015008418 -0.023089886 0.60816383
0.015008418 -0.016740173 0.60816383
0.015008418 -0.01500839 0.60816383
0.015008418 -0.0051952004 0.60816383
0.015008418 -0.0051952004 0.60816383
0.01166742 -0.0011667311 0.60964239
0.013345738 0.0052226558 0.60889947
0.015008418 0.01500842 0.60816383
0.010537935 -0.042737179 0.61014199
0.010537935 -0.011123389 0.61014205
0.0071008746 -0.0053256452 0.61166263
0.0088275792 0.0052971691 0.61089873
0.0088275783 0.014714383 0.61089873
0.0071008746 0.0207109 0.61166263
0.003193178 -0.035135087 0.61339194
0.0053534103 -0.020822994 0.61243594
0.0053534107 -0.0089241341 0.612436
0.0053534042 0.0071392953 0.61243582
0.00060254557 -0.030786127 0.61453807
-0.0012139573 -0.012746543 0.61534172
-0.0012139573 -0.012746543 0.61534172
0.00060254557 -0.0030182377 0.61453807
-0.0012139573 -0.0012139678 0.61534178
-0.0012139573 0.0030348897 0.61534172
0.00060254557 0.015091255 0.61453807
-0.004910029 -0.031301409 0.61697733
-0.0061604511 -0.028954118 0.61753058
-0.0061604511 -0.025257871 0.61753058
-0.004910029 -0.022708878 0.61697733
-0.004910029 -0.01534383 0.61697733
0.033085115 -0.0036761165 0.6167199
-0.0036688745 0.0012229681 0.61642826
-0.003668865 0.017121375 0.6164279
0.039269216 0.024543285 0.61693579
-0.0049100164 0.027005106 0.61697698
-0.0093289474 -0.039176654 0.61893237
-0.011256928 0.0168854 0.61978543
-0.011256928 0.030643865 0.61978543
-0.013209458 -0.018868938 0.62064964
-0.015181906 0.00063256919 0.62152231
-0.015181906 0.0088561475 0.62152231
0.038033985 0.008874625 0.62184101
-0.013209442 0.025158554 0.62064946
0.026693325 -0.044488892 0.62224078
-0.017179722 -0.017178476 0.62240618
-0.017179722 0.022904664 0.62240618
-0.017179722 0.033084527 0.62240618
-0.023309097 -0.033021212 0.62511837
0.034879822 -0.011626601 0.62474364
-0.023309097 -0.0071222186 0.62511837
-0.023309097 -0.0051797926 0.62511837
-0.0219281 -0.0051595569 0.62450743
-0.0219281 0.0090292096 0.62450743
-0.0219281 0.0090292096 0.62450743
-0.0219281 0.021283165 0.62450743
-0.023309097 0.033021212 0.62511837
-0.0289432 -0.034863368 0.62761104
-0.0289432 -0.02499637 0.62761104
-0.0289432 -0.02499637 0.62761104
-0.026810879 -0.024847895 0.62666768
0.034008007 -0.019620001 0.62669373
-0.026810879 -0.017001197 0.62666774
-0.026810879 -0.017001197 0.62666774
-0.0289432 -0.0032889843 0.62761104
-0.026810879 0.0091544986 0.62666768
-0.0289432 0.017102808 0.62761104
-0.026810879 0.020924568 0.62666768
-0.033288218 -0.0093207061 0.62953389
-0.033288218 0.0033288449 0.62953389
-0.031104088 0.011249952 0.62856728
0.034968246 -0.024208754 0.6311518
-0.034760002 -0.020722285 0.63018501
0.037753418 -0.012135029 0.63156271
-0.036991697 0.020849109 0.63117242
-0.034760002 0.03275463 0.63018501
-0.036991697 0.039007992 0.63117242
0.032502331 -0.037919372 0.6322782
-0.040768467 -0.029217392 0.63284373
-0.042301614 -0.027291358 0.63352209
-0.039247781 -0.027067423 0.63217056
-0.040768348 0.0027178824 0.63284332
0.043781351 0.01094535 0.63395649
0.043781351 0.01094535 0.63395649
0.034389172 -0.034389168 0.63484973
-0.045406263 -0.020639211 0.63489568
-0.043847494 -0.013017207 0.634206
0.041334748 -0.0027556419 0.6351223
0.041334748 -0.0027556419 0.6351223
-0.046978086 0.006908536 0.63559109
-0.045406263 0.015135407 0.63489568
-0.043847494 0.017127931 0.63420606
-0.046978086 0.024870753 0.63559109
-0.043847494 0.032885641 0.634206
-0.043847494 0.032885641 0.634206
-0.050967626 -0.03281381 0.63735634
-0.048563126 -0.01873146 0.63629234
-0.048563126 -0.0048563033 0.63629234
-0.048563126 0.0048563182 0.63629234
-0.050967548 0.016755968 0.63735616
-0.050967548 0.03909725 0.63735616
-0.05503903 -0.025402635 0.63915795
-0.053399406 -0.021078706 0.6384325
-0.05503903 0.0049393922 0.63915789
-0.053399406 0.012647241 0.6384325
-0.056692734 0.014881849 0.6398896
-0.053399406 0.021078736 0.6384325
-0.056692734 0.031181008 0.6398896
-0.05339925 0.039346844 0.63843203
0.037061363 -0.034210473 0.64086962
-0.058360711 -0.029180348 0.64062756
-0.060043134 -0.02287358 0.64137191
-0.058360711 -0.011387438 0.6406275
-0.058360711 0.022774905 0.64062756
-0.060043134 0.025017962 0.64137197
-0.060043134 0.025017962 0.64137197
-0.058360711 0.034874082 0.64062756
-0.058360711 0.037009239 0.64062756
-0.063452281 -0.028841943 0.64288068
-0.065179214 -0.021002173 0.64364469
-0.061740194 -0.017229795 0.64212275
-0.061740194 -0.010768637 0.64212275
-0.063452281 -0.0014420748 0.64288068
-0.065179214 0.010863215 0.64364469
-0.065179214 0.023174882 0.64364469
-0.065179214 0.026795924 0.64364469
-0.063452095 0.03100501 0.64288008
-0.065179013 0.040555835 0.64364421
-0.063452095 0.04326275 0.64288014
0.042137284 -0.017436087 0.64419794
-0.068678953 -0.010959387 0.6451931
-0.072241239 -0.025063276 0.64676917
-0.072241239 -0.0088458955 0.64676923
-0.074046358 0.020732999 0.64756787
-0.072241239 0.033171996 0.64676917
-0.074046358 0.041465998 0.64756787
-0.072241239 0.041280717 0.64676917
0.04077876 -0.037758082 0.65111643
0.049737856 0.0045216084 0.65074021
0.049737856 0.0045216084 0.65074021
0.04708688 -0.010632545 0.6521554
0.052709512 0.0077514052 0.6559394
0.052507125 -0.0031822622 0.6608699
0.044966955 -0.041755021 0.66266096
0.064264707 0.015631974 0.67846453
0.059836667 -0.023571968 0.6876806
0.063781768 -0.020635247 0.69524944
0.071791075 0.013224691 0.69685543
0.069606289 -0.0077340007 0.70219916
0.076338857 0.017616659 0.70508397
0.087440871 0.013116121 0.73268032
0.082264572 -0.020010322 0.73718828
0.025654107 -0.0057646907 0.60345745
0.026207332 0.01818569 0.60320872
0.029878784 0.0241997 0.6015842
0.017734805 -0.03390535 0.60695761
0.017734805 -0.03390535 0.60695761
0.010439783 -0.045970958 0.6101855
0.010439783 -0.045970958 0.6101855
0.025385052 -0.026151747 0.61020565
0.014177078 0.021992523 0.60853165
0.0017988912 -0.0058636493 0.61400878
0.0053534079 -0.0020822845 0.61243588
-0.0018254183 0.013986293 0.61561227
0.03580983 0.016711265 0.61289173
-0.0018254183 0.025995977 0.61561227
0.0017494046 0.02591623 0.6140306
-0.010239667 -0.034085214 0.61933553
-0.010239667 -0.034085214 0.61933553
0.028666921 -0.029292837 0.61925644
-0.0036688745 -0.025987864 0.61642826
-0.010292945 -0.014031436 0.61935902
0.033516861 -0.0055888444 0.6186502
-0.003668865 0.0058090538 0.6164279
0.035772089 0.0067817122 0.6177032
0.036240768 0.0049987137 0.61965406
-0.010292938 0.014031425 0.6193589
-0.0061635757 0.017967783 0.61753196
-0.014195682 -0.029961661 0.621086
-0.014195682 -0.0097769629 0.621086
-0.014195677 0.017976997 0.62108594
-0.014195673 0.029961655 0.62108588
-0.014195673 0.029961655 0.62108588
0.031603783 -0.032920629 0.62775892
-0.022618599 -0.0022617429 0.62481284
-0.025755929 0.0019558929 0.62620091
-0.0289432 0.014142722 0.62761104
0.042166345 0.015812397 0.62786436
-0.0289432 0.022036329 0.62761104
0.03081752 -0.04220973 0.63054341
-0.034024112 -0.02201404 0.62985945
-0.034024112 -0.02201404 0.62985945
0.036188554 -0.017424107 0.63059467
-0.031104108 -0.0062867291 0.62856746
-0.031104108 -0.0062867291 0.62856746
0.040362656 0.00066955388 0.63121092
-0.036991697 0.025893249 0.63117242
0.032657869 -0.038784459 0.63306051
0.042359825 0.0047792941 0.63374877
0.043366142 0.01219672 0.63239026
-0.046192177 0.021716535 0.63524342
-0.042305809 0.033999905 0.63352376
0.037599329 -0.023673654 0.63690192
-0.049765375 -0.017747039 0.63682437
-0.049765337 0.010091456 0.63682425
-0.05421922 0.022179987 0.6387952
-0.058360711 -0.01814875 0.64062756
-0.065179214 0.030054867 0.64364469
-0.061745137 0.044510953 0.64212495
-0.066921368 -0.0061829537 0.6444155
-0.069565564 0.009885408 0.64558542
-0.069565564 0.009885408 0.64558542
0.04077876 -0.037758082 0.65111643
0.045262862 -0.016596377 0.65092784
0.052709512 0.0077514052 0.6559394
0.054482929 0.0032048523 0.66223568
0.053971749 -0.033079445 0.67896438
0.056946076 -0.015530765 0.6771071
0.062879018 -0.0053896308 0.68566608
0.06818492 0.01973772 0.68540013
0.069606289 -0.0077340007 0.70219916
0.064767994 -0.037290692 0.70571893
0.067316942 -0.02969864 0.70780045
0.079610713 0.012247801 0.71521086
0.074051887 -0.031736523 0.72419995
0.085734732 0.0021983385 0.73416561
0.087440871 0.013116121 0.73268032
