# .PCD v0.7 - Point Cloud Data file format
VERSION 0.7
FIELDS x y z
SIZE 4 4 4
TYPE F F F
COUNT 1 1 1
WIDTH 788
HEIGHT 1
VIEWPOINT 0 0 0 1 0 0 0
POINTS 788
DATA ascii
0.044246349 0.044246376 0.61716545
0.041127034 0.043619603 0.61924267
0.038702466 0.046193302 0.61950737
0.037380427 0.048594594 0.61921132
0.046408687 0.038882941 0.62021017
0.033076283 0.047070116 0.62236798
0.042578865 0.029676199 0.62455332
0.038586266 0.036013871 0.62406325
0.029596983 0.047612578 0.62413764
0.033662144 0.040135622 0.62508804
0.044350725 0.023479789 0.62626314
0.043343965 0.022328705 0.627352
0.041943658 0.024904013 0.62702435
0.032882765 0.035513401 0.62757617
0.032882765 0.035513401 0.62757617
0.028930554 0.040765762 0.62754172
0.027558394 0.043306053 0.6272133
0.026270384 0.044659644 0.62735987
0.026270384 0.044659644 0.62735987
0.022324925 0.049902797 0.62732506
0.049003389 0.011919737 0.62867522
0.026428692 0.042285919 0.62831539
0.048013635 0.010669678 0.6297974
0.03999364 0.021329969 0.62972605
0.035877276 0.02790457 0.62920296
0.035877276 0.02790457 0.62920296
0.05216435 0.033438683 0.63026041
0.05216435 0.042801499 0.63026035
0.045850761 0.0094398856 0.6315887
0.044407796 0.012111217 0.63124335
0.03905328 0.018853307 0.63136095
0.030959439 0.029613376 0.63128823
0.017557528 0.045919716 0.63183343
0.044820309 0.008149147 0.6327523
0.025992844 0.030096978 0.63394171
0.010923895 0.050522983 0.63363302
0.050845802 -0.0041226149 0.63468605
0.032982785 0.019239962 0.63469476
0.032879803 0.020549893 0.63417679
0.015117902 0.042604983 0.6347034
0.055338558 0.02351889 0.63580298
0.022160206 0.030470282 0.63598996
0.019366795 0.034583569 0.63578832
0.01243225 0.044203579 0.63554913
0.055338558 0.048421264 0.63580304
0.055338558 0.051188201 0.63580298
0.011096625 0.044386506 0.63623929
0.041904218 0.0013968349 0.63741368
0.041904218 0.0013968349 0.63741368
0.0070001967 0.046201319 0.63780379
0.0070001967 0.046201319 0.63780379
0.054863226 -0.018287748 0.63861382
0.054863226 -0.018287748 0.63861382
0.049115751 -0.0098231435 0.63819832
0.047759674 -0.0084281564 0.63836592
0.011274906 0.038052797 0.63892931
0.0098436996 0.040781051 0.63855261
0.053855188 -0.019841373 0.63988036
0.026916375 0.015583187 0.63980901
0.019740386 0.026790529 0.63900948
0.042720459 -0.0071200728 0.64069796
0.039823104 -0.0028445125 0.64048541
0.031376462 0.0071309805 0.64096206
0.022734508 0.019892693 0.64032274
0.017063914 0.027017891 0.64045382
0.0042629507 0.044050515 0.64033198
0.041608393 -0.0086086392 0.64199644
0.037173606 -0.0014297366 0.64139068
0.034271378 0.0028559566 0.64117581
0.028581504 0.010003537 0.64130878
0.025691343 0.014272958 0.64109409
0.014341669 0.027249187 0.64192337
0.010036763 0.032977909 0.64188194
0.053178441 -0.024433345 0.6422962
0.047466092 -0.017260402 0.64243031
0.0043189246 0.038870335 0.6425842
0.055101532 -0.030450821 0.64383948
0.042020738 -0.0130409 0.64371282
0.01161069 0.02612403 0.64399588
0.018958669 0.014583588 0.64484364
0.010169755 0.027603626 0.64417523
0 0.040701061 0.64427018
-0.0058578416 0.045398295 0.64558017
0.060465802 -0.044243246 0.64682531
0.056027658 -0.038334697 0.64678138
0.057250217 -0.038166791 0.64600188
0.011766442 0.020591259 0.64634603
0.0029401737 0.032341897 0.64625931
0.0029401737 0.032341897 0.64625931
0.053369243 -0.03706193 0.64775515
0.051765777 -0.034017503 0.64733785
0.016292088 0.011848807 0.64758855
0.0074018519 0.023685932 0.64750063
0.049075603 -0.032717049 0.64831775
0.03723802 -0.017874241 0.64860517
0.062389176 -0.005941838 0.64811456
0.026735364 -0.0029706061 0.64809549
0.022274008 0.002969861 0.6480515
0.062389176 0.017825514 0.64811456
0.0059679965 0.022380024 0.64890438
0.0074269334 0.022280812 0.6481061
0.0059477719 0.023791105 0.64829397
0.062389176 0.031194597 0.64811462
0.062389176 0.035650969 0.64811456
0.062389176 0.038621873 0.64811462
0.062389176 0.041592807 0.64811456
0.062389176 0.046049178 0.64811462
0.062388986 0.053476274 0.64811397
0.062388986 0.057932615 0.64811403
0.061499726 -0.052499771 0.64986932
0.058423523 -0.047937214 0.64963341
0.052294932 -0.038847655 0.64916289
0.052294932 -0.038847655 0.64916289
-0.014987612 0.047960401 0.64972055
0.054286662 -0.045238853 0.65083134
0.039084684 -0.024052113 0.65026331
0.039084684 -0.024052113 0.65026331
-0.015038981 0.046620846 0.65034068
0.056120921 -0.050053805 0.65189588
0.037750874 -0.024160564 0.6510815
0.027289895 -0.01212883 0.65181422
-0.0015102087 0.027183771 0.65110242
-0.010566159 0.039245754 0.65101099
0.047159489 -0.039553106 0.6524381
0.015238591 0.0015238523 0.65275019
-0.0030446255 0.025879353 0.65256351
0.06425029 -0.064250275 0.65346354
0.062569827 -0.061043739 0.65301991
0.056511808 -0.053457111 0.65317112
0.0367865 -0.029122651 0.65382594
0.032067947 -0.021378636 0.65313476
-0.010713655 0.033671468 0.65355444
0.066319145 -0.030846119 0.65497684
0.066319145 -0.01850763 0.65497684
0.0092147375 0.0061431527 0.6541903
0.0046061859 0.012283176 0.65414274
-0.0061666868 0.024666756 0.65490031
0.066319145 0.027761519 0.65497684
-0.0138529 0.035401851 0.65460336
-0.015408824 0.036981165 0.65480506
-0.024641503 0.049283028 0.65470994
0.057310153 -0.060408011 0.65577567
0.049485896 -0.049485922 0.65547526
0.016980214 -0.006174624 0.65513986
0.010852776 -0 0.65595359
-0.017027995 0.037151992 0.65566421
0.029488012 -0.02483201 0.65614712
-0.0046691899 0.018676758 0.65667784
-0.0046691899 0.018676758 0.65667784
-0.021820456 0.040523708 0.65694427
0.01561844 -0.0093710423 0.6573354
0.064361274 -0.075349763 0.6582942
0.062861025 -0.073861718 0.65850407
0.034643266 -0.037792683 0.65888649
0.011008441 -0.006290555 0.65863788
0.011008441 -0.006290555 0.65863788
0.0078524323 -0.001570493 0.6583786
0.052265331 -0.063351899 0.65998542
-0.0047364081 0.012630433 0.65938246
0.057238482 -0.071548119 0.66072899
0.057238482 -0.071548119 0.66072899
-0.020605324 0.031700522 0.66013354
-0.023828603 0.034948647 0.66056192
0.047847003 -0.060606182 0.66132563
0.017535673 -0.020723969 0.66123533
0.012796299 -0.015995383 0.66188538
-0.0031884979 0.0063770115 0.66124701
-0.012747241 0.019120842 0.66114515
-0.033585507 0.044780701 0.66185796
0.070561878 -0.046506703 0.66238534
0.032024894 -0.041632354 0.66209143
0.070561878 -0.035280913 0.66238528
0.020904938 -0.028945297 0.66291559
0.017664028 -0.02408728 0.66264379
0.070561878 -0.020847827 0.66238534
0.070561878 -0.016036779 0.66238534
0.070561878 -0.014433086 0.66238534
0.070561878 -0.012829393 0.66238534
0.070561878 -0.0016036928 0.66238534
0.070561878 0.01122576 0.66238534
0.070561878 0.017640501 0.66238528
0.070561878 0.027262539 0.66238534
0.070561878 0.036884636 0.66238534
0.070561878 0.043299347 0.66238528
0.070561878 0.054525077 0.66238534
0.070561878 0.05612877 0.66238534
-0.0096793277 0.0096793473 0.66353714
0.022653462 -0.033980191 0.66412663
0.022653462 -0.033980191 0.66412663
0.035933457 -0.055533558 0.66596562
0.0081440359 -0.017916888 0.66541857
0.0081440359 -0.017916888 0.66541857
-0.0016339885 -0.0065359771 0.666044
-0.011474422 0.0049175918 0.66667342
-0.031110864 0.031110883 0.66645741
-0.039378162 0.041018903 0.666861
-0.04091309 0.044186115 0.66635001
0.037804872 -0.060816526 0.66721511
0.037804872 -0.060816526 0.66721511
0.023079174 -0.042861342 0.66779715
-0.0032839878 -0.006567955 0.66701031
-0.029660705 0.026365101 0.66771322
-0.042758401 0.044402957 0.66731936
0.028138185 -0.051310807 0.66860288
0.019828217 -0.03965643 0.66826057
0.016562082 -0.036436588 0.66872609
0.0099461041 -0.028180629 0.6689043
-0.024817292 0.018199325 0.6685183
0.031613436 -0.058235288 0.66965044
0.024885861 -0.048112661 0.66907007
0.0033309318 -0.021651089 0.66984367
-0.019934583 0.0099672973 0.6693306
-0.0083962772 -0.01007548 0.67150819
-0.010087469 -0.0084062219 0.67174834
-0.045304958 0.038593113 0.67135197
0.0050674239 -0.030404508 0.67270148
-0.033666939 0.021883518 0.67200208
-0.054013908 0.047262162 0.67255592
0.028901668 -0.064603716 0.67402411
0.017011752 -0.049334079 0.67415416
0.017011752 -0.049334079 0.67415416
0.017011752 -0.049334079 0.67415416
-0.0051038563 -0.020415425 0.67416745
0.032475833 -0.071788669 0.67512935
-0.017156834 -0.0085783899 0.67590547
-0.041068003 0.023956299 0.6753602
-0.024041738 -2.9802322e-08 0.67609662
0.012092408 -0.050097138 0.67733026
-0.012107944 -0.019026756 0.67759812
-0.01380007 -0.015525043 0.67703104
-0.05708804 0.039788634 0.67762643
-0.060456738 0.044910729 0.67731196
0.022559093 -0.065941989 0.67827523
-0.046920355 0.024329096 0.67857403
0.080148235 -0.060982347 0.67912471
0.080148235 -0.059240013 0.67912471
0.080148235 -0.059240013 0.67912471
0.080148235 -0.059240013 0.67912471
0.080148235 -0.045301199 0.67912471
0.080148235 -0.033104688 0.67912471
0.080148235 -0.033104688 0.67912471
0.080148235 -0.031362355 0.67912477
0.080148235 -0.029620022 0.67912477
0.080148235 -0.029620022 0.67912477
0.080148235 -0.019165874 0.67912471
0.080148235 -0.01742354 0.67912471
0.080148235 -0.01742354 0.67912471
0.080148235 -0.01742354 0.67912471
-0.017429505 -0.015686572 0.67919683
0.080148235 -0.013938814 0.67912477
0.080148235 -0.003484726 0.67912471
0.080148235 -0.001742363 0.67912471
0.080148235 0.0034846961 0.67912471
0.080148235 0.0087117851 0.67912471
0.080148235 0.0087117851 0.67912471
0.080148235 0.010454118 0.67912471
0.080148235 0.019165874 0.67912471
0.080147937 0.024392873 0.67912388
0.080147937 0.029619902 0.67912388
-0.054136693 0.031434238 0.67960662
0.080147937 0.031362265 0.67912394
-0.055951893 0.033221424 0.67986631
0.080147937 0.057497442 0.67912394
0.080147937 0.059239775 0.67912394
0.080147937 0.060982108 0.67912394
0.017556489 -0.064959019 0.68072975
0.012285936 -0.057919383 0.68066746
0.0017541108 -0.043852776 0.68054402
-0.022833275 -0.012294829 0.68082106
-0.06850899 0.047429323 0.68084943
-0.06850899 0.047429323 0.68084943
-0.0070317648 -0.033400863 0.68100643
-0.024719223 -0.012359619 0.68193805
-0.033486214 -0 0.68154854
-0.030128662 -0.0070890486 0.68273652
-0.033621259 -0.0017695129 0.68240649
-0.040903438 0.0053352416 0.68347728
-0.067479789 0.04084301 0.68316025
0.0053561945 -0.057132751 0.68432075
-0.010746576 -0.037613004 0.68500853
-0.01436503 -0.034116954 0.6855557
-0.039556589 -0.0017980337 0.68584514
-0.052177716 0.014393866 0.68599057
-0.052177716 0.014393866 0.68599057
-0.075264253 0.046592176 0.68511844
-0.075264253 0.046592176 0.68511844
-0.063194461 0.027083337 0.68675405
0.0072505367 -0.067067444 0.68760848
-0.045308556 0.0018123388 0.68757319
-0.045308556 0.0018123388 0.68757319
-0.030877197 -0.018163055 0.68805158
-0.01097057 -0.047539115 0.68951494
-0.027401404 -0.025574684 0.68931365
-0.060424641 0.016479462 0.68983138
-0.018379005 -0.040433794 0.69065833
-0.042274669 -0.009190172 0.69067383
-0.011062814 -0.051626474 0.69137073
-0.022205334 -0.038859338 0.69217253
-0.027748086 -0.031447828 0.69210351
-0.075855754 0.031452388 0.69213581
-0.081381321 0.038841099 0.69206762
-0.0037309555 -0.067157209 0.69398719
-0.0037309555 -0.067157209 0.69398719
-0.050309118 -0.0055899024 0.69372439
-0.053948078 -0 0.69335961
-0.020588608 -0.046792269 0.69473726
-0.061976936 0.0056343079 0.69550943
-0.04142464 -0.022595257 0.69609493
-0.047058642 -0.015058726 0.69602334
-0.064215124 0.0056660473 0.69678795
-0.07351426 0.01884982 0.6963414
-0.081136718 0.028303564 0.69657314
-0.094410993 0.045317262 0.6967324
-0.04943087 -0.017110676 0.69829774
0.091549054 -0.04386726 0.69903225
-0.045903478 -0.024864376 0.69968075
0.091549054 -0.017165452 0.69903231
0.091549054 -0.0076290965 0.69903225
-0.038380746 -0.036461711 0.70045239
-0.0653404 -0.001921773 0.70078307
-0.082557157 0.021119267 0.70056069
-0.086252995 0.026834249 0.70017433
-0.077159747 0.011573941 0.70165426
-0.079196393 0.013521343 0.70197117
-0.042519785 -0.034788907 0.70210373
-0.067650095 -0.0019328594 0.7021209
-0.069677852 -0 0.70243913
-0.085339732 0.019395381 0.70292723
-0.017547755 -0.072140723 0.7041598
-0.023389477 -0.064321041 0.7040841
-0.062421884 -0.013654768 0.70427251
-0.068556651 -0.0078350604 0.70524752
-0.037392695 -0.051168919 0.70636714
-0.055050921 -0.027525455 0.70613396
-0.035534911 -0.055276513 0.70710647
-0.043477692 -0.045453966 0.70735967
-0.094875105 0.021742225 0.70739657
-0.025833214 -0.071538121 0.70867676
-0.0317843 -0.063568622 0.70859814
-0.037731323 -0.055604041 0.70851856
-0.073331341 -0.0079277158 0.70804399
-0.08937756 0.011917025 0.70855582
-0.055801507 -0.033879459 0.70936978
-0.073664382 -0.0099546611 0.70913053
-0.079610676 -0.0019902289 0.70905054
-0.042010758 -0.054013848 0.71028727
-0.076107427 -0.010014147 0.71056676
-0.062325902 -0.030157685 0.71149445
-0.062325902 -0.030157685 0.71149445
-0.044479754 -0.056610584 0.71285784
-0.087134168 -0.0020263493 0.7134093
-0.057098694 -0.044863254 0.71496207
-0.061068594 -0.038676739 0.7145251
-0.071096636 -0.024375975 0.71400762
-0.090544701 -0.0061735213 0.71720672
-0.070266537 -0.035133272 0.71827233
-0.070266537 -0.035133272 0.71827233
-0.043601662 -0.072669417 0.719432
-0.050289389 -0.069147915 0.72174025
-0.087822631 -0.018819124 0.72121197
-0.087822631 -0.018819124 0.72121197
-0.084195331 -0.027363479 0.72288603
-0.052714359 -0.069582939 0.72333157
-0.052714359 -0.069582939 0.72333157
-0.083164327 -0.036251098 0.72620982
-0.062419813 -0.068877012 0.72862267
-0.062419813 -0.068877012 0.72862267
-0.076404378 -0.05894053 0.73231333
-0.076404378 -0.05894053 0.73231333
-0.072902568 -0.070693374 0.73547435
0.043877512 0.047533989 0.61592871
0.04458724 0.036424354 0.62041819
0.045008 0.030996254 0.62256902
0.036954336 0.041413426 0.62262422
0.036954336 0.041413426 0.62262422
0.04110932 0.02942582 0.62551206
0.035080276 0.037028238 0.6256398
0.029948389 0.042969435 0.62598193
0.029406354 0.044975203 0.6254105
0.027976921 0.037302554 0.629619
0.027976921 0.037302554 0.629619
0.046866558 0.010712355 0.63044113
0.046866558 0.010712355 0.63044113
0.040826034 0.01874043 0.63038766
0.032078169 0.030741572 0.63014483
0.032078169 0.030741572 0.63014483
0.053241044 -0.0047791153 0.6335929
0.050861906 -0.0009085834 0.63325948
0.041507568 0.0055343509 0.63581765
0.036998145 0.015073299 0.63421422
0.036998145 0.015073299 0.63421422
0.036998145 0.015073299 0.63421422
0.027679572 0.023527622 0.63586515
0.021072384 0.034816198 0.63470125
0.013074048 0.044730768 0.63494599
0.011026875 0.046864241 0.63518679
0.012354425 0.046672285 0.63450539
0.051820032 -0.012604862 0.63786441
0.045355566 -0.0027911961 0.63726801
0.038939223 0.0069534481 0.63667488
0.038939223 0.0069534481 0.63667488
0.033017457 0.013485998 0.63721216
0.045330398 -0.0084994733 0.63979983
0.03681362 0.0028318167 0.63971943
0.028123267 0.016873956 0.63854307
0.028123267 0.016873956 0.63854307
0.023001026 0.023001483 0.63879806
0.012651417 0.03725028 0.63848865
0.0070226048 0.044944644 0.63834482
0.0014146497 0.049512744 0.63956743
0.051540129 -0.020760387 0.64162207
0.051122818 -0.017040938 0.64022273
0.044607081 -0.0094913943 0.64065468
0.037295133 -0.002868861 0.64195496
0.037173606 -0.0014297366 0.64139068
0.034104977 0.0049724728 0.6403389
0.01932307 0.021471784 0.6415956
0.01932307 0.021471784 0.6415956
0.0057339361 0.038704067 0.64184093
0.058738455 0.048709929 0.64173967
0.058738455 0.05085893 0.64173973
0.013048681 0.024647534 0.64381689
0.060061865 -0.04101783 0.64563602
0.055653639 -0.035149664 0.64559329
0.054765504 -0.032861456 0.64509672
0.035187945 -0.0087969601 0.64578581
0.034896415 -0.0050902516 0.64431953
0.030781906 -0.0029315948 0.64574242
0.030577512 -0 0.64456761
0.0072790142 0.030571848 0.64453506
0.0072790142 0.030571848 0.64453506
-0.0014648191 0.039550126 0.64562339
-0.0014648191 0.039550126 0.64562339
-0.0014599406 0.040878356 0.64503455
-0.0029035376 0.045004845 0.64404809
-0.0072933133 0.048864007 0.64488029
0.041296039 -0.019173175 0.64683527
0.014826463 0.013343781 0.64777541
0.013223541 0.019100666 0.64616215
0.061081905 -0.049163491 0.6486392
0.046119817 -0.029012099 0.64838976
0.062389176 -0.011140928 0.64811456
0.022863355 0.0004966557 0.64880162
0.017167063 0.0074646473 0.64901704
0.0089332107 0.019355297 0.64852649
0.062388986 0.06313169 0.64811409
0.060686655 -0.056135148 0.65194231
0.033098504 -0.016549259 0.65041065
0.021096805 -0.0015068948 0.6507048
0.0015121998 0.022683024 0.65134281
-0.003034099 0.027306885 0.65192819
-0.015142834 0.043914258 0.65159428
-0.018637752 0.049361996 0.65120924
0.062788211 -0.062788203 0.6536628
0.059645735 -0.058116376 0.6534164
0.054662567 -0.048588932 0.6520918
0.035107791 -0.025187343 0.65306002
0.025450442 -0.012726109 0.65313947
0.016802764 -0.0015274882 0.65319258
0.016802764 -0.0015274882 0.65319258
0.012174698 0.006087333 0.65250611
0.0030527192 0.016789943 0.65305203
-0.015195276 0.042546749 0.65222734
0.058691505 -0.061009638 0.6552434
0.043032594 -0.038421988 0.65432179
0.066319145 -0.024676889 0.65497684
0.029178295 -0.019964099 0.65417945
0.018569 -0.0092844963 0.65559381
0.062935092 -0.069150947 0.65638411
0.062935092 -0.069150947 0.65638411
0.059002962 -0.063661069 0.65623271
0.054718073 -0.060971573 0.65752006
0.048997033 -0.051332116 0.65657187
0.037574414 -0.039140016 0.65778887
0.010969126 -0.0047010481 0.65795994
0.0093290992 0.00077605247 0.65649116
0.0093290992 0.00077605247 0.65649116
-0.0031093829 0.017101616 0.65647197
-0.0031093829 0.017101616 0.65647197
0.037981104 -0.044311285 0.65983433
0.037981104 -0.044311285 0.65983433
-0.015712485 0.029066682 0.65847063
-0.020457456 0.034620315 0.65876055
0.058762606 -0.073056206 0.66051418
0.025502304 -0.031082392 0.66120416
0.025363971 -0.028534472 0.66016054
0.017535673 -0.020723969 0.66123533
0.0079955757 -0.0095946491 0.66183442
0.0047732946 -0.0031821728 0.66086662
-0.012701075 0.020639241 0.66044855
0.05303137 -0.070708454 0.66278756
0.046473261 -0.060896009 0.66224617
0.046473261 -0.060896009 0.66224617
0.043366153 -0.057821512 0.66268396
0.070561878 -0.035280913 0.66238528
0.011271174 -0.016908213 0.66316855
0.0088691022 -0.014516234 0.66350037
0.070561878 -0.012829393 0.66238534
-0.0096438704 0.011251152 0.6628238
0.070561878 0.027262539 0.66238534
-0.024955217 0.030587882 0.66313493
-0.036867227 0.048087686 0.66229403
-0.036867227 0.048087686 0.66229403
0.045588374 -0.066754386 0.66533995
0.026768781 -0.040561736 0.66465354
0.021176755 -0.035024598 0.66543955
0.022737311 -0.035730064 0.66484958
0.022737311 -0.035730064 0.66484958
-0.034981024 0.039046392 0.66519225
0.014755899 -0.02951178 0.66671467
0.004915955 -0.016386509 0.6666069
0.0032688701 -0.013075471 0.66609782
0 -0.0098292232 0.66655272
-0.019637059 0.016364187 0.66633773
-0.019637059 0.016364187 0.66633773
-0.024724064 0.019779265 0.667768
-0.023005942 0.018896192 0.66716576
-0.029605217 0.027136594 0.66734111
-0.04091309 0.044186115 0.66635001
0.026614435 -0.051565498 0.66959453
0.013331103 -0.034994155 0.6699549
0.011590248 -0.029803485 0.66867077
-0.016573351 0.0066293776 0.6688621
-0.033283744 0.026626974 0.6696893
-0.044622071 0.044622093 0.66829896
0.036895242 -0.068759322 0.67124277
0.025171479 -0.053699166 0.67136848
0.07515654 -0.040918559 0.67040849
0.0033436231 -0.023405343 0.67060965
0.07515654 -0.015031308 0.67040855
0.07515654 -0.015031308 0.67040855
-0.0083642658 -0.0083642602 0.67073536
-0.042010345 0.033608317 0.67164797
0.075156271 0.036743045 0.67040777
0.030565146 -0.066224486 0.67377853
0.023611687 -0.053969562 0.67238861
-0.016957788 -0.0033915341 0.67350274
-0.023580128 0.0084214807 0.67211652
-0.035392269 0.023594856 0.67224342
-0.040750161 0.027166754 0.67376161
-0.047401514 0.037244052 0.67315662
-0.055554211 0.05050385 0.67201585
-0.055554211 0.05050385 0.67201585
0.017144695 -0.053148568 0.67575896
0.017011752 -0.049334079 0.67415416
0.0085571352 -0.041074216 0.67539161
0.0068008327 -0.035704374 0.67403746
0 -0.029042691 0.6750257
-0.005143763 -0.024004221 0.67577314
-0.04934385 0.037433267 0.67419481
-0.054644946 0.04269141 0.67493623
0.017212011 -0.055078447 0.67657149
0.010377554 -0.048428595 0.67758435
-0.029299906 0.0051705539 0.67685187
-0.037042283 0.01550515 0.67676377
0.0086928224 -0.048679769 0.67866743
-0.010447916 -0.024378479 0.67899996
-0.010406616 -0.022547662 0.67816901
-0.017429505 -0.015686572 0.67919683
-0.02096691 -0.012230694 0.67971492
0.080148235 0.0034846961 0.67912471
0.080147937 0.04530099 0.67912394
0.022921877 -0.074055314 0.68164378
0.015884046 -0.06530109 0.68184566
0.00351795 -0.047492296 0.68113118
-0.017499082 -0.017499089 0.68003672
-0.063257642 0.040414572 0.68091172
0.021270562 -0.074446976 0.68276948
0.01776986 -0.071079403 0.68330526
0.0088328822 -0.056530416 0.68204874
0.00178263 -0.051696271 0.68398666
-0.015920077 -0.024764568 0.68232888
-0.069342084 0.042672068 0.68342799
0.014368305 -0.071841508 0.68560511
0.0071910946 -0.06292206 0.68581462
-0.016988881 -0.028608829 0.68464112
-0.073680125 0.043129832 0.6857304
-0.0090177543 -0.043285191 0.68651193
-0.0090177543 -0.043285191 0.68651193
-0.057795238 0.019867092 0.68681979
-0.063194461 0.027083337 0.68675405
-0.079700567 0.047095776 0.68745661
0.0054902984 -0.069543779 0.6897167
-0.025648411 -0.029312432 0.68994963
-0.027401404 -0.025574684 0.68931365
-0.030877197 -0.018163055 0.68805158
-0.071367525 0.031108916 0.68969703
0.085591055 0.030958474 0.68862867
-0.071070842 0.032801926 0.68877876
-0.011062814 -0.051626474 0.69137073
-0.012869208 -0.047799915 0.69072568
-0.038498882 -0.01283294 0.69010067
-0.077155516 0.03674072 0.69055402
-0.080700651 0.042184412 0.69020027
-0.0037309555 -0.067157209 0.69398719
-0.012978014 -0.051912069 0.69260198
-0.027748086 -0.031447828 0.69210351
-0.027748086 -0.031447828 0.69210351
-0.03724017 -0.022344112 0.69356847
-0.059259243 0.0092592835 0.69234228
-0.078137547 0.031627119 0.69337642
-0.0094044609 -0.06395033 0.69584787
-0.020588608 -0.046792269 0.69473726
-0.026195591 -0.039293408 0.69466752
-0.045116451 -0.016918659 0.6957224
-0.058191653 0.00093656778 0.69539618
-0.061712787 0.0074803829 0.6945433
-0.022781985 -0.051259458 0.69797319
-0.04142464 -0.022595257 0.69609493
-0.081487142 0.026530683 0.69755691
-0.01716621 -0.061035424 0.69904244
-0.028592233 -0.045747578 0.69889665
-0.041965067 -0.028612524 0.69906008
-0.051624905 -0.017208278 0.69960696
-0.074474685 0.013367265 0.69931412
-0.01154827 -0.073139071 0.70113742
-0.051850852 -0.019204021 0.70061719
-0.078849271 0.01538524 0.70094919
-0.082557157 0.021119267 0.70056069
-0.090727888 0.028955728 0.70182163
-0.013550803 -0.073561519 0.70247936
-0.021410948 -0.066179305 0.7037614
-0.023183413 -0.059890479 0.70201123
-0.058102474 -0.015493989 0.70259047
-0.071711153 0.0019381344 0.70275825
-0.077500775 0.0096875727 0.70268345
-0.087013565 0.023203611 0.70221448
-0.031218676 -0.054632664 0.7043308
-0.042897869 -0.038998067 0.70417827
-0.048731696 -0.031188279 0.7041015
-0.048731696 -0.031188279 0.7041015
-0.079900205 0.0097439289 0.70404339
-0.084028557 0.013679057 0.70469117
-0.094027564 0.025465816 0.70526522
-0.02359914 -0.068830788 0.70619315
-0.025601216 -0.066957027 0.70652258
-0.063265942 -0.019770592 0.70745641
-0.062982149 -0.017713755 0.70638597
-0.070929959 -0.0078811049 0.7066375
-0.070929959 -0.0078811049 0.7066375
-0.083070263 0.0059336126 0.70755333
-0.059683625 -0.027852327 0.70895243
-0.08937756 0.011917025 0.70855582
-0.038076144 -0.060120225 0.71070921
-0.044073399 -0.052086741 0.71062821
-0.050296418 -0.046272725 0.71165675
-0.068649217 -0.024229109 0.71253037
-0.040884994 -0.067460239 0.71556687
-0.044893675 -0.061218619 0.71512896
-0.061068594 -0.038676739 0.7145251
-0.079308547 -0.014234871 0.71427566
-0.061930817 -0.045415908 0.71799445
-0.067781605 -0.034917802 0.7167424
-0.069936819 -0.032911479 0.71710181
-0.051719718 -0.059994906 0.71852905
-0.058180537 -0.054024786 0.71962595
-0.064088404 -0.043414742 0.71835756
-0.091402441 -0.010386616 0.71955985
-0.073128574 -0.037609011 0.72101557
-0.050530702 -0.071585149 0.72295392
-0.067527406 -0.05064553 0.7235316
-0.084195331 -0.027363479 0.72288603
-0.090478145 -0.01893729 0.72279668
-0.063730702 -0.059481978 0.72523665
-0.057939243 -0.072960526 0.72783685
-0.061813086 -0.063944578 0.72609723
-0.06627515 -0.059861422 0.72687244
-0.079501085 -0.061834157 0.73537719
0.034791782 0.042477854 0.62340313
0.040506724 0.04176138 0.62042022
0.047299735 0.0067570806 0.63193506
0.05216435 0.013709903 0.63026035
0.05216435 0.017722502 0.63026035
0.05216435 0.017722502 0.63026035
0.041144684 0.021399014 0.6290313
0.05216435 0.041798346 0.63026035
0.05216435 0.04581102 0.63026035
0.036541559 0.020300925 0.63217288
0.036541559 0.020300925 0.63217288
0.017662577 0.041889273 0.63355041
0.053898938 -0.014381154 0.63744748
0.043634862 -0.0058990968 0.63963181
0.026390499 0.018359318 0.63888866
0.050296571 -0.021767408 0.64278406
0.05873863 -0.0021489859 0.6417402
0.05873863 0.001790829 0.6417402
0.0096341176 0.034160279 0.64159316
0.058738455 0.060887426 0.64173973
0.035544366 -0.013329118 0.64757848
0.017729053 0.014214018 0.64571637
0.006679967 0.026334455 0.6467495
0.0087258657 0.029086202 0.644355
0.037330247 -0.019041099 0.64906657
0.021599276 0.0015892506 0.64904958
0.01036092 0.013817877 0.65014422
0.061654102 -0.061968625 0.65395606
0.035666261 -0.032564849 0.65599102
0.066319145 -0.034316286 0.65497684
0.014449849 -0.0023133755 0.65489745
-0.0051482436 0.022647541 0.6552031
-0.018834729 0.04529636 0.65311587
0.060596876 -0.066036411 0.65636027
0.047501516 -0.057001799 0.65993547
0.04950906 -0.054204311 0.65754282
0.040328708 -0.03877759 0.65603888
0.010153198 -0.0023448467 0.65739173
-0.0023661391 0.010243818 0.65906703
-0.014263821 0.02949468 0.65744561
0.035471193 -0.049177438 0.6634292
0.014511857 -0.02176927 0.66344142
0.017472137 -0.019060493 0.66053808
-0.0048409696 0.0032273233 0.66358972
-0.021735745 0.026360385 0.66314101
-0.032303244 0.038763911 0.66377151
0.02209983 -0.038475066 0.66642833
0.014249358 -0.030145686 0.66728687
-0.013716478 0.0060343146 0.6674751
0.07515654 -0.062212914 0.67040849
0.026235051 -0.054147534 0.67095232
0.026235051 -0.054147534 0.67095232
0.0022975139 -0.022378923 0.67076111
-0.040282231 0.031890124 0.67140812
0.023137484 -0.060843855 0.67569327
0.015388688 -0.04958576 0.67520177
0.010428229 -0.041306119 0.67441404
0.0028478268 -0.033049196 0.67514873
0.0028478268 -0.033049196 0.67514873
-0.012013185 -0.015445501 0.67596412
-0.026243454 0.0095205829 0.67316902
-0.053079996 0.039381951 0.67549193
0.019211499 -0.064620465 0.67962527
-0.021598192 -0.0060485676 0.6773532
-0.021598192 -0.0060485676 0.6773532
-0.037874509 0.014280602 0.67778391
-0.037874509 0.014280602 0.67778391
0.0035607871 -0.053411812 0.6837166
0.0035607871 -0.053411812 0.6837166
-0.034319103 -0.0023672781 0.68307275
-0.050924219 0.024584115 0.68077296
-0.013542437 -0.037918486 0.68675709
-0.010160464 -0.038844347 0.68521309
-0.052609373 0.010884732 0.68778729
-0.07473892 0.045439892 0.68532318
-0.07473892 0.045439892 0.68532318
0.085591055 -0.037332267 0.68862867
-0.019991426 -0.032713205 0.68818396
-0.027287798 -0.023649395 0.68839931
-0.03756097 -0.013742805 0.6899606
-0.03756097 -0.013742805 0.6899606
0.085591055 -0.013658136 0.68862867
-0.04682824 -0.0027563721 0.69046551
0.085591055 0.013658136 0.68862867
-0.02067681 -0.048872471 0.69570518
-0.062426083 0.010246657 0.69373488
-0.062426083 0.010246657 0.69373488
-0.078785673 0.034295276 0.69257355
-0.078785673 0.034295276 0.69257355
-0.0069856136 -0.073651418 0.69872922
-0.014217585 -0.061599977 0.69758958
-0.014217585 -0.061599977 0.69758958
-0.076487221 0.015297472 0.69962478
-0.071534261 0.016942292 0.69603968
-0.08974091 0.033412099 0.69928682
-0.033683985 -0.04922881 0.70337123
-0.046104446 -0.026894242 0.70069158
-0.059014827 -0.010905276 0.70109338
-0.086442217 0.025930569 0.70068187
-0.018621327 -0.073496103 0.70537752
-0.042482059 -0.042481154 0.70547408
-0.054210495 -0.02677856 0.70531958
-0.057864647 -0.022558473 0.70556796
-0.081660345 0.0068845749 0.70632041
-0.030027641 -0.070064485 0.71044797
-0.034127612 -0.066247731 0.71113157
-0.053977959 -0.03798449 0.71012688
-0.077864721 -0.0059895813 0.70980674
-0.094040245 0.013999919 0.71032894
-0.066239968 -0.029740363 0.71356952
-0.074089132 -0.017512312 0.71270818
-0.051236566 -0.055335462 0.71619618
-0.055495545 -0.051384717 0.71691167
-0.092303485 -0.0020511746 0.7164045
-0.070511431 -0.045252323 0.72287542
-0.070511431 -0.045252323 0.72287542
-0.074335076 -0.053863481 0.72888005
-0.074335076 -0.053863481 0.72888005
-0.08284232 -0.04195787 0.7285406
-0.073513582 -0.065829828 0.73368299
