# .PCD v0.7 - Point Cloud Data file format
VERSION 0.7
FIELDS x y z
SIZE 4 4 4
TYPE F F F
COUNT 1 1 1
WIDTH 1350
HEIGHT 1
VIEWPOINT 0 0 0 1 0 0 0
POINTS 1350
DATA ascii
-0.0065464117 0.065464109 0.66635954
-0.0063897357 0.062299937 0.66163146
-0.0062403642 0.059283465 0.65712374
-0.0060978355 0.056404978 0.65282261
-0.0059616533 0.053654939 0.64871293
-0.0058314209 0.051024944 0.64478278
-0.0057067745 0.048507601 0.64102125
-0.0055873287 0.046095461 0.63741672
-0.0054727956 0.043782383 0.63396031
-0.0053628492 0.04156208 0.63064241
-0.0052572479 0.039429337 0.62745565
-0.0051557105 0.037378907 0.62439144
-0.0050580218 0.035406172 0.62144339
-0.0049639787 0.03350684 0.61860543
-0.0048733563 0.031676799 0.61587065
-0.0047859955 0.029912502 0.61323428
-0.0047017001 0.028210223 0.61069047
-0.0046203341 0.026566923 0.608235
-0.0045417249 0.024979502 0.6058628
-0.0044657462 0.023445189 0.60356992
-0.0043922779 0.021961391 0.60135287
-0.0043211784 0.020525604 0.59920722
-0.0043510678 0.019579828 0.60010922
-0.0043995976 0.018698305 0.60157371
-0.0044492329 0.017796904 0.60307163
-0.00449999 0.016874969 0.60460335
-0.0045519294 0.015931726 0.60617077
-0.0046050707 0.014966458 0.60777444
-0.0046594786 0.013978422 0.60941637
-0.0047151758 0.012966752 0.6110971
-0.0047722328 0.011930585 0.61281896
-0.0048306757 0.010869026 0.6145826
-0.0048905797 0.009781152 0.61639047
-0.0049519888 0.0086659789 0.61824358
-0.0050149458 0.007522434 0.62014347
-0.0050795381 0.0063494444 0.62209272
-0.0051458017 0.005145818 0.62409246
-0.0052138316 0.0039104223 0.62614536
-0.0052836696 0.0026418567 0.62825298
-0.0053554196 0.0013388693 0.63041818
-0.0054291287 -0 0.63264257
-0.0055049118 -0.0013762414 0.63492954
-0.0055828234 -0.0027914047 0.6372807
-0.0056629893 -0.0042472184 0.63969994
-0.0057454733 -0.0057454705 0.64218909
-0.0058304141 -0.0072879791 0.64475238
-0.005917904 -0.0088768601 0.64739263
-0.0060080402 -0.010514081 0.65011275
-0.0061009843 -0.012201965 0.65291762
-0.006196829 -0.013942868 0.65581
-0.006295755 -0.015739352 0.65879536
-0.006397868 -0.017594099 0.66187686
-0.0065033706 -0.01951012 0.6650607
-0.006612388 -0.021490246 0.66835058
-0.0067251469 -0.023537993 0.67175341
-0.0068417932 -0.0256567 0.67527348
-0.0069625829 -0.02785033 0.67891866
-0.007087715 -0.030122757 0.68269479
-0.0072173988 -0.032478273 0.68660843
-0.0073519452 -0.034921765 0.6906687
-0.0074915737 -0.037457883 0.69488239
-0.0076366398 -0.040092349 0.69926012
-0.0077874023 -0.042830706 0.7038098
-0.007944271 -0.045679539 0.70854372
-0.0081075551 -0.048645318 0.71347129
-0.0082777282 -0.051735789 0.71860665
-0.008455161 -0.054958552 0.72396117
-0.0086404048 -0.058322757 0.72955143
-0.0088339075 -0.061837345 0.7353909
-0.0090363184 -0.065513343 0.74149919
-0.0092482232 -0.069361657 0.74789387
-0.0051913424 0.074409246 0.67768764
-0.0050601531 0.070842177 0.67240894
-0.0049354136 0.067450643 0.66738987
-0.0048166928 0.064222604 0.66261292
-0.0047035338 0.061145931 0.65805972
-0.0045955847 0.05821076 0.65371615
-0.0044924649 0.055407077 0.64956695
-0.0043938714 0.052726448 0.64559984
-0.0042995256 0.050161153 0.64180368
-0.0042091338 0.047703534 0.63816655
-0.0041224766 0.045347244 0.63467979
-0.0040393039 0.043085903 0.63133323
-0.0039594322 0.040914148 0.62811935
-0.0038826468 0.038826495 0.6250298
-0.0038087938 0.036818355 0.62205815
-0.0037376878 0.034885108 0.61919707
-0.0036691879 0.033022672 0.61644083
-0.0036031629 0.03122744 0.61378419
-0.0035394633 0.029495537 0.61122113
-0.0034779855 0.027823865 0.60874748
-0.0034185983 0.026209235 0.60635793
-0.0033612133 0.024648905 0.60404891
-0.0033057153 0.023140013 0.60181582
-0.0032520201 0.021680117 0.59965527
-0.003202463 0.020282269 0.59766126
-0.0032375162 0.019425124 0.59907174
-0.0032733371 0.018548936 0.60051298
-0.0033099679 0.017653197 0.60198694
-0.0033474197 0.016737133 0.60349387
-0.0033857368 0.015800089 0.60503566
-0.0034249329 0.014841408 0.60661274
-0.0034650557 0.013860226 0.60822719
-0.0035061296 0.012855828 0.60987985
-0.0035481802 0.01182726 0.61157185
-0.0035912609 0.010773748 0.61330533
-0.0036353909 0.0096943974 0.61508095
-0.0036806287 0.0085881352 0.61690122
-0.0037269967 0.0074539781 0.6187669
-0.0037745582 0.0062909424 0.62068063
-0.0038233388 0.0050977767 0.62264341
-0.0038734074 0.0038734376 0.62465799
-0.0039247936 0.0026165545 0.62672561
-0.003977573 0.0013258755 0.62884927
-0.0040317909 -0 0.63103086
-0.0040874961 -0.0013624728 0.63327229
-0.0041447738 -0.0027631819 0.63557696
-0.0042036674 -0.0042036474 0.63794661
-0.0042642714 -0.0056857169 0.64038515
-0.0043266355 -0.0072110593 0.64289451
-0.0043908637 -0.0087817311 0.64547884
-0.0044570141 -0.010399699 0.64814055
-0.0045252028 -0.012067199 0.65088427
-0.0045954953 -0.013786465 0.65371257
-0.0046680216 -0.015560031 0.65663081
-0.0047428575 -0.01739049 0.65964198
-0.0048201485 -0.019280612 0.66275191
-0.0049000001 -0.02123335 0.6659649
-0.004982525 -0.023251772 0.66928542
-0.0050678952 -0.025339484 0.67272055
-0.0051562232 -0.027499855 0.67627454
-0.0052477038 -0.029736966 0.67995536
-0.0053424691 -0.032054782 0.68376851
-0.0054407408 -0.034458011 0.68772268
-0.0055426741 -0.036951154 0.69182408
-0.0056485217 -0.039539635 0.69608307
-0.0057584681 -0.042228758 0.70050699
-0.0058728033 -0.045024812 0.70510745
-0.0059917714 -0.047934145 0.70989436
-0.0061156326 -0.05096361 0.7148782
-0.0062447498 -0.054121166 0.72007346
-0.0063794083 -0.057414681 0.7254917
-0.0065200324 -0.06085363 0.73114991
-0.0066669639 -0.064447284 0.73706204
-0.0068207039 -0.068207055 0.74324805
-0.0069816671 -0.072143912 0.74972469
-0.0033915695 0.072918773 0.6735034
-0.0033075246 0.069458038 0.66843092
-0.0032275554 0.066164881 0.66360438
-0.0031513514 0.063027054 0.65900505
-0.003078673 0.060034156 0.65461844
-0.0030092616 0.057175964 0.65042913
-0.0029429202 0.054444015 0.64642501
-0.0028794319 0.051829815 0.6425932
-0.002818634 0.049326092 0.6389237
-0.0027603419 0.046925813 0.63540548
-0.0027044122 0.044622838 0.63202983
-0.0026507115 0.042411357 0.62878871
-0.0025990945 0.040285975 0.62567329
-0.0025494562 0.038241833 0.62267745
-0.0025016721 0.036274254 0.61979342
-0.0024556525 0.034379154 0.6170159
-0.0024112891 0.032552421 0.61433828
-0.0023685002 0.030790508 0.61175573
-0.0023272093 0.029090136 0.6092636
-0.002287328 0.027447939 0.60685658
-0.0022487957 0.025861174 0.60453093
-0.0022115351 0.024326891 0.60228205
-0.0021754939 0.022842705 0.60010678
-0.002140604 0.021406054 0.598001
-0.0021184226 0.020125002 0.59666228
-0.0021414235 0.019272804 0.59805048
-0.0021649345 0.018401921 0.59946942
-0.0021889622 0.017511696 0.60091966
-0.0022135344 0.016601503 0.60240275
-0.0022386592 0.015670657 0.60391915
-0.0022643665 0.014718413 0.60547072
-0.0022906654 0.013743997 0.60705799
-0.0023175881 0.012746751 0.60868293
-0.0023451452 0.011725754 0.6103462
-0.0023733715 0.010680169 0.61204976
-0.0024022858 0.0096091628 0.61379486
-0.0024319068 0.0085116923 0.6155827
-0.0024622739 0.0073868036 0.61741555
-0.0024934022 0.0062335134 0.61929429
-0.0025253347 0.0050506592 0.6212216
-0.0025580889 0.0038371682 0.62319839
-0.0025917105 0.0025917292 0.62522769
-0.0026262209 0.0013131201 0.62731057
-0.0026616699 -0 0.62945008
-0.0026980813 -0.0013490617 0.63164777
-0.0027355109 -0.0027354956 0.63390678
-0.002773985 -0.0041609704 0.63622892
-0.0028135658 -0.0056271255 0.63861787
-0.0028542923 -0.0071357191 0.64107585
-0.002896206 -0.0086886287 0.64360565
-0.0029393781 -0.010287791 0.64621127
-0.0029838476 -0.011935383 0.64889526
-0.0030296932 -0.013633639 0.65166223
-0.0030769589 -0.015384793 0.65451503
-0.0031257335 -0.017191529 0.65745884
-0.0031760689 -0.01905641 0.66049683
-0.0032280628 -0.020982414 0.66363496
-0.0032817756 -0.022972405 0.66687679
-0.0033373183 -0.025029898 0.67022908
-0.0033947732 -0.027158201 0.67369682
-0.0034542289 -0.02936092 0.67728525
-0.0035158172 -0.031642348 0.68100244
-0.0035796277 -0.034006476 0.68485373
-0.0036458117 -0.036458105 0.68884832
-0.0037144742 -0.039001971 0.69299251
-0.0037857878 -0.041643679 0.69729674
-0.0038598778 -0.044388592 0.7017684
-0.0039369422 -0.047243327 0.70641959
-0.0040171291 -0.050214112 0.71125931
-0.0041006682 -0.053308666 0.71630138
-0.0041877371 -0.056534469 0.72155643
-0.0042786035 -0.059900463 0.72704071
-0.0043735001 -0.063415736 0.73276824
-0.0044726804 -0.067090154 0.73875427
-0.0045764861 -0.070935518 0.74501956
-0.0016624834 0.071486801 0.66948366
-0.0016220757 0.068127185 0.66460598
-0.0015835855 0.064927012 0.65995979
-0.0015468847 0.061875343 0.65552962
-0.0015118417 0.058961838 0.6512996
-0.0014783558 0.056177557 0.64725745
-0.0014463168 0.053513706 0.64339
-0.0014156413 0.050963104 0.63968706
-0.0013862359 0.0485183 0.6361376
-0.0013580272 0.046172917 0.63273251
-0.0013309475 0.043921262 0.62946367
-0.0013049229 0.041757524 0.62632227
-0.0012799001 0.039676905 0.62330174
-0.0012558155 0.037674457 0.62039447
-0.0012326238 0.035746098 0.61759496
-0.0012102701 0.033887535 0.61489666
-0.0011887127 0.032095283 0.61229444
-0.0011679127 0.030365735 0.60978365
-0.0011478253 0.028695643 0.60735893
-0.0011284199 0.027082086 0.60501647
-0.0011096571 0.025522113 0.60275161
-0.0010915106 0.024013251 0.60056114
-0.0010739458 0.022552878 0.59844083
-0.0010569372 0.021138757 0.59638774
-0.00105106 0.019970179 0.59567827
-0.0010623832 0.019122899 0.59704512
-0.0010739554 0.018257231 0.59844202
-0.0010857801 0.017372489 0.59986937
-0.0010978705 0.016468078 0.60132879
-0.0011102307 0.015543222 0.60282081
-0.001122875 0.014597386 0.60434711
-0.0011358106 0.013629705 0.60590857
-0.001149045 0.012639493 0.6075061
-0.0011625942 0.011625916 0.60914171
-0.0011764638 0.010588139 0.61081588
-0.0011906715 0.0095253587 0.61253089
-0.0012052233 0.0084365904 0.61428744
-0.0012201384 0.0073208213 0.61608785
-0.0012354241 0.0061771274 0.61793303
-0.0012511009 0.005004406 0.61982536
-0.0012671773 0.0038015544 0.62176597
-0.0012836758 0.0025673807 0.62375748
-0.0013006096 0.001300633 0.62580156
-0.0013179923 -0 0.62789989
-0.0013358499 -0.0013358593 0.63005543
-0.001354194 -0.0027083755 0.6322698
-0.0013730528 -0.004119128 0.63454628
-0.0013924405 -0.0055697262 0.6368866
-0.0014123876 -0.0070619285 0.63929439
-0.0014329102 -0.0085974634 0.64177167
-0.0014540425 -0.010178298 0.64432257
-0.0014758029 -0.011806399 0.64694923
-0.0014982291 -0.013484031 0.64965636
-0.0015213424 -0.01521343 0.65244639
-0.0015451852 -0.01699701 0.65532446
-0.0015697873 -0.018837422 0.6582942
-0.00159518 -0.02073735 0.66135943
-0.0016214134 -0.022699803 0.66452605
-0.0016485183 -0.024727762 0.66779792
-0.0016765506 -0.026824832 0.67118168
-0.0017055467 -0.028994292 0.67468178
-0.0017355699 -0.031240255 0.67830592
-0.0017666623 -0.033566564 0.68205917
-0.001798896 -0.0359779 0.68595004
-0.0018323206 -0.038478732 0.6899848
-0.0018670183 -0.041074395 0.6941731
-0.0019030554 -0.043770283 0.69852322
-0.001940503 -0.046572089 0.70304358
-0.0019794623 -0.049486548 0.70774639
-0.0020200096 -0.052520275 0.71264088
-0.0020622616 -0.05568108 0.71774113
-0.0021063094 -0.05897665 0.72305816
-0.0021522897 -0.062416404 0.72860849
-0.0022003122 -0.066009343 0.73440528
-0.0022505373 -0.06976667 0.74046803
0 0.073536813 0.67054677
0 0.070109785 0.66561794
0 0.066846192 0.6609242
0 0.063734829 0.65644979
0 0.060764909 0.65217835
0 0.0579274 0.64809769
0 0.055213213 0.64419413
0 0.052614868 0.64045745
0 0.050124764 0.63687617
0 0.047736436 0.63344121
0 0.045443952 0.63014436
0 0.043241322 0.62697655
0 0.041123658 0.62393105
0 0.039085895 0.62100041
0 0.03712377 0.61817861
0 0.035233021 0.61545932
0 0.033409864 0.6128372
0 0.031650811 0.61030751
0 0.029952407 0.60786486
0 0.028311789 0.60550541
0 0.026725769 0.60322446
0 0.025191903 0.60101861
0 0.023707539 0.59888369
0 0.022270352 0.5968169
0 0.021120906 0.59627992
0 0.020064861 0.59627992
0 0.019008785 0.59627992
0 0.018114805 0.59743059
0 0.017235488 0.59883595
0 0.016336739 0.60027206
0 0.015417963 0.60174048
0 0.014478356 0.60324186
0 0.01351735 0.60477781
0 0.012534052 0.60634893
0 0.011527807 0.60795712
0 0.010497749 0.60960305
0 0.0094430447 0.61128867
0 0.0083627701 0.61301523
0 0.007256031 0.61478376
0 0.0061217546 0.61659652
0 0.0049589872 0.61845446
0 0.0037665963 0.62036026
0 0.0025434792 0.62231463
0 0.0012883544 0.62432063
0 -0 0.62637925
0 -0.0013228953 0.62849355
0 -0.0026817918 0.63066494
0 -0.0040781796 0.6328966
0 -0.0055135489 0.63519025
0 -0.0069896579 0.6375494
0 -0.0085082054 0.63997632
0 -0.010071069 0.64247364
0 -0.011680216 0.6450454
0 -0.013337761 0.64769399
0 -0.015045851 0.65042388
0 -0.016806871 0.65323782
0 -0.018623382 0.65614104
0 -0.020497948 0.65913641
0 -0.02243346 0.66222972
0 -0.024432868 0.66542464
0 -0.02649951 0.66872752
0 -0.028636783 0.67214334
0 -0.030848235 0.67567706
0 -0.033138037 0.67933667
0 -0.035510212 0.68312716
0 -0.03796947 0.68705755
0 -0.040520489 0.69113398
0 -0.043168753 0.69536638
0 -0.045919627 0.69976211
0 -0.048779547 0.70433277
0 -0.051754802 0.70908707
0 -0.054852813 0.71403825
0 -0.058080971 0.71919662
0 -0.061448067 0.72457784
0 -0.064963073 0.7301954
0 -0.068635643 0.73606402
0.0016389302 0.072112918 0.66664052
0.0015996456 0.068784744 0.66189849
0.0015622055 0.065612644 0.65737903
0.001526473 0.062585384 0.65306568
0.0014923431 0.059693754 0.64894587
0.0014597017 0.056928337 0.6450057
0.0014284618 0.054281563 0.64123476
0.0013985269 0.051745504 0.63762128
0.0013698251 0.049313694 0.63415664
0.0013422737 0.046979576 0.63083088
0.0013158087 0.044737458 0.62763631
0.0012903707 0.042582214 0.6245656
0.0012658943 0.040508628 0.62161112
0.0012423323 0.03851229 0.6187669
0.0012196284 0.036588848 0.61602628
0.0011977423 0.034734547 0.61338437
0.001176625 0.032945484 0.61083531
0.0011562394 0.031218499 0.6083746
0.0011365509 0.029550344 0.60599792
0.001117519 0.027937979 0.60370064
0.0010991166 0.02637881 0.60147923
0.0010813081 0.024870098 0.59932953
0.0010640697 0.023409516 0.59724867
0.0010637415 0.022338539 0.5972091
0.0010637415 0.021274865 0.5972091
0.0010637415 0.020211101 0.5972091
0.0010637415 0.019147336 0.5972091
0.0010637415 0.018083632 0.5972091
0.001068789 0.017100632 0.59781837
0.0010804996 0.016207516 0.59923196
0.001092472 0.015294641 0.60067713
0.0011047128 0.014361292 0.60215473
0.0011172284 0.013406754 0.60366547
0.0011300335 0.01243037 0.6052112
0.0011431328 0.011431336 0.60679245
0.0011565422 0.010408878 0.60841113
0.001170267 0.0093621612 0.61006784
0.0011843244 0.008290261 0.61176479
0.0011987205 0.0071923435 0.61350244
0.0012134742 0.0060673654 0.61528343
0.0012285924 0.0049143434 0.61710835
0.0012440952 0.0037323236 0.61897969
0.0012599942 0.002519995 0.6208989
0.0012763015 0.0012763143 0.62286735
0.00129304 -2.9802322e-08 0.62488788
0.0013102196 -0.0013102293 0.62696159
0.0013278658 -0.0026557446 0.62909174
0.0013459898 -0.0040379763 0.63127947
0.0013646194 -0.0054584444 0.63352823
0.0013837678 -0.0069188476 0.6358397
0.0014034655 -0.0084207952 0.63821739
0.0014237277 -0.0099661052 0.64066327
0.0014445882 -0.011556715 0.64318132
0.0014660642 -0.013194591 0.64577377
0.0014881933 -0.014881909 0.64844489
0.0015110007 -0.016620994 0.65119803
0.0015345128 -0.01841414 0.65403616
0.0015587736 -0.020264059 0.65696478
0.0015838083 -0.022173315 0.65998667
0.001609666 -0.024144948 0.66310799
0.0016363764 -0.026181996 0.66633219
0.0016639939 -0.028287858 0.66966593
0.0016925535 -0.030465961 0.67311335
0.001722117 -0.032720238 0.67668205
0.001752725 -0.035054505 0.68037677
0.0017844476 -0.037473381 0.68420595
0.0018173394 -0.039981484 0.68817639
0.0018514595 -0.042583555 0.69229501
0.0018868928 -0.045285404 0.69657218
0.0019237009 -0.048092514 0.70101535
0.0019619819 -0.051011533 0.70563626
0.002001809 -0.054048836 0.71044385
0.0020432952 -0.057212234 0.71545166
0.0020865281 -0.060509324 0.72067034
0.0021316395 -0.063949138 0.7261157
0.0021787349 -0.067540765 0.73180068
0.0022279688 -0.071294993 0.73774374
0.003294979 0.074137032 0.66767371
0.003215608 0.070743352 0.66288328
0.0031399606 0.067509145 0.65831757
0.0030677905 0.064423621 0.65396166
0.0029988729 0.061476916 0.64980215
0.0029329746 0.058659494 0.64582479
0.0028699192 0.055963427 0.64201903
0.0028095094 0.053380668 0.63837302
0.0027515984 0.050904542 0.6348778
0.0026960187 0.048528373 0.63152325
0.0026426401 0.046246201 0.62830156
0.002591341 0.044052839 0.6252054
0.0025419891 0.041942835 0.62222672
0.0024944884 0.039911807 0.61935985
0.0024487239 0.037955225 0.61659771
0.0024046144 0.036069244 0.61393541
0.0023620601 0.034249872 0.61136705
0.0023209858 0.0324938 0.60888803
0.002281321 0.030797839 0.60649401
0.0022429838 0.029158801 0.60418016
0.002205919 0.027574003 0.60194314
0.0021700545 0.026040643 0.59977847
0.0021431085 0.024645746 0.59815216
0.0021431085 0.023574173 0.59815216
0.0021431085 0.022502631 0.59815216
0.0021431085 0.021431088 0.59815216
0.0021431085 0.020359516 0.59815216
0.0021431085 0.019287974 0.59815216
0.0021431085 0.018216431 0.59815216
0.0021431085 0.017144889 0.59815216
0.0021440422 0.01608032 0.59820855
0.0021676058 0.015173256 0.59963071
0.0021916982 0.014246076 0.60108483
0.002216327 0.013297975 0.60257131
0.0022415209 0.012328386 0.60409188
0.0022672887 0.011336416 0.60564715
0.0022936617 0.010321468 0.60723883
0.0023206552 0.0092826188 0.60886806
0.0023482859 0.0082190037 0.61053568
0.0023765883 0.0071297884 0.61224389
0.0024055752 0.0060139298 0.61399347
0.0024352842 0.0048705637 0.61578655
0.0024657301 0.0036986172 0.6176241
0.0024969531 0.002496928 0.61950856
0.0025289701 0.0012645125 0.62144095
0.002561826 -0 0.62342399
0.0025955399 -0.0012977719 0.62545884
0.00263016 -0.0026301742 0.62754834
0.0026657088 -0.0039985776 0.62969387
0.0027022392 -0.0054044724 0.63189864
0.002739785 -0.006849438 0.63416481
0.0027783806 -0.0083351135 0.63649422
0.0028180873 -0.0098632872 0.63889074
0.0028589373 -0.011435747 0.64135623
0.0029009974 -0.01305449 0.64389479
0.0029443046 -0.014721513 0.64650863
0.0029889338 -0.01643911 0.64920223
0.003034927 -0.018209547 0.65197814
0.0030823681 -0.020035386 0.65484148
0.0031313053 -0.021919131 0.65779507
0.0031818321 -0.023863733 0.66084468
0.0032340162 -0.025872141 0.66399425
0.0032879293 -0.027947396 0.66724819
0.0033436823 -0.030093133 0.67061317
0.0034013463 -0.03231281 0.67409348
0.0034610468 -0.03461048 0.67769682
0.0035228673 -0.036990106 0.68142796
0.0035869502 -0.039456457 0.6852957
0.0036533936 -0.042014033 0.6893059
0.0037223594 -0.044668317 0.69346833
0.0037939642 -0.047424525 0.69779015
0.0038683931 -0.050289124 0.70228231
0.0039457851 -0.053268075 0.70695329
0.0040263534 -0.056368917 0.71181607
0.0041102804 -0.059599072 0.71688151
0.0041977628 -0.062966436 0.72216153
0.0042890687 -0.066480547 0.72767234
0.0043844152 -0.070150644 0.73342699
0.0048481212 0.072721809 0.66387749
0.0047334982 0.069424629 0.6592654
0.0046241703 0.066279769 0.65486634
0.0045197927 0.063277096 0.65066653
0.0044200094 0.060406774 0.64665163
0.0043245503 0.057660699 0.64281058
0.004233114 0.055030465 0.63913149
0.004145477 0.052509367 0.63560522
0.0040613832 0.050090432 0.63222152
0.0039806333 0.047767609 0.62897241
0.0039030423 0.045535505 0.62585044
0.0038284082 0.043388605 0.62284738
0.0037565848 0.04132244 0.61995739
0.0036873971 0.039332241 0.61717355
0.0036207212 0.037414134 0.61449069
0.0035564047 0.035564035 0.61190277
0.0034943419 0.033778667 0.60940558
0.0034343998 0.032054394 0.60699368
0.0033764795 0.030388325 0.60466319
0.0033204884 0.02877757 0.60241026
0.0032663161 0.027219325 0.60023052
0.0032384405 0.025907516 0.59910893
0.0032384405 0.024828076 0.59910893
0.0032384405 0.023748577 0.59910893
0.0032384405 0.022669077 0.59910893
0.0032384405 0.021589637 0.59910893
0.0032384405 0.020510137 0.59910893
0.0032384405 0.019430637 0.59910893
0.0032384405 0.018351167 0.59910893
0.0032384405 0.017271668 0.59910893
0.0032384405 0.016192198 0.59910893
0.0032384405 0.015112728 0.59910887
0.0032613792 0.014132649 0.60003185
0.0032977411 0.013190955 0.60149503
0.0033349153 0.012228042 0.60299075
0.0033729449 0.011243165 0.60452092
0.0034118437 0.010235548 0.60608608
0.0034516584 0.0092044175 0.60768813
0.0034924049 0.0081489384 0.60932767
0.003534134 0.0070682466 0.61100674
0.0035768631 0.0059614182 0.61272597
0.0036206471 0.0048275292 0.61448771
0.0036655068 0.0036655366 0.61629272
0.0037115021 0.0024743378 0.61814344
0.0037586666 0.0012529194 0.62004119
0.0038070343 -0 0.62198734
0.0038566741 -0.001285553 0.62398475
0.0039076144 -0.0026050508 0.62603438
0.0039599296 -0.0039598942 0.62813938
0.0040136534 -0.0053515434 0.63030112
0.0040688664 -0.0067814291 0.6325227
0.0041256077 -0.0082511902 0.6348058
0.0041839662 -0.0097625852 0.63715392
0.0042439871 -0.011317283 0.63956892
0.0043057678 -0.01291728 0.64205486
0.0043693604 -0.014564514 0.64461356
0.0044348733 -0.01626119 0.64724964
0.0045023812 -0.018009514 0.64996594
0.0045719608 -0.019811809 0.65276563
0.0046437401 -0.021670759 0.65565377
0.0047177933 -0.023588955 0.65863347
0.0047942628 -0.025569379 0.66171038
0.0048732357 -0.027614981 0.66488796
0.0049548713 -0.029729217 0.66817272
0.0050392705 -0.031915367 0.67156863
0.0051266132 -0.034177423 0.6750831
0.0052170176 -0.03651914 0.67872071
0.0053106882 -0.038945049 0.68248975
0.0054077837 -0.04145968 0.68639654
0.0055084741 -0.04406777 0.69044805
0.0056130076 -0.046775073 0.69465411
0.0057215621 -0.049586862 0.699022
0.0058344225 -0.052509785 0.70356315
0.0059517999 -0.055550128 0.70828605
0.006074023 -0.058715552 0.71320391
0.0062013441 -0.062013417 0.71832699
0.0063341456 -0.065452844 0.72367042
0.0064727296 -0.069042474 0.72924668
0.0064974469 0.074720651 0.66488189
0.0063430574 0.071359366 0.66022283
0.0061958544 0.068154395 0.65578055
0.0060553094 0.06509456 0.65153927
0.0059209992 0.062170506 0.64748609
0.0057925358 0.059373528 0.64360934
0.0056695119 0.056695133 0.63989675
0.0055516204 0.054128319 0.63633907
0.0054385164 0.051665872 0.63292587
0.0053299442 0.049302012 0.6296494
0.0052256081 0.047030449 0.62650079
0.0051252777 0.044846207 0.62347305
0.005028741 0.042744309 0.62055981
0.0049357605 0.040720046 0.61775386
0.0048461687 0.038769335 0.6150502
0.0047597596 0.036888152 0.61244261
0.004676389 0.035072893 0.60992658
0.0045958781 0.033320099 0.60749698
0.0045180921 0.031626672 0.60514963
0.004442906 0.0299896 0.60288066
0.0043701711 0.028406113 0.60068572
0.0043501067 0.027188182 0.60008019
0.0043501067 0.026100665 0.60008019
0.0043501067 0.025013149 0.60008025
0.0043501067 0.023925602 0.60008019
0.0043501067 0.022838056 0.60008019
0.0043501067 0.02175054 0.60008019
0.0043501067 0.020663023 0.60008019
0.0043501067 0.019575536 0.60008019
0.0043501067 0.01848796 0.60008019
0.0043501067 0.017400444 0.60008019
0.0043501067 0.016312927 0.60008019
0.0043500969 0.015225321 0.60007989
0.0043500969 0.014137834 0.60007989
0.0043618814 0.013085663 0.60043555
0.0044106543 0.012129307 0.60190743
0.0044605406 0.011151344 0.60341287
0.0045115571 0.010150999 0.60495239
0.0045637656 0.0091275275 0.60652792
0.0046171965 0.0080800951 0.60814035
0.0046718814 0.0070078075 0.60979062
0.0047278893 0.0059098601 0.61148083
0.0047852444 0.0047852695 0.61321163
0.0048440201 0.0036329925 0.61498535
0.0049042455 0.0024521351 0.61680281
0.0049660001 0.0012415051 0.61866641
0.0050293161 -2.9802322e-08 0.62057722
0.0050942814 -0.0012735724 0.62253767
0.0051609334 -0.0025804639 0.62454903
0.0052293665 -0.0039220154 0.62661421
0.0052996241 -0.0052995682 0.62873441
0.0053718104 -0.0067147613 0.63091284
0.0054459907 -0.0081689954 0.63315147
0.0055222325 -0.0096638799 0.63545221
0.005600655 -0.011201292 0.63781881
0.0056813201 -0.012782961 0.64025313
0.005764361 -0.014410913 0.64275908
0.0058498471 -0.016087085 0.64533883
0.0059379255 -0.017813772 0.64799684
0.0060286773 -0.019593179 0.65073556
0.0061222664 -0.0214279 0.6535598
0.0062187864 -0.023320407 0.65647256
0.0063184192 -0.025273681 0.65947932
0.0064212969 -0.027290523 0.66258395
0.0065275575 -0.029374003 0.66579056
0.0066374182 -0.031527698 0.66910589
0.0067510153 -0.033755094 0.67253399
0.0068685934 -0.036060095 0.67608219
0.006990314 -0.038446724 0.67975551
0.0071164533 -0.040919632 0.68356216
0.0072472002 -0.043483198 0.68750775
0.0073828716 -0.046142966 0.69160199
0.007523688 -0.048903972 0.6958515
0.0076700128 -0.051772565 0.7002672
0.0078221094 -0.054754734 0.70485717
0.0079803942 -0.057857841 0.70963383
0.0081452169 -0.061089128 0.71460778
0.0083169546 -0.064456403 0.71979046
0.008496129 -0.067969054 0.72519755
0.0086831525 -0.071635991 0.73084146
0.0079688793 0.073313713 0.66118991
0.0077830339 0.070047319 0.65670317
0.0076056346 0.066929609 0.65242034
0.0074361423 0.063950837 0.64832848
0.0072740619 0.061102152 0.6444155
0.0071188752 0.058374763 0.64066899
0.0069701914 0.055761546 0.63707948
0.0068275724 0.053255051 0.6336363
0.0066906912 0.050849259 0.6303317
0.0065591726 0.04853788 0.62715656
0.0064327251 0.04631561 0.62410384
0.0063110772 0.044177562 0.621167
0.0061939284 0.042118728 0.61833876
0.0060810656 0.040135026 0.61561406
0.0059722271 0.038222283 0.61298645
0.0058672302 0.036376834 0.61045158
0.0057658479 0.034595102 0.60800397
0.0056679095 0.032873869 0.60563958
0.0055732559 0.031210244 0.60335445
0.0054816986 0.029601187 0.60114402
0.005478458 0.02848798 0.60106575
0.005478458 0.027392298 0.60106581
0.005478458 0.026296616 0.60106581
0.005478458 0.025200933 0.60106575
0.005478458 0.024105191 0.60106575
0.005478458 0.023009509 0.60106581
0.005478458 0.021913826 0.60106575
0.005478458 0.020818144 0.60106581
0.005478458 0.019722462 0.60106575
0.005478458 0.01862675 0.60106575
0.005478458 0.017531067 0.60106581
0.005478458 0.016435355 0.60106575
0.005478458 0.015339702 0.60106575
0.005478458 0.01424402 0.60106581
0.005478458 0.013148278 0.60106575
0.005478458 0.012052596 0.60106575
0.0055305199 0.011061043 0.6023227
0.0055932696 0.01006788 0.60383761
0.0056574461 0.0090518892 0.60538697
0.0057231262 0.0080123842 0.60697263
0.0057903351 0.0069484115 0.60859519
0.0058591557 0.0058591962 0.61025667
0.0059296167 0.0047436953 0.61195773
0.0060018091 0.0036010742 0.61370063
0.0060757804 0.00243029 0.61548644
0.0061515816 0.0012302995 0.61731642
0.0062293154 -0 0.61919308
0.0063090213 -0.0012617707 0.62111735
0.0063908114 -0.002556324 0.62309194
0.006474731 -0.0038848221 0.62511796
0.006560903 -0.0052486956 0.62719834
0.006649381 -0.006649375 0.62933439
0.0067402967 -0.0080883503 0.63152927
0.0068337135 -0.0095672011 0.63378453
0.0069297771 -0.011087656 0.63610375
0.0070285583 -0.012651414 0.63848853
0.0071302173 -0.014260411 0.64094281
0.0072348611 -0.015916735 0.64346915
0.0073425993 -0.017622232 0.64607018
0.0074536186 -0.019379437 0.64875042
0.0075680218 -0.021190435 0.65151227
0.0076860166 -0.023058057 0.65436101
0.0078077237 -0.024984688 0.65729922
0.0079333736 -0.026973456 0.66033274
0.0080631068 -0.029027164 0.66346473
0.0081971809 -0.031149268 0.66670156
0.0083357608 -0.033343017 0.67004716
0.008479137 -0.035612375 0.67350864
0.0086275311 -0.037961155 0.67709112
0.0087811798 -0.040393412 0.68080056
0.008940435 -0.042914063 0.6846453
0.0091055371 -0.045527637 0.68863118
0.0092768883 -0.048239827 0.69276798
0.0094547747 -0.051055789 0.69706261
0.0096396562 -0.053982079 0.70152599
0.0098318709 -0.057024837 0.70616645
0.01003195 -0.060191691 0.71099681
0.010240297 -0.063489825 0.71602672
0.010457528 -0.066928178 0.72127116
0.010684126 -0.070515245 0.72674173
0.0093859546 0.071958959 0.65763497
0.009170983 0.068782389 0.65331006
0.0089656673 0.065748215 0.64917946
0.0087693157 0.06284678 0.64522916
0.0085813804 0.06006968 0.64144814
0.0084013566 0.057409257 0.63782632
0.0082287062 0.054858029 0.63435292
0.0080630323 0.052409679 0.63101983
0.0079038758 0.050057888 0.62781781
0.0077509014 0.047797203 0.62474024
0.0076037161 0.045622319 0.62177908
0.0074620168 0.043528438 0.61892831
0.0073255212 0.041511267 0.61618227
0.0071939114 0.039566517 0.61353445
0.0070669642 0.03769052 0.61098045
0.0069444031 0.035879403 0.60851467
0.0068260366 0.034130186 0.60613334
0.0067116218 0.03243953 0.60383153
0.0066238795 0.030911416 0.60206628
0.0066238795 0.029807419 0.60206628
0.0066238795 0.028703481 0.60206628
0.0066238795 0.027599514 0.60206628
0.0066238795 0.026495546 0.60206628
0.0066238795 0.025391519 0.60206628
0.0066238795 0.024287581 0.60206628
0.0066238795 0.023183554 0.60206628
0.0066238795 0.022079617 0.60206634
0.0066238795 0.02097562 0.60206628
0.0066238795 0.019871622 0.60206628
0.0066238795 0.018767655 0.60206628
0.0066238795 0.017663658 0.60206628
0.0066238795 0.01655969 0.60206628
0.0066238795 0.015455723 0.60206628
0.0066238795 0.014351726 0.60206628
0.0066238795 0.013247788 0.60206628
0.0066238795 0.012143791 0.60206628
0.0066238795 0.011039793 0.60206628
0.0066573955 0.0099861026 0.60274059
0.0067331702 0.008977592 0.60426503
0.006810673 0.007945776 0.60582429
0.0068899975 0.0068900287 0.60742021
0.0069711744 0.0058093369 0.60905325
0.0070543052 0.0047028661 0.61072576
0.0071394239 0.0035697222 0.6124382
0.0072266399 0.0024088919 0.6141929
0.0073159952 0.0012193322 0.61599058
0.0074076061 -0 0.61783361
0.0075015216 -0.0012502372 0.61972308
0.0075978693 -0.0025326312 0.62166142
0.0076967231 -0.0038483739 0.62365025
0.0077981628 -0.0051987469 0.62569106
0.0079023335 -0.0065852702 0.62778676
0.0080093024 -0.0080092847 0.62993884
0.0081192302 -0.0094724298 0.63215041
0.008232194 -0.010976255 0.63442308
0.00834837 -0.012522578 0.63676035
0.0084678466 -0.014113069 0.63916403
0.0085908184 -0.015749812 0.64163804
0.0087173879 -0.017434776 0.64418447
0.0088477703 -0.019170135 0.64680755
0.0089820838 -0.020958155 0.64950967
0.0091205668 -0.022801399 0.65229571
0.0092633879 -0.02470234 0.65516907
0.0094107212 -0.026663721 0.65813315
0.0095628491 -0.02868855 0.66119379
0.0097199427 -0.030779809 0.66435426
0.0098823188 -0.032941043 0.66762102
0.010050176 -0.035175592 0.67099804
0.010223871 -0.037487507 0.67449248
0.010403637 -0.039880574 0.67810911
0.010589878 -0.042359531 0.68185604
0.010782868 -0.04492861 0.68573868
0.010983064 -0.047593266 0.68976629
0.011190835 -0.050358742 0.69394636
0.011406573 -0.053230643 0.69828665
0.011630839 -0.056215733 0.70279855
0.011864051 -0.059320241 0.70749044
0.01210686 -0.062552124 0.71237534
0.012359761 -0.065918714 0.71746331
0.012623508 -0.069429249 0.7227695
0.011004852 0.073889732 0.65857601
0.010751575 0.0706532 0.65420842
0.010509728 0.067562521 0.65003788
0.010278489 0.06460765 0.64605033
0.010057238 0.061780185 0.64223498
0.009845282 0.05907169 0.63857996
0.0096420748 0.056475013 0.63507575
0.0094471145 0.053983539 0.63171375
0.0092598554 0.051590621 0.62848461
0.0090799015 0.049290866 0.62538141
0.0089067835 0.047078729 0.62239611
0.0087401671 0.044949442 0.61952293
0.0085796472 0.042898238 0.61675483
0.0084249172 0.040921062 0.61408657
0.0082756896 0.039013982 0.61151332
0.0081316382 0.037173212 0.60902917
0.007992534 0.035395503 0.60663044
0.0078580901 0.033677518 0.604312
0.0077867811 0.032259554 0.6030823
0.0077867811 0.031147152 0.60308236
0.0077867811 0.030034751 0.60308236
0.0077867811 0.028922349 0.6030823
0.0077867811 0.027809948 0.60308236
0.0077867811 0.026697516 0.60308236
0.0077867811 0.025585145 0.6030823
0.0077867811 0.024472773 0.6030823
0.0077867811 0.023360372 0.60308236
0.0077867811 0.02224794 0.60308236
0.0077867811 0.021135569 0.6030823
0.0077867811 0.020023167 0.6030823
0.0077867811 0.018910766 0.60308236
0.0077867811 0.017798394 0.6030823
0.0077867811 0.016685963 0.6030823
0.0077867811 0.015573561 0.60308236
0.0077867811 0.01446116 0.60308242
0.0077867811 0.013348758 0.6030823
0.0077867811 0.012236357 0.60308236
0.0077867811 0.011123985 0.60308236
0.0077867811 0.010011584 0.60308236
0.0077913478 0.0089043677 0.6031611
0.0078802919 0.0078803003 0.6046949
0.0079713082 0.00683254 0.60626441
0.008064433 0.0057602823 0.60787028
0.0081597799 0.0046627522 0.60951447
0.0082574077 0.0035389066 0.61119801
0.0083573787 0.0023878515 0.61292195
0.0084598223 0.0012085736 0.61468852
0.0085647861 -0 0.61649859
0.0086724097 -0.0012389123 0.6183545
0.0087827491 -0.0025093555 0.6202572
0.0088959569 -0.0038125515 0.62220943
0.0090120966 -0.0051497817 0.62421215
0.0091313329 -0.0065223575 0.62626827
0.0092537422 -0.0079317689 0.62837917
0.0093795042 -0.0093794763 0.63054788
0.0095087038 -0.010867089 0.63277584
0.0096415412 -0.012396246 0.63506651
0.0097781429 -0.013968736 0.63742214
0.0099186404 -0.015586436 0.63984495
0.010063265 -0.017251313 0.64233893
0.010212139 -0.018965393 0.64490616
0.010365516 -0.020731002 0.647551
0.010523536 -0.022550434 0.65027601
0.010686484 -0.024426222 0.65308595
0.010854522 -0.026360989 0.65598369
0.011027965 -0.028357625 0.65897459
0.011207003 -0.030419022 0.66206193
0.01139199 -0.032548517 0.66525191
0.011583187 -0.034749538 0.66854906
0.011780869 -0.037025601 0.67195797
0.011985458 -0.039380819 0.67548597
0.012197236 -0.041819096 0.67913789
0.012416677 -0.04434526 0.68292207
0.01264411 -0.046963811 0.68684399
0.012880081 -0.049680293 0.6909132
0.013124976 -0.05249989 0.69513625
0.013379416 -0.055429041 0.69952393
0.013643862 -0.058473706 0.7040841
0.013919029 -0.061641425 0.70882922
0.014205464 -0.06493929 0.7137686
0.014504 -0.068376034 0.71891665
0.014815352 -0.0719603 0.72428572
0.012347634 0.07254234 0.65511549
0.012068556 0.069394201 0.6509046
0.011801778 0.066385031 0.6468792
0.011546575 0.063506156 0.6430285
0.011302141 0.060749024 0.63934028
0.011067842 0.058106154 0.63580495
0.010843091 0.055570841 0.63241374
0.010627256 0.053136289 0.62915701
0.010419874 0.050796896 0.62602794
0.010220405 0.04854691 0.62301809
0.010028454 0.046381593 0.62012178
0.0098435562 0.044296026 0.61733192
0.0096653523 0.042285889 0.61464304
0.0094935102 0.040347427 0.61205012
0.0093276482 0.038476557 0.6095475
0.0091675054 0.036670029 0.60713112
0.0090127457 0.034924418 0.60479593
0.00896753 0.033628255 0.6041137
0.00896753 0.0325073 0.6041137
0.00896753 0.031386375 0.6041137
0.00896753 0.030265421 0.6041137
0.00896753 0.029144496 0.6041137
0.00896753 0.028023541 0.6041137
0.00896753 0.026902586 0.6041137
0.00896753 0.025781661 0.6041137
0.00896753 0.024660707 0.6041137
0.00896753 0.023539811 0.6041137
0.00896753 0.022418827 0.6041137
0.00896753 0.021297902 0.60411364
0.00896753 0.020176947 0.60411376
0.00896753 0.019055992 0.6041137
0.00896753 0.017935067 0.6041137
0.00896753 0.016814113 0.6041137
0.00896753 0.015693188 0.6041137
0.00896753 0.014572233 0.6041137
0.00896753 0.013451278 0.6041137
0.00896753 0.012330353 0.6041137
0.00896753 0.011209428 0.6041137
0.00896753 0.010088474 0.6041137
0.00896753 0.0089675486 0.6041137
0.00896753 0.0078465939 0.6041137
0.009034737 0.0067760646 0.60512781
0.0091394251 0.0057121515 0.60670739
0.009246544 0.0046232641 0.60832369
0.0093562277 0.0035085976 0.60997868
0.0094685201 0.0023671389 0.61167306
0.0095835663 0.001197964 0.61340898
0.0097014159 2.9802322e-08 0.61518717
0.0098222271 -0.0012277663 0.61701006
0.0099460585 -0.0024864972 0.61887854
0.010073079 -0.0037774146 0.62079513
0.010203385 -0.0051016808 0.62276131
0.010337079 -0.0064606965 0.62477863
0.010474352 -0.007855773 0.62684989
0.01061529 -0.0092883706 0.62897646
0.010760103 -0.010760099 0.63116151
0.010908891 -0.012272507 0.63340652
0.011061883 -0.013827354 0.63571507
0.011219194 -0.015426397 0.6380887
0.011381079 -0.017071605 0.6405313
0.011547668 -0.018764943 0.64304495
0.011719243 -0.020508677 0.64563388
0.011895993 -0.022305012 0.64830083
0.012078119 -0.024156213 0.65104884
0.012265946 -0.026065111 0.65388292
0.012459667 -0.02803427 0.65680599
0.012659648 -0.030066669 0.65982342
0.012866109 -0.032165259 0.66293871
0.013079461 -0.034333587 0.66615796
0.013299962 -0.03657487 0.66948503
0.013528072 -0.038893193 0.67292696
0.013764095 -0.04129228 0.67648822
0.014008552 -0.043776691 0.68017685
0.014261794 -0.046350807 0.68399793
0.014524417 -0.049019903 0.68796062
0.014796894 -0.051789135 0.69207203
0.015079727 -0.054664016 0.69633967
0.01537365 -0.057651162 0.70077461
0.01567919 -0.060756862 0.70538485
0.015997192 -0.063988745 0.71018308
0.016328286 -0.067354172 0.71517897
0.016673451 -0.070862174 0.7203871
0.013959387 0.074450076 0.65603161
0.013642365 0.071243495 0.65177953
0.013339381 0.068179101 0.64771593
0.013049602 0.065248013 0.64382929
0.012772107 0.062441438 0.64010739
0.012506169 0.059751719 0.63654059
0.012251114 0.057171851 0.6331197
0.012006221 0.05469501 0.62983513
0.011770959 0.052315384 0.62667972
0.011544709 0.050027072 0.62364519
0.011327023 0.047825217 0.62072551
0.011117363 0.045704693 0.61791354
0.010915326 0.043661296 0.61520374
0.010720527 0.041690975 0.61259103
0.010532534 0.039789557 0.61006957
0.010351044 0.037953854 0.60763538
0.010175679 0.036180168 0.60528338
0.010166582 0.035018235 0.60516137
0.010166582 0.033888638 0.60516137
0.010166582 0.032758981 0.60516131
0.010166582 0.031629384 0.60516131
0.010166582 0.030499756 0.60516137
0.010166582 0.029370099 0.60516131
0.010166582 0.028240532 0.60516131
0.010166582 0.027110875 0.60516137
0.010166582 0.025981277 0.60516131
0.010166582 0.02485165 0.60516137
0.010166582 0.023722053 0.60516131
0.010166582 0.022592396 0.60516137
0.010166582 0.021462768 0.60516137
0.010166582 0.020333201 0.60516137
0.010166582 0.019203544 0.60516137
0.010166582 0.018073946 0.60516131
0.010166582 0.016944289 0.60516131
0.010166582 0.015814692 0.60516137
0.010166582 0.014685065 0.60516131
0.010166582 0.013555437 0.60516137
0.010166582 0.01242584 0.60516131
0.010166582 0.011296213 0.60516137
0.010166582 0.010166585 0.60516137
0.010166582 0.0090369582 0.60516137
0.010166582 0.007907331 0.60516137
0.010166582 0.0067777336 0.60516131
0.010196562 0.005664736 0.60556346
0.010315069 0.0045844615 0.60715288
0.010436389 0.0034787953 0.60878009
0.010560595 0.0023468137 0.61044598
0.010687768 0.0011875033 0.61215162
0.010818068 -0 0.61389929
0.010951556 -0.0012168586 0.61568964
0.011088408 -0.0024640858 0.6175251
0.011228694 -0.0037428737 0.6194067
0.011372606 -0.0050544739 0.62133694
0.011520223 -0.0064001083 0.62331676
0.011671755 -0.0077811778 0.62534916
0.011827295 -0.0091989934 0.62743533
0.011987069 -0.010655165 0.62957823
0.012151217 -0.012151212 0.63177985
0.01231989 -0.013688773 0.63404214
0.012493347 -0.015269637 0.63636863
0.012671721 -0.016895622 0.63876104
0.012855302 -0.018568784 0.64122331
0.013044239 -0.02029106 0.64375734
0.013238855 -0.022064745 0.64636755
0.013439322 -0.023892134 0.64905632
0.013645997 -0.02577576 0.65182829
0.013859085 -0.027718157 0.65468627
0.014078978 -0.029722303 0.65763557
0.014305915 -0.031790912 0.66067934
0.014540337 -0.033927441 0.66382343
0.014782568 -0.036135167 0.66707236
0.015032955 -0.038417548 0.6704306
0.015292025 -0.040778697 0.67390531
0.015560123 -0.043222576 0.67750114
0.01583785 -0.045753777 0.68122607
0.016125608 -0.048376828 0.68508554
0.016424082 -0.051097125 0.68908876
0.016733747 -0.053919822 0.69324207
0.017055379 -0.056851268 0.69755596
0.017389549 -0.059897304 0.70203793
0.01773715 -0.063065439 0.70670009
0.018098928 -0.066362739 0.71155238
0.018475693 -0.069797039 0.71660566
0.015231371 0.07311061 0.65266305
0.0148915 0.069990039 0.64856046
0.01456651 0.067005962 0.64463747
0.01425536 0.064149112 0.64088154
0.013957264 0.061411977 0.63728315
0.013671342 0.05878678 0.63383186
0.013396898 0.056266993 0.63051897
0.013133294 0.053846508 0.62733698
0.012879827 0.051519334 0.62427741
0.012635993 0.049280375 0.62133402
0.012401186 0.047124505 0.6184997
0.012174979 0.045047432 0.61576909
0.011956845 0.043044657 0.61313599
0.011746391 0.041112363 0.61059558
0.011543245 0.039247066 0.60814345
0.01138432 0.037568241 0.60622501
0.01138432 0.036429822 0.60622501
0.01138432 0.035291404 0.60622501
0.01138432 0.034152955 0.60622501
0.01138432 0.033014506 0.60622501
0.01138432 0.031876087 0.60622501
0.01138432 0.030737668 0.60622501
0.01138432 0.02959922 0.60622501
0.01138432 0.028460801 0.60622501
0.01138432 0.027322382 0.60622501
0.01138432 0.026183903 0.60622501
0.01138432 0.025045484 0.60622501
0.01138432 0.023907095 0.60622501
0.01138432 0.022768646 0.60622501
0.01138432 0.021630198 0.60622501
0.01138432 0.020491779 0.60622501
0.01138432 0.01935336 0.60622501
0.01138432 0.018214911 0.60622501
0.01138432 0.017076492 0.60622501
0.01138432 0.015938044 0.60622501
0.01138432 0.014799625 0.60622501
0.01138432 0.013661206 0.60622501
0.01138432 0.012522757 0.60622501
0.01138432 0.011384308 0.60622501
0.01138432 0.010245919 0.60622501
0.01138432 0.0091074407 0.60622501
0.01138432 0.0079690218 0.60622501
0.01138432 0.0068306327 0.60622501
0.01138432 0.0056922138 0.60622501
0.01138432 0.0045537353 0.60622501
0.011498362 0.0034495294 0.60760164
0.011634042 0.0023268163 0.60923946
0.011772933 0.0011772811 0.61091602
0.011915211 -0 0.61263341
0.012060938 -0.0012060702 0.61439252
0.012210307 -0.0024420619 0.61619556
0.012363421 -0.0037090182 0.61804378
0.012520391 -0.0050081611 0.61993861
0.012681431 -0.0063407123 0.62188256
0.012846633 -0.0077079833 0.62387669
0.013016233 -0.0091114044 0.62592399
0.013190334 -0.010552257 0.62802559
0.013369192 -0.01203227 0.63018453
0.01355293 -0.013552934 0.63240248
0.013741829 -0.015116006 0.63468266
0.013936026 -0.016723216 0.63702685
0.014135832 -0.018376559 0.63943875
0.014341408 -0.020077944 0.64192021
0.014553098 -0.021829635 0.64447552
0.014771129 -0.023633808 0.64710742
0.014995744 -0.025492758 0.64981878
0.015227346 -0.027409226 0.65261447
0.015466165 -0.029385686 0.65549719
0.015712645 -0.031425297 0.65847254
0.015967054 -0.033530802 0.66154349
0.016229894 -0.035705775 0.6647163
0.016501473 -0.037953377 0.6679945
0.016782356 -0.04027763 0.67138505
0.017072907 -0.04268226 0.67489231
0.017373756 -0.045171767 0.6785239
0.0176854 -0.047750562 0.68228579
0.018008361 -0.050423384 0.68618429
0.018343406 -0.053195894 0.69022864
0.018691082 -0.056073248 0.6944254
0.019052267 -0.059062004 0.69878531
0.019427607 -0.06216833 0.70331609
0.019818116 -0.065399766 0.70802993
0.02022456 -0.068763494 0.71293616
0.020648114 -0.072268397 0.71804893
0.016458342 0.071818233 0.64941299
0.016097492 0.068780214 0.6454531
0.015752077 0.065872341 0.64166266
0.015421221 0.063086808 0.6380319
0.015103932 0.060415745 0.63455009
0.014799438 0.057852358 0.63120866
0.014507019 0.055390418 0.62799978
0.014225892 0.053023815 0.62491477
0.013955491 0.050747216 0.62194747
0.013695141 0.048555493 0.6190905
0.013444364 0.046444148 0.61633849
0.013202571 0.044408679 0.61368513
0.012969323 0.042445064 0.61112559
0.012744202 0.040549725 0.60865515
0.012621234 0.039011091 0.60730577
0.012621234 0.037863731 0.60730577
0.012621234 0.036716342 0.60730577
0.012621234 0.035568923 0.60730577
0.012621234 0.034421563 0.60730577
0.012621234 0.033274144 0.60730577
0.012621234 0.032126814 0.60730571
0.012621234 0.030979395 0.60730577
0.012621234 0.029832006 0.60730571
0.012621234 0.028684646 0.60730571
0.012621234 0.027537227 0.60730577
0.012621234 0.026389867 0.60730577
0.012621234 0.025242478 0.60730571
0.012621234 0.024095088 0.60730577
0.012621234 0.022947729 0.60730577
0.012621234 0.021800339 0.60730577
0.012621234 0.02065295 0.60730571
0.012621234 0.019505531 0.60730577
0.012621234 0.018358171 0.60730577
0.012621234 0.017210782 0.60730571
0.012621204 0.016063362 0.60730541
0.012621204 0.014915973 0.60730541
0.012621204 0.013768554 0.60730541
0.012621204 0.012621194 0.60730541
0.012621204 0.011473864 0.60730541
0.012621204 0.010326475 0.60730541
0.012621204 0.0091790557 0.60730541
0.012621204 0.0080316663 0.60730541
0.012621204 0.0068843067 0.60730541
0.012621204 0.0057369173 0.60730541
0.012621204 0.0045895576 0.60730541
0.012621204 0.0034421682 0.60730541
0.012689356 0.0023071766 0.60805321
0.012839582 0.0011672378 0.60970181
0.012993377 -0 0.61138952
0.013150932 -0.00119555 0.61311853
0.013312322 -0.0024204254 0.6148895
0.013477758 -0.003675729 0.61670494
0.013647322 -0.0049626529 0.61856568
0.013821243 -0.0062823892 0.62047428
0.013999616 -0.0076361597 0.6224317
0.014182692 -0.0090253353 0.62444067
0.014370581 -0.010451347 0.62650251
0.014563555 -0.011915654 0.62862015
0.014761781 -0.013419807 0.63079542
0.014965436 -0.014965445 0.6330303
0.015174834 -0.016554356 0.63532817
0.015390128 -0.018188357 0.63769078
0.015611666 -0.019869357 0.64012182
0.015839627 -0.021599501 0.64262342
0.016074395 -0.023380935 0.64519966
0.016316174 -0.025215894 0.64785284
0.016565392 -0.02710703 0.65058774
0.016822284 -0.029056698 0.6534068
0.017087327 -0.031067878 0.65631527
0.017360855 -0.033143431 0.6593169
0.017643224 -0.035286427 0.6624155
0.017934991 -0.037500441 0.66561729
0.018236507 -0.039788723 0.668926
0.018548399 -0.042155445 0.67234868
0.018871076 -0.044604361 0.67588961
0.019205254 -0.047140151 0.67955673
0.019551402 -0.049767226 0.68335533
0.019910337 -0.05249089 0.68729413
0.020282615 -0.05531624 0.69137943
0.020669164 -0.058249474 0.69562137
0.021070648 -0.061296433 0.70002705
0.021488126 -0.06446436 0.70460832
0.02192248 -0.067760408 0.70937479
0.022374664 -0.071192086 0.71433693
0.018040119 0.073663831 0.65027368
0.017642744 0.070571005 0.64627641
0.017262446 0.067611247 0.64245093
0.016898246 0.064776629 0.63878739
0.016549049 0.062058926 0.63527471
0.016213993 0.059451312 0.6319043
0.015892278 0.056947351 0.62866807
0.015583038 0.054540664 0.62555742
0.015285647 0.052225977 0.62256581
0.014999352 0.049997836 0.61968595
0.014723623 0.047851801 0.61691236
0.014457813 0.045783073 0.6142385
0.014201464 0.043787837 0.61165982
0.013954015 0.041862071 0.60917068
0.013877724 0.04047671 0.60840327
0.013877724 0.03932023 0.60840321
0.013877724 0.038163751 0.60840321
0.013877724 0.037007272 0.60840321
0.013877724 0.035850793 0.60840327
0.013877724 0.034694314 0.60840327
0.013877724 0.033537835 0.60840327
0.013877724 0.032381415 0.60840321
0.013877724 0.031224906 0.60840327
0.013877724 0.030068457 0.60840321
0.013877724 0.028911948 0.60840327
0.013877724 0.027755469 0.60840327
0.013877724 0.02659896 0.60840327
0.013877724 0.025442511 0.60840321
0.013877724 0.024286032 0.60840327
0.013877724 0.023129553 0.60840321
0.013877724 0.021973044 0.60840327
0.013877724 0.020816594 0.60840321
0.013877724 0.019660115 0.60840327
0.013877724 0.018503636 0.60840327
0.013877724 0.017347157 0.60840327
0.013877724 0.016190678 0.60840321
0.013877724 0.015034199 0.60840327
0.013877724 0.01387772 0.60840321
0.013877724 0.01272127 0.60840327
0.013877724 0.011564791 0.60840321
0.013877724 0.010408282 0.60840327
0.013877724 0.009251833 0.60840327
0.013877724 0.008095324 0.60840327
0.013877724 0.0069388747 0.60840327
0.013877724 0.0057823956 0.60840321
0.013877724 0.0046259165 0.60840327
0.013877724 0.0034694374 0.60840327
0.013877724 0.0023129582 0.60840327
0.013888125 0.0011573732 0.60850787
0.014053052 -0 0.61016691
0.014221979 -0.001185149 0.61186618
0.014394981 -0.0023991466 0.61360645
0.01457228 -0.0036430657 0.61538994
0.014754002 -0.0049179792 0.6172179
0.014940273 -0.0062250793 0.61909163
0.015131348 -0.0075656772 0.62101376
0.015327334 -0.0089409649 0.62298524
0.015528504 -0.010352343 0.62500882
0.015734982 -0.011801243 0.6270858
0.01594707 -0.013289213 0.62921923
0.016164908 -0.014817834 0.63141048
0.016388826 -0.016388834 0.633663
0.016618986 -0.018003881 0.63597822
0.016855754 -0.019665003 0.6383599
0.017099364 -0.021374196 0.64081049
0.017350066 -0.023133427 0.6433323
0.017608285 -0.02494508 0.64592981
0.01787425 -0.026811361 0.64860517
0.01814843 -0.028735042 0.65136325
0.018431092 -0.030718476 0.65420657
0.018722761 -0.032764852 0.65714055
0.019023744 -0.034876853 0.66016823
0.019334631 -0.037058026 0.66329545
0.019655777 -0.039311558 0.66652596
0.019987844 -0.041641355 0.66986632
0.020331251 -0.044051021 0.67332071
0.020686738 -0.046545178 0.67689657
0.021054879 -0.049128026 0.68059981
0.02143628 -0.051804334 0.68443644
0.021831835 -0.054579586 0.68841541
0.022242175 -0.057458967 0.69254315
0.02266833 -0.060448885 0.69682992
0.023111036 -0.06355536 0.70128316
0.023571478 -0.066785872 0.70591486
0.024050539 -0.070147425 0.71073389
0.019202467 0.072378546 0.64710742
0.018786652 0.069366127 0.64324635
0.018388519 0.06648159 0.63954955
0.018006856 0.06371662 0.63600564
0.017640768 0.061064184 0.63260639
