# .PCD v0.7 - Point Cloud Data file format
VERSION 0.7
FIELDS x y z
SIZE 4 4 4
TYPE F F F
COUNT 1 1 1
WIDTH 1357
HEIGHT 1
VIEWPOINT 0 0 0 1 0 0 0
POINTS 1357
DATA ascii
0.047655322 -0.044580787 0.65436882
0.047823023 -0.046280324 0.65502185
0.04799176 -0.047991753 0.65567887
0.048161685 -0.049715281 0.6563406
0.048332982 -0.051451236 0.65700758
0.04850534 -0.05319941 0.65767872
0.048679091 -0.054960251 0.6583553
0.04885393 -0.056733608 0.6590361
0.049030192 -0.0585199 0.65972245
0.049207568 -0.060318977 0.66041315
0.049386233 -0.062131047 0.66110885
0.049566366 -0.063956589 0.66181022
0.049747646 -0.065795258 0.66251612
0.049930431 -0.067647666 0.66322786
0.050114393 -0.069513485 0.66394418
0.050299883 -0.071393371 0.66466653
0.050486583 -0.07328698 0.66539347
0.050674673 -0.075194672 0.66612589
0.046765924 0.061380297 0.64521497
0.039356187 0.050425112 0.61726385
0.039466817 0.049333543 0.61768115
0.039578065 0.048235804 0.61810082
0.039690048 0.047131926 0.61852324
0.039802559 0.04602173 0.61894768
0.039915815 0.044905305 0.61937487
0.040029615 0.043782383 0.6198042
0.040144168 0.042653203 0.62023628
0.040259272 0.041517377 0.62067056
0.040375043 0.040375054 0.62110722
0.040491585 0.039226234 0.62154686
0.040608697 0.038070679 0.62198859
0.040726591 0.036908448 0.6224333
0.040845066 0.035739422 0.62288022
0.040964346 0.03456369 0.62333018
0.041084208 0.033380926 0.62378228
0.041204777 0.032191217 0.62423718
0.041326169 0.030994654 0.62469506
0.041448161 0.029790878 0.62515521
0.041570995 0.02858004 0.62561864
0.04169444 0.027361959 0.62608421
0.041818734 0.026136696 0.62655312
0.041943658 0.024904013 0.62702435
0.042069331 0.023663998 0.62749845
0.042195879 0.022416562 0.62797576
0.042323068 0.021161556 0.62845552
0.042451147 0.019898951 0.62893867
0.042579882 0.018628687 0.62942433
0.042709526 0.017350763 0.62991339
0.042839833 0.016064942 0.63040489
0.04297094 0.014771283 0.63089949
0.043102976 0.013469696 0.63139749
0.043235708 0.012160063 0.63189816
0.043369379 0.010842383 0.63240242
0.043503754 0.009516418 0.63290936
0.04363909 0.0081823468 0.63341987
0.043775141 0.0068398714 0.63393313
0.043912176 0.0054890513 0.63445008
0.044049941 0.004129678 0.63496971
0.044188574 0.002761811 0.63549256
0.044328209 0.0013852417 0.63601941
0.0444686 -0 0.636549
0.044610016 -0.0013940632 0.6370824
0.044752199 -0.0027970076 0.63761878
0.044895433 -0.0042089224 0.63815904
0.045039445 -0.0056299269 0.63870233
0.045184385 -0.007060051 0.63924903
0.045330398 -0.0084994733 0.63979983
0.045477215 -0.0099481344 0.64035368
0.045625132 -0.011406273 0.64091164
0.045773875 -0.012873858 0.6414727
0.045923728 -0.014351159 0.64203805
0.046074424 -0.015838057 0.64260644
0.04622611 -0.017334789 0.6431787
0.046378948 -0.018841445 0.6437552
0.046532653 -0.020358026 0.64433503
0.046687521 -0.021884739 0.64491916
0.046843283 -0.023421675 0.6455068
0.047000229 -0.024968892 0.64609879
0.047158089 -0.026526421 0.64669424
0.047317013 -0.028094441 0.64729375
0.047477156 -0.029673189 0.64789784
0.047638237 -0.031262577 0.64850557
0.047800571 -0.032862872 0.64911783
0.047963858 -0.034474045 0.64973378
0.048128415 -0.036096305 0.65035456
0.048293959 -0.037729621 0.65097904
0.04846064 -0.039374262 0.65160775
0.048628636 -0.041030407 0.65224147
0.048797641 -0.042697936 0.652879
0.048967984 -0.044377238 0.65352154
0.049139358 -0.046068102 0.65416801
0.049312096 -0.047771066 0.65481961
0.049485896 -0.049485922 0.65547526
0.049661085 -0.051212996 0.6561361
0.049837355 -0.05295217 0.65680099
0.050014883 -0.054703802 0.6574707
0.050193843 -0.056468099 0.65814579
0.050373923 -0.058244854 0.6588251
0.050555468 -0.060034603 0.6595099
0.050738156 -0.061837137 0.66019899
0.050922342 -0.063652933 0.6608938
0.051107693 -0.065481722 0.66159302
0.051294405 -0.067323878 0.66229731
0.051482659 -0.069179833 0.6630075
0.05167212 -0.071049184 0.66372216
0.051863164 -0.072932601 0.66444284
0.052055445 -0.074829698 0.66516811
0.05791425 0.07546401 0.68064862
0.046395384 0.059048682 0.63851374
0.040437572 0.050240606 0.61672068
0.040550925 0.049152642 0.61713535
0.040664811 0.04805842 0.61755186
0.040779337 0.046958029 0.61797082
0.040894616 0.045851529 0.61839253
0.041010443 0.04473868 0.6188162
0.041127034 0.043619603 0.61924267
0.041244183 0.042493999 0.61967123
0.041362107 0.041362107 0.62010258
0.041480601 0.040223598 0.62053597
0.041599888 0.039078683 0.62097228
0.04171975 0.037927032 0.62141073
0.041840304 0.036768764 0.62185174
0.041961666 0.035603851 0.62229568
0.042083625 0.034432024 0.62274182
0.042206407 0.033253521 0.62319094
0.042329796 0.032068044 0.62364221
0.042454019 0.030875623 0.62409669
0.042578865 0.029676199 0.62455332
0.042704441 0.028469652 0.62501264
0.042830877 0.027256042 0.62547517
0.042957947 0.02603516 0.62593997
0.043085892 0.024807036 0.62640798
0.043214485 0.023571551 0.62687832
0.043343965 0.022328705 0.627352
0.043474101 0.021078378 0.627828
0.043605022 0.019820482 0.62830687
0.04373686 0.018555045 0.62878913
0.043869372 0.01728186 0.62927389
0.044002809 0.016001016 0.62976193
0.044136941 0.014712304 0.6302526
0.044272017 0.013415754 0.63074672
0.044407796 0.012111217 0.63124335
0.044544414 0.010798663 0.63174307
0.044681996 0.0094780326 0.63224638
0.044820309 0.008149147 0.6327523
0.044959605 0.0068120658 0.63326186
0.045099638 0.00546664 0.63377404
0.045240682 0.0041127801 0.63428998
0.045382481 0.0027504563 0.63480866
0.045525163 0.0013795495 0.63533062
0.045668885 -0 0.63585633
0.045813382 -0.0013882816 0.63638484
0.045958929 -0.0027853847 0.63691723
0.046105273 -0.0041913688 0.63745254
0.046252683 -0.0056063831 0.63799179
0.046400908 -0.0070304573 0.63853395
0.046550076 -0.0084636509 0.63907957
0.046700355 -0.0099061131 0.6396293
0.04685146 -0.011357903 0.64018208
0.04700369 -0.012819171 0.6407389
0.047156774 -0.014289945 0.64129889
0.047310997 -0.015770286 0.64186299
0.047466092 -0.017260402 0.64243031
0.047622349 -0.018760294 0.64300185
0.047779493 -0.020270079 0.64357668
0.047937676 -0.021789819 0.64415526
0.048097059 -0.023319751 0.64473832
0.048257355 -0.024859846 0.64532465
0.048418876 -0.026410282 0.64591551
0.048581332 -0.027971059 0.64650977
0.048745025 -0.029542416 0.6471085
0.048909679 -0.031124353 0.6477108
0.049075451 -0.03271696 0.64831716
0.0492425 -0.034320533 0.64892828
0.049410537 -0.035934925 0.64954293
0.049579881 -0.037560523 0.65016234
0.049750235 -0.039197147 0.65078551
0.049921919 -0.040845215 0.6514135
0.050094634 -0.042504549 0.65204525
0.050268546 -0.044175386 0.65268147
0.050443836 -0.045858026 0.65332264
0.050620183 -0.047552288 0.65396762
0.050797939 -0.04925862 0.65461785
0.050976779 -0.050976783 0.65527201
0.05115705 -0.052707255 0.65593141
0.051338427 -0.054449826 0.65659493
0.0515211 -0.056204855 0.6572631
0.051705249 -0.05797255 0.65793669
0.051890548 -0.059752762 0.65861452
0.052077353 -0.061545998 0.65929788
0.052265331 -0.063351899 0.65998542
0.052454844 -0.065171182 0.66067868
0.052645564 -0.067003429 0.66137624
0.05283767 -0.068849087 0.66207898
0.05303137 -0.070708454 0.66278756
0.053226307 -0.072581321 0.66350061
0.053422876 -0.07446827 0.66421962
0.056967959 0.07204774 0.67105824
0.046051964 0.056887716 0.63230306
0.041511178 0.05005762 0.61618185
0.041627008 0.048972994 0.61659306
0.041743595 0.047882378 0.61700702
0.041860729 0.046785504 0.61742282
0.041978631 0.045682609 0.61784148
0.042097084 0.044573396 0.61826199
0.042216215 0.043457896 0.61868495
0.042336129 0.042336136 0.6191107
0.042456616 0.04120791 0.61953843
0.0425779 0.040073335 0.61996907
0.042699769 0.038932174 0.62040174
0.04282245 0.037784547 0.62083721
0.04294572 0.036630213 0.62127495
0.043069713 0.035469145 0.62171507
0.043194529 0.034301549 0.62215823
0.043319955 0.033127069 0.62260354
0.043446235 0.031945765 0.62305188
0.04357313 0.030757517 0.62350243
0.043700889 0.029562354 0.62395602
0.043829281 0.028360128 0.62441182
0.043958429 0.02715078 0.62487036
0.044088457 0.025934398 0.625332
0.04421914 0.024710715 0.62579596
0.044350725 0.023479789 0.62626314
0.044482969 0.022241473 0.62673259
0.044616122 0.020995826 0.62720537
0.044749957 0.019742638 0.62768054
0.044884596 0.01848188 0.62815857
0.045020171 0.017213613 0.62863988
0.045156442 0.015937567 0.62912369
0.04529367 0.014653832 0.62961084
0.045431603 0.013362259 0.63010055
0.045570515 0.012062788 0.63059372
0.045710143 0.01075533 0.63108945
0.045850761 0.0094398856 0.6315887
0.045992114 0.0081162453 0.63209057
0.046134342 0.0067844689 0.63259554
0.04627759 0.0054444373 0.63310409
0.046421591 0.004096061 0.63361531
0.046566628 0.0027391911 0.6341303
0.04671244 0.0013739169 0.63464791
0.046859298 2.9802322e-08 0.63516933
0.04700695 -0.0013825595 0.63569355
0.047155537 -0.002773881 0.63622105
0.047305204 -0.0041739941 0.63675243
0.04745568 -0.0055829883 0.63728666
0.047607262 -0.0070010424 0.63782483
0.047759674 -0.0084281564 0.63836592
0.047913205 -0.0098644793 0.63891101
0.048067585 -0.011310011 0.63945913
0.048222959 -0.012764901 0.64001083
0.048379492 -0.014229268 0.64056653
0.048536893 -0.015703082 0.64112532
0.048695467 -0.017186642 0.64168835
0.048854936 -0.018679827 0.64225447
0.049015608 -0.020182848 0.64282489
0.049177181 -0.021695793 0.64339858
0.049339827 -0.023218751 0.64397603
0.049503703 -0.024751872 0.64455783
0.049668517 -0.026295096 0.64514291
0.04983459 -0.027848721 0.64573252
0.050001618 -0.029412687 0.64632559
0.05016993 -0.030987322 0.64692312
0.050339218 -0.032572448 0.64752418
0.050509814 -0.034168363 0.64812982
0.050681408 -0.035775095 0.64873898
0.050854173 -0.037392765 0.64935237
0.051028278 -0.039021611 0.64997053
0.051203422 -0.040661514 0.65059233
0.051379938 -0.04231289 0.65121901
0.051557504 -0.043975532 0.65184945
0.05173647 -0.045649827 0.65248483
0.051916514 -0.047335625 0.65312409
0.052097816 -0.049033225 0.6537677
0.05228056 -0.050742924 0.65441656
0.052464418 -0.052464426 0.65506929
0.052649748 -0.054198265 0.65572727
0.052836217 -0.055944234 0.65638924
0.053024188 -0.05770278 0.65705657
0.053213324 -0.059473723 0.65772814
0.053403813 -0.061257333 0.65840447
0.053595852 -0.063053936 0.65908617
0.053789094 -0.064863309 0.65977228
0.053983916 -0.066686004 0.66046399
0.054179978 -0.068521738 0.66116005
0.054377645 -0.070371047 0.66186184
0.054576579 -0.072233707 0.66256809
0.05477697 -0.074110001 0.66327959
0.056103636 0.068927318 0.66229862
0.045732792 0.054879338 0.62653089
0.042576883 0.049875796 0.61564654
0.042695366 0.048794717 0.61605513
0.042814396 0.047707468 0.61646569
0.042934205 0.046614289 0.61687887
0.043054573 0.045514822 0.61729401
0.043175731 0.044409305 0.6177119
0.043297462 0.04329747 0.6181317
0.043419991 0.042179465 0.61855429
0.0435431 0.041054934 0.61897892
0.043666914 0.039924026 0.61940593
0.043791547 0.038786799 0.61983573
0.043916777 0.037642956 0.62026763
0.044042844 0.036492676 0.62070245
0.044169519 0.0353356 0.62113935
0.04429704 0.034171999 0.62157917
0.044425186 0.033001542 0.62202108
0.04455407 0.03182435 0.62246561
0.044683829 0.030640364 0.62291312
0.044814222 0.029449373 0.62336284
0.044945497 0.028251469 0.62381554
0.045077428 0.027046442 0.62427062
0.045210257 0.025834441 0.62472874
0.045343749 0.024615169 0.62518913
0.045478024 0.023388684 0.62565219
0.045613229 0.022155046 0.62611848
0.045749109 0.020913869 0.62658715
0.045885932 0.01966542 0.62705904
0.046023443 0.018409371 0.62753332
0.046161916 0.017145872 0.62801087
0.046301093 0.015874684 0.62849087
0.046441108 0.014595747 0.62897378
0.04658211 0.013309181 0.62946004
0.046723835 0.012014717 0.62994885
0.046866558 0.010712355 0.63044113
0.047010023 0.0094020069 0.63093591
0.047154501 0.0080836415 0.6314342
0.047299735 0.0067570806 0.63193506
0.047445871 0.0054224133 0.63243908
0.047593046 0.0040794015 0.63294667
0.047741 0.002728045 0.63345695
0.047890015 0.0013682544 0.63397086
0.048039824 2.9802322e-08 0.63448751
0.048190713 -0.0013768673 0.63500798
0.04834241 -0.0027624369 0.63553113
0.048495065 -0.0041567087 0.63605762
0.048648834 -0.0055598915 0.63658792
0.048803438 -0.0069718957 0.63712114
0.048959166 -0.0083930194 0.63765824
0.049115751 -0.0098231435 0.63819832
0.049273487 -0.011262506 0.63874227
0.049432091 -0.012711108 0.63928926
0.049591865 -0.014169097 0.63984036
0.04975253 -0.015636533 0.64039445
0.049914233 -0.017113447 0.64095211
0.050077148 -0.018600076 0.641514
0.050240975 -0.020096391 0.642079
0.050406035 -0.021602571 0.64264834
0.050572023 -0.023118615 0.64322078
0.050739266 -0.024644792 0.64379764
0.050907467 -0.026180983 0.64437771
0.051076777 -0.027727395 0.64496166
0.051247381 -0.029284179 0.64555001
0.051418968 -0.030851364 0.64614177
0.051591869 -0.032429188 0.64673811
0.051765777 -0.034017503 0.64733785
0.051941019 -0.035616696 0.64794225
0.052117296 -0.037226647 0.64855027
0.052294765 -0.038847536 0.64916229
0.052473616 -0.04047963 0.64977914
0.052653529 -0.042122811 0.65039963
0.05283485 -0.043777406 0.65102494
0.053017247 -0.045443326 0.65165406
0.053201083 -0.047120959 0.65228808
0.053386025 -0.048810065 0.65292591
0.053572435 -0.050511152 0.65356886
0.053759973 -0.05222398 0.65421563
0.053948827 -0.05394882 0.65486693
0.054139193 -0.055686027 0.65552354
0.054330725 -0.057435364 0.65618408
0.054523803 -0.059197277 0.65684998
0.054718073 -0.060971573 0.65752006
0.054913916 -0.062758759 0.65819544
0.055110984 -0.064558551 0.65887505
0.055309467 -0.066371366 0.65955967
0.055509571 -0.068197474 0.66024977
0.055710945 -0.07003662 0.66094428
0.05591397 -0.071889356 0.66164446
0.056118291 -0.073755488 0.66234922
0.055311073 0.066066027 0.65426624
0.045435388 0.05300796 0.62115234
0.043791339 0.049873471 0.61563975
0.043791339 0.04865703 0.61563975
0.043877512 0.047533989 0.61592871
0.043999735 0.046444148 0.61633849
0.044122756 0.045348376 0.61675102
0.044246349 0.044246376 0.61716545
0.044370752 0.043138266 0.61758256
0.044495739 0.042023778 0.61800158
0.044621553 0.040903091 0.61842352
0.04474796 0.039775968 0.61884737
0.044875085 0.038642436 0.6192736
0.045003057 0.037502557 0.6197027
0.045131639 0.036356032 0.62013388
0.045261078 0.035203069 0.62056786
0.045391139 0.034043342 0.62100399
0.045522075 0.032877088 0.62144303
0.045653645 0.031703949 0.62188417
0.045786094 0.030524045 0.62232834
0.045919199 0.029337257 0.6227746
0.046053078 0.028143555 0.62322348
0.046187866 0.026942939 0.62367547
0.046323314 0.025735199 0.62412965
0.046459686 0.024520367 0.62458694
0.046596743 0.023298353 0.62504649
0.046734732 0.022069186 0.62550914
0.046873413 0.020832658 0.62597418
0.047012921 0.019588709 0.62644196
0.047153398 0.018337429 0.62691301
0.047294579 0.017078608 0.62738633
0.04743674 0.015812218 0.62786305
0.047579627 0.014538229 0.62834215
0.047723509 0.01325655 0.62882459
0.047868136 0.011967063 0.62930954
0.048013635 0.010669678 0.6297974
0.048160162 0.0093644559 0.63028872
0.048307445 0.0080512464 0.63078254
0.048455771 0.0067299902 0.63127995
0.048604868 0.0054005682 0.63177985
0.048755031 0.0040629208 0.63228339
0.048905987 0.0027170181 0.63278955
0.049057871 0.0013627112 0.63329887
0.04921085 -0 0.63381177
0.049364641 -0.0013712347 0.63432741
0.049519543 -0.0027510524 0.63484681
0.049675271 -0.004139632 0.635369
0.049832132 -0.0055369139 0.63589501
0.049989838 -0.006943047 0.63642377
0.050148543 -0.0083580911 0.63695598
0.05030841 -0.0097821653 0.637492
0.050469153 -0.011215359 0.63803095
0.050631072 -0.012657762 0.63857388
0.050793882 -0.014109403 0.6391198
0.050957896 -0.015570462 0.63966972
0.051122818 -0.017040938 0.64022273
0.051288813 -0.018520951 0.64077932
0.051456045 -0.02001068 0.64134008
0.051624212 -0.021510094 0.641904
0.051793642 -0.023019403 0.64247209
0.05196403 -0.024538547 0.6430434
0.052135702 -0.026067823 0.643619
0.052308347 -0.027607173 0.64419794
0.052482307 -0.029156834 0.64478123
0.052657261 -0.030716717 0.64536786
0.052833389 -0.032287031 0.64595842
0.053010859 -0.033868015 0.64655346
0.053189363 -0.035459578 0.64715201
0.053369243 -0.03706193 0.64775515
0.053550169 -0.038675129 0.6483618
0.053732496 -0.040299356 0.64897317
0.053915899 -0.04193458 0.64958811
0.054100562 -0.043581039 0.65020734
0.054286662 -0.045238853 0.65083134
0.054473877 -0.046908081 0.6514591
0.054662567 -0.048588932 0.6520918
0.054852381 -0.050281316 0.65272826
0.055043705 -0.051985681 0.65336972
0.055236187 -0.053701848 0.65401518
0.055430017 -0.055429995 0.65466505
0.055625394 -0.05717051 0.65532017
0.055821974 -0.058923215 0.65597934
0.056020129 -0.060688466 0.65664375
0.056219514 -0.06246613 0.65731233
0.056420509 -0.064256698 0.65798628
0.056622755 -0.066059858 0.65866441
0.056826457 -0.067876026 0.65934741
0.057031818 -0.069705561 0.66003609
0.057238482 -0.071548119 0.66072899
0.057446845 -0.073404297 0.66142768
0.05765653 -0.075273797 0.66213083
0.054581691 0.063432753 0.64687419
0.04640856 0.052680016 0.62020975
0.046408687 0.051425874 0.62021017
0.046408687 0.050171524 0.62021017
0.046408687 0.048917264 0.62021017
0.046408687 0.047662973 0.62021017
0.046408687 0.046408683 0.62021017
0.046408687 0.045154423 0.62021017
0.046408687 0.043900102 0.62021017
0.046408687 0.042645812 0.62021017
0.046408687 0.041391551 0.62021017
0.046408687 0.040137261 0.62021017
0.046408687 0.038882941 0.62021017
0.046408687 0.037628651 0.62021017
0.046408687 0.03637436 0.62021017
0.046408687 0.0351201 0.62021017
0.04647715 0.033915788 0.62043351
0.04661059 0.032753408 0.62086892
0.046744924 0.031584412 0.62130713
0.046879902 0.030408591 0.62174749
0.047015794 0.029226035 0.62219083
0.047152348 0.028036565 0.62263632
0.047289699 0.026840121 0.62308443
0.047427982 0.025636762 0.62353551
0.047566943 0.024426252 0.62398893
0.04770685 0.023208737 0.62444538
0.047847454 0.021983951 0.6249041
0.047989018 0.020752013 0.62536597
0.048131295 0.019512683 0.62583005
0.048274413 0.018265992 0.626297
0.048418522 0.017011911 0.62676716
0.048563361 0.015750259 0.6272397
0.048709203 0.014481127 0.62771547
0.048855782 0.013204277 0.62819374
0.049003389 0.011919737 0.62867522
0.049151752 0.010627389 0.62915927
0.049301147 0.0093272626 0.62964672
0.049451321 0.0080191195 0.63013661
0.049602412 0.0067030489 0.63062954
0.049754571 0.0053788722 0.63112599
0.049907524 0.0040465891 0.63162494
0.050061565 0.0027060211 0.63212752
0.050216414 0.0013571978 0.63263273
0.050372366 -2.9802322e-08 0.63314146
0.050529148 -0.0013656318 0.63365299
0.050686903 -0.0027398169 0.63416767
0.050845802 -0.0041226149 0.63468605
0.051005546 -0.0055141151 0.63520718
0.051166449 -0.006914407 0.63573217
0.051328219 -0.0083234608 0.63625991
0.051491164 -0.0097415745 0.63679153
0.051655002 -0.011168659 0.637326
0.051819876 -0.012604862 0.63786393
0.051985968 -0.014050245 0.6384058
0.052152973 -0.015504956 0.63895065
0.052321207 -0.016969025 0.63949943
0.052490368 -0.018442571 0.64005136
0.052660793 -0.019925654 0.64060736
0.052832168 -0.021418452 0.64116645
0.05300466 -0.022920966 0.64172924
0.053178441 -0.024433345 0.6422962
0.053353205 -0.025955617 0.64286637
0.053529289 -0.027488023 0.64344078
0.05370637 -0.029030502 0.64401853
0.053884793 -0.030583262 0.64460063
0.05406424 -0.032146275 0.64518601
0.054244883 -0.033719778 0.64577538
0.054426908 -0.03530395 0.64636922
0.054609988 -0.036898643 0.64696652
0.054794479 -0.038504243 0.64756846
0.05498004 -0.040120572 0.64817381
0.055167042 -0.041748047 0.64878392
0.055355147 -0.04338643 0.64939755
0.055544712 -0.045036256 0.65001601
0.055735406 -0.046697229 0.6506381
0.055927407 -0.048369646 0.65126455
0.056120921 -0.050053805 0.65189588
0.056315593 -0.051749468 0.65253097
0.056511808 -0.053457111 0.65317112
0.056709211 -0.055176526 0.65381509
0.056908179 -0.05690816 0.65446424
0.057108361 -0.058651775 0.65511733
0.057309963 -0.060407802 0.65577507
0.057513177 -0.062176377 0.65643799
0.057717647 -0.063957408 0.65710515
0.057923771 -0.065751314 0.65777761
0.058131177 -0.067557856 0.65845424
0.05834027 -0.069377601 0.65913641
0.058550674 -0.071210265 0.65982282
0.058762606 -0.073056206 0.66051418
0.05897627 -0.074915797 0.66121131
0.053908382 0.061001599 0.64004934
0.049194071 0.05437243 0.62507385
0.049194071 0.053077817 0.62507385
0.049194071 0.051783264 0.62507385
0.049194071 0.050488681 0.62507385
0.049194071 0.049194038 0.62507391
0.049194071 0.047899514 0.62507385
0.049194071 0.046604902 0.62507391
0.049194071 0.045310318 0.62507385
0.049194071 0.044015765 0.62507385
0.049194071 0.042721212 0.62507385
0.049194071 0.041426599 0.62507385
0.049194071 0.040132016 0.62507391
0.049194071 0.038837463 0.62507385
0.049194071 0.03754285 0.62507385
0.049194071 0.036248267 0.62507391
0.049194071 0.034953684 0.62507385
0.049194071 0.033659101 0.62507385
0.049194071 0.032364517 0.62507385
0.049194071 0.031069964 0.62507385
0.049194071 0.029775351 0.62507391
0.049194071 0.028480768 0.62507385
0.049194071 0.027186215 0.62507391
0.049194071 0.025891632 0.62507385
0.049194071 0.024597019 0.62507385
0.049194071 0.023302466 0.62507391
0.049194071 0.022007883 0.62507385
0.049194071 0.0207133 0.62507385
0.049241018 0.019437253 0.62522298
0.049386866 0.018195182 0.62568629
0.049533721 0.01694575 0.62615281
0.049681317 0.015688837 0.6266216
0.049829796 0.014424413 0.62709332
0.049979303 0.01315245 0.62756819
0.050129566 0.011872798 0.62804556
0.05028088 0.010585457 0.62852621
0.050432965 0.009290278 0.62900931
0.050586119 0.0079872608 0.6294958
0.050740059 0.0066763163 0.6299848
0.050894942 0.0053573549 0.63047683
0.051050916 0.0040303171 0.63097233
0.051207706 0.0026951432 0.63147032
0.051365603 0.0013517439 0.63197196
0.051524334 2.9802322e-08 0.63247615
0.051684201 -0.0013600886 0.63298392
0.051844906 -0.0027287006 0.6334945
0.052006621 -0.0041057765 0.63400817
0.052169494 -0.0054915249 0.63452554
0.052333239 -0.0068859458 0.63504571
0.052498166 -0.0082891583 0.63556963
0.052663986 -0.009701252 0.63609636
0.052831013 -0.011122316 0.63662696
0.052998945 -0.01255241 0.63716042
0.053168099 -0.013991594 0.63769776
0.053338185 -0.015439987 0.63823801
0.053509362 -0.016897678 0.63878179
0.053681798 -0.018364817 0.63932949
0.053855188 -0.019841373 0.63988036
0.054029867 -0.021327585 0.64043522
0.054205522 -0.022823364 0.64099324
0.054382484 -0.024328977 0.64155537
0.054560438 -0.025844395 0.6421206
0.054739565 -0.027369797 0.64268965
0.054920033 -0.028905302 0.64326292
0.055101532 -0.030450821 0.64383948
0.055284403 -0.032006741 0.64442039
0.055468321 -0.033572912 0.64500463
0.055653639 -0.035149664 0.64559329
0.055840027 -0.036736846 0.64618534
0.056027658 -0.038334697 0.64678138
0.056216743 -0.039943457 0.64738202
0.056406926 -0.041562974 0.64798617
0.056598578 -0.043193638 0.64859498
0.056791358 -0.044835269 0.64920735
0.056985639 -0.046488285 0.6498245
0.057181071 -0.048152477 0.65044534
0.057377845 -0.049828112 0.65107036
0.057576165 -0.05151552 0.65170044
0.057775673 -0.053214431 0.65233409
0.057976756 -0.054925323 0.65297294
0.058179054 -0.056648046 0.65361547
0.058382962 -0.058382958 0.65426326
0.05858811 -0.060129911 0.65491498
0.058794901 -0.061889365 0.65557176
0.059002962 -0.063661069 0.65623271
0.059212498 -0.065445378 0.65689832
0.059423726 -0.067242652 0.65756941
0.059636265 -0.069052503 0.65824449
0.059850533 -0.07087563 0.65892512
0.060066145 -0.072711632 0.65961003
0.060283519 -0.074561194 0.66030049
0.066051461 0.074519604 0.67324305
0.053284626 0.058749706 0.63372779
0.05216435 0.05617702 0.63026041
0.05216435 0.054839462 0.63026035
0.05216435 0.053501904 0.63026035
0.05216435 0.052164346 0.63026035
0.05216435 0.050826818 0.63026035
0.05216435 0.04948926 0.63026041
0.05216435 0.048151731 0.63026035
0.05216435 0.046814173 0.63026035
0.05216435 0.045476645 0.63026035
0.05216435 0.044139087 0.63026035
0.05216435 0.042801499 0.63026035
0.05216435 0.041463971 0.63026035
0.05216435 0.040126413 0.63026041
0.05216435 0.038788885 0.63026035
0.05216435 0.037451327 0.63026035
0.05216435 0.036113828 0.63026035
0.05216435 0.03477627 0.63026035
0.05216435 0.033438683 0.63026041
0.05216435 0.032101125 0.63026035
0.05216435 0.030763566 0.63026035
0.05216435 0.029426068 0.63026035
0.05216435 0.02808851 0.63026035
0.05216435 0.026750982 0.63026035
0.05216435 0.025413424 0.63026041
0.05216435 0.024075866 0.63026041
0.05216435 0.022738338 0.63026035
0.05216435 0.02140075 0.63026041
0.05216435 0.020063221 0.63026035
0.05216435 0.018725663 0.63026035
0.05216435 0.017388105 0.63026041
0.05216435 0.016050577 0.63026035
0.05216435 0.014713079 0.63026035
0.05216435 0.013375521 0.63026035
0.05216435 0.012037933 0.63026035
0.05216435 0.010700345 0.63026041
0.05216435 0.0093628168 0.63026035
0.05216435 0.0080252886 0.63026035
0.05216435 0.0066877604 0.63026035
0.05216435 0.0053502023 0.63026041
0.052185178 0.0040142536 0.63032484
0.052344806 0.0026843548 0.6308189
0.052505415 0.0013462901 0.63131601
0.052667167 2.9802322e-08 0.63181663
0.052829761 -0.001354605 0.63231993
0.052993517 -0.0027176142 0.63282681
0.053158142 -0.0040890872 0.63333631
0.053323943 -0.0054691434 0.6338495
0.053490628 -0.0068577528 0.63436544
0.053658355 -0.0082551241 0.6348846
0.053827293 -0.0096612871 0.63540745
0.053997144 -0.011076361 0.63593316
0.054168232 -0.012500376 0.63646269
0.054340247 -0.01393339 0.63699514
0.05451351 -0.015375584 0.6375314
0.054687731 -0.016826987 0.63807058
0.054863062 -0.018287659 0.63861328
0.055039689 -0.019757837 0.63915998
0.055217288 -0.021237433 0.63970965
0.055396203 -0.022726625 0.64026344
0.055576116 -0.024225503 0.64082032
0.055757374 -0.025734156 0.64138132
0.055939641 -0.027252644 0.64194548
0.056123279 -0.028781116 0.64251381
0.056307953 -0.030319661 0.64308542
0.056493849 -0.031868309 0.64366078
0.056681149 -0.033427328 0.6442405
0.056869518 -0.034996629 0.64482355
0.057059318 -0.03657648 0.64541101
0.057250217 -0.038166791 0.64600188
0.057442572 -0.039767921 0.64659727
0.057636049 -0.04137972 0.64719605
0.057830825 -0.043002397 0.64779896
0.058027111 -0.04463622 0.64840645
0.058224551 -0.04628104 0.64901757
0.058423523 -0.047937214 0.64963341
0.058623672 -0.049604625 0.65025288
0.058825385 -0.051283658 0.65087724
0.059028301 -0.052974105 0.65150529
0.059232622 -0.054676294 0.65213776
0.059438553 -0.056390435 0.65277517
0.059645735 -0.058116376 0.6534164
0.059854552 -0.059854552 0.65406263
0.060064644 -0.061604768 0.65471298
0.060276415 -0.063367501 0.65536833
0.060489483 -0.065142483 0.65602791
0.060704064 -0.06693013 0.65669203
0.060920373 -0.068730682 0.65736151
0.06113803 -0.070543841 0.65803522
0.06135745 -0.072370306 0.65871435
0.061578244 -0.07420969 0.65939778
0.064780742 0.071258813 0.66429728
0.055338558 0.059488952 0.63580298
0.055338558 0.058105469 0.63580298
0.055338558 0.056722045 0.63580298
0.055338558 0.055338562 0.63580298
0.055338558 0.053955078 0.63580298
0.055338558 0.052571625 0.63580298
0.055338558 0.051188201 0.63580298
0.055338558 0.049804717 0.63580298
0.055338558 0.048421264 0.63580304
0.055338558 0.04703781 0.63580298
0.055338558 0.045654327 0.63580298
0.055338558 0.044270843 0.63580304
0.055338558 0.04288739 0.63580298
0.055338558 0.041503966 0.63580298
0.055338558 0.040120482 0.63580298
0.055338558 0.038737029 0.63580298
0.055338558 0.037353545 0.63580298
0.055338558 0.035970062 0.63580298
0.055338558 0.034586579 0.63580304
0.055338558 0.033203155 0.63580298
0.055338558 0.031819701 0.63580298
0.055338558 0.030436218 0.63580298
0.055338558 0.029052764 0.63580298
0.055338558 0.027669281 0.63580298
0.055338558 0.026285827 0.63580298
0.055338558 0.024902344 0.63580304
0.055338558 0.02351889 0.63580298
0.055338558 0.022135437 0.63580298
0.055338558 0.020751983 0.63580298
0.055338558 0.01936847 0.63580298
0.055338558 0.017985046 0.63580298
0.055338558 0.016601562 0.63580298
0.055338558 0.015218079 0.63580298
0.055338558 0.013834655 0.63580298
0.055338558 0.012451142 0.63580304
0.055338558 0.011067718 0.63580298
0.055338558 0.0096842349 0.63580298
0.055338558 0.0083008111 0.63580298
0.055338558 0.0069172978 0.63580298
0.055338558 0.0055338144 0.63580298
0.055338558 0.0041504204 0.63580298
0.055338558 0.002766937 0.63580298
0.055338558 0.0013835132 0.63580298
0.055338558 -0 0.63580298
0.055338722 -0.0013834834 0.63580352
0.055338558 -0.002766937 0.63580298
0.055338558 -0.0041503906 0.63580304
0.055338558 -0.0055338442 0.63580298
0.055338722 -0.0069173276 0.63580352
0.055338722 -0.0083008111 0.63580346
0.055338722 -0.0096842945 0.63580346
0.055338722 -0.011067778 0.63580346
0.055338722 -0.012451202 0.63580346
0.055502836 -0.013875693 0.63629878
0.055678915 -0.015311718 0.63683009
0.05585628 -0.016756892 0.63736534
0.05603461 -0.018211216 0.63790351
0.056214251 -0.019674987 0.63844562
0.056394879 -0.021148056 0.63899076
0.056576669 -0.022630662 0.6395393
0.056759808 -0.024122894 0.64009202
0.056943964 -0.025624782 0.64064771
0.057129495 -0.027136475 0.64120758
0.057316057 -0.028658032 0.64177066
0.057504021 -0.030189604 0.64233786
0.057693049 -0.031731158 0.64290828
0.057883322 -0.033282936 0.64348251
0.058075029 -0.034844995 0.64406103
0.058267836 -0.036417395 0.64464289
0.058462102 -0.038000375 0.6452291
0.058657493 -0.039593816 0.64581877
0.058854375 -0.041198045 0.64641291
0.059052393 -0.042813003 0.64701051
0.059251755 -0.044438809 0.64761209
0.059452653 -0.046075791 0.64821839
0.059654728 -0.0477238 0.64882821
0.059858371 -0.049383134 0.64944273
0.060063221 -0.051053733 0.65006089
0.060269665 -0.052735955 0.65068394
0.060477342 -0.054429591 0.65131068
0.060686655 -0.056135148 0.65194231
0.06089722 -0.057852343 0.65257776
0.061109252 -0.059581488 0.65321755
0.061322965 -0.061322913 0.65386248
0.061537977 -0.063076422 0.65451145
0.061754707 -0.064842433 0.65516543
0.061972763 -0.066620708 0.65582347
0.06219257 -0.068411812 0.65648681
0.062413733 -0.070215419 0.6571542
0.06263648 -0.07203196 0.65782642
0.062861025 -0.073861718 0.65850407
0.063616566 0.068271458 0.65610158
0.058738455 0.061603725 0.64173973
0.058738455 0.060171127 0.64173967
0.058738455 0.05873844 0.64173973
0.058738455 0.057305813 0.64173973
0.058738455 0.055873185 0.64173967
0.058738455 0.054440528 0.64173973
0.058738455 0.053007901 0.64173967
0.058738455 0.051575273 0.64173967
0.058738455 0.050142586 0.64173973
0.058738455 0.048709929 0.64173967
0.058738455 0.047277272 0.64173973
0.058738455 0.045844674 0.64173973
0.058738455 0.044412017 0.64173967
0.058738455 0.04297933 0.64173973
0.058738455 0.041546702 0.64173973
0.058738455 0.040114075 0.64173973
0.058738455 0.038681418 0.64173973
0.058738455 0.03724879 0.64173967
0.058738455 0.035816163 0.64173967
0.058738455 0.034383476 0.64173973
0.058738455 0.032950848 0.64173973
0.058738455 0.031518221 0.64173973
0.058738455 0.030085564 0.64173973
0.058738455 0.028652906 0.64173973
0.05873863 0.027220339 0.64174026
0.05873863 0.025787681 0.6417402
0.05873863 0.024355054 0.6417402
0.05873863 0.022922426 0.6417402
0.05873863 0.021489739 0.6417402
0.05873863 0.020057082 0.6417402
0.05873863 0.018624455 0.6417402
0.05873863 0.017191797 0.6417402
0.05873863 0.01575911 0.6417402
0.05873863 0.014326513 0.6417402
0.05873863 0.012893856 0.64174026
0.05873863 0.011461198 0.6417402
0.05873863 0.010028541 0.6417402
0.05873863 0.0085959136 0.64174026
0.05873863 0.0071632862 0.6417402
0.05873863 0.0057305694 0.64174026
0.05873863 0.0042979419 0.6417402
0.05873863 0.0028653145 0.6417402
0.05873863 0.0014326572 0.6417402
0.05873863 2.9802322e-08 0.6417402
0.05873863 -0.0014326572 0.6417402
0.05873863 -0.0028653145 0.6417402
0.05873863 -0.0042979121 0.6417402
0.05873863 -0.0057305992 0.6417402
0.05873863 -0.0071632266 0.6417402
0.05873863 -0.0085959136 0.64174026
0.05873863 -0.010028541 0.6417402
0.05873863 -0.011461169 0.6417402
0.05873863 -0.012893856 0.64174026
0.05873863 -0.014326483 0.6417402
0.05873863 -0.01575917 0.64174026
0.05873863 -0.017191797 0.6417402
0.05873863 -0.018624425 0.6417402
0.05873863 -0.020057082 0.6417402
0.05873863 -0.021489739 0.6417402
0.05873863 -0.022922397 0.6417402
0.05873863 -0.024355024 0.6417402
0.05873863 -0.025787681 0.6417402
0.05873863 -0.027220368 0.6417402
0.05873863 -0.028652996 0.6417402
0.05873863 -0.030085623 0.64174026
0.058881976 -0.0315952 0.64216226
0.059075333 -0.033139825 0.64273155
0.059270147 -0.034694701 0.64330506
0.059466071 -0.0362598 0.64388192
0.059663288 -0.03783527 0.64446259
0.059862003 -0.03942132 0.64504761
0.060061865 -0.04101783 0.64563602
0.060263254 -0.042625248 0.64622897
0.060465802 -0.044243246 0.64682531
0.06066991 -0.04587239 0.64742625
0.060875211 -0.047512352 0.64803064
0.061081905 -0.049163491 0.6486392
0.061290201 -0.050826043 0.64925247
0.061499726 -0.052499771 0.64986932
0.061710887 -0.054185152 0.650491
0.061923306 -0.055882007 0.65111637
0.062137388 -0.057590738 0.65174669
0.062352762 -0.059311152 0.65238082
0.062569626 -0.061043531 0.65301931
0.062788211 -0.062788203 0.6536628
0.063008122 -0.064544931 0.65431035
0.063229784 -0.066314161 0.65496296
0.063452803 -0.068095684 0.6556195
0.063677616 -0.069890082 0.65628135
0.063903816 -0.071696967 0.65694743
0.064131834 -0.073516995 0.6576187
0.064361274 -0.075349763 0.6582942
0.062546074 0.065524489 0.64856553
0.062388986 0.063874424 0.64811409
0.062388986 0.062388957 0.64811409
0.062388986 0.060903549 0.64811409
0.062388986 0.059418082 0.64811409
0.062388986 0.057932615 0.64811403
0.062388986 0.056447178 0.64811403
0.062388986 0.054961771 0.64811403
0.062388986 0.053476274 0.64811397
0.062389176 0.051991016 0.64811462
0.062389176 0.050505519 0.64811456
0.062389176 0.049020052 0.64811462
0.062389176 0.047534585 0.64811462
0.062389176 0.046049178 0.64811462
0.062389176 0.044563711 0.64811462
0.062389176 0.043078244 0.64811456
0.062389176 0.041592807 0.64811456
0.062389176 0.04010734 0.64811462
0.062389176 0.038621873 0.64811462
0.062389176 0.037136436 0.64811462
0.062389176 0.035650969 0.64811456
0.062389176 0.034165531 0.64811456
0.062389176 0.032680035 0.64811462
0.062389176 0.031194597 0.64811462
0.062389176 0.029709131 0.64811462
0.062389176 0.028223664 0.64811456
0.062389176 0.026738226 0.64811456
0.062389176 0.025252789 0.64811456
0.062389176 0.023767352 0.64811456
0.062389176 0.022281826 0.64811462
0.062389176 0.020796388 0.64811462
0.062389176 0.019310951 0.64811462
0.062389176 0.017825514 0.64811456
0.062389176 0.016339988 0.64811462
0.062389176 0.01485458 0.64811462
0.062389176 0.013369113 0.64811462
0.062389176 0.011883676 0.64811462
0.062389176 0.010398209 0.64811456
0.062389176 0.0089127421 0.64811456
0.062389176 0.007427305 0.64811456
0.062389176 0.005941838 0.64811462
0.062389176 0.0044563711 0.64811456
0.062389176 0.0029709041 0.64811456
0.062389176 0.0014854968 0.64811456
0.062389176 -2.9802322e-08 0.64811462
0.062389176 -0.001485467 0.64811462
0.062389176 -0.0029709041 0.64811456
0.062389176 -0.0044563711 0.64811456
0.062389176 -0.005941838 0.64811456
0.062389176 -0.0074272454 0.64811456
0.062389176 -0.0089127123 0.64811456
0.062389176 -0.010398209 0.64811456
0.062389176 -0.011883646 0.64811462
0.062389176 -0.013369083 0.64811456
0.062389176 -0.01485455 0.64811456
0.062389176 -0.016340047 0.64811462
0.062389176 -0.017825484 0.64811462
0.062389176 -0.019310951 0.64811462
0.062389176 -0.020796359 0.64811456
0.062389176 -0.022281855 0.64811456
0.062389176 -0.023767292 0.64811456
0.062389176 -0.02525273 0.64811456
0.062389176 -0.026738197 0.64811462
0.062389176 -0.028223693 0.64811462
0.062389176 -0.029709131 0.64811462
0.062389176 -0.031194568 0.64811456
0.062389176 -0.032680035 0.64811456
0.062389176 -0.034165502 0.64811462
0.062389176 -0.035650969 0.64811462
0.062389176 -0.037136406 0.64811462
0.062389176 -0.038621873 0.64811456
0.062389176 -0.04010731 0.64811462
0.062389176 -0.041592777 0.64811456
0.062389176 -0.043078244 0.64811462
0.062389176 -0.044563711 0.64811462
0.062389176 -0.046049178 0.64811456
0.062389176 -0.047534585 0.64811462
0.062389176 -0.049020052 0.64811456
0.062506281 -0.05060032 0.64845115
0.062719017 -0.052265853 0.64906257
0.062933199 -0.05394274 0.64967811
0.06314905 -0.05563128 0.65029848
0.06336619 -0.057331324 0.65092266
0.063585028 -0.059043214 0.65155154
0.063805178 -0.060766831 0.65218425
0.064027064 -0.062502608 0.65282196
0.06425029 -0.064250275 0.65346354
0.064475082 -0.066010192 0.6541096
0.064701661 -0.0677827 0.65476084
0.064929627 -0.069567472 0.65541601
0.065159418 -0.071365088 0.65607643
0.065390624 -0.073175207 0.6567409
0.065623693 -0.074998483 0.6574108
0.066319145 0.067861468 0.65497684
0.066319145 0.066319108 0.6549769
0.066319145 0.064776838 0.65497684
0.066319145 0.063234538 0.65497684
0.066319145 0.061692208 0.6549769
0.066319145 0.060149938 0.65497684
0.066319145 0.058607638 0.6549769
0.066319145 0.057065308 0.6549769
0.066319145 0.055523008 0.65497684
0.066319145 0.053980708 0.6549769
0.066319145 0.052438408 0.65497684
0.066319145 0.050896078 0.65497684
0.066319145 0.049353778 0.6549769
0.066319145 0.047811508 0.65497684
0.066319145 0.046269178 0.6549769
0.066319145 0.044726908 0.6549769
0.066319145 0.043184549 0.6549769
0.066319145 0.041642249 0.65497696
0.066319145 0.040099978 0.65497684
0.066319145 0.038557649 0.6549769
0.066319145 0.037015319 0.65497684
0.066319145 0.035473019 0.65497684
0.066319145 0.033930719 0.6549769
0.066319145 0.032388419 0.65497684
0.066319145 0.030846119 0.6549769
0.066319145 0.029303849 0.65497684
0.066319145 0.027761519 0.65497684
0.066319145 0.026219189 0.6549769
0.066319145 0.024676919 0.65497684
0.066319145 0.023134559 0.6549769
0.066319145 0.021592289 0.65497684
0.066319145 0.020049989 0.65497684
0.066319145 0.01850763 0.6549769
0.066319145 0.016965359 0.65497684
0.066319145 0.015423059 0.6549769
0.066319145 0.013880759 0.65497684
0.066319145 0.012338459 0.6549769
0.066319145 0.01079616 0.6549769
0.066319145 0.0092538595 0.6549769
0.066319145 0.0077115297 0.65497684
0.066319145 0.0061692595 0.65497684
0.066319145 0.0046269298 0.6549769
0.066319145 0.0030846298 0.6549769
0.066319145 0.0015423298 0.65497684
0.066319145 -0 0.6549769
0.066319145 -0.0015423 0.65497684
0.066319145 -0.0030846 0.6549769
0.066319145 -0.0046269298 0.6549769
0.066319145 -0.0061692297 0.65497684
0.066319145 -0.0077115297 0.6549769
0.066319145 -0.0092537999 0.65497684
0.066319145 -0.01079613 0.65497684
0.066319145 -0.012338459 0.65497684
0.066319145 -0.01388073 0.65497684
0.066319145 -0.015423059 0.6549769
0.066319145 -0.01696533 0.65497684
0.066319145 -0.01850763 0.65497684
0.066319145 -0.020049989 0.6549769
0.066319145 -0.021592289 0.6549769
0.066319145 -0.023134589 0.6549769
0.066319145 -0.024676889 0.65497684
0.066319145 -0.026219189 0.65497684
0.066319145 -0.027761489 0.6549769
0.066319145 -0.029303849 0.6549769
0.066319145 -0.030846119 0.65497684
0.066319145 -0.032388389 0.65497684
0.066319145 -0.033930719 0.65497684
0.066319145 -0.035473019 0.6549769
0.066319145 -0.037015319 0.6549769
0.066319145 -0.038557649 0.65497684
0.066319145 -0.040099919 0.65497684
0.066319145 -0.041642219 0.6549769
0.066319145 -0.043184578 0.6549769
0.066319145 -0.044726908 0.6549769
0.066319145 -0.046269178 0.65497684
0.066319145 -0.047811449 0.65497684
0.066319145 -0.049353778 0.65497684
0.066319145 -0.050896078 0.6549769
0.066319145 -0.052438408 0.65497696
0.066319145 -0.053980678 0.6549769
0.066319145 -0.055522978 0.65497684
0.066319145 -0.057065278 0.65497684
0.066319145 -0.058607608 0.6549769
0.066319145 -0.060149908 0.6549769
0.066319145 -0.061692223 0.6549769
0.066319145 -0.063234523 0.6549769
0.066319145 -0.064776838 0.65497684
0.066319145 -0.066319153 0.6549769
0.066319145 -0.067861468 0.6549769
0.066319145 -0.069403738 0.65497684
0.066403233 -0.071036011 0.65521294
0.066637985 -0.072836846 0.65587193
0.066874176 -0.074650258 0.65653497
0.075333342 0.07704547 0.67547548
0.070561878 0.070561856 0.66238534
0.070561878 0.068958193 0.66238528
0.070561878 0.0673545 0.66238528
0.070561878 0.065750837 0.66238528
0.070561878 0.064147174 0.66238528
0.070561878 0.062543482 0.66238528
0.070561878 0.060939819 0.66238528
0.070561878 0.059336156 0.66238534
0.070561878 0.057732433 0.66238534
0.070561878 0.05612877 0.66238534
0.070561878 0.054525077 0.66238534
0.070561878 0.052921385 0.66238528
0.070561878 0.051317751 0.66238528
0.070561878 0.049714029 0.66238534
0.070561878 0.048110366 0.66238523
0.070561878 0.046506673 0.66238534
0.070561878 0.04490301 0.66238528
0.070561878 0.043299347 0.66238528
0.070561878 0.041695684 0.66238528
0.070561878 0.040091991 0.66238528
0.070561878 0.038488328 0.66238528
0.070561878 0.036884636 0.66238534
0.070561878 0.035280943 0.66238534
0.070561878 0.03367728 0.66238534
0.070561878 0.032073587 0.66238534
0.070561878 0.030469894 0.66238534
0.070561878 0.028866231 0.66238534
0.070561878 0.027262539 0.66238534
0.070561878 0.025658846 0.66238534
0.070561878 0.024055213 0.66238528
0.070561878 0.02245149 0.66238534
0.070561878 0.020847827 0.66238528
0.070561878 0.019244194 0.66238528
0.070561878 0.017640501 0.66238528
0.070561878 0.016036808 0.66238528
0.070561878 0.014433116 0.66238528
0.070561878 0.012829453 0.66238528
0.070561878 0.01122576 0.66238534
0.070561878 0.0096220672 0.66238534
0.070561878 0.0080184042 0.66238534
0.070561878 0.0064147115 0.66238534
0.070561878 0.0048110485 0.66238534
0.070561878 0.0032073557 0.66238534
0.070561878 0.001603663 0.66238534
0.070561878 -2.9802322e-08 0.66238534
0.070561878 -0.0016036928 0.66238534
0.070561878 -0.0032072961 0.66238528
0.070561878 -0.0048110485 0.66238534
0.070561878 -0.0064147115 0.66238528
0.070561878 -0.0080183446 0.66238528
0.070561878 -0.0096220672 0.66238528
0.070561878 -0.01122573 0.66238534
0.070561878 -0.012829393 0.66238534
0.070561878 -0.014433086 0.66238534
0.070561878 -0.016036779 0.66238534
0.070561878 -0.017640471 0.66238528
0.070561878 -0.019244134 0.66238534
0.070561878 -0.020847827 0.66238534
0.070561878 -0.02245152 0.66238534
0.070561878 -0.024055183 0.66238534
0.070561878 -0.025658876 0.66238534
0.070561878 -0.027262509 0.66238528
0.070561878 -0.028866202 0.66238534
0.070561878 -0.030469865 0.66238528
0.070561878 -0.032073557 0.66238528
0.070561878 -0.03367722 0.66238528
0.070561878 -0.035280913 0.66238528
0.070561878 -0.036884606 0.66238534
0.070561878 -0.038488299 0.66238534
0.070561878 -0.040091962 0.66238534
0.070561878 -0.041695654 0.66238528
0.070561878 -0.043299347 0.66238528
0.070561878 -0.04490301 0.66238534
0.070561878 -0.046506703 0.66238534
0.070561878 -0.048110396 0.66238534
0.070561878 -0.049714029 0.66238534
0.070561878 -0.051317692 0.66238528
0.070562117 -0.052921593 0.66238594
0.070561878 -0.054525048 0.66238534
0.070561878 -0.05612877 0.66238534
0.070561878 -0.057732433 0.66238528
0.070561878 -0.059336126 0.66238528
0.070562117 -0.060940027 0.66238606
0.070562117 -0.06254366 0.66238594
0.070562117 -0.064147398 0.66238594
0.070562117 -0.065751046 0.66238594
0.070562117 -0.067354754 0.66238594
0.070562117 -0.068958417 0.66238594
0.070562117 -0.070562094 0.66238594
0.070562117 -0.072165787 0.66238594
0.075156271 0.075156301 0.67040777
0.075156271 0.073486149 0.67040777
0.075156271 0.071815997 0.67040777
0.075156271 0.070145845 0.67040777
0.075156271 0.068475723 0.67040777
0.075156271 0.066805571 0.67040777
0.075156271 0.065135419 0.67040783
0.075156271 0.063465327 0.67040777
0.075156271 0.061795145 0.67040777
0.075156271 0.060125053 0.67040777
0.075156271 0.058454901 0.67040777
0.075156271 0.056784779 0.67040777
0.075156271 0.055114597 0.67040777
0.075156271 0.053444445 0.67040777
0.075156271 0.051774323 0.67040777
0.075156271 0.050104171 0.67040777
0.075156271 0.048434049 0.67040777
0.075156271 0.046763927 0.67040777
0.075156271 0.045093745 0.67040777
0.075156271 0.043423653 0.67040777
0.075156271 0.041753531 0.67040777
0.075156271 0.040083379 0.67040777
0.075156271 0.038413197 0.67040777
0.075156271 0.036743045 0.67040777
0.075156271 0.035072923 0.67040777
0.075156271 0.033402801 0.67040777
0.075156271 0.031732649 0.67040777
0.075156271 0.030062526 0.67040777
0.075156271 0.028392404 0.67040777
0.075156271 0.026722223 0.67040777
0.075156271 0.0250521 0.67040777
0.075156271 0.023381948 0.67040777
0.075156271 0.021711826 0.67040777
0.075156271 0.020041674 0.67040777
0.075156271 0.018371552 0.67040777
0.075156271 0.0167014 0.67040777
0.075156271 0.015031248 0.67040783
0.075156271 0.013361096 0.67040777
0.075156271 0.011691004 0.67040777
0.075156271 0.010020822 0.67040777
0.075156271 0.0083507299 0.67040777
0.075156271 0.006680578 0.67040777
0.075156271 0.0050104558 0.67040777
0.075156271 0.0033402443 0.67040783
0.075156271 0.0016701221 0.67040777
0.075156271 -0 0.67040777
0.075156271 -0.0016701221 0.67040777
0.075156271 -0.0033402741 0.67040777
0.075156271 -0.0050103962 0.67040777
0.075156271 -0.0066805184 0.67040777
0.075156271 -0.0083507001 0.67040777
0.075156271 -0.010020792 0.67040777
0.075156271 -0.011690974 0.67040777
0.075156271 -0.013361096 0.67040777
0.07515654 -0.015031308 0.67040855
0.075156271 -0.0167014 0.67040777
0.075156271 -0.018371522 0.67040777
0.075156271 -0.020041645 0.67040777
0.07515654 -0.021711886 0.67040849
0.07515654 -0.023382008 0.67040849
0.07515654 -0.02505219 0.67040849
0.07515654 -0.026722312 0.67040849
0.07515654 -0.028392464 0.67040849
0.07515654 -0.030062586 0.67040849
0.07515654 -0.031732738 0.67040849
0.07515654 -0.03340292 0.67040849
0.07515654 -0.035073042 0.67040849
0.07515654 -0.036743194 0.67040849
0.07515654 -0.038413316 0.67040849
0.07515654 -0.040083468 0.67040849
0.07515654 -0.04175365 0.67040849
0.07515654 -0.043423772 0.67040849
0.07515654 -0.045093924 0.67040849
0.07515654 -0.046764076 0.67040855
0.07515654 -0.048434198 0.67040849
0.07515654 -0.05010435 0.67040849
0.07515654 -0.051774502 0.67040849
0.07515654 -0.053444624 0.67040849
0.07515654 -0.055114776 0.67040849
0.07515654 -0.056784958 0.67040849
0.07515654 -0.05845508 0.67040849
0.07515654 -0.060125262 0.67040849
0.07515654 -0.061795384 0.67040849
0.07515654 -0.063465506 0.67040849
0.07515654 -0.065135658 0.67040849
0.07515654 -0.06680581 0.67040855
0.07515654 -0.068475932 0.67040849
0.080147937 0.066209167 0.67912394
0.080147937 0.064466834 0.67912394
0.080147937 0.062724471 0.67912394
0.080147937 0.060982108 0.67912394
0.080147937 0.059239775 0.67912394
0.080147937 0.057497442 0.67912394
0.080147937 0.055755109 0.67912394
0.080147937 0.054012746 0.67912394
0.080147937 0.052270412 0.67912388
0.080147937 0.050528049 0.67912394
0.080147937 0.048785686 0.67912394
0.080147937 0.047043353 0.67912394
0.080147937 0.04530099 0.67912394
0.080147937 0.043558687 0.67912394
0.080147937 0.041816324 0.67912394
0.080147937 0.040073991 0.67912394
0.080147937 0.038331628 0.67912388
0.080147937 0.036589265 0.67912394
0.080147937 0.034846932 0.67912394
0.080147937 0.033104569 0.67912388
0.080147937 0.031362265 0.67912394
0.080147937 0.029619902 0.67912388
0.080148235 0.027877659 0.67912477
0.080148235 0.026135296 0.67912471
0.080147937 0.024392873 0.67912388
0.080148235 0.022650599 0.67912471
0.080148235 0.020908237 0.67912471
0.080148235 0.019165874 0.67912471
0.080148235 0.01742354 0.67912471
0.080148235 0.015681148 0.67912477
0.080148235 0.013938814 0.67912471
0.080148235 0.012196451 0.67912477
0.080148235 0.010454118 0.67912471
0.080148235 0.0087117851 0.67912471
0.080148235 0.0069694221 0.67912477
0.080148235 0.0052270591 0.67912471
0.080148235 0.0034846961 0.67912471
0.080148235 0.001742363 0.67912471
0.080148235 -2.9802322e-08 0.67912471
0.080148235 -0.001742363 0.67912471
0.080148235 -0.003484726 0.67912471
0.080148235 -0.0052270293 0.67912471
0.080148235 -0.0069693923 0.67912471
0.080148235 -0.0087117255 0.67912471
0.080148235 -0.010454088 0.67912471
0.080148235 -0.012196451 0.67912471
0.080148235 -0.013938814 0.67912477
0.080148235 -0.015681207 0.67912471
0.080148235 -0.01742354 0.67912471
0.080148235 -0.019165874 0.67912471
0.080148235 -0.020908207 0.67912471
0.080148235 -0.02265057 0.67912471
0.080148235 -0.024392933 0.67912471
0.080148235 -0.026135296 0.67912471
0.080148235 -0.027877659 0.67912477
0.080148235 -0.029620022 0.67912477
0.080148235 -0.031362355 0.67912477
0.080148235 -0.033104688 0.67912471
0.080148235 -0.034847051 0.67912471
0.080148235 -0.036589414 0.67912471
0.080148235 -0.038331777 0.67912471
0.080148235 -0.04007411 0.67912471
0.080148235 -0.041816473 0.67912471
0.080148235 -0.043558806 0.67912471
0.080148235 -0.045301199 0.67912471
0.080148235 -0.047043502 0.67912471
