# .PCD v0.7 - Point Cloud Data file format
VERSION 0.7
FIELDS x y z
SIZE 4 4 4
TYPE F F F
COUNT 1 1 1
WIDTH 591
HEIGHT 1
VIEWPOINT 0 0 0 1 0 0 0
POINTS 591
DATA ascii
-0.059120025 0.0084457099 0.61444533
-0.051934276 0.015701056 0.61459529
-0.054800533 0.0085245371 0.61580437
-0.052383043 0.010963887 0.61585516
-0.047646172 0.014660358 0.61627597
-0.054059047 0.0049144626 0.61711109
-0.050620362 0.0061731935 0.61783874
-0.050620362 0.0061731935 0.61783874
-0.048062675 0.0098589957 0.6175651
-0.054654576 -0.001242131 0.61874479
-0.053304397 0.0012396276 0.61844158
-0.039745335 0.014904529 0.6187318
-0.060110454 -0.011270702 0.61997026
-0.037356786 0.016187936 0.61911619
-0.033795115 0.018775076 0.61989415
-0.051408373 -0.0025077164 0.62015879
-0.035111327 0.015047729 0.62017244
-0.031436153 0.017604291 0.62059128
-0.031436153 0.017604291 0.62059128
-0.054380428 -0.010117292 0.62146223
-0.048100248 -0.0037973821 0.6215992
-0.046738051 -0.0012632012 0.62128472
-0.040458325 0.0050573051 0.6214214
-0.032981899 0.011416823 0.62192976
-0.049691878 -0.0089190602 0.62260771
-0.041997604 -0 0.62242711
-0.038200419 0.0038200617 0.62251073
-0.025513075 0.016583502 0.62278914
-0.047374777 -0.0089627802 0.623362
-0.042284001 -0.0038440228 0.62347472
-0.042284001 -0.0038440228 0.62347472
-0.034555148 0.0051193237 0.62329209
-0.028181693 0.011528879 0.62343282
-0.056651473 -0.021888077 0.62422317
-0.052817799 -0.018035322 0.62430835
-0.052817799 -0.018035322 0.62430835
-0.046525504 -0.012923747 0.6248076
-0.04010037 -0.0064678192 0.62495065
-0.038725082 -0.0038725138 0.62462181
-0.03343324 0.003857702 0.62402523
-0.029727394 0.0051699877 0.62482208
-0.02574604 0.011585742 0.62419522
-0.054594945 -0.024697721 0.62571347
-0.045554683 -0.015618742 0.6259166
-0.027277516 0.0051957071 0.62559879
-0.054494813 0.022057414 0.6254257
-0.057438336 -0.030024588 0.62638187
-0.023501979 0.0065283477 0.62641191
-0.023501979 0.0065283477 0.62641191
-0.053430576 0.022154152 0.62611246
-0.053430576 0.022154152 0.62611246
-0.057975329 -0.035575777 0.62785506
-0.057705663 -0.032787293 0.62711525
-0.048701875 -0.025009066 0.62769163
-0.048701875 -0.025009066 0.62769163
-0.044778269 -0.021072119 0.62778103
-0.044778269 -0.021072119 0.62778103
-0.034213502 -0.0092113316 0.62764776
-0.022303788 0.0052479208 0.62717503
-0.010538089 0.015807152 0.62781155
-0.052992232 -0.033120155 0.62872231
-0.038408596 -0.017217636 0.62867749
-0.031667408 -0.0079168379 0.62807894
-0.022460558 0.0013212264 0.62828815
-0.019825565 0.0039651394 0.62834793
-0.051798847 -0.033204406 0.62912911
-0.021343369 -0.0026679039 0.62982738
-0.0066679395 0.013335913 0.62978244
-0.0026686897 0.017346472 0.62987375
-0.0026686897 0.017346472 0.62987375
-0.060124625 -0.045427516 0.630086
-0.049510978 -0.034791499 0.63033128
-0.04563095 -0.032210112 0.63080835
-0.042861082 -0.028127581 0.63048506
-0.038957585 -0.025523931 0.63096261
-0.01743391 -0.0013411045 0.63068557
-0.01743391 -0.0013411045 0.63068557
-0.013354798 0.0053418875 0.63001084
-0.05922085 -0.04845342 0.63127208
-0.049866106 -0.039084226 0.63148987
-0.040389471 -0.028272599 0.63131881
-0.03100678 -0.018873662 0.63153672
-0.03100678 -0.018873662 0.63153672
-0.020204464 -0.0067348182 0.63139713
-0.0094432039 0.0040470958 0.63164634
-0.0067316168 0.0080779493 0.63131976
-0.0027006487 0.010802597 0.63180268
0.0013478709 0.016174465 0.6315065
-0.043376219 -0.035243183 0.63242829
-0.028457563 -0.018971682 0.6323818
-0.021755129 -0.013596982 0.63293391
-0.01625056 -0.0054168403 0.63227212
-0.043415073 0.023064286 0.6325748
-0.053176697 -0.049086198 0.63339376
-0.046404161 -0.042309701 0.6335535
-0.045048047 -0.040952772 0.63358533
-0.024524199 -0.017711937 0.63326705
-0.019089181 -0.012271613 0.63339472
-0.016328987 -0.0081644952 0.63306105
0.0013641781 0.0095492601 0.63347495
0.002735503 0.0095742345 0.63390636
0.0068261721 0.015017539 0.6336025
-0.039811246 -0.038438439 0.63451594
-0.038539771 -0.038539767 0.63495278
-0.038539771 -0.038539767 0.63495278
-0.037170712 -0.037170708 0.63498569
-0.030169383 -0.02742672 0.63433897
-0.017815266 -0.013704032 0.63422662
-0.0095807491 -0.004106015 0.63401824
-0.0054779025 -0 0.6341145
0.0082128793 0.015056938 0.63403451
-0.042853132 -0.045617849 0.63566965
-0.041377455 -0.042756677 0.6352942
-0.019275611 -0.017898798 0.63500214
-0.012433995 -0.012434006 0.63557255
0.015182279 0.017942697 0.63540983
-0.045824558 -0.05137904 0.63642573
-0.04455442 -0.051516056 0.63687265
-0.045711994 -0.049867615 0.63601398
-0.029230312 -0.034797996 0.63682371
-0.013915096 -0.018089622 0.63677418
-0.002780555 -0.0055611134 0.63662541
-0.039112687 -0.047493964 0.63742262
-0.032160219 -0.040549815 0.63759029
0.0041956683 -0.0013985634 0.63762474
0.0097976625 0.004199028 0.63775873
0.011171818 0.0069823861 0.63737381
0.012570783 0.0083805025 0.63740718
0.015370424 0.011178493 0.63747448
-0.036605559 -0.04927671 0.63875341
-0.026787726 -0.039476633 0.63899171
-0.02245925 -0.032285124 0.63824606
-0.012650991 -0.02249065 0.63848299
-0.0042220452 -0.014073491 0.63868612
-0.0014079146 -0.011263311 0.63875443
0.014074951 0.0056299865 0.63870382
0.023960959 0.015504181 0.638942
0.022434795 0.016826093 0.63806158
-0.050619472 0.025309712 0.63853502
-0.050619472 0.025309712 0.63853502
-0.032563943 -0.048138022 0.63970917
-0.032563943 -0.048138022 0.63970917
-0.022685122 -0.038281173 0.63995016
-0.022628229 -0.03677088 0.63952094
-0.011303932 -0.024020851 0.63936728
-0.0056707361 -0.019847602 0.63993376
0.011311915 -2.9802322e-08 0.63948774
0.012760458 -0 0.63995117
0.018400306 0.0070770681 0.63965899
-0.049447309 0.025430053 0.63934183
-0.019907538 -0.036971152 0.64045072
0 -0.017112017 0.64093763
0.0028459551 -0.012806803 0.64057273
0.0071012876 -0.0071012974 0.64024436
0.021346914 0.0071156621 0.64059079
0.021293176 0.0085172653 0.64015841
0.028491294 0.014245659 0.64076424
-0.018583091 -0.038595647 0.64135623
-0.014303382 -0.034328103 0.64146125
0 -0.020065576 0.6418131
0.011426521 -0.005713284 0.64121699
0.017153727 -0 0.6413573
0.020020796 0.0028600991 0.64142728
-0.023032648 -0.047504842 0.64257205
-0.018725494 -0.043212682 0.6426785
-0.014413056 -0.038915247 0.64278513
-0.0057429252 -0.02727887 0.6421122
0.011543507 -0.011543512 0.64298218
0.011543507 -0.011543512 0.64298218
-0.014449988 -0.040459961 0.64323092
0.018777408 -0.0043332577 0.64316052
0.026026215 0.0028918087 0.64333981
0.030460754 0.0058020353 0.6438964
0.030460754 0.0058020353 0.6438964
-0.011654394 -0.042247146 0.64465529
-0.0043636449 -0.033454597 0.64438361
0.013123451 -0.016039759 0.64481974
-0.024759402 0.024759442 0.64461142
0.0029196376 -0.027736574 0.64501983
0.01902107 -0.011705279 0.64542305
0.023486102 -0.0088072717 0.64599311
0.026295912 -0.0029217303 0.6451484
0.033722721 0.0029323995 0.64579076
0.040883642 0.013141155 0.64505744
-0.014752452 -0.053108841 0.64688194
0.03381063 0.0014700294 0.6462521
0.03381063 0.0014700294 0.6462521
0 -0.040020168 0.64772487
-0.0014780322 -0.039906859 0.64721841
0.010390946 -0.029688418 0.64798957
0.013330308 -0.025179505 0.64759421
0.017738329 -0.019216508 0.64723796
0.028127039 -0.0088822246 0.64750063
0.044397201 0.0088794529 0.64744467
-0.054797571 0.028139293 0.64757848
-0.054797571 0.028139293 0.64757848
0.011940744 -0.031344444 0.64897603
0.031265058 -0.0089328587 0.64851964
0.040142912 0.0014867783 0.64827371
0.055127036 0.016389102 0.64865339
-0.0044791796 -0.049270928 0.64903235
-0.002986752 -0.047788024 0.6490705
0 -0.046437472 0.64962655
-0.052357174 0.028422475 0.64937758
-0.052357174 0.028422475 0.64937758
0.024049589 -0.0225465 0.65024424
0.03008773 -0.016548246 0.65039963
0.040679302 -0.006026566 0.65067172
0.048264053 0.0015082657 0.65086621
0.051165592 0.0060195029 0.65045804
0.0060452591 -0.045339465 0.65123594
0.021147111 -0.028699666 0.65113854
0.025764201 -0.025764197 0.65174609
0.045349449 -0.0030232966 0.65127623
0.03041226 -0.022809207 0.65235829
0.037954014 -0.013663441 0.6520623
0.050321594 -0.0030497909 0.65287542
0.060759414 0.010632902 0.6521619
0.018364182 -0.039789051 0.65353358
0.05647001 0.0030524433 0.65303475
0.065891407 0.010726511 0.65377611
0.032288097 -0.027675539 0.65440023
0.039910555 -0.018420219 0.65409756
0.039910555 -0.018420219 0.65409756
0.058324747 0.0015348792 0.65407836
0.062970437 0.0061434805 0.65419936
0.066070944 0.0092192292 0.65428013
0.070726998 0.013837934 0.65440202
0.01391513 -0.051022142 0.65543795
0.023222502 -0.041800499 0.65568441
0.030997356 -0.034097075 0.65588975
0.029360343 -0.033996195 0.65533608
0.051434267 -0.015586108 0.65694547
0.069936953 0.0062166154 0.65640718
0.020340612 -0.051633865 0.65767556
0.021849496 -0.048381031 0.65719461
0.029768208 -0.042302161 0.65792733
0.037435632 -0.031196356 0.65709078
0.037435632 -0.031196356 0.65709078
0.060866859 -0.0062427521 0.65719593
0.054879297 -0.015679777 0.65807605
0.064552985 -0.0078723431 0.65885866
0.042615004 -0.03314501 0.65932584
0.05693486 -0.018978328 0.65971094
0.031783652 -0.04926464 0.66063541
0.044577613 -0.036617309 0.66098249
0.074726008 -0.0031798184 0.66072381
0.074726008 -0.0031798184 0.66072381
0.070106283 -0.0095599294 0.66113544
0.057478674 0.022352844 0.66153443
-0.017541591 0.028704435 0.6613003
0.043219838 -0.041619122 0.66202992
0.048054926 -0.036842078 0.66216218
0.052896455 -0.032058477 0.66229409
-0.053019289 0.032132924 0.66274333
0.038721014 -0.051628023 0.6635558
0.041966964 -0.048423409 0.66364491
0.053198893 -0.035465956 0.66340029
0.064587057 -0.024220139 0.66371286
0.070907913 -0.016115457 0.66333461
0.056773819 -0.035686374 0.66461003
0.064772524 -0.025909007 0.66427249
-0.032361425 0.030743361 0.66412258
-0.032361425 0.030743361 0.66412258
0.07316342 -0.01951021 0.66506207
-0.030911643 0.030911624 0.66519177
0.076893978 -0.019632488 0.66629189
0.052627925 -0.049338698 0.66732764
0.064245366 -0.037888288 0.66765296
0.072355337 -0.027955502 0.66730553
-0.027963839 0.031253755 0.6673649
0.057770889 -0.046216697 0.6680488
0.066687733 -0.043347001 0.67005211
0.078488231 -0.031729281 0.67038643
0.073405974 0.023356467 0.67018783
0.068983071 -0.047110409 0.67190158
0.072382629 -0.043766201 0.67199838
0.075560048 -0.038619578 0.67149091
0.077720501 -0.040549815 0.67275405
-0.020300971 0.032143205 0.67301613
0.078663252 -0.047881961 0.67522788
-0.0088096969 0.033476859 0.68148899
0.054919694 0.028345674 0.68265557
0.033598989 0.030062258 0.68226504
-0.0070897881 0.033676505 0.68275738
0.035579052 0.030242205 0.68354267
0.014205577 0.031962544 0.68314976
-0.067789808 0.039246738 0.68414497
-0.066404447 0.039483696 0.68544537
0.063520409 0.029037893 0.68787813
-0.021748357 0.036247224 0.6875757
0.045845702 0.031175077 0.69016671
0.042630844 0.034879774 0.70271313
0.047120627 0.035340488 0.70580262
-0.016033079 0.04208684 0.71072465
-0.016033079 0.04208684 0.71072465
-0.052358318 0.048169672 0.72161245
-0.05062069 0.048511535 0.72340655
-0.017405404 0.047864884 0.73143131
0.013278228 0.046473801 0.73594147
-0.064216599 0.053144783 0.73610163
-0.035778057 0.051430941 0.7387287
-0.033796206 0.051820844 0.74077499
0.012022375 0.052898437 0.75905001
-0.058618203 0.013159186 0.61320913
-0.056837793 0.014956862 0.6132465
-0.054855406 0.015215209 0.61380428
-0.053388484 0.017395839 0.61362755
-0.049092941 0.016970649 0.61512822
-0.052938268 0.0089585781 0.61627162
-0.041498251 0.016845694 0.61759591
-0.046788201 0.0049908161 0.61941546
-0.033795115 0.018775076 0.61989415
-0.059529882 -0.016465694 0.62169546
-0.047467276 -0.00084111094 0.62092608
-0.040766239 0.0087805688 0.62021983
-0.030878361 0.017014347 0.6209445
-0.059069943 -0.023114324 0.6238122
-0.032643653 0.0070402399 0.62333483
-0.051132452 -0.018771179 0.62506562
-0.047112599 -0.012907758 0.62461483
-0.044812419 -0.011204362 0.62484634
-0.041577049 -0.010394245 0.62564147
-0.040742729 -0.0071146712 0.62493682
-0.034951866 -0.0012944937 0.62506568
-0.030943295 0.0051572323 0.62443686
-0.023233017 0.012907207 0.62460816
-0.062613651 -0.035220146 0.62626529
-0.058869131 -0.032705069 0.62671816
-0.045220569 -0.019006863 0.62702751
-0.035564315 -0.011196941 0.62780386
-0.028836826 -0.0013107359 0.62702745
-0.019779207 0.0052744746 0.62797487
-0.013121715 0.015089199 0.62719727
-0.013121715 0.015089199 0.62719727
-0.061303869 -0.04531154 0.62967432
-0.061303869 -0.04531154 0.62967432
-0.039020497 -0.017195821 0.62847501
-0.029244766 -0.0093051493 0.62926573
-0.023484787 -0.0031021337 0.62927091
-0.021343369 -0.0026679039 0.62982738
-0.018464046 0.0065942705 0.62800467
-0.038772855 -0.02272892 0.63019371
-0.014863507 -0.0027024448 0.63191175
-0.010790169 0.0026975572 0.63161516
-0.010687886 0.0080159009 0.63007188
-0.0049452446 0.0089917881 0.63162076
-0.040877555 -0.035427213 0.63328272
-0.036900349 -0.032800287 0.6337769
-0.029201701 -0.021053821 0.63276058
-0.029201701 -0.021053821 0.63276058
-0.023194276 -0.017055437 0.63349807
-0.023194276 -0.017055437 0.63349807
-0.012932505 -0.0047657564 0.6331408
-0.0013538254 0.010830611 0.63222528
0.0047778403 0.012965173 0.63355517
-0.059068184 0.024442658 0.63272011
-0.052075088 -0.050704673 0.63422567
-0.045267209 -0.043895483 0.63438702
-0.028944451 -0.028944433 0.63518053
-0.028944451 -0.028944433 0.63518053
-0.015228447 -0.016612858 0.63591647
0.0027589276 0.0048272908 0.63532013
0.011048709 0.013119504 0.63551629
-0.043224178 -0.050893843 0.63711447
-0.043064266 -0.048620939 0.63649178
-0.0069644391 -0.011143088 0.6369406
0.011199552 0.005599767 0.63779229
0.011130489 0.0090426803 0.63675022
0.011089431 0.011089444 0.63613075
-0.031154374 -0.046731532 0.63974345
-0.025256604 -0.035078615 0.63817865
-0.023244677 -0.035220653 0.6388644
-0.023244677 -0.035220653 0.6388644
-0.011275679 -0.022551328 0.63894093
0.028348068 0.017008841 0.63989985
0.016971579 0.019800186 0.639525
0.025312221 0.018281043 0.63855165
-0.018630318 -0.04012683 0.64179474
-0.011476506 -0.032994926 0.64197123
-0.0014185394 -0.01560396 0.64003694
0.021428064 0.0049989671 0.64124382
0.028636063 0.011454403 0.64163804
0.032784954 0.018530637 0.64086908
-0.014236934 0.022779077 0.64065915
-0.014236934 0.022779077 0.64065915
-0.020932263 -0.0469203 0.64307088
-0.015111888 -0.038861677 0.6425457
-0.0086218668 -0.030895934 0.6422627
0 -0.026063532 0.64359009
0.00072413578 -0.024586588 0.64338422
0.0050401846 -0.017277211 0.64259964
0.015140251 -0.0072091669 0.64284885
0.01533481 -0.005271554 0.64233708
0.028967079 0.005068332 0.64363593
-0.0073074014 -0.039459974 0.6452204
0.010736257 -0.020983916 0.64552081
0.034923777 0.0087309778 0.6444571
0.040883642 0.013141155 0.64505744
0.046884529 0.017581701 0.64566231
-0.01471396 -0.05149886 0.64641732
-0.0074033602 -0.047381461 0.64753705
-0.0044091358 -0.039682239 0.64621401
0.0088696238 -0.02882725 0.6472472
0.026676131 -0.011116013 0.64769816
0.028201072 -0.010389864 0.64797103
0.032503288 -0.0029548705 0.64714473
0.038445313 0.0029573441 0.64729488
0.039087437 0.0051614121 0.64684737
0.045024935 0.011070482 0.64699638
-0.0049541555 -0.047069669 0.64822829
0.0089636426 -0.035108581 0.64913869
0.011893544 -0.028991461 0.64826381
0.017201429 -0.0269223 0.64934909
0.017201429 -0.0269223 0.64934909
0.038750134 -0.0014903843 0.64871013
0.00075416092 -0.048950866 0.65061247
0.0030253828 -0.049163476 0.65140212
0.0090839695 -0.043149859 0.65155947
0.010614473 -0.042457908 0.6518442
0.016649488 -0.03481257 0.6515106
0.016649488 -0.03481257 0.6515106
0.034669381 -0.012813613 0.6507591
0.040733792 -0.0067899674 0.65091532
0.060514823 0.012858376 0.65142375
0.0076608723 -0.052093923 0.65375394
0.02290797 -0.033598363 0.65315318
0.041174412 -0.012963325 0.65288532
0.05500643 0.00076295435 0.65324473
0.065624043 0.012971178 0.65302557
0.015401321 -0.046975076 0.65471452
0.018414155 -0.041431844 0.65403616
0.018414155 -0.041431844 0.65403616
0.051011294 -0.010820568 0.65539831
0.051011294 -0.010820568 0.65539831
0.049185067 -0.0092222095 0.65434051
0.067622207 0.010758102 0.65432054
-0.0092364401 0.026169926 0.65462697
0.021125372 -0.050857067 0.65769649
0.025051272 -0.046971112 0.65780139
0.024981909 -0.045279711 0.65727806
0.029522141 -0.03729111 0.65636396
0.045284946 -0.023423254 0.65729988
0.045284946 -0.023423254 0.65729988
0.051576823 -0.017192245 0.65746695
0.055838648 -0.0077553689 0.65603524
0.060698867 -0.0046691298 0.65667593
0.060698867 -0.0046691298 0.65667593
0.060698867 -0.0046691298 0.65667593
0.065592684 -0.0015617609 0.65732169
0.068556644 0.0031162202 0.65688407
0.037114862 -0.039482608 0.65944308
0.047514889 -0.030092746 0.6599893
0.033286527 -0.045967102 0.66013932
0.04160966 -0.04321 0.66198605
0.039662607 -0.0396626 0.66031212
0.0538988 -0.023778856 0.66016173
0.058859728 -0.020680457 0.66083115
0.06224522 -0.019152343 0.66146213
0.074515916 -0.0015854239 0.66018426
0.01909665 0.02546224 0.66090155
0.050095029 -0.040399224 0.66386878
0.052971847 -0.032907918 0.66256988
0.075470909 -0.008832857 0.662637
0.075470909 -0.008832857 0.662637
0.060306109 -0.03504391 0.66554981
0.06150566 -0.029134214 0.66418278
0.06150566 -0.029134214 0.66418278
0.066502728 -0.025142431 0.66459894
0.076230489 -0.014597327 0.66458786
0.068833634 -0.029500097 0.66663635
0.075240485 -0.021263599 0.66624606
0.054603968 -0.051294625 0.66853994
0.05960992 -0.046363264 0.66868055
0.064433821 -0.039651543 0.66823614
0.07445135 -0.029780567 0.66851687
0.033251893 0.026601493 0.66949701
0.065391734 -0.048624635 0.67120105
0.035110898 0.02675119 0.67062604
-0.023417873 0.031781435 0.67071748
0.075785711 -0.040419042 0.67209625
0.079667866 -0.040681452 0.67341608
0.075206645 -0.05127725 0.67512792
0.07497938 -0.049418211 0.6745044
-0.069158636 0.039012581 0.68286014
-0.069158636 0.039012581 0.68286014
0.041664056 0.030795187 0.68746924
-0.043415625 0.037988663 0.68716782
-0.043415625 0.037988663 0.68716782
0.021829985 0.032745004 0.68839681
-0.020058308 0.036469668 0.68891793
-0.071449175 0.044414371 0.70190352
0.066015869 0.03300795 0.70318115
-0.001942665 0.038853317 0.70330453
0.047120627 0.035340488 0.70580262
-0.019774742 0.041526973 0.70750636
-0.057427298 0.047172427 0.71637869
0.046148743 0.039855719 0.72201538
-0.021442814 0.047174215 0.72764182
-0.021442814 0.047174215 0.72764182
-0.047070179 0.049209744 0.72707105
0.0042980807 0.045129836 0.72821617
0.0042980807 0.045129836 0.72821617
-0.070959635 0.051606983 0.72836733
-0.090582266 0.055233091 0.73549306
0.0070985677 0.052056164 0.75442845
0.038256891 0.050212175 0.75743008
-0.043785922 0.0068799555 0.61981642
-0.049729224 -0.0022555839 0.62062126
-0.049729224 -0.0022555839 0.62062126
-0.033965521 0.0098395497 0.62208235
-0.049368881 -0.014168228 0.62426615
-0.021797705 0.010084814 0.62590367
-0.011405582 0.015353909 0.62766838
-0.018186647 0.017929021 0.62558609
-0.051273853 0.022350162 0.62750411
-0.046602156 -0.036809474 0.63186014
-0.046602156 -0.036809474 0.63186014
-0.021751113 0.0014693042 0.62847131
-0.010790169 0.0026975572 0.63161516
-0.0058896705 0.013895623 0.62986553
0.001513298 0.0060395598 0.63456243
-0.0040599173 0.0081198215 0.63216257
-0.041954812 0.023196906 0.63351667
-0.041565385 -0.046580162 0.63636708
-0.041565385 -0.046580162 0.63636708
-0.033357043 -0.038455576 0.63658667
-0.026303658 -0.037706144 0.63862187
-0.018257502 -0.029624943 0.63880241
-0.018257502 -0.029624943 0.63880241
0.0014136708 -0.0098854825 0.63924903
0.004248349 -0.0084966719 0.63974446
-0.0021477903 -0.022024132 0.64170581
0.0014929596 -0.021668829 0.64276576
-0.002132898 -0.017959636 0.64050627
0.029858489 0.006332092 0.64354676
0.033789136 0.010376255 0.64360666
0.034206938 0.017744912 0.64155674
-0.014033639 -0.053184062 0.64713424
-0.017794298 -0.047212437 0.64416158
-0.017794298 -0.047212437 0.64416158
-0.0062459088 -0.041904401 0.64628458
-0.0024668574 -0.041945469 0.647506
0.011632805 -0.015995085 0.64432961
0.046356969 0.017750755 0.64588141
0.014370604 -0.026262999 0.64824808
0.022424882 -0.018700197 0.64858496
0.033897106 -0.006519679 0.64864737
0.03566004 -0.0029716492 0.64816022
0.043134648 0.0044622123 0.6483494
0.050101228 0.0056345738 0.65023166
-0.031783249 0.02724278 0.65149826
-0.031783249 0.02724278 0.65149826
0.010004317 -0.05232434 0.65457195
0.014068861 -0.046141267 0.65404105
0.017646177 -0.042195722 0.65401679
0.025851587 -0.033837102 0.65416634
0.034256 -0.019411594 0.65258157
0.065747619 0.0058515295 0.65517461
0.069663584 0.013960632 0.6540252
0.025706265 0.023015648 0.65401977
0.033705227 -0.038408019 0.65803385
0.041142613 -0.036395371 0.6598177
0.031082787 -0.035745174 0.65640533
0.050023764 0.021883022 0.65748358
0.050023764 0.021883022 0.65748358
-0.060690872 0.031123519 0.6566512
0.039662607 -0.0396626 0.66031212
0.050325491 -0.037843328 0.6631853
0.050476316 -0.034452379 0.66222894
0.050476316 -0.034452379 0.66222894
0.061491568 -0.01830836 0.66097081
-0.017536223 0.028704982 0.661304
0.07131552 -0.019449681 0.66445285
0.0064939642 0.027599365 0.66477686
0.065653905 -0.042384535 0.66943622
0.065653905 -0.042384535 0.66943622
-0.022643058 0.031871364 0.67128885
-0.056596592 0.036016017 0.67582875
0.029708836 0.029708803 0.67975551
-0.047966894 0.03730759 0.68325287
-0.043415625 0.037988663 0.68716782
0.057900034 0.032270476 0.69794464
0.057900034 0.032270476 0.69794464
0.025641179 0.037475586 0.70689368
-0.045090016 0.043129593 0.70544964
-0.066960931 0.045297116 0.70653647
0.029983822 0.037979513 0.71009529
0.04374234 0.039576411 0.72024071
-0.0021034123 0.044171631 0.72270846
-0.05062069 0.048511535 0.72340655
