# .PCD v0.7 - Point Cloud Data file format
VERSION 0.7
FIELDS x y z
SIZE 4 4 4
TYPE F F F
COUNT 1 1 1
WIDTH 1332
HEIGHT 1
VIEWPOINT 0 0 0 1 0 0 0
POINTS 1332
DATA ascii
-0.017124252 0.025686383 0.64106083
-0.017030448 0.02412647 0.64011717
-0.016937666 0.022583574 0.63918388
-0.016845839 0.021057308 0.63826019
-0.016755052 0.019547582 0.63734686
-0.016665239 0.018054038 0.63644344
-0.016576381 0.01657638 0.6355496
-0.016488468 0.015114427 0.63466525
-0.016401434 0.013667852 0.63378978
-0.016315361 0.012236506 0.63292396
-0.016230188 0.010820121 0.63206726
-0.016145898 0.0094184577 0.63121933
-0.016062481 0.008031249 0.63038021
-0.015979875 0.0066583157 0.62954926
-0.015898159 0.0052993894 0.62872732
-0.015819171 0.003954798 0.62793267
-0.016030243 0.0026717186 0.6300559
-0.016246974 0.0013539493 0.63223606
-0.016469648 -0 0.63447601
-0.016698558 -0.0013915598 0.63677865
-0.016933873 -0.0028222799 0.63914573
-0.017175913 -0.0042939484 0.64158046
-0.017424973 -0.0058083236 0.64408582
-0.017681416 -0.0073672235 0.64666545
-0.017945465 -0.0089727342 0.64932156
-0.018217519 -0.010626912 0.65205818
-0.018498007 -0.012332022 0.65487969
-0.018787207 -0.014090419 0.65778887
-0.019085595 -0.015904635 0.66079038
-0.019393679 -0.017777562 0.66388947
-0.019711804 -0.019711792 0.66708958
-0.02004054 -0.021710575 0.67039639
-0.020380499 -0.023777246 0.67381608
-0.020732116 -0.025915146 0.67735308
-0.021096079 -0.028128117 0.6810143
-0.02147313 -0.030420244 0.68480712
-0.02186382 -0.032795727 0.68873715
-0.022268992 -0.035259217 0.69281286
-0.022689553 -0.037815899 0.69704342
-0.023126211 -0.040470868 0.70143586
-0.023580104 -0.043230176 0.70600164
-0.024052069 -0.046099812 0.71074921
-0.024543311 -0.04908663 0.71569073
-0.025055151 -0.052198201 0.72083944
-0.025588678 -0.055442154 0.72620636
-0.026145423 -0.058827162 0.73180676
-0.026727054 -0.062363118 0.73765755
-0.018003818 0.067105144 0.6663726
-0.017890794 0.065057427 0.66513228
-0.017779181 0.06303528 0.66390747
-0.017668892 0.061037987 0.6626972
-0.01756002 0.059065521 0.66150254
-0.017452484 0.057117254 0.66032243
-0.017346257 0.05519262 0.65915668
-0.017241314 0.053291351 0.65800512
-0.017137634 0.05141291 0.65686733
-0.017035138 0.049556762 0.65574259
-0.016933914 0.047722846 0.65463179
-0.016833888 0.045910597 0.65353411
-0.016735036 0.044119656 0.65244931
-0.016637338 0.042349607 0.65137726
-0.016540721 0.040599972 0.65031695
-0.016445274 0.038870662 0.64926958
-0.016350919 0.037161171 0.64823413
-0.016257644 0.035471231 0.6472106
-0.016165424 0.033800423 0.64619857
-0.016074196 0.032148391 0.64519751
-0.01598404 0.030515015 0.64420819
-0.01589489 0.028899819 0.64322984
-0.015806731 0.027302533 0.6422624
-0.015719542 0.025722891 0.64130563
-0.015633265 0.024160475 0.64035881
-0.015547974 0.022615224 0.63942289
-0.01546361 0.021086723 0.63849711
-0.015380156 0.019574761 0.63758135
-0.015297598 0.018078983 0.6366753
-0.015215877 0.016599119 0.63577855
-0.015135068 0.01513508 0.63489181
-0.015055114 0.013686478 0.63401437
-0.014975999 0.012253076 0.63314623
-0.014897713 0.010834724 0.63228709
-0.014820198 0.0094310343 0.63143647
-0.014743527 0.0080419183 0.63059509
-0.014667645 0.0066671073 0.62976247
-0.01459254 0.0053064227 0.62893826
-0.014519134 0.0039597154 0.6281327
-0.014713064 0.0026751161 0.63026083
-0.014912286 0.0013556778 0.63244706
-0.015116934 -2.9802322e-08 0.63469279
-0.015327279 -0.0013933778 0.63700104
-0.015543603 -0.0028261244 0.63937491
-0.015766077 -0.0042998493 0.64181626
-0.015995009 -0.0058163702 0.64432847
-0.016230738 -0.0073776245 0.64691532
-0.016473468 -0.0089855492 0.64957905
-0.016723568 -0.010642231 0.65232348
-0.016981434 -0.012350142 0.65515327
-0.017247321 -0.014111429 0.65807104
-0.017521666 -0.015928745 0.66108155
-0.01780488 -0.017804891 0.66418952
-0.018097462 -0.019742638 0.66740018
-0.018399756 -0.021745145 0.67071748
-0.018712319 -0.023815662 0.67414749
-0.019035758 -0.025957853 0.67769676
-0.0193705 -0.028175235 0.68137014
-0.0197173 -0.030472189 0.6851759
-0.020076668 -0.032852739 0.6891194
-0.020449379 -0.035321623 0.69320941
-0.020836273 -0.037884116 0.69745505
-0.021238001 -0.040545285 0.70186353
-0.021655528 -0.043311059 0.70644534
-0.022089891 -0.046187937 0.71121192
-0.022541938 -0.049182415 0.71617258
-0.023012977 -0.052302212 0.72134161
-0.023504013 -0.055554926 0.72673011
-0.024016464 -0.058949471 0.73235357
-0.024551874 -0.062495649 0.73822892
-0.016393794 0.067214549 0.66669476
-0.016290655 0.065162629 0.66544968
-0.01618886 0.063136578 0.66422093
-0.016088331 0.061135709 0.66300744
-0.015989041 0.059159487 0.66180891
-0.015890971 0.057207495 0.6606251
-0.015794042 0.055279136 0.65945506
-0.015698342 0.05337438 0.65829992
-0.015603795 0.051492512 0.65715861
-0.015510379 0.049633205 0.65603089
-0.015418074 0.047796041 0.65491676
-0.015326814 0.045980453 0.65381509
-0.015236675 0.044186383 0.65272701
-0.015147591 0.042413235 0.65165174
-0.015059542 0.040660799 0.65058887
-0.014972512 0.038928568 0.64953828
-0.014886481 0.037216187 0.64849985
-0.014801387 0.035523295 0.64747268
-0.014717304 0.033849776 0.64645773
-0.014634174 0.03219521 0.64545417
-0.014551977 0.030559152 0.64446199
-0.014470697 0.028941363 0.6434809
-0.014390278 0.027341545 0.64251012
-0.014310789 0.025759429 0.64155066
-0.014232175 0.024194688 0.64060169
-0.01415442 0.022647053 0.6396631
-0.01407751 0.021116257 0.6387347
-0.014001389 0.019601941 0.63781583
-0.013926128 0.018103957 0.63690734
-0.013851671 0.016622037 0.63600862
-0.013778008 0.015155822 0.63511938
-0.013705124 0.013705134 0.63423955
-0.013632965 0.012269676 0.63336861
-0.013561605 0.010849297 0.63250715
-0.013490985 0.0094437003 0.63165474
-0.013421098 0.0080526769 0.63081104
-0.013351892 0.0066759586 0.62997574
-0.013283435 0.0053133965 0.62914932
-0.013215824 0.003964752 0.62833321
-0.01339257 0.0026785433 0.63046676
-0.013574148 0.0013574064 0.63265854
-0.013760676 -2.9802322e-08 0.63491023
-0.013952401 -0.0013952553 0.63722456
-0.014149589 -0.0028299093 0.63960481
-0.014352385 -0.0043057203 0.64205277
-0.014561079 -0.0058244169 0.6445719
-0.014775978 -0.0073879957 0.64716595
-0.014997267 -0.0089983344 0.64983714
-0.015225287 -0.010657668 0.65258956
-0.015460345 -0.012368232 0.65542698
-0.015702829 -0.014132529 0.65835404
-0.015952986 -0.015953004 0.66137373
-0.016211241 -0.017832339 0.66449106
-0.016478054 -0.019773662 0.66771179
-0.016753737 -0.021779835 0.67103958
-0.017038802 -0.023854315 0.67448062
-0.017333798 -0.026000679 0.67804158
-0.017639125 -0.028222591 0.68172717
-0.0179554 -0.030524164 0.68554497
-0.018283293 -0.03290993 0.68950295
-0.018623313 -0.035384297 0.69360739
-0.018976295 -0.037952572 0.69786829
-0.019342838 -0.04061994 0.7022928
-0.019723818 -0.04339239 0.70689172
-0.020120196 -0.04627645 0.71167636
-0.02053274 -0.049278557 0.71665621
-0.020962559 -0.052406371 0.72184455
-0.021410851 -0.055668175 0.72725594
-0.021878636 -0.059072316 0.73290265
-0.022367427 -0.062628806 0.73880279
-0.014778459 0.067324132 0.66701722
-0.014685382 0.065268368 0.66576886
-0.014593472 0.063238382 0.66453612
-0.014502703 0.06123367 0.66331869
-0.014413009 0.059253484 0.66211569
-0.014324465 0.057297856 0.66092813
-0.014237002 0.055366129 0.65975499
-0.014150602 0.053457826 0.65859622
-0.014065243 0.051572531 0.65745139
-0.013980863 0.049709707 0.65631962
-0.013897533 0.047869295 0.65520203
-0.013815192 0.046050638 0.65409756
-0.01373382 0.044253409 0.6530062
-0.013653401 0.04247728 0.65192759
-0.013573875 0.040721595 0.65086102
-0.013495314 0.038986474 0.64980727
-0.013417657 0.037271261 0.64876568
-0.013340887 0.035575718 0.64773607
-0.01326499 0.033899456 0.64671814
-0.013189913 0.03224203 0.64571118
-0.013115721 0.030603379 0.64471602
-0.013042359 0.028983027 0.64373213
-0.012969812 0.027380735 0.64275908
-0.012898069 0.025796145 0.64179683
-0.012827076 0.02422893 0.6408447
-0.012756899 0.022678912 0.63990343
-0.012687485 0.021145821 0.6389724
-0.012618823 0.01962927 0.63805157
-0.012550899 0.018129081 0.63714051
-0.012483667 0.016644895 0.63623875
-0.012417187 0.015176535 0.63534713
-0.01235141 0.01372382 0.63446492
-0.01228633 0.012286335 0.63359201
-0.012221929 0.01086396 0.63272822
-0.012158165 0.0094563663 0.63187301
-0.012095098 0.0080634058 0.63102722
-0.012032683 0.0066848099 0.63019001
-0.011970907 0.0053204298 0.62936151
-0.011909763 0.0039699078 0.62854141
-0.012068705 0.0026819408 0.63067317
-0.012232545 0.0013591945 0.63287067
-0.012400858 -0 0.63512814
-0.012573867 -0.0013971031 0.63744861
-0.012751774 -0.002833724 0.6398347
-0.012934825 -0.0043116212 0.64228988
-0.013123168 -0.0058324933 0.64481592
-0.013317076 -0.0073983669 0.64741677
-0.013516845 -0.0090112388 0.65009606
-0.013722654 -0.010673195 0.65285647
-0.013934826 -0.012386501 0.65570211
-0.01415371 -0.014153689 0.65863788
-0.01437953 -0.015977234 0.66166669
-0.014612675 -0.017859936 0.66479367
-0.014853557 -0.019804746 0.66802442
-0.015102458 -0.021814644 0.67136276
-0.015359844 -0.023893088 0.67481494
-0.015626213 -0.026043683 0.67838746
-0.015901923 -0.028270066 0.68208551
-0.016187537 -0.030576438 0.68591613
-0.016483663 -0.032967299 0.68988788
-0.016790759 -0.03544718 0.69400674
-0.017109515 -0.038021147 0.698282
-0.017440679 -0.040694922 0.70272374
-0.017784841 -0.043474048 0.7073397
-0.018142937 -0.046365261 0.71214259
-0.018515669 -0.049375087 0.71714175
-0.018904038 -0.052511215 0.72235072
-0.019309135 -0.055781931 0.72778398
-0.019731883 -0.059195638 0.73345399
-0.020173555 -0.062762141 0.73937786
-0.013157898 0.067434222 0.66734147
-0.013074848 0.065374225 0.66608834
-0.012992884 0.063340306 0.66485161
-0.012911942 0.061331749 0.66363031
-0.012832002 0.059348047 0.66242409
-0.012753045 0.057388693 0.66123271
-0.012675013 0.055453151 0.66005528
-0.012597971 0.053541392 0.65889281
-0.012521859 0.0516527 0.65774441
-0.012446663 0.049786687 0.65660977
-0.012372364 0.047942907 0.65548867
-0.012298906 0.046120912 0.65438026
-0.012226357 0.044320554 0.65328562
-0.012154657 0.042541325 0.65220368
-0.012083794 0.040782809 0.65113449
-0.012013751 0.039044708 0.65007764
-0.011944516 0.037326604 0.64903295
-0.011876037 0.03562811 0.6479997
-0.011808377 0.033949107 0.64697874
-0.011741482 0.032289058 0.64596939
-0.011675341 0.030647784 0.64497137
-0.011609942 0.029024839 0.64398462
-0.011545234 0.027419925 0.64300823
-0.01148128 0.025832891 0.64204323
-0.011418031 0.024263322 0.6410889
-0.011355475 0.022710949 0.640145
-0.011293598 0.021175504 0.63921136
-0.011232361 0.019656628 0.63828737
-0.011171818 0.018154204 0.63737381
-0.011111923 0.016667873 0.63647008
-0.011052666 0.015197426 0.63557601
-0.010994039 0.013742536 0.63469136
-0.010935999 0.012303025 0.63381559
-0.010878598 0.010878593 0.63294947
-0.010821798 0.0094690919 0.63209248
-0.010765588 0.008074224 0.6312443
-0.010709928 0.0066937208 0.63040447
-0.010654871 0.0053274333 0.6295737
-0.010600378 0.003975153 0.62875152
-0.010741454 0.0026853979 0.63088012
-0.010887433 0.0013609231 0.63308275
-0.011037467 -0 0.63534665
-0.011191661 -0.0013989508 0.6376732
-0.011350224 -0.0028375387 0.64006573
-0.011513378 -0.0043174922 0.64252758
-0.011681258 -0.0058406293 0.64506072
-0.011854104 -0.0074087977 0.64766872
-0.012032181 -0.0090241432 0.6503557
-0.012215651 -0.010688722 0.65312403
-0.012404802 -0.012404799 0.65597808
-0.012599944 -0.014174968 0.65892261
-0.012801281 -0.016001612 0.6619606
-0.013009158 -0.017887592 0.66509718
-0.013223898 -0.01983583 0.66833735
-0.013445892 -0.021849573 0.67168701
-0.01367542 -0.02393198 0.67515028
-0.013912918 -0.026086688 0.67873383
-0.014158865 -0.02831772 0.68244493
-0.014413608 -0.03062892 0.68628871
-0.014677743 -0.033024937 0.69027418
-0.014951683 -0.035510242 0.69440758
-0.015236039 -0.03809008 0.69869816
-0.015531486 -0.040770143 0.70315611
-0.015838552 -0.043556005 0.70778942
-0.016158003 -0.046454281 0.71260959
-0.016490679 -0.049472034 0.71762919
-0.016837267 -0.052616447 0.72285885
-0.017198734 -0.055895895 0.72831297
-0.017576145 -0.059319466 0.73400772
-0.017970407 -0.06289643 0.73995668
-0.011531984 0.06754449 0.66766602
-0.011459118 0.065480679 0.66640955
-0.011387167 0.063442826 0.66516876
-0.011316115 0.061430365 0.66394353
-0.011245904 0.05944261 0.66273278
-0.011176597 0.05747968 0.66153765
-0.01110814 0.05554074 0.66035718
-0.011040517 0.053625375 0.65919101
-0.010973711 0.051733226 0.65803897
-0.010907673 0.049863666 0.65690017
-0.010842461 0.048016608 0.65577567
-0.010778024 0.046191543 0.65466446
-0.010714348 0.044387996 0.65356642
-0.01065142 0.042605698 0.65248132
-0.010589194 0.040844023 0.6514082
-0.010527723 0.039103001 0.65034819
-0.010466962 0.037382007 0.6493004
-0.010406898 0.035680771 0.64826465
-0.01034752 0.033998996 0.6472407
-0.010288783 0.032336146 0.64622784
-0.010230742 0.03069222 0.64522696
-0.010173352 0.029066741 0.64423728
-0.010116601 0.027459323 0.64325869
-0.01006048 0.025869787 0.64229089
-0.010004949 0.024297744 0.64133328
-0.0099500567 0.022742987 0.6403867
-0.0098957634 0.021205217 0.63945043
-0.0098420596 0.019684136 0.63852441
-0.009788936 0.018179476 0.63760829
-0.0097363535 0.01669091 0.63670146
-0.0096843615 0.015218288 0.63580501
-0.0096329218 0.013761312 0.63491786
-0.0095820259 0.012319773 0.63404024
-0.0095316647 0.010893345 0.6331718
-0.0094818026 0.0094817877 0.63231194
-0.0094324872 0.0080850124 0.6314615
-0.0093836812 0.0067026317 0.63061988
-0.0093353782 0.0053344965 0.62978697
-0.0092875697 0.0039803684 0.62896252
-0.0094108041 0.0026887953 0.63108766
-0.0095388656 0.0013626814 0.63329595
-0.0096704885 -0 0.63556576
-0.0098057659 -0.0014008284 0.6378985
-0.0099448813 -0.0028413832 0.64029747
-0.010088 -0.0043233931 0.64276546
-0.010235332 -0.0058487654 0.64530611
-0.010386997 -0.0074192882 0.6479215
-0.010543225 -0.0090370178 0.65061551
-0.010704258 -0.010704279 0.65339249
-0.010870252 -0.012423128 0.65625489
-0.011041475 -0.014196217 0.65920758
-0.011218215 -0.01602602 0.66225535
-0.011400668 -0.017915308 0.66540158
-0.011589153 -0.019867122 0.66865194
-0.011784016 -0.02188459 0.67201221
-0.011985502 -0.023971021 0.67548674
-0.012193998 -0.026129991 0.67908204
-0.012409922 -0.028365552 0.68280554
-0.012633583 -0.03068158 0.68666244
-0.012865454 -0.033082604 0.69066095
-0.013106046 -0.035573542 0.69480979
-0.013355756 -0.038159311 0.69911587
-0.013615166 -0.040845484 0.7035892
-0.013884909 -0.043638289 0.70824081
-0.014165498 -0.046543747 0.71307939
-0.014457724 -0.049569339 0.71811861
-0.014762194 -0.052722126 0.723369
-0.015079765 -0.056010544 0.72884536
-0.01541137 -0.059443831 0.73456371
-0.015757814 -0.063031256 0.74053788
-0.0099007795 0.067655355 0.66799241
-0.0098380847 0.065587252 0.66673112
-0.0097762123 0.063545376 0.66548634
-0.0097151138 0.06152904 0.66425711
-0.0096547734 0.059537768 0.66304314
-0.0095951781 0.057571054 0.66184419
-0.0095362822 0.0556283 0.66065931
-0.009478136 0.053709477 0.65948951
-0.0094206957 0.051813841 0.6583339
-0.0093639465 0.049941063 0.65719217
-0.0093078772 0.048090726 0.65606415
-0.0092524448 0.046262234 0.65494895
-0.0091976989 0.044455558 0.65384758
-0.0091435974 0.042670131 0.65275908
-0.0090901284 0.040905565 0.65168339
-0.0090372805 0.039161533 0.65062016
-0.0089850444 0.037437677 0.64956927
-0.0089333793 0.035733521 0.64852983
-0.0088823335 0.034048975 0.6475029
-0.0088318679 0.032383531 0.64648759
-0.0087819733 0.030736893 0.64548373
-0.0087326383 0.029108793 0.6444912
-0.0086838277 0.027498811 0.64350921
-0.0086355861 0.025906771 0.64253867
-0.0085878782 0.024332345 0.64157891
-0.0085406937 0.022775203 0.64062959
-0.008494026 0.021235079 0.63969076
-0.0084478399 0.019711614 0.63876152
-0.0084021781 0.018204719 0.63784289
-0.0083570071 0.016714036 0.63693416
-0.0083123185 0.015239239 0.63603508
-0.0082681058 0.013780177 0.6351456
-0.0082243383 0.012336493 0.63426507
-0.0081810541 0.010908097 0.63339424
-0.0081382236 0.0094946027 0.63253254
-0.0080958391 0.0080958605 0.63167983
-0.0080538709 0.0067115426 0.63083553
-0.0080123581 0.0053415895 0.63000035
-0.0079712709 0.0039856434 0.6291737
-0.0080767442 0.0026922822 0.63129562
-0.0081867948 0.0013644695 0.63350976
-0.0082998853 -0 0.63578492
-0.0084161693 -0.0014027059 0.63812435
-0.0085357325 -0.0028452277 0.64052975
-0.0086587407 -0.0043293536 0.64300454
-0.0087853745 -0.0058569312 0.64555222
-0.0089157382 -0.0074297786 0.648175
-0.0090500303 -0.0090500116 0.65087664
-0.0091884583 -0.010719866 0.65366167
-0.0093311574 -0.012441516 0.65653253
-0.0094783576 -0.014217556 0.65949398
-0.0096303103 -0.016050547 0.66255099
-0.0097871795 -0.017943144 0.66570699
-0.0099492446 -0.019898474 0.66896749
-0.010116767 -0.021919698 0.67233777
-0.010290065 -0.024010152 0.67582422
-0.010469365 -0.026173413 0.67943144
-0.010655023 -0.028413385 0.68316662
-0.010847428 -0.03073436 0.68703747
-0.011046866 -0.0331406 0.69104987
-0.01125382 -0.035637081 0.6952135
-0.011468628 -0.03822878 0.69953507
-0.011691797 -0.040921241 0.70402485
-0.011923875 -0.043720871 0.70869398
-0.012165298 -0.046633661 0.71355104
-0.012416702 -0.049666792 0.71860886
-0.012678771 -0.052828193 0.7238813
-0.012952083 -0.0561257 0.72937989
-0.0132375 -0.059568763 0.73512203
-0.013535714 -0.063166678 0.74112165
-0.008264184 0.067766309 0.66831923
-0.0082117962 0.065694362 0.66705441
-0.0081600677 0.063648522 0.66580558
-0.0081089865 0.061628312 0.66457236
-0.0080585135 0.059633017 0.66335386
-0.0080086933 0.057662576 0.66215104
-0.0079594832 0.055716395 0.660963
-0.0079108756 0.053793967 0.65978956
-0.0078628575 0.051894903 0.65863025
-0.0078153946 0.050018519 0.65748441
-0.0077685248 0.048164845 0.65635288
-0.0077222143 0.046333283 0.65523487
-0.0076764529 0.044523418 0.6541301
-0.0076312306 0.042734921 0.65303832
-0.0075865132 0.040967196 0.65195876
-0.0075423419 0.039220184 0.65089232
-0.0074986811 0.037493408 0.64983833
-0.0074555236 0.03578651 0.64879638
-0.0074128597 0.034099132 0.64776635
-0.0073706578 0.032430887 0.64674753
-0.0073289569 0.030781627 0.64574081
-0.0072877253 0.029150903 0.64474541
-0.0072469548 0.027538419 0.6437611
-0.0072066383 0.025943905 0.64278775
-0.0071667461 0.024366945 0.64182466
-0.0071273143 0.022807419 0.64087272
-0.0070883138 0.021264941 0.6399312
-0.0070497384 0.01973927 0.63899988
-0.0070115803 0.01823011 0.63807869
-0.0069738128 0.016737133 0.63716686
-0.0069364696 0.015260249 0.63626534
-0.0068995249 0.013799042 0.63537335
-0.0068629715 0.012353361 0.63449091
-0.0068268031 0.010922879 0.63361776
-0.0067909942 0.0095073879 0.63275325
-0.0067555793 0.0081067085 0.63189822
-0.0067205308 0.0067205131 0.63105208
-0.0066858446 0.0053486824 0.63021469
-0.0066515147 0.0039908886 0.62938595
-0.0067392588 0.0026957095 0.63150418
-0.0068312045 0.0013662577 0.63372397
-0.0069256942 -0 0.63600516
-0.0070228549 -0.0014045537 0.63835084
-0.0071227592 -0.0028490722 0.64076275
-0.0072255465 -0.004335314 0.64324427
-0.007331368 -0.005865097 0.64579898
-0.0074403104 -0.0074402988 0.64842916
-0.0075525399 -0.0090630352 0.65113854
-0.0076682065 -0.010735482 0.65393102
-0.0077874972 -0.012459993 0.65681094
-0.0079105319 -0.014238924 0.65978122
-0.0080375159 -0.016075015 0.66284692
-0.0081686722 -0.017971039 0.6660133
-0.0083041498 -0.019929945 0.66928399
-0.0084441975 -0.021954894 0.67266512
-0.0085890815 -0.024049401 0.67616284
-0.0087389918 -0.026216954 0.67978203
-0.0088942274 -0.028461516 0.68352973
-0.0090551125 -0.030787379 0.68741387
-0.00922189 -0.033198774 0.69144022
-0.0093949251 -0.035700738 0.69561774
-0.0095746173 -0.038298458 0.69995582
-0.0097612776 -0.040997356 0.70446217
-0.0099554015 -0.043803751 0.70914876
-0.01015736 -0.046723813 0.71402442
-0.010367682 -0.049764872 0.71910208
-0.010586945 -0.052934736 0.72439557
-0.010815634 -0.056241274 0.72991663
-0.011054422 -0.059693843 0.73568153
-0.011304045 -0.063302666 0.74170792
-0.0066222334 0.067877918 0.66864771
-0.0065801619 0.06580165 0.66737807
-0.0065386449 0.063751787 0.66612518
-0.0064976476 0.061727643 0.66488796
-0.0064571621 0.059728742 0.66366625
-0.0064171776 0.057754606 0.66245955
-0.0063776635 0.055804551 0.66126716
-0.0063386541 0.053878516 0.66008991
-0.0063001192 0.051975995 0.65892708
-0.00626205 0.050096422 0.65777814
-0.0062244385 0.04823938 0.65664315
-0.0061872555 0.046404421 0.65552104
-0.0061505344 0.044591397 0.65441287
-0.0061142463 0.042799711 0.65331781
-0.0060783839 0.041029096 0.65223557
-0.0060429401 0.039279073 0.65116596
-0.0060079065 0.037549406 0.65010875
-0.0059732585 0.035839558 0.64906311
-0.0059390264 0.034149408 0.64803004
-0.005905184 0.032478511 0.64700884
-0.0058717257 0.030826569 0.64599907
-0.0058386447 0.029193193 0.64500082
-0.0058059157 0.027578086 0.64401311
-0.005773569 0.025981098 0.64303696
-0.0057415818 0.024401724 0.64207166
-0.0057099466 0.022839785 0.64111704
-0.0056786579 0.021294981 0.64017278
-0.0056476933 0.019766927 0.6392383
-0.0056170817 0.018255532 0.63831455
-0.0055867997 0.016760409 0.63740075
-0.0055568428 0.01528129 0.63649666
-0.0055272058 0.013818026 0.63560224
-0.0054978668 0.012370199 0.63471693
-0.0054688533 0.010937721 0.6338414
-0.0054401448 0.0095202625 0.63297498
-0.0054117357 0.0081176162 0.63211769
-0.0053836061 0.0067294836 0.63126886
-0.0053557837 0.0053557456 0.63042921
-0.0053282464 0.0039961934 0.62959814
-0.0053983354 0.0026991665 0.63171327
-0.0054720826 0.0013680458 0.63393885
-0.0055478727 2.9802322e-08 0.63622594
-0.0056257918 -0.0014064312 0.6385774
-0.0057059475 -0.0028529763 0.64099634
-0.0057884031 -0.0043412745 0.64348459
-0.0058732764 -0.0058732629 0.64604592
-0.0059606945 -0.0074508488 0.64868397
-0.0060507352 -0.0090760887 0.65140116
-0.0061435378 -0.010751188 0.65420175
-0.0062392512 -0.012478501 0.65709019
-0.0063379738 -0.014260441 0.66006935
-0.0064398702 -0.016099662 0.66314441
-0.0065451199 -0.017999113 0.66632062
-0.0066538434 -0.019961506 0.66960156
-0.0067662392 -0.02199024 0.67299342
-0.0068824985 -0.02408877 0.67650187
-0.0070028482 -0.026260704 0.68013376
-0.007127455 -0.028509825 0.68389416
-0.0072566043 -0.030840546 0.68779153
-0.0073904921 -0.033257157 0.69183195
-0.0075294124 -0.035764724 0.69602424
-0.0076736868 -0.038368434 0.70037806
-0.007823566 -0.04107374 0.7049011
-0.0079794163 -0.043886781 0.70960432
-0.0081416387 -0.046814382 0.71449977
-0.0083105555 -0.049863279 0.71959728
-0.0084866686 -0.053041697 0.72491205
-0.0086703682 -0.056357384 0.73045564
-0.0088621955 -0.059819818 0.7362445
-0.0090627465 -0.06343925 0.7422967
-0.0049748491 0.067989618 0.6689766
-0.0049432092 0.065909475 0.66770351
-0.0049119694 0.063855588 0.66644651
-0.0048811217 0.0618276 0.6652053
-0.0048506428 0.059824586 0.66397893
-0.0048205582 0.057846725 0.66276836
-0.0047908444 0.055893213 0.66157281
-0.0047614952 0.053963602 0.66039187
-0.0047325031 0.052057534 0.65922534
-0.0047038463 0.050174356 0.65807223
-0.0046755499 0.048314035 0.65693372
-0.0046475916 0.046475887 0.65580881
-0.0046199658 0.044659674 0.65469718
-0.0045926669 0.042864859 0.65359879
-0.0045656734 0.041091084 0.65251261
-0.0045390106 0.039338082 0.65143979
-0.0045126565 0.037605494 0.65037942
-0.0044866074 0.035892874 0.64933127
-0.0044608572 0.034199923 0.64829516
-0.004435387 0.032526195 0.64727032
-0.0044102194 0.030871511 0.64625764
-0.0043853363 0.029235572 0.6452564
-0.0043607317 0.027617991 0.64426643
-0.0043364023 0.026018411 0.64328748
-0.0043123295 0.024436533 0.6423189
-0.0042885356 0.02287218 0.64136147
-0.0042650024 0.021324992 0.6404146
-0.0042417268 0.019794732 0.63947809
-0.0042187036 0.018281043 0.63855165
-0.0041959165 0.016783655 0.63763475
-0.0041733864 0.01530242 0.63672823
-0.0041510966 0.01383701 0.63583136
-0.0041290442 0.012387127 0.63494408
-0.0041072248 0.010952622 0.6340661
-0.0040856232 0.0095331371 0.63319689
-0.0040642587 0.0081285536 0.63233721
-0.0040431172 0.0067385435 0.63148659
-0.0040221941 0.0053629279 0.63064468
-0.0040014866 0.0040014982 0.62981147
-0.0040539503 0.0027026236 0.63192248
-0.0041094157 0.0013698041 0.6341542
-0.0041664075 -0 0.63644737
-0.0042250021 -0.0014083385 0.63880509
-0.004285282 -0.0028568506 0.64123058
-0.0043472927 -0.0043472648 0.64372569
-0.0044111251 -0.0058814883 0.64629406
-0.0044768741 -0.0074614286 0.64893961
-0.0045445976 -0.0090892017 0.65166461
-0.0046144021 -0.010766953 0.6544733
-0.004686384 -0.012497008 0.65736967
-0.0047606635 -0.014281958 0.66035843
-0.0048373193 -0.016124368 0.66344285
-0.0049164835 -0.018027097 0.66662812
-0.0049982998 -0.019993186 0.66992021
-0.0050828671 -0.022025734 0.67332292
-0.0051703453 -0.024128258 0.67684281
-0.0052609066 -0.026304543 0.68048668
-0.0053546773 -0.028558284 0.68425971
-0.0054518506 -0.030893832 0.6881696
-0.0055526383 -0.033315837 0.6922251
-0.0056571998 -0.035828918 0.69643229
-0.0057657752 -0.038438529 0.70080101
-0.0058786236 -0.041150391 0.7053417
-0.005995953 -0.043970317 0.71006268
-0.0061180866 -0.046905309 0.71497691
-0.0062452727 -0.049962193 0.72009444
-0.0063778586 -0.053148806 0.7254293
-0.0065162261 -0.056473911 0.73099679
-0.0066606994 -0.059946269 0.73680991
-0.006811724 -0.063576072 0.74288666
-0.0033220453 0.068101943 0.66930729
-0.0033008826 0.066017687 0.66802996
-0.0032799761 0.063959539 0.66676819
-0.0032593445 0.061927557 0.66552293
-0.0032389704 0.059920967 0.66429329
-0.0032188497 0.057939291 0.6630789
-0.0031989776 0.055982143 0.66187948
-0.0031793383 0.054048777 0.66069418
-0.0031599491 0.052139133 0.6595239
-0.0031407953 0.050252706 0.65836787
-0.0031218722 0.048389047 0.65722579
-0.0031031757 0.046547651 0.65609729
-0.0030846919 0.044728041 0.65498173
-0.0030664369 0.042930126 0.65387994
-0.0030483967 0.041153342 0.65279114
-0.0030305672 0.039397389 0.65171498
-0.0030129454 0.037661791 0.65065145
-0.0029955176 0.03594622 0.64959961
-0.0029782997 0.034250468 0.64856046
-0.0029612789 0.032574028 0.64753312
-0.0029444513 0.03091675 0.64651752
-0.0029278139 0.029278159 0.6455133
-0.0029113546 0.027657866 0.64451993
-0.0028950882 0.026055813 0.64353812
-0.0028790024 0.024471551 0.64256728
-0.0028630944 0.022904783 0.64160717
-0.0028473611 0.021355212 0.6406576
-0.0028317915 0.019822568 0.63971788
-0.0028163998 0.018306613 0.63878888
-0.0028011743 0.01680702 0.63786995
-0.0027861125 0.015323609 0.63696086
-0.0027712116 0.013856053 0.63606155
-0.0027564615 0.012404084 0.63517129
-0.0027418756 0.010967493 0.63429093
-0.0027274431 0.0095460415 0.63341987
-0.0027131618 0.0081395209 0.63255787
-0.0026990292 0.0067476034 0.63170493
-0.0026850353 0.0053700507 0.63086033
-0.0026711936 0.0040068328 0.63002491
-0.0027061156 0.0027061105 0.63213265
-0.0027431888 0.0013715625 0.63437021
-0.0027812833 -0 0.6366694
-0.0028204506 -0.0014102161 0.63903338
-0.0028607459 -0.0028607547 0.64146543
-0.0029022 -0.0043532848 0.64396739
-0.0029448734 -0.0058897436 0.64654297
-0.0029888204 -0.0074720383 0.64919543
-0.0030341088 -0.0091023445 0.65192878
-0.0030807804 -0.010782719 0.6547457
-0.0031289104 -0.012515634 0.65765053
-0.0031785788 -0.014303565 0.66064835
-0.0032298388 -0.016149223 0.66374218
-0.0032827789 -0.01805526 0.66693735
-0.0033374953 -0.020024955 0.67023975
-0.0033940542 -0.022061348 0.67365342
-0.0034525632 -0.024167925 0.67718476
-0.003513138 -0.026348531 0.68084073
-0.0035758624 -0.028606921 0.68462658
-0.0036408678 -0.030947387 0.68854994
-0.0037082948 -0.033374667 0.6926195
-0.0037782514 -0.035893381 0.69684172
-0.0038508978 -0.038508952 0.70122641
-0.0039264089 -0.041227311 0.70578384
-0.0040049241 -0.04405418 0.71052271
-0.004086643 -0.046996415 0.71545482
-0.004171785 -0.050061405 0.72059357
-0.0042605307 -0.053256631 0.72594994
-0.0043531549 -0.056590974 0.7315402
-0.0044498742 -0.060073256 0.73737776
-0.0045509893 -0.063713819 0.74348062
-0.0016637653 0.068214417 0.66963834
-0.0016531491 0.066125989 0.6683569
-0.0016426673 0.064064026 0.66709161
-0.0016323179 0.06202811 0.66584229
-0.0016220924 0.060017437 0.664608
-0.0016119997 0.058031976 0.66338968
-0.0016020318 0.056071162 0.66218644
-0.0015921865 0.054134339 0.66099799
-0.0015824614 0.052221239 0.65982407
-0.0015728542 0.050331354 0.65866441
-0.001563358 0.04846409 0.65751815
-0.0015539808 0.046619445 0.65638614
-0.0015447155 0.044796765 0.65526778
-0.00153556 0.042995691 0.65416265
-0.0015265123 0.041215867 0.65307045
-0.0015175659 0.039456725 0.65199053
-0.0015087284 0.037718236 0.65092373
-0.0014999933 0.035999835 0.64986938
-0.0014913589 0.034301251 0.64882708
-0.001482823 0.032622099 0.64779675
-0.0014743799 0.03096199 0.64677751
-0.001466037 0.029320747 0.64577043
-0.0014577878 0.02769798 0.64477468
-0.0014496311 0.026093394 0.64379007
-0.0014415651 0.024506629 0.64281642
-0.0014335839 0.022937357 0.64185297
-0.001425695 0.021385461 0.64090073
-0.0014178925 0.019850522 0.63995886
-0.0014101748 0.018332303 0.63902724
-0.0014025365 0.016830444 0.63810527
-0.0013949848 0.015344828 0.63719368
-0.0013875139 0.013875157 0.63629186
-0.0013801225 0.012421101 0.6353997
-0.0013728095 0.010982484 0.63451689
-0.0013655698 0.0095589757 0.63364297
-0.0013584098 0.0081504583 0.6327787
-0.0013513245 0.0067566633 0.63192338
-0.0013443126 0.0053772628 0.63107705
-0.0013373733 0.0040121377 0.63023937
-0.0013548036 0.0027095973 0.63234335
-0.001373384 0.0013734102 0.63458622
-0.0013924857 -0 0.63689202
-0.0014121217 -0.0014121234 0.63926232
-0.0014323195 -0.002864629 0.64170039
-0.0014531079 -0.0043593049 0.64420974
-0.0014745042 -0.0058979988 0.64679253
-0.0014965399 -0.0074827075 0.64945245
-0.0015192491 -0.0091154873 0.65219367
-0.0015426531 -0.010798573 0.65501881
-0.0015667895 -0.01253432 0.65793234
-0.0015916984 -0.014325261 0.6609391
-0.0016174066 -0.016174048 0.66404241
-0.001643959 -0.018083543 0.66724753
-0.0016714035 -0.020056844 0.67056036
-0.0016997739 -0.022097051 0.673985
-0.001729124 -0.024207741 0.67752784
-0.0017595056 -0.026392579 0.6811952
-0.0017909806 -0.028655678 0.68499458
-0.0018235951 -0.031001121 0.68893158
-0.0018574197 -0.033433527 0.6930145
-0.0018925301 -0.035958081 0.69725275
-0.0019289857 -0.038579732 0.70165336
-0.0019668816 -0.041304499 0.70622766
-0.0020062877 -0.044138342 0.71098453
-0.0020473052 -0.047088027 0.71593571
-0.0020900441 -0.050161034 0.72109473
-0.0021345955 -0.053364873 0.72647256
-0.0021810879 -0.056708306 0.73208475
-0.0022296612 -0.06020087 0.73794806
-0.002280436 -0.063852191 0.74407709
0 0.066234887 0.66868556
0 0.064168662 0.66741538
0 0.062128752 0.66616201
0 0.060114413 0.66492438
0 0.058125198 0.66370213
0 0.056160629 0.66249514
0 0.054220021 0.66130221
0 0.052303374 0.66012454
0 0.050410062 0.65896124
0 0.048539579 0.65781206
0 0.046691597 0.65667653
0 0.044865549 0.65555406
0 0.043061316 0.65444553
0 0.041278362 0.65335006
0 0.039516389 0.6522674
0 0.03777495 0.65119743
0 0.036053538 0.65013933
0 0.034352094 0.64909387
0 0.03267023 0.6480605
0 0.031007469 0.64703888
0 0.029363573 0.64602888
0 0.027738094 0.64502966
0 0.026130974 0.64404219
0 0.024541706 0.64306575
0 0.02297011 0.6421001
0 0.02141583 0.64114511
0 0.019878477 0.64020008
0 0.018357962 0.63926584
0 0.016853929 0.63834178
0 0.015366137 0.63742763
0 0.01389432 0.63652331
0 0.012438148 0.63562816
0 0.010997474 0.63474298
0 0.0095719993 0.63386714
0 0.0081614852 0.63300049
0 0.0067657232 0.63214296
0 0.0053844452 0.63129377
0 0.0040174723 0.63045394
0 0.002713114 0.63255465
0 0.0013751984 0.63480335
0 -0 0.63711518
0 -0.001414001 0.6394918
0 -0.0028685331 0.64193654
0 -0.0043653846 0.64445281
0 -0.0059062839 0.64704275
0 -0.0074933767 0.6497103
0 -0.00912866 0.65245938
0 -0.010814458 0.65529275
0 -0.012553036 0.65821493
0 -0.014346957 0.66123009
0 -0.016198993 0.66434354
0 -0.018111914 0.66755867
0 -0.020088732 0.67088127
0 -0.022132874 0.67431766
0 -0.024247646 0.67787212
0 -0.026436865 0.68155169
0 -0.028704673 0.68536389
0 -0.031055033 0.68931448
0 -0.033492774 0.69341177
0 -0.036022991 0.69766515
0 -0.038650721 0.7020818
0 -0.041381866 0.70667231
0 -0.044222832 0.71144807
0 -0.047180027 0.71641845
0 -0.05026108 0.72159791
0 -0.053473592 0.72699744
0 -0.056826323 0.7326327
0 -0.060328931 0.73852068
0 -0.063991159 0.74467617
0.0016585974 0.066343933 0.66901451
0.0016480468 0.064273804 0.66774094
0.0016376295 0.062229931 0.66648352
0.0016273375 0.060211509 0.66524112
0.0016171796 0.058218509 0.664015
0.0016071479 0.056250155 0.66280407
0.0015972398 0.054306179 0.66160798
0.0015874528 0.052385926 0.66042668
0.0015777854 0.050489157 0.65925968
0.0015682298 0.048615128 0.65810621
0.0015587942 0.046763837 0.65696722
0.0015494715 0.04493469 0.65584189
0.0015402597 0.043127298 0.6547299
0.0015311567 0.041341245 0.65363109
0.0015221559 0.039576024 0.65254462
0.001513265 0.037831604 0.65147144
0.0015044775 0.03610751 0.65041059
0.0014957915 0.034403175 0.64936215
0.001487205 0.032718539 0.64832562
0.0014787121 0.031052977 0.64730048
0.0014703202 0.029406399 0.64628744
0.0014620229 0.027778447 0.6452859
0.0014538188 0.026168734 0.64429557
0.0014457062 0.024576992 0.64331633
0.0014376793 0.023002863 0.64234734
0.0014297453 0.021446198 0.64138967
0.0014218986 0.01990658 0.64044249
0.0014141373 0.018383801 0.63950562
0.0014064562 0.016877472 0.63857841
0.0013988623 0.015387475 0.63766176
0.0013913499 0.013913512 0.63675493
0.0013839178 0.012455285 0.63585776
0.0013765646 0.011012524 0.63497019
0.0013692852 0.0095849931 0.63409144
0.0013620863 0.0081724823 0.63322246
0.0013549627 0.0067748129 0.6323626
0.0013479133 0.0053916574 0.63151169
0.0013409369 0.0040228069 0.63066947
0.0013583082 0.0027166307 0.63276643
0.0013769858 0.0013769865 0.63502097
0.0013961884 2.9802322e-08 0.63733894
0.0014159298 -0.0014159083 0.63972193
0.0014362375 -0.002872467 0.64217329
0.001457136 -0.0043714046 0.644696
0.0014786567 -0.0059145987 0.64729381
0.0015008175 -0.0075040758 0.6499688
0.0015236527 -0.009141922 0.65272528
0.0015471987 -0.010830402 0.65556753
0.0015714787 -0.012571841 0.65849841
0.0015965328 -0.014368773 0.66152263
0.0016224042 -0.016224056 0.66464567
0.0016491223 -0.018140346 0.66787076
0.0016767351 -0.020120829 0.67120397
0.0017052944 -0.022168815 0.67465138
0.0017348372 -0.02428773 0.67821753
0.0017654216 -0.026481301 0.68190932
0.0017971036 -0.028753638 0.68573374
0.0018299506 -0.031109184 0.6896987
0.0018640136 -0.0335522 0.69381046
0.0018993763 -0.036088139 0.69807911
0.0019360986 -0.038721979 0.70251191
0.001974269 -0.04145962 0.70711946
0.0020139832 -0.044307619 0.71191341
0.002055319 -0.047272295 0.71690309
0.0020983873 -0.050361305 0.72210193
0.002143309 -0.053582728 0.7275244
0.0021901857 -0.056944847 0.73318297
0.0022391588 -0.060457319 0.73909456
0.0022903834 -0.064130694 0.74527782
0.0033226761 0.066453516 0.66934532
0.0033014938 0.064379126 0.66806686
0.003280591 0.062331259 0.66680527
0.0032599515 0.060309082 0.66555959
0.00323957 0.058312237 0.66432947
0.003219442 0.056340247 0.66311461
0.0031995513 0.054392368 0.66191411
0.0031799157 0.052468598 0.66072905
0.0031605198 0.050568312 0.65955836
0.003141359 0.048691064 0.65840191
0.0031224294 0.046836466 0.65725935
0.0031037158 0.045003891 0.65612996
0.0030852356 0.04319334 0.65501451
0.003066974 0.041404128 0.65391237
0.0030489275 0.039636105 0.65282321
0.003031092 0.037888676 0.65174675
0.0030134546 0.036161482 0.65068221
0.0029960307 0.034454346 0.64963055
0.0029788068 0.032766879 0.64859104
0.0029617799 0.031098694 0.64756334
0.0029449468 0.029449463 0.64654738
0.0029282949 0.027818799 0.64554238
0.0029118389 0.026206583 0.64454913
0.0028955671 0.024612308 0.64356709
0.0028794759 0.023035824 0.64259589
0.0028635629 0.021476746 0.64163542
0.0028478159 0.019934714 0.64068502
0.00283225 0.01840964 0.63974547
0.0028168529 0.016901135 0.63881624
0.0028016227 0.015408933 0.63789701
0.0027865558 0.013932794 0.63698763
0.0027716425 0.012472391 0.63608754
0.002756896 0.011027575 0.63519752
0.0027423049 0.0095981061 0.63431686
0.0027278683 0.0081836283 0.6334455
0.0027135822 0.0067839921 0.63258326
0.0026994376 0.0053988993 0.6317296
0.0026854475 0.0040281713 0.63088524
0.0027201348 0.0027201176 0.6329788
0.0027575875 0.0013788044 0.63523924
0.0027960858 2.9802322e-08 0.63756281
0.0028356828 -0.0014178753 0.63995272
0.0028764089 -0.0028764307 0.64241076
0.0029183216 -0.0043774843 0.64494044
0.0029614833 -0.0059229732 0.64754546
0.0030059309 -0.0075148344 0.65022814
0.0030517334 -0.0091552138 0.65299255
0.0030989633 -0.010846376 0.65584314
0.0031476675 -0.012590677 0.65878266
0.0031979275 -0.014390677 0.66181612
0.003249818 -0.016249061 0.66494799
0.0033034324 -0.018168837 0.66818386
0.003358833 -0.020152986 0.67152762
0.0034161238 -0.022204816 0.67498541
0.0034754158 -0.024327904 0.67856395
0.0035367887 -0.026525915 0.68226826
0.0036003685 -0.028802961 0.68610561
0.0036662903 -0.031163484 0.69008434
0.0037346561 -0.033611894 0.69421059
0.0038056204 -0.036153376 0.6984936
0.0038793492 -0.038793474 0.70294356
0.0039559752 -0.041537762 0.70756835
0.0040356889 -0.044392556 0.71237946
0.0041186996 -0.04736504 0.7173897
0.0042051775 -0.050462127 0.72260904
0.004295385 -0.053692311 0.72805345
0.0043895263 -0.057063848 0.73373544
0.0044878875 -0.060586452 0.73967206
0.0045907795 -0.064270914 0.74588221
0.0049922452 0.066563278 0.6696766
0.0049603842 0.064484984 0.66839457
0.0049289279 0.062433094 0.66712886
0.0048978506 0.060406834 0.66587842
0.0048671793 0.058406144 0.6646443
0.0048368899 0.056430399 0.66342556
0.0048069754 0.054479092 0.66222185
0.0047774282 0.052551687 0.66103297
0.0047482424 0.050647944 0.65985864
0.0047193952 0.04876712 0.6586979
0.0046909121 0.046909124 0.65755188
0.0046627703 0.04507345 0.65641952
0.0046349647 0.04325968 0.65530068
0.0046074884 0.041467398 0.65419513
0.0045803213 0.039696127 0.65310204
0.0045534875 0.037945688 0.65202236
0.0045269658 0.036215752 0.6509552
0.0045007514 0.034505755 0.64990038
0.0044748392 0.032815456 0.64885777
0.0044492092 0.03114447 0.64782643
0.0044238851 0.029492557 0.64680755
0.0043988479 0.02785936 0.64580011
0.0043740924 0.026244581 0.644804
0.0043496136 0.024647802 0.64381903
0.0043253945 0.023068786 0.64284456
0.0043014567 0.021507293 0.64188141
0.004277782 0.019962966 0.64092875
0.0042543667 0.018435597 0.63998663
0.0042311936 0.016924769 0.63905418
0.0042082844 0.015430361 0.63813245
0.0041856216 0.013952047 0.63722056
0.0041632019 0.012489587 0.63631845
0.0041410206 0.011042744 0.63542593
0.0041190628 0.0096111596 0.63454241
0.0040973485 0.0081947148 0.63366866
0.004075862 0.0067931414 0.63280416
0.0040545994 0.0054061115 0.63194859
0.0040335576 0.0040335655 0.63110197
0.0040854937 0.002723664 0.6331917
0.0041418192 0.0013806224 0.63545805
0.00419972 -0 0.63778782
0.0042592753 -0.0014197826 0.6401841
0.0043205302 -0.0028803349 0.64264882
0.0043835733 -0.004383564 0.64518547
0.0044484832 -0.005931288 0.64779723
0.0045153587 -0.0075256228 0.65048814
0.0045842608 -0.0091685355 0.65326053
0.0046552988 -0.01086235 0.65611887
0.0047285883 -0.012609571 0.65906781
0.0048042061 -0.014412612 0.66211045
0.0048822816 -0.016274273 0.66525197
0.0049629542 -0.018197507 0.66849804
0.0050463197 -0.020185262 0.67185235
0.0051325336 -0.022240967 0.67532134
0.0052217641 -0.024368197 0.67891169
0.0053141322 -0.026570618 0.68262827
0.005409827 -0.028852403 0.68647867
0.005509052 -0.031217963 0.69047129
0.0056119631 -0.033671767 0.69461209
0.0057187928 -0.036219031 0.69891059
0.0058297925 -0.038865268 0.70337683
0.005945161 -0.041616142 0.7080189
0.0060651875 -0.044478059 0.71284842
0.0061901882 -0.047458142 0.7178781
0.0063204211 -0.050563365 0.72311819
0.0064562522 -0.053802073 0.72858363
0.0065980796 -0.057183355 0.73429036
0.0067462469 -0.060716182 0.74025208
0.0069012544 -0.06441173 0.74648917
0.0066673616 0.066673636 0.67000955
0.0066247173 0.06459102 0.66872263
0.0065826369 0.062535048 0.66745281
0.0065410882 0.060505033 0.66619891
0.0065000611 0.058500558 0.66496074
0.0064595453 0.056520998 0.66373813
0.0064195092 0.054565817 0.66252995
0.006379988 0.052634925 0.66133726
0.0063409503 0.050727606 0.66015923
0.0063023879 0.048843533 0.65899551
0.0062642912 0.046982199 0.65784585
0.0062266323 0.045143098 0.65670937
0.0061894436 0.04332611 0.65558708
0.0061526964 0.041530728 0.65447819
0.0061163832 0.039756447 0.6533823
0.0060804952 0.038003087 0.65229928
0.0060450076 0.036270052 0.65122837
0.0060099508 0.034557194 0.65017045
0.0059752977 0.032864153 0.64912468
0.0059410422 0.031190515 0.6480909
0.005907177 0.029535919 0.64706898
0.0058736778 0.027899981 0.64605802
0.0058405749 0.026282579 0.64505905
0.0058078421 0.024683326 0.64407122
0.0057754749 0.023101896 0.64309448
0.0057434659 0.021537989 0.64212859
0.005711793 0.019991279 0.64117271
0.0056804838 0.018461615 0.64022791
0.0056495168 0.016948551 0.63929337
0.0056188852 0.015451938 0.63836902
0.0055885836 0.013971418 0.63745457
0.0055585913 0.012506813 0.63654947
0.0055289352 0.011057884 0.63565451
0.0054995939 0.0096243322 0.63476902
0.0054705627 0.0082058609 0.63389289
0.0054418356 0.0068023205 0.63302606
0.005413394 0.005413413 0.63216776
0.0053852629 0.0040389597 0.63131881
0.0054543824 0.0027272105 0.63340467
0.0055296957 0.0013824403 0.6356774
0.0056071016 -0 0.63801336
0.0056867045 -0.0014216602 0.64041555
0.0057686181 -0.0028842986 0.64288759
0.0058529084 -0.0043896735 0.64543122
0.0059396983 -0.0059397221 0.64805043
0.0060291202 -0.0075363815 0.65074891
0.006121255 -0.0091818571 0.65352935
0.0062162504 -0.010878444 0.65639603
0.0063142618 -0.012628496 0.65935385
0.0064153909 -0.014434606 0.66240567
0.0065198131 -0.016299576 0.66555691
0.00662769 -0.018226147 0.66881239
0.0067392215 -0.020217627 0.67217815
0.0068545458 -0.022277296 0.67565835
0.0069738855 -0.024408579 0.67925972
0.0070974817 -0.02661556 0.6829896
0.0072255093 -0.028902054 0.68685317
0.0073582414 -0.031272531 0.69085872
0.0074959705 -0.033731848 0.69501507
0.0076389234 -0.036284894 0.69932908
0.0077874344 -0.038937151 0.70381075
0.0079418682 -0.04169479 0.70847112
0.0081025166 -0.04456383 0.71331918
0.0082698334 -0.047551543 0.71836847
0.0084441695 -0.050665051 0.72362947
0.0086260131 -0.05391258 0.72911704
0.0088159032 -0.057303369 0.73484749
0.0090142982 -0.060846508 0.74083471
0.0092218285 -0.064552784 0.74709743
0.0083480123 0.066784084 0.67034298
0.0082945591 0.064697564 0.66905254
0.0082417866 0.062637568 0.66777843
0.0081896521 0.06060341 0.66651982
0.0081382012 0.058595061 0.66527772
0.0080873929 0.056611747 0.66405106
0.0080372151 0.054653049 0.66283965
0.0079876557 0.05271852 0.66164321
0.0079387045 0.050807714 0.66046143
0.0078903232 0.048920035 0.65929329
0.0078425538 0.047055304 0.65814006
0.007795359 0.045213103 0.65700072
0.0077487291 0.043392897 0.65587497
0.0077026542 0.041594326 0.65476269
0.0076570986 0.039816916 0.6536628
0.0076121036 0.038060516 0.65257657
0.0075676339 0.03632465 0.65150297
0.007523681 0.03460893 0.65044188
0.0074802358 0.032913029 0.64939296
0.0074372655 0.0312365 0.6483556
0.0073948097 0.029579252 0.64733064
0.007352836 0.02794078 0.64631724
0.0073113358 0.026320815 0.64531541
0.0072703022 0.02471903 0.64432472
0.0072297035 0.023135066 0.64334464
0.0071895779 0.021568716 0.64237589
0.0071498952 0.02001971 0.64141786
0.0071106483 0.018487692 0.64047033
0.0070718089 0.016972333 0.63953269
0.0070334119 0.015473515 0.63860571
0.0069954298 0.013990879 0.6376887
0.006957856 0.012524158 0.63678163
0.0069206832 0.011073112 0.63588417
0.0068838862 0.0096374452 0.63499582
0.0068474975 0.0082170069 0.63411731
0.0068114917 0.0068114996 0.63324809
0.006775863 0.0054206848 0.63238788
0.0067406045 0.0040443838 0.63153672
0.0068268422 0.0027307272 0.63361865
0.0069212303 0.0013842583 0.6358974
0.0070182448 -0 0.6382395
0.0071180169 -0.0014235973 0.64064825
0.0072206892 -0.0028882623 0.64312696
0.007326344 -0.0043958127 0.64567775
0.007435136 -0.0059480965 0.64830416
0.0075472081 -0.0075472295 0.65100986
0.0076627354 -0.009195298 0.65379894
0.0077818292 -0.010894567 0.65667409
0.0079046832 -0.01264748 0.65964001
0.0080315052 -0.014456689 0.66270179
0.0081624351 -0.016324848 0.66586274
0.0082977051 -0.018254936 0.66912842
0.0084375637 -0.020250142 0.67250496
0.0085821869 -0.022313684 0.67599642
0.0087318541 -0.024449199 0.67960972
0.0088868672 -0.026660591 0.68335211
0.0090474496 -0.028951824 0.68722892
0.0092139421 -0.031327397 0.69124836
0.0093867145 -0.033792168 0.69541943
0.009566051 -0.036350965 0.69974905
0.0097523732 -0.039009511 0.70424724
0.0099461395 -0.041773766 0.70892519
0.010147719 -0.044649959 0.71379173
0.010357638 -0.047645181 0.71885967
0.010576473 -0.050767034 0.72414273
0.010804705 -0.054023534 0.72965276
0.011043005 -0.057423592 0.7354058
0.011292106 -0.06097734 0.74141967
0.011552648 -0.064694792 0.74770969
0.010034277 0.066895187 0.67067814
0.0099699199 0.064804494 0.66938347
0.0099063488 0.062740237 0.66810447
0.0098436186 0.060702294 0.66684246
0.0097816763 0.058690041 0.66559631
0.0097205089 0.056702942 0.66436565
0.0096600689 0.054740369 0.66314971
0.0096004084 0.052802235 0.6619494
0.0095414808 0.050887913 0.66076392
0.0094832713 0.048996925 0.65959281
0.0094257686 0.047128856 0.65843594
0.0093689281 0.045283139 0.65729243
0.0093127992 0.043459713 0.65616316
0.0092573389 0.041658044 0.65504742
0.0092025353 0.039877653 0.65394485
0.009148377 0.038118243 0.65285522
0.0090948511 0.036379427 0.6517784
0.0090419203 0.034660727 0.6507135
0.0089896303 0.032961965 0.64966154
0.0089379419 0.031282812 0.64862162
0.0088868439 0.029622823 0.64759362
0.0088363271 0.027981699 0.6465773
0.0087863542 0.026359081 0.64557189
0.0087369708 0.024754763 0.6445784
0.0086881379 0.023168355 0.64359599
0.0086398488 0.021599621 0.6426245
0.0085920682 0.020048171 0.64166319
0.0085448381 0.018513799 0.64071298
0.0084981248 0.016996264 0.63977313
0.0084519191 0.015495181 0.63884366
0.0084062126 0.01401034 0.63792408
0.0083609745 0.012541473 0.63701391
0.008316244 0.011088312 0.636114
0.0082719903 0.0096506774 0.63522375
0.0082282042 0.0082281828 0.63434285
0.00818488 0.0068207681 0.63347119
0.0081419861 0.0054279864 0.63260823
0.0080995625 0.0040498078 0.63175476
0.008202876 0.0027343035 0.63383323
0.0083164386 0.0013860762 0.63611794
0.008433166 -0 0.63846636
0.0085532153 -0.0014255345 0.64088154
0.0086767329 -0.002892226 0.64336646
0.0088038966 -0.004401952 0.64592487
0.0089348154 -0.0059565306 0.64855874
0.0090696868 -0.0075580776 0.65127212
0.009208722 -0.0092087388 0.6540693
0.0093520554 -0.01091069 0.65695292
0.0094999215 -0.012666553 0.65992779
0.0096525708 -0.014478862 0.66299886
0.009810173 -0.016350269 0.66616952
0.0099730063 -0.018283844 0.66944551
0.010141373 -0.020282745 0.67283279
0.010315484 -0.022350222 0.67633569
0.010495679 -0.024489909 0.67996091
0.010682321 -0.026705831 0.68371582
0.01087568 -0.029001802 0.68760586
0.011076167 -0.031382471 0.69163942
0.011284185 -0.033852547 0.69582438
0.011500212 -0.036417305 0.70017052
0.011724625 -0.03908208 0.70468533
0.011958019 -0.04185307 0.70938092
0.012200843 -0.044736415 0.71426612
0.012453733 -0.047739297 0.71935391
0.012717385 -0.050869524 0.72465813
0.012992381 -0.054134876 0.73019063
0.013279534 -0.057544649 0.7359677
0.013579732 -0.061108798 0.74200726
0.013893747 -0.064837486 0.74832475
0.011726119 0.067006409 0.67101383
0.011650788 0.064911515 0.66971475
0.011576417 0.062843442 0.6684323
0.011502991 0.060801536 0.66716611
0.011430451 0.0587852 0.66591519
0.011358857 0.056794286 0.6646806
0.011288156 0.054828197 0.66346145
0.011218329 0.052886426 0.66225725
0.011149362 0.050968528 0.66106796
0.0110812 0.049073845 0.65989256
0.011013902 0.047202438 0.65873206
0.010947417 0.045353621 0.65758556
0.01088173 0.043526947 0.65645278
0.010816827 0.041722059 0.65533364
0.010752658 0.03993845 0.65422708
0.010689281 0.038176 0.65313423
0.010626647 0.036434233 0.65205407
0.010564742 0.034712762 0.65098655
0.010503554 0.033011138 0.64993143
0.010443038 0.031329095 0.64888787
0.010383248 0.029666424 0.64785683
0.010324138 0.028022677 0.64683753
0.010265699 0.026397526 0.64582974
0.010207916 0.024790645 0.64483333
0.010150749 0.023201734 0.64384758
0.010094251 0.021630526 0.64287323
0.010038377 0.020076752 0.64190972
0.0099831186 0.018540084 0.64095682
0.0099284649 0.017020226 0.64001435
0.0098743774 0.015516877 0.63908166
0.0098209046 0.01402986 0.63815957
0.0097680083 0.012558877 0.63724732
