# .PCD v0.7 - Point Cloud Data file format
VERSION 0.7
FIELDS x y z
SIZE 4 4 4
TYPE F F F
COUNT 1 1 1
WIDTH 558
HEIGHT 1
VIEWPOINT 0 0 0 1 0 0 0
POINTS 558
DATA ascii
-0.028067874 0.025822461 0.6043278
-0.024947478 0.023813486 0.60568714
-0.02283217 0.015982509 0.60660845
-0.02283217 0.019407332 0.60660845
-0.023893371 0.030720055 0.60614628
-0.021763852 0.014891088 0.60707408
-0.017417274 0.011611521 0.60896754
-0.018515006 0.013886273 0.60848904
-0.018515052 0.040501684 0.60848939
-0.015199018 0.033905506 0.60993361
-0.016311955 0.038449615 0.60944891
-0.015199018 0.038582116 0.60993361
-0.01295 0.042381823 0.61091352
-0.010669535 0.013040543 0.61190712
-0.010669535 0.013040543 0.61190712
-0.011813725 0.016539216 0.61140841
-0.010669535 0.029637605 0.61190712
-0.0083569353 0.020295411 0.61291432
-0.0095172906 0.028551877 0.61240894
-0.0095172906 0.045207143 0.61240894
-0.0071883849 -0.0023961067 0.61342329
-0.0071883849 0.0023961365 0.61342329
-0.0060115661 0.0024046302 0.61393619
-0.0060115661 0.0072138906 0.61393619
-0.0071883849 0.0083864629 0.61342323
-0.0071883849 0.025159359 0.61342323
-0.0060115661 0.028855532 0.61393619
-0.0071883849 0.033545792 0.61342323
-0.0060115661 0.049294829 0.61393619
-0.0048263585 0.013272494 0.61445236
-0.0048263585 0.016892254 0.61445236
-0.0036326894 0.027850628 0.61497223
-0.0036326894 0.036326885 0.61497229
-0.0024304683 -0.0085066259 0.6154958
-0.0024304746 0.0036457479 0.61549622
-0.024364771 0.012182385 0.61585855
-0.0024304746 0.044963807 0.61549622
0 0.0085680783 0.6165548
-0.025628598 0.013424516 0.61612058
0 0.017136097 0.6165548
-0.0012196063 0.028050959 0.6160236
-0.0012196063 0.034148991 0.6160236
-0.0012196063 0.036588222 0.6160236
-0.0012196063 0.040247053 0.6160236
0 0.04039222 0.6165548
0.0024658137 -0 0.61762911
0.0024658137 0.019726485 0.61762917
0.0024658137 0.044384658 0.61762911
0.0024658137 0.044384658 0.61762911
0.0024658137 0.059179544 0.61762911
0.0037122117 0.0049495995 0.61817199
0.0049677361 0.0086935461 0.6187188
0.0049677361 0.018629044 0.6187188
0.0037122117 0.022273302 0.61817199
0.0049677361 0.031048357 0.6187188
0.0037122117 0.038359523 0.61817193
0.0049677361 0.04843542 0.6187188
0.0049677361 0.050919294 0.6187188
0.0049677361 0.050919294 0.6187188
0.0075065861 -0.023770809 0.61982495
0.0062324866 -0.013711452 0.61926967
0.0062324866 -0.003739506 0.61926967
0.0062325029 0.003739506 0.61927009
0.0075065861 0.042537332 0.61982495
0.0062325029 0.046120524 0.61927003
0.0062325029 0.054846048 0.61927009
0.010083154 -0.023947507 0.62094712
0.0087901009 -0.018835932 0.62038398
0.0087901009 -0.010045826 0.62038398
0.0087901009 -0.0012557209 0.62038398
0.0087901009 -0.0012557209 0.62038398
0.010083154 0.016385138 0.62094718
0.0087901009 0.021347404 0.62038398
0.010083154 0.022687078 0.62094718
0.0087901009 0.048973441 0.62038398
0.01008318 0.049155504 0.62094754
0.0087901009 0.057763517 0.62038398
0.0087901009 0.059019268 0.62038398
0.0087901009 0.059019268 0.62038398
0.01138588 -0.017711341 0.62151492
0.01138588 -0.017711341 0.62151492
-0.036733467 0.022800088 0.62170488
0.01138588 0.031627417 0.62151492
0.014020649 -0 0.62266243
0.014020649 -0 0.62266243
0.012698334 0.0025396645 0.62208652
0.012698334 0.011428505 0.62208652
0.014020649 0.02039367 0.62266248
0.014020649 0.025492102 0.62266248
0.014020649 0.049709558 0.62266248
0.014020649 0.049709558 0.62266248
0.012698334 0.054602832 0.62208652
0.014020649 0.061181009 0.62266243
0.014020649 0.061181009 0.62266243
0.01669536 -0.032106459 0.62382782
0.01669536 -0.017979592 0.62382782
0.015352978 -0.01023531 0.62324315
0.015352978 -0.01023531 0.62324315
0.015352978 -0.0038382411 0.62324321
0.015352978 -0.0038382411 0.62324321
0.015352978 0.0012794435 0.62324309
0.015352978 0.0038382411 0.62324315
0.01669536 0.035959244 0.62382782
0.01669536 0.046233326 0.62382782
0.01669536 0.053938866 0.62382782
0.01669536 0.053938866 0.62382782
0.018047942 0.010313094 0.62441689
0.018047942 0.011602223 0.62441695
0.018047942 0.018047959 0.62441689
0.018047942 0.028361022 0.62441695
0.018047942 0.045119822 0.62441689
0.020784238 -0.036372393 0.6256091
0.019410843 -0.020704895 0.62501049
-0.0038823811 -0.014235377 0.62501907
0.019410843 -0.0077643096 0.62501049
0.019410843 -0.0025881231 0.62501049
0.019410897 0.024587154 0.62501097
0.019410897 0.055644602 0.62501097
0.019410897 0.059526771 0.62501091
0.022168139 -0.039120257 0.62621188
0.02356272 -0.035344064 0.62681925
0.022168139 -0.031296194 0.62621182
0.022168139 -0.031296194 0.62621182
0.022168139 -0.014344096 0.62621182
-0.011780774 -0.0065448582 0.62681139
0.022168139 -0.0065200627 0.62621188
0.02356272 0.0091632903 0.62681925
0.022168139 0.011736065 0.62621188
0.022168139 0.014344096 0.62621188
0.022168139 0.014344096 0.62621188
0.022168139 0.050856292 0.62621182
0.024968108 -0.042051584 0.62743139
0.024968177 0.04467994 0.62743175
0.027811876 -0.031784981 0.62867033
0.027811876 -0.030460626 0.62867033
0.027811876 -0.019865602 0.62867033
0.026384497 0.0039576888 0.62804866
0.027811876 0.0039731264 0.62867033
0.027811876 0.021190017 0.62867033
0.027811876 0.030460656 0.62867033
0.026384497 0.048811346 0.62804866
0.030700417 -0.041378796 0.62992883
0.029250443 -0.039886951 0.6292969
0.029250443 -0.030580014 0.62929684
0.029250443 -0.026591301 0.6292969
0.030700417 -0.024026394 0.62992883
0.030700417 -0.024026394 0.62992883
0.030700417 -0.016017586 0.62992883
0.029250443 -0.0053182542 0.6292969
0.029250527 0.014625251 0.62929738
0.030700417 0.0146828 0.62992883
0.030700417 0.020022035 0.62992883
0.030700417 0.054726839 0.62992883
0.032161765 -0.044222429 0.63056529
0.032161765 0.008040458 0.63056529
0.032161765 0.042882383 0.63056529
0.033634704 -0.051124737 0.63120681
0.033634704 -0.033634722 0.63120687
0.035119373 -0.032417923 0.63185346
0.0026898345 -0.024208516 0.63114995
0.0026898345 -0.024208516 0.63114995
0.03511947 -0.018910468 0.63185394
0.03511947 -0.0094552338 0.63185394
0.03511947 -0 0.63185394
0.033634704 0.010763079 0.63120687
0.03511947 0.014858246 0.63185394
0.03511947 0.039171726 0.63185394
0.036616016 -0.061026722 0.63250577
0.036616016 -0.024410665 0.63250571
0.036616016 0.014917642 0.63250577
0.038124572 -0.053102061 0.63316274
0.039645284 -0.047847733 0.63382512
0.039645284 -0.038278192 0.63382512
0.038124572 -0.032678187 0.6331628
0.038124572 -0.027231842 0.6331628
0.038124572 -0.021785438 0.6331628
0.039645284 -0.0041012466 0.63382512
0.039645284 -0.0041012466 0.63382512
0.038124572 -0.0027231574 0.63316274
0.038124572 0.031316638 0.6331628
0.038124572 0.031316638 0.6331628
0.038124572 0.04901731 0.63316274
0.038124572 0.04901731 0.63316274
0.041178428 -0.046668857 0.63449335
0.041178428 -0.031570137 0.63449335
0.041178428 0.0013726056 0.63449335
0.041178428 0.0041178763 0.63449335
0.042723909 -0.063396767 0.63516641
0.042723909 -0.053749442 0.63516647
0.042723909 -0.050993025 0.63516641
0.019321434 -0.044163287 0.6353972
0.044281997 -0.042898148 0.63584507
0.044281997 -0.031827688 0.63584507
0.0027574829 -0.026196092 0.63523293
0.0013815226 -0.024867415 0.63556868
0.042723909 -0.0082691312 0.63516647
0.042723909 0.008269161 0.63516647
0.042723909 0.028941989 0.63516641
0.044281997 0.035979122 0.63584507
0.044281997 0.040130556 0.63584507
0.042723909 0.041345716 0.63516641
0.045852851 -0.038905442 0.63652921
0.045852985 -0 0.6365298
0.045852985 0.01528433 0.63652974
0.047436766 -0.047436774 0.63721955
0.047436766 -0.023718357 0.63721955
0.047436766 -0.022323191 0.63721955
0.047436766 -0.011161596 0.63721955
0.047436766 -0.0097663701 0.63721955
0.047436766 -0.0041855872 0.63721955
0.047436766 0.0041855872 0.63721955
0.047436766 0.020927995 0.63721955
0.047436766 0.020927995 0.63721955
0.0070280144 -0.032328874 0.63847542
0.050643735 -0.030948937 0.63861632
0.050643735 -0.018288016 0.63861632
0.05064388 0.016881317 0.63861686
0.052267402 -0.050854772 0.63932395
0.052267402 -0.042378992 0.63932395
0.052267402 -0.036728442 0.63932395
0.052267402 0.026840031 0.63932395
0 -0.02556321 0.64023507
0.055555344 -0.011395961 0.64075601
-0.018481901 -0.0056867003 0.64041662
0.055555344 0.0042735338 0.64075601
0.0539045 0.012766868 0.640037
0.057220284 -0.047206759 0.64148158
0.057220284 -0.031471163 0.64148164
0.057220284 -0.021457613 0.64148164
0.057220284 0.022888124 0.64148164
0.05889916 -0.054589465 0.64221287
0.060592316 -0.049050957 0.6429503
0.05889916 -0.041660398 0.64221287
0.060592316 -0.031738818 0.6429503
0.05889916 -0.025858164 0.64221281
0.060592316 -0.017312109 0.6429503
0.05889916 0.0028731227 0.64221281
0.05889916 0.017238796 0.64221287
0.062299926 -0.026079059 0.64369404
0.06230012 -0.0086930394 0.64369458
-0.031872623 0.0072437823 0.64368439
0.06230012 0.0086930394 0.64369458
0.06230012 0.013039559 0.64369458
0.064022392 -0.045106679 0.6444447
0.064022392 -0.040741503 0.6444447
0.064022392 -0.034921288 0.6444447
-0.015986744 -0.010173351 0.64423782
0.064022392 0.013095498 0.6444447
0.065759495 -0.023381144 0.64520133
0.067511633 -0.007338196 0.64596444
0.067511633 0.0058705807 0.64596444
0.065759495 0.011690587 0.64520133
0.065759495 0.011690587 0.64520133
0.069279216 -0.051590919 0.64673483
0.069279216 -0.03095454 0.64673483
0.071062006 0.0044413507 0.6475113
0.072860435 -0.022304207 0.64829457
0.072860435 -0.011895567 0.64829457
-0.022590823 -0.0060241818 0.65060103
-0.042216901 0.015077472 0.65080523
-0.028868981 2.9802322e-08 0.65221435
0.0062793158 -0.040815532 0.65829927
-0.028886711 -0.0048144162 0.66252267
-0.0082558971 -0.02972123 0.66811907
0.013602449 -0.056110084 0.6740492
-0.032468669 -0.0068355203 0.67508388
-0.019629516 -0.024983019 0.68421245
-0.02146996 -0.023259103 0.68477523
-0.066202551 0.025049627 0.68478668
-0.0017961609 -0.044904023 0.68561995
-0.0036017678 -0.043221235 0.68619013
-0.0505604 0.0072229207 0.68677485
0.016271703 -0.065086842 0.6870451
-0.068436168 0.02404514 0.6920737
-0.0093868636 -0.041302204 0.69542301
-0.041819222 -0.0076034963 0.69825989
-0.062564969 0.011730939 0.70481217
0.001980433 -0.059412956 0.70786351
-0.021753946 -0.033619732 0.70752543
0 -0.057599366 0.70855784
-0.025858549 -0.029836774 0.70891201
-0.0019919616 -0.055774927 0.70925522
-0.060496487 0.0020860732 0.72061694
-0.079113334 0.019243777 0.72690749
-0.055852946 -0.0064446032 0.72811365
-0.022104809 -0.046420127 0.73563284
-0.088425733 0.018615961 0.74969697
-0.055399895 -0.02167818 0.75955886
-0.065962963 -0.012215376 0.76370907
-0.014869609 -0.069391459 0.76795757
-0.043877542 -0.043877542 0.78036225
-0.020923557 -0.07061702 0.78451622
-0.020923557 -0.07061702 0.78451622
-0.027034629 0.023092091 0.60477781
-0.021226047 0.016637392 0.60730833
-0.019060185 0.023104444 0.60825181
-0.015199018 0.025136843 0.60993361
-0.015199018 0.033320934 0.60993361
-0.015199018 0.042674169 0.60993361
-0.01295 0.007063657 0.61091352
-0.01295 0.007063657 0.61091352
-0.026964955 0.017585844 0.61032403
-0.02507049 0.014326006 0.61291248
-0.008937113 0.019068077 0.6126616
-0.0067961123 0.035184294 0.61359423
-0.0030315821 0.015163332 0.61523426
-0.0030315821 0.023048282 0.61523426
-0.0030315821 0.029113591 0.61523426
-0.0048263585 0.051280037 0.61445236
-0.014736595 0.0012280345 0.61704278
-0.0012196063 0.021343112 0.6160236
0.0024658137 0.022808775 0.61762917
0.00061421952 0.033108026 0.6168223
0.0024658137 0.041302398 0.61762917
0.0024658137 0.046850473 0.61762917
0.0024658137 0.053014994 0.61762917
0.0024658137 0.053014994 0.61762917
0.0070818863 -0.022909176 0.61963987
0.0037122117 -0.016704962 0.61817205
0.0070818863 -0.010829052 0.61963987
0.0066571864 -0.0091517074 0.6194548
0.0037122117 0.0068057328 0.61817193
0.0049677361 0.021112859 0.6187188
0.0066571971 0.049088787 0.61945504
0.010734517 -0.02083531 0.62123102
0.0087901009 -0.0012557209 0.62038398
0.0087901009 0.033276811 0.62038398
0.010734517 0.032831401 0.62123102
0.014686793 -0.022986129 0.62295258
0.01669536 -0.010916203 0.62382782
0.01669536 -0.0012842417 0.62382782
0.012698334 0.029206187 0.62208658
0.012698334 0.048888579 0.62208652
0.014464758 0.059130441 0.62285608
0.010382273 -0.029848993 0.62546051
0.018729392 -0.029060937 0.62471378
0.018729392 -0.029060937 0.62471378
0.020784238 -0.016887188 0.6256091
0.020784238 0.0090931058 0.6256091
0.020784238 0.027279317 0.6256091
0.018729419 0.02906099 0.6247139
0.01872942 0.043268591 0.6247139
0.018729419 0.056830361 0.6247139
-0.02746276 0.010462016 0.62666357
0.024968177 0.030881718 0.62743175
0.02286543 0.04899466 0.62651551
0.030700417 -0.05272463 0.62992883
0.027886668 -0.050461605 0.62910026
0.029250443 -0.031244799 0.6292969
0.029250443 -0.021273047 0.62929684
0.029250443 -0.017284364 0.6292969
-0.01714777 -0.001319021 0.62802863
-0.01714777 -0.001319021 0.62802863
0.027098186 0.0072699189 0.6283595
0.027098186 0.017183393 0.6283595
-0.038513195 0.021248639 0.6291129
0.027098186 0.03106232 0.6283595
0.030700417 0.034704834 0.62992883
0.029250527 0.037227958 0.62929732
0.030700417 0.056729048 0.62992883
0.035119373 -0.041197717 0.63185346
0.032898232 -0.036925092 0.63088608
0.035119373 -0.031067133 0.63185352
0.03511947 0.0047276318 0.63185394
0.03511947 0.022962749 0.63185394
0.03511947 0.024988875 0.63185394
0.03511947 0.024988875 0.63185394
0.03511947 0.049302325 0.63185394
0.03511947 0.049302325 0.63185394
0.03888493 -0.053209066 0.6334939
0.03888493 -0.047069561 0.63349396
0.036616016 -0.033225626 0.63250571
0.03888493 -0.015007675 0.63349396
0.036616016 -0.0088149458 0.63250577
-0.039469332 0.020415187 0.6330927
0.044281997 -0.062963456 0.63584507
0.044281997 -0.062963456 0.63584507
0.044281997 -0.05673629 0.63584507
0.044281997 -0.049125344 0.63584507
0.044281997 -0.040822461 0.63584507
0.042723909 -0.019294679 0.63516641
0.044281997 -0.017297655 0.63584507
0.042723909 0.0048236549 0.63516641
0.041178428 0.021275535 0.63449329
0.044281997 0.020757228 0.63584507
0.044281997 0.020757228 0.63584507
0.042723909 0.035143852 0.63516647
0.027967891 -0.054537371 0.63760525
0.047436766 -0.053017557 0.63721955
0.047436766 -0.053017557 0.63721955
0.045852851 -0.040989667 0.63652921
0.011175978 -0.036321908 0.63743657
0.045852985 -0.025010735 0.63652974
0.049033627 -0.018912941 0.63791502
-0.0084079085 -0.015414506 0.63795817
0.049033627 -0.0028018951 0.63791507
0.045852985 0.00069475174 0.6365298
0.049033627 0.0049033612 0.63791502
0.049033627 0.0049033612 0.63791502
0.049033627 0.037125453 0.63791507
0.052267402 -0.067100018 0.63932395
0.052267402 -0.052973703 0.63932395
0.052267402 -0.040966332 0.63932395
0.050643735 -0.033059105 0.63861632
0.0042341887 -0.029639304 0.6391747
0.052267402 -0.026840001 0.63932395
0.052267402 0.01271373 0.63932395
0.052267402 0.01271373 0.63932395
0.05064388 0.02672869 0.6386168
0.055555344 -0.064814575 0.64075601
0.057220113 -0.064372599 0.6414811
0.055555344 -0.05484309 0.64075601
0.0539045 -0.046811789 0.640037
0.057220284 -0.038623691 0.64148158
-0.0028521903 -0.022817492 0.64094907
0.057220284 -0.010728791 0.64148164
0.057220284 0.027179629 0.64148164
0.05889916 -0.050998054 0.64221287
0.05889916 -0.04309693 0.64221287
0.0072129522 -0.034622163 0.64294016
0.062299926 -0.023181349 0.64369404
0.06230012 0.020283788 0.64369458
0.067511633 -0.035223484 0.64596444
0.067511633 -0.011007339 0.64596444
0.064890943 -0.0014581978 0.64482301
0.064890943 0.0051036701 0.64482301
0.064890943 0.013123706 0.64482296
0.069279216 0.0029480755 0.64673477
-0.048948213 0.023732483 0.64785177
0.02234401 -0.053625613 0.64861488
0.072860435 -0.049069256 0.64829457
0 -0.029955655 0.64960253
0.072860435 -0.025278121 0.64829457
0.072860435 -0.0052043349 0.64829457
-0.021038439 -0.0075137317 0.65020156
0.02737808 -0.060840175 0.65240562
0.0068590706 -0.038872018 0.65281868
0.037038185 -0.072533116 0.65509176
0.021484995 -0.055247158 0.65405184
-0.028065145 -0.0031183362 0.65701318
0.019033834 -0.055515349 0.66026968
0.0064644273 -0.043634892 0.66388547
-0.021235464 -0.014701486 0.66598469
-0.056768753 0.024329484 0.66459256
0.011571962 -0.051247239 0.66835541
0.023454817 -0.065338433 0.67103601
0.021832881 -0.0638192 0.67153198
0.0017867821 -0.048243105 0.68448782
-0.048626464 0.0054029226 0.68620163
-0.033839896 -0.015039951 0.69573951
-0.033001021 -0.019412339 0.70313203
-0.060437273 0.0097479522 0.70414037
-0.049657334 -0.0039725602 0.70857096
-0.073388591 0.02181825 0.70823073
-0.00601085 -0.052094012 0.71066207
-0.018354814 -0.040788472 0.71498442
-0.022568071 -0.036929548 0.71645927
-0.023445604 -0.040496945 0.72608912
-0.01309378 -0.054557383 0.7322306
-0.048129078 -0.022918612 0.74545622
-0.07297571 0.004561007 0.74408376
-0.050590482 -0.020696074 0.74638647
-0.030248974 -0.044210047 0.74967909
-0.085807189 0.016233802 0.74874592
-0.011814499 -0.066161186 0.75403142
-0.019100903 -0.059690326 0.75701445
-0.058012616 -0.019337505 0.76058507
-0.01124163 0.042012058 0.61165774
-0.0030315821 0.005762063 0.61523426
-0.0030315821 0.010007814 0.61523426
-0.033207297 0.022339657 0.61456454
-0.005664133 0.049997743 0.6140874
0.0022640815 0.0058528474 0.61754119
-0.022987477 0.0093195885 0.61879146
0.0058655534 0.018002721 0.61911011
-0.0012196063 0.022257805 0.6160236
0.0051089176 -0.022990108 0.62297934
0.013692575 -0.0060487483 0.62251967
-0.015074273 -0 0.62043959
-0.015074273 -0 0.62043959
0.01669536 0.0019263998 0.62382782
0.01669536 0.0019263998 0.62382782
0.01363706 0.058036782 0.62249547
0.010380659 -0.029847443 0.62546092
0.021824833 -0.026054444 0.62606227
0.024968108 -0.025953695 0.62743139
0.024968177 -0.0062420368 0.62743175
0.024968177 -0.0022996888 0.62743175
-0.028825553 0.011792302 0.62696552
0.024968177 0.0101844 0.62743175
0.024968177 0.014126755 0.62743175
0.018729419 0.030029692 0.6247139
0.01861584 0.037981838 0.62466443
0.029975429 -0.041963108 0.62961292
0.016218305 -0.039194256 0.6319477
0.027098186 -0.010243949 0.6283595
0.034008853 -0.0018522609 0.63137001
-0.041329559 0.023997873 0.62973696
0.034008853 0.021884535 0.63137001
0.034008853 0.021884535 0.63137001
0.027098186 0.030070961 0.6283595
0.034008853 0.038045414 0.63137001
0.041951168 -0.042121347 0.63482988
0.041951168 -0.038167428 0.63482988
0.010226622 -0.033408493 0.63341004
0.0020695028 -0.025531754 0.63540077
-0.015181747 -0.0069007874 0.63540405
0.044281997 -0.0058811828 0.63584507
0.044281997 0.014184073 0.63584507
0.037750501 0.04182747 0.63300002
0.029306447 -0.055821836 0.63726133
0.052267402 -0.054033183 0.63932395
0.052267402 -0.054033183 0.63932395
0.046644874 -0.033937972 0.63687468
0.052267402 -0.018011063 0.63932395
0.046644874 0.0017404333 0.63687468
0.046644874 0.0017404333 0.63687468
0.049838752 0.0059664398 0.63826591
0.049838752 0.013687722 0.63826591
0.046644874 0.026106432 0.63687468
0.040561672 -0.070982918 0.64366937
0.061446119 -0.041926112 0.64332217
0.058059722 -0.026162032 0.64184725
0.054729924 -0.010305997 0.64039648
0.070170611 -0.04616382 0.64712304
0.070170611 -0.0099713802 0.64712304
-0.018973952 -0.0072976649 0.64498556
-0.038761944 0.013896316 0.64536583
0.066201285 0.013897706 0.64539373
0.0052016014 -0.034929633 0.6482287
-0.031181945 0.0044545531 0.6480419
-0.051949751 0.024446934 0.65324205
0.010913718 -0.045213968 0.65700448
0.035097871 -0.073386461 0.66138083
0.028986625 -0.067635462 0.66319275
-0.026387708 -0.0071954578 0.66184449
-0.03056325 -0.0032171905 0.66297835
0.016412469 -0.055802405 0.66692019
-0.0049297675 -0.032865107 0.66716266
0.033022087 -0.074299723 0.66811007
0.0020926923 -0.042326674 0.67116535
-0.02015443 -0.018474936 0.67154205
-0.034097806 -0.002493903 0.66957718
0.0085653244 -0.051391929 0.67558932
0.015752207 -0.061258614 0.68007743
-0.014168367 -0.03009823 0.6825422
-0.038477391 -0.0073290169 0.68997705
-0.044329952 -0.0018470585 0.6917665
-0.027001821 -0.021412954 0.69358039
-0.030894039 -0.017785445 0.69480932
0.0042560799 -0.070225269 0.72568125
0.0042560799 -0.070225269 0.72568125
-0.053536832 -0.0085659027 0.72730285
-0.029017221 -0.040177673 0.73824167
-0.038446996 -0.031662256 0.74180198
-0.04935978 -0.021807343 0.74592137
-0.080622561 0.011517525 0.7468614
-0.096389227 0.025860548 0.7525897
