# .PCD v0.7 - Point Cloud Data file format
VERSION 0.7
FIELDS x y z
SIZE 4 4 4
TYPE F F F
COUNT 1 1 1
WIDTH 835
HEIGHT 1
VIEWPOINT 0 0 0 1 0 0 0
POINTS 835
DATA ascii
-0.050056469 -0.030590057 0.63664716
-0.044626076 -0.030680418 0.63714302
-0.047389336 -0.029269874 0.63705111
-0.036382053 -0.029385477 0.6377157
-0.058628127 -0.02791816 0.63730514
-0.056252055 -0.032344937 0.6385597
-0.050678734 -0.026747108 0.63873369
-0.06891308 -0.025315017 0.63857037
-0.018409844 -0.028322846 0.63974756
-0.050958812 -0.025479376 0.63967282
-0.062378474 -0.024100751 0.63993472
-0.063964844 -0.034114569 0.64038724
-0.0099457484 -0.031258076 0.64031243
-0.014182669 -0.028365344 0.6400041
-0.0241597 -0.027002007 0.6403532
-0.043991096 -0.025543213 0.64010072
-0.039793644 -0.025581628 0.64035833
0 -0.031423688 0.64122117
-0.0099982657 -0.027138144 0.64121807
-0.028538613 -0.025684744 0.64104986
-0.028538613 -0.025684744 0.64104986
-0.0043177539 -0.025906563 0.64253712
-0.038822893 -0.023006171 0.64237219
-0.044734776 -0.021645844 0.64299655
-0.044734776 -0.021645844 0.64299655
0.024598453 -0.031833291 0.64346862
0.058044005 -0.030473083 0.64396739
0.027498621 -0.027498603 0.6435082
0.014488222 -0.026078761 0.64369243
0.015945209 -0.026092142 0.64378202
-0.059197348 -0.020213723 0.64309072
-0.068036027 -0.018818468 0.64354181
-0.018935177 -0.03495726 0.64462548
0.034914639 -0.032005072 0.64441115
0.061039921 -0.030519962 0.64423674
0.052261103 -0.029033959 0.64403951
0.04958804 -0.027710974 0.64485723
-0.014586608 -0.021879941 0.64488006
-0.065879487 -0.038063675 0.64552319
0.071610101 -0.029228598 0.64521438
0.071610101 -0.029228598 0.64521438
0.054046858 -0.0277538 0.64512932
0.061509054 -0.027825534 0.64558506
0.040943861 -0.026321054 0.64531708
0.0073081022 -0.023385912 0.64523733
0.061960496 -0.032455504 0.64688253
0.06900993 -0.027897596 0.64604318
0.027972899 -0.023556143 0.64652133
0.011778429 -0.022084534 0.64652693
0.01918981 -0.022142082 0.64698988
-0.0206136 -0.019141197 0.64653856
-0.041164353 -0.017641872 0.64626753
0.059195906 -0.025158226 0.64744353
0.026639907 -0.022199899 0.64745528
0.016314587 -0.020764023 0.64783549
-0.0014824184 -0.019271463 0.64774787
-0.061127964 -0.04025501 0.6487748
0.055201005 -0.034314156 0.64889467
0.065632008 -0.023866206 0.64886057
0.023792585 -0.020818502 0.6483053
0.013411944 -0.019372791 0.64868909
-0.026755292 -0.016350478 0.64822912
-0.056789923 -0.040350735 0.64920282
0.028375398 -0.035842627 0.64907849
0.064458385 -0.034477741 0.64975327
0.064458385 -0.034477741 0.64975327
0.061417848 -0.022469968 0.64962828
0.038866956 -0.020928383 0.64925241
-0.046300214 -0.01344201 0.6490922
-0.043358739 -0.013456166 0.64928216
-0.050997667 -0.011999458 0.64986181
-0.066034086 -0.010505408 0.64996362
-0.048051339 -0.040543318 0.65006381
-0.04511996 -0.040607959 0.65035284
-0.019516392 -0.039032787 0.65002233
0.070629716 -0.022541374 0.65020329
0.058703031 -0.021072865 0.65049851
0.02710994 -0.018073291 0.65060741
-0.030045358 -0.01352042 0.65014392
-0.037677795 -0.012056857 0.65072858
-0.036189955 -0.012063295 0.65082556
-0.037750512 -0.040770561 0.65107971
0.021147382 -0.037763178 0.65114087
0.028800732 -0.016674101 0.65178072
0.01060549 -0.015150696 0.65168923
-0.010588855 -0.013614237 0.65140235
-0.033209413 -0.012076139 0.65101922
-0.021223772 -0.012127876 0.65179956
-0.019718353 -0.012134343 0.65189767
-0.057549588 -0.0090867877 0.65161598
-0.072735481 -0.0075765848 0.65171969
0.036545161 -0.038067877 0.65261209
0.06703791 -0.036566138 0.65271759
0.053194582 -0.018238157 0.65226567
0.027432648 -0.015240341 0.65277153
0 -0.013665318 0.65208763
0.0015191807 -0.01367265 0.65218544
-0.076330304 -0.044271588 0.65308177
-0.068976477 -0.044451505 0.65383071
0.012214151 -0.039696008 0.65310144
0.050617225 -0.03834638 0.65395683
0.068761915 -0.018336505 0.65325516
0.062889293 -0.016872734 0.65396047
0.042903807 -0.015322775 0.65376651
0.042903807 -0.015322775 0.65376651
-0.064229913 -0.0061171651 0.65340501
-0.066017926 -0.044523716 0.65413129
0.053833466 -0.015380979 0.65446907
0.021546569 -0.012312323 0.6545828
-0.0030698532 -0.010744452 0.65408611
-0.043145977 -0.0061637163 0.65481055
-0.07211227 -0.0046029091 0.65401095
-0.052585475 -0.044852287 0.65549904
-0.048063718 -0.044962823 0.65595907
0.071177661 -0.015473425 0.65558463
0.072764799 -0.015481859 0.65568686
0.013897125 -0.010808855 0.65519643
-0.0030883609 -0.009265095 0.65520322
-0.020075003 -0.0077211261 0.65520924
-0.051018804 -0.0046380758 0.65542579
0.027931334 -0.010862201 0.65611583
0.027931334 -0.010862201 0.65611583
-0.0077549857 -0.0077549517 0.65602601
-0.04187981 -0.0046533048 0.65603894
-0.066921972 -0.0015563071 0.65666914
0.065638237 -0.012502521 0.65745258
0.046860125 -0.010934055 0.65735471
0.0077976743 -0.0077976584 0.65705663
-0.053177923 -0.0015640557 0.65760243
-0.076472476 -0 0.65719277
0.062694237 -0.040751249 0.65800071
0.065938294 -0.04081893 0.658315
0.031450387 -0.0078625977 0.65862399
0.031450387 -0.0078625977 0.65862399
-0.047025513 -0.0015674829 0.65802014
-0.076941557 0.0015702248 0.65834832
-0.069684066 -0.049095601 0.65997708
-0.017339833 -0.04571411 0.65908623
-0.015776642 -0.045752287 0.65924501
0.014240625 -0.0047468841 0.65980363
-0.039539289 2.9802322e-08 0.65971667
-0.060486373 -0.049344152 0.66094494
-0.060486373 -0.049344152 0.66094494
-0.038032182 -0.047540247 0.66009122
0.031838473 -0.044573843 0.66096628
0.065233707 -0.0079553127 0.6608628
-0.014273508 -0.0015859008 0.66024464
0.0015923098 -0.04617697 0.66101289
0.0015948733 -0.0015949011 0.66132236
0.0047900188 -0.0015966594 0.66153955
-0.046334516 0.0031954944 0.6616686
-0.044948012 -0.049763888 0.6625793
0.043237269 -0.044838667 0.66210783
0.032040637 -0.0032040477 0.6621865
-0.012853947 0.0016067326 0.66275519
-0.059218764 0.0048015416 0.66200244
-0.052936319 0.0048124194 0.66243982
-0.045043185 0.0048260391 0.66298962
-0.045043185 0.0048260391 0.66298962
-0.07214769 0.006413132 0.66233742
-0.064313255 0.0064313114 0.66288656
0.0096565485 -0 0.6630789
0.021006083 2.9802322e-08 0.66385478
0.022634862 -0 0.66396624
-0.0048339381 0.0016113222 0.66330677
-0.014543717 0.0032319129 0.66386878
-0.033917245 0.004845351 0.66376472
-0.054853082 0.0064532757 0.66354984
0.073125184 -0.0032499731 0.66495943
0 0.003248632 0.66487515
-0.016252946 0.0048758686 0.66499454
-0.076222382 0.0097305179 0.66456699
-0.019529261 -0.050450593 0.66525334
0.076462746 -0.0032537282 0.66518432
0.050610945 -0 0.6658777
0.031002903 0.0016317368 0.6657716
0.0032523456 0.0032523572 0.66510051
-0.079880103 0.011411458 0.66558743
-0.075119317 0.011431187 0.66592813
-0.040907994 -0.052362204 0.66632539
-0.0098154368 -0.050713092 0.66627544
0.004912531 0.0049125254 0.6664691
-0.052345552 0.0098147988 0.66626245
-0.067147695 0.011464238 0.66649783
-0.034482233 -0.052544385 0.66701239
0.032909632 -0.049364448 0.66743135
0.03619127 0.0032901168 0.66738015
0.042871043 0.003297776 0.66784227
0.014788891 0.0049296319 0.66715711
0.02307185 0.0049439669 0.66773403
-0.011543453 0.0082452893 0.66786385
-0.032944161 0.0098832548 0.66763973
-0.049446918 0.011537611 0.66776317
-0.023129037 -0.052866369 0.66822714
-0.019859673 -0.052959114 0.66857696
-0.023141658 0.0099178553 0.66833591
-0.071640022 -0.056645602 0.66991383
0.018264187 -0.0514718 0.66922981
0.041464936 0.0049757957 0.66901457
0.05329359 0.0049962699 0.66983867
-0.066819035 -0.056796163 0.67044842
0.030072076 -0.051790804 0.67047191
0.0066820928 0.010023147 0.67045414
-0.010029415 0.011701018 0.67058033
-0.03172357 0.013357311 0.67035007
-0.03172357 0.013357311 0.67035007
-0.046807412 0.015045255 0.67059535
0.07036145 0.005025804 0.67102742
0.072079405 0.0050288141 0.67114723
0.057062645 0.0067132711 0.67139447
0.038602572 0.0083918571 0.67140162
0.018451875 0.010064662 0.67128944
0.0050414745 0.011763483 0.67165738
0.032023173 0.010112584 0.67225361
0.01179141 0.011791438 0.6721397
-0.05738363 0.018565297 0.67253405
-0.082506336 0.020205647 0.67205709
0.050895821 0.010179132 0.6735931
0.01527906 0.013581395 0.67373139
0.081772983 0.0085180104 0.67444724
-0.044385545 0.02048564 0.67487371
-0.053115025 -0.059968561 0.6756283
0.0017121648 0.017121643 0.67548072
-0.012007385 0.018868744 0.6758641
-0.049748674 0.022301137 0.67587984
-0.0086194426 -0.058612198 0.67689586
0.075784743 0.012056649 0.67671388
-0.056853686 0.024119735 0.6767692
-0.0017302129 -0.058827221 0.67765933
0.0086394874 0.019006848 0.67737979
-0.015523265 0.020697683 0.67700678
-0.034497529 0.022423416 0.67701519
-0.062492907 -0.062492907 0.67834747
-0.029502628 -0.060740709 0.67829138
0.067879684 0.015664548 0.67890161
-0.0017332463 0.020798951 0.67802548
-0.019078165 0.022546917 0.67816216
-0.033015113 0.024326921 0.67855555
0.015695238 0.020927012 0.6793133
0.024490191 0.020991623 0.67996317
-0.019208234 0.024446875 0.67958945
-0.075141706 0.029707193 0.67974383
0.026339624 -0.059703141 0.68076903
0.07554061 0.017567575 0.68086362
-0.079078816 0.031631529 0.68092984
0.070623457 0.019421458 0.68192929
-0.0088238111 0.026471436 0.68182975
-0.028237354 0.028237373 0.68183851
-0.067068979 0.031769514 0.6818552
-0.067068979 0.031769514 0.6818552
0.0053039128 -0.061878979 0.68221712
0.076124139 -0.058420837 0.68250167
0.053002641 0.021201044 0.68207026
0.063842095 0.021280706 0.68287146
0.063842095 0.021280706 0.68287146
-0.053214327 0.031928599 0.68292207
-0.049857218 -0.065882742 0.68374336
-0.016021188 -0.064084738 0.68368506
0.072937332 0.021347553 0.6835435
0.016022576 0.026704311 0.68370366
-0.00356072 0.028485775 0.6837126
-0.019609375 0.030305445 0.68399149
-0.019609375 0.030305445 0.68399149
0.080254681 0.021401227 0.68408406
0.067944475 0.023244172 0.68463629
0.032227512 0.026856214 0.68492663
-0.0089471377 0.030420244 0.68480712
-0.039220378 0.032089382 0.68400043
-0.074975386 0.035702586 0.68428814
-0.066258498 0.035815418 0.68496919
0.0035975864 -0.064756542 0.68593764
0.053744286 0.025080681 0.68505442
0.02155393 0.028738588 0.68561995
0.0090197856 -0.064942449 0.68656099
0.009004008 0.030613631 0.68618011
-0.018113835 -0.067021161 0.68745744
0.067050487 0.027182668 0.68755305
0.068906792 0.027200073 0.68769324
0.07262627 0.027234882 0.68797326
0.052656267 0.029051751 0.68798256
0.029015725 0.030829191 0.68771088
0.0072495635 0.032623053 0.68757904
-0.032625664 0.03625074 0.68759668
-0.032625664 0.03625074 0.68759668
-0.056119114 0.0380162 0.68732595
0.058155313 -0.063607365 0.68817806
0.083842672 0.027339995 0.68881947
0.061933406 0.029145122 0.68868715
-0.073057137 -0.07123071 0.68927354
0.073145062 0.029258043 0.68953884
0.056762982 0.031128079 0.6898331
0.038478732 0.032981783 0.6899848
-0.0073156948 0.036578476 0.68957472
-0.0073156948 0.036578476 0.68957472
0.044095896 -0.066143841 0.69058937
0.071782529 0.031289816 0.69098151
0.042198025 0.033024579 0.69027162
-0.020171013 0.038508326 0.69015467
-0.07891126 0.044043452 0.6903258
-0.01662633 -0.070200056 0.69180143
-0.0092043942 0.0386585 0.69101787
-0.04271058 -0.072422296 0.69296169
-0.04271058 -0.072422296 0.69296169
-0.040893935 -0.072493821 0.69318295
0.06518776 0.035387665 0.69362867
-0.031756248 -0.072852582 0.69429344
0.044940002 -0.069282472 0.69483489
0.078544475 -0.067323864 0.69454598
0.033638492 0.03924492 0.69438881
-0.029884925 0.044827372 0.69426847
-0.048597194 0.046728104 0.69442719
-0.048597194 0.046728104 0.69442719
-0.024380758 -0.07314226 0.69519007
0.043124922 0.039374918 0.69513619
0.050759237 0.039479405 0.69573677
0.031982042 0.041388541 0.69589674
0.037700973 0.041471094 0.69634962
0.024572091 0.043473661 0.69696671
0.001888982 0.045335561 0.69682443
-0.017012877 0.04725799 0.6969859
-0.062302791 0.050975025 0.69670147
0.066260844 -0.07004717 0.69732958
0.066260844 -0.07004717 0.69732958
0.073907241 0.039796203 0.69755781
0.045699276 0.043795139 0.69865376
0.04763547 0.043824643 0.69880855
0.019003844 0.045609236 0.69820082
0.08034832 0.042087227 0.69973034
-0.005736263 0.049714297 0.69961351
-0.047806252 0.053543061 0.69963312
0.0038371237 0.049882621 0.70039499
-0.013448716 0.051873624 0.70071894
-0.076859809 0.057644904 0.7007491
0.04050754 0.048223257 0.70164663
-0.028878674 0.053906888 0.70120174
-0.073115818 0.057723016 0.70106357
-0.065597832 0.057880461 0.70169705
0.015527913 0.052406698 0.70310229
-0.017530467 0.056487054 0.70392799
0.031227056 0.052695662 0.70439404
0.035178818 0.05276826 0.70471847
0.0058472725 0.054574549 0.70408022
-0.033182997 0.058558226 0.70442426
-0.072327875 0.062553823 0.70477027
0.0058921101 0.056957096 0.70588434
-0.021560498 0.058801353 0.70540249
-0.021560498 0.058801353 0.70540249
-0.015713014 0.058923811 0.70589519
-0.037319954 0.060890466 0.70590502
0.055102728 0.053134769 0.70635724
-0.013758379 0.058964461 0.70605892
0.043447893 0.055297315 0.70719612
0 0.059252322 0.7072171
0.079379998 0.053581506 0.70835441
0.061608497 0.05564639 0.70870095
0.019889433 0.059668332 0.7088908
0.019889433 0.059668332 0.7088908
-0.0080014057 0.064011246 0.7102679
-0.026042491 0.066107839 0.71062005
-0.084387332 0.072332025 0.7113387
-0.028246809 0.068599403 0.71235353
-0.054400962 0.070519775 0.71201813
-0.048459724 0.070670426 0.71253765
0.070856616 0.060734272 0.71317983
0.048589479 0.062761426 0.71319032
0.026320541 0.064789027 0.71320188
0.030413376 0.064881891 0.71355206
0.0081105819 0.066912293 0.71356261
-0.020233912 0.068795323 0.71304905
-0.048844989 0.07326749 0.71447539
-0.071235344 0.075305879 0.714486
-0.057276405 0.075686693 0.71572816
0.045190483 0.06778574 0.71675754
-0.047218941 0.075960904 0.71662283
0.066211678 0.068280786 0.71856838
0.047661431 0.070456058 0.71894515
0.031153351 0.072691143 0.71950692
0.0062263738 0.074716449 0.71933407
0.0062263738 0.074716449 0.71933407
0.071027257 0.071027279 0.72097313
0.079618514 0.071237624 0.72172004
0.056573559 0.073336095 0.72173131
-0.069145873 -0.029041231 0.63573706
-0.044890236 -0.028056383 0.63813943
-0.035192411 -0.028153896 0.63872814
-0.035192411 -0.028153896 0.63872814
-0.0070698829 -0.029693484 0.63948619
-0.054820146 -0.026707262 0.63848042
-0.04929537 -0.02676031 0.63881773
0.022863267 -0.030008018 0.64129412
-0.026974922 -0.026974916 0.64018101
-0.058907673 -0.024130911 0.64014888
-0.050825447 -0.022907302 0.64162654
-0.055106096 -0.036254019 0.64385396
-0.045235094 -0.034465015 0.64214987
-0.038906474 -0.034583509 0.64274585
-0.0050594173 -0.033249408 0.64330673
0.028797831 -0.028797835 0.64261442
0.028797831 -0.028797835 0.64261442
0.026768314 -0.02749157 0.64346349
-0.020864356 -0.024461865 0.64249873
-0.0028881088 -0.025268897 0.64311695
-0.050872855 -0.036337733 0.64425832
-0.010970439 -0.035106286 0.64537525
0.034914639 -0.032005072 0.64441115
0.032808363 -0.026246548 0.64481729
0.057027183 -0.0277825 0.64531159
0.010914136 -0.024738282 0.64446151
-0.043088496 -0.018988222 0.64511812
-0.072596602 -0.040002197 0.64764464
-0.025057109 -0.036848664 0.6467253
0.0029472334 -0.035366774 0.64668536
0.029442679 -0.033859134 0.64650643
0.057354618 -0.026471376 0.64632505
0.063368686 -0.026526421 0.64669424
0.064876162 -0.02654022 0.64678693
0.047159705 -0.025053591 0.64670038
0.008824667 -0.022061616 0.64634269
-0.0073541179 -0.020591527 0.64634824
0.0088756327 -0.020709813 0.64736807
-0.055175446 -0.016184837 0.64641178
-0.031075627 -0.017015442 0.64743078
-0.071053773 -0.013322592 0.64749056
-0.063819066 -0.01335746 0.64795864
-0.026915642 -0.038878173 0.64930439
0.037135717 -0.022281438 0.64811122
0.041142017 -0.020944938 0.64939529
0.013411944 -0.019372791 0.64868909
0.019413643 -0.01941362 0.64906824
-0.026911469 -0.014950782 0.64927638
-0.020975405 -0.014982432 0.64965808
-0.056546357 -0.013392568 0.6484291
-0.037457388 -0.013484657 0.64966434
-0.033014838 -0.013506055 0.64995158
-0.059141006 -0.042460173 0.65185416
0.054497264 -0.036331505 0.65153748
0.064861655 -0.021117717 0.6508854
0.045339547 -0.018889263 0.65123641
-0.012772022 -0.015026122 0.6501857
-0.012772022 -0.015026122 0.6501857
-0.0015086128 -0.015086114 0.65090984
-0.0068160184 -0.013632417 0.65164649
-0.063471764 -0.0090674162 0.65122604
-0.063471764 -0.0090674162 0.65122604
-0.013006601 -0.041316062 0.65351862
0.045120761 -0.038237661 0.65343189
0.04496979 -0.016768306 0.65281457
0.027432648 -0.015240341 0.65277153
0.039020494 -0.015302062 0.65351647
0.046018049 -0.015339345 0.65396643
-0.019077841 -0.0106837 0.65303808
-0.058579892 -0.044705689 0.65488881
-0.020899903 -0.043348595 0.65568411
0.040940166 -0.013129339 0.65529054
0.0046452009 -0.0092903972 0.65571254
0.0069737379 -0.0092980266 0.65586609
-0.027039319 -0.0069506839 0.65531611
-0.066868685 -0.0046116114 0.6543625
-0.063111566 -0.0046179295 0.65461487
-0.077051662 -0.0030820668 0.6548233
-0.037425876 -0.045222938 0.65704173
0.013189057 -0.041893601 0.65610075
0.074533977 -0.03881979 0.65624261
0.046576083 -0.012420297 0.65621185
0.05131799 -0.012440711 0.65652019
0.032640144 -0.010880023 0.65642381
-0.010911128 -0.0062349439 0.65695977
-0.017339833 -0.04571411 0.65908623
0.070825115 -0.040921152 0.65878963
0.04714781 -0.0094295442 0.65851223
0.061599649 -0.0094768703 0.659464
0.012573627 -0.0062868297 0.65852553
-0.0015735037 -0.0047205091 0.65874279
-0.0071104141 -0.0031602979 0.65954405
-0.045483191 -0.0015684068 0.65812504
-0.062930889 0.00078906119 0.65871489
0.026994316 -0.044461221 0.66048074
0.026994316 -0.044461221 0.66048074
0.062987871 -0.0071738213 0.66129982
0.078313977 -0.0079912245 0.66172928
0.028625116 -0.0047708154 0.66076839
-0.036643375 0.0015931726 0.66111922
-0.06858927 0.0047853291 0.66134965
-0.078544818 -0.051294595 0.66229796
-0.075467162 -0.051381886 0.66262734
-0.043379713 -0.049806327 0.66274464
0.046519004 -0.044914901 0.6624366
0.022492802 -0.0016066134 0.66274136
0.012890061 -0 0.6633001
-0.054853082 0.0064532757 0.66354984
-0.07672663 -0.0538719 0.66586208
-0.027547676 -0.05023399 0.66440994
0.0032401029 -0.048601538 0.6643616
0.073180042 -0.045534253 0.66510665
0.073125184 -0.0032499731 0.66495943
0.046991967 -0.0016204119 0.66440523
0.058569431 -0.0016269088 0.66519177
0.011343705 0.0016205013 0.66441935
-0.0048645572 0.0032430291 0.6645388
-0.045327879 0.0064754188 0.66421694
-0.032525808 0.0065051913 0.6651147
-0.026887551 0.0065182745 0.6655097
-0.048818447 0.0081363916 0.66523439
-0.064903744 -0.054223686 0.66714889
-0.039305698 -0.052407622 0.66649652
-0.0090010259 -0.050735056 0.66636097
0.05906786 -0.047582418 0.66686302
0.075270966 -0.0016363263 0.66632605
0.067325026 2.9802322e-08 0.66701996
0.024575941 0.003276825 0.66657603
0.0065538338 0.0049153864 0.66658354
0.0065538338 0.0049153864 0.66658354
0.016441591 0.0049324632 0.66727167
-0.055552922 0.0098034739 0.66603446
-0.047520403 0.009831816 0.66660482
-0.068745658 0.011457622 0.66638356
-0.021495827 -0.052912831 0.66840231
0.03962969 -0.049537092 0.66812611
0.070985332 -0.047873825 0.66807592
0.052949302 0.0033093095 0.66853994
0.052949302 0.0033093095 0.66853994
0.033075131 0.0049613118 0.66843021
0.046522532 0.0049845576 0.66936719
0.02656973 0.0066424012 0.66925728
0.036662214 0.0066658556 0.66996419
-0.044579972 0.011557788 0.66811073
-0.063590705 -0.056896955 0.67080617
-0.030964024 -0.055233777 0.67084372
0.0084001273 -0.053760827 0.67160118
0.010935142 -0.05383268 0.67187226
0.07036145 0.005025804 0.67102742
0.07036145 0.005025804 0.67102742
0.02674312 0.0083572268 0.67056537
-0.020950766 0.013408661 0.67112499
-0.016785635 0.013428509 0.67142463
-0.047275513 -0.057405978 0.67261338
0.016875368 -0.054001182 0.67250788
0.071294338 0.0084874332 0.67370856
0.074778758 0.0084975958 0.67395395
0.018573517 0.011819512 0.67262429
-0.042971864 0.016851828 0.67222345
-0.054900773 0.018581897 0.67271608
-0.076455727 0.022087187 0.67389351
-0.063051753 -0.059643537 0.67450732
-0.063051753 -0.059643537 0.67450732
0.03752853 -0.054586947 0.67471755
0.071691439 -0.052915126 0.67484987
0.080897234 0.0085154772 0.67438579
0.039115343 0.011904687 0.67409283
0.042567845 0.011919022 0.67433983
0.068269916 0.010240495 0.6748268
0.037642125 0.013688058 0.67534077
-0.0017101017 0.01710102 0.6752317
-0.030671945 0.018743962 0.67449474
-0.030671945 0.018743962 0.67449474
-0.066500723 0.022166938 0.67463356
-0.0069018737 -0.058665931 0.67708659
0.053331014 0.013762832 0.67646939
0.07755433 0.01206404 0.67684048
0.04664965 0.015549868 0.67736375
-0.031209422 -0.060684979 0.67809916
0.047091972 -0.057556868 0.67934132
0.062542766 0.015635669 0.67851466
0.062969878 0.017491639 0.67994678
0.029590869 0.019147068 0.67891788
0.00086768612 0.020818114 0.67821789
0.022726925 0.020978689 0.67983359
-0.055219732 0.027322769 0.67930305
-0.076842017 0.029688984 0.67961442
-0.075141706 0.029707193 0.67974383
-0.080540217 -0.064782351 0.68015337
-0.031772602 -0.063545197 0.68187594
0.026339624 -0.059703141 0.68076903
0.07554061 0.017567575 0.68086362
0.068814933 0.019409359 0.68179631
-0.0087634297 0.024537623 0.68037206
-0.0035118847 0.024583161 0.68076509
-0.047326207 0.028045118 0.68038857
-0.047326207 0.028045118 0.68038857
-0.051589236 -0.065820724 0.68354106
-0.014254481 -0.064145148 0.6838876
0.04431184 -0.06026414 0.68276066
0.072447509 -0.058311403 0.68210137
0.077045813 -0.058448225 0.68260187
0.078421816 0.021387786 0.68394846
-0.0017814809 0.028503686 0.6838479
-0.056691088 0.031888753 0.68265468
-0.037201993 0.030115902 0.68264592
-0.023145551 0.030267268 0.68372065
-0.042732023 0.03204906 0.68372959
-0.042896718 -0.066132456 0.68455791
-0.0089343488 -0.0643273 0.68449837
-0.0071542696 -0.064388424 0.68470335
0.041310132 0.026941419 0.68561172
0.019745236 0.028720349 0.68548238
-0.061001997 0.035883576 0.68538034
-0.063052811 -0.068457335 0.68626547
-0.025262341 -0.066764742 0.68662083
0.010834081 -0.065004468 0.68676901
0.077527232 -0.061300606 0.68644053
0.034279238 0.028866738 0.6865868
0.039767668 0.028921962 0.68700331
0.047118369 0.028995931 0.68756139
0.047118369 0.028995931 0.68756139
0.052656267 0.029051751 0.68798256
0.032684457 0.030868679 0.68799096
0.0090677617 0.032643944 0.68771923
0.0090677617 0.032643944 0.68771923
-0.068970315 0.039930195 0.687895
-0.071299605 -0.071299583 0.6894868
0.06379161 -0.063791633 0.68881351
0.067528263 0.029201418 0.68911177
0.067528263 0.029201418 0.68911177
0.020943314 0.032780364 0.68863422
0.027378544 0.032854259 0.68912959
-0.081004344 0.041867554 0.68853724
-0.049353056 0.040213585 0.68945009
0.018468432 -0.068333179 0.69173783
0.04221753 -0.066079587 0.6903739
0.047794893 0.033088773 0.69070238
-0.018481577 0.040659487 0.6918965
-0.064564563 0.04427284 0.69147933
-0.062760778 0.044301748 0.69162458
-0.074447192 -0.074447215 0.69346845
0 -0.070824116 0.69378382
0.055692162 0.035271704 0.69289207
0.057586346 0.035294861 0.69303918
0.06518776 0.035387665 0.69362867
0.037154086 0.037154078 0.69304883
0.048491128 0.037300855 0.6939348
-0.01664429 0.040686071 0.69204223
0.0037254847 0.040980339 0.69365704
-0.025073584 0.04271847 0.69300306
-0.072275735 0.046330601 0.69250804
0.048781842 -0.069420308 0.69528449
0.04122261 0.039348871 0.69498634
0.050759237 0.039479405 0.69573677
-0.011281222 0.045124918 0.69576478
-0.011281222 0.045124918 0.69576478
-0.0094072688 0.04515487 0.6959157
0.020726854 -0.071601868 0.69625437
0.024544405 -0.071745157 0.69670963
0.066260844 -0.07004717 0.69732958
0.056511562 -0.069697589 0.69618911
0.066150077 0.039690077 0.69694757
0.00094449101 0.045320451 0.69674838
-0.039671954 0.049117655 0.69684356
-0.026571937 0.049347907 0.6979124
0.045699276 0.043795139 0.69865376
0.08034832 0.042087227 0.69973034
0.022835284 0.045670599 0.69850934
0.011456579 0.047735751 0.69929272
-0.051561274 0.053470939 0.69932252
-0.049684927 0.053506851 0.69947726
-0.076287501 0.055308461 0.699022
-0.065107137 0.055532575 0.69995493
0.04050754 0.048223257 0.70164663
-0.03648052 0.053760767 0.70057195
-0.030782975 0.053870201 0.70104373
-0.028878674 0.053906888 0.70120174
-0.042472709 0.055986762 0.70184547
0.069570147 -0.073435158 0.70207798
0.04835492 0.048354924 0.70228231
0.056245483 0.048487484 0.70292246
0.036877278 0.050463617 0.70309263
-0.013550414 0.054201663 0.70247269
-0.0038848189 0.05438748 0.70327365
0.062667117 0.050917059 0.70519757
0.027286034 0.052623063 0.70406955
-0.025445338 0.058720022 0.70507514
-0.070421711 0.062597096 0.7049334
0.053098068 0.053098083 0.70619309
0.033456761 0.055105239 0.70636815
0.03544946 0.055143625 0.70653343
0.041444063 0.055258751 0.70702988
0.019736174 0.057234913 0.70704079
0.015889211 0.059584528 0.70855379
0.025910793 0.059794158 0.70939714
0.025910793 0.059794158 0.70939714
0.0039864606 0.061790138 0.70940828
-0.033696733 0.063429147 0.70807213
-0.01793983 0.06378603 0.70941842
0.055962935 0.057961613 0.71006566
0.055962935 0.057961613 0.71006566
0.038030181 0.060047656 0.71041721
-0.06228324 0.070319802 0.71132839
-0.060316671 0.070369452 0.71149969
0.068782941 0.06069082 0.71300513
0.040375855 0.062582582 0.71249402
0.048589479 0.062761426 0.71319032
-0.0080644218 0.066531479 0.71216959
0 0.06672135 0.7128641
-0.07460577 0.072589427 0.71220177
-0.0081284046 0.069091439 0.71410042
-0.014307457 0.071537286 0.71552736
-0.044838883 0.073372722 0.71482831
0.024668334 0.069893599 0.71694839
-0.0041026445 0.071796328 0.71642059
-0.028699076 0.073797643 0.71625304
0.0082410984 0.07210961 0.71750128
0 0.074552745 0.71878517
0.012480209 0.074881256 0.71988654
-0.012471591 0.076908141 0.71971315
0.037466351 0.07285127 0.72005904
0.07161165 0.073717862 0.72304797
0.073772781 0.073772788 0.72323728
0.048445333 0.075827479 0.7230593
-0.042086493 -0.02937728 0.63768381
-0.034337692 -0.026904136 0.63973129
-0.05826737 -0.036191382 0.64355159
-0.049778715 -0.034380041 0.64172244
-0.033880923 -0.033708811 0.64192629
-0.033880923 -0.033708811 0.64192629
0.049948763 -0.029678158 0.64356703
-0.057864539 -0.024140015 0.64021337
0.0057618446 -0.026644245 0.64266849
-0.038042538 -0.022355184 0.64291769
-0.022173148 -0.034896642 0.64432073
-0.022173148 -0.034896642 0.64432073
0.013838736 -0.024763703 0.64464211
0.025893161 -0.025525875 0.64488965
0.026053894 -0.02297996 0.64682555
-0.061533641 -0.016602835 0.64566123
-0.037846748 -0.017999196 0.64622432
-0.025976127 -0.018421255 0.64671642
0.045968756 -0.036171898 0.65073472
0.018572764 -0.035659149 0.64815581
-0.013934089 -0.01430903 0.65064842
-0.050456576 -0.011043544 0.65062147
-0.050456576 -0.011043544 0.65062147
-0.070082523 -0.044424444 0.65371799
-0.046196282 -0.042760961 0.6531508
-0.0023081279 -0.041551948 0.65457314
0.031128105 -0.037960738 0.65209472
0.041993652 -0.038175732 0.65313303
0.070041046 -0.017982882 0.65360975
-0.033908769 -0.0069336891 0.65485954
-0.061789941 -0.0469293 0.65763307
0.073687859 -0.04098098 0.65906727
0.073687859 -0.04098098 0.65906727
-0.065531373 -0.0010378262 0.65715623
-0.0059273979 -0.0031616241 0.65962362
-0.029843334 -0.047750808 0.66093856
-0.029843334 -0.047750808 0.66093856
0.042418886 -0.044819593 0.66202569
0.061425917 -0.045261204 0.66392952
0.0019883143 -0.0023827702 0.66075349
-0.050102144 0.0023883134 0.6608007
-0.061724987 -0.054318279 0.66749501
-0.052836277 -0.052023754 0.6650486
-0.061486918 -0.051778466 0.6641233
0.046459399 -0.047274128 0.66557968
0.042150669 0.0019738765 0.66679209
0.069007143 -0 0.66713506
-0.0057278988 0.0057307631 0.66636038
-0.07404086 -0.056570828 0.66964835
-0.045663238 -0.054796323 0.66924357
-0.034250751 -0.05513595 0.67048585
-0.029727841 -0.055270553 0.67097825
-0.0025051683 -0.053451449 0.67043412
0.074386626 -0.050430916 0.67172247
-0.030286521 0.011617005 0.66913223
-0.025681585 0.010772482 0.6688087
-0.014141215 0.010816775 0.66963053
0.014191193 0.0091851205 0.67033339
-0.069705956 0.017586581 0.67095172
0.0021305557 -0.056218743 0.6744467
0.033623129 -0.054476291 0.67430001
0.022403423 0.011835411 0.67289841
0.070003457 0.0093650036 0.67428362
0.07415396 0.0093786046 0.67457747
0.0085815946 0.017163187 0.67598212
-0.070275813 0.021449234 0.67383325
0.042633437 -0.057424083 0.67885566
0.0021556676 0.018963523 0.67690414
-0.033645026 0.022430196 0.67707825
-0.021586783 0.021589942 0.67726707
0.018328326 0.020946383 0.67950809
-0.045992065 0.02516856 0.67830467
-0.069578826 -0.065175503 0.68143594
-0.046406887 -0.063043863 0.68019485
0.05434154 -0.06057696 0.68387145
0.030355329 -0.059828587 0.68121433
0.073990047 0.018500894 0.68146336
0.030341092 0.021988764 0.68111742
0.030341092 0.021988764 0.68111742
0.041494489 0.022074468 0.68194431
-0.062322497 0.030834652 0.68147254
-0.0026711004 0.028494731 0.68378025
-0.0062625268 -0.064418927 0.68480557
0.073827818 0.025918549 0.68706024
-0.013399241 0.030372262 0.68446624
-0.0026898012 0.030487642 0.68528551
-0.030258898 -0.069688186 0.69017541
-0.017540962 -0.070165634 0.69169211
0.074210748 -0.064132333 0.68998867
0.037284076 0.03091827 0.68834317
0.037284076 0.03091827 0.68834317
0.01367242 0.03372784 0.68885368
0.017340612 0.033771254 0.68913692
-0.022364501 0.037430927 0.68919039
-0.030365631 0.0404879 0.69095516
-0.065465286 0.044258431 0.69140685
0.0018668612 -0.070894063 0.69400609
0.049745224 -0.069454923 0.69539744
0.054746415 0.035260201 0.69281906
0.049621593 0.038389698 0.69483495
-0.010231676 0.041861482 0.69336939
0.010306735 0.042166069 0.69500327
0.010306735 0.042166069 0.69500327
-0.077625215 0.049571522 0.69459277
0.0023792987 -0.074193053 0.69844246
0.065668166 0.041875154 0.69856679
0.084288403 0.042144209 0.70004302
0.05723507 0.048504025 0.70300221
0.022375431 0.052532807 0.70366615
-0.04141441 0.057593189 0.70313233
-0.038126245 0.056867402 0.70280832
-0.06134063 0.060367301 0.70386791
-0.02641459 0.058699846 0.70499396
0.0024624779 0.058096077 0.70651126
0.038742274 0.057616219 0.70862794
0.029158568 0.062338248 0.71154255
0.053325124 0.060367659 0.71170485
0.053325124 0.060367659 0.71170485
-0.074415438 0.067470312 0.70834494
-0.074415438 0.067470312 0.70834494
-0.038884781 0.065805614 0.70951444
-0.02504937 0.066131279 0.7107057
0.041400384 0.062604934 0.71258098
0.0462346 0.067810208 0.71684706
0.025705896 0.069919035 0.71703863
0.07364212 0.068455681 0.71920824
-0.047218941 0.075960904 0.71662283
-0.010400631 0.076964706 0.71989757
