# .PCD v0.7 - Point Cloud Data file format
VERSION 0.7
FIELDS x y z
SIZE 4 4 4
TYPE F F F
COUNT 1 1 1
WIDTH 511
HEIGHT 1
VIEWPOINT 0 0 0 1 0 0 0
POINTS 511
DATA ascii
0.062502146 0.011479974 0.6227771
0.061138798 0.015284687 0.62255627
0.05977919 0.019078493 0.62233573
0.058547314 0.020364314 0.62244081
0.056078207 0.022941113 0.62265044
0.056018829 0.024189949 0.62248755
0.062902167 0.0038511455 0.62376261
0.061529525 0.0076912045 0.62353891
0.052529253 0.023061633 0.62345874
0.060807653 -0.0012938082 0.62497717
0.058113337 0.0051656365 0.62469077
0.051724147 0.014224142 0.62489551
0.050303716 0.019347578 0.62450147
0.059683647 -0.0025949776 0.62542272
0.052059911 0.0065075159 0.62590879
0.052059911 0.0065075159 0.62590879
0.049472317 0.010415256 0.62595773
0.047892928 0.019416064 0.62505245
0.046630844 0.020724833 0.62516081
0.042741895 0.027199417 0.62514967
0.061401907 -0.013064206 0.62650335
0.056272671 -0.0065433085 0.62677413
0.056211647 -0.0052289963 0.62660289
0.052172709 0.0039129257 0.62624919
0.041927144 0.015722722 0.62696207
0.043019809 0.019554466 0.62616622
0.03795249 0.023556709 0.62677902
0.040381469 0.024749935 0.62604523
0.064555153 -0.027666479 0.62783462
0.056642387 -0.014489919 0.62781203
0.05530354 -0.011850744 0.62774998
0.052629128 -0.0065786242 0.62762654
0.052514348 -0.0039386153 0.62728024
0.048519295 0.0039340258 0.62709594
0.043301359 0.011809438 0.62719619
0.039491195 0.014480114 0.62770444
0.038118333 0.018401951 0.6274693
0.034209978 0.023683876 0.62763143
0.05964987 -0.026511073 0.62881249
0.05951865 -0.023807466 0.62846053
0.046213377 -0 0.62818837
0.043538671 0.0052774251 0.62806422
0.038285632 0.013201922 0.62816566
0.034473844 0.014585108 0.62885648
0.033098526 0.018535197 0.62861794
0.031762123 0.021174759 0.6285553
0.056039475 -0.028019726 0.62986517
0.054623149 -0.023980886 0.62962353
0.05197531 -0.019990504 0.62967527
0.046726208 -0.013350338 0.62995702
0.047867592 -0.010637224 0.62930775
0.047867592 -0.010637224 0.62930775
0.038710319 2.9802322e-08 0.62993336
0.037278078 0.0053254664 0.62951344
0.034703352 0.0066737235 0.62992203
0.034703352 0.0066737235 0.62992203
0.02803652 0.017355949 0.62996161
0.022685654 0.026689023 0.62988651
0.061473414 -0.03875494 0.63011932
0.053685915 -0.030869395 0.63081574
0.046934519 -0.018773794 0.63067549
0.045524806 -0.014728636 0.63043153
0.04276545 -0.0080185235 0.63012433
0.038882863 -0.0053631365 0.63065159
0.022736056 0.024073482 0.63024437
0.060516451 -0.044378728 0.63113701
0.056731451 -0.043223977 0.63185394
0.05136193 -0.035142362 0.63196027
0.051246721 -0.032366335 0.6315943
0.047250416 -0.027000189 0.63176495
0.045882184 -0.024290562 0.63170028
0.043148853 -0.018877625 0.63157058
0.043004304 -0.014782727 0.63102531
0.037653074 -0.0067237318 0.6311301
0.034935832 -0.0013436675 0.63100135
0.033616327 -0 0.63111812
0.028224465 0.0094081759 0.63104188
0.026899798 0.01075995 0.63115883
0.020202506 0.020202488 0.63138133
0.016215244 0.0229716 0.63191688
0.017494928 0.025569528 0.63125217
0.017475368 0.026885211 0.63107055
0.013501932 0.028354049 0.63178688
0.052734528 -0.037860692 0.63202512
0.051419735 -0.036535084 0.63214386
0.040785234 -0.024471134 0.63291126
0.042019147 -0.023042738 0.63242215
0.039321091 -0.018982589 0.63247567
0.020316226 0.013544142 0.6322965
0.012174209 0.028406501 0.63208818
0.049004883 -0.039476156 0.63312113
0.044968683 -0.034067184 0.633295
0.036745511 -0.019053191 0.63308465
0.034073275 -0.016355157 0.63332438
0.031322207 -0.010894686 0.63319218
0.020454347 0.0054544806 0.63340801
0.010902976 0.021805972 0.63331729
0.046667255 -0.045294672 0.63448757
0.031572327 -0.020590633 0.63450485
0.030153019 -0.016447097 0.63424921
0.02477167 -0.012385815 0.63492662
0.013686229 0.012317568 0.63401157
0.012326639 0.013696283 0.63413268
0.0068682982 0.01923123 0.63461947
0.041393284 -0.042773068 0.63535786
0.041393284 -0.042773068 0.63535786
0.038735405 -0.041502208 0.63579613
0.03454281 -0.033161074 0.63559157
0.027673168 -0.023522198 0.63582647
0.023520404 -0.016602635 0.63581377
0.022127844 -0.013829917 0.63574582
0.011053216 0.0055266023 0.63558429
0.008292675 0.0096747875 0.63563985
0.0068998067 0.013799608 0.63538021
0.0068918974 0.01516217 0.63518929
0 0.020776242 0.63599825
0 0.022135854 0.63580644
0.027865395 -0.032045186 0.63698667
0.013875628 -0.0041626692 0.63629776
0.01249735 -0.0027772188 0.63642228
0.0041651591 0.011107087 0.63639724
-0.0041597206 0.026344925 0.63617831
0.033493578 -0.043262511 0.63726377
0.028027691 -0.039238751 0.63796622
0.023766378 -0.029358447 0.63756031
0.016800124 -0.019600153 0.63780034
0.016800124 -0.019600153 0.63780034
0.016800124 -0.019600153 0.63780034
0.015375879 -0.015375882 0.63753438
0.01395611 -0.011164874 0.63726932
0.01119461 -0.0097952783 0.63771772
0.01119461 -0.0097952783 0.63771772
0.0055945716 -0 0.63763523
0 0.007006079 0.63794565
0 0.0083974898 0.63774872
0 0.01255247 0.63716143
0.021124696 -0.033799499 0.63880253
0.022489714 -0.03373456 0.63847595
0.0028145879 -0.0028145909 0.6386795
-0.0056348983 0.0098610818 0.63885218
-0.0056086313 0.015423745 0.63805956
-0.0098143481 0.022432804 0.6380465
-0.015505307 0.025372326 0.6389547
-0.015505307 0.025372326 0.6389547
0.0042435043 -0.011316061 0.63954955
0.0042435043 -0.011316061 0.63954955
-0.0014104864 0.0014104843 0.63906491
-0.0070655067 0.0084786117 0.63938057
-0.012696726 0.019750476 0.63909638
0.019894429 -0.042630911 0.64033765
0.014253682 -0.037059575 0.64086127
0.011393358 -0.031331748 0.64071661
0.0028445332 -0.015644908 0.6404869
0 -0.011382014 0.64054579
-0.0071156593 -0 0.64059132
0.0014301175 -0.020021647 0.64143455
-0.0071665067 -0.008599788 0.64181888
-0.0057084295 -0.0057084262 0.6410712
-0.0085859541 -0.0042929947 0.64154017
-0.011451892 -2.9802322e-08 0.64159983
-0.014319766 0.004295975 0.64165896
-0.017169204 0.010015339 0.64151299
-0.024271745 0.024271756 0.64114881
0.010072274 -0.04172799 0.64249426
0.010072274 -0.04172799 0.64249426
0.0071797902 -0.034462959 0.64213961
-0.0014374475 -0.021561712 0.64231938
-0.0028771095 -0.020139754 0.64245301
-0.0057700095 -0.018752515 0.64292955
-0.0086476495 -0.012971461 0.64278138
-0.0086476495 -0.012971461 0.64278138
-0.0057424712 -0.012920558 0.64209855
-0.010048562 -0.0057420433 0.64208531
-0.01585828 -0.0014416575 0.64282811
-0.031720046 0.02451095 0.64284724
-0.031720046 0.02451095 0.64284724
-0.030182544 0.02587077 0.64229721
0.0072315624 -0.04338935 0.64338946
-0.0057978132 -0.024640679 0.64376861
-0.01301725 -0.010124505 0.64339536
-0.017375851 -0.0043439865 0.6435917
-0.015877316 -0.0028867722 0.64303696
-0.023128258 0.0072275996 0.64329332
-0.024533775 0.01154533 0.64300931
-0.028930409 0.015911728 0.64341462
0.0029098846 -0.043648243 0.64443117
-0.0043607317 -0.030525118 0.64426643
-0.010194514 -0.02330175 0.64460224
-0.013064354 -0.014515966 0.64402711
-0.013064354 -0.014515966 0.64402711
-0.033387706 0.018871278 0.64403248
-0.036303699 0.023234338 0.64409393
-0.0043979334 -0.041047394 0.64576328
-0.0043979334 -0.041047394 0.64576328
-0.010244112 -0.029268891 0.64545751
-0.011716737 -0.027827233 0.64559603
-0.024952818 -0.0088068843 0.64598483
-0.01614855 -0.02348879 0.64601344
-0.032379683 -0 0.64646661
-0.047123551 0.023561776 0.64656401
-0.048634507 0.025054187 0.6467042
-0.051663585 0.028045923 0.64698541
-0.013354376 -0.041546941 0.64791697
-0.022226237 -0.025189728 0.64766705
-0.032619141 -0.0088961124 0.64778042
-0.032538895 -0.0059161782 0.64734012
-0.037018538 -2.9802322e-08 0.64754546
-0.041559733 0.0044528246 0.64797211
-0.041559733 0.0044528246 0.64797211
-0.041406401 0.008872807 0.64731109
-0.042866554 0.011825264 0.64723349
-0.045839217 0.016265541 0.64729714
-0.013370832 -0.043083817 0.64813775
-0.017826376 -0.035652727 0.64812362
-0.022308707 -0.029744953 0.64833075
-0.029753091 -0.017851859 0.64837986
-0.041611098 0.0029722452 0.64819354
-0.052240424 0.014925838 0.6489749
-0.052046772 0.019331664 0.64830697
-0.058108348 0.026819229 0.64865792
-0.022419557 -0.035871267 0.64922273
-0.025481284 -0.034474671 0.64973724
-0.028383203 -0.025395483 0.64912814
-0.028383203 -0.025395483 0.64912814
-0.028383203 -0.025395483 0.64912814
-0.043345846 -0.0014946759 0.64922845
-0.055382848 0.016465217 0.64948791
-0.058470417 0.019490153 0.64977854
-0.055245485 0.01941058 0.64903975
-0.060017832 0.021006286 0.64992392
-0.061338127 0.026928902 0.64939356
-0.037714839 -0.022628903 0.65090752
-0.051151097 0.0030089021 0.6504066
-0.05269815 0.004516989 0.65055358
-0.066398673 0.024144977 0.6509639
-0.033233404 -0.031722814 0.65115082
-0.048305992 -0.0060382485 0.6510244
-0.051343814 -0.0015101135 0.6510908
-0.059133608 0.0060649812 0.65183127
-0.057498179 0.0060524642 0.65145266
-0.05898485 0.0090745986 0.65137082
-0.06047038 0.012094051 0.65128964
-0.062032346 0.01361686 0.65143746
-0.065246113 0.015173554 0.6519646
-0.065163888 0.01666984 0.65173382
-0.066733465 0.01820004 0.65188229
-0.063437276 0.018124938 0.65112686
-0.035036333 -0.039606273 0.65268499
-0.036450963 -0.03341338 0.65213829
-0.041055758 -0.027370512 0.65235484
-0.048795752 -0.018298388 0.65287185
-0.05479655 -0.0060884655 0.65254104
-0.05479655 -0.0060884655 0.65254104
-0.064080812 0.0061029494 0.65297645
-0.065493837 0.010661811 0.65266007
-0.073130146 0.022853166 0.65271223
-0.041422162 -0.038353831 0.65399289
-0.041369382 -0.036772788 0.65375698
-0.055215567 -0.015337646 0.65394604
-0.062902361 -0.0030684173 0.65399891
-0.070324518 0.013759166 0.65334588
-0.066164099 -0.0015386939 0.65454161
-0.066079542 -0 0.65430427
-0.070774205 0.0061542988 0.65452588
-0.073973209 0.009246707 0.65483236
-0.073973209 0.009246707 0.65483236
-0.073690116 0.013816893 0.65412045
-0.07688693 0.016915143 0.65442556
-0.04643527 -0.041791737 0.65564525
-0.055712834 -0.026308835 0.65561342
-0.052938405 -0.03892529 0.65675211
-0.058981642 -0.024834365 0.656165
-0.062109195 -0.020185471 0.65623522
-0.069802888 -0.0062046647 0.65604758
-0.054824904 -0.043859869 0.65788841
-0.064129077 -0.026590079 0.65761054
-0.07053031 -0.018808067 0.6579988
-0.075225845 -0.010970414 0.65798247
-0.066092215 -0.031472474 0.65875733
-0.072441474 -0.0220474 0.6589011
-0.064633094 -0.036257565 0.65909445
-0.071179293 -0.030053437 0.65973967
-0.069905937 -0.038130522 0.66058576
-0.076420315 -0.030249715 0.66098636
-0.074962579 -0.035088867 0.66133142
0.059109941 0.0089949965 0.62391716
0.057149448 0.012842685 0.62382925
0.05987731 -0.00650841 0.62593091
0.054773226 0.012887955 0.62437546
0.049206205 0.016833693 0.62511241
0.048890442 0.024445206 0.62410933
0.063006364 -0.021002144 0.62725288
0.062596537 -0.01304093 0.62622225
0.060703542 -0.01109679 0.62638772
0.058807597 -0.0091478229 0.62655312
0.054912999 -0.0032689869 0.62662762
0.052613929 0.003043741 0.62626958
0.043183565 0.015048459 0.62676525
0.041263588 0.017029658 0.62693191
0.041263588 0.017029658 0.62693191
0.03735128 0.022935003 0.62700653
0.037290353 0.024860635 0.62674844
0.060898572 -0.027139947 0.62861085
0.057048313 -0.023217693 0.62895155
0.052831322 -0.011226997 0.62823677
0.04695956 -0.0033074021 0.62848282
0.048838723 -0.0039598942 0.62813807
0.042226113 0.0072572529 0.62808985
0.033134915 0.017230183 0.62879366
0.029221009 0.021251619 0.62913543
0.029124578 0.025153041 0.62860632
0.055389829 -0.041205019 0.63188076
0.05511133 -0.034948647 0.63106084
0.051103599 -0.028914258 0.63113964
0.048892714 -0.020763285 0.63050133
0.043004304 -0.014782727 0.63102531
0.037076395 -0.0087640435 0.63155293
0.035033613 -0.0047164261 0.6314553
0.032955281 0.00067219883 0.63117677
0.026854787 0.012755677 0.63088715
0.021606302 0.014854342 0.63181108
0.020844465 0.020844698 0.63114119
0.02474254 0.020730384 0.63025075
0.01876417 0.028146237 0.63059241
0.046987321 -0.03677319 0.63320839
0.042873934 -0.029263966 0.63310313
0.031464659 -0.016416341 0.6339398
0.031464659 -0.016416341 0.6339398
0.021163817 0.002730906 0.63362837
0.017773207 0.0068358779 0.63383615
0.014967273 0.017007902 0.63305044
0.014941906 0.019016981 0.63277209
0.0091115013 0.02141289 0.6337896
0.0088727791 0.023207396 0.63359118
0.01287421 0.025071681 0.63239676
0.03925395 -0.03718856 0.6350655
0.03925395 -0.03718856 0.6350655
0.024785861 -0.013081804 0.63502181
0.019323861 -0.0069013536 0.63541818
0.019323861 -0.0069013536 0.63541818
0.0096898656 0.0055370629 0.6358999
0.0069037704 0.013116762 0.63547587
0.002759713 0.020697832 0.63536757
0.00068885821 0.02482231 0.63526607
0.00068885821 0.02482231 0.63526607
0.032864645 -0.044752747 0.63762093
0.031235401 -0.033318445 0.63638306
0.018867292 -0.020964384 0.63751256
0.0027917332 0.0069793761 0.63730013
-0.0027903733 0.016742259 0.63721806
0.017017977 -0.035454124 0.63999176
0.016957978 -0.031089604 0.6393882
0.012747454 -0.026911288 0.63977683
0.012702605 -0.022582382 0.63917524
0.011240363 -0.014753401 0.63840812
0.0049452949 -0.011305124 0.63938475
0.00070417963 -0.0014097244 0.6389721
-0.0028033759 0.011213541 0.63800281
-0.011251081 0.021095783 0.63856983
0.01520779 -0.038971137 0.64090985
0.0028580467 -0.02143532 0.64130247
0.0028428528 -0.014925405 0.64038551
-0.0086064124 -0.0071720183 0.6419518
-0.0014204795 -0.0071024001 0.64027119
-0.0071325209 -0.0028530061 0.64099842
-0.012900949 0.00071629882 0.64183545
-0.012900949 0.00071629882 0.64183545
-0.017189659 0.0085948408 0.64171875
-0.017189659 0.0085948408 0.64171875
-0.017067714 0.01706773 0.64049208
-0.022908015 0.018612772 0.64163178
-0.019167155 0.022715837 0.64018166
0.010793293 -0.043176025 0.64253092
0.0071969577 -0.037424147 0.64255404
-0.0071793459 -0.010769457 0.64212888
-0.027446136 0.015167162 0.64317477
-0.031062342 0.020948119 0.64319813
0.00072715996 -0.040761515 0.64453089
-0.0029048941 -0.031953812 0.64412999
-0.0058118245 -0.02760613 0.64419138
-0.0058118245 -0.02760613 0.64419138
-0.016615672 -0.02101345 0.64577186
-0.024952818 -0.0088068843 0.64598483
-0.029300299 0.00073207915 0.64564705
-0.023253955 0.00072625279 0.64424169
-0.033509068 0.014569193 0.64466941
-0.033509068 0.014569193 0.64466941
-0.033509068 0.014569193 0.64466941
-0.03880905 0.016840905 0.64558065
-0.011054844 -0.03684701 0.64671719
-0.013240049 -0.030893445 0.64638358
-0.020766407 -0.028925091 0.647856
-0.020728044 -0.026650339 0.64752531
-0.022794483 -0.014705628 0.64631689
-0.028873609 -0.01332593 0.64753556
-0.037041359 -0.00074127316 0.64765561
-0.030883545 -0.0014706254 0.64632666
-0.040043637 0.0029661953 0.64782983
-0.050394952 0.02075088 0.64772201
-0.04706591 0.025003761 0.64634657
-0.020973252 -0.041197926 0.64963955
-0.025481284 -0.034474671 0.64973724
-0.019339241 -0.034959838 0.64837742
-0.019339241 -0.034959838 0.64837742
-0.026917951 -0.029161572 0.64931989
-0.03518945 -0.01722046 0.64955521
-0.038816735 -0.0074647367 0.64901924
-0.043453738 -0.0044952035 0.64967763
-0.047101207 0.010907471 0.64834821
-0.056678452 0.023118407 0.64884865
-0.024830924 -0.040631145 0.65045649
-0.031008514 -0.037058488 0.65138775
-0.034619913 -0.024836481 0.65049946
-0.036877066 -0.021072164 0.65049243
-0.046729349 -0.0067837536 0.65076321
-0.054486379 0.00075627863 0.65150106
-0.054486379 0.00075627863 0.65150106
-0.036612719 -0.038901478 0.65295184
-0.044450209 -0.032188058 0.65382534
-0.042503584 -0.022769779 0.6520412
-0.048826732 -0.019073427 0.65298873
-0.053569485 -0.015305549 0.65355861
-0.04861097 -0.013671815 0.65217483
-0.059395574 0.0007610023 0.65264207
-0.062583163 0.0030528605 0.65305918
-0.060775824 0.0060775578 0.65221143
-0.068914331 0.0091885924 0.65366405
-0.074525863 0.02737686 0.65239739
-0.074431717 0.028861254 0.65216541
-0.043212198 -0.043212205 0.65509605
-0.044677872 -0.038515389 0.65477294
-0.057307899 -0.024781823 0.65576828
-0.055641226 -0.024729431 0.65537328
-0.061111033 -0.01701805 0.65555489
-0.06322483 -0.0092523694 0.65494829
-0.061553009 -0.0092329383 0.65455675
-0.061435301 -0.0069119483 0.65420157
-0.066333652 -0.0046279132 0.65501761
-0.074967787 0.0069552064 0.65538788
-0.054611657 -0.039008319 0.65715295
-0.052869949 -0.037319958 0.65650904
-0.054329835 -0.032597929 0.65618098
-0.072064191 -0.015666157 0.65791106
-0.076458842 -0.00312078 0.65715921
-0.074642383 -0.0015550256 0.65651524
-0.074498147 0.00077554584 0.65615249
-0.064888306 -0.041148633 0.65984583
-0.061457094 -0.040971369 0.65902275
-0.062757097 -0.032947481 0.65819043
-0.06670282 -0.042880386 0.66051233
-0.070965864 -0.04146269 0.66130376
-0.074962579 -0.035088867 0.66133142
-0.076623216 -0.033522636 0.66149664
0.058140725 -0.014125958 0.62741208
0.057950877 -0.010150831 0.62689418
0.049949814 0.0062021539 0.62644255
0.0378155 0.018085467 0.62758434
0.053189278 0.017157894 0.62414014
0.046106208 -0.021877045 0.63130683
0.057915229 -0.022174893 0.62860262
0.057915229 -0.022174893 0.62860262
0.060731478 -0.023764491 0.62817228
0.04548306 -0.0099640805 0.6297673
0.03775448 0.0021332323 0.62985426
0.041792937 0.0062765852 0.6283291
0.052764215 -0.038558841 0.63211703
0.052764215 -0.038558841 0.63211703
0.044995241 -0.026050545 0.63215536
0.040601734 -0.018947482 0.63217288
0.029763594 -0.014027799 0.63399768
0.026203835 -0.0020423606 0.63313103
0.021892712 0.0014094253 0.63364547
0.0060416209 0.01415642 0.63552928
0.017997557 0.013922932 0.63278198
0.017997557 0.013922932 0.63278198
0.022218592 -0.037740644 0.6391055
0.01133301 -0.024791375 0.63980603
0.01133301 -0.024791375 0.63980603
0.0017409568 0.010107039 0.63710231
-0.010246307 0.013775868 0.63937128
-0.017967928 0.025858987 0.63945848
-0.0021735213 -0.029878218 0.64366668
-0.0086997608 -0.020299435 0.64382982
0.0085177049 -0.0227139 0.64016712
-0.0056688669 -0.01392867 0.64222407
-0.009718773 -0.0097180028 0.64257073
-0.02550675 0.0097671524 0.64348722
-0.02550675 0.0097671524 0.64348722
-0.029467804 0.014491524 0.64374036
-0.016327808 -0.03710866 0.64798057
-0.0029048941 -0.031953812 0.64412999
-0.038005255 0.017904777 0.64524317
-0.038005255 0.017904777 0.64524317
-0.034179173 0.017815221 0.64436597
-0.018823011 -0.034426626 0.64818192
-0.044750206 -0.018203884 0.65191764
-0.030217661 -0.018304173 0.64855206
-0.056471262 0.0018942803 0.65180159
-0.050051067 0.010083497 0.64915055
-0.058014017 -0.02204638 0.65554583
-0.058014017 -0.02204638 0.65554583
-0.042503584 -0.022769779 0.6520412
-0.065789238 -0.0023088008 0.65456307
-0.066433839 0.013691649 0.65245056
-0.069873199 0.017895132 0.65265584
-0.074431717 0.028861254 0.65216541
-0.069630161 -0.033232599 0.65982926
-0.061947554 -0.033718333 0.65811121
-0.076791748 -0.022167116 0.65992999
-0.074315161 -0.010169826 0.65765738
-0.074516952 -0.042266726 0.66224289
