# .PCD v0.7 - Point Cloud Data file format
VERSION 0.7
FIELDS x y z
SIZE 4 4 4
TYPE F F F
COUNT 1 1 1
WIDTH 699
HEIGHT 1
VIEWPOINT 0 0 0 1 0 0 0
POINTS 699
DATA ascii
0.05984297 -0.0050930083 0.62249959
0.061038926 -0.005086571 0.62230515
0.056515507 -0.0064222217 0.62385017
0.049916778 -0.0038397312 0.62330383
0.040085226 -0.0038791895 0.62489164
0.040085226 -0.0038791895 0.62489164
0.056856729 2.9802322e-08 0.62478626
0.058596771 -0.010417223 0.62598759
0.044014543 -0.0051781535 0.62506956
0.044014543 -0.0051781535 0.62506956
0.038934059 -0.0012978017 0.62546265
0.061350688 -0.011747986 0.62637186
0.048193783 -0.007815212 0.62603396
0.045938693 -0.009187758 0.62724102
0.041952621 -0.0078660846 0.62705815
0.035448957 -0.0065645874 0.6272881
0.030201791 -0.0052524507 0.62731189
0.030201791 -0.0052524507 0.62731189
0.056361165 0.0013107359 0.62702262
0.013221444 -0.0026442707 0.62840104
0.035634492 -0 0.62811756
0.027931646 -0.0079804659 0.62935877
0.02391341 -0.0066426098 0.62917101
0.029219123 -0 0.62912506
0.061679237 -0.018771946 0.63065946
0.058849752 -0.01738742 0.63025397
0.052239761 -0.016073734 0.63049376
0.002686226 -0.0040293336 0.63093221
0.066122063 -0.021590859 0.63169467
0.029679658 -0.012141705 0.63165194
0.025602026 -0.010779798 0.63145876
0.028302142 0.0013477206 0.63148844
0.040509153 0.002700597 0.63180035
0.040509153 0.002700597 0.63180035
0.065199733 -0.023091584 0.63276881
0.013567678 -0.0094973743 0.63258046
-0.001355569 -0.0054222643 0.63243574
-0.0067788954 -0.0040673316 0.63246113
0.035289336 0.0027146041 0.63264257
0.063790798 0.0054290295 0.63263881
0.054636523 -0.021854609 0.6336844
0.055926464 -0.021824956 0.63346076
0.042191233 -0.017693102 0.63309228
0.034122776 -0.016378909 0.63356346
0.023210729 -0.013653368 0.6336149
-0.0054730172 -0.0068412721 0.63396704
0.027357722 0.0027357638 0.63392258
0.060409237 -0.02471289 0.63453233
0.060409237 -0.02471289 0.63453233
0.001373428 -0.0096140206 0.63459158
0.062026352 -0.02618891 0.63518733
0.051015515 -0.023439556 0.63523972
0.036008015 -0.020773828 0.63597918
0.04132029 -0.020660162 0.63506413
0.028972929 -0.017935634 0.63534421
-0.0069238269 -0.0096933544 0.6359601
-0.027674709 -0.0041511953 0.63583577
-0.027664989 -0.001383245 0.63577712
0.017946102 0.0027609468 0.63544148
0.048251867 0.0055145025 0.63521886
0.034670744 -0.020802438 0.63620925
-0.0041651097 -0.011106938 0.63639522
-0.013868949 -0.0083214045 0.63621718
0.054228321 0.0069523454 0.63664865
-0.0028029105 -0.014014542 0.63797474
-0.040631115 -0.0042032003 0.63792861
-0.040595368 -0.0013998449 0.63777983
-0.0069711586 0.001394242 0.63710278
0.04490716 -0.026663601 0.63820326
0.032332424 -0.023897856 0.63849407
-0.04085204 -0.0056347847 0.63884819
-0.04791392 -0.0014092326 0.63891357
0.030856173 0.0056102276 0.6381073
0.069374532 -0.035395175 0.63970709
0.049445983 -0.029667586 0.63933724
0.039514139 -0.026813179 0.63915336
0.0070742648 0.004244566 0.63959193
0.039508358 0.007055074 0.63912845
0.065403201 -0.0355452 0.64043164
0.057042599 -0.034225583 0.64094543
0.029929303 -0.027078867 0.6408416
0.032687142 -0.027002424 0.64035571
0.021324629 -0.024167895 0.64041144
0.017038379 -0.022717834 0.64019698
-0.0099330861 -0.015609115 0.64009404
-0.02419929 -0.012811393 0.6406343
-0.029898103 -0.011389762 0.64066225
-0.053916316 -0.0042565465 0.64007449
-0.061337456 -0.0014264286 0.64099216
0.045549545 0.0085405707 0.64062649
0.062502794 0.0099436343 0.64027584
0.045648959 -0.031383663 0.64100146
0.045648959 -0.031383663 0.64100146
-0.024332985 -0.014313519 0.64158362
-0.044274956 -0.00856933 0.64120603
-0.058743086 -0.0057310462 0.64175332
-0.065885298 -0.0014322996 0.64169675
-0.017128391 0.0028547347 0.64110243
0.025744062 0.0071511567 0.64144766
0.064783871 -0.038870335 0.6425842
0.051918514 -0.036054522 0.64289081
0.056004237 -0.035900146 0.6421454
0.024502046 -0.028825939 0.64278406
0.027306437 -0.028743625 0.64228719
0.004314377 -0.023009986 0.64240122
0.0014430177 0.005772084 0.64299178
0.046415817 -0.036262363 0.64389426
0.024639193 -0.030436635 0.64375788
0.0101214 -0.026026487 0.64334142
-0.0028969515 -0.023175627 0.64365065
-0.034697905 -0.014457434 0.6433211
-0.06093647 -0.0087052286 0.64393944
-0.069464453 -0.0057886839 0.64349377
-0.049301524 0.0014500618 0.64383996
0.037828151 -0.034918278 0.64442956
-0.020402798 -0.020402789 0.64472097
-0.024786983 0.0043741763 0.64480728
-0.024786983 0.0043741763 0.64480728
0.067065276 0.013121456 0.64479315
0.043887027 -0.038035423 0.64539188
0.043887027 -0.038035423 0.64539188
-0.032253712 -0.019059002 0.64577538
-0.055748317 -0.013203561 0.64589405
-0.014651552 0.0058605969 0.64566398
-0.014651552 0.0058605969 0.64566398
0.046882492 0.011720628 0.64565468
0.068999633 -0.045510381 0.64601672
0.019166581 -0.033910096 0.64677417
-0.030917605 -0.020611733 0.64652246
-0.05156951 0.0029468536 0.64666098
-0.0014682097 0.0073410869 0.64603269
0.057417519 0.013250202 0.64651972
0.063497789 -0.0457775 0.6470567
0.019276278 -0.035586953 0.64779276
0.0059080455 -0.031017214 0.6470952
-0.071052216 -0.011842042 0.64748663
-0.057787485 0.0029634535 0.64766484
0.037264213 -0.041735888 0.64873165
-0.010448184 -0.029851973 0.64897662
-0.0222682 -0.025237262 0.64800477
-0.050733577 -0.019398123 0.64892423
-0.065494321 -0.014885098 0.64848286
-0.06407585 0.002980262 0.64867949
-0.06407585 0.002980262 0.64867949
0.029800372 0.011920184 0.64866525
0.029800372 0.011920184 0.64866525
0.073385298 -0.052418053 0.64958757
0.073385298 -0.052418053 0.64958757
0.0674062 -0.050929099 0.64961851
0.049456455 -0.046459109 0.64971083
0.025495032 -0.040492117 0.64983487
-0.070436195 0.0029972792 0.64970624
-0.052339774 0.0044862628 0.6493175
-0.03741172 0.0059858859 0.64944386
-0.035864145 0.0059773326 0.64918685
0.022509905 0.012005299 0.64994985
0.058274444 0.014942139 0.64917201
0.057185803 -0.049661309 0.65046036
0.025643472 -0.042236328 0.65088892
-0.019577965 -0.030119956 0.65059412
-0.039234832 -0.025653511 0.65096033
-0.036108494 -0.02557683 0.65041584
-0.057069853 0.0045055449 0.65009201
0.06767197 0.016542047 0.6503315
0.062143765 -0.053049535 0.65176547
0.045426171 -0.048454583 0.65158498
0.04082913 -0.046877891 0.65134156
-0.0015140165 -0.036336362 0.65156209
-0.048442632 -0.024221301 0.6515398
-0.069475152 -0.018123925 0.65111697
0 0.010572731 0.6511246
0 0.010572731 0.6511246
0.013622701 0.012109071 0.65151584
0.065360695 -0.054720551 0.65228629
0.065360695 -0.054720551 0.65228629
0.060719598 -0.053129643 0.65204173
0.0091481693 -0.041166753 0.6528511
0.064315252 -0.056658655 0.65365022
0.052082956 -0.053614795 0.65371495
-0.016808793 -0.03514567 0.6532588
-0.026060907 -0.033725888 0.65385294
-0.07477881 -0.019839257 0.65302044
0.016942469 -0.046206743 0.65472567
0.018454485 -0.0461362 0.65444189
-0.016908577 -0.036891431 0.65435374
-0.055480089 -0.027740031 0.65483302
-0.075221911 -0.021491975 0.65411204
-0.049110632 0.0076735318 0.65405965
-0.049110632 0.0076735318 0.65405965
0.060067192 0.018482208 0.65472084
0.044764262 -0.054025859 0.65513253
0.044764262 -0.054025859 0.65513253
-0.015439433 -0.038598567 0.65517455
-0.049602117 -0.0310013 0.65591365
-0.074263841 0.0061886609 0.65556329
0.0046514343 0.013954341 0.65596336
0.057435155 -0.058987439 0.65618348
0.0093126157 -0.046563089 0.65615952
0.0031047559 -0.045018971 0.65619272
-0.0093175732 -0.041929066 0.65625918
-0.0093175732 -0.041929066 0.65625918
-0.024932565 -0.038957119 0.65690577
-0.024932565 -0.038957119 0.65690577
-0.029503418 0.010869682 0.65624505
0.07024955 -0.064005136 0.6572457
0.051543921 -0.05935359 0.65734661
0.051543921 -0.05935359 0.65734661
0.02032325 -0.051589757 0.65751433
-0.064057201 -0.02968505 0.657399
-0.064057201 -0.02968505 0.657399
-0.071993783 -0.02817148 0.65772629
-0.074904151 -0.026528537 0.65717351
-0.03431407 0.010918111 0.65708023
0.063943468 0.020274758 0.65706408
0.062932186 -0.064505503 0.65871882
0.058131758 -0.062845141 0.65845609
0.018903382 -0.053559572 0.65895748
-0.0031429783 -0.047144651 0.6584996
-0.018809268 -0.042320877 0.65801072
-0.036233295 -0.039384007 0.65896702
-0.053507321 -0.034622401 0.65877187
-0.053507321 -0.034622401 0.65877187
-0.059813056 -0.03305459 0.65880609
-0.062776059 -0.031388044 0.65824765
-0.044064999 0.01101625 0.65877253
-0.044064999 0.01101625 0.65877253
-0.023517825 0.012542844 0.65806097
0.056565519 0.020426422 0.65847254
0.047364242 -0.061573535 0.65938318
0.026896436 -0.056957155 0.65978575
-0.067801304 -0.031535476 0.65913767
-0.017415121 0.014248759 0.65991241
0.034750264 0.018954694 0.6594736
0.034750264 0.018954694 0.6594736
0.04765464 -0.063539535 0.66055161
0.041308191 -0.061962277 0.66058648
0.033423074 -0.060479879 0.66092426
-0.020658888 -0.046085209 0.66063094
0.04756479 0.020611405 0.66019005
0.02239231 -0.059179664 0.66187489
-0.027187167 -0.046378106 0.66185009
-0.059024651 0.011166811 0.6613692
-0.027159959 0.014378786 0.66165692
-0.012848181 -0.051392734 0.66266823
-0.012848181 -0.051392734 0.66266823
-0.060923677 -0.038478106 0.66233408
-0.060923677 -0.038478106 0.66233408
-0.070781425 -0.036999345 0.66298759
-0.0032211426 -0.054759413 0.66321725
-0.0032211426 -0.054759413 0.66321725
-0.024210634 -0.050035298 0.66363627
-0.032338612 -0.048507899 0.66398489
-0.048682325 -0.045436829 0.66468662
-0.045495108 0.014623404 0.66493791
0.024333308 0.021088868 0.66462344
0.011393246 -0.061849058 0.66527361
0.004883728 -0.060232639 0.66531014
-0.04100867 -0.050850719 0.66681153
-0.037605401 -0.050685525 0.66616815
-0.022989433 -0.055831492 0.66702342
-0.072584428 -0.044540465 0.667934
-0.070818834 -0.044467598 0.6676085
-0.080467209 -0.041054696 0.66703373
-0.080467209 -0.041054696 0.66703373
-0.018204829 -0.059579462 0.66857845
-0.064629726 -0.048057973 0.66884249
-0.064464919 0.014876515 0.66833246
-0.039807595 -0.054735452 0.66902089
-0.069946855 -0.04829663 0.66983581
-0.035107668 -0.058512777 0.67060745
-0.047053594 -0.057136506 0.67165661
-0.075806513 -0.050537646 0.67215198
-0.032281771 -0.064563513 0.67389643
-0.069506973 -0.054249316 0.67344391
-0.068142675 -0.0562177 0.67444289
-0.044263221 0.020429164 0.6743058
-0.078645609 -0.054710001 0.67518163
0.054917816 0.03089124 0.67596555
-0.039637145 0.022403598 0.67683136
-0.018910071 0.024067372 0.67631757
-0.058872074 -0.064066678 0.67781848
-0.072753116 -0.060627609 0.67790127
-0.079697475 -0.058906853 0.6779418
0.038383137 0.031404406 0.67940658
0.038383137 0.031404406 0.67940658
-0.084738016 0.021184504 0.68190378
0.029908031 0.031667322 0.68116993
-0.056968946 0.024923921 0.68370289
-0.056968946 0.024923921 0.68370289
-0.039198786 0.026726425 0.68388194
-0.066433206 0.025136888 0.68553925
0.0018077386 0.032539278 0.6870175
0.077727705 0.039767683 0.68700325
-0.065703429 0.027376443 0.6891126
-0.077461451 0.02766481 0.69143325
-0.083434016 0.027811348 0.69261247
-0.06298244 0.029638797 0.69241154
-0.02597896 0.033401489 0.69279969
0.012989071 0.03711164 0.69279259
0.014818469 0.037046194 0.69239753
-0.048375621 0.031630218 0.69339854
0.020648146 0.039419204 0.69539064
0.073663823 0.045331597 0.6968044
0.049331833 0.043639719 0.69783795
-0.038226288 0.036314994 0.69952017
-0.084561951 0.03267169 0.70079345
-0.0038434903 0.040356636 0.70077926
0.053954117 0.04624638 0.70140553
0.075080268 0.048128396 0.70118845
0.06240489 0.048753858 0.70420837
-0.027508292 0.041262478 0.70598584
-0.0078667076 0.043266922 0.70620298
0.049395729 0.04939574 0.70730782
-0.012082612 0.046316683 0.71188748
0.030205499 0.05034253 0.71187919
-0.039239477 0.047500402 0.71810013
0.068213888 0.057878435 0.71832365
-0.068626352 0.045750886 0.71983242
0.062380999 0.058222264 0.71980596
-0.0041630748 0.052038461 0.72006792
-0.016852653 0.052664518 0.72309101
0.061705098 0.061705083 0.72564769
0.012818922 0.057685137 0.7267009
0.059698295 0.061830372 0.72616923
-0.012858396 0.055719733 0.72749507
0.052720353 0.065900475 0.73396695
-0.070818543 0.055326968 0.73594648
-0.073185854 0.055443853 0.73651057
-0.02661204 0.059877127 0.73650062
-0.059415486 0.061700732 0.74465346
-0.018401016 0.066703677 0.746454
-0.039888278 0.068044692 0.75203598
0.055088598 -0.00253281 0.62167376
0.058913205 -0.0090636313 0.62510085
0.054829627 -0.0070972592 0.6245352
0.040804736 -0.0012953877 0.62517285
0.040804736 -0.0012953877 0.62517285
0.051943462 -2.9802322e-08 0.62555742
0.037156958 -0.0052150786 0.62618279
0.026802411 -0.0032702684 0.62662792
0.061361667 -0.017341346 0.62982601
0.054838434 -0.013214171 0.62831342
0.058988519 0.0026511848 0.62881744
0.062727928 0.0026412159 0.62821424
0.044098873 -0.013363302 0.63011336
0.026913511 -0.010765374 0.6312415
-0.0081031732 -0.0027010739 0.63182735
0.045032144 0.0026885271 0.63107014
0.060732055 -0.023201182 0.63354707
0.062959127 -0.021663502 0.63224268
0.034781177 -0.016367823 0.63345182
0.033287056 -0.014945418 0.63281059
0.01909177 -0.012273252 0.63341701
0.012965469 -0.010918677 0.63355422
-0.001355569 -0.0054222643 0.63243574
0.037252616 0.002709344 0.63232565
0.041541133 -0.022155285 0.63595271
0.041541133 -0.022155285 0.63595271
0.028896194 -0.017201945 0.63490307
0.01510191 -0.013044387 0.63452792
0.0048156353 -0.011008218 0.63490564
-0.022527311 -0.0045989156 0.63529408
0.024686262 0.0027429163 0.63435388
0.049310584 -0.025002792 0.63647658
0.049310584 -0.025002792 0.63647658
0.0090997461 -0.016800433 0.63780344
-0.036973089 -0.0013951808 0.63721889
-0.016653638 -0 0.63632679
-0.0069711586 0.001394242 0.63710278
0.057086322 -0.031010091 0.63895196
-0.0089456346 -0.014597675 0.63931215
-0.021061303 -0.0098285973 0.63829243
-0.035211608 -0.0070423186 0.63882077
0.051630951 -0.034420669 0.64192653
0.064737499 -0.035570323 0.64055288
0.054718174 -0.03268908 0.6403659
0.051065583 -0.031206757 0.6400308
0.027155796 -0.027155787 0.64133012
0.027155796 -0.027155787 0.64133012
-0.040785044 -0.010017216 0.64154547
-0.035055168 -0.011446431 0.64151728
-0.026974356 -0.011357605 0.64017737
-0.051497478 -0.0071524382 0.64147902
-0.051497478 -0.0071524382 0.64147902
-0.062961951 -0.0042928457 0.64153546
-0.057071626 -0.0049957335 0.64103299
0.010726373 0.005720973 0.64145035
0.029219711 0.0071268976 0.64086217
0.038694676 0.0085988045 0.64179891
0.066799581 -0.038787141 0.64221239
0.018844798 -0.028991997 0.64378631
0.01304856 -0.027546942 0.64381528
0.01304856 -0.027546942 0.64381528
-0.011494231 -0.018678129 0.64223868
-0.011494231 -0.018678129 0.64223868
-0.023124294 -0.017343223 0.64326346
-0.022962701 0.0028703511 0.64204431
0.060686797 0.011559397 0.64322186
0.050832052 -0.037760943 0.64411759
-0.0014545124 -0.024726719 0.64437932
-0.013168922 -0.023411393 0.64542961
-0.029072352 -0.017443419 0.64427131
-0.046801675 -0.01462552 0.6453498
-0.060992882 -0.011224359 0.64550525
-0.069077671 -0.0072712749 0.64434832
-0.069165021 2.9802322e-08 0.64457035
0.048977129 0.01169616 0.64528543
0.065250769 -0.047455132 0.64781469
0.06663546 -0.047385186 0.647551
0.06663546 -0.047385186 0.647551
0.0029458739 -0.029458702 0.64660335
-0.013319369 -0.026638716 0.64744747
-0.023103809 -0.023105871 0.64682096
-0.019133033 -0.023548335 0.64646268
-0.038561024 -0.020763636 0.6478321
-0.033059228 0.004407838 0.64616144
0.050879456 -0.046390116 0.6494422
-0.055456627 -0.019484758 0.64972866
-0.053090341 -0.019441321 0.64932537
-0.049168445 -0.019369364 0.64865732
-0.072037637 0.0030015707 0.64996481
-0.03896359 0.0059944093 0.64970112
-0.0090042185 0.0090042353 0.64995503
0.01488981 0.010422885 0.64854002
0.01488981 0.010422885 0.64854002
0.025438521 0.011971056 0.64943361
0.046867989 0.013391003 0.64840829
0.04516222 -0.046667635 0.65052283
0.0007547377 -0.036254644 0.65115088
0.0090417471 -0.03767392 0.65071005
-0.046586446 -0.022541851 0.6502068
-0.06692066 -0.018618872 0.65101683
-0.063439921 0.0045314431 0.65113449
0.070721395 -0.056273386 0.65239328
0.045963444 -0.052091897 0.65374672
0.036671955 -0.048895925 0.6532498
0.027592558 -0.047520518 0.65384388
0.030386055 -0.045579046 0.65220016
0.0068761827 -0.041260555 0.65327048
-0.061290752 -0.024516314 0.65376532
-0.025139214 0.0091413409 0.65271354
-0.025139214 0.0091413409 0.65271354
0.0068552694 0.012188166 0.65270877
0.067274764 0.018347651 0.6533674
0.065084629 -0.060435727 0.6558615
0.058896527 -0.058896512 0.65589464
0.038596693 -0.052491516 0.65516543
-0.0092071667 -0.038363218 0.65403801
-0.029390329 -0.035577774 0.65552664
-0.067011431 -0.024647653 0.65475637
-0.069069453 -0.023023158 0.65408009
0.023205474 0.015470296 0.65554738
0.044633195 0.016929835 0.65458697
0.071212873 0.020125389 0.65567702
0.051235031 -0.057445347 0.65621674
0.032818139 -0.054696858 0.65744698
0.00077738665 -0.045123339 0.65662718
-0.010953036 -0.043812126 0.65768248
-0.020956371 -0.038806975 0.65618086
-0.048558395 -0.034460813 0.65788531
-0.045013189 -0.032595724 0.6561687
-0.062937871 0.0077700317 0.65638942
-0.032705765 0.010901928 0.65680104
0 0.01401639 0.6567961
0.026896436 -0.056957155 0.65978575
0.025199972 -0.055124938 0.65892327
0.0031615875 -0.050585389 0.65962279
-0.020408455 -0.04238677 0.65830553
-0.034815196 -0.041145235 0.65982985
-0.039268162 -0.037697434 0.65840757
-0.064445838 -0.03143698 0.65854317
-0.015007023 0.014216617 0.65948164
-0.0094281193 0.014142156 0.65848327
0.0047245855 0.01574862 0.65890676
0.049165457 -0.06343931 0.66024911
0.033423074 -0.060479879 0.66092426
0.027061697 -0.058898985 0.66095918
-0.039165266 -0.043161035 0.66176695
-0.041405637 -0.041405618 0.66103882
-0.058862306 -0.03659007 0.6608395
-0.076753631 -0.033579707 0.66182458
-0.041444741 0.012752235 0.66122037
0.041473143 0.020736605 0.66135222
0.019374663 -0.061353087 0.6636982
-0.048379298 -0.043541372 0.66346741
-0.075104073 -0.037147924 0.66376722
-0.053167693 0.012889147 0.66328621
-0.014433455 0.016037136 0.66238993
0.029065272 0.020991594 0.66372019
0.049097236 0.022536725 0.66312003
0.06297303 0.024220407 0.66371483
0.0097202752 -0.059941679 0.66436094
0.0097202752 -0.059941679 0.66436094
-0.022701656 -0.051889479 0.66454214
-0.063412666 -0.042275101 0.66507554
-0.072959848 -0.038911909 0.66451597
-0.042958822 0.014589578 0.6644839
-0.027600298 0.016235471 0.6647836
0.021154223 0.021154255 0.66523027
-0.013174864 -0.059286863 0.66759741
-0.055017728 -0.047626674 0.66704726
-0.077421203 -0.042828739 0.66764593
-0.075650007 -0.042758673 0.66732073
-0.080467209 -0.041054696 0.66703373
-0.0049237576 0.019695044 0.66692084
-0.02652834 -0.058030725 0.66894495
-0.036603998 -0.056569815 0.66964477
-0.036603998 -0.056569815 0.66964477
-0.03487559 0.018268198 0.66927344
-0.028903678 0.01816763 0.66817009
-0.028599579 -0.062246174 0.67187911
-0.046750356 -0.055098653 0.67034936
-0.05696816 -0.05361706 0.67105895
-0.068608835 -0.050201595 0.67079967
-0.076302648 -0.052564055 0.67348289
-0.084940426 -0.050964266 0.67386848
-0.079441607 -0.0507074 0.67283499
-0.066765241 -0.058205575 0.67545223
-0.076805599 -0.054617345 0.67483199
-0.072269656 -0.058503985 0.67651176
-0.062297247 0.020765781 0.6776914
0.027708365 0.029440135 0.67784756
0.064885169 0.032875523 0.67766863
-0.073405631 0.020973057 0.67977655
-0.065054283 0.020817146 0.67820835
0.057526067 0.033121079 0.67922866
-0.028221017 0.02645722 0.68171525
-0.026412841 0.026412845 0.68135828
0.049218323 0.033398151 0.68098903
-0.086648725 0.021220058 0.68226182
0.021289885 0.031934828 0.68296385
0.07304512 0.037413359 0.68386084
-0.041050199 0.026771873 0.68424749
-0.0089693842 0.030495942 0.68534416
-0.0035694747 0.030340582 0.684241
0.010753912 0.032261729 0.68515611
0.061301775 0.037862867 0.68644464
-0.043687887 0.029125214 0.68853724
-0.027375583 0.031025678 0.68910581
0.034524139 0.03634122 0.68814266
0.034524139 0.03634122 0.68814266
-0.03491848 0.031242847 0.69064796
-0.048375621 0.031630218 0.69339854
-0.0093027111 0.035350323 0.69339144
-0.056216218 0.031855881 0.69500065
0.026139289 0.039208949 0.69418204
0.058292344 0.04324916 0.69578826
0.07541699 0.045250177 0.69639504
0.0076035252 0.039918512 0.69826078
0.064802527 0.045742959 0.6988734
-0.0057757818 0.040430486 0.70120364
-0.086216956 0.035270572 0.70533389
-0.033591341 0.041495204 0.70732373
0.07472875 0.051130205 0.70618725
0.01796863 0.047916323 0.70980477
-0.068015404 0.040009081 0.71028012
-0.045965862 0.041968852 0.71004629
-0.030120531 0.044176787 0.71119541
-0.036353022 0.044431478 0.7125929
-0.028631883 0.047038108 0.71567369
-0.010255453 0.049226165 0.7163927
-0.084844485 0.043456912 0.71860015
-0.0020774195 0.051935494 0.71957088
0.0041303267 0.051629066 0.71809143
0.02480592 0.053746164 0.71833241
0.066277266 0.057992607 0.7188158
0.033502493 0.056535453 0.7215609
0.079407275 0.060600281 0.72104901
-0.072351724 0.048943818 0.72567546
-0.023312591 0.052983165 0.72462952
-0.034254722 0.053523034 0.72723603
0.0085808635 0.057920873 0.72775459
0.0085808635 0.057920873 0.72775459
-0.0692873 0.051965505 0.73017025
-0.049953826 0.054297656 0.73097628
-0.049953826 0.054297656 0.73097628
-0.056821842 0.054636419 0.73261189
0.052720353 0.065900475 0.73396695
0.07883171 0.067882866 0.73313272
-0.077950604 0.055679023 0.73764616
-0.077950604 0.055679023 0.73764616
-0.048738193 0.057599664 0.73622328
-0.0066740261 0.062290877 0.73734617
-0.0066740261 0.062290877 0.73734617
0.01995828 0.064310014 0.73649049
-0.037458211 0.067892998 0.75140452
0.042042613 -0.002567552 0.62376988
0.042042613 -0.002567552 0.62376988
0.045776829 -0.002881933 0.62337035
0.064280845 -0.013776109 0.62715888
0.045722779 -0.013906098 0.63019055
0.049890064 -0.019006215 0.63267934
0.0174067 -0.01039958 0.63252735
0.018159734 0.0020606555 0.63425487
0.053460799 0.0050088465 0.63356841
0.030241702 -0.022268061 0.63781935
0.0059194053 -0.014629554 0.63696778
-0.02201869 -0.0098428503 0.63845336
-0.0059626335 0.0021089241 0.63812131
0.0017513677 0.0028042346 0.63805556
0.053988233 -0.037359416 0.64336777
0.041891478 -0.03395088 0.64318544
0.017891282 -0.025935331 0.64204949
-0.049881227 -0.0095476881 0.64270198
-0.053986467 -0.0061352467 0.64124638
-0.042551715 -0.0070919394 0.640019
-0.022015514 -0.022021277 0.64597768
-0.022015514 -0.022021277 0.64597768
-0.03920402 -0.014519989 0.64407611
-0.03920402 -0.014519989 0.64407611
-0.034141548 -0.015980899 0.64417374
-0.073250756 0.00098783779 0.64683867
-0.054076359 0.002204828 0.64583272
0.073249176 -0.053343974 0.65018129
0.072963521 -0.050627738 0.64854848
0.041984685 -0.045751255 0.65046185
-0.0022535534 -0.033797048 0.65011096
-0.050189003 -0.021806747 0.65032566
-0.049951009 -0.019383743 0.64879078
-0.062241498 0.004526563 0.65093827
-0.0057593016 0.0095273554 0.65030694
0.042803045 0.014021218 0.65008414
0.05380518 -0.057290703 0.65571225
0.05380518 -0.057290703 0.65571225
0.02205823 -0.046428833 0.65404963
0.0019237897 -0.042361338 0.65473837
-0.034306183 -0.029987862 0.6528548
-0.034306183 -0.029987862 0.6528548
0.050127804 0.016837329 0.65357196
0.061877519 0.018448435 0.65438086
0.061877519 0.018448435 0.65438086
0.033660427 -0.053704146 0.65669978
-0.0061258613 -0.046173275 0.65837383
-0.0061258613 -0.046173275 0.65837383
0.02586792 0.01724568 0.65805292
0.021931995 -0.058226526 0.66135943
0.0057679084 -0.053311352 0.6608929
-0.062702842 -0.034922749 0.66042
-0.078304149 -0.031402551 0.66072619
-0.073602468 0.010139525 0.66196585
-0.058183469 0.011158347 0.66122311
0.02914474 -0.064766079 0.66425312
-0.0057046013 -0.057856828 0.66552603
0.0048532332 -0.058238775 0.66408312
-0.021873912 -0.051847711 0.66438454
0.065926082 0.026207365 0.66652322
-0.074079663 -0.045887571 0.66900432
-0.046466529 0.01781499 0.67034662
-0.046466529 0.01781499 0.67034662
-0.0096384156 0.021787047 0.67110634
0.022312505 0.023139566 0.66831791
-0.05823179 -0.055699289 0.67254651
0.00084299478 0.023622841 0.6724847
0.055047423 0.033203661 0.6797533
-0.0023464081 0.028784554 0.68148607
0.030333182 0.031654127 0.68108141
0.030333182 0.031654127 0.68108141
0.04585436 0.033510417 0.68170214
-0.053240001 0.027070776 0.68665302
-0.0035694747 0.030340582 0.684241
-0.050365239 0.029302955 0.68987775
0.013651003 0.034584552 0.68852639
0.026553351 0.036626443 0.68986404
-0.038483344 0.033789515 0.69540167
0.062270187 0.043075711 0.69487798
0.073161706 0.04260096 0.69238633
-0.073255569 0.032346234 0.69848269
-0.040210787 0.036381185 0.69994086
0.021978196 0.042046919 0.69950914
0.034454376 0.041536883 0.69671059
-0.022060953 0.038365319 0.70035946
-0.0028808627 0.0403198 0.70056736
0.037437558 0.044158161 0.70055896
-0.069821499 0.037368774 0.70621514
-0.054340817 0.039519921 0.70732796
0.057796858 0.04898119 0.70530605
-0.029089686 0.044134632 0.71096408
-0.0090369741 0.046184063 0.71119153
0.033129964 0.050198376 0.71118331
0.033129964 0.050198376 0.71118331
-0.06183812 0.042576402 0.71353865
-0.025490733 0.046901152 0.71495485
0.065884277 0.054735452 0.71351349
0.078729942 0.057258859 0.71565259
-0.037881151 0.050508201 0.72284079
-0.081524126 0.049343586 0.72777343
0.034217983 0.059881508 0.72695887
0.058690682 0.06189312 0.72643042
-0.01721479 0.055948079 0.72855532
-0.0021673434 0.05851832 0.7304256
0.074156374 0.064484745 0.72827077
-0.041827552 0.057237715 0.73454267
-0.054565638 0.057905123 0.73764139
-0.054565638 0.057905123 0.73764139
-0.049899735 0.057660565 0.73650593
-0.014569584 0.062756166 0.73935187
0.029229144 0.067451894 0.74020946
0.029229144 0.067451894 0.74020946
0.029229144 0.067451894 0.74020946
