# .PCD v0.7 - Point Cloud Data file format
VERSION 0.7
FIELDS x y z
SIZE 4 4 4
TYPE F F F
COUNT 1 1 1
WIDTH 511
HEIGHT 1
VIEWPOINT 0 0 0 1 0 0 0
POINTS 511
DATA ascii
-0.055229828 -0.0036019385 0.6137352
-0.057488717 0.0023953915 0.61337709
-0.049533159 -0.015705615 0.61463779
-0.048385277 -0.014515579 0.61481965
-0.052959591 -0.01323992 0.61409479
-0.048385277 -0.012096316 0.61481959
-0.049533159 -0.008456856 0.61463785
-0.048385277 -0.0084674358 0.61481965
-0.051820241 -0.004820466 0.61427522
-0.049533159 -0.0012081265 0.61463785
-0.042602766 -0.030430526 0.61573577
-0.042602766 -0.030430526 0.61573577
-0.042602766 -0.029213309 0.61573577
-0.04376509 -0.027961016 0.61555171
-0.04376509 -0.024313927 0.61555171
-0.042602766 -0.021909982 0.61573577
-0.042602766 -0.018258333 0.61573577
-0.042602766 -0.018258333 0.61573577
-0.041437525 -0.018281281 0.61592036
-0.046080898 -0.015764505 0.61518455
-0.044924386 -0.015784204 0.61536771
-0.044924386 -0.010927558 0.61536771
-0.04376509 -0.007294178 0.61555171
-0.042602766 -0.0036516488 0.61573577
-0.046080898 -0 0.61518455
-0.046080898 -0 0.61518455
-0.042602766 0.0073033273 0.61573577
-0.036747232 -0.044096664 0.61666358
-0.036747232 -0.037972152 0.61666358
-0.037924267 -0.034254164 0.61647713
-0.036747232 -0.029397786 0.61666358
-0.03556722 -0.029434949 0.6168505
-0.03556722 -0.029434949 0.6168505
-0.039098237 -0.028101891 0.61629081
-0.037924267 -0.0036700964 0.61647713
-0.037924267 -0.0024467409 0.61647713
-0.037924267 0.0036700666 0.61647719
-0.028424116 -0.048197404 0.61798215
-0.029622223 -0.037027791 0.61779237
-0.032009225 -0.033240378 0.617414
-0.032009225 -0.033240378 0.617414
-0.028424116 -0.030895799 0.61798215
-0.032009311 -0.029547065 0.61741436
-0.032009311 -0.028315932 0.61741436
-0.030817281 -0.02711919 0.61760312
-0.03319823 -0.01967302 0.61722565
-0.03319823 -0.01967302 0.61722565
-0.028424116 -0.019773275 0.61798215
-0.03319823 -0.013525188 0.61722559
-0.030817281 -0.01355958 0.61760312
-0.028424116 -0.0098866522 0.61798215
-0.032009311 -0.0012311339 0.61741436
-0.032009311 0.0036934018 0.6174143
-0.03319823 0.0073773861 0.61722565
-0.029622223 0.0086398125 0.61779237
-0.029622223 0.0086398125 0.61779237
-0.028424116 0.012358338 0.61798209
-0.032009311 0.013542384 0.61741436
-0.027222957 -0.059395537 0.61817235
-0.026018729 -0.056993395 0.61836308
-0.022387583 -0.048506439 0.61893857
-0.026018729 -0.040886566 0.61836308
-0.022387583 -0.039800137 0.61893857
-0.023601087 -0.034780562 0.61874634
-0.023601087 -0.034780562 0.61874634
-0.023601087 -0.023601085 0.6187464
-0.024811488 -0.021089762 0.61855471
-0.024811488 -0.017368019 0.61855471
-0.022387583 -0.016168803 0.61893857
-0.026018729 -0.01362884 0.61836308
-0.026018729 -0.0061949193 0.61836308
-0.026018798 0.0012390018 0.61836344
-0.026018798 0.0012390018 0.61836344
-0.022387583 0.0024875104 0.61893857
-0.024811488 0.0086840391 0.61855471
-0.026018798 0.017345846 0.6183635
-0.018728385 -0.053688034 0.61951852
-0.017502347 -0.043755844 0.61971265
-0.017502347 -0.043755844 0.61971265
-0.016273145 -0.041308716 0.61990738
-0.021170964 -0.039851218 0.61913127
-0.016273145 -0.032546282 0.61990738
-0.018728385 -0.027468294 0.61951852
-0.021170964 -0.011208147 0.61913127
-0.016273145 -0.008762449 0.61990738
-0.021170964 -0.0024906993 0.61913127
-0.021170964 -0.0024906993 0.61913127
-0.019951221 0.0012469292 0.61932445
-0.016273145 0.0050071478 0.61990738
-0.016273145 0.010014236 0.61990738
-0.016273145 0.010014236 0.61990738
-0.021170964 0.012453526 0.61913127
-0.021170964 0.013698876 0.61913127
-0.019951271 0.013716519 0.6193248
-0.016273145 0.018776715 0.61990738
-0.021170964 0.019925624 0.61913127
-0.018728385 0.023722649 0.61951852
-0.015040767 -0.056402862 0.62010252
-0.013805201 -0.052710757 0.62029827
-0.010079282 -0.050396398 0.62088877
-0.010079282 -0.044096872 0.62088871
-0.011324489 -0.042781368 0.62069154
-0.010079282 -0.031497747 0.62088871
-0.015040767 -0.028828144 0.62010252
-0.012566471 -0.016336411 0.62049484
-0.010079282 -0.01637879 0.62088871
-0.015040767 -0.013787359 0.62010258
-0.010079282 -0.0075594485 0.62088871
-0.010079282 -0.0075594485 0.62088871
-0.011324489 -0.0025165081 0.62069154
-0.015040767 0.0025068223 0.62010252
-0.011324489 0.0075496435 0.62069154
-0.013805201 0.013805181 0.62029827
-0.011324489 0.015099317 0.62069154
-0.011324489 0.015099317 0.62069154
-0.010079282 0.020158559 0.62088877
-0.012566471 0.025132954 0.62049484
-0.013805201 0.028865397 0.62029827
-0.0088308379 -0.052984998 0.62108648
-0.0050659655 -0.046860203 0.62168318
-0.0038044394 -0.04058069 0.62188292
-0.0088308379 -0.026492506 0.62108648
-0.0038044394 -0.0164859 0.62188292
-0.0075791432 -0.011368722 0.62128472
-0.0050659655 0.0012665093 0.62168318
-0.0050659655 0.0063324273 0.62168318
-0.0075791432 0.013895124 0.62128472
-0.0038044394 0.019022256 0.62188292
-0.0050659655 0.02153039 0.62168312
0 -0.048379242 0.62248546
0 -0.043286681 0.62248552
0.0012748141 -0.042068884 0.62268782
0 -0.03819412 0.62248546
-0.0025396119 -0.036824346 0.62208331
0.0025529824 -0.03318876 0.62289023
0 -0.029282182 0.62248552
0 -0.029282182 0.62248552
0.0025529824 -0.029359251 0.62289023
0.0012748141 -0.028045893 0.62268782
-0.0012714699 -0.02797237 0.62228411
0.0025529824 -0.025529832 0.62289023
0 -0.017823964 0.62248588
0 -0.0012731552 0.62248594
0 -0 0.62248588
-0.0025396119 0.0012697875 0.62208331
-0.0025396119 0.016507477 0.62208325
0 0.020370275 0.62248588
-0.0025396119 0.027935714 0.62208325
0.0051194336 -0.040955454 0.62329668
0.0064077438 -0.039728016 0.62350076
0.0076994612 -0.033364356 0.62370533
0.008994624 -0.033408612 0.6239109
0.008994624 -0.029553771 0.6239109
0.0064077438 -0.023067862 0.6235007
0.0064077438 -0.017941684 0.6235007
0.006407761 -0.011533946 0.62350112
0.008994624 -0.0064247549 0.6239109
0.008994624 -0.0012849569 0.62391084
0.006407761 -0 0.62350118
0.006407761 0.0038446784 0.62350112
0.0038345177 0.0063908696 0.62309325
0.008994624 0.0089946389 0.62391084
0.008994624 0.015419364 0.6239109
0.006407761 0.024349481 0.62350118
0.006407761 0.028194159 0.62350112
0.0038345177 0.038345188 0.62309319
0.008994624 0.039833367 0.62391084
0.012900713 -0.033541858 0.62452954
0.012900713 -0.033541858 0.62452954
0.010293201 -0.024446338 0.62411654
0.011595226 -0.023190469 0.62432277
0.011595226 -0.023190469 0.62432277
0.015522171 -0.021989733 0.6249451
0.010293201 -0.01801312 0.62411654
0.014209715 -0.018085063 0.62473726
0.014209715 -0.018085063 0.62473726
0.011595226 -0.016748637 0.62432277
0.014209715 -0.012917906 0.6247372
0.012900713 -0.0038701892 0.62452948
0.015522171 -0 0.6249451
0.012900748 0.0038702488 0.62452996
0.012900748 0.0038702488 0.62452996
0.015522171 0.023283303 0.6249451
0.014209715 0.028419465 0.62473726
0.015522171 0.028457344 0.6249451
0.012900748 0.034832031 0.6245299
0.015522171 0.034924895 0.6249451
0.011595226 0.038650751 0.62432277
0.016838131 -0.034971476 0.62515348
0.016838131 -0.034971476 0.62515348
0.020807175 -0.029910266 0.62578213
0.022137351 -0.027346104 0.62599319
0.020807175 -0.023408085 0.62578213
0.020807175 -0.018206298 0.62578213
0.018157609 -0.01426667 0.62536252
0.018157609 -0.0090788007 0.62536252
0.016838131 -0.0038857162 0.62515348
0.018157609 -0.0012969673 0.62536252
0.016838131 -0 0.62515348
0.016838131 0.0077714622 0.62515354
0.016838131 0.012952417 0.62515354
0.020807233 0.013004512 0.62578255
0.016838131 0.014247626 0.62515354
0.018157609 0.016860634 0.62536252
0.016838131 0.032381028 0.62515354
0.022137351 0.039065927 0.62599325
0.026149219 -0.010459661 0.62662864
0.023471046 0.0013039708 0.62620443
0.027493726 0.0039276779 0.62684155
0.024808332 0.010445625 0.62641627
0.027493803 0.010473847 0.62684202
0.026149219 0.011767149 0.62662858
0.024808332 0.014362723 0.62641627
0.023471046 0.018255234 0.62620449
0.026149219 0.02222684 0.62662864
0.026149219 0.026149243 0.62662864
0.026149219 0.026149243 0.62662864
0.023471046 0.031294733 0.62620449
0.026149219 0.032686502 0.62662858
0.026149219 0.036608905 0.62662864
0.026149219 0.036608905 0.62662864
0.027493803 0.043204576 0.62684202
0.03290832 -0.026326656 0.62769955
0.034271143 -0.023726195 0.62791538
0.034271143 -0.017135561 0.62791538
0.030193737 -0.011814922 0.62726963
0.03290832 -0.0039489567 0.62769955
0.031549189 -0 0.62748426
0.03290832 0.0013163686 0.62769949
0.028841944 0.0026219785 0.62705553
0.028841944 0.006554991 0.62705553
0.034271143 0.0092268586 0.62791538
0.03290832 0.019745022 0.62769955
0.031549189 0.026291013 0.62748426
0.031549189 0.026291013 0.62748426
0.030193737 0.031506538 0.62726963
0.03290832 0.035540998 0.62769955
0.030193737 0.038070381 0.62726963
0.031549189 0.043380141 0.62748432
0.030193737 0.04857254 0.62726963
0.039759777 -0.019879878 0.62878513
0.038382031 -2.9802322e-08 0.62856692
0.037008032 0.0013217032 0.6283493
0.038382031 0.0052940845 0.62856692
0.038382031 0.0052940845 0.62856692
0.039759777 0.0053013265 0.62878507
0.038382031 0.0092645884 0.62856692
0.038382031 0.0092645884 0.62856692
0.038382031 0.023823351 0.62856686
0.038382031 0.037058502 0.62856686
0.038382031 0.039705575 0.62856686
0.038382031 0.039705575 0.62856686
0.035637777 0.050156862 0.62813228
0.043915819 -0.019961715 0.62944376
0.043915819 -0.015969396 0.62944376
0.041141294 -0.011944205 0.62900388
0.041141294 -0.011944205 0.62900388
0.045308743 -0.011993468 0.62966436
0.046705492 -0.01067552 0.62988561
0.046705492 -0.0066722035 0.62988555
0.041141294 -0.0053085089 0.62900388
0.042526715 2.9802322e-08 0.62922376
0.045308743 0.0013326108 0.62966436
0.042526715 0.00531587 0.62922376
0.045308743 0.0079956651 0.62966436
0.042526715 0.011960655 0.62922382
0.041141409 0.021234274 0.62900436
0.046705492 0.025354385 0.62988561
0.041141409 0.029197156 0.62900436
0.046705492 0.029357731 0.62988561
0.046705492 0.045371056 0.62988561
0.046705492 0.045371056 0.62988561
0.041141409 0.046449989 0.62900436
0.045308743 0.047973961 0.62966436
0.042526715 0.050500482 0.6292237
0.043915819 0.057223648 0.62944376
0.043915819 0.057223648 0.62944376
0.050918896 -0.014739692 0.63055295
0.048106093 -0.010690242 0.6301074
0.05233128 -0.0013418198 0.63077706
0.05233128 0.0053673089 0.63077706
0.050919041 0.0066998601 0.63055342
0.05233128 0.0080509484 0.63077706
0.05233128 0.016101956 0.63077706
0.05233128 0.017443806 0.630777
0.048106093 0.020044237 0.6301074
0.050919041 0.029479444 0.63055336
0.050919041 0.036179304 0.63055336
0.050919041 0.037519306 0.63055336
0.05233128 0.040254831 0.630777
0.049510695 0.041481942 0.63033032
0.05233128 0.04696396 0.63077706
0.049510695 0.052186936 0.63033032
0.05233128 0.057698607 0.63077706
0.05233128 0.063065916 0.630777
0.056591533 -0.016168982 0.63145179
0.058019519 -0.014842212 0.63167799
0.053747434 -0.010749459 0.63100135
0.058019519 -0.0094450414 0.63167793
0.053747434 -0.0040310621 0.63100135
0.055167511 -0.0040366352 0.63122624
0.059451647 0.0094582438 0.6319052
0.058019679 0.010794401 0.6316784
0.056591533 0.014821619 0.63145179
0.056591533 0.014821619 0.63145179
0.058019679 0.025636643 0.63167846
0.058019679 0.031033784 0.6316784
0.055167511 0.034984291 0.6312263
0.055167511 0.034984291 0.6312263
0.058019679 0.036430955 0.63167846
0.058019679 0.043177456 0.63167846
0.056591697 0.045812339 0.63145232
0.059451647 0.052695781 0.6319052
0.062327571 -0.0040648282 0.6323607
0.062327571 -0.0027098954 0.6323607
0.060887605 -0 0.63213265
0.062327571 0.0013549626 0.63236076
0.063771561 0.0067842007 0.6325894
0.063771561 0.0067842007 0.6325894
0.065219603 0.0095112026 0.63281876
0.060887605 0.016236693 0.63213265
0.062327571 0.016259372 0.6323607
0.06521979 0.02173993 0.63281924
0.06521979 0.031251162 0.63281924
0.063771747 0.042062223 0.63258988
0.066671707 -0.0068032444 0.63304877
0.0666719 0.0013606548 0.63304925
-0.059175335 -0.0029886588 0.61310995
-0.042602766 -0.036516666 0.61573583
-0.044924386 -0.023069263 0.61536771
-0.05124915 -0.012661636 0.61436564
-0.041437525 -0.012796879 0.61592036
-0.051249154 -0.0066322908 0.61436564
-0.041437525 -0.0067031235 0.61592031
-0.052959591 0.003009066 0.61409473
-0.05124915 0.0048235208 0.61436564
-0.05124915 0.0048235208 0.61436564
-0.034384225 -0.050962314 0.61703777
-0.02902317 -0.046931706 0.61788726
-0.032603726 -0.043062039 0.61731982
-0.037335724 -0.041008495 0.61657023
-0.03733575 -0.034887865 0.61657035
-0.030817281 -0.035131693 0.61760312
-0.039098237 -0.028712764 0.61629081
-0.03733575 -0.028767183 0.61657035
-0.03733575 -0.025094785 0.61657035
-0.02902317 -0.020995766 0.61788726
-0.039098237 -0.01710546 0.61629081
-0.034975722 -0.017181247 0.61694413
-0.039098237 -0.010996372 0.61629081
-0.040269349 -0.0012202561 0.61610538
-0.03260377 -0.0012303293 0.61732
-0.039098237 0.0091636479 0.61629081
-0.030817281 0.014792293 0.61760312
-0.030817281 0.014792293 0.61760312
-0.024811488 -0.057066426 0.61855471
-0.021170964 -0.049191356 0.61913127
-0.016887747 -0.048787989 0.61981004
-0.021170964 -0.042964593 0.61913121
-0.024811488 -0.037217245 0.61855471
-0.016887747 -0.036903724 0.61981004
-0.016887747 -0.035027251 0.61981004
-0.024811488 -0.021089762 0.61855471
-0.022994336 -0.014915511 0.61884248
-0.022994336 -0.0049718469 0.61884248
-0.021170964 0.00062268972 0.61913127
-0.021170964 0.0031133741 0.61913127
-0.024811488 0.016747773 0.61855465
-0.021170964 0.016812235 0.61913127
-0.019339828 0.019340239 0.61942172
-0.015040767 -0.047002405 0.62010252
-0.0050659655 -0.046860203 0.62168318
-0.0038044394 -0.034874022 0.62188292
-0.0038044394 -0.034874022 0.62188292
-0.006951673 -0.027176328 0.62138426
-0.0038044394 -0.024728864 0.62188292
-0.015040767 -0.020681068 0.62010252
-0.0088308379 -0.020815536 0.62108648
-0.0050659655 -0.018997371 0.62168312
-0.0088308379 -0.01703091 0.62108648
-0.0050659655 -0.015197903 0.62168318
-0.006951673 -0.013272151 0.62138426
-0.0050659655 -0.01076515 0.62168312
-0.0038044394 -0.010779232 0.62188292
-0.0038044394 -0.0050725639 0.62188298
-0.006951673 0.00063201785 0.62138426
-0.013185836 0.0050233305 0.62039655
-0.015040767 0.013160676 0.62010252
-0.0038044394 0.013315514 0.62188292
-0.006951673 0.01516819 0.62138426
-0.0050659655 0.015197873 0.62168318
-0.0025396119 -0.041268691 0.62208325
0.008994624 -0.039190844 0.62391084
0.0070536076 -0.032701142 0.62360311
0.0070536076 -0.032701142 0.62360311
0.00063740707 -0.021020636 0.62258685
0.00063740707 -0.019109666 0.62258685
0.00319375 -0.00510934 0.62299168
0.008994624 0.0051397979 0.62391084
0.00319375 0.010857344 0.62299168
0.008994624 0.010922059 0.6239109
0.00319375 0.026823983 0.62299168
0.010944214 -0.025106318 0.62421966
0.020807175 -0.022757843 0.62578213
0.018819114 -0.020765439 0.6254673
0.010944214 -0.014806293 0.62421966
0.020807175 -0.013004512 0.62578213
0.010944214 -0.0051499903 0.62421966
0.012900713 -0.0051603019 0.62452948
0.020807233 -0.0052017868 0.62578255
0.016838131 -0.0032380968 0.62515354
0.020807233 0.0091031492 0.62578255
0.014865942 0.010987565 0.62484115
0.010944214 0.021243818 0.62421966
0.016838131 0.029142901 0.62515354
0.014865942 0.034901649 0.62484121
0.014865942 0.036840633 0.62484121
0.020807233 0.039013594 0.62578255
0.012900748 0.043217525 0.62452996
0.020807233 0.044865593 0.62578261
0.028841866 -0.032774836 0.62705511
0.03290832 -0.028959334 0.62769955
0.026821472 -0.022895999 0.62673509
0.03290832 -0.021061301 0.62769955
0.028841944 -0.015076473 0.62705553
0.030871462 -0.0091956109 0.62737691
0.024808332 -0.0032642335 0.62641621
0.03290832 -0.0032908171 0.62769955
0.026821472 0.00065418333 0.62673509
0.028841944 0.007210508 0.62705553
0.03290832 0.01118885 0.62769949
0.026821511 0.015045971 0.62673533
0.024808332 0.018932685 0.62641627
0.026821511 0.018971018 0.62673533
0.03290832 0.028959304 0.62769955
0.027045608 0.034896843 0.62677091
0.032908414 0.044755429 0.62769997
0.032908414 0.044755429 0.62769997
0.046705492 -0.02068384 0.62988555
0.037008032 -0.019164875 0.6283493
0.046705492 0.0026688874 0.62988561
0.039070904 0.011257596 0.628676
0.037008032 0.015199751 0.6283493
0.037008032 0.015199751 0.6283493
0.043221265 0.017288342 0.62933373
0.035637777 0.025078446 0.62813222
0.039070904 0.033110544 0.628676
0.035637777 0.038937598 0.62813222
0.039070904 0.049003601 0.62867606
0.045308743 0.055303335 0.62966442
0.058735542 -0.012827188 0.63179147
0.048808325 -0.010697618 0.63021863
0.053039357 -0.010742038 0.63088918
0.058735583 -0.010801822 0.63179159
0.053039357 -0.0026855022 0.63088918
0.058735583 -0.0027004629 0.63179159
0.056591533 0.010779351 0.63145179
0.050919041 0.01674968 0.63055336
0.050919041 0.01674968 0.63055336
0.050919041 0.022779554 0.63055336
0.055167511 0.022874326 0.63122624
0.048808396 0.026744083 0.63021886
0.050919041 0.034839362 0.63055336
0.058735661 0.035106093 0.63179183
0.056591697 0.045138627 0.63145232
0.048808463 0.046802208 0.6302191
0.053039357 0.046996474 0.63088918
0.050919041 0.054939002 0.63055336
0.060887605 -0.0087948591 0.63213265
0.066671707 -0.0047622621 0.63304877
0.060887605 0.014883637 0.63213265
0.06521979 0.038724259 0.63281918
-0.045791045 -0.022137892 0.61523044
-0.042020146 0.012179852 0.61582804
-0.022082651 -0.045878053 0.6189869
-0.033789746 -0.026111756 0.61713207
-0.033789746 -0.026111756 0.61713207
-0.018113775 -0.022019846 0.61961579
-0.029920228 -0.0058608744 0.61774522
-0.029920226 0.0018508099 0.61774516
-0.040269349 0.012812972 0.61610532
-0.025716184 0.01394311 0.6184113
0.0060865181 -0.041956913 0.62344986
-0.014113301 -0.037952103 0.62024951
-0.014113301 -0.037952103 0.62024951
0.008994624 -0.029874995 0.6239109
-0.0097663617 -0.014178602 0.6209383
0.0060865236 -0.01377213 0.62344992
0.008994624 -0.0061034933 0.6239109
0.008994624 -0.0061034933 0.6239109
0.0019155785 0.0098863393 0.62278926
0.0019155785 0.0098863393 0.62278926
0.008994624 0.013813183 0.6239109
0.0019155785 0.025832012 0.62278926
-0.013185836 0.028884143 0.62039655
0.033589732 -0.018111866 0.6278075
0.025814902 -0.010129407 0.62657565
0.017828623 0.0061585698 0.62531042
0.025814902 0.0062083565 0.62657571
0.022138547 0.013998645 0.62599343
0.013883345 0.017756267 0.62468559
0.03358978 0.026015271 0.62780768
0.03358978 0.026015271 0.62780768
0.013883345 0.033898316 0.62468553
0.022138542 0.041995913 0.62599343
0.042181246 -0.022252422 0.62916869
0.038039468 0.0062845871 0.62851262
0.038039468 0.0062845871 0.62851262
0.057663597 0.013825476 0.63162184
0.054103434 0.017810043 0.63105774
0.042181339 0.030223543 0.62916905
