# .PCD v0.7 - Point Cloud Data file format
VERSION 0.7
FIELDS x y z
SIZE 4 4 4
TYPE F F F
COUNT 1 1 1
WIDTH 659
HEIGHT 1
VIEWPOINT 0 0 0 1 0 0 0
POINTS 659
DATA ascii
0.01530466 0.044736713 0.61091459
0.01417445 0.049610585 0.61138809
0.010738202 0.028635204 0.61282814
0.010738202 0.036987156 0.61282808
0.011891314 0.041619599 0.61234498
0.010738202 0.04772535 0.61282808
0.0084085343 0.02522561 0.6138041
0.0084085343 0.032432944 0.6138041
0.0095773023 0.03352055 0.61331445
0.0084085343 0.04084146 0.6138041
0.0084085343 0.04084146 0.6138041
0.0095773023 0.044295043 0.61331445
0.017927555 0.044221282 0.61307395
0.0084085343 0.04564634 0.6138041
0.0095773023 0.052675158 0.61331439
0.0072318381 0.016874313 0.61429745
0.006047091 0.027816623 0.61479378
0.006047091 0.036282569 0.61479384
0.006047091 0.052004993 0.61479378
0.0048542335 0.010922015 0.61529356
0.0048542335 0.038833886 0.61529356
0.0048542335 0.055823684 0.61529356
0.0012261536 0.0012261569 0.61681396
0.0012261536 0.011035383 0.61681396
0.0012261536 0.011035383 0.61681396
0.0012261504 0.03678453 0.61681354
0.0024438482 0.050098866 0.61630338
0.0012261504 0.055176765 0.6168136
0 -0.0024607778 0.61732769
-0.0012346946 0.0074081719 0.61784494
0 0.0073824525 0.61732769
-0.0012346946 0.014816314 0.61784494
0 0.028299421 0.61732763
0 0.028299421 0.61732763
-0.0012346946 0.041979611 0.617845
0 0.055368274 0.61732721
-0.0024780198 -0.012390107 0.61836582
-0.0024780198 0.028497219 0.61836582
-0.0024780198 0.034692258 0.61836582
0.017305845 0.037083954 0.61801845
-0.0037300661 0.038544029 0.6188904
-0.0037300661 0.043517441 0.6188904
-0.0049909391 2.9802322e-08 0.61941904
-0.0062607094 0.010017157 0.61995101
-0.0062606931 0.0488334 0.61995059
-0.004990926 0.054900199 0.61941862
-0.0075394809 -0.018848687 0.62048674
-0.0075394809 -0.012565821 0.6204868
-0.0075394809 -0.0087960362 0.62048674
-0.0075394809 0.010052651 0.62048674
-0.0075394809 0.017592132 0.6204868
-0.0075394809 0.017592132 0.6204868
-0.0075394809 0.026388168 0.6204868
-0.0075394809 0.046493441 0.62048674
-0.0075394809 0.050263226 0.6204868
-0.0088273501 -0.026482046 0.62102634
-0.0088273501 -0.020176798 0.62102628
0.0088815773 0.010150373 0.62196147
-0.0088273501 0.031526238 0.62102634
-0.010124414 0.037966579 0.62156975
0.022740409 0.048007548 0.62130469
-0.012746559 -0.04843694 0.62266874
-0.012746559 -0.039514363 0.62266874
-0.011430804 -0.035562485 0.62211746
-0.012746559 -0.021669179 0.62266874
-0.012746559 0.0012746751 0.62266868
-0.011430772 0.0063504577 0.62211704
-0.012746559 0.021669179 0.62266868
-0.011430772 0.026671797 0.62211704
0.016504463 0.030469775 0.62205529
-0.012746525 0.052260756 0.62266827
-0.011430772 0.05715391 0.62211704
-0.014071812 -0.038377672 0.62322396
-0.014071812 -0.028143615 0.6232239
-0.014071812 -0.019188821 0.6232239
-0.015406663 -0.017974406 0.62378317
0.001278425 -0.011505842 0.62312365
-0.014071812 -0.005117029 0.6232239
0.003846576 -0.0051287413 0.62357843
-0.015406663 -0.0038516521 0.62378317
-0.015406663 0.001283884 0.62378317
-0.014071812 0.017909616 0.62322396
-0.014071774 0.052449346 0.62322354
-0.014071774 0.057566375 0.62322354
-0.016751217 -0.059273511 0.62434649
-0.018105581 -0.043970674 0.62491387
-0.018105581 -0.032331377 0.62491393
-0.018105581 -0.028451651 0.62491393
-0.018105581 -0.021985322 0.62491393
-0.016751217 -0.018039793 0.62434649
-0.016751217 2.9802322e-08 0.62434649
-0.018105581 0.0064662993 0.62491393
-0.016751217 0.021905422 0.62434649
-0.018105581 0.029744893 0.62491393
-0.016751217 0.037368119 0.62434649
0.020656027 0.038730055 0.62464184
-0.018105581 0.042677432 0.62491393
-0.016825357 -0.062124386 0.62503487
-0.019469917 -0.012979925 0.6254859
-0.019469865 0.023363799 0.62548554
-0.022228681 -0.058840618 0.62664169
-0.022228681 -0.048380062 0.62664175
-0.02084423 -0.022147 0.62606174
-0.0013067415 -0.022214621 0.62654179
-0.022228681 -0.015690804 0.62664175
-0.022228681 -0.0065378547 0.62664175
-0.02084423 0.0091193318 0.62606168
-0.022228681 0.018305957 0.62664175
-0.022228681 0.04707253 0.62664169
-0.022228681 0.053610325 0.62664175
-0.020844173 0.061229736 0.62606126
-0.023623383 -0.059058443 0.62722605
-0.025028452 -0.0092209876 0.62781465
-0.023623383 -0.0026248395 0.62722605
-0.025028452 0.02107656 0.62781471
-0.023623383 0.022310972 0.62722605
-0.025028452 0.030297607 0.62781477
-0.025028452 0.035566747 0.62781471
-0.025028452 0.051374197 0.62781477
-0.025028452 0.057960659 0.62781471
-0.023623383 0.057746053 0.62722605
-0.023623383 0.057746053 0.62722605
0.0013217968 -0.017183334 0.62835908
-0.026443997 0.064787835 0.62840772
-0.02930709 -0.049289182 0.62960774
-0.027870223 -0.042468905 0.62900573
-0.02930709 -0.033303469 0.62960768
-0.027870223 -0.031851679 0.62900573
-0.02930709 -0.0079928041 0.62960768
-0.027870223 -0.0039814413 0.62900573
-0.027870223 0.0039814711 0.62900567
-0.027870223 0.0092900991 0.62900573
-0.02930709 0.023978561 0.62960768
-0.02930709 0.026642799 0.62960774
-0.02930709 0.027974933 0.62960774
-0.02930701 0.054617614 0.62960726
-0.027870145 0.05441314 0.62900525
-0.02930701 0.061278313 0.62960732
-0.027870145 0.066357523 0.62900525
-0.032213472 -0.060400248 0.6308254
-0.030754801 -0.028080493 0.63021421
-0.032213472 -0.018791169 0.63082534
-0.032213472 -0.0080533624 0.63082534
0.012042562 0.0093664527 0.63032252
-0.032213472 0.016106725 0.6308254
-0.032213472 0.016106725 0.6308254
-0.032213472 0.040266842 0.63082534
-0.030754801 0.050812274 0.63021421
-0.032213472 0.060400277 0.6308254
-0.032213472 0.063084692 0.63082534
-0.033683322 -0.041767329 0.63144159
0.0040463251 -0.013487726 0.63161564
-0.033683226 0.010778666 0.63144112
-0.033683226 0.010778666 0.63144112
-0.033683226 0.033683211 0.63144112
-0.036656622 -0.062452018 0.63268733
-0.036656622 -0.057021409 0.63268727
-0.010839826 -0.054199159 0.63236451
-0.0351643 -0.050041482 0.63206208
-0.0351643 -0.050041482 0.63206208
-0.0351643 -0.039221704 0.63206208
-0.0040789698 -0.036710739 0.63292921
-0.0040789698 -0.036710739 0.63292921
-0.036656622 -0.033941269 0.63268727
-0.036656622 -0.02579537 0.63268733
-0.036656622 -0.017649472 0.63268733
-0.0351643 -0.0081148148 0.63206208
-0.0351643 -0.0040574074 0.63206202
-0.036656622 0.0054306388 0.63268727
-0.0351642 0.012172222 0.6320616
-0.036656622 0.021722466 0.63268727
-0.0351642 0.028401852 0.6320616
-0.036656518 0.039371818 0.63268685
-0.036656518 0.050233006 0.63268685
-0.0351642 0.064918548 0.6320616
-0.038160417 -0.043611914 0.63331735
-0.038160417 -0.032708943 0.63331735
-0.039675817 -0.0041043758 0.6339522
-0.039675817 -0.0041043758 0.6339522
-0.039675817 0.024626374 0.6339522
-0.038160417 0.043611914 0.63331735
-0.041202959 -0.037082642 0.63459206
-0.041202959 -0.035709232 0.63459206
-0.041202959 -0.030215472 0.63459206
-0.041202959 0.0054937303 0.63459206
-0.041202959 0.015107781 0.634592
-0.041202959 0.027468622 0.63459206
-0.041202959 0.061804444 0.63459206
-0.044293154 -0.062287241 0.63588715
-0.042742107 -0.049635977 0.63523734
-0.044293154 -0.041524827 0.63588715
-0.044293154 -0.030451506 0.63588715
-0.044293154 -0.024914891 0.63588715
-0.04274198 -0.011030167 0.6352368
-0.044293154 0.0055366158 0.63588715
-0.044293154 0.0069207847 0.63588715
-0.04274198 0.011030167 0.6352368
-0.04274198 0.011030167 0.6352368
0.022122083 0.030417889 0.63570231
-0.04274198 0.031711787 0.6352368
-0.04274198 0.037226886 0.6352368
-0.044293024 0.042908877 0.63588661
-0.044293024 0.058134586 0.63588667
-0.045856357 -0.026402116 0.63654208
-0.045856357 -0.018064618 0.63654208
-0.045856357 -0.018064618 0.63654208
-0.045856357 0.022233397 0.63654202
-0.045856357 0.027791739 0.63654208
-0.045856357 0.037518829 0.63654208
-0.045856223 0.065310359 0.6365416
-0.049019821 -0.053221479 0.63786739
-0.047431864 -0.034876376 0.63720214
-0.047431864 -0.022320867 0.63720214
-0.047431864 -0.01255548 0.63720214
-0.047431864 -0.0027900934 0.63720214
-0.049019821 0.012605101 0.63786745
-0.047431864 0.01255551 0.63720214
-0.047431864 0.013950527 0.63720214
-0.047431864 0.018135726 0.63720214
-0.047431864 0.018135726 0.63720214
-0.047431864 0.033481359 0.63720214
-0.047431864 0.068357706 0.63720214
-0.050620526 -0.057651147 0.63853848
-0.050620373 -0.039371401 0.638538
-0.050620373 -0.0084367394 0.638538
-0.050620373 0.0070306361 0.638538
-0.050620373 0.0084367096 0.638538
0.018292697 0.016885579 0.63865983
0.018292697 0.016885579 0.63865983
0.028080402 0.043524653 0.63828433
-0.050620373 0.050620407 0.638538
-0.053860039 -0.049607933 0.63989574
-0.05223383 -0.023999333 0.63921446
-0.05223383 -0.015528947 0.6392144
-0.052233674 0.001411736 0.63921392
-0.052233674 0.028234422 0.63921392
-0.052233674 0.028234422 0.63921392
-0.0554993 -0.054076254 0.6405825
-0.0554993 -0.019922793 0.6405825
-0.0554993 -0.019922793 0.6405825
-0.0554993 -0.0071152747 0.6405825
-0.0554993 0.036999524 0.6405825
-0.01143644 -0.065759555 0.64136672
-0.01143644 -0.065759555 0.64136672
-0.0086056022 -0.058804944 0.64193547
-0.057151776 -0.052865386 0.64127487
-0.058817629 -0.037298977 0.64197278
-0.057151776 0.0028575659 0.64127481
-0.057151776 0.018574357 0.64127481
-0.058817629 0.025822371 0.64197278
-0.057151776 0.031433493 0.64127487
-0.057151776 0.034291089 0.64127487
-0.0014395143 -0.040306389 0.64256889
-0.060497198 -0.031689018 0.64267695
0.0043072724 -0.024407864 0.64211535
-0.060497012 -0.0057616234 0.64267641
-0.062190291 -0.059297726 0.6433863
-0.062190291 -0.0318183 0.64338624
-0.062190291 -0.014462858 0.6433863
-0.065618269 -0.049578249 0.64482248
-0.065618269 -0.045203686 0.64482248
-0.06389726 -0.034853041 0.64410144
0.0029068864 -0.030522317 0.64425027
-0.06389726 -0.023235351 0.64410138
-0.065618269 -0.018956393 0.64482248
-0.06389726 -0.018878728 0.64410144
-0.065618269 -0.0058327019 0.64482248
-0.065618269 0.0043745339 0.64482248
-0.06389726 0.0043566227 0.64410138
-0.06389726 0.015974313 0.64410138
-0.067353494 -0.049783021 0.64554948
-0.067353494 -0.026355684 0.64554948
-0.069103323 -0.035286844 0.64628303
-0.069103114 -0.0323461 0.64628249
0.032455195 0.045732349 0.64688087
-0.070867524 -0.054627031 0.64702219
-0.070867524 -0.045768589 0.64702219
-0.070867524 -0.03986299 0.64702213
-0.070867524 -0.036910146 0.64702219
-0.072646476 -0.029651612 0.64776748
-0.070867524 -0.019193292 0.64702219
0.0088625662 -0.01772514 0.64710522
-0.072646476 -0.011860639 0.64776748
-0.072646476 -0.010378063 0.64776754
0.013425873 -0.007458806 0.64887595
0.019340482 0.0089263916 0.64838898
-0.0060346634 -0.061855286 0.65091622
0.013555618 -0.0090370774 0.65061611
0.027140822 0.027140826 0.65081453
-0.0046007899 -0.061343849 0.6539256
0.035154752 0.045854062 0.65330648
0 -0.053209096 0.65771312
0.0046966933 -0.040704668 0.65778446
0.038056556 0.045985013 0.66021383
0.0095896935 -0.031965643 0.66173387
0.014390089 -0.019186765 0.66180825
0.022475837 0.0016054511 0.66259509
0 -0.061957896 0.66561937
0.011383993 -0.030899376 0.66511405
0.03925468 0.042525917 0.66623986
0.0082731545 -0.043020397 0.66853571
0.0050519481 -0.055571437 0.67207885
0.0050519481 -0.055571437 0.67207885
0.018611023 -0.020302922 0.67303586
0.037413463 0.028910428 0.67408615
0.042532749 0.042532772 0.67417037
0.01550346 -0.032729536 0.67674112
0.034632534 0.017316252 0.67782998
0.033390943 0.010544509 0.68094325
0.045566797 0.043814212 0.68035793
0.0088360533 -0.056550741 0.68212533
0.042852793 0.032139599 0.68433702
0.039572548 0.021585047 0.6859327
0.043349411 0.030705869 0.68683481
0.043349411 0.030705869 0.68683481
0.034968253 0.0036809146 0.69096416
0.034968253 0.0036809146 0.69096416
0.01481603 -0.05185613 0.69236076
0.025951242 -0.022243917 0.69256067
0.025951242 -0.022243917 0.69256067
0.013013651 -0.05763188 0.6932165
0.0149942 -0.054353952 0.69504917
0.024482196 -0.030131936 0.696132
0.05416305 0.042556703 0.70230621
0.025403038 -0.037127495 0.70468241
0.011760759 -0.074484795 0.70541227
0.020294655 -0.060883939 0.71378225
0.042120744 -0.012636244 0.72302532
0.031850602 -0.042467475 0.72511798
0.038240314 -0.025493562 0.72524941
0.038240314 -0.025493562 0.72524941
0.038768761 -0.02799964 0.72879326
0.042274315 -0.044622868 0.75230193
0.042921077 -0.047690064 0.75663924
0.054734312 -0.029855043 0.76912302
0.013036717 0.040887922 0.6118651
0.013036717 0.045035958 0.6118651
0.017075667 0.04533226 0.6109398
0.0091877133 0.02317084 0.61347765
0.016709683 0.041175157 0.6128782
0.0091877133 0.047141135 0.61347765
0.0036531808 0.015221596 0.6157968
0.0036531808 0.01704815 0.6157968
0.0066394648 0.018714122 0.6145457
0.010833388 0.024074197 0.61410475
0.0048542335 0.050969452 0.61529362
0.0048542335 0.050969452 0.61529362
0 -0.0086181462 0.617419
-0.0012346946 -0.0067908168 0.61784494
0.00061307679 0.00061413646 0.61707085
-0.0012346946 0.0092601925 0.61784494
-0.0012346946 0.020989805 0.61784494
0.014733512 0.031306297 0.61701185
0.019600935 0.044712216 0.61668181
0.0024438482 0.054986596 0.61630338
-0.0062607094 -0.018782139 0.61995101
-0.0049909391 -0.016844422 0.6194191
-0.003104043 -0.013032414 0.61862814
-0.004990926 0.01310119 0.61941862
-0.004990926 0.031193286 0.61941862
-0.004990926 0.049285382 0.61941862
-0.004990926 0.049285382 0.61941862
-0.003104043 0.057094395 0.61862814
-0.010124414 -0.031006023 0.62156975
-0.0088273501 -0.029004157 0.62102628
-0.010124414 -0.020881563 0.62156975
-0.010124414 -0.020881563 0.62156975
-0.0088273501 -0.0088273585 0.62102634
-0.010124414 0.039232105 0.62156975
-0.0088273501 0.058638826 0.62102634
-0.012746559 -0.042700976 0.62266868
-0.012746559 -0.042700976 0.62266868
-0.011430804 -0.033022314 0.62211746
-0.014739238 -0.028835379 0.62350357
0 -0.015381545 0.62353051
0 -0.01398474 0.62226844
-0.011430772 0.013335913 0.62211704
-0.011430772 0.013335913 0.62211704
-0.012746559 0.014658526 0.62266874
-0.012746543 0.028679714 0.6226685
0.019256705 0.035945833 0.62377012
-0.012746525 0.045250162 0.62266827
-0.012746525 0.047162145 0.62266827
-0.012746525 0.050986111 0.62266827
-0.018787775 -0.062837914 0.62520015
-0.018787775 -0.057007581 0.62520015
-0.0038760761 -0.027132541 0.6247654
-0.018787723 0.0032390654 0.62519974
-0.018787723 0.0032390654 0.62519974
-0.018787723 0.0032390654 0.62519974
-0.018560342 0.021148443 0.62510443
-0.016751217 0.041233778 0.62434649
-0.02084423 -0.061229944 0.62606168
-0.025028452 -0.05269146 0.62781471
-0.025028452 -0.040835887 0.62781477
-0.0026205338 -0.026205331 0.62696731
-0.025028452 -0.011196941 0.62781471
-0.025028452 -0.011196941 0.62781471
-0.025028452 -0.0032932013 0.62781471
-0.025028452 -0.0032932013 0.62781471
0.010463798 0.0091558397 0.62669063
0.010463798 0.0091558397 0.62669063
-0.02084423 0.020844221 0.62606168
-0.02084423 0.031266332 0.62606168
-0.02084423 0.031266332 0.62606168
-0.022926033 0.045194663 0.62693393
-0.0039749411 -0.031799555 0.62874341
-0.02930709 -0.00066608191 0.62960768
-0.027157109 0.0052987188 0.62870675
-0.02930709 0.023312479 0.62960768
0.017278932 0.024586409 0.62924659
-0.02930709 0.029307097 0.62960768
-0.027157072 0.045038924 0.62870651
-0.02930701 0.065274745 0.62960726
-0.032948397 -0.061187498 0.6311335
-0.032948397 -0.053118818 0.6311335
-0.030754801 -0.048806518 0.63021421
-0.030754801 -0.026743323 0.63021427
-0.030754801 -0.012703061 0.63021421
0.026869971 0.04836598 0.63097876
-0.030754801 0.052818015 0.63021421
-0.030754801 0.052818015 0.63021421
-0.030754801 0.060841024 0.63021421
-0.0351643 -0.05274643 0.63206202
-0.0351643 -0.045307845 0.63206208
-0.036656622 -0.038693085 0.63268727
-0.0351643 -0.035164297 0.63206208
-0.0013639223 -0.030006289 0.63344407
-0.036656622 -0.027153045 0.63268733
-0.0351643 -0.022992045 0.63206208
-0.038918115 -0.010924011 0.63363481
0.009500348 -0 0.63263172
-0.035164252 0.0087910891 0.63206184
-0.038918115 0.010924011 0.63363481
-0.0351642 0.020963296 0.6320616
0.023232475 0.035532057 0.63376927
-0.036656518 0.040729463 0.63268685
-0.038665548 0.055039279 0.63352901
-0.012445929 -0.062229678 0.63573265
-0.042742107 -0.060666203 0.63523734
-0.0082270345 -0.049362183 0.63431931
-0.041202959 -0.045323253 0.634592
-0.04274198 -0.015166521 0.6352368
-0.04274198 -0.0048256814 0.6352368
-0.041202959 0.030902222 0.63459206
-0.044293024 0.0387564 0.63588661
-0.04274198 0.066870511 0.63523686
-0.045856357 -0.050719902 0.63654208
-0.045856357 -0.04724595 0.63654208
-0.047431864 -0.030691206 0.63720208
-0.047431864 -0.030691206 0.63720208
0.0013926661 -0.026460648 0.63691384
-0.045856357 -0.025012583 0.63654208
0.0027898608 -0.023019478 0.63718712
0.0027898608 -0.023019478 0.63718712
0.0055725365 -0.015324503 0.63697028
-0.047431864 -0.0090678334 0.63720214
-0.045856357 -0.0048635453 0.63654208
-0.045856357 0.0048635453 0.63654208
-0.045856357 0.022928193 0.63654208
0.022320151 0.029295176 0.63719666
-0.045856357 0.038908452 0.63654208
0.026514104 0.040468901 0.6372534
-0.049019821 0.051120698 0.63786745
-0.049019821 0.060924664 0.63786745
-0.0098870676 -0.059322372 0.63930047
-0.050620526 -0.056948081 0.63853848
-0.0070852106 -0.05243054 0.63985622
0.0070718299 -0.014143676 0.63953316
-0.052775797 0.032983474 0.63944119
-0.052775797 0.032983474 0.63944119
-0.058817629 -0.055231176 0.64197278
-0.0057033994 -0.049904704 0.64091939
-0.057151776 -0.047150195 0.64127487
-0.0028610749 -0.042916149 0.64148527
-0.058817629 -0.037298977 0.64197278
-0.057151776 -0.0014287829 0.64127481
-0.057151776 -0.0014287829 0.64127481
-0.0554993 0.021345884 0.64058256
0.021369051 0.02279368 0.640769
-0.0554993 0.03130731 0.6405825
-0.0554993 0.032730341 0.64058256
-0.0554993 0.041268736 0.6405825
-0.0554993 0.041268736 0.6405825
-0.062190291 -0.052789412 0.64338624
-0.062190291 -0.05061999 0.64338624
-0.062190291 -0.031095132 0.64338624
-0.062190291 -0.015185997 0.64338624
0.0086175287 -0.01292628 0.64217544
-0.062190291 -0.010847136 0.64338624
0.015856635 0.0057660341 0.64281005
-0.060497012 0.028808087 0.64267641
-0.067353494 -0.043194085 0.64554942
-0.067353494 -0.03660515 0.64554948
0.0043881186 -0.02779144 0.6453684
-0.067353494 -0.023427308 0.64554948
-0.06389726 -0.015248209 0.64410144
-0.06389726 -0.0029044151 0.64410138
-0.06389726 0.018878728 0.64410144
-0.070867524 -0.053150654 0.64702219
-0.070867524 -0.0450304 0.64702219
-0.072646476 -0.042994857 0.64776754
-0.070867524 -0.026575297 0.64702213
-0.072646476 -0.014825791 0.64776748
0.022180056 0.017744035 0.64729542
-0.0074940673 -0.064448953 0.64972693
-0.001494741 -0.047831684 0.64923531
0.010506857 -0.016510755 0.64998841
0.019340482 0.0089263916 0.64838898
0.020964107 0.011979491 0.64956063
0.0030195296 -0.037744105 0.65104884
0.012086922 -0.013597757 0.6511817
0.0259648 0.021382779 0.65317053
-0.0015390257 -0.05386588 0.65458095
0.020108318 0.0030936003 0.65551865
0.032301128 0.036915541 0.65447515
0.010927851 -0.023416847 0.6572482
0 -0.055329829 0.65962982
0.0063052895 -0.037831753 0.65908307
0.0078561129 -0.032995671 0.65846747
0.01577522 -0.012620181 0.65922785
0.0285205 0.020598173 0.66006684
0.030314356 0.023932397 0.6613971
0.035114348 0.036710471 0.66147125
0.035114348 0.036710471 0.66147125
-0.0048388708 -0.072583079 0.66350526
0 -0.059702635 0.66358101
-0.0016189637 -0.064758539 0.66423029
-0.001671043 -0.07185486 0.67051685
0.031949792 0.016815662 0.67178732
0.020232452 -0.015174299 0.67232686
0.037413463 0.028910428 0.67408615
0.039406065 0.032552838 0.67561859
0.039406065 0.032552838 0.67561859
0.041428789 0.036250234 0.67717481
0.012144394 -0.04337284 0.67822671
0.020911165 -0.020911157 0.67915422
0.022572771 -0.015627295 0.67840213
0.027793512 -0.0017370582 0.67848998
0.0070148031 -0.059625804 0.68049449
0.017551858 -0.031593323 0.68067378
0.035021637 0.015759736 0.6801784
0.035021637 0.015759736 0.6801784
0.047683656 0.047683656 0.68198657
0.043857679 0.029238462 0.68939126
0.049947727 0.04254806 0.69210869
0.013170754 -0.060209155 0.69592565
0.038480755 0.0019240379 0.701056
0.044273421 0.017324388 0.70116383
0.028308086 -0.038418114 0.71288186
0.032503273 -0.028440356 0.7140224
0.043451227 -0.0041382313 0.71856731
0.063865066 0.04257673 0.72577733
0.052742213 -0.0091725588 0.74561059
0.035208646 -0.063375562 0.75214142
0.070617586 0.030600965 0.75294733
0.070617586 0.030600965 0.75294733
0.070617586 0.030600965 0.75294733
0.071700476 0.028680205 0.75730455
0.060308885 -0.004824698 0.76000118
0.060053837 -0.017515719 0.77085161
0.013755905 0.038164351 0.61165142
0.0085341828 0.015849203 0.61597085
0.0036531808 0.022223525 0.6157968
0.005796208 0.050024707 0.61489886
-0.0021693688 -0.0058802087 0.61823654
-0.0056258212 -0.0021873936 0.61968493
-0.0021693688 0.013926808 0.61823654
0.001528462 0.022051053 0.61668706
0.0015284617 0.033996589 0.61668706
0.0015284617 0.033996589 0.61668706
-0.010151568 -0.037966006 0.62198585
-0.010151568 -0.037966006 0.62198585
-0.0075394809 0.0018848851 0.62048674
0.014923751 0.026189521 0.62209606
-0.0075394809 0.038011551 0.62048674
0.020728027 0.04187597 0.62197357
-0.013742872 0.054000221 0.6230858
-0.010127513 0.057899501 0.62157106
-0.015750758 -0.06169048 0.62724453
-0.017769491 -0.046029679 0.62477326
0.0074826893 0.0021114647 0.62583911
-0.025028452 0.045775734 0.62781471
-0.025028452 0.049727589 0.62781477
-0.027157148 -0.053980645 0.62870693
-0.012019318 -0.05475466 0.63001078
-0.027157148 -0.03411046 0.62870693
-0.027157119 -0.0182143 0.62870681
0.0040289671 -0.01276128 0.63091719
-0.027157109 0.010266252 0.62870675
-0.032948349 0.046058677 0.6311332
-0.0086894222 -0.050780274 0.63448119
-0.03778737 -0.026210351 0.63316107
0.00046011072 -0.026043167 0.63427901
0.00046011072 -0.026043167 0.63427901
-0.044293154 0.0017302036 0.63588715
-0.0351643 0.0016905963 0.63206208
-0.04197247 0.025801916 0.63491446
0.020615261 0.02748701 0.63470292
-0.038918063 0.068275005 0.63363451
-0.049820095 -0.022102654 0.63820273
-0.049820095 -0.022102654 0.63820273
0.011116922 -0 0.63654554
-0.053182386 0.025941357 0.63961166
-0.052504707 0.053915497 0.63932741
0.00048143079 -0.034410708 0.64189184
0.00215553 -0.030141488 0.6420871
-0.0554993 0.013874844 0.64058256
-0.057984702 0.021833204 0.64162385
0.021517828 0.021867357 0.64196622
0.031415045 0.049261257 0.64117372
-0.06389726 -0.041751049 0.64410144
-0.069985375 -0.037938599 0.64665246
-0.066485882 -0.037990313 0.64518595
-0.066485882 -0.025936197 0.64518595
0.010021093 -0.018027872 0.65018344
0.014534133 -0.0060092909 0.65024906
0.019340482 0.0089263916 0.64838898
-0.007678872 -0.069881521 0.65418851
0.0010246072 -0.045926929 0.65361345
0.0010246072 -0.045926929 0.65361345
0.016788382 -0.0030524433 0.65303475
0.027541138 0.025242284 0.65349913
0.030709352 0.033008784 0.65415144
-0.0015700324 -0.058091193 0.65832388
-0.001594167 -0.061379507 0.66123712
0.0016000289 -0.053605065 0.66194475
0.016101157 -0.016101152 0.66316223
0.032638907 0.025290877 0.66579735
0 -0.069015265 0.6719963
0.019803911 -0.011552274 0.66801608
0.023441767 -0.005023241 0.67092353
0.0016957421 -0.066133976 0.67349827
0.018503882 -0.029946417 0.6814906
0.018503882 -0.029946417 0.6814906
0.02875497 -0.0071887374 0.68574363
0.03582681 0.012539387 0.68503803
0.043349411 0.030705869 0.68683481
0.046615317 0.041236609 0.6852259
0.013170754 -0.060209155 0.69592565
0.02050375 -0.038217112 0.69380605
0.052218538 0.046623707 0.69392323
0.0094811423 -0.072056681 0.69769913
0.032294847 -0.011398166 0.69811779
0.021266885 -0.04543978 0.7021805
0.036701966 -0.0038633943 0.7019788
0.020033788 -0.058097988 0.71063334
0.053777751 0.033860058 0.70923185
0.037225325 -0.020680726 0.71844274
0.023131153 -0.06308493 0.72263837
0.034291234 -0.038577646 0.72751147
0.043290876 -0.017316341 0.7300877
0.047858249 -0.0065261424 0.73139513
0.041646548 -0.04164651 0.74809206
0.046521533 -0.030238986 0.7495864
0.069566913 0.032464564 0.74871975
0.069566913 0.032464564 0.74871975
0.036874667 -0.073749304 0.76554853
0.039135091 -0.066040426 0.76405561
