# .PCD v0.7 - Point Cloud Data file format
VERSION 0.7
FIELDS x y z
SIZE 4 4 4
TYPE F F F
COUNT 1 1 1
WIDTH 1359
HEIGHT 1
VIEWPOINT 0 0 0 1 0 0 0
POINTS 1359
DATA ascii
0.049543139 -0.047478825 0.71798688
0.050069816 -0.050069839 0.72063589
0.050607592 -0.052716285 0.72334069
0.051157042 -0.05542013 0.72610414
0.051718555 -0.058183372 0.72892839
0.052292529 -0.061007917 0.73181522
0.052879386 -0.063895941 0.7347669
0.053479567 -0.06684947 0.73778558
0.054093529 -0.0698708 0.74087358
0.05472175 -0.072962314 0.74403334
0.048282981 0.073390156 0.70193493
0.047505025 0.070307463 0.69817865
0.046751738 0.067322522 0.69454145
0.046022154 0.064431041 0.69101876
0.045314807 0.061628133 0.68760335
0.044629052 0.05891037 0.68429232
0.043963574 0.056273371 0.68107903
0.043317813 0.053714067 0.67796099
0.042690594 0.051228702 0.67493254
0.042081427 0.048814476 0.67199123
0.041489251 0.04646799 0.66913193
0.040913519 0.044186622 0.66635203
0.040353678 0.041967839 0.6636489
0.039808817 0.03980884 0.66101807
0.039278608 0.037707478 0.65845799
0.038762208 0.035661221 0.65596461
0.038259331 0.03366822 0.6535365
0.037769217 0.031726152 0.65117002
0.037291504 0.029833198 0.64886343
0.036825836 0.027987659 0.64661497
0.036371544 0.026187509 0.64442146
0.036414482 0.024761885 0.64462876
0.036686774 0.023479581 0.64594352
0.03696306 0.022177875 0.64727753
0.037243538 0.020856351 0.64863181
0.037528303 0.019514769 0.65000677
0.03781746 0.018152416 0.65140295
0.038111102 0.016768903 0.65282083
0.038409341 0.015363753 0.65426081
0.038712289 0.01393643 0.65572357
0.03902005 0.012486428 0.65720963
0.039332747 0.01101318 0.65871942
0.039650492 0.00951612 0.66025364
0.039973415 0.0079947114 0.66181284
0.04030164 0.0064482689 0.66339767
0.04063544 0.0048762858 0.66500938
0.040974677 0.0032779872 0.66664737
0.04131962 0.001652807 0.66831285
0.041670423 2.9802322e-08 0.67000675
0.042027235 -0.0016810894 0.67172956
0.042390205 -0.0033912063 0.67348212
0.042759508 -0.0051311255 0.67526531
0.043135297 -0.0069016516 0.6770798
0.04351775 -0.0087035596 0.67892641
0.043907046 -0.010537684 0.68080604
0.044303365 -0.012404919 0.68271971
0.044707078 -0.014306277 0.68466896
0.045118045 -0.016242504 0.68665326
0.045536634 -0.018214613 0.68867445
0.045963064 -0.020223767 0.69073343
0.046397559 -0.022270828 0.69283134
0.046840344 -0.024356991 0.6949693
0.047291659 -0.026483327 0.69714844
0.047751766 -0.028651059 0.69937003
0.048220903 -0.030861378 0.70163524
0.048699353 -0.033115566 0.7039454
0.049187392 -0.035414904 0.70630187
0.049685314 -0.037760854 0.70870608
0.050193634 -0.040154904 0.71116042
0.050712243 -0.042598277 0.71366453
0.051241681 -0.045092642 0.7162208
0.051782288 -0.047639698 0.71883112
0.052334424 -0.050241023 0.72149706
0.052898467 -0.052898467 0.72422051
0.053474795 -0.055613816 0.72700328
0.054063823 -0.058388889 0.72984731
0.054665972 -0.061225891 0.73275477
0.05528168 -0.06412676 0.73572773
0.055911418 -0.06709367 0.73876834
0.05655567 -0.070129037 0.74187905
0.057214938 -0.073235124 0.74506229
0.050434232 0.073711604 0.70295608
0.049618311 0.070610702 0.69916797
0.048828177 0.067608237 0.6954996
0.048063003 0.064700216 0.6919471
0.047321253 0.061881661 0.68850338
0.046602052 0.059148788 0.68516433
0.045904562 0.056497931 0.68192607
0.045227468 0.053925067 0.67878252
0.044570226 0.051427186 0.67573112
0.043931652 0.04900071 0.67276645
0.043311272 0.046642929 0.66988611
0.042708017 0.044350654 0.66708541
0.04212134 0.042121351 0.66436166
0.041550703 0.039952606 0.66171229
0.040995181 0.037841707 0.6591332
0.040454455 0.035786659 0.65662277
0.039927673 0.033784926 0.65417707
0.039414562 0.031834871 0.65179485
0.038914349 0.029934138 0.64947253
0.038426794 0.028081089 0.64720893
0.03795119 0.026273906 0.64500082
0.037961505 0.024820983 0.64504874
0.038245935 0.023535967 0.64636922
0.03853466 0.022231549 0.64770973
0.038827773 0.020907253 0.64907056
0.039125383 0.019562721 0.65045226
0.039427593 0.018197358 0.65185529
0.039734501 0.016810745 0.65328026
0.04004623 0.015402406 0.65472752
0.040362887 0.013971776 0.65619767
0.040684726 0.012518376 0.65769184
0.041011602 0.011041582 0.65920943
0.041343775 0.0095408857 0.66075164
0.041681372 0.0080156326 0.662319
0.042024523 0.0064653456 0.66391218
0.042373378 0.0048892498 0.66553175
0.04272807 0.0032867789 0.66717851
0.043088753 0.0016572475 0.66885304
0.043455567 -0 0.67055607
0.043828692 -0.0016857386 0.67228842
0.044208273 -0.0034006238 0.67405069
0.044594489 -0.00514552 0.67584378
0.044987675 -0.0069211721 0.67766923
0.045387693 -0.0087284148 0.67952645
0.045794886 -0.010568023 0.68141687
0.046209451 -0.012441009 0.68334162
0.04663159 -0.014348179 0.68530142
0.047061514 -0.016290545 0.68729752
0.047499444 -0.018269032 0.68933064
0.047945596 -0.020284653 0.69140202
0.048400201 -0.022338539 0.69351268
0.048863519 -0.024431765 0.69566369
0.049335793 -0.026565433 0.69785631
0.049817283 -0.028740734 0.70009172
0.05030847 -0.0309591 0.70237219
0.050809227 -0.033221424 0.70469707
0.051320057 -0.035529256 0.70706874
0.051841263 -0.037883937 0.70948845
0.052373163 -0.040287018 0.71195793
0.052916087 -0.042739898 0.71447861
0.053470392 -0.045244187 0.7170521
0.054036431 -0.047801465 0.71968007
0.054614577 -0.05041346 0.72236425
0.055205233 -0.05308193 0.72510648
0.055808801 -0.055808812 0.72790873
0.056425717 -0.058595896 0.73077279
0.057056691 -0.061445653 0.7337023
0.057701662 -0.064359546 0.73669672
0.058361378 -0.067340046 0.73975956
0.059036359 -0.070389509 0.74289334
0.059727132 -0.073510319 0.74610037
0.052604627 0.074036181 0.70398706
0.051749699 0.070916265 0.70016491
0.050922319 0.067896426 0.69646585
0.050120782 0.064971387 0.69288242
0.049344275 0.062137246 0.68941081
0.048591275 0.059389353 0.68604434
0.047861096 0.056724221 0.68277991
0.047152359 0.054137945 0.67961127
0.046464309 0.05162701 0.67653513
0.045796212 0.049188524 0.67354828
0.045146897 0.046819001 0.67064536
0.044515893 0.044515908 0.66782427
0.043902129 0.042276144 0.66508031
0.043305214 0.040097445 0.66241157
0.042724162 0.03797704 0.65981388
0.042158503 0.035912812 0.65728492
0.04160776 0.033902615 0.65482271
0.041071091 0.031944215 0.65242332
0.040548217 0.030035704 0.65008569
0.040038362 0.028175145 0.64780629
0.039541293 0.026360869 0.64558399
0.039515819 0.02488032 0.64547008
0.039812606 0.023592681 0.64679694
0.040113885 0.022285521 0.64814389
0.040419761 0.020958453 0.6495114
0.040730335 0.019610912 0.65089989
0.041045856 0.018242598 0.65231049
0.04136616 0.016852885 0.65374255
0.041691512 0.015441328 0.65519714
0.042022016 0.01400736 0.65667474
0.042357806 0.012550443 0.65817595
0.042699002 0.011070102 0.65970135
0.043045741 0.009565711 0.66125154
0.043398157 0.0080367029 0.66282713
0.043756392 0.0064824522 0.66442871
0.044120587 0.0049023032 0.66605693
0.0444909 0.0032956302 0.66771257
0.044867482 0.0016617775 0.66939616
0.045250654 -0 0.6711092
0.04564026 -0.0016903579 0.67285103
0.046036635 -0.0034101605 0.67462313
0.046439953 -0.0051600039 0.67642629
0.046850406 -0.0069407821 0.67826134
0.047268178 -0.0087533593 0.68012905
0.047693461 -0.01059854 0.68203044
0.048126474 -0.012477219 0.68396634
0.048567418 -0.014390379 0.6859377
0.049016513 -0.016338855 0.68794549
0.049474001 -0.01832372 0.68999076
0.049940102 -0.020345956 0.69207466
0.05041527 -0.022406816 0.69419897
0.050899364 -0.024507105 0.69636327
0.051392842 -0.026648134 0.69856948
0.051895984 -0.028831124 0.7008189
0.052409079 -0.031057209 0.70311284
0.052932415 -0.033327788 0.7054525
0.053466313 -0.035644233 0.70783949
0.054011088 -0.038007796 0.71027505
0.05456708 -0.040420055 0.71276081
0.055134635 -0.042882472 0.71529818
0.055714127 -0.045396686 0.71788889
0.056306176 -0.047964513 0.72053587
0.056910686 -0.050587267 0.72323847
0.057528317 -0.053266943 0.72599971
0.058159504 -0.056005478 0.72882169
0.058804691 -0.058804691 0.73170614
0.059464358 -0.061666757 0.73465538
0.060138993 -0.064593732 0.73767155
0.060829107 -0.067587912 0.74075687
0.061535247 -0.070651591 0.74391383
0.054793991 0.074363291 0.70502621
0.053899828 0.071224779 0.70117146
0.053034171 0.06818679 0.69743949
0.052196085 0.065245092 0.69382644
0.051383872 0.062394708 0.69032496
0.050596748 0.059631854 0.68693149
0.049833182 0.056952238 0.68363971
0.049092505 0.054352432 0.68044657
0.048373345 0.051828593 0.67734623
0.047674954 0.04937765 0.67433536
0.046996605 0.046996593 0.67141098
0.046337131 0.044682235 0.6685679
0.045696061 0.04243207 0.66580421
0.045072336 0.040243149 0.66311526
0.04446556 0.038113356 0.66049945
0.043874756 0.036040008 0.65795237
0.043299448 0.03402099 0.65547216
0.042739172 0.032054424 0.65305674
0.042193074 0.030137926 0.65070248
0.041660883 0.028269917 0.64840817
0.041141827 0.026448309 0.6461705
0.041077711 0.024940073 0.64589405
0.041386973 0.023649722 0.64722729
0.041700929 0.022339761 0.64858085
0.042019688 0.021009833 0.64995503
0.042343356 0.01965943 0.65135038
0.042672046 0.018288016 0.65276736
0.04300588 0.016895175 0.65420657
0.043344978 0.01548034 0.6556685
0.043689467 0.014043063 0.65715361
0.04403948 0.01258269 0.65866256
0.044395141 0.011098772 0.66019583
0.044756599 0.0095906854 0.66175407
0.045123983 0.0080578625 0.66333795
0.045497607 0.0064996481 0.6649487
0.045877315 0.004915446 0.66658562
0.046263415 0.0033045411 0.66825014
0.046656065 0.0016662776 0.66994286
0.047055434 2.9802322e-08 0.6716646
0.047461703 -0.0016950965 0.67341608
0.04787505 -0.0034196675 0.67519808
0.048295658 -0.0051745176 0.67701137
0.048723724 -0.0069605708 0.67885673
0.049159441 -0.0087784529 0.68073523
0.04960303 -0.010629237 0.68264753
0.050054882 -0.012513697 0.68459553
0.050514843 -0.014432788 0.68657845
0.050983343 -0.016387492 0.68859822
0.051460613 -0.018378764 0.69065571
0.051946901 -0.020407706 0.69275212
0.052442472 -0.022475332 0.69488865
0.052947585 -0.024582803 0.69706619
0.053462524 -0.026731253 0.69928616
0.053987581 -0.028921932 0.70154977
0.054523047 -0.031156003 0.7038582
0.055069245 -0.033434868 0.70621288
0.055626497 -0.035759866 0.70861524
0.056195144 -0.038132399 0.71106678
0.056775779 -0.040554136 0.71356988
0.05736829 -0.043026209 0.7161243
0.057973292 -0.045550406 0.7187326
0.058591198 -0.048128486 0.72139639
0.059222415 -0.050762057 0.72411764
0.059867386 -0.053453028 0.72689813
0.060526554 -0.056203216 0.72973984
0.061200399 -0.059014678 0.73264492
0.061889417 -0.06188941 0.73561531
0.062594131 -0.064829618 0.73865342
0.063315071 -0.067837566 0.74176151
0.064053126 -0.070915967 0.74494326
0.057003029 0.07469365 0.70607567
0.056068525 0.071535736 0.70218581
0.055164393 0.068479955 0.69842243
0.054288737 0.065520912 0.69477755
0.053440657 0.062654555 0.69124746
0.052618463 0.059876204 0.6878252
0.051821381 0.057182252 0.68450737
0.051047899 0.05456847 0.68128777
0.05029735 0.052031755 0.67816371
0.049568377 0.049568385 0.67512935
0.048860226 0.047175378 0.67218173
0.048172195 0.044849992 0.66931784
0.04750311 0.042589009 0.66653281
0.046852514 0.040390104 0.6638248
0.046219341 0.038250506 0.66118926
0.045603212 0.036168128 0.65862465
0.045003138 0.034140319 0.65612686
0.044418801 0.032165349 0.65369457
0.043849304 0.030240923 0.65132409
0.043294217 0.028365165 0.64901358
0.042753153 0.026536435 0.64676142
0.042646982 0.024999946 0.64631951
0.042968836 0.023706973 0.64765924
0.043295588 0.0223943 0.64901924
0.043627348 0.02106148 0.65040022
0.04396423 0.019708097 0.65180248
0.044306356 0.018333703 0.65322649
0.044653852 0.016937673 0.65467292
0.045006838 0.015519619 0.65614223
0.045365598 0.014078975 0.65763557
0.045729972 0.012615174 0.65915227
0.046100248 0.011127651 0.66069353
0.046476569 0.0096158385 0.66225988
0.046859082 0.0080791414 0.66385216
0.047247946 0.0065169334 0.66547072
0.047643319 0.0049286187 0.6671164
0.048045363 0.0033135116 0.66878992
0.048454251 0.0016708374 0.67049193
0.048870157 -0 0.67222309
0.049293265 -0.0016997755 0.67398423
0.049723767 -0.0034292042 0.67577618
0.050162036 -0.0051891804 0.67760038
0.050607909 -0.0069803894 0.67945635
0.051061783 -0.0088037252 0.68134558
0.051523872 -0.010660082 0.68326902
0.051994398 -0.012550354 0.68522757
0.052473605 -0.014475495 0.68722224
0.052961715 -0.016436428 0.68925393
0.053459004 -0.018434137 0.69132382
0.053965714 -0.020469755 0.69343299
0.054482121 -0.022544324 0.69558251
0.055008505 -0.024658978 0.69777358
0.055545162 -0.026814938 0.70000738
0.05609262 -0.029013395 0.70228612
0.056650747 -0.031255573 0.70460927
0.05722009 -0.033542812 0.70697916
0.057800993 -0.035876483 0.70939714
0.058393817 -0.038258016 0.71186471
0.058998924 -0.040688902 0.71438342
0.0596167 -0.043170691 0.71695495
0.060247552 -0.04570505 0.71958077
0.0608919 -0.048293591 0.72226286
0.061550178 -0.05093807 0.72500288
0.062222842 -0.053640366 0.72780275
0.062910378 -0.056402385 0.73066461
0.063613571 -0.059226394 0.73359162
0.064332351 -0.062113971 0.73658347
0.065067567 -0.06506753 0.73964375
0.065819785 -0.068089426 0.74277484
0.066589594 -0.071181953 0.74597907
0.05923178 0.075026929 0.70713437
0.058256477 0.071849644 0.70321012
0.057313003 0.068775594 0.6994139
0.056399375 0.065799266 0.69573772
0.055514641 0.062916607 0.69217777
0.054657023 0.060122758 0.68872696
0.053825501 0.057413846 0.68538117
0.053019091 0.054786384 0.68213648
0.052236304 0.052236319 0.67898679
0.051476482 0.04976064 0.67592949
0.050738264 0.047355711 0.67295915
0.050021093 0.045019001 0.67007345
0.049323745 0.042747259 0.66726756
0.048645575 0.040537983 0.6645388
0.04798596 0.038388759 0.66188473
0.047343835 0.036296934 0.65930104
0.046718825 0.034260482 0.65678614
0.046109948 0.032276988 0.65433621
0.045516893 0.030344605 0.65194994
0.044938751 0.028461218 0.64962369
0.044375252 0.026625156 0.64735633
0.044223811 0.025060177 0.64674699
0.044558376 0.023764461 0.64809316
0.044898048 0.022449017 0.6494599
0.045243073 0.021113455 0.65084815
0.045593303 0.019757122 0.65225744
0.045948993 0.018379599 0.65368861
0.04631028 0.016980439 0.65514231
0.046677295 0.015559107 0.65661901
0.047050171 0.014115036 0.65811938
0.047429051 0.012647778 0.65964389
0.047814082 0.011156619 0.66119313
0.04820542 0.0096411109 0.66276777
0.048603214 0.0081005692 0.66436833
0.049007628 0.006534338 0.6659956
0.049418826 0.0049418807 0.6676501
0.049837157 0.0033224523 0.66933334
0.050262459 0.001675427 0.67104465
0.05069508 -0 0.6727854
0.051135208 -0.0017044842 0.67455631
0.051583052 -0.0034388602 0.67635834
0.052038811 -0.0052038729 0.67819208
0.052502692 -0.0070003271 0.68005866
0.052974913 -0.0088291466 0.68195873
0.05345571 -0.010691136 0.68389332
0.053945314 -0.012587219 0.68586332
0.05444397 -0.01451841 0.68786979
0.054952145 -0.016485631 0.68991446
0.055469677 -0.018489867 0.69199681
0.055997055 -0.02053225 0.69411886
0.056534547 -0.022613794 0.69628155
0.057082463 -0.024735749 0.69848627
0.057641104 -0.026899189 0.70073402
0.05821079 -0.029105365 0.70302624
0.058791846 -0.031355649 0.70536423
0.059384618 -0.033651292 0.70774943
0.059989464 -0.035993636 0.71018308
0.060606763 -0.038384289 0.71266687
0.061236892 -0.040824592 0.71520233
0.061880268 -0.043316185 0.71779108
0.062537573 -0.045860887 0.72043592
0.063208722 -0.048460037 0.72313637
0.063894421 -0.051115543 0.7258954
0.06459517 -0.053829312 0.72871506
0.065311462 -0.056603283 0.73159719
0.066043809 -0.059439391 0.73454392
0.066792771 -0.062339902 0.73755747
0.067558914 -0.065306932 0.74064016
0.068342835 -0.068342805 0.74379444
0.069145165 -0.071450025 0.74702281
0.06148025 0.075362891 0.70820165
0.060463715 0.072166383 0.7042433
0.059480008 0.069073528 0.70041293
0.058528032 0.066080034 0.696706
0.057605822 0.063180625 0.693115
0.056712437 0.06037131 0.68963629
0.055846132 0.057647616 0.68626297
0.055005893 0.055005878 0.68299121
0.054190766 0.05244267 0.67981714
0.05339925 0.049954146 0.67673504
0.052630708 0.047537446 0.67374247
0.051883794 0.045189112 0.67083406
0.051157963 0.042906672 0.66800779
0.050451979 0.040687084 0.66525871
0.049765393 0.038528055 0.66258526
0.049097076 0.036426842 0.65998286
0.048446469 0.03438139 0.65744948
0.047813039 0.032389522 0.65498292
0.047195803 0.030448884 0.65257949
0.046594448 0.028557926 0.65023792
0.046008084 0.026714385 0.64795464
0.045808397 0.025120735 0.6471771
0.046155795 0.023822367 0.64852983
0.046508502 0.022504151 0.6499033
0.046866644 0.02116558 0.65129781
0.047230341 0.019806266 0.65271401
0.047599733 0.018425703 0.65415239
0.04797494 0.017023355 0.65561342
0.048356116 0.015598714 0.6570977
0.048743393 0.014151335 0.65860564
0.049136925 0.012680501 0.66013801
0.049537029 0.011185765 0.66169608
0.049943537 0.0096665025 0.66327888
0.050356768 0.0081220567 0.66488802
0.050776899 0.0065518618 0.66652393
0.051204093 0.0049552321 0.66818738
0.05163854 0.003331542 0.66987908
0.052080423 0.0016800165 0.67159975
0.052529931 -0 0.67335004
0.052987266 -0.0017092526 0.67513084
0.053452633 -0.0034485757 0.67694294
0.053926252 -0.0052186847 0.67878717
0.054408334 -0.0070204139 0.68066436
0.054899324 -0.008854717 0.68257618
0.055399042 -0.010722399 0.68452203
0.055907942 -0.012624383 0.68650371
0.056426279 -0.014561594 0.68852204
0.056954313 -0.016535103 0.6905781
0.057492331 -0.018545926 0.69267309
0.058040604 -0.020595074 0.69480801
0.058599439 -0.02268365 0.69698405
0.05916914 -0.024812847 0.69920236
0.059750021 -0.026983857 0.70146435
0.060342424 -0.029197931 0.70377105
0.060946692 -0.031456321 0.70612395
0.061563447 -0.033760607 0.7085256
0.062192544 -0.036111802 0.71097523
0.062834628 -0.038511544 0.71347547
0.063490115 -0.040961355 0.7160278
0.064159423 -0.043462873 0.71863407
0.064842984 -0.046017587 0.72129571
0.065541275 -0.048627406 0.72401488
0.066254765 -0.051293999 0.72679305
0.066983961 -0.054019332 0.7296325
0.067729391 -0.056805283 0.73253506
0.068491593 -0.059653938 0.73550302
0.069271147 -0.062567502 0.73853856
0.070068985 -0.06554839 0.74164522
0.070885077 -0.068598449 0.74482304
0.071720399 -0.071720392 0.74807572
0.063749224 0.07570219 0.70927948
0.062690243 0.072485596 0.70528483
0.06166612 0.069374382 0.70142162
0.060674682 0.066362947 0.69768173
0.059714854 0.063447058 0.69406104
0.058784697 0.060621738 0.69055229
0.057883289 0.057883322 0.68715197
0.057008892 0.055227369 0.68385357
0.056160521 0.052650511 0.68065333
0.055337232 0.050149381 0.67754769
0.054537538 0.047720373 0.6745311
0.053760819 0.045360714 0.67160118
0.053005721 0.043067157 0.66875279
0.052271727 0.040837318 0.66598403
0.051557612 0.038668215 0.66329014
0.050862905 0.036557704 0.66066962
0.050186511 0.034503251 0.65811813
0.049527869 0.032502651 0.65563363
0.048886456 0.030554056 0.65321398
0.048261281 0.028655142 0.65085578
0.047652047 0.026804298 0.6485576
0.047400512 0.025181532 0.64760876
0.047760863 0.023880452 0.6489681
0.048126735 0.022559404 0.65034819
0.048498251 0.021218002 0.65174961
0.048875552 0.019855708 0.65317291
0.049258769 0.018472046 0.6546185
0.049648203 0.017066568 0.65608752
0.05004368 0.015638649 0.6575793
0.050445512 0.014187813 0.65909511
0.050853841 0.012713462 0.66063541
0.051268842 0.011215061 0.66220087
0.051690668 0.0096920133 0.66379207
0.052119493 0.0081436932 0.66540974
0.052555494 0.0065694153 0.66705441
0.052998852 0.0049686432 0.66872686
0.05344975 0.0033406317 0.67042774
0.053908393 0.0016846657 0.67215782
0.054374967 -2.9802322e-08 0.67391783
0.054849889 -0.0017140508 0.67570937
0.055332981 -0.0034583211 0.67753166
0.05582466 -0.0052335858 0.67938638
0.056325149 -0.0070406497 0.68127429
0.056834698 -0.0088804066 0.68319643
0.057353545 -0.010753781 0.68515366
0.057881959 -0.012661695 0.68714696
0.0584202 -0.014605045 0.68917733
0.05896854 -0.016584903 0.69124579
0.05952727 -0.018602252 0.69335341
0.0600967 -0.020658255 0.69550139
0.060677122 -0.022753894 0.69769084
0.061269108 -0.024890572 0.69992399
0.061872516 -0.027069211 0.70220017
0.062487923 -0.029291183 0.7045216
0.063115694 -0.031557828 0.70688969
0.063756205 -0.033870459 0.70930576
0.064409852 -0.036230534 0.71177155
0.065077044 -0.038639456 0.71428829
0.065758198 -0.041098893 0.71685779
0.066453762 -0.043610275 0.71948159
0.067164205 -0.04617539 0.72216153
0.067889996 -0.048795909 0.72489935
0.068631642 -0.051473737 0.72769701
0.069389999 -0.054210901 0.73055768
0.070164971 -0.057009041 0.73348105
0.070957445 -0.059870362 0.73647046
0.071768023 -0.06279701 0.73952806
0.072597347 -0.065791339 0.74265647
0.07344605 -0.068855673 0.74585795
0.07431484 -0.071992517 0.7491352
0.066038713 0.076044559 0.71036708
0.064936824 0.072807968 0.7063365
0.063871101 0.069677562 0.70243818
0.062840052 0.066648543 0.69866669
0.061841514 0.063715488 0.69501418
0.060874451 0.060874492 0.6914767
0.059936937 0.058120698 0.68804735
0.059028085 0.055450618 0.68472296
0.058146168 0.052860171 0.68149698
0.057290427 0.050346136 0.67836672
0.0564593 0.047904849 0.67532659
0.055651952 0.045533448 0.67237335
0.054867551 0.043229014 0.66950411
0.054104775 0.040988475 0.66671389
0.053363096 0.038809538 0.66400093
0.052641295 0.03668943 0.66136068
0.051938936 0.034625977 0.65879148
0.051254909 0.032616794 0.65628946
0.05058882 0.030659914 0.65385294
0.049939666 0.028753161 0.65147841
0.049306959 0.026894689 0.64916402
0.049000353 0.025242597 0.6480425
0.049373776 0.023938805 0.64940846
0.049753092 0.022615045 0.65079594
0.050138123 0.021270722 0.65220433
0.050529156 0.019905448 0.65363467
0.050926339 0.018518656 0.65508753
0.05132981 0.01710996 0.6565634
0.05173973 0.015678734 0.65806293
0.052156251 0.01422447 0.65958643
0.052579533 0.012746572 0.66113472
0.053009734 0.011244506 0.6627084
0.053447042 0.0097176433 0.66430801
0.053891622 0.0081654191 0.66593421
0.054343659 0.0065871179 0.66758776
0.054803539 0.0049821436 0.66926992
0.05527107 0.0033497512 0.6709801
0.055746648 0.001689285 0.67271972
0.056230478 -0 0.67448956
0.056722783 -0.0017188489 0.67629033
0.057223786 -0.0034680665 0.67812294
0.057733718 -0.005248487 0.67998821
0.058252815 -0.0070609748 0.68188709
0.058781337 -0.0089062452 0.68382037
0.059319533 -0.010785371 0.68578899
0.059867676 -0.012699217 0.68779409
0.06042628 -0.014648795 0.68983734
0.060995169 -0.016635031 0.69191825
0.061574865 -0.018659025 0.69403875
0.062165692 -0.020721912 0.69619995
0.062767968 -0.022824675 0.698403
0.063382022 -0.024968684 0.7006492
0.064008214 -0.027154982 0.70293975
0.0646469 -0.029384941 0.70527601
0.06529846 -0.031659842 0.7076593
0.065963291 -0.033981085 0.71009117
0.0666418 -0.036350101 0.71257311
0.067334406 -0.038768262 0.71510661
0.068041563 -0.041237295 0.71769333
0.068764031 -0.043758899 0.72033602
0.069501698 -0.046334475 0.72303438
0.070255376 -0.048965871 0.72579122
0.071025565 -0.051654994 0.72860849
0.071812831 -0.054403603 0.73148823
0.072617739 -0.057213962 0.73443252
0.073440902 -0.060088009 0.73744357
0.074282944 -0.063027948 0.7405237
0.075144514 -0.066036075 0.74367517
0.068348713 0.07638976 0.71146357
0.067203477 0.07313323 0.70739758
0.06609571 0.069983691 0.70346463
0.065024137 0.066936612 0.69966018
0.063986503 0.06398651 0.69597632
0.062981457 0.061129093 0.69240808
0.06200774 0.058360279 0.68895108
0.061063439 0.055675507 0.68559849
0.060147692 0.053071469 0.6823473
0.059258789 0.050544292 0.67919141
0.058395986 0.048090816 0.67612827
0.057557747 0.045707613 0.67315221
0.056743428 0.043392003 0.67026114
0.055951633 0.041140944 0.66744995
0.055181637 0.038951725 0.66471624
0.054432727 0.03682214 0.6620574
0.053703696 0.034749448 0.65946913
0.052994106 0.032731682 0.65694988
0.052302856 0.030766428 0.65449566
0.051629573 0.028851837 0.65210527
0.050973237 0.026985854 0.64977509
0.050608132 0.025304079 0.64847887
0.050994754 0.023997575 0.6498515
0.051387329 0.022670895 0.6512453
0.051785994 0.021323651 0.65266067
0.052190892 0.019955367 0.65409815
0.052602176 0.018565476 0.65555835
0.053019989 0.017153531 0.65704173
0.053444494 0.015718997 0.65854883
0.053875849 0.014261276 0.66008031
0.054314408 0.012779891 0.66163737
0.054759983 0.011274129 0.66321921
0.055212922 0.0097434521 0.66482735
0.055673424 0.0081872642 0.6664623
0.056141667 0.0066049099 0.66812468
0.056617856 0.0049957335 0.6698153
0.057102192 0.0033589602 0.67153484
0.057594884 0.001693964 0.67328411
0.058096152 2.9802322e-08 0.67506373
0.058606226 -0.0017237067 0.67687464
0.05912533 -0.0034779906 0.67871761
0.059653718 -0.005263567 0.68059361
0.060191635 -0.0070813894 0.68250334
0.060739566 -0.0089322627 0.68444866
0.061297335 -0.01081717 0.6864289
0.061865438 -0.012736976 0.68844587
0.062444173 -0.014692724 0.69050056
0.063033842 -0.016685426 0.69259405
0.063634746 -0.018716097 0.69472742
0.064247221 -0.020785868 0.69690192
0.064871602 -0.022895843 0.69911867
0.065508239 -0.025047272 0.70137894
0.06615749 -0.027241319 0.70368403
0.066819742 -0.029479295 0.7060352
0.067495674 -0.03176266 0.70843494
0.068185121 -0.034092546 0.71088278
0.068888806 -0.036470562 0.71338099
0.069607168 -0.03889814 0.71593142
0.070340671 -0.041376859 0.71853554
0.071089797 -0.043908387 0.72119522
0.071855046 -0.046494395 0.72391206
0.072636947 -0.049136728 0.72668809
0.073436059 -0.051837236 0.72952515
0.074252948 -0.054597735 0.73242539
0.075088218 -0.057420373 0.73539078
0.075942487 -0.060307235 0.73842382
0.07681679 -0.063260853 0.74152792
0.069490179 0.073461056 0.70846725
0.068339951 0.070292532 0.7045002
0.067226909 0.067226946 0.70066142
0.066149808 0.064259797 0.69694668
0.065106414 0.061386049 0.69334811
0.064095683 0.058601767 0.68986219
0.063115604 0.055902392 0.68648201
0.062165052 0.053284317 0.6832037
0.061242931 0.050744176 0.68002343
0.060347546 0.048278034 0.67693537
0.059478179 0.045883149 0.67393702
0.058633301 0.043556184 0.67102313
0.057812288 0.041294485 0.66819155
0.057013754 0.039095163 0.66543752
0.056237169 0.036955863 0.66275918
0.05548127 0.034873933 0.6601522
0.054745421 0.032847285 0.65761429
0.054029014 0.030873746 0.6551435
0.053330943 0.028951079 0.65273595
0.052650847 0.027077585 0.65039039
0.052223597 0.02536577 0.64891684
0.05262354 0.024056494 0.65029621
0.053029656 0.022726983 0.65169692
0.053442091 0.021376848 0.65311933
0.053860985 0.020005494 0.65456402
0.054286502 0.018612504 0.65603155
0.054718979 0.0171974 0.6575231
0.055158217 0.015759498 0.65903807
0.055604558 0.01429832 0.66057742
0.056058191 0.0128133 0.66214192
0.056519277 0.011303902 0.66373211
0.056988019 0.0097693503 0.66534877
0.057464596 0.0082092285 0.66699243
0.057949211 0.0066227615 0.6686638
0.058442075 0.0050093234 0.67036361
0.058943391 0.0033681989 0.67209256
0.059453379 0.0016986728 0.67385149
0.059972491 -2.9802322e-08 0.67564183
0.060500525 -0.0017285943 0.677463
0.061037939 -0.0034878552 0.6793164
0.061584987 -0.0052787066 0.68120313
0.062141925 -0.0071019232 0.68312395
0.062709041 -0.0089584291 0.68507981
0.063286595 -0.010849088 0.68707174
0.063874885 -0.012774944 0.68910074
0.06447421 -0.01473695 0.69116771
0.065084897 -0.01673609 0.6932739
0.065707259 -0.018773496 0.69542038
0.066341646 -0.020850211 0.69760823
0.066988662 -0.022967517 0.69983971
0.06764815 -0.025126457 0.70211422
0.068320759 -0.027328283 0.70443398
0.069006868 -0.029574364 0.70680028
0.069706902 -0.031866044 0.70921463
0.070421286 -0.034204632 0.71167839
0.071150459 -0.036591649 0.71419328
0.071894892 -0.039028645 0.71676075
0.072655074 -0.041517168 0.71938252
0.073431499 -0.044058919 0.72206032
0.074224688 -0.046655506 0.72479594
0.075035214 -0.049308836 0.72759128
0.07586398 -0.052020997 0.73044962
0.076710895 -0.054793537 0.7333706
0.077576943 -0.057628542 0.73635745
0.071797773 0.073792189 0.7095474
0.070603795 0.070603788 0.70554388
0.069449157 0.067520022 0.70167232
0.068331398 0.06453523 0.69792438
0.06724932 0.06164521 0.69429612
0.066200726 0.058845103 0.69078004
0.065184571 0.056131154 0.68737286
0.064198896 0.053499132 0.68406779
0.063242599 0.050945431 0.68086123
0.062314589 0.048466891 0.67774957
0.061413202 0.046059906 0.6747272
0.060537741 0.043721706 0.67179167
0.059686672 0.0414491 0.66893798
0.058859408 0.039239615 0.66616404
0.058054563 0.037090421 0.66346538
0.057271436 0.034999192 0.6608395
0.056509338 0.032963753 0.65828413
0.055767074 0.030981719 0.65579522
0.055044238 0.029051125 0.65337151
0.054339726 0.027169883 0.65100926
0.053846955 0.025427729 0.64935696
0.054260522 0.024115771 0.65074366
0.054680306 0.022783458 0.65215129
0.055106644 0.021430373 0.65358078
0.055539679 0.020056009 0.65503281
0.055979576 0.01865986 0.65650785
0.056426495 0.017241448 0.65800643
0.056880608 0.015800178 0.65952903
0.057342086 0.014335543 0.66107643
0.057811119 0.012846917 0.6626491
0.058287885 0.011333764 0.66424775
0.058772583 0.0097954571 0.66587293
0.059265405 0.0082312822 0.66752547
0.059766777 0.0066407621 0.66920656
0.060276486 0.0050230324 0.67091566
0.060794964 0.003377527 0.67265415
0.061322443 0.0017034411 0.67442286
0.061859149 2.9802322e-08 0.67622244
0.06240534 -0.0017334819 0.67805386
0.062961251 -0.003497839 0.67991787
0.063527167 -0.0052939057 0.68181545
0.064103343 -0.0071225762 0.68374741
0.064690068 -0.0089847445 0.68571478
0.065287635 -0.010881275 0.68771851
0.06589634 -0.012813151 0.68975943
0.066516772 -0.014781505 0.69183975
0.067148723 -0.016787201 0.69395876
0.067792796 -0.018831342 0.69611841
0.068449348 -0.020915061 0.69831991
0.069118746 -0.023039609 0.70056444
0.06980136 -0.025206029 0.7028532
0.070497587 -0.027415693 0.7051878
0.071207851 -0.029669911 0.70756936
0.071932569 -0.031970054 0.70999944
0.072672188 -0.034317434 0.71247935
0.073427178 -0.0367136 0.71501094
0.074198022 -0.039160043 0.71759558
0.074985549 -0.04165861 0.72023618
0.075789638 -0.044210613 0.72293246
0.076611161 -0.046817958 0.72568703
0.077450685 -0.049482346 0.72850198
0.078308813 -0.052205861 0.73137939
0.079186171 -0.054990381 0.73432124
0.074126273 0.074126303 0.71063745
0.072888076 0.070918113 0.70659792
0.071690574 0.067815423 0.70269108
0.070532061 0.064813226 0.69891155
0.069410123 0.061906308 0.69525123
0.068323582 0.059090704 0.69170642
0.067270279 0.056361616 0.68827009
0.066249207 0.053715587 0.68493891
0.065258428 0.051148504 0.68170649
0.064296842 0.04865706 0.67856944
0.063363418 0.046238184 0.67552418
0.062456485 0.04388833 0.67256534
0.061575361 0.041604996 0.66969067
0.060718544 0.039385021 0.66689539
0.059885446 0.037226081 0.66417748
0.059074707 0.035125524 0.6615324
0.058285818 0.033081144 0.65895867
0.057517529 0.031090558 0.65645224
0.056769233 0.029151767 0.65401095
0.056040335 0.027262866 0.65163291
0.055478446 0.025490105 0.64979982
0.055905413 0.024175316 0.65119278
0.056339003 0.022840112 0.65260732
0.05677937 0.021484047 0.65404403
0.057226676 0.020106673 0.65550333
0.057681091 0.018707365 0.65698582
0.058142778 0.017285705 0.65849209
0.058611911 0.015841067 0.66002262
0.059088681 0.014372915 0.66157806
0.059573472 0.012880772 0.66315961
0.060066078 0.011363834 0.66476679
0.060566895 0.0098216534 0.66640067
0.061076138 0.0082535446 0.66806197
0.061594017 0.0066588223 0.66975158
0.062120751 0.0050368309 0.67146999
0.062656574 0.0033868551 0.67321807
0.063201718 0.0017081499 0.67499661
0.063756429 -0 0.67680633
0.064320967 -0.0017383993 0.67864817
0.064895593 -0.0035078526 0.6805228
0.065480582 -0.0053092241 0.68243128
0.066076458 -0.0071433783 0.68437529
0.066683024 -0.0090112388 0.68635422
0.067300826 -0.01091364 0.68836981
0.067930192 -0.012851626 0.69042301
0.068571433 -0.014826238 0.69251508
0.069224901 -0.016838461 0.69464695
0.069890939 -0.018889427 0.6968199
0.070569918 -0.020980239 0.69903499
0.071262226 -0.023112088 0.70129359
0.071968243 -0.025286108 0.70359695
0.072688393 -0.027503699 0.70594639
0.073423408 -0.029766262 0.7083444
0.07417313 -0.032074869 0.71079028
0.07493832 -0.0344311 0.7132867
0.075719453 -0.036836505 0.71583509
0.076517053 -0.039292544 0.71843725
0.077331625 -0.041800886 0.72109473
0.078163736 -0.044363201 0.72380948
0.079013944 -0.046981275 0.72658324
0.079882853 -0.049656898 0.72941798
0.076475628 0.074463069 0.71173638
0.075192802 0.071235269 0.70766133
0.073951989 0.068113685 0.70371974
0.07275176 0.065093696 0.69990712
0.071589589 0.062169909 0.69621539
0.070463963 0.059338063 0.69263971
0.069373444 0.056594133 0.68917561
0.068315916 0.05393362 0.68581629
0.067290395 0.051353186 0.6825586
0.066294961 0.048848957 0.67939645
0.065328792 0.046417803 0.67632735
0.064390138 0.044056386 0.67334569
0.063478313 0.041762024 0.67044914
0.062591724 0.039531589 0.66763282
0.061729562 0.037362605 0.6648941
0.06089104 0.03525272 0.66223037
0.060074788 0.033199251 0.65963751
0.059280325 0.031200171 0.65711379
0.058506414 0.029253185 0.65465546
0.057752632 0.027356505 0.65226096
0.057117775 0.02555272 0.65024424
0.057558447 0.024235129 0.65164411
0.05800597 0.022897094 0.65306568
0.058460508 0.021538079 0.65450954
0.058922421 0.020157695 0.65597689
0.059391491 0.018755198 0.65746701
0.059868094 0.017330229 0.65898091
0.060352404 0.015882224 0.66051936
0.060844615 0.014410585 0.66208291
0.061344922 0.012914717 0.66367221
0.061853521 0.011394083 0.66528785
0.062370628 0.0098479986 0.66693044
0.062896453 0.0082758665 0.6686008
0.063431226 0.0066769719 0.67029953
0.063975163 0.0050506592 0.67202747
0.064528741 0.0033962429 0.67378592
0.065091752 0.0017129481 0.67557436
0.065664664 -0 0.67739427
0.066247761 -0.0017433763 0.6792466
0.066841304 -0.0035179555 0.68113196
0.067445576 -0.0053246319 0.68305147
0.068060875 -0.0071642697 0.68500602
0.068687499 -0.0090378523 0.68699658
0.069325775 -0.010946155 0.68902415
0.069976024 -0.012890339 0.69108975
0.070638582 -0.014871299 0.69319445
0.071313813 -0.016890109 0.69533932
0.072002076 -0.018947929 0.69752574
0.072704047 -0.021045923 0.69975561
0.073419541 -0.023185104 0.70202839
0.074149251 -0.025366843 0.70434642
0.074893624 -0.027592391 0.70671093
0.075653084 -0.02986306 0.70912349
0.076428108 -0.03218025 0.7115854
0.077219173 -0.034545422 0.71409822
0.078026786 -0.036960065 0.71666378
0.078851476 -0.039425731 0.71928346
0.079693779 -0.041944087 0.72195911
0.080554277 -0.044516861 0.72469258
0.081433922 -0.047145933 0.72748685
0.078846768 0.074803352 0.71284634
0.077517897 0.071554989 0.70873332
0.076233387 0.068414569 0.70475757
0.074990451 0.065376312 0.70091051
0.073787697 0.062435746 0.69718778
0.07262262 0.059587836 0.6935817
0.071494043 0.056828618 0.69008857
0.070399739 0.054153621 0.68670154
0.069338433 0.051559329 0.68341672
0.068308897 0.049042284 0.68023014
0.067309245 0.046598703 0.67713606
0.066338666 0.044225782 0.67413199
0.065395452 0.041920155 0.67121255
0.064478904 0.039679319 0.66837573
0.063587479 0.037500292 0.66561657
0.062720366 0.035380721 0.66293275
0.061876781 0.033318251 0.66032177
0.061055392 0.031310469 0.65777946
0.060255725 0.029355377 0.65530437
0.059476536 0.027450711 0.65289265
0.058765363 0.025615692 0.65069145
0.059219867 0.02429536 0.6520983
0.059681468 0.022954434 0.6535269
0.06015031 0.021592438 0.65497804
0.060626585 0.020208865 0.65645224
0.061110459 0.018803239 0.65794986
0.061602119 0.017374963 0.65947163
0.062101755 0.01592353 0.66101813
0.062609561 0.014448345 0.66258985
0.063125744 0.012948871 0.66418755
0.063650504 0.011424482 0.66581166
0.064184286 0.0098744929 0.66746384
0.064726874 0.0082983375 0.66914326
0.065278709 0.0066952705 0.67085117
0.065840036 0.0050646365 0.67258859
0.0664111 0.0034056902 0.67435616
0.066992156 0.0017177761 0.67615455
0.067583472 -0 0.67798483
0.068185315 -0.0017483234 0.6798476
0.068797976 -0.0035280883 0.68174386
0.069421746 -0.0053400993 0.68367451
0.07005693 -0.0071853399 0.68564057
0.070703849 -0.0090645552 0.68764281
0.071363099 -0.010978907 0.68968332
0.072034486 -0.012929231 0.69176137
0.072718613 -0.014916629 0.69387877
0.073415868 -0.016942084 0.69603693
0.074126616 -0.019006819 0.69823676
0.074851267 -0.021111906 0.70047969
0.075590223 -0.023258537 0.7027669
0.076343916 -0.025447994 0.7050997
0.077112786 -0.02768153 0.70747942
0.077897303 -0.029960483 0.70990753
0.07869795 -0.032286316 0.71238577
0.079515569 -0.034660637 0.71491641
0.080350004 -0.037084609 0.71749908
0.081202134 -0.03956002 0.72013652
0.082072534 -0.042088509 0.72283053
0.08123932 0.075146347 0.71396548
0.079864293 0.071877867 0.70981598
0.078534707 0.068717867 0.70580357
0.077248983 0.065661639 0.70192355
0.076004371 0.06270358 0.69816762
0.07479953 0.059839606 0.69453168
0.073632002 0.057064831 0.69100833
0.072500639 0.054375499 0.68759418
0.071403243 0.051767349 0.68428254
0.070338577 0.049237013 0.68106961
0.06930545 0.046781182 0.67795181
0.068301983 0.044396281 0.6749236
0.067327403 0.042079628 0.67198253
0.066380009 0.039828002 0.66912347
0.065459132 0.037638962 0.66634452
0.064563237 0.035509765 0.66364092
0.063691534 0.033438057 0.66101038
0.062843263 0.031421632 0.65845048
0.062017091 0.029458135 0.65595722
0.061212551 0.027545661 0.65352929
0.060428433 0.025682092 0.6511631
0.060889371 0.024355769 0.65255404
0.061365172 0.023011953 0.65398991
0.061848462 0.021646976 0.65544838
0.062339425 0.020260304 0.65692997
0.062838249 0.018851459 0.65843529
0.063345119 0.017419934 0.65996492
0.063860446 0.015965134 0.66152006
0.064384006 0.014486402 0.66310006
0.064916231 0.012983233 0.66470617
0.065457322 0.011455029 0.66633904
0.066007502 0.0099011362 0.66799939
0.066567019 0.0083208978 0.66968787
0.067136101 0.0067136288 0.67140526
0.067714997 0.0050786436 0.67315221
0.068303958 0.0034151673 0.67492962
0.06890326 0.0017225742 0.67673814
0.069513172 -0 0.67857867
0.070134237 -0.0017533302 0.68045288
0.070766225 -0.0035382807 0.68236011
0.071409725 -0.0053557158 0.68430203
0.072065018 -0.0072064996 0.68627954
0.072732463 -0.0090915561 0.6882937
0.073412374 -0.011011839 0.69034559
0.074105121 -0.012968391 0.69243616
0.074811079 -0.014962226 0.69456649
0.075530604 -0.016994387 0.69673789
0.076264106 -0.019066036 0.69895142
0.077011995 -0.021178305 0.70120835
0.077774696 -0.023332387 0.70351005
0.078552656 -0.025529593 0.70585769
0.079346672 -0.027771324 0.70825386
0.080156565 -0.030058712 0.71069795
0.080983154 -0.032393277 0.71319246
0.081826977 -0.034776449 0.71573889
0.08268857 -0.037209839 0.71833897
0.083568498 -0.039695024 0.72099435
0.083654284 0.075492889 0.71509594
0.082231961 0.072203696 0.71090841
0.08085686 0.069024146 0.70685989
0.079526991 0.065949202 0.70294452
0.078240469 0.062974036 0.69915682
0.076994613 0.060093373 0.69548881
0.075788103 0.05730322 0.69193661
0.074618533 0.054598957 0.68849325
0.073484793 0.051977068 0.68515527
0.072384715 0.04943347 0.68191653
0.071317092 0.046964914 0.67877328
0.070280753 0.04456827 0.67572212
0.069273859 0.042240173 0.67275763
0.06829565 0.039977938 0.66987765
0.067344449 0.037778586 0.66707712
0.066419609 0.035639793 0.66435426
0.065519601 0.033558786 0.66170454
0.064643875 0.031533599 0.65912616
0.063791037 0.029561698 0.65661538
0.062960416 0.027641177 0.65416986
0.062151339 0.025770068 0.65178776
0.062567197 0.024416476 0.65301216
0.063057542 0.023069829 0.65445578
0.063555419 0.021701843 0.65592164
0.064061224 0.020312101 0.6574108
0.064575143 0.018900067 0.65892386
0.065097377 0.017465144 0.66046143
0.065628126 0.016006857 0.66202402
0.0661676 0.014524639 0.66361225
0.066716015 0.013017774 0.66522694
0.067273594 0.011485726 0.66686857
0.067840584 0.0099278688 0.66853786
0.068417199 0.0083435476 0.67023551
0.069003709 0.0067320764 0.67196226
0.069600604 0.0050927401 0.67371964
0.07020767 0.0034247637 0.67550695
0.070825405 0.0017274618 0.67732567
0.071454123 -0 0.67917669
0.072094098 -0.0017583668 0.68106085
0.072745636 -0.0035485327 0.68297911
0.073409058 -0.0053713918 0.68493235
0.074084699 -0.0072277784 0.68692154
0.074772887 -0.0091186464 0.68894768
0.075473979 -0.011044979 0.69101179
0.076188348 -0.01300776 0.69311506
0.076916359 -0.015008032 0.69525838
0.077658743 -0.017047018 0.69744408
0.078415267 -0.0191257 0.69967145
0.079186678 -0.021245211 0.70194262
0.079973422 -0.023406863 0.70425886
0.080775954 -0.025611877 0.70662171
0.081594758 -0.027861625 0.70903236
0.082430333 -0.030157447 0.71149248
0.083283193 -0.032500774 0.71400344
0.084153891 -0.034893066 0.71656686
0.084620833 0.072532147 0.71200979
0.083199807 0.069333196 0.70792562
0.081825376 0.066239595 0.70397544
0.080495939 0.063246787 0.7001546
0.079208702 0.060349464 0.69645494
0.077961981 0.057543367 0.69287181
0.076754197 0.054824442 0.68940055
0.075582974 0.052188218 0.68603438
0.074447244 0.049631506 0.68277019
0.073344864 0.047150284 0.67960191
0.072274916 0.044741601 0.67652684
0.071235485 0.042402089 0.6735394
0.070225529 0.040128857 0.67063677
0.069244042 0.037919372 0.66781592
0.068289384 0.035770655 0.66507214
0.067360923 0.033680499 0.6624037
0.066457145 0.031646252 0.65980619
0.065577507 0.029666036 0.65727806
0.064720653 0.027737409 0.65481544
0.063886099 0.02585867 0.65241683
0.064253621 0.024477601 0.65347314
0.064758241 0.023127973 0.65492344
0.065270849 0.021756947 0.65639669
0.065791629 0.020364076 0.65789348
0.066320799 0.018948764 0.65941429
0.066858537 0.017510593 0.66095984
0.067405075 0.016048849 0.66253054
0.06796062 0.014562994 0.66412723
0.068525396 0.013052434 0.66575044
0.069099881 0.01151666 0.66740155
0.069683835 0.0099548399 0.6690799
0.070277743 0.008366406 0.67078686
0.070881866 0.0067506731 0.67252314
0.071496457 0.0051068664 0.67428952
0.072121806 0.00343436 0.67608678
0.07275819 0.0017323196 0.67791581
0.073405899 2.9802322e-08 0.67977738
0.074065246 -0.0017634332 0.68167233
0.07473655 -0.0035588741 0.68360174
0.075420126 -0.0053871572 0.68556637
0.076116323 -0.0072491765 0.68756729
0.076825798 -0.0091459155 0.68960637
0.077548318 -0.011078328 0.69168293
0.078284554 -0.013047457 0.6937989
0.079034902 -0.015054226 0.69595551
0.079799779 -0.017099947 0.69815373
0.080579601 -0.019185603 0.70039511
0.081374817 -0.021312416 0.70268053
0.082185879 -0.023481667 0.70501161
0.083013281 -0.025694579 0.70738959
0.083857507 -0.027952522 0.70981598
0.084719077 -0.030256778 0.71229219
0.085598543 -0.032608956 0.71481979
0.085563459 0.06964466 0.70899999
0.084144086 0.066532552 0.70501548
0.082770698 0.063521713 0.70116007
0.081441745 0.060607821 0.69742942
0.080154479 0.057785809 0.69381583
0.078907274 0.055051595 0.69031459
0.077698581 0.052401394 0.68692148
0.076526076 0.049830943 0.68363005
0.075388707 0.047337085 0.68043721
0.074284382 0.044916153 0.67733711
0.073212199 0.042565256 0.67432725
0.07217028 0.040281117 0.67140234
0.07115785 0.038061172 0.66856021
0.070173189 0.03590256 0.6657961
0.069215402 0.033802897 0.6631074
0.068283647 0.031759828 0.66049165
0.067376412 0.029771 0.65794492
0.066493191 0.027834386 0.65546548
0.065632612 0.025947779 0.65304965
0.065948293 0.024538934 0.65393585
0.066467524 0.023186326 0.65539342
0.066995002 0.02181235 0.65687412
0.067530915 0.020416349 0.6583786
0.068075471 0.018997818 0.65990728
0.068629108 0.01755631 0.66146147
0.069191597 0.016091079 0.66304052
0.069763377 0.014601648 0.66464561
0.070344694 0.013087392 0.66627753
0.070935778 0.011547714 0.6679368
0.071536869 0.0099819005 0.66962421
0.072148241 0.0083893538 0.67134047
0.072770156 0.0067693293 0.67308629
0.073402889 0.0051211417 0.6748625
0.074046716 0.0034440458 0.67666984
0.074701935 0.001737237 0.67850929
0.075369135 -0 0.68038225
0.076048069 -0.0017685294 0.68228817
0.076739356 -0.0035692751 0.68422878
0.077443324 -0.005403012 0.68620491
0.078160331 -0.0072707236 0.68821776
0.078890726 -0.0091733336 0.69026816
0.079634912 -0.011111826 0.69235724
0.08039327 -0.013087243 0.69448614
0.081166208 -0.015100658 0.69665599
0.081954159 -0.017153203 0.69886786
0.082757547 -0.019245923 0.70112312
0.083576851 -0.021380126 0.7034232
0.084412538 -0.023556948 0.70576906
0.085265458 -0.025777906 0.7081635
0.086135432 -0.028044105 0.71060568
0.086483039 0.066827834 0.70606381
0.085065663 0.063799262 0.70217532
0.083693653 0.060868144 0.69841135
0.082365528 0.058030277 0.69476777
0.081078582 0.055280894 0.69123709
0.079831228 0.05261606 0.68781507
0.078621976 0.050032169 0.68449754
0.077448525 0.047525227 0.68127829
0.07630986 0.045092225 0.67815447
0.075203925 0.042729527 0.67512041
0.07412985 0.04043448 0.67217374
0.073085763 0.038203925 0.66930938
0.072070934 0.036035478 0.6665253
0.071083657 0.033926308 0.66381681
0.070123062 0.03187415 0.66118145
0.069188312 0.029876769 0.65861708
0.06827794 0.027931899 0.65611947
0.067391418 0.026037604 0.65368736
0.067651689 0.024600625 0.65440142
0.068185687 0.023245126 0.65586638
0.068728179 0.02186808 0.65735471
0.069279373 0.02046892 0.65886688
0.069839485 0.019047171 0.66040343
0.070408717 0.017602205 0.66196513
0.070987314 0.016133457 0.66355246
0.071575493 0.014640421 0.66516614
0.072173506 0.013122499 0.6668067
0.072781593 0.011578888 0.66847497
0.073400006 0.01000911 0.6701715
0.074029028 0.0084123909 0.67189717
0.074668922 0.0067881048 0.67365265
0.075320251 0.0051354766 0.67543954
0.075982757 0.0034537911 0.67725712
0.076657027 0.001742214 0.67910689
0.077343374 -0 0.6809898
0.078042112 -0.0017736852 0.68290675
0.078753598 -0.0035796762 0.68485868
0.079478174 -0.0054189563 0.68684644
0.080216207 -0.0072923601 0.68887126
0.080968075 -0.0092009008 0.69093394
0.081734173 -0.011145562 0.69303566
0.082514904 -0.013127357 0.69517756
0.083311029 -0.015147418 0.69736165
0.08412233 -0.017206848 0.6995874
0.084949583 -0.019306719 0.70185685
0.085793264 -0.021448284 0.70417142
0.086653873 -0.023632884 0.70653254
0.087531932 -0.025861681 0.70894134
0.087380409 0.064079016 0.70319849
0.085965328 0.061130941 0.69940263
0.084595032 0.058276594 0.69572687
0.083268046 0.055512071 0.69216728
0.081981741 0.052832693 0.68871683
0.080734879 0.050235033 0.68537211
0.079525076 0.047715038 0.68212688
0.078350991 0.045269489 0.67897749
0.077211358 0.042895198 0.67592049
0.076104119 0.040588886 0.67295039
0.075028464 0.0383479 0.67006493
0.073982529 0.036169231 0.66725928
0.072965607 0.034050614 0.66453141
0.071976013 0.031989366 0.6618768
0.071013145 0.029983342 0.65929401
0.070075467 0.028030187 0.65677869
0.069162227 0.026127964 0.654329
0.06936346 0.024662554 0.65486884
0.069912352 0.023304105 0.6563412
0.070470005 0.021923989 0.65783709
0.071036629 0.02052173 0.65935695
0.07161244 0.019096643 0.66090155
0.072197653 0.017648339 0.66247141
0.072792515 0.016176134 0.66406709
0.073397264 0.014679492 0.66568923
0.074012399 0.013157755 0.66733944
0.074637666 0.011610299 0.66901666
0.075273596 0.010036498 0.67072248
0.075920448 0.008435607 0.6724577
0.07657852 0.0068069696 0.67422295
0.077248096 0.0051498711 0.67601907
0.077929489 0.0034635365 0.67784685
0.078623004 0.0017471611 0.67970717
0.079328977 2.9802322e-08 0.68160093
0.080047742 -0.001778841 0.68352896
0.080779657 -0.0035902262 0.68549228
0.081525065 -0.0054349899 0.68749183
0.082284689 -0.0073142052 0.68952942
0.083058275 -0.0092287064 0.69160455
0.083846547 -0.011179537 0.69371909
0.08464992 -0.013167739 0.69587409
0.085468836 -0.015194476 0.69807076
0.086303756 -0.01726073 0.70031047
0.087155141 -0.019367814 0.70259428
0.088023506 -0.02151686 0.70492357
0.088256717 0.061395943 0.70040256
0.086843885 0.058525234 0.69669509
0.085475571 0.055744946 0.69310445
0.084150031 0.053051114 0.68962604
0.082864664 0.050439358 0.68625307
0.081618279 0.047906399 0.68298233
0.080408536 0.045448333 0.67980778
0.079234421 0.04306218 0.67672676
0.078093819 0.040744603 0.67373365
0.076985583 0.038492799 0.67082548
0.075908631 0.036304146 0.66799939
0.074861139 0.034175754 0.6652506
0.073842414 0.032105386 0.66257733
0.072850794 0.030090541 0.65997511
0.07188569 0.02812922 0.65744263
0.070945598 0.02621901 0.65497565
0.071083866 0.024724871 0.65533847
0.071647808 0.023363411 0.65681839
0.072220773 0.021980256 0.65832192
0.072803214 0.020574838 0.6598503
0.07339488 0.019146502 0.66140294
0.073996246 0.017694771 0.66298103
0.074607544 0.01621905 0.66458511
0.075229026 0.014718741 0.66621602
0.075860947 0.01319325 0.66787428
0.076503575 0.01164186 0.66956061
0.077157184 0.010064006 0.67127579
0.077822067 0.0084589422 0.67302048
0.078498498 0.0068259537 0.67479563
0.079186797 0.005164355 0.67660177
0.079887263 0.0034733713 0.67843986
0.080600537 0.0017522275 0.68031162
0.081326358 -0 0.68221629
0.082065374 -0.0017840564 0.68415558
0.082817942 -0.0036007762 0.6861304
0.083584443 -0.0054511726 0.68814182
0.084365256 -0.0073360801 0.69019079
0.085160799 -0.0092566013 0.69227839
