# .PCD v0.7 - Point Cloud Data file format
VERSION 0.7
FIELDS x y z
SIZE 4 4 4
TYPE F F F
COUNT 1 1 1
WIDTH 865
HEIGHT 1
VIEWPOINT 0 0 0 1 0 0 0
POINTS 865
DATA ascii
0.066956758 -0.054135248 0.64077002
0.068246201 -0.054028243 0.64043009
0.057714891 -0.056272 0.6429742
0.064595737 -0.050241113 0.64207959
0.067769684 -0.040373415 0.64285785
0.052235432 -0.059490353 0.64395344
0.067934476 -0.037580758 0.64328104
0.055184506 -0.053732261 0.64410305
0.063983776 -0.037808567 0.64433879
0.049900368 -0.051367998 0.64596605
0.055523887 -0.046756983 0.64518112
0.055592299 -0.045351595 0.64539844
0.062965162 -0.032214731 0.64556152
0.065788381 -0.029239297 0.64527881
0.055798553 -0.041114718 0.64605367
0.057362653 -0.03677091 0.64634985
0.064857334 -0.022110462 0.64673531
0.042840023 -0.056135222 0.64712304
0.050273065 -0.042879969 0.64728934
0.056285642 -0.03110522 0.64760089
0.043216262 -0.046196699 0.64868915
0.047511168 -0.043056995 0.64802617
0.05209874 -0.032747775 0.64848626
0.05209874 -0.032747775 0.64848626
0.053543597 -0.031233728 0.64833975
0.058009215 -0.023798645 0.64835107
0.065672427 -0.0074627697 0.64897144
0.037471764 -0.049462736 0.64973378
0.041971035 -0.041970998 0.64974529
0.043379597 -0.041883737 0.649369
0.047809936 -0.035857409 0.64915317
0.047870178 -0.034406692 0.64938039
0.046529483 -0.033020884 0.64998496
0.061500117 -0.0090000033 0.64987051
0.030177362 -0.054319233 0.6509406
0.043544173 -0.037538081 0.65005398
0.04829596 -0.024147987 0.65098655
0.066087596 2.9802322e-08 0.65011048
0.069065459 0.0045042634 0.65004194
0.052961737 -0.013618737 0.65146261
0.052961737 -0.013618737 0.65146261
0.057578195 -0.004545629 0.65170681
0.057651762 -0.0030342937 0.65194052
0.063590325 0.004542172 0.65156674
0.068050079 0.010585576 0.65134567
0.067019977 0.016754985 0.65266836
0.021476207 -0.050622523 0.65397608
0.026079858 -0.042955071 0.65398753
0.029099239 -0.039820015 0.65367723
0.038194764 -0.027500212 0.65322477
0.049043894 -0.0061304867 0.65380794
0.053575903 2.9802322e-08 0.65358078
0.05647001 0.0015262365 0.65303475
0.061052606 0.009157896 0.65304661
0.061209973 0.012241989 0.65352154
0.067452416 0.024528146 0.65385473
0.029250061 -0.033868462 0.65463543
0.029250061 -0.033868462 0.65463543
0.030723879 -0.033796221 0.65423912
0.041447595 -0.016886026 0.65410662
0.044673793 -0.0077023804 0.65475601
0.049170673 -0.0030731559 0.65428621
0.056908738 0.010766536 0.65446609
0.0139185 -0.054127514 0.65548319
0.023230722 -0.037169158 0.65575057
0.023230722 -0.037169158 0.65575057
0.030964149 -0.024771303 0.65568924
0.032442633 -0.024718195 0.65528846
0.037176345 -0.013941109 0.65578669
0.044906694 -0.0015484989 0.65572542
0.058701489 0.018537313 0.65527511
0.061928093 0.026319414 0.6556887
0.066403665 0.030885428 0.65521413
0.067979038 0.033989549 0.65529948
0.015512466 -0.04808861 0.65605617
0.015512466 -0.04808861 0.65605617
0.031167349 -0.017142057 0.65691572
0.049815189 0.012453794 0.65671742
0.052977331 0.018697888 0.65689027
0.059085857 0.02643314 0.65649605
0.068245217 0.038775712 0.6560297
0.068245217 0.038775712 0.6560297
0.070011094 0.045118272 0.65660608
0.0046877167 -0.057815135 0.65742332
0.020300081 -0.032792449 0.65729928
0.021929381 -0.026628554 0.65788341
0.037469521 -0.0046836734 0.65726125
0.042155996 0.0031226873 0.65727371
0.051530637 0.018738419 0.65729797
0.05304677 0.020282596 0.6571368
0.065597236 0.04216966 0.65733474
0.001571463 -0.056572676 0.6584965
0.0062696734 -0.051724792 0.65800822
0.023537662 -0.021968484 0.65822059
0.029790729 -0.01254344 0.65807039
0.029909117 -0.0078708529 0.65882254
0.033000611 -0.0047143698 0.65849584
0.042378768 0.0094175041 0.65826964
0.059632305 0.037662536 0.65823191
0.058266975 0.039369583 0.65889728
0.068965718 0.051724315 0.65800637
0.068965718 0.051724315 0.65800637
-0.0031636513 -0.056945741 0.65974736
-0.0031636513 -0.056945741 0.65974736
0.0047313026 -0.047313005 0.65917706
0.0078928266 -0.041042715 0.65935385
0.011045567 -0.036292553 0.65927815
0.018954119 -0.022113115 0.65946782
0.020488635 -0.022064626 0.65904999
0.025251986 -0.012625992 0.65931565
0.036273077 0.0047312677 0.65917575
0.05047683 0.028393209 0.65921324
0.0522172 0.034811497 0.65980935
0.063079193 0.048886389 0.6591624
0.064772241 0.05371359 0.65950418
0 -0.049147785 0.66018045
0.0047756904 -0.036613613 0.66096306
0.014290629 -0.023817718 0.6604743
0.015843553 -0.023765296 0.66005272
0.019030001 -0.017444164 0.66023111
0.020653054 -0.012709558 0.6605767
0.023789097 -0.0095156133 0.66024399
0.023789097 -0.0095156133 0.66024399
0.031750552 0.0047625899 0.66043562
0.033309098 0.0063446164 0.66026902
0.049269136 0.034965217 0.66065288
0.068267815 0.065092564 0.66044724
-0.0047878837 -0.049474835 0.66145372
0.0079883859 -0.027160525 0.66166079
0.025523312 -2.9802322e-08 0.66136265
0.033443127 0.011147738 0.66103947
0.046232753 0.033478916 0.66124505
0.057350013 0.050977796 0.66110295
0.057350013 0.050977796 0.66110295
0.059049968 0.055858105 0.66145176
-0.011210916 -0.056054592 0.66212946
-0.0096399039 -0.049806207 0.66274405
-0.0080153486 -0.049695134 0.66231179
-0.0064326823 -0.043420583 0.66292751
0.001607629 -0.030544966 0.66286212
0.0096034976 -0.022408187 0.66201162
0.0096294601 -0.019258916 0.66253388
0.011254896 -0.014470577 0.66288787
0.035241235 0.020824373 0.66216743
0.035336461 0.024093091 0.66268992
0.03842935 0.025619566 0.66208881
0.048172984 0.044961482 0.66263723
0.053065658 0.054673702 0.66291296
0.053065658 0.054673702 0.66291296
0.057659458 0.057659447 0.66214061
0.060920164 0.064126492 0.66232294
-0.011317739 -0.04527095 0.66397154
0 -0.032180816 0.66303259
0.0032211426 -0.025769174 0.66321731
0.012903788 -0.0080648661 0.66350722
0.020961503 0.0048373044 0.66344082
0.025800532 0.012900263 0.66345412
0.033943813 0.029094696 0.66391748
0.037060443 0.030615151 0.66330808
0.040321447 0.037095726 0.66349334
0.046861805 0.050093651 0.66386342
0.054848213 0.061300963 0.6635325
0.059691638 0.069371372 0.66354513
0.059772849 0.071081251 0.66381007
-0.019434955 -0.056685269 0.66430467
-0.014557357 -0.05014202 0.66405171
-0.012981419 -0.043812275 0.66467857
-0.0097320527 -0.038928211 0.66459787
0.0032342931 -0.021022916 0.664011
0.012991991 -0 0.66483808
0.042068552 0.043686569 0.66411662
0.050141491 0.056611359 0.66404974
0.051996198 0.064995259 0.66494459
-0.024492381 -0.055516064 0.66590363
-0.021130865 -0.055265307 0.66501343
-0.01625563 -0.047141343 0.66502696
-0.0065120412 -0.029304147 0.6653223
0.0081417067 -0.0048849881 0.6653623
0.011393717 -0 0.66528171
0.016322559 0.011425793 0.66583484
0.022801414 0.019544065 0.66540229
0.029332176 0.030961722 0.66551006
0.037570175 0.047371089 0.66598332
0.043886729 0.052013904 0.66501141
0.05048519 0.065142214 0.66538799
-0.016345141 -0.040862828 0.66610742
0 -0.011465251 0.66651499
0.0049072425 -0.0049072504 0.66625637
0.011440768 0.0049031973 0.66609311
0.011456498 0.0065466166 0.66636437
0.031104721 0.03929022 0.66641843
0.039222505 0.050662369 0.66607809
-0.031307865 -0.056024611 0.66770905
-0.027923211 -0.054203868 0.66707647
-0.022997104 -0.045994192 0.66708952
-0.016481215 -0.031314284 0.66774994
-0.0098942155 -0.019788444 0.66786039
-0.0016461753 -0.008230865 0.66751504
0 -0.004940927 0.6676113
0.0065824077 0.0049368441 0.66744584
0.014825802 0.019767731 0.66765219
0.014825802 0.019767731 0.66765219
0.037882749 0.057647645 0.66762376
0.03949431 0.059241503 0.66744518
-0.01817091 -0.031386107 0.66820621
-0.0049612173 -0.0082686841 0.66842812
0.0049619121 0.0082698762 0.66845608
0.0099244844 0.016540825 0.66846931
-0.034908593 -0.051531732 0.66946316
-0.03316962 -0.05141291 0.66900051
-0.029923651 -0.043223023 0.66947657
-0.019979887 -0.024974883 0.66978627
-0.006648764 -0.0049865842 0.66944838
-0.0016646327 0.0049938858 0.66974306
0.016619515 0.033239037 0.66941941
0.021576684 0.039833874 0.66915309
0.026594872 0.049865395 0.66944695
0.031583633 0.058180362 0.66946107
-0.036758658 -0.048454612 0.6704933
-0.036810458 -0.046849668 0.67077756
-0.033355985 -0.045030564 0.67012531
-0.033355985 -0.045030564 0.67012531
-0.030049872 -0.038397044 0.67032301
-0.020092517 -0.018418163 0.67091924
-0.0033369882 0.0050054789 0.67020917
0.0050178133 0.021743864 0.67070532
0.0083359955 0.023340791 0.67005289
0.0083594713 0.026750296 0.67061961
0.013338534 0.031679034 0.67006707
0.026669541 0.053339094 0.67001033
0.028350286 0.056700587 0.67010897
0.028390162 0.058450341 0.6703921
-0.043663282 -0.053739429 0.67152041
-0.03530388 -0.038666159 0.67173529
-0.023484373 -0.021806896 0.67129087
-0.020149346 -0.015112013 0.67149091
-0.018427217 -0.015076786 0.67101884
-0.01174961 -0.0016784966 0.67141891
-0.0033558398 0.011745453 0.67134696
0.0050462298 0.028595299 0.67184871
0.0100789 0.035276175 0.6715759
0.010093179 0.037008315 0.6718632
0.013432849 0.040298522 0.67149019
0.021789825 0.051960349 0.67113221
0.021851517 0.055469245 0.67170501
0.021851517 0.055469245 0.67170501
0.021882419 0.057230949 0.67199194
0.028550792 0.065498888 0.67153269
-0.048905388 -0.057337344 0.67236972
-0.043974105 -0.045665443 0.6729635
-0.042183749 -0.045558453 0.67248529
-0.025256323 -0.020205051 0.67205131
-0.011833253 0.0067618787 0.67286122
-0.0016858992 0.02023077 0.67231017
0.0016875791 0.027001262 0.67251289
0.005067768 0.033785105 0.67271543
0.011814699 0.043883145 0.67254132
0.025274063 0.064027607 0.67219406
-0.05252428 -0.057607263 0.67332804
-0.042424761 -0.039030761 0.67364895
-0.035606239 -0.028824121 0.67347336
-0.030478299 -0.022012085 0.67319614
-0.02888182 -0.01529038 0.6738832
-0.020321706 -0.0050804019 0.67322469
-0.020321706 -0.0050804019 0.67322469
-0.016927537 -0 0.67313755
-0.016927537 -0 0.67313755
-0.016951704 0.0016951561 0.67342931
-0.0033990589 0.027192503 0.67395544
0.0050822296 0.037269682 0.67329723
0.0050967736 0.040774196 0.67388242
0.0067990958 0.044194132 0.673985
0.016927414 0.05586046 0.67313612
-0.054424282 -0.056125045 0.67410386
-0.051000923 -0.051000923 0.674016
-0.049467281 -0.044349968 0.6747086
-0.042546377 -0.035738945 0.67423624
-0.042546377 -0.035738945 0.67423624
-0.034073669 -0.020444155 0.67445689
-0.027274571 -0.0085233152 0.67457485
-0.02561954 -0.0034159422 0.6749742
-0.0017003855 0.030606955 0.67405879
0.008527549 0.051165283 0.67467737
0.010208853 0.051044285 0.67419034
-0.039294656 -0.025626957 0.67503393
-0.02395807 0.001711309 0.67537516
-0.024027329 0.0051487088 0.6759724
-0.012004117 0.024008244 0.67580771
-0.010279582 0.02569896 0.67561334
0 0.039297193 0.67504728
0 0.041064888 0.67534453
0.010282489 0.059981167 0.67567182
-0.061901014 -0.055023134 0.67636281
-0.055054978 -0.043011725 0.67648304
-0.046368737 -0.030912489 0.67610788
-0.041279208 -0.020639598 0.67642254
-0.037768204 -0.01716736 0.6760326
-0.017247064 0.022421181 0.67699456
-0.0068798433 0.036119193 0.67642176
0.0085892063 0.060124457 0.67616594
0.012054511 0.068882942 0.67667675
-0.069240212 -0.058854163 0.67775494
-0.065558463 -0.05693233 0.67705697
-0.055375937 -0.036340445 0.67769367
-0.051892139 -0.031135261 0.67760193
-0.048482176 -0.02424109 0.67781544
-0.043227784 -0.017291099 0.67752635
-0.039752107 -0.012098461 0.67743468
-0.039752107 -0.012098461 0.67743468
-0.034569576 -0.0034569502 0.67744994
-0.034569576 -0.0034569502 0.67744994
-0.025993356 0.013863146 0.67798251
-0.0034634948 0.050220668 0.67784452
0.010372315 0.070877463 0.67747897
-0.069544367 -0.053896904 0.67867285
-0.05390859 -0.027823776 0.67871845
-0.045130949 -0.015622258 0.67833441
-0.045197025 -0.013906777 0.67864114
-0.041641135 -0.010410249 0.6782428
-0.017398702 0.033057511 0.67882508
-0.01566685 0.036555976 0.67893255
-0.010414796 0.041659176 0.67833364
0.0069584306 0.073063552 0.67879331
-0.06803982 -0.047104478 0.67939734
-0.068139941 -0.045426607 0.67970717
-0.061097234 -0.034912705 0.67952096
-0.05055638 -0.019176543 0.67924184
-0.041885812 -0.003490448 0.67947346
-0.038378462 0.0017444789 0.67938095
-0.01918491 0.03313759 0.67933351
-0.050930273 -0.010537267 0.68079817
-0.03151153 0.017506421 0.68012518
-0.03160473 0.021069825 0.68075013
-0.017527055 0.042064965 0.68037438
-0.008760279 0.056065798 0.68029594
0 0.07005626 0.68021756
0 0.07005626 0.68021756
-0.079193965 -0.054555833 0.68123871
-0.065192007 -0.029953092 0.68148983
-0.059910633 -0.021144927 0.68150568
-0.044061627 0.005287379 0.68155253
-0.044127129 0.007060349 0.68186873
-0.036978807 0.01584807 0.68136299
-0.024632433 0.035189182 0.68118966
-0.015852727 0.051081032 0.68142557
-0.0088253934 0.065307915 0.68186796
-0.0017582813 0.072089523 0.68104744
-0.081515439 -0.049618125 0.6827125
-0.054872796 -0.0070803463 0.68247283
-0.042447183 0.012380421 0.68229699
-0.033591572 0.026519686 0.6822179
-0.033591572 0.026519686 0.6822179
-0.028374158 0.039014459 0.68287063
-0.010600687 0.063604116 0.68207347
-0.07816945 -0.040861309 0.68325609
-0.072845191 -0.031980783 0.68327224
-0.065777659 -0.019555539 0.68340051
-0.051694512 0.007130295 0.68397927
-0.023090137 0.049732625 0.68320614
-0.019558318 0.056896895 0.68343121
-0.019558318 0.056896895 0.68343121
-0.017789593 0.060484648 0.6835435
-0.080505945 -0.0357804 0.68475807
-0.067824379 -0.017848521 0.68425483
-0.067824379 -0.017848521 0.68425483
-0.065975234 -0.016048044 0.68404508
-0.06617374 -0.01251933 0.68469268
-0.064419396 -0.0089471042 0.68480712
-0.041066952 0.026782781 0.68433541
-0.041066952 0.026782781 0.68433541
-0.033996418 0.04115355 0.68478996
-0.016115649 0.071625113 0.68495196
-0.078877285 -0.030475289 0.68519795
-0.077242263 -0.02514866 0.68564057
-0.070099302 -0.012581915 0.6857717
-0.052164406 0.017987728 0.6859352
-0.04854469 0.023373395 0.68583608
-0.037762728 0.041359186 0.6858691
-0.028673837 0.051971346 0.68513155
-0.079477265 -0.021675617 0.68684399
-0.075600252 -0.019800067 0.68608403
-0.057731248 0.012628734 0.68657845
-0.048692152 0.02705121 0.6864953
-0.023440704 0.068518966 0.68646127
-0.07959836 -0.019899577 0.68717623
-0.070633665 -0.0036222339 0.68742561
-0.063331179 0.0072378814 0.68722552
-0.059685059 0.012660474 0.68712604
-0.034463711 0.058044136 0.68775874
-0.087447189 -0.023683608 0.68871683
-0.070849814 -0 0.68809462
-0.069070056 0.0036352873 0.6882118
-0.065504834 0.010917485 0.68844676
-0.047345322 0.041882396 0.68861514
-0.047345322 0.041882396 0.68861514
-0.041949809 0.052893251 0.68896896
-0.0309636 0.069212765 0.68866515
-0.080332428 -0.0091286898 0.68919009
-0.062218323 0.023789346 0.6896987
-0.062218323 0.023789346 0.6896987
-0.032918714 0.071323901 0.68956196
-0.088259727 -0.012871206 0.6907602
-0.056820445 0.034825444 0.69005686
-0.055187672 0.042310536 0.69086218
-0.047858935 0.055221885 0.69099969
-0.045971829 0.057005078 0.69077575
-0.060795896 0.035003722 0.69118941
-0.04436307 0.066544652 0.6919331
-0.079527698 0.0092473924 0.69205624
-0.075911328 0.016663492 0.69229943
-0.073984757 0.018496186 0.69207287
-0.070472255 0.027817994 0.69266605
-0.066836111 0.035274625 0.69291055
-0.062995039 0.03890869 0.69245631
-0.059354141 0.046370417 0.69270033
-0.061559796 0.050367087 0.69398367
-0.057711121 0.053987831 0.69352508
-0.078701451 0.028107643 0.69499713
-0.071026668 0.037382483 0.69442725
-0.050454143 0.071009517 0.69437277
-0.056321852 0.067586213 0.69542575
-0.079075843 0.033889621 0.69607311
-0.07920111 0.035829067 0.69643319
-0.077235855 0.037676036 0.69619906
-0.067897506 0.054695189 0.69646955
-0.068005532 0.056671292 0.6968317
-0.075754598 0.047346622 0.69741386
-0.070190303 0.058808088 0.69779652
-0.064504385 0.068298787 0.69781488
-0.062442489 0.068119109 0.69721246
-0.077977851 0.049449384 0.69838363
-0.068660684 0.068660706 0.69902849
-0.068660684 0.068660706 0.69902849
-0.07673344 0.06330508 0.70036775
-0.07673344 0.06330508 0.70036775
0.068657272 -0.047201872 0.64146388
0.053643756 -0.057993218 0.64381421
0.060322177 -0.056731142 0.64217395
0.059327133 -0.050645113 0.64347291
0.057044767 -0.043148786 0.64536595
0.062502861 -0.040699542 0.64426374
0.064724036 -0.036362231 0.64437652
0.068434328 -0.029120982 0.64456487
0.067445442 -0.023459256 0.6457907
0.045197167 -0.048902676 0.64768517
0.045197167 -0.048902676 0.64768517
0.054917533 -0.031169415 0.64796984
0.037283618 -0.055179745 0.64882535
0.037495445 -0.048743606 0.6498481
0.046816334 -0.04310146 0.64821124
0.042946003 -0.040948611 0.64964664
0.049140245 -0.037227422 0.64855415
0.057252273 -0.025280565 0.64831197
0.061075766 -0.017130539 0.64862108
0.062436305 -0.017095193 0.6482501
0.059973463 -0.01199469 0.64979005
0.068717882 -0.0014938414 0.64912975
0.040866662 -0.033298761 0.6515094
0.045352351 -0.027211398 0.65128791
0.053096902 -0.010619372 0.65192878
0.063107692 -0.0045076907 0.65017962
0.069196627 0.0067697316 0.6503861
0.068733215 0.010574475 0.65115416
0.030585391 -0.038995862 0.65340328
0.03519813 -0.030607074 0.65353411
0.042725921 -0.021362901 0.65299964
0.042725921 -0.021362901 0.65299964
0.047246031 -0.01524061 0.65277505
0.056615558 0.0045904517 0.65350962
0.066848464 0.013673544 0.65219784
0.068972141 0.026823014 0.65381908
0.010829718 -0.058789879 0.6555559
0.015492226 -0.04957512 0.65581179
0.01851099 -0.04936263 0.65501034
0.024598213 -0.043046862 0.6543833
0.023261063 -0.035666972 0.65599465
0.030743781 -0.033049032 0.65435922
0.03531193 -0.026867285 0.65413135
0.037176345 -0.013941109 0.65578669
0.043253891 -0.0069510192 0.65527576
0.04923439 -0.0015385449 0.65452653
0.048769198 0.0046447664 0.65569502
0.048769198 0.0046447664 0.65569502
0.062971383 0.019199088 0.65420216
0.062971383 0.019199088 0.65420216
0.069330022 0.033124849 0.65477908
0.01243107 -0.051278174 0.65637451
0.029224496 -0.015134295 0.65779197
0.043451738 -0.0015518665 0.6561287
0.045380019 0.010953814 0.65769565
0.054346438 0.017080307 0.65623832
0.052977331 0.018697888 0.65689027
0.052977331 0.018697888 0.65689027
0.056862477 0.024926394 0.65685916
0.060549527 0.027170181 0.6562137
0.068245217 0.038775712 0.6560297
0.068603687 0.045216084 0.65701318
-0.0015762644 -0.058321744 0.65907609
0.00078677281 -0.055134475 0.65895605
0.012562555 -0.039257973 0.65835845
0.01502697 -0.026891932 0.65975368
0.017366482 -0.025260329 0.65937865
0.02057055 -0.017405808 0.65981066
0.026718348 -0.014930323 0.65852118
0.029230701 -0.0047402382 0.6595372
0.033000611 -0.0047143698 0.65849584
0.047467005 0.026897967 0.65979654
0.06122984 0.040819883 0.65831935
0.065143228 0.04709214 0.65828812
0.06718801 0.058493868 0.65963739
-0.0015867918 -0.050777316 0.66034681
0.0031737972 -0.042846233 0.66035968
0.0047756904 -0.036613613 0.66096306
0.0047756904 -0.036613613 0.66096306
0.0095137553 -0.033298165 0.66020608
0.011149249 -0.025483996 0.66106606
0.022192806 -0.012681603 0.6601547
0.019183734 -0.0079932213 0.66177762
0.019183734 -0.0079932213 0.66177762
0.028606068 0.00079514086 0.66064072
0.034958255 0.011123061 0.66061485
0.035075624 0.015146852 0.66125876
0.036662534 0.017534226 0.66121978
0.036810793 0.022406578 0.66199785
0.054847471 0.044514596 0.66071081
0.060188957 0.049101561 0.66000015
0.068984702 0.065020889 0.66023624
0.068984702 0.065020889 0.66023624
-0.016145166 -0.054893553 0.66369355
-0.0064153257 -0.046511114 0.6624037
-0.0064239814 -0.04496783 0.66266489
0.0032298937 -0.022609264 0.66374546
0.025021397 0.012914732 0.66367245
0.030474659 0.014435381 0.66241556
0.033897668 0.027440995 0.66365224
0.035480451 0.029029489 0.66348004
0.037060443 0.030615151 0.66330808
0.045224387 0.046839565 0.66377074
0.05143328 0.051433265 0.66282117
0.053354513 0.061438531 0.66396958
0.059489682 0.065117627 0.66288626
-0.019541509 -0.050482243 0.66537654
-0.0089424383 -0.034952648 0.66504717
-0.0032480103 -0.026795521 0.66483885
-0.0016192466 -0.027527213 0.6642645
0.00081317069 -0.017095342 0.66534305
0.0080862856 -0.012938052 0.66402435
0.0080862856 -0.012938052 0.66402435
0.012938943 -0.0048521161 0.6640377
0.014563239 -0.0016181171 0.66413057
0.035045594 0.04075177 0.66557103
0.039061349 0.045571595 0.66526753
-0.031351376 -0.054452389 0.66798544
-0.026384633 -0.046997055 0.66786081
-0.0065933829 -0.014835089 0.66777706
-0.0065933829 -0.014835089 0.66777706
0.00082160789 -0.0049352646 0.66738451
0.0049207839 -0.0016402602 0.66680121
0.014703457 0.0098023415 0.66601127
0.013135677 0.013135701 0.66700619
0.01636756 0.014730781 0.66637802
0.01636756 0.014730781 0.66637802
0.018861407 0.021322668 0.66679424
0.031104721 0.03929022 0.66641843
0.029575726 0.041077375 0.66714334
0.041102834 0.060832173 0.66726619
0.044189196 0.060555547 0.66636372
0.049238093 0.072215855 0.66692293
-0.029777845 -0.048802003 0.66849875
-0.029777845 -0.048802003 0.66849875
-0.033309199 -0.046632856 0.66984296
-0.023141183 -0.038843557 0.66833186
-0.016550133 -0.026480168 0.6685819
-0.014881622 -0.024802685 0.66840082
-0.011577801 -0.019020095 0.66845614
-0.0016553553 -0.00165537 0.66862321
0.001108514 0.008872956 0.66962612
0.024816334 0.041360587 0.66851056
0.033076867 0.054576844 0.6684407
0.036369406 0.059513599 0.66835755
0.033308845 0.063286781 0.66984075
0.038760088 0.069215588 0.66932535
-0.041316271 -0.053038757 0.67098713
-0.038627815 -0.045345694 0.67153406
-0.035229079 -0.041099995 0.67130536
-0.035229079 -0.041099995 0.67130536
-0.033639379 -0.035321325 0.67183578
-0.028555052 -0.028555065 0.67156297
-0.016713148 -0.015041828 0.67054963
-0.020177882 -0.013451904 0.67177796
-0.0067145401 0.0067145526 0.67143327
0 0.010848835 0.67026544
0.010022218 0.028396308 0.67043555
0.010920539 0.036965147 0.67162633
0.01844533 0.046951771 0.67121756
0.025025556 0.051719457 0.67019427
0.023510745 0.057097554 0.67151821
0.031092077 0.070589662 0.67168331
0.036701448 0.070901111 0.67017943
-0.047580324 -0.045881033 0.67392743
-0.045216125 -0.044650208 0.67347896
-0.03565716 -0.02716738 0.67376602
-0.025292188 -0.018547595 0.67233992
-0.027196482 -0.011898428 0.67398566
-0.018558133 -0.0067484379 0.67245549
-0.011799654 0.0033712983 0.67228186
-0.0084970659 0.018693537 0.67394143
-0.0033942126 0.025456578 0.67366302
-0.0016979539 0.028865248 0.67376524
0.0067411922 0.03370598 0.67223758
0.0084848963 0.044970557 0.67364764
0.013567106 0.052572548 0.67351592
0.013567106 0.052572548 0.67351592
0.016951581 0.057635367 0.67342782
-0.058352299 -0.051487356 0.67597312
-0.044480834 -0.032505214 0.6753161
-0.044480834 -0.032505214 0.6753161
-0.039465014 -0.020590454 0.675928
-0.039465014 -0.020590454 0.675928
-0.036017582 -0.015436083 0.67583776
-0.018744508 0.0051121414 0.67450064
-0.018879987 0.013730913 0.67598742
-0.018879987 0.013730913 0.67598742
-0.0085275527 0.023025021 0.67467743
0.006838229 0.051286727 0.67516595
0.018709492 0.064632803 0.67411643
-0.063772939 -0.055154979 0.67686021
-0.060474865 -0.046652019 0.67737442
-0.053361706 -0.039590955 0.67658889
-0.053672761 -0.032896191 0.67780012
-0.04477115 -0.024967894 0.67666399
-0.036226902 -0.0086254478 0.67704099
-0.032762371 -0.0034486353 0.67694974
-0.029343572 0.0034522116 0.67716193
-0.024988517 0.0086163878 0.67682183
-0.020675501 0.015506625 0.67678356
-0.0068698917 0.034349471 0.67612147
-0.0034584505 0.048418343 0.67754006
-0.0034584505 0.048418343 0.67754006
0.010327207 0.065405637 0.67657149
-0.071665831 -0.050690442 0.67979991
-0.050408356 -0.022596836 0.6786257
-0.050482258 -0.020889193 0.67893338
-0.048945982 -0.013109878 0.67981493
-0.034695871 0.00086803734 0.67821223
-0.034874059 0.0069747865 0.67928767
-0.017373245 0.031271875 0.67851776
-0.0017453581 0.062832892 0.67948747
0.00086973986 0.06443876 0.67903244
0.0052238037 0.071392 0.67899376
-0.07530573 -0.054290175 0.68020421
-0.077474207 -0.051062554 0.68134874
-0.071020387 -0.045592636 0.68047792
-0.070472851 -0.038760036 0.68147475
-0.06864474 -0.036962539 0.68126965
-0.054628473 -0.012335449 0.68152153
-0.040279657 0.0035025775 0.6802035
-0.03151153 0.017506421 0.68012518
-0.031745568 0.026454657 0.68169463
-0.024595987 0.0333803 0.68087542
-0.014098616 0.054632157 0.68153584
-0.0070118369 0.059600621 0.68040502
-0.0070118369 0.059600621 0.68040502
-0.0052693738 0.064988941 0.68082732
-0.078404076 -0.037420094 0.68389976
-0.069002792 -0.030962124 0.68237782
-0.067520134 -0.023099035 0.68328834
-0.047820732 0.0053133965 0.68259943
-0.047820732 0.0053133965 0.68259943
-0.046948642 0.0070864558 0.68265581
-0.024742428 0.040648282 0.68213809
-0.023090137 0.049732625 0.68320614
-0.021325193 0.053312987 0.68331897
-0.017709989 0.054900974 0.68258262
-0.014225248 0.065791786 0.68344653
-0.0070745042 0.070745051 0.68229616
-0.0070850579 0.072621852 0.68261462
-0.085737661 -0.046441197 0.68441767
-0.085737661 -0.046441197 0.68441767
-0.080871508 -0.030551434 0.68573868
-0.080871508 -0.030551434 0.68573868
-0.075257979 -0.025085986 0.68510038
-0.057556342 0.0089931488 0.68591869
-0.046489909 0.019668818 0.68464363
-0.044590984 0.019620061 0.68410838
-0.046771649 0.026983649 0.68595171
-0.041066952 0.026782781 0.68433541
-0.041066952 0.026782781 0.68433541
-0.037591927 0.035801858 0.68488729
-0.033945266 0.039305061 0.68446499
-0.034988344 0.043061212 0.68538523
-0.028760657 0.055723757 0.68578655
-0.025040513 0.055446833 0.68470824
-0.021583546 0.068347931 0.68591785
-0.088273928 -0.039633185 0.68626541
-0.087046847 -0.029015601 0.68771005
-0.087046847 -0.029015601 0.68771005
-0.076177388 -0.010882497 0.68774277
-0.064957619 0.00090286136 0.68661183
-0.06118156 0.0035989285 0.68601787
-0.055871904 0.014418572 0.68636334
-0.050699692 0.028971255 0.68737531
-0.050776936 0.030828863 0.68770838
-0.043417118 0.039799035 0.68717539
-0.034254391 0.050480127 0.6864289
-0.038108878 0.05262652 0.68785882
-0.074746057 -0.0018230975 0.6888687
-0.065404601 0.0090839863 0.68811059
-0.065504834 0.010917485 0.68844676
-0.062218323 0.023789346 0.6896987
-0.056558512 0.029191494 0.68903697
-0.056645557 0.031063706 0.68937582
-0.056645557 0.031063706 0.68937582
-0.052966632 0.036528736 0.68927437
-0.053130087 0.040305585 0.68995476
-0.047490809 0.045664251 0.68929058
-0.043817516 0.05112046 0.6891892
-0.043884996 0.053027719 0.68952858
-0.032868091 0.069388181 0.6892224
-0.080829583 -0.0018370152 0.69055396
-0.080829583 -0.0018370152 0.69055396
-0.060701713 0.033110023 0.69084483
-0.059077274 0.040615648 0.69165593
-0.055359211 0.046132684 0.6915524
-0.053418398 0.046972081 0.69115484
-0.049826987 0.055363297 0.69156891
-0.047933247 0.057151169 0.69134468
-0.044225372 0.062652618 0.69124055
-0.038550653 0.067005426 0.69039822
-0.08560247 0.0074436963 0.69343746
-0.079527698 0.0092473924 0.69205624
-0.073984757 0.018496186 0.69207287
-0.066627741 0.031463146 0.69221187
-0.064913496 0.037093431 0.69268274
-0.063093245 0.040825069 0.69280493
-0.042537741 0.070279747 0.69205451
-0.087828279 0.0093434453 0.69437456
-0.075274333 0.039519042 0.69596452
-0.061949115 0.058194607 0.69540775
-0.086826883 0.02453807 0.69665051
-0.084986866 0.028328985 0.69677794
-0.082880653 0.028254807 0.69618094
-0.08110632 0.033009142 0.69648784
-0.07636331 0.057272494 0.69925082
-0.072277978 0.058963627 0.69840211
-0.068660684 0.068660706 0.69902849
-0.064711176 0.072324276 0.69854909
-0.084488764 0.051845372 0.70059264
-0.084625617 0.053852707 0.70096809
-0.075222149 0.073293388 0.70162761
-0.087063439 0.058042288 0.70234829
-0.0898249 0.066392332 0.70451772
0.068471752 -0.050282754 0.64099729
0.066204175 -0.03826236 0.64364684
0.050177768 -0.050178461 0.64608908
0.050177768 -0.050178461 0.64608908
0.050177768 -0.050178461 0.64608908
0.051630892 -0.038043179 0.64772582
0.068623587 -0.025915101 0.64505088
0.068623587 -0.025915101 0.64505088
0.04239757 -0.030284662 0.65159118
0.04239757 -0.030284662 0.65159118
0.058237504 -0.013657838 0.64999241
0.058237504 -0.013657838 0.64999241
0.06581597 -0.0023981871 0.64978278
0.06581597 -0.0023981871 0.64978278
0.029977299 -0.03420442 0.65437746
0.038229946 -0.021955762 0.65414721
0.038229946 -0.021955762 0.65414721
0.049362492 -0.013608329 0.65246236
0.04670636 0.001289862 0.65570354
0.058149159 0.010126889 0.65401477
0.058149159 0.010126889 0.65401477
0.058426209 0.01390412 0.65457284
0.069963142 0.025998792 0.65340579
0.010178992 -0.046200305 0.65785277
0.0205842 -0.038061954 0.65633452
0.038175717 0.0059052687 0.65884548
0.046016887 0.018093571 0.65871918
0.046016887 0.018093571 0.65871918
0.060549527 0.027170181 0.6562137
0.063289367 0.053005382 0.65979671
0.002240218 -0.033793602 0.66214019
0.0022153456 -0.026198432 0.6634239
0.013734847 -0.017888842 0.66162539
0.01398298 -0.0059160194 0.66356903
0.033820365 0.0066063306 0.66017139
0.034152072 0.013888702 0.66130352
0.045808502 0.042194359 0.66282809
0.045808502 0.042194359 0.66282809
0.051677972 0.057330817 0.66374421
-0.013184058 -0.025954545 0.66773617
-0.0024442002 -0.021988928 0.66542393
0.0017910488 -0.013696829 0.66564292
-0.0049474528 -0.011544079 0.66787428
0.021589804 0.010795265 0.6642682
0.021988505 0.018326059 0.66542327
0.032355998 0.027502596 0.66408986
0.019782849 0.02885057 0.66780424
0.027996488 0.041171312 0.66759682
0.038214248 0.05366813 0.6668632
0.039576538 0.061838925 0.66785872
0.042300247 0.065648913 0.66774368
-0.026000636 -0.025999062 0.6712839
-0.017530238 -0.017736424 0.67032343
-0.020596161 -0.014290787 0.67175299
-0.017357452 -0.010077323 0.67156267
-0.0025025688 0.0058376566 0.6701175
0.0082548875 0.011556864 0.66809469
0.0023776614 0.02218179 0.67151105
0.017614055 0.04613521 0.67131102
-0.02644892 -0.0059714764 0.67477477
-0.01516669 -0.0025271922 0.67222428
-0.024027329 0.0051487088 0.6759724
-0.014514057 0.014513664 0.67490757
-0.014514057 0.014513664 0.67490757
-0.0028095178 0.0179771 0.67224312
-0.0059662471 0.026418097 0.67453778
0.001921134 0.034401003 0.67369169
0.017789949 0.058456585 0.67333341
-0.034037091 0.0096005574 0.679497
-0.01805556 0.037274759 0.67971563
-0.0025939676 0.049485706 0.67747957
0.0058897315 0.066181622 0.67793292
0.0060949437 0.073151976 0.67904747
-0.077129602 -0.041666448 0.68283248
-0.073209293 -0.041674115 0.68174374
-0.066050664 -0.037408751 0.68047518
-0.05778531 -0.0062222406 0.68342477
-0.050703689 0.006227307 0.68355304
-0.034493364 0.025648765 0.68232137
-0.013399759 0.061736453 0.68253624
-0.0097572384 0.070067525 0.68292612
-0.083869345 -0.044611365 0.68420684
-0.071319193 -0.02496171 0.68402886
-0.072627664 -0.0036313534 0.68797743
-0.072627664 -0.0036313534 0.68797743
-0.062301934 0.0063210577 0.68678594
-0.04946927 0.022486217 0.68594354
-0.04946927 0.022486217 0.68594354
-0.048952416 0.033542171 0.68765891
-0.038623542 0.038623102 0.68564779
-0.029546395 0.049467281 0.68495268
-0.036313552 0.056285977 0.68797582
-0.026185405 0.065912828 0.68678486
-0.083636858 -0.0200001 0.68827939
-0.067288399 0.0072744191 0.68832922
-0.063028142 0.013938874 0.68826807
-0.065364994 0.026698619 0.69106078
-0.05089356 0.033626795 0.68821108
-0.050471958 0.042243719 0.68954295
-0.090062357 -0.0027846694 0.69295555
-0.082686298 0.010220237 0.69309568
-0.079589576 0.010180771 0.69222999
-0.079589576 0.010180771 0.69222999
-0.069758624 0.027162483 0.69235778
-0.062135264 0.041732572 0.69269204
-0.090374403 0.029490955 0.69846737
-0.078343764 0.038700089 0.69667834
-0.078040406 0.050441533 0.69856775
-0.067843668 0.053710312 0.696289
-0.073504098 0.062048621 0.69926071
-0.058351323 0.067762822 0.69601786
-0.086860538 0.065469012 0.70354068
-0.070983909 0.072902381 0.70038563
