# .PCD v0.7 - Point Cloud Data file format
VERSION 0.7
FIELDS x y z
SIZE 4 4 4
TYPE F F F
COUNT 1 1 1
WIDTH 1342
HEIGHT 1
VIEWPOINT 0 0 0 1 0 0 0
POINTS 1342
DATA ascii
-0.0088981101 0.011440426 0.6222465
-0.0088452892 0.010108918 0.62133563
-0.0087930914 0.008793056 0.6204356
-0.008741484 0.0074927211 0.61954558
-0.0086904997 0.0062074959 0.61866641
-0.0086517008 0.0049438179 0.61799741
-0.0087722447 0.003759563 0.62007606
-0.0088961963 0.0025417805 0.62221354
-0.0090237241 0.0012890995 0.62441266
-0.0091549372 -0 0.62667537
-0.0092900218 -0.001327157 0.62900484
-0.0094291801 -0.0026940405 0.63140452
-0.0095725423 -0.0041024983 0.63387668
-0.0097203609 -0.0055544972 0.63642573
-0.0098727858 -0.0070519745 0.63905418
-0.010030068 -0.0085971951 0.64176643
-0.010192472 -0.010192454 0.64456701
-0.010360192 -0.011840194 0.64745921
-0.010533556 -0.013543129 0.6504488
-0.010712787 -0.015303969 0.65353954
-0.010898222 -0.017125756 0.65673721
-0.011090226 -0.019011796 0.66004825
-0.011289081 -0.020965427 0.6634773
-0.011495195 -0.022990406 0.66703171
-0.011709019 -0.025090754 0.67071891
-0.011930904 -0.027270645 0.67454517
-0.012161406 -0.029534847 0.67852008
-0.012400943 -0.031888157 0.6826508
-0.012650105 -0.03433603 0.68694741
-0.012909537 -0.036884367 0.69142109
-0.013179779 -0.039539367 0.69608128
-0.013461579 -0.042307824 0.70094073
-0.013755747 -0.045197457 0.7060135
-0.014063 -0.048216015 0.71131188
-0.014384356 -0.051372677 0.71685338
-0.014720676 -0.054676831 0.72265315
-0.0150731 -0.058139116 0.72873044
-0.015442884 -0.061771572 0.73510712
-0.015831191 -0.065586358 0.74180329
-0.0095501579 0.066851079 0.6609385
-0.0094792768 0.06477505 0.65951246
-0.0094094407 0.062729597 0.65810746
-0.0093406253 0.060714066 0.65672296
-0.0092728091 0.058727801 0.65535861
-0.0092059709 0.056770176 0.65401393
-0.0091400892 0.054840565 0.6526885
-0.0090751443 0.052938342 0.65138191
-0.0090111149 0.051063001 0.65009379
-0.0089479834 0.049213886 0.64882368
-0.0088857301 0.04739061 0.64757121
-0.0088243373 0.045592427 0.64633608
-0.0087637864 0.043818921 0.64511794
-0.0087040616 0.042069674 0.64391631
-0.0086451443 0.040344 0.64273101
-0.0085870195 0.038641602 0.64156163
-0.0085296724 0.036961943 0.64040786
-0.0084730601 0.035304427 0.63926888
-0.0084172189 0.033668876 0.63814545
-0.0083621088 0.032054752 0.6370368
-0.0083077159 0.030461639 0.63594246
-0.0082540261 0.02888912 0.6348623
-0.0082010264 0.027336746 0.63379598
-0.0081487019 0.025804281 0.6327433
-0.0080970414 0.024291128 0.63170403
-0.0080460319 0.022797108 0.63067782
-0.0079956604 0.021321774 0.62966442
-0.0079459166 0.019864798 0.6286636
-0.0078967866 0.018425852 0.62767518
-0.0078482619 0.017004579 0.62669897
-0.007800329 0.015600681 0.62573463
-0.0077529787 0.0142138 0.62478203
-0.0077061784 0.012843639 0.62384045
-0.007659961 0.011489958 0.62291062
-0.0076142936 0.010152429 0.62199187
-0.0075691687 0.0088306963 0.62108403
-0.0075245746 0.0075245798 0.62018687
-0.0074805035 0.0062337816 0.61930025
-0.0074449121 0.0049632788 0.61858416
-0.0075490759 0.0037745237 0.62067986
-0.0076561756 0.0025520623 0.6228345
-0.0077663786 0.0012943745 0.62505162
-0.0078797787 -0 0.62733305
-0.0079965396 -0.0013327301 0.62968206
-0.0081168367 -0.0027056336 0.63210225
-0.0082407836 -0.0041204095 0.63459593
-0.008368575 -0.0055790246 0.63716686
-0.0085004177 -0.0070836842 0.63981932
-0.0086364551 -0.0086364448 0.64255619
-0.0087769441 -0.01023975 0.64538258
-0.0089220516 -0.011896074 0.64830196
-0.0090720374 -0.013608038 0.65131938
-0.0092271827 -0.015378624 0.6544407
-0.0093876943 -0.017210782 0.65766996
-0.0095539233 -0.019107848 0.6610142
-0.0097261108 -0.021073222 0.66447836
-0.0099046193 -0.023110777 0.66806972
-0.010089838 -0.025224596 0.67179596
-0.01028208 -0.027418882 0.67566359
-0.010481789 -0.029698402 0.67968142
-0.010689449 -0.032068342 0.68385923
-0.010905463 -0.034533948 0.68820506
-0.01113043 -0.037101448 0.69273108
-0.01136483 -0.039776921 0.69744688
-0.011609315 -0.042567492 0.70236552
-0.011864598 -0.045480967 0.70750141
-0.01213131 -0.048525244 0.71286726
-0.012410344 -0.051709741 0.71848089
-0.012702458 -0.055043966 0.72435784
-0.013008654 -0.058538944 0.7305181
-0.01333004 -0.062206864 0.7369839
-0.013667644 -0.066060275 0.7437759
-0.0080016684 0.067213982 0.66198152
-0.0079419604 0.065124065 0.66053998
-0.0078831362 0.063065112 0.65911984
-0.0078251781 0.061036378 0.65772063
-0.0077680652 0.059037298 0.65634179
-0.0077117798 0.057067156 0.65498298
-0.0076563051 0.055125415 0.65364367
-0.007601622 0.053211331 0.65232354
-0.0075477143 0.051324457 0.65102202
-0.0074945665 0.049464136 0.64973897
-0.0074421614 0.047629833 0.6484738
-0.0073904619 0.045820892 0.64722568
-0.0073394976 0.044037014 0.64599526
-0.0072892318 0.042277515 0.64478177
-0.0072396495 0.040542066 0.64358473
-0.0071907374 0.038830012 0.64240384
-0.0071424819 0.037140906 0.64123887
-0.0070948699 0.03547436 0.64008939
-0.0070478879 0.033829838 0.63895524
-0.0070015239 0.032207042 0.63783586
-0.0069557671 0.030605376 0.63673121
-0.006910603 0.029024541 0.6356408
-0.0068660225 0.027464092 0.63456458
-0.0068220133 0.025923669 0.63350213
-0.0067785648 0.024402857 0.6324532
-0.0067356662 0.022901267 0.63141751
-0.0066933073 0.021418601 0.63039488
-0.0066514774 0.019954443 0.62938499
-0.0066101486 0.018508404 0.62838727
-0.0065693492 0.017080307 0.62740219
-0.0065290499 0.015669733 0.62642932
-0.006489242 0.014276326 0.62546825
-0.0064499164 0.012899876 0.62451887
-0.0064110649 0.011539906 0.62358093
-0.0063726781 0.010196298 0.6226542
-0.0063347486 0.0088686943 0.62173849
-0.006297268 0.0075567067 0.62083364
-0.0062602283 0.006260246 0.61993939
-0.0062286095 0.0049828887 0.61917603
-0.0063161049 0.0037896633 0.62128842
-0.0064060758 0.0025624633 0.62346047
-0.0064986474 0.0012997091 0.62569535
-0.006593952 -0 0.62799621
-0.0066920752 -0.0013384223 0.63036513
-0.0067931814 -0.0027172863 0.63280606
-0.0068973699 -0.0041383803 0.63532138
-0.007004804 -0.0056038499 0.63791507
-0.0071156593 -0.0071156621 0.64059132
-0.0072300578 -0.0086760819 0.64335316
-0.0073482166 -0.010287493 0.64620572
-0.0074702795 -0.01195243 0.64915264
-0.0075964648 -0.013673633 0.65219903
-0.007727013 -0.015454024 0.65535069
-0.0078620994 -0.017296612 0.65861201
-0.0080019934 -0.019204795 0.66198933
-0.0081469836 -0.02118212 0.66548967
-0.0082972972 -0.0232324 0.66911858
-0.0084532909 -0.025359869 0.67288458
-0.0086152311 -0.027568698 0.67679423
-0.0087834978 -0.029863894 0.68085647
-0.0089585017 -0.032250613 0.68508148
-0.0091405855 -0.034734249 0.68947738
-0.0093302252 -0.037320882 0.69405568
-0.0095279384 -0.040017337 0.69882888
-0.0097341724 -0.042830378 0.70380789
-0.0099495742 -0.045768023 0.7090081
-0.010174681 -0.048838466 0.71444267
-0.010410209 -0.052051067 0.72012877
-0.010656947 -0.055416107 0.7260856
-0.010915617 -0.058944315 0.73233044
-0.011187155 -0.062648058 0.73888588
-0.0064362744 0.067580849 0.66303593
-0.0063879867 0.065476894 0.66157866
-0.0063404189 0.063404202 0.6601432
-0.0062935534 0.061362147 0.6587289
-0.0062473556 0.059349865 0.6573348
-0.0062018512 0.057367146 0.65596151
-0.0061570047 0.055413038 0.65460819
-0.0061128023 0.053487003 0.65327424
-0.0060692308 0.051588476 0.6519593
-0.0060262755 0.0497168 0.65066308
-0.0059839236 0.047871411 0.64938504
-0.0059421631 0.046051741 0.64812475
-0.0059009809 0.044257373 0.646882
-0.0058603659 0.042487681 0.64565635
-0.0058203065 0.040742159 0.64444745
-0.0057807914 0.03902036 0.64325494
-0.0057418086 0.037321746 0.64207852
-0.0057033482 0.035645932 0.6409179
-0.0056653991 0.03399241 0.63977265
-0.0056279521 0.032360733 0.63864261
-0.0055909972 0.030750483 0.63752741
-0.0055545243 0.029161274 0.63642669
-0.0055185244 0.027592629 0.63534033
-0.0054829875 0.02604419 0.63426793
-0.0054478901 0.02451551 0.63320875
-0.0054132543 0.02300632 0.63216352
-0.0053790566 0.021516204 0.63113153
-0.0053452877 0.020044863 0.63011241
-0.0053119403 0.018591762 0.62910616
-0.0052790069 0.01715678 0.62811226
-0.0052464791 0.015739441 0.62713063
-0.0052143494 0.014339447 0.62616104
-0.0051826113 0.01295656 0.62520325
-0.0051512569 0.011590332 0.62425709
-0.0051202797 0.010240555 0.62332225
-0.0050896727 0.0089069009 0.62239861
-0.0050594164 0.0075891614 0.62148547
-0.0050295307 0.0062869191 0.62058359
-0.0050026556 0.0050026774 0.61977261
-0.0050732126 0.0038048923 0.62190181
-0.0051457738 0.0025728941 0.62409163
-0.0052204411 0.0013051033 0.62634486
-0.0052973223 -0 0.62866497
-0.0053764861 -0.0013441145 0.63105392
-0.0054580518 -0.0027289987 0.63351542
-0.005542147 -0.0041566193 0.6360532
-0.0056288578 -0.0056288838 0.63866997
-0.0057183416 -0.007147938 0.6413703
-0.005810699 -0.0087160468 0.64415747
-0.0059060883 -0.010335654 0.64703608
-0.0060046809 -0.012009352 0.65001142
-0.0061066016 -0.013739824 0.65308714
-0.0062120422 -0.015530109 0.65626907
-0.0063212086 -0.017383307 0.65956342
-0.006434259 -0.019302785 0.66297507
-0.0065514487 -0.02129221 0.6665116
-0.006672964 -0.023355365 0.67017859
-0.0067990716 -0.025496513 0.67398423
-0.0069300625 -0.027720243 0.67793727
-0.0070661739 -0.030031234 0.68204474
-0.0072077662 -0.03243494 0.68631768
-0.0073551205 -0.034936816 0.69076455
-0.0075086257 -0.037543118 0.6953969
-0.0076687061 -0.040260702 0.7002278
-0.0078357281 -0.043096542 0.70526814
-0.0080101872 -0.046058536 0.7105329
-0.0081926277 -0.049155742 0.71603853
-0.0083835358 -0.052397102 0.72179961
-0.0085835913 -0.055793345 0.72783691
-0.0087933876 -0.059355348 0.73416805
-0.0090136966 -0.063095897 0.74081647
-0.0048536817 0.06795153 0.66410118
-0.0048170695 0.06583333 0.66262805
-0.004781005 0.063746721 0.66117692
-0.0047454769 0.061691195 0.65974736
-0.0047104727 0.059665978 0.6583389
-0.0046759811 0.057670474 0.65695107
-0.0046419916 0.055703908 0.65558344
-0.0046084919 0.053765744 0.65423548
-0.0045754728 0.051855356 0.65290689
-0.0045429231 0.049972206 0.6515972
-0.0045108334 0.048115551 0.65030605
-0.0044791936 0.046285033 0.64903295
-0.0044479948 0.044479936 0.64777762
-0.0044172276 0.042699873 0.64653957
-0.0043868832 0.040944248 0.64531863
-0.0043569528 0.039212555 0.64411438
-0.0043274281 0.037504405 0.64292634
-0.0042983005 0.035819173 0.64175439
-0.0042695496 0.034156382 0.64059758
-0.0042411936 0.032515854 0.63945657
-0.0042132121 0.030896902 0.6383307
-0.0041855969 0.02929917 0.63721949
-0.0041583418 0.027722269 0.63612288
-0.0041314387 0.026165813 0.6350404
-0.004104882 0.024629325 0.63397181
-0.0040786644 0.023112446 0.63291693
-0.0040527796 0.02161482 0.63187534
-0.0040272214 0.020136118 0.63084698
-0.0040019834 0.018675923 0.62983149
-0.0039770599 0.017233968 0.62882859
-0.0039524445 0.015809804 0.62783819
-0.0039281324 0.014403194 0.6268599
-0.0039041066 0.013013691 0.62589329
-0.0038803834 0.011641145 0.62493873
-0.0038569469 0.010285199 0.62399566
-0.0038337919 0.0089455247 0.62306398
-0.0038109131 0.0076217949 0.62214339
-0.0037883059 0.0063138604 0.62123376
-0.0037669358 0.0050225854 0.6203739
-0.0038202684 0.0038202703 0.62251985
-0.0038751436 0.0025834143 0.62472785
-0.0039316071 0.0013105571 0.6269998
-0.0039897519 -2.9802322e-08 0.62933934
-0.0040496308 -0.0013498664 0.63174868
-0.0041113342 -0.0027408898 0.63423145
-0.0041749594 -0.0041749477 0.63679153
-0.004240572 -0.0056540966 0.6394316
-0.0043082801 -0.0071804821 0.64215595
-0.0043781991 -0.0087563992 0.64496922
-0.0044504106 -0.010384291 0.64787483
-0.0045250584 -0.012066811 0.65087843
-0.0046022385 -0.013806701 0.65398389
-0.0046820967 -0.01560697 0.65719712
-0.0047647916 -0.017470896 0.66052455
-0.0048504435 -0.019401789 0.66397089
-0.0049392483 -0.021403432 0.66754413
-0.0050313477 -0.02347964 0.67124993
-0.0051269466 -0.025634736 0.67509651
-0.0052262689 -0.027873427 0.67909294
-0.0053294948 -0.030200452 0.68324637
-0.0054368805 -0.032621294 0.68756729
-0.0055487049 -0.035141766 0.69206673
-0.0056652026 -0.037768006 0.69675422
-0.0057867211 -0.040507078 0.70164382
-0.0059135421 -0.043365985 0.70674676
-0.006046047 -0.046353042 0.71207827
-0.006184652 -0.04947722 0.7176553
-0.0063297339 -0.052747786 0.72349298
-0.0064817853 -0.056175441 0.72961104
-0.0066413535 -0.059772193 0.73603159
-0.0068089436 -0.063550174 0.74277484
-0.0032536446 0.068326563 0.66517889
-0.0032289671 0.066193849 0.66368949
-0.003204661 0.064093232 0.6622225
-0.0031807185 0.062024027 0.66077745
-0.0031571309 0.059985518 0.65935379
-0.0031338905 0.057976961 0.65795118
-0.0031109899 0.055997849 0.65656894
-0.0030884214 0.054047406 0.6552068
-0.0030661779 0.052125037 0.65386426
-0.003044253 0.050230205 0.65254104
-0.0030226391 0.048362255 0.65123647
-0.0030013302 0.046520621 0.64995039
-0.0029803095 0.044704676 0.64868176
-0.0029595913 0.042914063 0.64743125
-0.0029391588 0.041148216 0.64619803
-0.0029190066 0.039406568 0.64498174
-0.0028991289 0.037688702 0.64378202
-0.0028795199 0.035994023 0.64259851
-0.0028601743 0.034322083 0.64143097
-0.0028410873 0.032672554 0.64027888
-0.0028222529 0.031044781 0.63914216
-0.002803667 0.029438525 0.6380204
-0.0027853241 0.027853251 0.63691336
-0.0027672197 0.026288569 0.63582063
-0.0027493492 0.024744153 0.63474202
-0.0027317079 0.023219496 0.63367724
-0.0027142917 0.02171433 0.63262612
-0.002697096 0.020228237 0.63158828
-0.0026801168 0.0187608 0.6305635
-0.0026633427 0.017311752 0.62955105
-0.0026467845 0.015880704 0.62855172
-0.002630431 0.014467359 0.62756467
-0.0026142783 0.013071388 0.62658978
-0.0025983227 0.011692464 0.62562674
-0.0025825608 0.01033026 0.62467545
-0.002566989 0.0089844763 0.62373561
-0.0025516038 0.0076547861 0.62280703
-0.0025364019 0.0063410401 0.62188947
-0.0025213801 0.0050427616 0.62098289
-0.002557175 0.0038357675 0.62314332
-0.0025940582 0.0025940537 0.62536943
-0.0026320133 0.001316011 0.62766016
-0.0026711032 -0 0.63001949
-0.0027113636 -0.0013556778 0.63244939
-0.0027528566 -0.0027528405 0.63495368
-0.0027956474 -0.004193455 0.63753635
-0.0028397811 -0.0056795478 0.64020002
-0.0028853305 -0.0072133243 0.64294922
-0.0029323741 -0.0087971091 0.64578855
-0.0029809675 -0.010433376 0.64872146
-0.0030312089 -0.012124807 0.65175372
-0.0030831622 -0.013874233 0.65488946
-0.0031369277 -0.015684634 0.65813446
-0.0031926124 -0.01755935 0.66149533
-0.0032502988 -0.019501776 0.66497701
-0.0033101195 -0.021515757 0.66858745
-0.0033721714 -0.023605198 0.67233264
-0.0034365945 -0.025774449 0.67622095
-0.0035035401 -0.028028309 0.68026143
-0.0035731317 -0.030371636 0.68446171
-0.0036455444 -0.032809883 0.68883216
-0.0037209671 -0.03534919 0.69338435
-0.0037995619 -0.037995607 0.69812787
-0.0038815481 -0.040756255 0.70307624
-0.0039671669 -0.043638825 0.70824385
-0.0040566311 -0.046651244 0.71364343
-0.0041502416 -0.049802929 0.71929342
-0.0042482554 -0.053103149 0.72520894
-0.0043510105 -0.056563139 0.73141086
-0.0044588805 -0.06019488 0.73792136
-0.0045722132 -0.064010978 0.74476159
-0.0016358495 0.068705708 0.66626859
-0.0016233741 0.066558361 0.66476274
-0.0016110875 0.064443499 0.66327959
-0.0015989853 0.062360436 0.66181868
-0.0015870637 0.060308427 0.66037965
-0.0015753185 0.058286786 0.65896189
-0.0015637409 0.05629468 0.65756434
-0.0015523371 0.054331809 0.65618783
-0.0015410985 0.052397311 0.65483117
-0.0015300214 0.050490737 0.65349406
-0.0015191026 0.048611283 0.65217602
-0.0015083384 0.046758503 0.65087664
-0.0014977256 0.044931769 0.64959562
-0.0014872613 0.043130547 0.64833248
-0.001476942 0.041354388 0.6470868
-0.001466765 0.039602697 0.64585829
-0.0014567274 0.037874907 0.64464664
-0.001446826 0.036170691 0.64345145
-0.0014370586 0.034489363 0.64227241
-0.0014274219 0.032830745 0.64110917
-0.0014179137 0.031194121 0.63996148
-0.0014085314 0.029579163 0.63882887
-0.0013992724 0.027985483 0.63771123
-0.0013901343 0.026412547 0.63660812
-0.0013811149 0.024860054 0.63551944
-0.0013722117 0.023327619 0.63444471
-0.0013634184 0.021814704 0.63338333
-0.0013547413 0.020321131 0.6323359
-0.0013461739 0.018846422 0.6313017
-0.0013377141 0.017390281 0.63028049
-0.0013293599 0.015952319 0.62927204
-0.0013211095 0.014532208 0.62827611
-0.0013129609 0.013129622 0.62729251
-0.001304912 0.011744171 0.62632096
-0.0012969613 0.010375708 0.6253612
-0.001289107 0.0090237558 0.62441313
-0.0012813472 0.0076881051 0.62347639
-0.0012736768 0.0063684285 0.62255049
-0.0012661011 0.0050643981 0.62163609
-0.0012837944 0.0038513839 0.62377179
-0.0013023874 0.0026047826 0.6260162
-0.0013215232 0.0013215244 0.62832606
-0.0013412299 2.9802322e-08 0.63070488
-0.0013615369 -0.0013614893 0.63315612
-0.0013824643 -0.0027649105 0.63568234
-0.0014040493 -0.004212141 0.6382879
-0.0014263147 -0.0057052672 0.64097553
-0.0014492976 -0.0072465241 0.64374983
-0.001473038 -0.0088382065 0.64661551
-0.0014975643 -0.010482907 0.64957613
-0.0015229211 -0.012183368 0.652637
-0.0015491566 -0.01394242 0.65580392
-0.0015763065 -0.015763044 0.6590811
-0.0016044305 -0.017648697 0.662476
-0.0016335705 -0.019602835 0.66599345
-0.0016637887 -0.021629244 0.6696412
-0.001695152 -0.023732096 0.67342705
-0.0017277143 -0.025915682 0.67735767
-0.0017615585 -0.028184921 0.6814431
-0.0017967484 -0.030544698 0.68569088
-0.0018333726 -0.033000737 0.69011176
-0.0018715287 -0.035559058 0.69471759
-0.0019112988 -0.038225979 0.69951832
-0.001952796 -0.041008711 0.7045275
-0.0019961435 -0.043915123 0.70975995
-0.0020414502 -0.046953321 0.71522897
-0.0020888706 -0.0501329 0.72095311
-0.0021385369 -0.053463399 0.72694832
-0.0021906223 -0.056956172 0.73323566
-0.0022453191 -0.060623586 0.73983812
-0.0023028059 -0.064478576 0.74677742
0 0.066926688 0.66584706
0 0.064797431 0.66434753
0 0.062700301 0.66287071
0 0.060634643 0.66141593
0 0.05859977 0.6599828
0 0.056594878 0.65857095
0 0.054619431 0.65717971
0 0.052672714 0.65580875
0 0.05075413 0.65445763
0 0.048863053 0.65312582
0 0.046998948 0.65181303
0 0.045161217 0.65051883
0 0.043349296 0.64924276
0 0.041562617 0.6479845
0 0.039800674 0.64674366
0 0.03806299 0.64551991
0 0.036349058 0.64431286
0 0.034658343 0.6431222
0 0.032990485 0.64194751
0 0.031344771 0.64078814
0 0.029721051 0.63964468
0 0.028118819 0.63851631
0 0.026537627 0.63740271
0 0.024977028 0.63630366
0 0.023436636 0.63521886
0 0.021916062 0.634148
0 0.020414948 0.63309085
0 0.018932879 0.63204712
0 0.017469585 0.63101655
0 0.01602459 0.62999892
0 0.014597595 0.62899405
0 0.013188362 0.62800157
0 0.011796385 0.62702084
0 0.010421485 0.62605262
0 0.0090633929 0.62509608
0 0.0077216327 0.62415123
0 0.0063960254 0.62321764
0 0.005086273 0.62229526
0 0.0038671494 0.6244055
0 0.0026156008 0.62666798
0 0.0013270974 0.62899762
0 -0 0.63139665
0 -0.0013674498 0.63386905
0 -0.0027770698 0.63641733
0 -0.0042309761 0.6390456
0 -0.0057311654 0.64175802
0 -0.0072799623 0.64455783
0 -0.0088796914 0.64745027
0 -0.010533005 0.65043896
0 -0.012242466 0.65352935
0 -0.014011264 0.65672731
0 -0.015842259 0.66003734
0 -0.017738968 0.6634661
0 -0.019704938 0.66702068
0 -0.021743983 0.67070681
0 -0.023860425 0.67453337
0 -0.026058525 0.67850697
0 -0.028343201 0.6826371
0 -0.030719787 0.68693399
0 -0.033193767 0.69140637
0 -0.035771251 0.6960659
0 -0.038459122 0.70092565
0 -0.041264325 0.70599675
0 -0.044194996 0.71129537
0 -0.047259361 0.71683514
0 -0.050467074 0.7226339
0 -0.053828567 0.72871149
0 -0.057354718 0.73508596
0 -0.061058134 0.741781
0 -0.064953029 0.74882281
0.0016414464 0.067299306 0.66694421
0.0016288857 0.065155417 0.66542804
0.0016165158 0.063044131 0.66393483
0.0016043324 0.060964614 0.6624642
0.0015923312 0.058916271 0.66101551
0.0015805083 0.056898296 0.6595884
0.0015688597 0.054910123 0.6581822
0.0015573815 0.052950978 0.65679669
0.0015460699 0.051020294 0.65543127
0.0015349216 0.049117476 0.65408558
0.0015239328 0.047241896 0.65275913
0.0015131003 0.04539302 0.65145153
0.001502416 0.043570101 0.65016174
0.0014918861 0.041772813 0.64889073
0.0014815028 0.040000558 0.64763731
0.0014712631 0.038252831 0.64640129
0.001461164 0.036529094 0.64518219
0.0014512024 0.034828842 0.64397979
0.0014413761 0.033151627 0.6427936
0.0014316817 0.031497002 0.64162338
0.0014221168 0.02986449 0.64046878
0.0014126789 0.028253555 0.63932955
0.0014033655 0.026663959 0.63820529
0.0013941741 0.025095105 0.63709581
0.0013851023 0.023546696 0.63600075
0.0013761477 0.022018373 0.63491982
0.0013673082 0.020509601 0.63385284
0.0013585816 0.01902014 0.63279945
0.0013499619 0.017549515 0.63175887
0.0013414543 0.016097486 0.63073194
0.0013330537 0.014663637 0.62971795
0.0013247575 0.01324755 0.62871653
0.0013165639 0.011849076 0.62772745
0.0013084711 0.010467798 0.62675053
0.0013004771 0.0091033578 0.62578559
0.0012925803 0.0077554882 0.62483239
0.0012847786 0.0064238608 0.62389064
0.0012770707 0.0051082969 0.62296021
0.0012943362 0.0038830042 0.62504435
0.0013132344 0.0026265085 0.62732553
0.0013326965 0.0013327003 0.62967479
0.0013527402 -0 0.63209426
0.0013733961 -0.0013733506 0.63458771
0.0013946967 -0.0027893782 0.63715893
0.0014166641 -0.00424999 0.63981062
0.001439339 -0.0057573318 0.64254773
0.001462747 -0.0073137283 0.64537328
0.0014869289 -0.0089215934 0.6482923
0.0015119287 -0.01058352 0.65131009
0.0015377786 -0.01230225 0.65443045
0.001564533 -0.014080793 0.65765995
0.0015922294 -0.015922278 0.66100317
0.001620924 -0.017830163 0.66446692
0.0016506775 -0.019808114 0.66805851
0.0016815381 -0.021859974 0.67178369
0.0017135743 -0.023990035 0.67565084
0.0017468615 -0.026202917 0.67966896
0.0017814608 -0.028503358 0.68384552
0.0018174653 -0.030896872 0.68819153
0.0018549479 -0.033389062 0.69271612
0.0018940092 -0.035986185 0.69743127
0.001934759 -0.038695186 0.70235014
0.0019772924 -0.041523129 0.70748448
0.0020217379 -0.044478208 0.7128495
0.0020682365 -0.047569424 0.71846235
0.0021169148 -0.050805956 0.72433835
0.0021679499 -0.054198772 0.73049879
0.0022214961 -0.057758898 0.73696238
0.002277754 -0.061499357 0.74375337
0.0023369472 -0.065434515 0.7508986
0.0033012745 0.067676127 0.66805369
0.003275872 0.065517455 0.66652048
0.0032508576 0.063391715 0.66501069
0.0032262222 0.061298251 0.66352385
0.0032019578 0.059236228 0.66205943
0.0031780552 0.057204962 0.66061676
0.0031544964 0.055203706 0.65919483
0.0031312949 0.053232014 0.65779448
0.0031084318 0.051289111 0.65641463
0.0030859006 0.049374431 0.65505469
0.0030636934 0.047487259 0.65371436
0.0030418036 0.045627058 0.65239316
0.0030202242 0.043793261 0.65109074
0.0029989493 0.041985273 0.64980674
0.0029779715 0.040202618 0.64854062
0.0029572854 0.038444698 0.64729208
0.0029368845 0.036711037 0.64606082
0.0029167633 0.035001159 0.64484638
0.0028969161 0.033314496 0.64364851
0.0028773372 0.031650692 0.64246678
0.0028580208 0.03000918 0.64130098
0.0028389622 0.028389633 0.64015061
0.002820156 0.026791483 0.63901561
0.0028015976 0.025214404 0.63789546
0.0027832817 0.023657918 0.63679004
0.0027651957 0.022121608 0.63569838
0.0027473511 0.020605117 0.63462144
0.0027297353 0.019108146 0.63355821
0.0027123443 0.017630249 0.63250852
0.002695173 0.016171068 0.63147223
0.0026782178 0.014730185 0.63044894
0.002661475 0.013307393 0.62943834
0.00264494 0.011902273 0.62844038
0.0026286093 0.010514468 0.6274547
0.0026124788 0.0091436803 0.62648118
0.0025965453 0.0077896416 0.62551951
0.0025807978 0.0064519644 0.62456906
0.0025652472 0.0051304996 0.62363046
0.0025993446 0.003899008 0.62568843
0.0026374557 0.0026374757 0.6279887
0.0026767089 0.0013383627 0.63035774
0.0027171399 2.9802322e-08 0.63279802
0.002758811 -0.0013794303 0.63531309
0.0028017885 -0.0028017461 0.63790703
0.0028461178 -0.0042691827 0.6405825
0.0028918725 -0.0057837367 0.64334404
0.0029391313 -0.0073478222 0.64619637
0.002987951 -0.0089638531 0.64914292
0.0030384297 -0.010634482 0.65218955
0.0030906333 -0.01236251 0.65534031
0.0031446619 -0.014150947 0.65860128
0.0032006241 -0.016003102 0.66197884
0.0032586027 -0.017922312 0.66547817
0.0033187324 -0.019912392 0.66910738
0.003381111 -0.021977216 0.67287219
0.0034458791 -0.024121165 0.6767813
0.0035131902 -0.026348919 0.68084395
0.0035831698 -0.028665334 0.68506753
0.003656008 -0.031076044 0.68946373
0.0037318543 -0.033586711 0.69404143
0.0038109142 -0.036203682 0.69881314
0.0038934126 -0.038934112 0.70379233
0.0039795451 -0.04178524 0.70899093
0.0040695742 -0.044765323 0.71442467
0.00416379 -0.04788357 0.72011107
0.0042624525 -0.051149428 0.72606593
0.0043659238 -0.054574043 0.73231095
0.004474523 -0.058168799 0.73886549
0.0045886622 -0.061946958 0.74575436
0.0047088005 -0.065923184 0.75300533
0.0049797948 0.068057209 0.66917557
0.0049412455 0.065883279 0.66762447
0.0049033049 0.063742995 0.66609788
0.004865943 0.061635286 0.66459453
0.004829146 0.059559494 0.66311395
0.0047929017 0.057514817 0.66165555
0.0047571971 0.055500656 0.66021895
0.0047220201 0.053516239 0.65880352
0.00468736 0.051560938 0.65740895
0.0046532052 0.049634218 0.65603465
0.0046195444 0.047735304 0.65468019
0.0045863669 0.045863658 0.65334529
0.0045536626 0.044018775 0.65202934
0.0045214216 0.04219991 0.6507321
0.0044896337 0.040406674 0.64945304
0.0044582901 0.038638532 0.64819181
0.0044273804 0.036894828 0.64694822
0.0043968973 0.035175174 0.64572161
0.00436683 0.033479035 0.64451182
0.0043371585 0.031805843 0.64331788
0.0043079006 0.030155301 0.64214063
0.0042790347 0.028526902 0.64097917
0.004250553 0.026920199 0.63983315
0.004222448 0.025334716 0.63870233
0.0041947123 0.023770034 0.6375863
0.0041673379 0.022225797 0.63648486
0.0041403193 0.020701587 0.63539767
0.0041136486 0.019197047 0.63432455
0.0040873196 0.017711699 0.63326514
0.0040613245 0.016245306 0.6322192
0.0040356591 0.014797449 0.63118649
0.0040103155 0.013367712 0.63016671
0.0039852769 0.011955798 0.62915933
0.0039605605 0.010561466 0.62816477
0.0039361482 0.0091843605 0.62718248
0.0039120354 0.0078240931 0.62621224
0.0038882163 0.0064803958 0.62525386
0.0038646855 0.0051529408 0.62430704
0.0039151581 0.0039151609 0.62633789
0.0039728023 0.0026485622 0.62865734
0.0040321695 0.0013440549 0.63104606
0.0040933499 -2.9802322e-08 0.63350785
0.0041564032 -0.0013854802 0.63604486
0.0042214422 -0.0028142631 0.6386618
0.0042885356 -0.0042885244 0.64136147
0.0043577962 -0.00581038 0.64414829
0.004429345 -0.0073822439 0.64702719
0.0045032678 -0.00900653 0.65000159
0.004579715 -0.01068598 0.6530776
0.0046587866 -0.012423426 0.65625918
0.0047406373 -0.014221877 0.65955263
0.0048254314 -0.01608476 0.66296446
0.0049132975 -0.018015414 0.66649997
0.0050044223 -0.020017684 0.67016655
0.0050990102 -0.02209571 0.67397243
0.0051972228 -0.024253696 0.67792422
0.005299313 -0.026496559 0.68203205
0.005405474 -0.028829187 0.68630362
0.0055159754 -0.031257182 0.69074982
0.0056311111 -0.033786654 0.6953826
0.0057511325 -0.036423832 0.70021176
0.0058763823 -0.039175868 0.70525146
0.0060072332 -0.04205063 0.71051651
0.0061440184 -0.045056105 0.71602035
0.0062872055 -0.048201948 0.72178179
0.0064371969 -0.051497579 0.72781694
0.0065945196 -0.05495429 0.73414707
0.0067597567 -0.058584511 0.74079573
0.006933454 -0.062401056 0.74778473
0.0066773007 0.068442345 0.67030948
0.006625344 0.066253424 0.66874158
0.0065741893 0.064098358 0.66719782
0.0065238182 0.061976254 0.66567779
0.0064742137 0.059886485 0.66418082
0.006425357 0.057828218 0.66270643
0.0063772327 0.055800796 0.66125417
0.0063298238 0.053803504 0.65982348
0.0062831151 0.051835686 0.65841389
0.0062370901 0.049896717 0.65702498
0.0061917342 0.047985941 0.65565628
0.006147034 0.046102792 0.65430725
0.0061029741 0.044246584 0.65297765
0.0060595414 0.042416811 0.65166694
0.0060167029 0.040612727 0.65037423
0.0059744855 0.038834184 0.64910018
0.0059328559 0.037080348 0.6478439
0.0058918032 0.035350829 0.64660501
0.0058513135 0.033645034 0.64538312
0.0058113779 0.031962574 0.64417797
0.0057719829 0.030302942 0.6429891
0.0057331184 0.028665602 0.64181626
0.005694774 0.027050138 0.64065915
0.005656939 0.02545619 0.63951737
0.0056196032 0.023883313 0.63839066
0.0055827573 0.022331059 0.63727868
0.0055463915 0.020798981 0.63618135
0.005510496 0.019286752 0.63509804
0.005475047 0.017793924 0.63402826
0.0054400661 0.016320199 0.63297266
0.0054055299 0.01486522 0.63193041
0.005371429 0.013428599 0.63090134
0.0053377561 0.012009919 0.6298852
0.0053045023 0.010609031 0.62888157
0.0052716606 0.0092253983 0.62789053
0.0052392227 0.0078588426 0.62691164
0.0052071819 0.0065089762 0.62594473
0.0051755304 0.0051755607 0.62498963
0.0052419105 0.003931433 0.62699276
0.0053194151 0.0026597381 0.62933165
0.0053992458 0.0013498068 0.63174081
0.0054815244 -2.9802322e-08 0.63422382
0.0055663339 -0.0013915896 0.63678312
0.0056538084 -0.0028268993 0.63942295
0.005744094 -0.0043080747 0.64214748
0.0058372919 -0.0058372617 0.64495999
0.0059335823 -0.0074169934 0.64786577
0.0060330839 -0.0090496242 0.65086854
0.0061359792 -0.010737985 0.6539737
0.0062424662 -0.012484908 0.65718716
0.0063526924 -0.014293581 0.66051358
0.0064668818 -0.016167164 0.66395956
0.0065852739 -0.0181095 0.66753232
0.006708059 -0.020124197 0.67123771
0.0068355338 -0.022215426 0.67508459
0.0069679217 -0.024387717 0.67907971
0.0071055391 -0.02664578 0.68323267
0.0072487295 -0.028994918 0.68755388
0.0073977807 -0.031440526 0.69205189
0.0075531206 -0.033989042 0.69673967
0.007715093 -0.036646634 0.70162761
0.0078841634 -0.039420813 0.70672983
0.0080608455 -0.042319477 0.7120617
0.0082455911 -0.04535076 0.71763688
0.0084390417 -0.048524499 0.72347474
0.0086417487 -0.051850498 0.72959191
0.008854433 -0.055340201 0.73601019
0.0090778926 -0.059006304 0.74275374
0.0093128793 -0.062861949 0.74984515
0.0083284732 0.066627771 0.66987133
0.0082638087 0.064457744 0.66831011
0.0082001397 0.062321067 0.66677302
0.008137445 0.060217083 0.66525948
0.0080757001 0.058145046 0.66376877
0.0080148866 0.056104213 0.66230065
0.0079549812 0.054093868 0.6608544
0.00789594 0.052113175 0.65942895
0.0078377929 0.050161898 0.65802521
0.007780497 0.048239112 0.6566419
0.0077240318 0.046344191 0.65527874
0.0076683806 0.044476599 0.65393519
0.0076135262 0.042635769 0.6526109
0.0075594508 0.040821046 0.65130538
0.0075061377 0.039031923 0.65001833
0.0074535711 0.037267864 0.64874923
0.0074017365 0.035528332 0.64749783
0.0073506171 0.033812851 0.64626372
0.0073001995 0.032120883 0.64504653
0.0072504682 0.030451983 0.64384592
0.0072014104 0.028805643 0.64266157
0.0071530123 0.027181476 0.64149308
0.0071052597 0.025578946 0.64034027
0.0070581408 0.023997694 0.63920271
0.0070116222 0.022437215 0.63807964
0.0069657327 0.02089721 0.63697171
0.0069204401 0.019377232 0.63587832
0.0068757329 0.017876923 0.63479894
0.0068315999 0.016395837 0.63373351
0.0067880293 0.014933676 0.63268167
0.0067450111 0.013489991 0.63164312
0.0067025344 0.012064576 0.63061762
0.0066605899 0.010656953 0.629605
0.006619167 0.0092668831 0.62860495
0.0065782559 0.0078939199 0.62761724
0.00653783 0.0065378547 0.62664127
0.0064979149 0.0051983595 0.62567765
0.0065797213 0.0039478838 0.62765265
0.0066774366 0.0026709735 0.63001168
0.0067780791 0.0013556182 0.6324414
0.006881821 -0 0.63494599
0.0069887675 -0.0013977587 0.63752788
0.0070990901 -0.0028395951 0.64019132
0.0072129746 -0.004327774 0.6429407
0.0073305489 -0.0058644414 0.64577925
0.0074520195 -0.0074520409 0.6487118
0.0075776083 -0.0090931654 0.65174377
0.007707478 -0.010790467 0.65487915
0.0078419028 -0.012547046 0.65812445
0.0079810731 -0.014365941 0.66148424
0.0081252716 -0.016250521 0.66496551
0.0082748057 -0.01820457 0.66857564
0.0084299175 -0.020231813 0.67232037
0.008590986 -0.022336572 0.67620891
0.0087582981 -0.024523228 0.68024808
0.0089322552 -0.026796758 0.68444788
0.0091132978 -0.029162586 0.68881857
0.0093017956 -0.031626076 0.69336933
0.0094982553 -0.034193695 0.69811225
0.009703232 -0.036872268 0.70306087
0.0099172099 -0.039668828 0.70822668
0.010140881 -0.042591691 0.71362662
0.010374829 -0.045649201 0.71927464
0.010619827 -0.048851192 0.72518939
0.010876725 -0.052208275 0.73139155
0.011146307 -0.055731535 0.73789972
0.011429593 -0.059433877 0.74473888
0.011727711 -0.063329637 0.75193608
0.01005096 0.067006409 0.67101383
0.0099724801 0.064821124 0.66943496
0.0098951831 0.062669486 0.66787982
0.0098191081 0.060551167 0.66634935
0.0097441943 0.058465183 0.66484213
0.009670415 0.05641076 0.66335785
0.0095977439 0.054387212 0.66189581
0.0095261578 0.052393883 0.66045558
0.0094556315 0.05043003 0.65903676
0.0093861409 0.048495084 0.65763867
0.0093176654 0.046588331 0.65626109
0.0092501808 0.044709206 0.65490335
0.0091836676 0.04285714 0.65356529
0.0091181034 0.04103145 0.65224618
0.0090534687 0.039231688 0.65094584
0.0089897448 0.037457258 0.64966381
0.0089269103 0.035707653 0.64839971
0.0088649495 0.033982307 0.64715314
0.0088038417 0.032280773 0.64592373
0.0087435711 0.030602515 0.6447112
0.0086840941 0.028946966 0.64351457
0.0086254459 0.027313948 0.6423347
0.0085675856 0.025702775 0.64117062
0.0085104955 0.024113059 0.6400221
0.0084541617 0.022544444 0.63888872
0.0083985692 0.020996422 0.6377703
0.0083437022 0.019468665 0.63666642
0.0082895476 0.017960668 0.63557696
0.0082360916 0.016472161 0.63450152
0.008183321 0.015002757 0.63343984
0.0081312219 0.01355201 0.63239169
0.0080797821 0.012119651 0.63135678
0.0080289664 0.010705292 0.63033444
0.0079788081 0.0093086064 0.62932539
0.0079292729 0.0079292655 0.62832874
0.0078803487 0.0065670013 0.62734449
0.0078320242 0.0052213371 0.62637228
0.0079287626 0.0039643943 0.62831849
0.0080470135 0.002682358 0.63069755
0.0081688212 0.0013614595 0.63314813
0.008294398 2.9802322e-08 0.63567448
0.0084238704 -0.0014039576 0.63827932
0.0085574491 -0.0028524697 0.64096671
0.0086953593 -0.004347682 0.64374125
0.0088377595 -0.0058918297 0.64660609
0.0089849019 -0.0074874163 0.64956635
0.0091370558 -0.0091370344 0.65262747
0.0092944214 -0.010843456 0.65579343
0.0094573339 -0.01260978 0.65907097
0.0096260272 -0.014439017 0.6624648
0.0098008476 -0.016334742 0.66598195
0.0099821705 -0.018300623 0.66962987
0.010170292 -0.020340562 0.67341459
0.010365642 -0.022458881 0.67734468
0.010568681 -0.024660259 0.68142962
0.010779792 -0.026949465 0.68567681
0.010999554 -0.029332131 0.69009805
0.011228415 -0.03181386 0.69470239
0.011467004 -0.034401 0.69950247
0.011716002 -0.037100673 0.70451182
0.011976001 -0.039919972 0.70974267
0.012247802 -0.042867303 0.71521091
0.012532283 -0.045951724 0.72093421
0.012830235 -0.049182564 0.72692847
0.013142759 -0.052571058 0.73321605
0.013470826 -0.056128442 0.73981625
0.01381569 -0.059868008 0.74675435
0.014178746 -0.063804358 0.75405848
0.01179309 0.067389131 0.67216867
0.011700487 0.065188438 0.6705718
0.011609326 0.063022077 0.66899979
0.011519575 0.060889155 0.66745204
0.0114312 0.058789015 0.66592813
0.011344172 0.056720883 0.66442734
0.011258458 0.054683983 0.66294926
0.01117403 0.052677572 0.66149336
0.011090859 0.050701082 0.66005915
0.011008917 0.048753828 0.65864611
0.010928177 0.046835065 0.65725374
0.010848613 0.044944257 0.65588176
0.010770198 0.043080777 0.65452957
0.010692908 0.04124409 0.65319675
0.010616687 0.03943342 0.65188229
0.010541579 0.037648529 0.65058714
0.010467526 0.035888672 0.64931017
0.010394504 0.034153402 0.64805096
0.010322495 0.032442123 0.64680922
0.010251477 0.030754417 0.64558452
0.01018143 0.029089808 0.64437664
0.010112333 0.02744779 0.64318508
0.010044168 0.025827885 0.64200962
0.009976916 0.024229646 0.64084989
0.0099105584 0.022652715 0.63970554
0.0098450771 0.021096617 0.63857639
0.0097804554 0.019560903 0.63746208
0.0097166775 0.018045276 0.6363622
0.0096536968 0.0165492 0.63527614
0.0095915552 0.015072435 0.63420457
0.009530209 0.013614565 0.6331467
0.0094696423 0.012175262 0.63210225
0.0094098412 0.010754108 0.63107103
0.0093507897 0.0093507767 0.63005275
0.0092924749 0.0079649985 0.6290471
0.0092348829 0.0065963268 0.62805402
0.0091780014 0.0052445531 0.62707311
0.0092891613 0.0039810538 0.62898993
0.0094282925 0.0026938021 0.6313892
0.0095716286 0.0013673902 0.63386095
0.0097193895 2.9802322e-08 0.63640893
0.0098718135 -0.0014102459 0.63903743
0.010029064 -0.0028654039 0.64174914
0.010191405 -0.004367739 0.64454859
0.010359121 -0.0059194863 0.64744073
0.010532415 -0.0075231493 0.65042913
0.010711642 -0.0091813803 0.65351975
0.010897038 -0.01089707 0.65671682
0.011088963 -0.01267308 0.66002643
0.01128781 -0.014512867 0.66345543
0.011493878 -0.016419828 0.66700894
0.01170765 -0.018397748 0.6706953
0.011929484 -0.020450532 0.67452073
0.012159886 -0.02258262 0.67849386
0.012399409 -0.02479881 0.68262428
0.01264851 -0.027103961 0.68691987
0.012907875 -0.029503703 0.69139242
0.013178047 -0.03200382 0.69605142
0.01345977 -0.034610838 0.70090955
0.01375386 -0.037331939 0.7059809
0.014061028 -0.040174395 0.7112779
0.01438223 -0.0431467 0.71681684
0.014718514 -0.046258181 0.72261584
0.015070834 -0.049518436 0.72869134
0.015440505 -0.052938849 0.73506606
0.015828691 -0.056531042 0.74176013
0.016236901 -0.060308486 0.74879944
0.016666807 -0.064286232 0.75621289
0.013555286 0.067776442 0.67333758
0.013448236 0.065560132 0.67172229
0.013342865 0.063378662 0.6701324
0.013239133 0.061230987 0.66856718
0.013137001 0.059116542 0.66702616
0.013036433 0.057034373 0.66550875
0.012937393 0.054983944 0.66401428
0.012839847 0.05296433 0.66254246
0.01274376 0.050975055 0.66109258
0.012649059 0.049015164 0.65966368
0.012555796 0.047084242 0.65825647
0.012463898 0.045181662 0.65686977
0.012373336 0.043306679 0.65550333
0.012284081 0.041458786 0.65415657
0.012196103 0.039637327 0.65282917
0.012109377 0.037841797 0.65152049
0.012023877 0.036071628 0.65023041
0.011939575 0.034326285 0.64895844
0.011856446 0.032605231 0.64770412
0.011774467 0.030907959 0.64646715
0.011693615 0.029234052 0.6452471
0.011613864 0.027582914 0.6440438
0.011535195 0.025954187 0.64285672
0.011457584 0.024347365 0.64168572
0.011381011 0.02276203 0.64053035
0.01130542 0.021197647 0.63938969
0.01123086 0.019654036 0.63826472
0.011157277 0.018130571 0.63715446
0.011084652 0.016626984 0.63605863
0.011012966 0.015142828 0.63497692
0.010942202 0.013677776 0.63390917
0.010872342 0.01223141 0.63285506
0.010803366 0.010803372 0.6318143
0.010735261 0.0093933344 0.63078672
0.01066801 0.0080010295 0.62977195
0.010601597 0.0066260099 0.62876987
0.010535975 0.0052679777 0.62777972
0.010661062 0.0039979219 0.62966704
0.010821396 0.0027053356 0.6320864
0.010986659 0.0013733506 0.63458002
0.011157013 -0 0.63715047
0.011332769 -0.0014165938 0.6398024
0.011514116 -0.0028785169 0.64253867
0.011701359 -0.0043880045 0.64536399
0.011894832 -0.0059473813 0.6482833
0.012094772 -0.0075592399 0.65130013
0.012301587 -0.0092261732 0.65442079
0.01251556 -0.010951102 0.65764934
0.012737106 -0.012737095 0.66099221
0.01296668 -0.014587522 0.66445625
0.013204636 -0.016505808 0.66804671
0.01345149 -0.018495828 0.67177141
0.013707799 -0.020561695 0.67563885
0.013974014 -0.02270776 0.67965567
0.014250826 -0.024938911 0.68383247
0.014538772 -0.027260184 0.68817729
0.014838594 -0.029677182 0.69270116
0.015151102 -0.032196075 0.6974166
0.015476994 -0.034823209 0.70233393
0.015817214 -0.037565887 0.70746744
0.016172796 -0.040432006 0.71283275
0.016544662 -0.043429762 0.71844381
0.016934106 -0.046568751 0.72432005
0.017342247 -0.049858928 0.73047847
0.017770547 -0.053311586 0.73694098
0.018220626 -0.056939453 0.74373221
0.018694006 -0.060755491 0.75087488
0.019192638 -0.064775109 0.75839865
0.015337853 0.068168283 0.6745199
0.015216033 0.065936148 0.67288607
0.015096079 0.063739002 0.67127723
0.014978054 0.061576456 0.6696943
0.01486186 0.059447438 0.66813582
0.014747456 0.057351202 0.66660142
0.014634799 0.055287033 0.66509044
0.014523851 0.053254098 0.66360235
0.014414572 0.051251829 0.66213661
0.014306925 0.049279422 0.66069281
0.014200875 0.04733628 0.65927047
0.014096384 0.04542169 0.65786898
0.013993421 0.043535084 0.65648806
0.013891949 0.041675836 0.65512711
0.01379194 0.03984344 0.65378571
0.013693361 0.038037091 0.65246356
0.01359618 0.036256462 0.65116012
0.013500368 0.034500957 0.6498751
0.013405899 0.032769978 0.64860797
0.013312741 0.03106308 0.6473586
0.01322087 0.029379725 0.64612633
0.013130217 0.027719378 0.64491051
0.01304084 0.026081651 0.64371181
0.01295267 0.024466157 0.64252919
0.012865684 0.022872329 0.64136255
0.01277986 0.021299779 0.6402114
0.012695174 0.019748092 0.63907552
0.012611601 0.018216759 0.63795465
0.012529121 0.016705513 0.63684845
0.012447714 0.015213877 0.63575655
0.012367357 0.013741493 0.63467884
0.012288033 0.012288034 0.6336149
0.012209718 0.010853082 0.63256454
0.012132362 0.0094362795 0.63152695
0.012056013 0.0080373287 0.63050294
0.011980619 0.0066559315 0.62949175
0.011906162 0.0052916408 0.62849307
0.012044609 0.0040149093 0.63034999
0.012226532 0.0027170181 0.63279003
0.01241407 0.0013793111 0.63530529
0.012607413 -0 0.6378985
0.012806875 -0.0014229715 0.64057374
0.013012789 -0.0028917193 0.64333546
0.013225392 -0.0044084787 0.64618701
0.0134451 -0.0059756339 0.6491338
0.013672187 -0.0075956583 0.6521796
0.013907077 -0.0092713535 0.65532994
0.014150226 -0.011005729 0.65859115
0.014401979 -0.012801766 0.66196775
0.014662903 -0.014662892 0.66546732
0.014933404 -0.016592652 0.6690954
0.015214073 -0.01859498 0.67285979
0.01550555 -0.02067405 0.67676914
0.015808357 -0.022834301 0.68083054
0.016123224 -0.025080591 0.68505365
0.016450955 -0.027418256 0.68944919
0.016792217 -0.029852808 0.69402629
0.017148007 -0.032390654 0.6987983
0.017519129 -0.035038263 0.70377594
0.01790667 -0.037802935 0.70897371
0.018311823 -0.040692925 0.7144078
0.018735653 -0.04371655 0.7200923
0.019179652 -0.046883613 0.72604734
0.019645115 -0.050204128 0.73229021
0.020133734 -0.053689986 0.73884374
0.020647375 -0.057353795 0.74573284
0.021187808 -0.061209232 0.75298131
0.021757292 -0.065271884 0.76061934
0.017141089 0.068564326 0.67571539
0.017004162 0.066316277 0.67406249
0.016869403 0.064103752 0.67243588
0.016736766 0.061926037 0.67083478
0.016606199 0.059782296 0.66925865
0.016477652 0.057671785 0.66770697
0.01635108 0.055593669 0.66617906
0.016226439 0.053547263 0.66467458
0.016103681 0.051531792 0.66319275
0.015982768 0.049546629 0.66173321
0.015863657 0.047590941 0.66029543
0.01574631 0.045664281 0.65887892
0.015630685 0.043765932 0.65748322
0.015516745 0.041895241 0.65610778
0.015404454 0.040051609 0.65475231
0.015293778 0.038234472 0.65341634
0.015184632 0.036443114 0.65209883
0.01507708 0.034677297 0.65080059
0.014971041 0.032936305 0.64952058
0.014866483 0.031219631 0.64825845
0.014763376 0.02952674 0.64701384
0.014661688 0.027857214 0.6457864
0.014561392 0.026210517 0.64457572
0.01446246 0.024586201 0.64338148
0.014364862 0.02298376 0.64220333
0.014268574 0.021402895 0.64104104
0.014173566 0.019843012 0.63989419
0.014079817 0.018303782 0.63876253
0.013987257 0.016784698 0.63764524
0.013895947 0.015285552 0.63654304
0.013805822 0.013805836 0.63545513
0.013716859 0.012345165 0.63438123
0.013629034 0.010903209 0.63332111
0.013542328 0.0094796419 0.63227451
0.013456717 0.0080740452 0.63124108
0.013372182 0.0066860616 0.63022065
0.013288702 0.0053154826 0.62921292
0.013439953 0.004031986 0.63103873
0.01364383 0.0027287602 0.63349974
0.013854028 0.0013854206 0.63603699
0.01407076 -0 0.63865322
0.014294383 -0.0014294088 0.64135259
0.014525273 -0.0029050708 0.64413971
0.014763699 -0.0044291019 0.64701772
0.015010081 -0.0060040355 0.64999187
0.015264877 -0.0076324344 0.65306747
0.015528422 -0.0093170702 0.65624881
0.015801277 -0.011060864 0.65954238
0.01608384 -0.012867063 0.66295326
0.016376693 -0.014739007 0.66648829
0.016680466 -0.016680449 0.67015517
0.016995661 -0.018695265 0.67395991
0.01732306 -0.020787686 0.677912
0.017663255 -0.022962213 0.68201846
0.01801708 -0.025223881 0.68628955
0.01838544 -0.027578145 0.69073606
0.018769104 -0.030030549 0.69536722
0.01916912 -0.032587498 0.70019591
0.019586641 -0.035255939 0.70523578
0.020022668 -0.038043082 0.71049911
0.020478642 -0.040957302 0.71600318
0.020955771 -0.044007123 0.72176266
0.021455666 -0.047202468 0.72779691
0.021980096 -0.050554186 0.73412728
0.022530695 -0.054073662 0.74077368
0.023109704 -0.057774246 0.74776292
0.023719136 -0.061669737 0.75511938
0.024361582 -0.065776289 0.76287448
0.018813094 0.066700995 0.67525327
0.018663142 0.064472705 0.67360783
0.018515563 0.062279642 0.67198831
0.018370301 0.06012103 0.67039424
0.018227298 0.057995975 0.66882497
0.018086506 0.055903763 0.66727996
0.017947871 0.053843617 0.66575861
0.017811347 0.051814854 0.66426045
0.017676882 0.049816668 0.66278487
0.017544374 0.047848314 0.66133076
0.017413897 0.045909345 0.659899
0.017285345 0.043999046 0.65848827
0.017158678 0.042116761 0.65709829
0.017033854 0.040261865 0.65572852
0.016910832 0.038433701 0.65437847
0.016789576 0.036631793 0.65304786
0.016670045 0.034855545 0.65173614
0.016552202 0.03310442 0.65044296
0.016436016 0.031377882 0.64916801
0.01632145 0.029675364 0.64791083
0.01620847 0.027996451 0.646671
0.016097043 0.026340634 0.64544821
0.015987137 0.024707377 0.64424217
0.015878722 0.023096323 0.64305246
0.015771721 0.021506906 0.64187819
0.015666198 0.019938827 0.64072025
0.015562078 0.01839152 0.63957763
0.015459333 0.016864747 0.63845015
0.015357935 0.015357941 0.63733745
0.01525786 0.013870746 0.63623929
0.015159079 0.012402922 0.63515526
0.01506157 0.010953873 0.63408524
0.014965307 0.0095233917 0.63302892
0.014870266 0.0081110895 0.6319859
0.014776427 0.0067165494 0.63095617
0.014683721 0.0053395331 0.62993884
0.014847246 0.0040492713 0.63173336
0.015073449 0.0027405918 0.63421559
0.015306652 0.00139153 0.63677472
0.015547229 -0 0.63941473
0.015795443 -0.0014359057 0.64213854
0.01605176 -0.0029184818 0.64495128
0.016316481 -0.0044499338 0.64785624
0.016590081 -0.0060327649 0.65085864
0.016873067 -0.0076695681 0.65396404
0.017165817 -0.0093631744 0.65717661
0.017468907 -0.011116594 0.66050267
0.017782953 -0.012933016 0.66394883
0.018108431 -0.014815956 0.66752052
0.018446114 -0.016769201 0.67122614
0.018796561 -0.018796563 0.67507195
0.019160584 -0.020902455 0.6790666
0.019539056 -0.023091644 0.68321979
0.019932706 -0.025368899 0.68753958
0.020342622 -0.027739942 0.69203794
0.020769671 -0.030210435 0.69672418
0.021215033 -0.032786846 0.70161146
0.021680003 -0.035476387 0.70671397
0.022165718 -0.038286239 0.712044
0.022673694 -0.041224897 0.71761847
0.023205603 -0.044301599 0.72345543
0.023762962 -0.047525942 0.7295717
0.024347866 -0.050909191 0.73599029
0.024962168 -0.05446291 0.74273145
0.025608273 -0.058200628 0.74982154
0.026288845 -0.062137276 0.75728995
0.020643136 0.067090213 0.676458
0.020477647 0.06484592 0.67479336
0.020314718 0.062637061 0.67315435
0.02015443 0.060463279 0.67154205
0.019996654 0.058323592 0.6699549
0.01984133 0.056217104 0.66839248
0.019688398 0.054143101 0.66685414
0.019537807 0.052100837 0.66533923
0.019389501 0.050089598 0.66384745
0.01924343 0.048108608 0.66237807
0.019099543 0.046157241 0.66093069
0.018957794 0.044234902 0.65950477
0.018818133 0.042340815 0.65809989
0.018680513 0.040474445 0.65671557
0.018544892 0.038635194 0.65535128
0.018411225 0.036822468 0.65400672
0.018279472 0.03503564 0.65268141
0.01814959 0.033274263 0.65137494
0.018021543 0.031537712 0.65008682
0.017895289 0.029825479 0.64881688
0.017770736 0.028136998 0.64756393
0.017647959 0.026471972 0.64632887
0.017526869 0.024829715 0.64511079
0.017407427 0.0232099 0.64390928
0.017289603 0.021611989 0.6427241
0.017173363 0.020035625 0.64155483
0.017058676 0.018480271 0.64040112
0.016945511 0.016945511 0.6392628
0.016833836 0.015431017 0.63813943
0.016723625 0.013936341 0.63703084
0.016614847 0.012461156 0.63593662
0.016507477 0.011005014 0.63485646
0.016401434 0.009567529 0.63378978
0.016296795 0.0081484318 0.63273722
0.016193481 0.0067472458 0.63169801
0.01609147 0.005363822 0.6306718
0.016266642 0.0040667057 0.63243389
0.016515551 0.0027526319 0.6349377
0.016772198 0.0013976693 0.63751942
0.017036999 -0 0.64018309
0.017310239 -0.0014425218 0.6429317
0.017592389 -0.0029320419 0.64576983
0.017883945 -0.0044709742 0.64870268
0.018185269 -0.0060617626 0.65173382
0.018496983 -0.0077070892 0.65486944
0.018819505 -0.0094097853 0.65811372
0.019153476 -0.011172861 0.66147321
0.019499579 -0.012999713 0.66495478
0.019858353 -0.01489377 0.66856372
0.020230575 -0.016858786 0.67230797
0.020617092 -0.018898964 0.67619604
0.021018591 -0.021018565 0.68023485
0.021436118 -0.023222446 0.68443477
0.021870481 -0.025515556 0.68880421
