# .PCD v0.7 - Point Cloud Data file format
VERSION 0.7
FIELDS x y z
SIZE 4 4 4
TYPE F F F
COUNT 1 1 1
WIDTH 809
HEIGHT 1
VIEWPOINT 0 0 0 1 0 0 0
POINTS 809
DATA ascii
-0.075929083 0.055784643 0.65585411
-0.074637711 0.049758494 0.6565035
-0.068585359 0.054556549 0.65696287
-0.069859073 0.062096953 0.65619826
-0.066855915 0.063746333 0.65648377
-0.071853377 0.043736815 0.65735781
-0.071853377 0.043736815 0.65735781
-0.064230487 0.050131112 0.65790915
-0.059469379 0.061034352 0.65771443
-0.075546794 0.018886715 0.65878963
-0.074052565 0.01890704 0.65899426
-0.072378278 0.025175035 0.65873528
-0.072378278 0.025175035 0.65873528
-0.070794702 0.028317869 0.65870804
-0.066127226 0.034638107 0.658858
-0.067546852 0.037700593 0.6584233
-0.062731057 0.050184846 0.65811181
-0.055017486 0.058161318 0.65855265
-0.054984018 0.059696943 0.65843719
-0.07600981 0.0031670928 0.65995407
-0.075870492 0.0079031587 0.65960366
-0.075731419 0.01262188 0.65925395
-0.071228407 0.012662828 0.65987146
-0.071011014 0.020514309 0.65928829
-0.066370025 0.025283843 0.65955579
-0.063307352 0.026905626 0.65985096
-0.061452381 0.040968269 0.65900815
-0.055388004 0.041145384 0.65983051
-0.055320192 0.044256181 0.65959662
-0.058319837 0.045710176 0.65906972
-0.055218987 0.048908234 0.65924758
-0.048969876 0.056868285 0.65948761
-0.045769375 0.064708412 0.6593163
-0.073045656 0.0015879571 0.66048652
-0.071403481 0.0063470006 0.66034102
-0.065218993 0.011134952 0.66081947
-0.065178849 0.012717813 0.66070127
-0.066655338 0.014283299 0.66037583
-0.061867435 0.023795187 0.6602928
-0.057189036 0.028594524 0.66056317
-0.053963069 0.036504447 0.66038996
-0.049331684 0.038192272 0.66089642
-0.050805323 0.041279316 0.66045243
-0.050805323 0.041279316 0.66045243
-0.046022374 0.050783306 0.6603694
-0.042862378 0.055562377 0.6604318
-0.044374444 0.05705291 0.6601066
-0.071755975 -0.006378293 0.66128659
-0.065420493 0.0031912625 0.66141272
-0.065420493 0.0031912625 0.66141272
-0.060607225 0.012759447 0.66132879
-0.055798151 0.022319287 0.66124511
-0.044703521 0.038317323 0.66152525
-0.043153916 0.038359016 0.66173518
-0.041524019 0.043121099 0.66158843
-0.041447122 0.047823638 0.6612314
-0.038342435 0.047928065 0.66165167
-0.03664881 0.057363361 0.66114771
-0.03664881 0.057363361 0.66114771
-0.078470297 -0.028825819 0.66211438
-0.073816828 -0.025675416 0.66251016
-0.075292177 -0.024029434 0.66217792
-0.072111964 -0.019229829 0.66224158
-0.065949805 -0.017693818 0.66297114
-0.067400493 -0.01444298 0.66251743
-0.068886898 -0.012816191 0.66218519
-0.05292087 0.012829304 0.66238332
-0.043368507 0.025699854 0.66269457
-0.046421465 0.028813332 0.66203058
-0.043261018 0.032045186 0.66221404
-0.038533017 0.035321921 0.66261029
-0.038437426 0.04164052 0.66212946
-0.035289682 0.043310106 0.66243327
-0.035245892 0.046460509 0.66219306
-0.024126418 0.056294948 0.66295856
-0.020890435 0.064278275 0.66278094
-0.075998865 -0.048509926 0.66399294
-0.075761914 -0.040298879 0.66338438
-0.069446512 -0.033915728 0.66375613
-0.072426341 -0.030580014 0.66308486
-0.069359995 -0.030647427 0.6635133
-0.066032074 -0.020936996 0.66321331
-0.062792592 -0.014490575 0.66315633
-0.051630136 -0 0.66356379
-0.045093533 0.016104847 0.6632067
-0.045093533 0.016104847 0.6632067
-0.041886415 0.020943195 0.66327095
-0.03706019 0.02900365 0.66330677
-0.03706019 0.02900365 0.66330677
-0.033891067 0.030663341 0.66361427
-0.035399508 0.035399526 0.66303587
-0.029073019 0.037148863 0.66377211
-0.030616088 0.040284336 0.66331404
-0.030577928 0.043452829 0.66307163
-0.020929437 0.059568405 0.6631431
-0.068119697 -0.042169333 0.66458446
-0.067991585 -0.037233472 0.66421628
-0.063265726 -0.03406617 0.66462076
-0.059965961 -0.025931209 0.6644401
-0.056636758 -0.016181946 0.6641373
-0.050165877 -0.0048547685 0.66414464
-0.042255193 -0.00162521 0.66498309
-0.042149227 0.0048633814 0.66449112
-0.038944386 0.008113414 0.66467929
-0.040445961 0.012942731 0.66409451
-0.035666078 0.016211838 0.66449851
-0.035599027 0.02103579 0.66413063
-0.035576735 0.022639751 0.66400826
-0.030808227 0.024322271 0.66453475
-0.022698307 0.038911402 0.66451329
-0.021034276 0.046922624 0.66411662
-0.014581013 0.055083841 0.66436899
-0.078067042 -0.066682264 0.66512764
-0.069927357 -0.052038938 0.665106
-0.060306396 -0.040747523 0.66555077
-0.05378883 -0.029339343 0.66555822
-0.055322241 -0.027661115 0.66521543
-0.050513912 -0.022812724 0.66549987
-0.043969914 -0.0097711086 0.66538334
-0.037433665 0.0032550991 0.66526687
-0.037433665 0.0032550991 0.66526687
-0.030963665 0.011407673 0.66552228
-0.027696116 0.017921031 0.66546392
-0.027661214 0.021152705 0.66521615
-0.026030229 0.024403363 0.66518706
-0.019597428 0.026129931 0.66593903
-0.01953572 0.034187466 0.66531831
-0.009783837 0.047288537 0.66563976
-0.0081622945 0.047341347 0.66585934
-0.0097653707 0.052081972 0.66526818
-0.0097592194 0.053675711 0.66514444
-0.0048805168 0.061819881 0.66518098
-0.057282493 -0.045825988 0.66636437
-0.054095954 -0.044260323 0.66668165
-0.049218602 -0.03773427 0.66684449
-0.050705716 -0.032713383 0.66624671
-0.042630669 -0.024594605 0.66672629
-0.042522669 -0.017990381 0.6662249
-0.040906999 -0.016362786 0.66632056
-0.037647083 -0.011457771 0.66638696
-0.03274272 -0.003274262 0.66642392
-0.03274272 -0.003274262 0.66642392
-0.024554318 0.011458695 0.66640198
-0.021247141 0.021247149 0.66609305
-0.014775532 0.021342456 0.66697794
-0.014728763 0.029457539 0.66635066
-0.014728763 0.029457539 0.66635066
-0.0049176603 0.042619735 0.66667545
-0.0049176603 0.042619735 0.66667545
-0.0032737954 0.049106926 0.66639519
0.0016372097 0.057302326 0.6664328
0.0049070558 0.065427423 0.6662488
-0.059303626 -0.065892935 0.66765356
-0.059265815 -0.064204603 0.66752684
-0.059265815 -0.064204603 0.66752684
-0.054337222 -0.055983812 0.66756421
-0.04447446 -0.03953284 0.66763902
-0.039515089 -0.029636323 0.66754961
-0.036234409 -0.024705261 0.66761684
-0.031299245 -0.016473293 0.66765428
-0.026328623 -0.0049366057 0.66743821
-0.021355197 0.0082135499 0.66709644
-0.013173716 0.016467124 0.66758013
-0.009877326 0.02304709 0.66752058
-0.0082403775 0.023073077 0.6677444
0 0.036276758 0.6678493
0.0049288934 0.054217845 0.66712749
0.0065792464 0.054278761 0.66735047
0.011545226 0.056076825 0.66789442
0.0098659163 0.060839802 0.66729105
-0.054510821 -0.064421892 0.66819924
-0.052918728 -0.064494699 0.66842461
-0.046394806 -0.057993501 0.66881657
-0.049564648 -0.056173265 0.66823685
-0.046246432 -0.049549758 0.66817695
-0.034759421 -0.034759432 0.66860569
-0.034759421 -0.034759432 0.66860569
-0.028157711 -0.024845004 0.66874158
-0.031379204 -0.023121506 0.66816229
-0.026446501 -0.016529053 0.66832757
-0.018191578 -0.0033075511 0.66843301
-0.018179933 -0.0016527474 0.66830528
-0.013207358 0.0099054873 0.66808772
-0.013207358 0.0099054873 0.66808772
-0.0082561569 0.018163562 0.66812539
-0.0016555294 0.023177415 0.66864419
0 0.02812171 0.66848606
0.0082914159 0.036482245 0.6689766
0.004957262 0.039658099 0.66826898
0.0082596196 0.04625389 0.66820896
0.01657033 0.053025067 0.66882575
0.018224679 0.0563308 0.66879624
-0.044846036 -0.061455667 0.6693002
-0.039896376 -0.054857522 0.66946739
-0.038179096 -0.048138827 0.66917908
-0.028266396 -0.034917295 0.66951329
-0.018296974 -0.018296957 0.66958964
-0.018261684 -0.013281226 0.66920227
-0.0016640583 0.0099843442 0.66967374
0 0.018266588 0.66925585
0.0033244642 0.021609008 0.66945326
0.0083180945 0.02828154 0.66962063
0.0083127394 0.029925883 0.66949141
0.014992468 0.036648214 0.66988754
0.018318575 0.043298483 0.66982663
0.031664159 0.064994872 0.66997266
-0.030010963 -0.045016438 0.67006212
-0.021756332 -0.040165544 0.67082119
-0.021756332 -0.040165544 0.67082119
-0.023372864 -0.036728799 0.67032945
-0.021672061 -0.030007452 0.6700387
-0.016684765 -0.023358703 0.67020708
-0.0083576385 -0.013372213 0.67057538
-0.0066721393 -0.0050041378 0.67015374
0.0050020386 0.016673446 0.67007065
0.0050020386 0.016673446 0.67007065
0.0066769943 0.016692489 0.67030025
0.018425453 0.028475702 0.67099947
0.016720481 0.030096859 0.67063814
0.021726711 0.040110826 0.67054605
0.035122454 0.061882406 0.67069244
0.033368707 0.06506896 0.67020208
-0.026928851 -0.063955992 0.67196661
-0.025159953 -0.051997215 0.67127579
-0.015091955 -0.033537656 0.67122191
-0.013404368 -0.028484255 0.67106044
-0.013404368 -0.028484255 0.67106044
-0.0033654713 -0.02187559 0.67192829
0.001681963 -0.011773705 0.67183501
0 -0.0067070723 0.67120683
0 -0.0067070723 0.67120683
0.0033525066 -0 0.67114574
0.0083774328 0.01005289 0.67105323
0.0083774328 0.01005289 0.67105323
0.016807426 0.016807407 0.67168772
0.015089758 0.020119727 0.67119241
0.025241124 0.028606623 0.671929
0.030275548 0.038685441 0.6718365
0.035282291 0.050403267 0.67161125
0.04373477 0.062237978 0.67185235
-0.025258392 -0.06230408 0.672068
-0.013500633 -0.047252178 0.67251295
-0.0067594163 -0.038866639 0.67278755
-0.0016901805 -0.030423284 0.67282701
-0.0050555696 -0.028648227 0.67222452
0 -0.021925896 0.67239583
0.0084320828 -0.0067456663 0.67237264
0.0084265806 -0.0050559342 0.67223978
0.021939546 0.015188903 0.67252243
0.020215357 0.01684615 0.6721549
0.023577355 0.023577362 0.67209256
0.033760983 0.035449058 0.67256969
0.037198607 0.037198603 0.67290723
0.045558129 0.0573695 0.67248386
0.043791823 0.058950573 0.67211723
-0.015280377 -0.066215008 0.67374909
-0.0101956 -0.059474349 0.67392373
-0.010155539 -0.049085051 0.67311776
-0.0033986676 -0.047581345 0.6739319
0 -0.039046913 0.67373359
0 -0.035604686 0.67346454
0.0033988021 -0.035687417 0.67394
0.0084986556 -0.027195692 0.67397976
0.0084597068 -0.015227497 0.67303956
0.0084597068 -0.015227497 0.67303956
0.018618556 0.0016926229 0.67311853
0.023778787 0.001698494 0.67382938
0.0254901 0.0033986866 0.67393261
0.027149606 0.010181129 0.67363209
0.030473823 0.022008896 0.6731661
0.035653189 0.023768812 0.67374313
0.035583004 0.028805315 0.67333972
0.050929286 0.050929278 0.67372775
0.050762605 0.059223056 0.67305708
0.052515432 0.059291631 0.67329353
0 -0.051166028 0.67468035
0 -0.044227213 0.67413855
0.0051176008 -0.042646646 0.67472047
0.0085210595 -0.03408426 0.67452067
0.010216982 -0.028948098 0.6743539
0.02214198 -0.0085161626 0.67440212
0.030654589 0.0068121254 0.6743784
0.032331292 0.011911541 0.67421108
0.040969793 0.018777817 0.67486626
0.042613909 0.025568366 0.67456228
0.044282362 0.030657053 0.67439461
0.051198367 0.037545472 0.67481041
0.049369089 0.040857166 0.67429984
0.052792307 0.045980394 0.67437172
0.05976402 0.051226318 0.67492282
0.057798132 0.059498072 0.67400563
0.064856656 0.06144312 0.67482758
-0.0017125868 -0.065078318 0.67553169
0.0017120532 -0.058209807 0.67546725
0.0034235732 -0.054777175 0.67543507
0.0085606072 -0.046227276 0.67547548
0.018853147 -0.030850619 0.67569292
0.025744034 -0.022311509 0.67597616
0.029109547 -0.010273963 0.67550021
0.030857988 -0.010285974 0.67574239
0.035960287 0.0017123818 0.67550838
0.041105513 0.010276377 0.67554885
0.053001836 0.035904437 0.67518759
0.058335353 0.03603065 0.67591298
0.05810393 0.046141356 0.67509133
0.070315696 0.058310568 0.675825
0.072067335 0.06005615 0.6759302
0.068429574 0.061586618 0.67530864
0.0068952525 -0.067228675 0.67688674
0.0068768896 -0.060172796 0.67633265
0.018953785 -0.044799864 0.67679727
0.039635412 -0.0086163878 0.6768223
0.042925436 0.0068680942 0.67606646
0.048246175 0.0068923235 0.67679799
0.04992811 0.012051642 0.67662674
0.048085917 0.0154562 0.67610717
0.058451865 0.030945152 0.67632657
0.062036 0.031018019 0.67681545
0.065287694 0.044670522 0.67619681
0.070643872 0.046521604 0.67679119
0.077384159 0.063626975 0.67638397
0.017314237 -0.060599834 0.67780548
0.025950912 -0.043251514 0.67764097
0.034597166 -0.027677715 0.67761648
0.032784618 -0.024157077 0.67709118
0.036296997 -0.02246958 0.67744386
0.044903826 -0.0051811934 0.67727995
0.051918361 0.0017306507 0.67770743
0.051918361 0.0017306507 0.67770743
0.063962378 0.025930703 0.67747825
0.076030545 0.048383057 0.67738819
0.020826302 -0.060743392 0.67830056
0.020826302 -0.060743392 0.67830056
0.045115039 -0.017351925 0.67826051
0.048700772 -0.017393112 0.67875779
0.052233223 -0.013928831 0.67897439
0.052198034 -0.012179554 0.67883277
0.050296798 -0.006937474 0.67816138
0.053748578 -0 0.67809534
0.057313588 0.0017367601 0.67845148
0.069628142 0.01740706 0.67892563
0.069440901 0.02430433 0.67836058
0.072889917 0.031238586 0.67829436
0.078322418 0.033069462 0.67890084
0.076285779 0.03987667 0.67808843
0.083392188 0.04690811 0.67851931
0.029720046 -0.064684808 0.67983514
0.033094089 -0.048770249 0.6790573
0.038430668 -0.047164917 0.67966741
0.043562196 -0.031364799 0.67914104
0.054038644 -0.013945431 0.67922485
0.059360158 -0.0087294281 0.6795513
0.057506762 -0.006970495 0.67915809
0.057506762 -0.006970495 0.67915809
0.062831968 -0.0017453134 0.67948437
0.068173714 0.0034960806 0.67981172
0.066212095 0.0087121129 0.67913324
0.066212095 0.0087121129 0.67913324
0.073482268 0.010497481 0.67999685
0.073482268 0.010497481 0.67999685
0.078533866 0.026177973 0.67946804
0.078533866 0.026177973 0.67946804
0.038665932 -0.063271523 0.68095827
0.040389527 -0.057950199 0.68078005
0.040280107 -0.050787956 0.68020582
0.047447998 -0.047447979 0.680933
0.047383502 -0.043873608 0.68064463
0.059601713 -0.019282907 0.68040895
0.064873688 -0.010520041 0.68045133
0.06670697 -0.010532677 0.68070525
0.068404987 -0.0052619278 0.68052757
0.078746744 0.019249171 0.68003911
0.045822725 -0.05815962 0.68154609
0.072183803 -0.0088029206 0.68132502
0.077639967 -0.0052936077 0.68180352
0.081198469 -0 0.68188071
0.081142999 0.0017639995 0.68173516
0.082724482 0.010560572 0.68126643
0.049534321 -0.061917871 0.68235129
0.055003211 -0.060326099 0.68298078
0.061848208 -0.037108898 0.68211097
0.06906119 -0.030103564 0.68255854
0.074236169 -0.015907735 0.6821636
0.062274124 -0.055157065 0.68357986
0.060338337 -0.051465005 0.68302417
0.06767229 -0.048082918 0.68377173
0.071161851 -0.039139032 0.68355405
0.080102623 -0.024920821 0.68367624
0.067859232 -0.055358827 0.68436551
0.080435 -0.035748839 0.68456775
0.073638685 -0.06106621 0.68560839
0.071754798 -0.060991555 0.68534338
0.086172819 -0.037700623 0.68551207
0.087770693 -0.028659821 0.68502575
-0.071314394 0.062787443 0.65594345
-0.07119599 0.040683687 0.65768689
-0.065806463 0.04700464 0.6579361
-0.073116444 0.051337063 0.65658998
-0.062692985 0.051721752 0.65799689
-0.07104256 0.054967206 0.65659213
-0.070746005 0.056752175 0.65649378
-0.063212395 0.060871601 0.65721059
-0.063212395 0.060871601 0.65721059
-0.079006128 0.0031602383 0.65954179
-0.078382872 0.023514897 0.65803713
-0.073014364 0.029048659 0.65834528
-0.061753627 0.028501689 0.6599406
-0.066878065 0.034619465 0.65875584
-0.050572295 0.052942634 0.65957332
-0.07662037 -0.017558843 0.66148949
-0.076549396 -0.015150622 0.66131097
-0.077066533 -0.0071507841 0.66061455
-0.068737656 -0.0071937293 0.66176617
-0.079248324 -0.0047549009 0.66012651
-0.070909336 -0.003186956 0.66115391
-0.067067288 -0.0015968382 0.66155982
-0.069114052 0.0071495324 0.66059387
-0.071315832 0.0095088184 0.66010594
-0.060644679 0.01117143 0.66144782
-0.066696323 0.012704074 0.66049361
-0.055434726 0.015457829 0.66183096
-0.055098578 0.019164875 0.66158783
-0.055098578 0.019164875 0.66158783
-0.04942305 0.033480167 0.6612522
-0.04942305 0.033480167 0.6612522
-0.055490021 0.03646484 0.66018236
-0.055490021 0.03646484 0.66018236
-0.047006458 0.039039381 0.66115105
-0.043140642 0.039145902 0.66167581
-0.044648316 0.041459143 0.66128731
-0.050774101 0.04284066 0.66033465
-0.050727352 0.045178801 0.66015828
-0.049165212 0.04678601 0.66024816
-0.043007657 0.04698962 0.66108131
-0.041396011 0.050948948 0.66099411
-0.033597335 0.052795827 0.66192591
-0.042809743 0.058665216 0.66019648
-0.035071939 0.058984637 0.66123855
-0.035071939 0.058984637 0.66123855
-0.074950024 -0.038684115 0.66337019
-0.076857664 -0.025619209 0.66208619
-0.07063067 -0.020868152 0.66257405
-0.065221593 -0.019325048 0.66319907
-0.062910259 -0.019356996 0.66352057
-0.068993911 -0.016847596 0.6624856
-0.062714383 -0.011256456 0.66291428
-0.062461775 -0.00080105662 0.66213238
-0.048449401 0.0032299757 0.66374946
-0.046856843 0.0048472881 0.66384274
-0.04361251 0.011306942 0.66378546
-0.049045518 0.01286453 0.66291463
-0.049045518 0.01286453 0.66291463
-0.043287877 0.030461848 0.66233408
-0.038568862 0.032944009 0.66279054
-0.040044822 0.038443029 0.6621576
-0.027300252 0.054600507 0.66265309
-0.02094903 0.05720672 0.66332507
-0.017770793 0.056543469 0.66381544
-0.019304682 0.064348936 0.66299427
-0.019304682 0.064348936 0.66299427
-0.079505175 -0.063279629 0.66466385
-0.074745044 -0.058496118 0.66494596
-0.068550013 -0.058757156 0.66582119
-0.06850671 -0.057088912 0.66569674
-0.069021776 -0.047097504 0.66484457
-0.062804326 -0.047307476 0.66571862
-0.062804326 -0.047307476 0.66571862
-0.067218922 -0.03725411 0.66432452
-0.060856652 -0.030834273 0.66470015
-0.050641567 -0.029404759 0.66599691
-0.056707829 -0.019442677 0.66438246
-0.048570909 -0.0032380223 0.66423833
-0.037351269 0.0089315474 0.6648345
-0.034940094 0.011375979 0.66497606
-0.037269365 0.014583677 0.66440457
-0.037199333 0.019408345 0.66403705
-0.029209947 0.025152773 0.66469038
-0.02280562 0.026877806 0.66543853
-0.030731041 0.030731052 0.66404438
-0.011430607 0.040823609 0.66591793
-0.017035883 0.047052741 0.66465819
-0.011401769 0.047235876 0.66542059
-0.01295495 0.059106722 0.66427922
-0.008933587 0.058477342 0.66488302
-0.0064960402 0.063336402 0.66483945
-0.071103267 -0.067017294 0.66611397
-0.054441363 -0.061040312 0.66794509
-0.059058845 -0.054957777 0.6668328
-0.04946987 -0.051118881 0.6678555
-0.04931242 -0.042737454 0.66722202
-0.055567138 -0.03922385 0.66608489
-0.04447446 -0.03953284 0.66763902
-0.037935372 -0.031337917 0.66789997
-0.034626372 -0.024733096 0.66784096
-0.036919016 -0.016408652 0.66687417
-0.034417719 -0.0090144277 0.66664153
-0.034319691 -0.00163427 0.66607809
-0.024538761 0.013087392 0.66627681
-0.018874442 0.01477167 0.66692603
-0.013140198 0.022995353 0.66707438
-0.0090530775 0.024691492 0.66750574
-0.014719435 0.031074345 0.66622555
-0.0090300711 0.031196371 0.66700077
-0.0032789921 0.045085877 0.66670883
0.0032916514 0.046905786 0.66747284
0.0032812005 0.054959863 0.6668421
0.0065666982 0.0591003 0.6669718
-0.041618604 -0.061595529 0.66975653
-0.041618604 -0.061595529 0.66975653
-0.039086949 -0.054888725 0.66958153
-0.038911641 -0.04305169 0.66868103
-0.036490168 -0.043124735 0.66902018
-0.036490168 -0.043124735 0.66902018
-0.034781717 -0.036437988 0.66873384
-0.026633937 -0.034957051 0.66974163
-0.026633937 -0.034957051 0.66974163
-0.021658154 -0.02832222 0.6699096
-0.026548367 -0.026548356 0.66909605
-0.024869448 -0.021553516 0.66893798
-0.009991915 -0.0066612661 0.66982591
-0.0091228131 0.0049763322 0.66903639
-0.0091228131 0.0049763322 0.66903639
-0.0033200614 0.013280243 0.66918755
0.00082964229 0.023216829 0.66898406
-0.0033051998 0.024788976 0.66829056
0.0066511976 0.026604801 0.66952175
0.0016508045 0.036317676 0.66807389
0.0090970062 0.04465577 0.66844946
0.014906032 0.051342994 0.66872829
0.011552604 0.054462284 0.66802162
0.011552604 0.054462284 0.66802162
0.023289025 0.05489552 0.66960657
0.019027697 0.061218038 0.66852498
0.028303144 0.061600953 0.66977423
0.028303144 0.061600953 0.66977423
-0.02856973 -0.063021734 0.67166716
-0.02856973 -0.063021734 0.67166716
-0.036737815 -0.060951635 0.67037892
-0.035107985 -0.061021253 0.6706093
-0.030030245 -0.04671371 0.67019141
-0.026737256 -0.045119137 0.67052114
-0.018487379 -0.045378089 0.67167902
-0.023433464 -0.043519288 0.67085195
-0.016782297 -0.038599253 0.67138433
-0.015077323 -0.030992523 0.67102563
-0.018344175 -0.025014788 0.67010754
-0.0083901947 -0.023492545 0.67136133
-0.0016775596 -0.010904402 0.67130351
-0.005013058 -0.0066840649 0.67051399
-0.0016748453 -0.0066993833 0.6709758
0.0050328756 0.00083854795 0.67131138
0.0067116553 0.0033558011 0.67134625
0.010895724 0.013409555 0.67113829
0.015109379 0.016788185 0.67145562
0.010863999 0.020891137 0.67054915
0.010863999 0.020891137 0.67054915
0.01676384 0.023469388 0.67116165
0.0209541 0.03101109 0.67115021
0.016688066 0.035044968 0.67024684
0.025077881 0.045140207 0.67061532
0.033585466 0.048698932 0.67151034
0.03086352 0.060891695 0.67018247
0.033390161 0.063441336 0.67033154
-0.023624718 -0.064968213 0.67250097
-0.015260311 -0.062736839 0.67347997
-0.018596241 -0.060860395 0.67287368
-0.0084671956 -0.04741627 0.67322034
-0.010959116 -0.040466219 0.67233348
-0.010951965 -0.038754836 0.67220068
-0.001695724 -0.039001644 0.67349613
0.00084787875 -0.033048443 0.67338204
-0.0067373957 -0.03031826 0.67212301
-0.001685773 -0.023600787 0.67229486
0.00084400212 -0.02108819 0.67244697
0.0067688082 -0.018614233 0.67307097
0.0033743868 -0.016871929 0.6724664
0.0016841569 -0.015157402 0.67209983
0.0067335321 -0.0050501227 0.67200637
0.020388121 -0.0050970018 0.67389274
0.015168494 0.0067415237 0.67224848
0.025439966 0.0084800124 0.67352915
0.028804155 0.016943634 0.67333174
0.028691303 0.027003586 0.67253041
0.028691303 0.027003586 0.67253041
0.032963086 0.030427039 0.67285216
0.0355248 0.032987043 0.67300522
0.031994306 0.038729936 0.67207009
0.035443589 0.038819194 0.6725384
0.037149955 0.040527225 0.67264032
0.042320892 0.04316704 0.67314744
0.047533065 0.044986397 0.6737237
0.04309386 0.049008176 0.67279744
0.049174581 0.05087027 0.67349023
0.040422432 0.053054199 0.6721133
0.050896011 0.052592546 0.67359388
0.045602828 0.054892048 0.67268366
0.045528539 0.059018463 0.6723516
0.045469157 0.062309623 0.67208606
-0.0017148615 -0.068594456 0.67580622
-0.0017125868 -0.065078318 0.67553169
-0.0068173893 -0.061356515 0.67453706
0.00085545948 -0.056427345 0.67520976
0.00085489312 -0.054681242 0.67507309
-0.0034009055 -0.049313128 0.67406696
0.0034133913 -0.046934411 0.67482054
0.0034055256 -0.040866286 0.67434573
0.017153284 -0.036021888 0.67586255
0.022303641 -0.027450621 0.67590314
0.01535879 -0.02559793 0.67480075
0.015343608 -0.023015708 0.67459714
0.022844393 -0.022844106 0.67561835
0.030878488 -0.012008309 0.67587984
0.025557373 -0.0034076273 0.674474
0.025557373 -0.0034076273 0.674474
0.032502517 -0.0017106235 0.67529893
0.032438166 0.0034145415 0.6748901
0.039333768 0.011115804 0.67523915
0.044517096 0.017121971 0.67548448
0.042613909 0.025568366 0.67456228
0.05136811 0.029108584 0.67549348
0.052966766 0.037589312 0.67505103
0.05640376 0.042730153 0.67512339
0.049304083 0.044203699 0.67402923
0.0617068 0.044566035 0.67571163
0.06134057 0.059636652 0.67448366
0.072043404 0.06089358 0.67586148
0.0068952525 -0.067228675 0.67688674
0.0085947681 -0.056725472 0.67630017
0.012922016 -0.055131778 0.67677271
0.024240911 -0.048481822 0.67781389
0.018966373 -0.04655382 0.67693532
0.027667355 -0.038907513 0.67753816
0.018897045 -0.036935419 0.67617464
0.020618591 -0.034364283 0.67621112
0.03103294 -0.024999052 0.67691565
0.036296997 -0.02246958 0.67744386
0.041518271 -0.015569359 0.67762488
0.041379817 -0.006896615 0.67692852
0.039529894 -0.0017186701 0.67626846
0.046623737 -0.0017267764 0.67724788
0.046577021 0.00086224079 0.67703909
0.041214857 0.0034345984 0.67609882
0.042925436 0.0068680942 0.67606646
0.044694744 0.0068761408 0.67630923
0.055362154 0.0086503327 0.67764175
0.05892216 0.01039806 0.67799628
0.060523994 0.019021809 0.67754388
0.064090855 0.020786256 0.67789739
0.07092756 0.036328793 0.67762643
0.0672189 0.039641917 0.6768564
0.06717407 0.041337907 0.67671758
0.074314266 0.044934213 0.67742097
0.067039922 0.046412289 0.67630243
0.079674691 0.048497587 0.67788208
0.079594612 0.051044092 0.67767197
0.070409223 0.054953605 0.67610031
0.075726785 0.058516145 0.67655486
0.073845305 0.060965031 0.67610455
0.08477392 0.060552835 0.67764324
0.029520299 -0.046885163 0.67841673
0.033027258 -0.043456882 0.67863268
0.036467724 -0.034731179 0.67842525
0.045358535 -0.031402051 0.67939103
0.036394436 -0.029462159 0.67800397
0.052480727 -0.026240379 0.67997026
0.04700055 -0.022629887 0.67893255
0.052268464 -0.015680522 0.67911613
0.057429254 -0.0034805238 0.67887455
0.060686328 0.012137264 0.67810374
0.075067312 0.019203246 0.67953491
0.07126148 0.024333209 0.67860949
0.074764326 0.029557973 0.67868441
0.08026661 0.029663771 0.67943537
0.083673358 0.038350314 0.67922634
0.083673358 0.038350314 0.67922634
0.042253777 -0.061620086 0.68132418
0.044930302 -0.059025683 0.68149054
0.034995444 -0.057742476 0.68002033
0.049331728 -0.051093578 0.6814779
0.045635846 -0.047391057 0.68067849
0.047287274 -0.03853038 0.68021452
0.049064107 -0.03679809 0.6803242
0.049064107 -0.03679809 0.6803242
0.056304593 -0.035190374 0.68119681
0.061805915 -0.035317659 0.68196511
0.050739449 -0.029743791 0.68000388
0.059520904 -0.015755534 0.68012202
0.059520904 -0.015755534 0.68012202
0.077323236 0.0052720606 0.68093455
0.079121776 0.0070330501 0.68104506
0.082668141 0.012312293 0.68112171
0.084528655 0.012327105 0.68137723
0.0842987 0.019318432 0.68079901
0.056846444 -0.060399324 0.68324077
0.056846444 -0.060399324 0.68324077
0.060338337 -0.051465005 0.68302417
0.060338337 -0.051465005 0.68302417
0.054777589 -0.049476534 0.6821022
0.058292881 -0.042394817 0.6820336
0.058292881 -0.042394817 0.6820336
0.071161851 -0.039139032 0.68355405
0.074542031 -0.026622146 0.68304271
0.079056375 -0.021318421 0.6832509
0.079056375 -0.021318421 0.6832509
0.081757031 -0.017773271 0.68334639
0.083520845 -0.014216304 0.68331182
0.077852763 -0.012385696 0.68238729
0.085108422 -0.0053192973 0.68283528
0.083177723 -0.0035394728 0.68243051
0.086689278 0.0035383403 0.68236172
0.067018703 -0.058975965 0.68453228
0.077366956 -0.05937463 0.68599057
0.077366956 -0.05937463 0.68599057
0.078824058 -0.044786394 0.68505204
0.076779082 -0.039282292 0.68434024
0.083245464 -0.065148622 0.68725228
0.084981598 -0.059667915 0.68706346
-0.075553201 0.0059331581 0.65980083
-0.063326761 0.026122048 0.65990955
-0.063326761 0.026122048 0.65990955
-0.062354509 0.029726915 0.65976202
-0.070046052 0.041871157 0.65775263
-0.069929577 0.046099357 0.6574384
-0.070095159 0.057980902 0.65648735
-0.046150357 0.064691022 0.65926504
-0.075998865 -0.048509926 0.66399294
-0.065779641 -0.026232312 0.6636619
-0.06634292 -0.01809453 0.66294825
-0.070284531 -0.01376907 0.66206682
-0.057666019 -0.010082368 0.66351879
-0.065717697 -0.0025587231 0.66182071
-0.050264176 0.010052402 0.66296637
-0.050034411 0.021814924 0.66207916
-0.042190876 0.026118232 0.66282451
-0.050176956 0.034247838 0.66108817
-0.050107442 0.037779082 0.6608218
-0.022627354 0.046870947 0.66390151
-0.042123448 0.053647671 0.66068339
-0.026124258 0.053858414 0.66287327
-0.061679848 -0.066204257 0.66735005
-0.078186423 -0.057729471 0.66441184
-0.042902779 -0.041252673 0.66798961
-0.065885685 -0.038113233 0.66457564
-0.049945954 -0.013806786 0.66487432
-0.041998073 -0.010194704 0.66568822
-0.03017945 0.010195203 0.66572505
-0.017607195 0.022112697 0.66652775
-0.032633811 0.026160568 0.66413915
-0.024269864 0.041258529 0.66411293
-0.013806311 0.049947307 0.66487747
-0.0057173003 0.049825907 0.66600245
0.0089260591 0.053826798 0.66770911
-0.0056894282 0.062181562 0.66504109
-0.045792054 -0.058018811 0.66890156
-0.023555528 -0.057206303 0.67190444
-0.042303804 -0.053917475 0.66906208
-0.042303804 -0.053917475 0.66906208
-0.029706713 -0.054395232 0.67083657
-0.017937612 -0.045965951 0.67180085
-0.025807526 -0.034133427 0.66979128
-0.024766091 -0.010732248 0.66810626
0.002099599 -0.0058754422 0.67143166
-0.010317943 -0.0023549374 0.6694442
-0.0025062922 -0.002507031 0.67053336
-0.016503606 0.0049510598 0.66802025
0.022524681 0.045882381 0.670205
0.011556298 0.053654 0.66808534
0.034322657 0.057761453 0.67090428
0.025754027 0.062306732 0.66936731
-0.026125336 -0.066368252 0.67226589
-0.0059154849 -0.038031511 0.67283869
-0.002540797 -0.038119562 0.673311
0.0098253936 -0.038442109 0.67504138
0.017153284 -0.036021888 0.67586255
0.024015555 -0.024015546 0.6758709
0.024015555 -0.024015546 0.6758709
0.017814949 -0.0059384331 0.67360365
0.026414212 -0.002343569 0.67450905
0.029922385 0.010030019 0.67402583
0.045385227 0.017982341 0.67553699
0.045385227 0.017982341 0.67553699
0.029764904 0.033414837 0.67217731
0.041614361 0.046471763 0.67279166
0.057727858 0.058339845 0.67408651
0.065846696 0.057721533 0.67525452
0.069429576 0.057856783 0.67573822
0.0094508687 -0.054125093 0.67621505
0.014608481 -0.045542791 0.67625582
0.0264192 -0.045906618 0.67791295
0.053297602 -0.021843351 0.67973936
0.049598873 0.0022309883 0.67734891
0.065368667 0.0061007515 0.67922103
0.066351742 0.038345065 0.67683792
0.066351742 0.038345065 0.67683792
0.082502767 0.046027288 0.67846525
0.082425885 0.054025739 0.67782944
0.041462082 -0.068808526 0.68177652
0.046144526 -0.066121012 0.68221217
0.035007305 -0.05863753 0.68009198
0.054028381 -0.057570949 0.68263161
0.066490024 -0.038120918 0.68283051
0.049919885 -0.03415563 0.68023568
0.069869727 -0.025648467 0.68232203
0.065868631 -0.013613559 0.6808303
0.078593105 -0.013726596 0.6825937
0.082561389 -0.013538662 0.68312633
0.074402131 -0.054680988 0.68521535
0.085371703 -0.042236567 0.68575585
0.083424374 -0.025874913 0.68420911
