# .PCD v0.7 - Point Cloud Data file format
VERSION 0.7
FIELDS x y z
SIZE 4 4 4
TYPE F F F
COUNT 1 1 1
WIDTH 891
HEIGHT 1
VIEWPOINT 0 0 0 1 0 0 0
POINTS 891
DATA ascii
0.059757844 0.030573785 0.63655788
0.053187627 0.033592194 0.63775975
0.055904187 0.033542514 0.63750994
0.055904187 0.033542514 0.63750994
0.063160822 0.028071463 0.6382305
0.063160822 0.028071463 0.6382305
0.03941597 0.029561967 0.63873017
0.050477084 0.029444993 0.63805753
0.023930412 0.030968785 0.63872504
0.055206042 0.026895255 0.63967484
0.019846089 0.029769152 0.63992095
0.024062658 0.029724479 0.63966411
0.062821366 0.024271876 0.64114982
0.062821366 0.024271876 0.64114982
0.048517838 0.025685906 0.64105773
0.041720372 0.024456769 0.64246255
0.012933724 0.02730453 0.64227509
-0.0014363072 0.028726161 0.64218175
-0.02593156 0.0302535 0.64270508
-0.040316228 0.031677037 0.64261127
0.060334075 0.037349671 0.6422081
0.04195603 0.023148179 0.64344347
0.026040876 0.024594158 0.6434381
0.0057955557 0.026079983 0.64370048
-0.010141879 0.027527958 0.64369458
-0.018786307 0.028902024 0.64324319
-0.018786307 0.028902024 0.64324319
-0.031758707 0.030315161 0.64305931
-0.031758707 0.030315161 0.64305931
-0.05794809 0.031871438 0.64367795
0.058201097 0.020370394 0.64444149
0.020410983 0.023326814 0.64479148
0.0261888 0.023278952 0.6444301
-0.0014526034 0.026146859 0.64414889
-0.018892901 0.027612716 0.64423293
0.071780138 0.01757884 0.64563334
0.010242399 0.023411214 0.64542794
-0.029337851 0.026404053 0.64587373
-0.035077155 0.027769417 0.64522862
-0.070222072 0.030722141 0.64539897
-0.070222072 0.030722141 0.64539897
0 0.036544919 0.64525855
0.027780412 0.038015306 0.64529848
0.058869954 0.017661005 0.64645988
-0.004412388 0.023532748 0.6463449
-0.017630676 0.02497679 0.646155
-0.039750092 0.026500046 0.64651752
-0.060453542 0.028015077 0.64678919
0.048448663 0.03963986 0.64602441
0.048448663 0.03963986 0.64602441
-0.010376701 0.022235811 0.64774394
0 0.022154659 0.64709127
-0.035482097 0.025133163 0.64726526
-0.071033746 0.028117537 0.6474402
-0.050274167 0.035487652 0.64729321
0.029662885 0.040044874 0.64783549
0.059292641 0.04150483 0.64773554
0.063920446 0.01486522 0.64824319
0.047567058 0.016351193 0.64823699
0.022366712 0.017893344 0.64879751
-0.019331718 0.022305846 0.64830756
-0.044751074 0.02386722 0.64886856
-0.044751074 0.02386722 0.64886856
-0.035688207 0.023792118 0.6483019
0.054026682 0.013506681 0.64995962
0.068670556 0.013435572 0.64900565
0.028436869 0.016463488 0.64946908
0.028436869 0.016463488 0.64946908
0.0074950182 0.017988056 0.64974988
-0.0044897334 0.019455522 0.6494571
-0.065736584 0.025398225 0.64914745
-0.040311724 0.03732568 0.64902842
-0.040311724 0.03732568 0.64902842
0.011978161 0.040426284 0.6495406
0.066139944 0.012025446 0.65025407
0.043683529 0.013556957 0.65063411
0.0345526 0.015022904 0.65014619
-0.0030184882 0.04074958 0.65098602
0.03602843 0.042033166 0.65001315
0.031767987 0.013614863 0.65141058
-0.057598323 0.021220446 0.65177077
-0.049886152 0.021163791 0.65128261
-0.06502334 0.037804306 0.65133929
-0.012132189 0.040946156 0.65186477
0.045516893 0.043999642 0.65195
0.045516893 0.043999642 0.65195
0.068409972 0.0091213584 0.65231109
0.028944362 0.012187153 0.65269327
0.010669112 0.013717443 0.65278637
0.013702669 0.013702631 0.65258843
0.019750303 0.013673335 0.65219426
-0.0091544902 0.015257478 0.6529783
-0.025936803 0.016782641 0.65297168
-0.033456068 0.018248796 0.65237254
-0.05483276 0.019800723 0.65266246
-0.045547016 0.019737035 0.65207118
-0.045547016 0.019737035 0.65207118
-0.022876551 0.041177809 0.65290046
-0.021334166 0.04114449 0.65275139
0.047483556 0.0091903508 0.65369999
0.050492506 0.0091804862 0.65350068
0.010732981 0.012266248 0.65388775
0.0045823348 0.013747036 0.65318304
-0.035204742 0.01683706 0.65356886
-0.025968747 0.041244477 0.65319854
-0.025968747 0.041244477 0.65319854
-0.001531653 0.042886287 0.65369099
0.0045800847 0.042747468 0.6530925
0.058182824 0.045933813 0.65362751
0.03234113 0.0092403293 0.65470505
0.035382841 0.0092303157 0.65450358
0.042958129 0.0092053115 0.6540007
0.012333455 0.010791779 0.65490156
-0.0030815739 0.0123263 0.65479356
-0.018478779 0.013859093 0.65468627
-0.05985475 0.018416852 0.65406328
0.021518048 0.044573128 0.65433681
0.037124019 0.0077341795 0.65552348
-0.0092648705 0.012353182 0.65519893
-0.029369755 0.013912022 0.65539587
-0.043233097 0.015440404 0.65518612
-0.072885148 0.017058223 0.65599597
-0.06495364 0.017011672 0.65548503
-0.049483143 0.041751415 0.65546489
0.04020071 0.046385467 0.65544474
0.049883388 0.0046765506 0.65697467
0.051414087 0.0046740174 0.65687168
0.026397103 0.0077638626 0.65624011
-0.015569299 0.01089853 0.65674216
-0.048234951 0.014003724 0.65662587
0.023459528 0.0062558353 0.65759182
0.028104832 0.0062455237 0.65727931
0.012483737 0.0078023374 0.65716916
-0.010947019 0.0093831718 0.65757865
-0.020273486 0.010916501 0.65705228
-0.0093747517 0.045311272 0.65740955
0.04544593 0.04858014 0.65796995
0.062842846 0.0015710592 0.65844923
0.068973951 0.0015675724 0.65802896
0.0047231847 0.0062975883 0.65885037
-0.040839296 0.010995209 0.65840948
-0.051892448 0.044029951 0.65862143
0.042382147 0.048660994 0.65828478
0.058586381 -0 0.65993929
0.058586381 -0 0.65993929
0.050498236 0.0015780628 0.65929401
-0.0094938455 0.0063292384 0.65980554
-0.044301499 0.0094931722 0.65979213
-0.061703593 0.01107502 0.65978575
-0.034835611 0.045919657 0.65994191
-0.033224232 0.045881063 0.65978128
0.063118584 0.05049485 0.65928125
0.028628491 0.0015904903 0.66079104
0.028628491 0.0015904903 0.66079104
0.0079610124 0.0031844079 0.66099995
0.0079610124 0.0031844079 0.66099995
-0.0047683977 0.0047684014 0.66066957
-0.027065527 0.0063683391 0.66098642
-0.020650763 0.0063540637 0.66055548
-0.062087107 0.0095518529 0.66097277
-0.077960394 0.011137217 0.66085827
-0.074694596 0.01112476 0.66064316
-0.038066391 0.045996875 0.66026324
0.020646667 0.04923436 0.66051739
0.020646667 0.04923436 0.66051739
-0.035124671 0.0063863397 0.66152787
-0.054312393 0.0079871118 0.66163015
-0.066976085 0.009567976 0.66129768
-0.066976085 0.009567976 0.66129768
0.04463084 0.051006734 0.66121191
0.038520064 -0.0016049743 0.66254508
0.014477328 2.9802322e-08 0.66297835
-0.046484139 0.0064116418 0.66229141
0.0032060961 0.049694479 0.66230917
-0.035568215 0.0032334626 0.66396153
-0.071131326 0.0064664483 0.66394752
-0.071131326 0.0064664483 0.66394752
-0.072656974 0.046823382 0.6637035
0.063246839 -0.0064868629 0.66456234
0.064831398 -0.0064831376 0.66445017
0.064831398 -0.0064831376 0.66445017
0.045406271 -0.0048649013 0.66455489
0.07318911 -0.0081321001 0.66513097
0.050504338 -0.0065166652 0.66546255
-0.044055693 0.0016316772 0.66576684
-0.026047088 0.050466239 0.6653142
0.057253543 -0.0081790686 0.66626453
-0.021311782 -0.0016393363 0.66669333
-0.021311782 -0.0016393363 0.66669333
-0.0147202 -0.0016355813 0.6662358
-0.06072234 0.0016411543 0.66690779
-0.057373699 0.0016392469 0.66667891
-0.075402558 0.0032784045 0.6666714
-0.067012765 0.0032688975 0.66610062
0.060487907 0.055583537 0.66614294
0.059233624 -0.0098722875 0.6674189
0.0032923045 -0.0049384534 0.6675123
0.0032923045 -0.0049384534 0.6675123
0.0098540187 -0.0049269795 0.66705167
-0.0098593635 -0.0032864511 0.6671592
-0.079007603 0.049379736 0.66749293
0.077835791 -0.013248622 0.66871071
0.023182528 -0.0082794726 0.6686883
-0.014910682 -0.0049701929 0.66879064
-0.0066076498 -0.004955709 0.66820753
-0.02644502 -0.003305614 0.66831636
0.064890504 -0.01331085 0.66964966
0.024985423 -0.0099941194 0.66987127
-0.0016597158 -0.0066388547 0.66914958
0.048536971 -0.013389528 0.67083621
0.033433039 -0.011701554 0.6705904
0.015044281 -0.010029525 0.67058253
-0.033349395 -0.0050024092 0.67008555
-0.07344979 -0.0016693175 0.67030811
0.040287524 -0.013429195 0.67143476
-0.016794523 -0.0083972514 0.67153198
-0.048614107 -0.0050290227 0.6711573
-0.048614107 -0.0050290227 0.6711573
-0.052004807 0.053682387 0.67130524
0.0084071513 0.057168663 0.67177069
0.057486903 -0.016907901 0.67290068
0.060796048 -0.016887784 0.67265779
0.048856217 -0.015162289 0.6721651
-0.072685041 -0.005071044 0.67284739
0.064522244 -0.018677503 0.6737653
0.044171561 -0.016989082 0.67388022
0.0152433 -0.013549596 0.67325181
-0.0016926263 -0.01184836 0.67312217
-0.0016926263 -0.01184836 0.67312217
-0.027145805 -0.010179639 0.67360342
-0.027145805 -0.010179639 0.67360342
-0.042362999 -0.0084726214 0.67335081
-0.042362999 -0.0084726214 0.67335081
-0.083124772 -0.0050892532 0.67358065
-0.0067800977 0.057630837 0.67341167
0.069953926 -0.020474315 0.67475992
0.061199568 -0.018699855 0.67401081
-0.083679304 -0.0068309605 0.67494667
-0.074914545 -0.0068103969 0.67432648
0.077106647 -0.022275239 0.67563957
0.077106647 -0.022275239 0.67563957
0.041095681 -0.018835515 0.67549938
-0.035975017 -0.01199165 0.67559308
-0.058313541 -0.010290593 0.67583549
0.062023111 -0.02239725 0.67677224
0.05152718 -0.020610869 0.67613351
-0.042931207 -0.012020737 0.67609429
-0.074153446 -0.010347009 0.67696953
-0.08070451 -0.008585602 0.6760785
-0.08070451 -0.008585602 0.6760785
-0.06883426 0.056788296 0.67652988
0.046773292 -0.022520453 0.67791653
0.0086610541 -0.019054294 0.67790043
-0.020721586 -0.015541166 0.67724717
-0.06047022 -0.012094051 0.67735845
-0.039984483 -0.0156461 0.67865431
-0.032949809 -0.015607804 0.67814064
-0.062658861 -0.013924211 0.67890394
-0.074656375 -0.012153387 0.67838138
-0.055640206 0.059117734 0.67869061
0.080385342 -0.027960092 0.67974687
0.031354722 -0.022645056 0.67907351
-0.055939473 -0.015732944 0.67981946
0.036678396 0.064623863 0.67963624
-0.07027138 -0.015811056 0.68086672
0.074083492 -0.029986173 0.68172479
0.024615021 -0.02461502 0.68103957
-0.02648617 -0.021188915 0.68194836
-0.038748365 -0.019374162 0.68141055
0 -0.024830729 0.68289953
-0.017724469 -0.023041815 0.68275744
-0.0530072 0.061841726 0.68208861
0.049823239 -0.030249804 0.68359685
0.037272412 -0.028398007 0.68305075
0.012447045 -0.026672214 0.68344575
-0.042617053 -0.021308511 0.68315136
-0.065781131 -0.019556522 0.68341184
0.0017795354 0.065842837 0.68361306
0.0017795354 0.065842837 0.68361306
0.0017795354 0.065842837 0.68361306
0.041055162 -0.030345112 0.68427354
-0.00178712 -0.026806802 0.68452859
-0.041100491 -0.023230731 0.68451142
0.080895498 -0.035953522 0.685803
0.061118722 -0.034154594 0.68579483
0.068136282 -0.034068137 0.68524563
0.068136282 -0.034068137 0.68524563
0.043113597 -0.032335222 0.6856488
0.028686674 -0.03047958 0.68522841
0.028686674 -0.03047958 0.68522841
0.030460291 -0.030460298 0.68509132
-0.017973224 -0.026959836 0.68576008
0.055615671 0.069968104 0.68536562
0.053872749 0.070034564 0.68557131
0.055832088 -0.034219652 0.68620825
-0.048711304 -0.025257677 0.6865809
-0.070402697 -0.023467571 0.68671072
0.07441619 -0.038115621 0.68789756
0.07441619 -0.038115621 0.68789756
0.059778634 -0.036229491 0.68746835
0.045198306 -0.034350693 0.68704081
-0.023575546 -0.029016048 0.68771338
-0.057916321 -0.025338382 0.6872766
0.074211538 0.072401464 0.68729496
0.021876726 -0.034638137 0.68886697
-0.038162075 0.067237973 0.68816459
0.027326509 0.071048945 0.68871087
0.065475337 0.07275039 0.68834782
0.054837361 -0.038386166 0.68945265
0.054837361 -0.038386166 0.68945265
0.058417715 -0.038336605 0.68916798
0.018254055 -0.034682691 0.68915004
0.020066516 -0.03466031 0.689008
-0.007315468 -0.032919616 0.68956792
-0.031129774 -0.031129777 0.68984509
-0.041979298 -0.029202998 0.68912369
-0.073287994 -0.027482957 0.68997025
-0.012785839 0.069408864 0.68928802
0.023728805 0.071186393 0.68913645
0.042232618 -0.038560241 0.69045317
0 -0.034907609 0.69057894
-0.082716458 -0.027572155 0.69068766
-0.075168572 -0.027500689 0.69011265
0.011026417 0.071671754 0.69063848
0.066496491 -0.042483866 0.69177181
0 0.072092801 0.69194186
0.042362329 0.073673606 0.69113386
0.07783632 -0.04447788 0.69251066
-0.0037043269 0.072234392 0.69238007
0.031495791 0.074107736 0.69244397
0.059694346 -0.044770747 0.69398367
0.039172713 -0.042903453 0.69397384
0.039172713 -0.042903453 0.69397384
0.020504715 -0.041009426 0.69381666
-0.0018652201 -0.03916961 0.69395614
0.024180004 0.074400008 0.693326
0.061337039 0.076206625 0.69316882
0.011221305 -0.041144788 0.69455934
-0.052394293 -0.035553277 0.69468093
-0.013204875 -0.041501015 0.69651401
-0.037709549 0.073533624 0.69640142
0.079563692 -0.051148087 0.69747525
0.064277038 -0.04915303 0.69700778
0.017047245 -0.0454593 0.69744682
0.00380608 -0.045672953 0.69852138
-0.057045717 -0.039931953 0.69833833
0.02872164 -0.049784184 0.69993806
-0.074610367 -0.040174782 0.69973403
0.044131223 -0.051806211 0.70041758
0.021119615 -0.049919069 0.70056438
-0.067278869 -0.042289555 0.70084059
-0.082485437 -0.040283591 0.70035928
0.003863507 -0.050225586 0.70198745
-0.030821372 -0.046232074 0.7013334
-0.05004862 -0.044273764 0.70116574
-0.029094046 -0.048490047 0.70293492
-0.042553026 -0.046421468 0.70228612
0.01756696 -0.054652721 0.70441741
-0.0058594286 -0.052734882 0.70456934
0.072478682 -0.060725361 0.7052623
0.029380692 -0.05680266 0.70524162
0.035454486 -0.059090823 0.70656723
-0.023584027 -0.053064078 0.7060411
-0.076908454 -0.049300253 0.70684701
0.047439534 -0.061276048 0.70740652
0.023735354 -0.059338361 0.70756334
-0.063283153 -0.051417559 0.70752138
-0.063283153 -0.051417559 0.70752138
0.053671427 -0.063610554 0.70875651
0.039643712 -0.061447769 0.70807511
-0.029770499 -0.055571616 0.70837867
-0.051600032 -0.053584665 0.7083686
0.061929628 -0.065925121 0.70995152
0 -0.059839785 0.7095809
0.076131947 -0.068118066 0.7106446
0.010016046 -0.062099457 0.71061277
0.010016046 -0.062099457 0.71061277
-0.012018745 -0.060093731 0.71060258
0.066349186 -0.068359762 0.71150279
-0.068390325 -0.056321412 0.71161127
0.010094998 -0.064608008 0.71251893
0.068851613 -0.070876658 0.71324897
0.044936363 -0.071489662 0.7153632
-0.0061404258 -0.067544699 0.71587574
-0.024525162 -0.065400422 0.71550816
0.05539123 -0.073854923 0.71644533
0.032823008 -0.071800321 0.7164346
0.014338653 -0.069644868 0.71606535
-0.039028656 -0.065732449 0.71676069
-0.057430036 -0.063583255 0.71639049
-0.075776555 -0.061440438 0.71602142
-0.026802149 -0.068036199 0.71767378
-0.0062401867 -0.072802156 0.71988982
-0.068481691 -0.066406488 0.71930331
-0.073333822 -0.069143295 0.72172338
-0.037858054 -0.073612869 0.72268587
-0.037858054 -0.073612869 0.72268587
-0.033601653 -0.073503613 0.72230899
-0.076108024 -0.071879774 0.72399998
0.05312242 0.026915446 0.63980317
0.05312242 0.026915446 0.63980317
0.019846089 0.029769152 0.63992095
0.024764013 0.029717043 0.63962138
0.031062314 0.02965039 0.63923836
0.035342969 0.028979287 0.63945508
0.059037954 0.028113306 0.63848293
0.03089202 0.030892015 0.638304
0.0049545104 0.032559961 0.63968813
0.0049545104 0.032559961 0.63968813
0.01478641 0.032389864 0.6387955
0.022439919 0.032257378 0.63810021
0.03116278 0.033995777 0.63978958
0.057066724 0.02496472 0.64101815
0.069089442 0.024216965 0.64075989
0.037044715 0.027071148 0.64079231
0.046853289 0.026976109 0.64018875
-0.017187677 0.03294307 0.64169878
0.040760983 0.0357555 0.64144683
0.060703877 0.021679968 0.64327091
0.049064547 0.0230892 0.6429987
-0.030471416 0.029020399 0.64395773
-0.0014363072 0.028726161 0.64218175
0.047026906 0.037621737 0.64347124
0.0051302793 0.023453593 0.64574766
0.0051302793 0.023453593 0.64574766
-0.010993693 0.024918616 0.64574194
-0.0051198909 0.024867132 0.64537632
-0.02114949 0.02698151 0.64486939
-0.042992398 0.029147267 0.64472342
-0.055306878 0.030564308 0.64449179
-0.052519735 0.033554256 0.6449067
-0.048778627 0.0334896 0.64456737
-0.029252041 0.035102457 0.64535582
-0.0073374235 0.036687106 0.64594519
0.013065076 0.036291867 0.64403683
0.04292604 0.017762512 0.64748108
0.055126667 0.017225474 0.64705002
0.039050594 0.019157007 0.64668512
0.00049206952 0.022597959 0.64671934
-0.022814538 0.025022224 0.64647734
0.041214302 0.014987096 0.64971429
0.043428123 0.01497522 0.64957094
-0.023214838 0.020968065 0.64959478
-0.019444613 0.020940334 0.64935589
-0.032775156 0.023089424 0.64863646
-0.056593403 0.025318086 0.64857858
-0.06915959 0.026771367 0.64833695
-0.064804062 0.035753787 0.64863181
0.037499834 0.041999817 0.64986932
0.037499834 0.041999817 0.64986932
0.0068270564 0.015171692 0.65194261
-0.0068199309 0.016670436 0.65174055
0.0030204849 0.016612679 0.65110648
0.0090421801 0.016577333 0.65071869
-0.010560088 0.018103004 0.65090632
-0.040685657 0.021096259 0.65070015
-0.068942294 0.037880227 0.65170598
0.018937798 0.042421356 0.65168667
0.018937798 0.042421356 0.65168667
0.068818435 0.0076465011 0.6534068
0.073287748 0.0076341331 0.6531086
0.045222476 0.0091978461 0.65385026
0.039459627 0.012141436 0.65200406
-0.070442796 0.019907743 0.65365624
-0.036536802 0.018268377 0.65257007
-0.027518557 0.041277885 0.65334767
0.0045800847 0.042747468 0.6530925
0.0068614846 0.042695612 0.65286887
0.0068614846 0.042695612 0.65286887
0.037124019 0.0077341795 0.65552348
-0.0015492683 0.010844916 0.65581733
0.01079762 0.01079762 0.65500242
-0.030746767 0.015373379 0.65437728
-0.055492938 0.01695618 0.65487611
-0.055492938 0.01695618 0.65487611
-0.07481999 0.018512115 0.65502155
-0.038438212 0.041513234 0.65440023
-0.018545376 0.043272555 0.65535617
-0.013099099 0.043148935 0.65482336
0.052974019 0.04606466 0.65415382
0.036805123 0.0046985745 0.65785933
0.057519421 0.0046637058 0.65645838
-0.0070278756 0.0093702227 0.65731823
-0.0031191111 0.009357363 0.65705913
-0.024993306 0.010934591 0.65736407
-0.024993306 0.010934591 0.65736407
-0.024993306 0.010934591 0.65736407
0.048947465 0.0015789568 0.65940028
0.050498236 0.0015780628 0.65929401
0.055140376 0.0015754402 0.6589765
0.026721092 0.0047155023 0.65854061
-0.0047244648 0.0070842803 0.65890187
-0.018818256 0.0094091296 0.65810114
-0.034835611 0.045919657 0.65994191
-0.020430379 0.04557544 0.65850914
0.034677815 0.048864186 0.65907609
0.043148696 0.048640713 0.65820587
0.070712775 0.050284654 0.65848827
0.019150175 0.0015958548 0.66144001
0.027053224 0.0015913546 0.66089898
0.0095478743 0.0031826496 0.66089249
0.017455356 0.0031737089 0.66035396
0.019031597 0.0031719506 0.66024721
-0.051059894 0.0079781413 0.66141266
-0.051059894 0.0079781413 0.66141266
-0.027065527 0.0063683391 0.66098642
-0.069007836 0.044418633 0.66029704
-0.066544041 0.044362724 0.66005594
-0.051098716 0.046308219 0.66155916
0.012759331 0.04944241 0.6613276
0.077227741 0.052546933 0.66101551
0.053361814 -0.0048511028 0.66399628
0.040892549 -0.0016036183 0.66238034
-0.016971732 0.0016163439 0.66391283
0.061049607 0.053016812 0.66273409
0.0695742 -0.0064719915 0.66411453
0.0089776395 -0.0032646656 0.66584504
0.033175968 -0.0032366961 0.66415638
-0.0048898091 -0.0016299188 0.66555482
-0.042399552 0.0016307533 0.66565329
-0.027147941 0.0005408029 0.66543376
-0.024904117 0.001080662 0.66486758
-0.050377551 0.0032501519 0.66496891
-0.042954057 0.0032418072 0.664464
-0.07910905 0.0048933327 0.66569644
-0.071583137 0.0048806965 0.665187
-0.059127152 0.0048597455 0.66434526
-0.029353635 0.05055353 0.66565394
-0.014563538 0.050163329 0.66413462
0.039022774 0.05365634 0.66507351
0.039510544 -0.0082313418 0.66752684
0.07843145 -0.009803921 0.666044
0.07843145 -0.009803921 0.666044
0.027107123 -0.0065714717 0.66711611
0.042480618 -0.0065354705 0.66602963
0.0188266 -0.0049113482 0.66642153
0.0188266 -0.0049113482 0.66642153
-0.021449069 -0.0032998621 0.66796809
-0.034586787 -0.0016469657 0.66761339
-0.016365238 -0.0016365349 0.66635001
-0.079007603 0.049379736 0.66749293
-0.075583719 0.049293727 0.66714674
-0.04101707 0.05086118 0.66685206
-0.0016339885 0.052287638 0.666044
0.058904242 0.055631816 0.66631442
0.041668367 -0.011667132 0.6699968
0.06689252 -0.011561707 0.66817868
-0.0016597158 -0.0066388547 0.66914958
-0.044914234 -0.0033269823 0.66960514
-0.068320937 -0.0016663373 0.66995209
-0.047145009 -0.0016542226 0.66848403
-0.059634995 0.051352352 0.66876471
-0.059634995 0.051352352 0.66876471
-0.02481069 0.052929461 0.66846514
-0.004994039 0.054934442 0.66974878
0.033184994 0.056414485 0.66909325
0.036439393 0.056315422 0.66874152
0.07347133 -0.015028208 0.67036718
0.075096823 -0.015019357 0.67024827
0.020919899 -0.010881208 0.67082691
0.0033351867 -0.0083379447 0.67010045
-0.04037717 -0.0067295432 0.67188561
-0.023414308 -0.0066897869 0.67068672
-0.015007758 -0.0066701174 0.67009258
-0.050320264 -0.0050320327 0.67127723
-0.035037387 -0.0050053596 0.67020351
-0.070487402 -0.0033565462 0.67138946
-0.040864777 0.053373933 0.6701417
0.015079113 0.05696553 0.67104965
0.020877928 0.056788951 0.67042279
0.056678176 0.058345199 0.6700294
0.056678176 0.058345199 0.6700294
0.052508652 -0.016938269 0.67326719
0.052508652 -0.016938269 0.67326719
0.047199626 -0.015171289 0.67228615
0.031156268 -0.013473079 0.67209733
-0.077026203 -0.0050785989 0.67315257
-0.077026203 -0.0050785989 0.67315257
-0.038975354 0.055921167 0.67335814
0.039407209 -0.018846929 0.67562455
0.017153656 -0.017153651 0.67586708
-0.00853997 -0.013663948 0.67497724
-0.034991477 -0.01109761 0.67484379
-0.059665062 -0.0085235536 0.67458153
-0.01876325 0.057995528 0.67470634
0.013649547 0.059716761 0.67475986
0.07524801 0.063276738 0.67524135
0.07524801 0.063276738 0.67524135
0.067522809 -0.024238974 0.67779702
0.069211811 -0.024224102 0.67766923
0.017269313 -0.018996239 0.6772632
0.03093385 -0.018904001 0.67625105
-0.0034558328 -0.017279178 0.67738211
0.010317174 -0.017195255 0.67636961
0.045068536 -0.022534251 0.67804468
0.0069803242 -0.020940959 0.67945409
-0.039103515 -0.015641287 0.67858988
-0.064439021 -0.013932765 0.67903328
-0.064439021 -0.013932765 0.67903328
-0.050259169 -0.013864607 0.67800474
0.051214635 -0.028256327 0.68198186
0.014995726 -0.024699301 0.68176615
-0.0070632696 -0.022955626 0.68195713
-0.04916127 -0.017557591 0.6807431
-0.003505229 0.063094139 0.68036342
0.061431501 0.066697061 0.68067378
0.071134269 -0.032010406 0.68347073
0.055057786 -0.030192971 0.68319321
0.072866835 -0.031990319 0.68333596
0.04251704 -0.028344691 0.68264836
0.0035428077 -0.024799645 0.68263149
0.0035428077 -0.024799645 0.68263149
-0.028466029 -0.023128629 0.68356371
-0.03542529 -0.021255195 0.68261462
-0.028269555 -0.021202147 0.68208146
-0.067601472 -0.019568831 0.68354672
-0.085334472 -0.017778009 0.68340373
-0.076206081 -0.017722309 0.68273175
-0.068944678 -0.017678112 0.68219793
-0.019441208 0.063625813 0.68214607
0.06463182 -0.034111261 0.68551946
0.066385031 -0.034089595 0.68538201
0.057194542 -0.032171875 0.6845538
0.082065061 -0.033896416 0.68415475
0.04281316 -0.030326009 0.6841377
-0.023246273 -0.025034428 0.6846559
-0.064409882 -0.021469951 0.68477523
-0.076737329 -0.019630462 0.68422306
-0.082513943 0.062782347 0.68533266
-0.080643639 0.062722832 0.68512738
-0.076913349 0.062603891 0.68471718
-0.076913349 0.062603891 0.68471718
-0.0053588264 0.066092163 0.68442667
0.032100905 0.067768633 0.68407756
0.050525453 -0.034285098 0.68662417
0.014416303 -0.030634671 0.68632931
-0.012645947 -0.028905004 0.68687564
-0.010832468 -0.028886586 0.68673658
-0.077821776 -0.023527503 0.68726736
0.010823081 0.068546206 0.6865477
0.04862424 0.070235014 0.68619174
0.073166579 -0.040241599 0.68960375
0.076725714 -0.040189654 0.68931872
0.032688852 -0.034504861 0.68802041
-0.01282694 -0.032983541 0.68999678
-0.009150249 -0.032940894 0.68971068
-0.001825335 -0.032856017 0.68914157
-0.001825335 -0.032856017 0.68914157
0.010902821 -0.032708466 0.6881519
-0.032982156 -0.031149805 0.68998742
-0.020984028 -0.031019419 0.68906158
-0.018229129 -0.030989498 0.68884921
-0.071409553 -0.027465194 0.68982708
-0.050906453 -0.02727133 0.68826669
-0.082148328 0.065718651 0.68916368
-0.078345962 0.065591991 0.68873888
-0.040947512 0.067335203 0.68848187
-0.012785839 0.069408864 0.68928802
0.054880243 0.073173672 0.68962514
0.065475337 0.07275039 0.68834782
0.067229405 0.072680473 0.68813676
0.040422648 -0.038585246 0.69059706
-0.036959108 -0.033263206 0.69187206
-0.025770498 -0.033133507 0.69100225
-0.053518709 -0.031373054 0.69157237
-0.064379349 -0.029430568 0.6908406
0.080217443 -0.046638042 0.69399256
0.082029216 -0.046607494 0.69384515
0.055631407 -0.042650729 0.69264758
0.026966572 -0.040915236 0.69330001
0.026966572 -0.040915236 0.69330001
-0.066741452 -0.03151682 0.69259322
-0.048380002 0.070709258 0.6934188
-0.013029131 0.072590858 0.69348347
0.071124285 -0.046792269 0.69473726
0.037606169 -0.045127422 0.69577748
0.02065512 -0.043187976 0.69546717
-0.024440898 -0.039481431 0.69574857
-0.0037329008 -0.039195448 0.69410455
-0.031812079 -0.037425995 0.69468993
-0.082603417 -0.033792287 0.69542038
-0.06376911 0.07127136 0.6952045
0.014953692 0.074768454 0.69443792
0.056866772 -0.049284518 0.69761837
0.022684107 -0.045368195 0.69698864
0.024558045 -0.045337915 0.69683623
0.013179096 -0.043302745 0.69606954
-0.03036451 -0.041751176 0.69788659
-0.024621727 -0.041667551 0.69742763
-0.045453493 -0.039771795 0.6974175
-0.050861217 -0.037674963 0.69619274
-0.047373775 0.073903084 0.69754493
0.0497864 -0.051701218 0.69994831
0.072179198 -0.051285207 0.69808829
0.0094960798 -0.045581162 0.69805974
-0.030591298 -0.043974966 0.6995976
-0.062877044 -0.040012658 0.69880199
0.063364252 -0.053763628 0.70058417
0.013476331 -0.050054967 0.70119512
-0.05004862 -0.044273764 0.70116574
-0.015327276 -0.045981824 0.70007485
-0.069247879 -0.042318135 0.70099741
0.025304679 -0.054502368 0.70376915
-0.0097050657 -0.050466299 0.70310509
-0.042553026 -0.046421468 0.70228612
-0.079735473 -0.04472965 0.70355833
-0.071759418 -0.044607192 0.70291567
0.025695339 -0.059296936 0.70739663
0.037398145 -0.059049696 0.70640182
-0.017787518 -0.055338949 0.70737559
-0.0039335834 -0.055070192 0.70621693
-0.0039335834 -0.055070192 0.70621693
-0.039526165 -0.053360313 0.70736563
-0.055218626 -0.051274419 0.70685691
-0.074884251 -0.049265951 0.70668113
0.075541057 -0.065601438 0.70876759
0.075541057 -0.065601438 0.70876759
0.055620186 -0.06356591 0.708588
0.021942191 -0.061837047 0.70959109
-0.025965989 -0.057924092 0.70990962
-0.0099308817 -0.057599127 0.70855683
-0.025765065 -0.055493981 0.70804399
0.064384349 -0.06840837 0.71167529
0.076131947 -0.068118066 0.7106446
0.0080185132 -0.062143505 0.71078414
-0.044223007 -0.058293968 0.71144915
-0.072516061 -0.056401372 0.7119559
-0.084298804 -0.054192096 0.71108425
0.060446285 -0.068505794 0.71202117
0.038280852 -0.066487819 0.71200979
-0.046632241 -0.060824662 0.71354365
0.06541203 -0.07358849 0.71555191
0.018408839 -0.069544494 0.71570891
0.020439491 -0.069494277 0.71553057
0.0020409124 -0.067350119 0.71516407
-0.036653947 -0.063126236 0.71461093
0.051362649 -0.073962212 0.71680492
-0.051577922 -0.066019744 0.71784443
-0.02264584 -0.067937523 0.71731269
-0.012307505 -0.067691267 0.71641201
-0.045289505 -0.065875679 0.71730083
0.0062128128 -0.072482795 0.71878844
0.0062128128 -0.072482795 0.71878844
-0.0082592107 -0.070203304 0.71804786
-0.010415578 -0.072909057 0.72025847
-0.0674503 -0.071665943 0.72324079
-0.0674503 -0.071665943 0.72324079
0.022069961 0.030367419 0.63931161
0.065915406 0.029399861 0.6370284
0.065915406 0.029399861 0.6370284
0.050462537 0.033642154 0.6380111
0.053917296 0.024993017 0.64121354
0.057970196 0.025063535 0.64088058
0.009671282 0.034389459 0.64176965
0.050157882 0.035573475 0.64056814
0.021868967 0.019274823 0.64777923
0.025976017 0.021946436 0.64546025
0.041955061 0.021158133 0.64496017
-0.045979984 0.02681813 0.64670438
-0.045979984 0.02681813 0.64670438
-0.034163993 0.026443526 0.64617598
-0.061937988 0.033717312 0.64576232
0.013683639 0.03762877 0.64575046
0.033775032 0.038924526 0.64608425
0.06579186 0.01058723 0.65137434
0.022175834 0.01461346 0.65131062
0.033909973 0.014315434 0.65072948
0.057947081 0.013482052 0.64970863
-0.033865198 0.02207222 0.64948672
-0.010063583 0.02087152 0.64876223
-0.041966181 0.038399469 0.65055132
-0.025951441 0.039113991 0.65039927
0.065652043 0.043518491 0.64994705
0.053978 0.0069377972 0.65496951
0.073975667 0.0061371922 0.65420192
-0.053458996 0.0154953 0.65584898
-0.053458996 0.0154953 0.65584898
-0.037571542 0.01492404 0.65518999
-0.037571542 0.01492404 0.65518999
-0.025783155 0.014620665 0.65460908
-0.005749546 0.013791433 0.65386081
0.030074254 0.012182236 0.65261936
-0.065874331 0.018449618 0.6544528
-0.017819786 0.042162407 0.65384907
0.0019102213 0.042808063 0.65335369
0.06188482 0.04584083 0.65325344
0.058012642 0.0022197242 0.65828729
0.010089682 0.0093137473 0.65618229
0.012408141 0.009306103 0.65602851
-0.054105483 0.013473593 0.65743446
0.066389121 -0.0048283264 0.66308177
0.069921292 -0.0048221648 0.66283339
0.042209592 -0.0024145208 0.66290784
-0.0056172907 0.002404809 0.66252977
-0.0096850358 0.050034612 0.66363347
0.050061449 0.050856411 0.66064513
0.033817094 -0.0082481205 0.66793168
0.046392009 -0.0082110837 0.66703737
0.053650677 -0.0088991057 0.66706175
0.049745362 -0.0056879446 0.66488338
-0.033753715 -0.0016465038 0.66755557
-0.033753715 -0.0016465038 0.66755557
-0.010142138 2.2351742e-08 0.66467404
-0.057887774 0.0048576593 0.66426134
-0.041856013 0.050883353 0.66693842
-0.0024524021 0.052310348 0.66612971
0.053737003 0.055789046 0.6668728
0.078039512 -0.016782716 0.67138976
0.069984868 -0.014166847 0.66995108
0.058399569 -0.011597186 0.66879082
-0.049467184 -0.0050305277 0.67121726
-0.045990489 0.053515792 0.67067683
-0.022279989 0.054147877 0.66989279
0.073499486 0.057808861 0.66817975
0.021833807 -0.0171251 0.67552251
-0.0059728296 -0.013651595 0.67479074
-0.0059728296 -0.013651595 0.67479074
0.041801237 -0.015200712 0.67268044
0.03417087 0.059062585 0.67250359
0.03417087 0.059062585 0.67250359
0.074426219 0.063305393 0.67533481
0.0095888078 -0.020921603 0.67925942
0.0095888078 -0.020921603 0.67925942
0.038097419 -0.021650583 0.67785132
-0.037597682 -0.017487183 0.6798929
-0.034058217 -0.017465606 0.67963278
-0.01811507 -0.01552698 0.67705655
0.0095722713 0.06265749 0.67889941
0.021616111 0.062255546 0.67755157
0.046049885 0.064296618 0.67856872
0.074078158 0.066234961 0.67920589
0.069756746 -0.029050604 0.68130988
0.025573991 -0.025577292 0.68170667
0.025573991 -0.025577292 0.68170667
-0.050298564 -0.021365434 0.68372381
-0.050227806 -0.018507898 0.68154097
-0.081740797 -0.014944829 0.68099666
-0.074328601 -0.015833169 0.68116307
-0.0096712094 0.063299805 0.68105304
0.034233209 0.066696465 0.68252468
0.05760175 0.066836908 0.68111807
0.03792759 -0.033417888 0.68683088
0.061781581 -0.033132523 0.6849702
0.029573482 -0.030469939 0.68515986
-0.033541165 -0.026115857 0.68618965
-0.029674755 -0.026080705 0.68589664
0.0022638999 0.068858907 0.68754101
0.042462595 0.070470586 0.68692076
0.058223225 0.069868386 0.68505692
0.077892683 -0.041240752 0.69003975
-0.013650157 -0.030939683 0.6884954
-0.06672439 -0.027420864 0.68947017
-0.077397972 0.065560266 0.68863255
-0.077397972 0.065560266 0.68863255
-0.065426089 0.068190113 0.69127095
0.022374861 0.071238108 0.68929648
0.03052621 -0.041949868 0.69384313
-0.03465372 -0.037463143 0.69491422
-0.081637979 -0.033781081 0.69534522
-0.057909053 -0.034563377 0.69430661
-0.069603533 0.071484685 0.69588226
0.017730683 0.074657425 0.69410288
0.061731506 -0.0503387 0.69808692
-0.069710158 -0.040106997 0.69934446
-0.0069343094 -0.042877447 0.69713092
0.010365018 -0.043345928 0.6962961
-0.054196976 0.074163631 0.69835132
-0.0067614177 -0.049262986 0.70198572
0.037504137 -0.05192925 0.70096767
0.037504137 -0.05192925 0.70096767
-0.033745669 -0.046279341 0.70157111
-0.033745669 -0.046279341 0.70157111
0.081456296 -0.062158987 0.70573634
0.017118465 -0.064447299 0.71191287
0.041258611 -0.066416875 0.71175039
0.049169458 -0.066228718 0.71106219
-0.0050350791 -0.062430561 0.71190202
-0.057104528 -0.056102321 0.71066672
-0.045244507 -0.058314681 0.71153533
-0.041164383 -0.058232039 0.71119142
-0.030003112 -0.058006018 0.7102505
-0.030003112 -0.058006018 0.7102505
-0.078526765 -0.051688254 0.70877826
0.033567339 -0.069169804 0.71437871
0.065884128 -0.07095252 0.71351063
0.0091244988 -0.065905795 0.71357483
0.013161174 -0.065811671 0.71322536
0.0093086231 -0.072403327 0.71851432
-0.021784034 -0.070537508 0.71923459
-0.057893649 -0.066164166 0.71838915
-0.078934476 -0.061507091 0.71628952
