# .PCD v0.7 - Point Cloud Data file format
VERSION 0.7
FIELDS x y z
SIZE 4 4 4
TYPE F F F
COUNT 1 1 1
WIDTH 1317
HEIGHT 1
VIEWPOINT 0 0 0 1 0 0 0
POINTS 1317
DATA ascii
-0.073865637 0.026717365 0.65851414
-0.073865637 0.025145769 0.65851414
-0.073865637 0.023574144 0.65851414
-0.073865637 0.022002548 0.65851414
-0.073865637 0.020430923 0.65851414
-0.073865637 0.018859327 0.65851414
-0.073865637 0.017287731 0.65851414
-0.073865637 0.015716106 0.65851414
-0.073865637 0.01414451 0.65851414
-0.073865637 0.012572885 0.65851408
-0.073865637 0.011001289 0.65851414
-0.073865637 0.0094296634 0.65851414
-0.073865637 0.0078580379 0.65851414
-0.073865637 0.0062864423 0.65851414
-0.073865637 0.0047148466 0.65851414
-0.073865637 0.0031432211 0.65851414
-0.073865637 0.0015716255 0.65851414
-0.073865637 2.9802322e-08 0.65851414
-0.073865637 -0.0015715957 0.65851414
-0.073865637 -0.0031432211 0.65851414
-0.073865637 -0.0047148168 0.65851414
-0.073865637 -0.0062864423 0.65851414
-0.073865637 -0.0078580678 0.65851414
-0.073865637 -0.0094296634 0.65851414
-0.073865637 -0.011001259 0.65851414
-0.073865637 -0.012572855 0.65851414
-0.073865637 -0.01414448 0.65851414
-0.073865637 -0.015716076 0.65851414
-0.073865637 -0.017287701 0.65851414
-0.073865637 -0.018859327 0.65851414
-0.073865637 -0.020430893 0.65851414
-0.073865637 -0.022002518 0.65851414
-0.073865637 -0.023574144 0.65851414
-0.073865637 -0.02514571 0.65851414
-0.073865637 -0.026717365 0.65851414
-0.073865637 -0.028288931 0.65851414
-0.073865637 -0.029860586 0.65851414
-0.073865637 -0.031432211 0.65851414
-0.073865637 -0.033003747 0.65851414
-0.073865637 -0.034575433 0.65851414
-0.071656309 0.063867599 0.65684068
-0.071656309 0.062309861 0.65684068
-0.071656309 0.060752124 0.65684068
-0.071656309 0.059194356 0.65684068
-0.071656309 0.057636619 0.65684068
-0.071656309 0.056078821 0.65684068
-0.071656309 0.054521084 0.65684068
-0.071656309 0.052963376 0.65684068
-0.071656309 0.051405638 0.65684068
-0.071656309 0.049847871 0.65684068
-0.071656309 0.048290133 0.65684068
-0.071656309 0.046732396 0.65684068
-0.071656309 0.045174658 0.65684068
-0.071656309 0.043616891 0.65684068
-0.071656309 0.042059153 0.65684068
-0.071656309 0.040501386 0.65684068
-0.071656309 0.038943678 0.65684074
-0.071656309 0.037385881 0.65684068
-0.071656309 0.035828173 0.65684068
-0.071656309 0.034270376 0.65684068
-0.071656309 0.032712698 0.65684068
-0.071656309 0.031154901 0.65684068
-0.071656309 0.029597193 0.65684068
-0.071656309 0.028039426 0.65684068
-0.071656309 0.026481688 0.65684068
-0.071656309 0.024923921 0.65684068
-0.071656309 0.023366213 0.65684068
-0.071656309 0.021808475 0.65684068
-0.071656309 0.020250738 0.65684068
-0.071656309 0.01869297 0.65684068
-0.071656309 0.017135233 0.65684068
-0.071656309 0.015577465 0.65684068
-0.071656309 0.014019728 0.65684068
-0.071656309 0.01246196 0.65684068
-0.071656309 0.010904223 0.65684068
-0.071656309 0.0093464553 0.65684074
-0.071656309 0.0077887774 0.65684068
-0.071656309 0.0062309802 0.65684068
-0.071656309 0.0046732724 0.65684068
-0.071656309 0.0031154752 0.65684068
-0.071656309 0.0015577972 0.65684068
-0.071656309 2.9802322e-08 0.65684068
-0.071656309 -0.0015577376 0.65684068
-0.071656309 -0.003115505 0.65684068
-0.071656309 -0.0046732426 0.65684068
-0.071656309 -0.00623101 0.65684068
-0.071656309 -0.0077887177 0.65684068
-0.071656309 -0.0093464851 0.65684068
-0.071656309 -0.010904223 0.65684068
-0.071656309 -0.012461931 0.65684068
-0.071656309 -0.014019698 0.65684068
-0.071656078 -0.015577406 0.65684009
-0.071656078 -0.017135113 0.65684009
-0.071656078 -0.018692881 0.65684009
-0.071656078 -0.020250618 0.65684009
-0.071656078 -0.021808386 0.65684009
-0.071656078 -0.023366123 0.65684009
-0.071656078 -0.024923831 0.65684009
-0.071656078 -0.026481569 0.65684009
-0.071656078 -0.028039336 0.65684009
-0.071656078 -0.029597044 0.65684003
-0.071656078 -0.031154782 0.65684003
-0.071656078 -0.032712549 0.65684009
-0.071656078 -0.034270316 0.65684009
-0.071656078 -0.035828054 0.65684009
-0.071656078 -0.037385762 0.65684009
-0.071656078 -0.038943499 0.65684009
-0.071656078 -0.040501267 0.65684009
-0.071656078 -0.042058975 0.65684003
-0.069485396 0.064853013 0.65519589
-0.069485396 0.063308924 0.65519583
-0.069485396 0.061764777 0.65519583
-0.069485396 0.060220659 0.65519589
-0.069485396 0.058676571 0.65519583
-0.069485396 0.057132423 0.65519589
-0.069485396 0.055588365 0.65519589
-0.069485396 0.054044187 0.65519583
-0.069485396 0.052500069 0.65519589
-0.069485396 0.050955951 0.65519583
-0.069485396 0.049411803 0.65519589
-0.069485396 0.047867745 0.65519583
-0.069485396 0.046323568 0.65519589
-0.069485396 0.04477948 0.65519589
-0.069485396 0.043235362 0.65519595
-0.069485396 0.041691244 0.65519583
-0.069485396 0.040147156 0.65519583
-0.069485396 0.038603008 0.65519589
-0.069485396 0.03705886 0.65519589
-0.069485396 0.035514772 0.65519589
-0.069485396 0.033970624 0.65519589
-0.069485396 0.032426536 0.65519583
-0.069485396 0.030882388 0.65519583
-0.069485396 0.0293383 0.65519589
-0.069485396 0.027794152 0.65519595
-0.069485396 0.026250064 0.65519589
-0.069485396 0.024705917 0.65519589
-0.069485396 0.023161799 0.65519583
-0.069485396 0.021617681 0.65519589
-0.069485396 0.020073533 0.65519589
-0.069485396 0.018529445 0.65519589
-0.069485396 0.016985327 0.65519583
-0.069485396 0.015441209 0.65519589
-0.069485396 0.013897091 0.65519589
-0.069485396 0.012352943 0.65519589
-0.069485396 0.010808885 0.65519589
-0.069485396 0.0092647076 0.65519589
-0.069485396 0.0077206194 0.65519583
-0.069485396 0.0061765015 0.65519589
-0.069485396 0.004632324 0.65519589
-0.069485396 0.0030882657 0.65519589
-0.069485396 0.0015441179 0.65519589
-0.069485396 2.9802322e-08 0.65519583
-0.069485396 -0.0015440881 0.65519589
-0.069485396 -0.0030882657 0.65519589
-0.069485396 -0.004632324 0.65519589
-0.069485396 -0.0061764717 0.65519589
-0.069485396 -0.0077205896 0.65519583
-0.069485396 -0.0092647076 0.65519589
-0.069485396 -0.010808855 0.65519595
-0.069485396 -0.012352943 0.65519589
-0.069485396 -0.013897061 0.65519589
-0.069485396 -0.015441149 0.65519589
-0.069485396 -0.016985297 0.65519589
-0.069485396 -0.018529445 0.65519589
-0.069485396 -0.020073533 0.65519589
-0.069485396 -0.021617681 0.65519589
-0.069485396 -0.023161769 0.65519583
-0.069485396 -0.024705917 0.65519589
-0.069485396 -0.026250064 0.65519589
-0.069485396 -0.027794123 0.65519583
-0.069485396 -0.02933827 0.65519589
-0.069485396 -0.030882359 0.65519583
-0.069485396 -0.032426506 0.65519589
-0.069485396 -0.033970624 0.65519589
-0.069485396 -0.035514742 0.65519589
-0.069485396 -0.03705889 0.65519589
-0.069485396 -0.038603008 0.65519589
-0.069485396 -0.040147126 0.65519589
-0.069485396 -0.041691244 0.65519589
-0.069485396 -0.043235362 0.65519595
-0.069485396 -0.04477948 0.65519589
-0.069485396 -0.046323568 0.65519583
-0.069485396 -0.047867715 0.65519583
-0.069485396 -0.049411833 0.65519589
-0.067352347 0.065821618 0.65358019
-0.067352347 0.064290881 0.65358019
-0.067352347 0.062760174 0.65358019
-0.067352347 0.061229438 0.65358019
-0.067352347 0.059698671 0.65358025
-0.067352347 0.058167964 0.65358019
-0.067352347 0.056637228 0.65358019
-0.067352347 0.055106491 0.65358019
-0.067352347 0.053575754 0.65358025
-0.067352347 0.052045017 0.65358019
-0.067352347 0.050514251 0.65358019
-0.067352347 0.048983544 0.65358019
-0.067352347 0.047452807 0.65358019
-0.067352347 0.045922071 0.65358019
-0.067352347 0.044391334 0.65358019
-0.067352347 0.042860597 0.65358019
-0.067352347 0.041329861 0.65358019
-0.067352347 0.039799124 0.65358019
-0.067352347 0.038268387 0.65358019
-0.067352347 0.036737651 0.65358019
-0.067352347 0.035206914 0.65358019
-0.067352347 0.033676147 0.65358019
-0.067352347 0.032145411 0.65358019
-0.067352347 0.030614704 0.65358019
-0.067352347 0.029083997 0.65358019
-0.067352347 0.027553231 0.65358019
-0.067352347 0.026022494 0.65358025
-0.067352347 0.024491787 0.65358019
-0.067352347 0.02296102 0.65358019
-0.067352347 0.021430314 0.65358019
-0.067352347 0.019899577 0.65358019
-0.067352347 0.01836881 0.65358025
-0.067352347 0.016838074 0.65358019
-0.067352347 0.015307367 0.65358019
-0.067352347 0.01377663 0.65358019
-0.067352347 0.012245893 0.65358019
-0.067352347 0.010715187 0.65358019
-0.067352347 0.0091844201 0.65358025
-0.067352347 0.0076536834 0.65358019
-0.067352347 0.0061229467 0.65358019
-0.067352347 0.0045922399 0.65358019
-0.067352347 0.0030614734 0.65358019
-0.067352347 0.0015307665 0.65358019
-0.067352347 -0 0.65358019
-0.067352347 -0.0015307367 0.65358019
-0.067352347 -0.0030614436 0.65358019
-0.067352347 -0.0045922101 0.65358019
-0.067352347 -0.0061229169 0.65358019
-0.067352347 -0.0076536834 0.65358019
-0.067352347 -0.0091844201 0.65358019
-0.067352347 -0.010715157 0.65358019
-0.067352347 -0.012245864 0.65358019
-0.067352347 -0.01377663 0.65358019
-0.067352347 -0.015307367 0.65358019
-0.067352347 -0.016838104 0.65358019
-0.067352347 -0.01836884 0.65358019
-0.067352347 -0.019899517 0.65358019
-0.067352347 -0.021430284 0.65358019
-0.067352347 -0.02296102 0.65358019
-0.067352347 -0.024491757 0.65358019
-0.067352347 -0.026022494 0.65358019
-0.067352347 -0.027553231 0.65358019
-0.067352347 -0.029083967 0.65358019
-0.067352347 -0.030614704 0.65358019
-0.067352347 -0.032145441 0.65358025
-0.067352347 -0.033676177 0.65358019
-0.067352347 -0.035206944 0.65358019
-0.067352347 -0.036737591 0.65358019
-0.067352347 -0.038268358 0.65358019
-0.067352347 -0.039799094 0.65358019
-0.067352347 -0.041329831 0.65358019
-0.067352347 -0.042860597 0.65358019
-0.067352347 -0.044391334 0.65358019
-0.067352347 -0.045922041 0.65358025
-0.067352347 -0.047452778 0.65358019
-0.067352347 -0.048983544 0.65358019
-0.067352347 -0.050514251 0.65358019
-0.067352131 -0.052044839 0.65357959
-0.067352131 -0.053575546 0.65357959
-0.067352131 -0.055106282 0.65357959
-0.067352131 -0.056637019 0.65357959
-0.065255754 0.066773325 0.65199172
-0.065255754 0.065255761 0.65199172
-0.065255754 0.063738167 0.65199172
-0.065255754 0.062220633 0.65199172
-0.065255754 0.060703009 0.65199172
-0.065255754 0.059185445 0.65199172
-0.065255754 0.057667881 0.65199172
-0.065255754 0.056150317 0.65199172
-0.065255754 0.054632753 0.65199167
-0.065255754 0.053115129 0.65199172
-0.065255754 0.051597565 0.65199172
-0.065255754 0.050080001 0.65199172
-0.065255754 0.048562437 0.65199167
-0.065255754 0.047044843 0.65199172
-0.065255754 0.045527279 0.65199172
-0.065255754 0.044009686 0.65199172
-0.065255754 0.042492121 0.65199167
-0.065255754 0.040974528 0.65199172
-0.065255754 0.039456993 0.65199172
-0.065255754 0.037939399 0.65199172
-0.065255754 0.036421835 0.65199167
-0.065255754 0.034904212 0.65199172
-0.065255754 0.033386707 0.65199172
-0.065255754 0.031869084 0.65199172
-0.065255754 0.03035152 0.65199167
-0.065255754 0.028833926 0.65199172
-0.065255754 0.027316391 0.65199172
-0.065255754 0.025798798 0.65199167
-0.065255754 0.024281204 0.65199172
-0.065255754 0.02276364 0.65199172
-0.065255754 0.021246076 0.65199172
-0.065255754 0.019728512 0.65199167
-0.065255754 0.018210918 0.65199172
-0.065255754 0.016693324 0.65199172
-0.065255754 0.01517576 0.65199172
-0.065255754 0.013658226 0.65199167
-0.065255754 0.012140602 0.65199172
-0.065255754 0.010623038 0.65199172
-0.065255754 0.0091054738 0.65199172
-0.065255754 0.0075879097 0.65199172
-0.065255754 0.006070286 0.65199172
-0.065255754 0.004552722 0.65199172
-0.065255754 0.0030351579 0.65199172
-0.065255754 0.0015175939 0.65199167
-0.065255754 -0 0.65199172
-0.065255754 -0.0015175641 0.65199172
-0.065255754 -0.0030351579 0.65199172
-0.065255754 -0.004552722 0.65199167
-0.065255754 -0.0060703456 0.65199172
-0.065255754 -0.0075878501 0.65199172
-0.065255754 -0.009105444 0.65199172
-0.065255754 -0.010623038 0.65199172
-0.065255754 -0.012140632 0.65199172
-0.065255754 -0.013658166 0.65199172
-0.065255754 -0.01517576 0.65199167
-0.065255754 -0.016693324 0.65199172
-0.065255754 -0.018210918 0.65199172
-0.065255754 -0.019728452 0.65199172
-0.065255754 -0.021246046 0.65199167
-0.065255754 -0.02276364 0.65199172
-0.065255754 -0.024281234 0.65199172
-0.065255754 -0.025798768 0.65199172
-0.065255754 -0.027316332 0.65199167
-0.065255754 -0.028833926 0.65199172
-0.065255754 -0.03035152 0.65199172
-0.065255754 -0.031869084 0.65199172
-0.065255754 -0.033386648 0.65199167
-0.065255754 -0.034904271 0.65199172
-0.065255754 -0.036421806 0.65199172
-0.065255754 -0.03793934 0.65199167
-0.065255754 -0.039456934 0.65199172
-0.065255754 -0.040974557 0.65199172
-0.065255754 -0.042492121 0.65199172
-0.065255754 -0.044009715 0.65199172
-0.065255754 -0.04552725 0.65199167
-0.065255754 -0.047044843 0.65199172
-0.065255754 -0.048562407 0.65199172
-0.065255754 -0.050079972 0.65199167
-0.065255754 -0.051597565 0.65199172
-0.065255754 -0.053115189 0.65199172
-0.065255754 -0.054632723 0.65199172
-0.065255754 -0.056150258 0.65199167
-0.065255754 -0.057667851 0.65199172
-0.065255754 -0.05918543 0.65199172
-0.065255754 -0.060703024 0.65199172
-0.065255754 -0.062220588 0.65199172
-0.065255754 -0.063738197 0.65199167
-0.063195102 0.067709029 0.65043092
-0.063195102 0.066204399 0.65043086
-0.063195102 0.064699769 0.65043092
-0.063195102 0.063195109 0.65043086
-0.063195102 0.06169045 0.65043092
-0.063195102 0.06018582 0.65043086
-0.063195102 0.05868116 0.65043086
-0.063195102 0.057176501 0.65043092
-0.063195102 0.055671871 0.65043086
-0.063195102 0.054167211 0.65043086
-0.063195102 0.052662581 0.65043086
-0.063195102 0.051157922 0.65043092
-0.063195102 0.049653262 0.65043086
-0.063195102 0.048148692 0.65043086
-0.063195102 0.046644002 0.65043086
-0.063195102 0.045139372 0.65043086
-0.063195102 0.043634742 0.65043086
-0.063195102 0.042130083 0.65043086
-0.063195102 0.040625453 0.65043092
-0.063195102 0.039120793 0.65043086
-0.063195102 0.037616163 0.65043086
-0.063195102 0.036111504 0.65043086
-0.063195102 0.034606844 0.6504308
-0.063195102 0.033102214 0.65043086
-0.063195102 0.031597584 0.65043086
-0.063195102 0.030092895 0.65043092
-0.063195102 0.028588265 0.65043086
-0.063195102 0.027083635 0.65043086
-0.063195102 0.025578946 0.65043086
-0.063195102 0.024074346 0.65043086
-0.063195102 0.022569656 0.65043086
-0.063195102 0.021065056 0.65043086
-0.063195102 0.019560397 0.65043092
-0.063195102 0.018055737 0.65043086
-0.063195102 0.016551107 0.65043086
-0.063195102 0.015046448 0.65043086
-0.063195102 0.013541818 0.65043086
-0.063195102 0.012037158 0.65043092
-0.063195102 0.010532528 0.65043086
-0.063195102 0.0090278685 0.65043092
-0.063195102 0.0075232387 0.65043092
-0.063195102 0.006018579 0.6504308
-0.063195102 0.0045139194 0.65043086
-0.063195102 0.0030092895 0.65043086
-0.063195102 0.0015046299 0.65043092
-0.063195102 -0 0.65043086
-0.063195102 -0.0015046597 0.65043086
-0.063195102 -0.0030092895 0.65043086
-0.063195102 -0.0045139194 0.6504308
-0.063195102 -0.0060186088 0.65043086
-0.063195102 -0.0075232387 0.65043086
-0.063195102 -0.0090278685 0.6504308
-0.063195102 -0.010532528 0.65043086
-0.063195102 -0.012037188 0.65043092
-0.063195102 -0.013541818 0.65043086
-0.063195102 -0.015046448 0.6504308
-0.063195102 -0.016551107 0.65043086
-0.063195102 -0.018055737 0.65043086
-0.063195102 -0.019560397 0.65043092
-0.063195102 -0.021065027 0.65043086
-0.063195102 -0.022569686 0.65043086
-0.063195102 -0.024074286 0.65043086
-0.063195102 -0.025578946 0.6504308
-0.063195102 -0.027083606 0.65043086
-0.063195102 -0.028588235 0.65043086
-0.063195102 -0.030092925 0.65043092
-0.063195102 -0.031597555 0.65043086
-0.063195102 -0.033102214 0.65043086
-0.063195102 -0.034606814 0.65043086
-0.063195102 -0.036111444 0.65043086
-0.063195102 -0.037616134 0.65043086
-0.063195102 -0.039120764 0.65043086
-0.063195102 -0.040625423 0.65043092
-0.063195102 -0.042130053 0.65043086
-0.063195102 -0.043634713 0.65043092
-0.063195102 -0.045139343 0.65043086
-0.063195102 -0.046643972 0.65043086
-0.063195102 -0.048148632 0.65043092
-0.063195102 -0.049653292 0.65043086
-0.063195102 -0.051157922 0.6504308
-0.063195102 -0.052662581 0.65043086
-0.063195102 -0.054167211 0.6504308
-0.063195102 -0.055671871 0.65043086
-0.063195102 -0.057176515 0.65043086
-0.063195102 -0.058681175 0.65043092
-0.063195102 -0.06018579 0.65043086
-0.063195102 -0.06169045 0.6504308
-0.063195102 -0.063195109 0.65043086
-0.063195102 -0.064699754 0.65043092
-0.063195102 -0.066204384 0.65043086
-0.063195102 -0.067709014 0.6504308
-0.063195102 -0.069213703 0.65043086
-0.063195102 -0.070718318 0.6504308
-0.061169069 0.068628758 0.6488958
-0.061169069 0.067136794 0.64889586
-0.061169069 0.06564486 0.6488958
-0.061169069 0.064152926 0.6488958
-0.061169069 0.062660992 0.64889586
-0.061169069 0.061169088 0.64889586
-0.061169069 0.059677184 0.6488958
-0.061169069 0.058185279 0.6488958
-0.061169069 0.056693286 0.64889586
-0.061169069 0.055201352 0.6488958
-0.061169069 0.053709418 0.6488958
-0.061169069 0.052217513 0.6488958
-0.061169069 0.050725579 0.64889586
-0.061169069 0.049233645 0.64889586
-0.061169069 0.047741741 0.6488958
-0.061169069 0.046249777 0.64889586
-0.061169069 0.044757873 0.64889586
-0.061169069 0.043265939 0.6488958
-0.061169069 0.041774005 0.6488958
-0.061169069 0.040282071 0.64889586
-0.061169069 0.038790166 0.64889586
-0.061169069 0.037298232 0.64889586
-0.061169069 0.035806328 0.6488958
-0.061169069 0.034314334 0.64889586
-0.061169069 0.0328224 0.64889586
-0.061169069 0.031330496 0.6488958
-0.061169069 0.029838562 0.64889586
-0.061169069 0.028346658 0.64889586
-0.061169069 0.026854724 0.64889586
-0.061169069 0.02536279 0.6488958
-0.061169069 0.023870885 0.6488958
-0.061169069 0.022378951 0.64889586
-0.061169069 0.020887017 0.64889586
-0.061169069 0.019395083 0.6488958
-0.061169069 0.017903149 0.64889586
-0.061169069 0.016411215 0.64889586
-0.061169069 0.014919311 0.64889586
-0.061169069 0.013427347 0.6488958
-0.061169069 0.011935413 0.64889586
-0.061169069 0.010443479 0.64889586
-0.061169069 0.0089515746 0.6488958
-0.061169069 0.0074596703 0.6488958
-0.061169069 0.0059677064 0.64889586
-0.061169069 0.0044758022 0.64889586
-0.061169069 0.0029838681 0.6488958
-0.061169069 0.0014919341 0.64889586
-0.061169069 -0 0.6488958
-0.061169069 -0.0014919341 0.64889586
-0.061169069 -0.0029838383 0.6488958
-0.061169069 -0.0044757724 0.6488958
-0.061169069 -0.0059677064 0.64889586
-0.061169069 -0.0074596405 0.6488958
-0.061169069 -0.0089515746 0.6488958
-0.061169069 -0.010443509 0.64889586
-0.061169069 -0.011935443 0.6488958
-0.061169069 -0.013427347 0.64889586
-0.061169069 -0.014919251 0.6488958
-0.061169069 -0.016411215 0.64889586
-0.061169069 -0.017903119 0.64889586
-0.061169069 -0.019395053 0.6488958
-0.061169069 -0.020886958 0.6488958
-0.061169069 -0.022378922 0.64889586
-0.061169069 -0.023870856 0.64889586
-0.061169069 -0.02536279 0.6488958
-0.061169069 -0.026854724 0.64889586
-0.061169069 -0.028346628 0.64889586
-0.061169069 -0.029838562 0.6488958
-0.061169069 -0.031330496 0.6488958
-0.061169069 -0.03282243 0.6488958
-0.061169069 -0.034314364 0.6488958
-0.061169069 -0.035806268 0.64889586
-0.061169069 -0.037298173 0.6488958
-0.061169069 -0.038790137 0.64889586
-0.061169069 -0.040282071 0.64889586
-0.061169069 -0.041773975 0.6488958
-0.061169069 -0.043265939 0.64889586
-0.061169069 -0.044757813 0.6488958
-0.061169069 -0.046249807 0.6488958
-0.061169069 -0.047741711 0.64889586
-0.061169069 -0.049233615 0.6488958
-0.061169069 -0.050725579 0.64889586
-0.061169069 -0.052217513 0.64889586
-0.061169069 -0.053709418 0.6488958
-0.061169069 -0.055201322 0.64889586
-0.061169069 -0.056693286 0.64889586
-0.061169069 -0.05818519 0.64889586
-0.061169069 -0.059677139 0.64889586
-0.061169069 -0.061169043 0.6488958
-0.061169069 -0.062661007 0.64889586
-0.061169069 -0.064152911 0.64889586
-0.061169069 -0.065644816 0.6488958
-0.061169069 -0.067136809 0.64889586
-0.061169069 -0.068628713 0.64889586
-0.061169069 -0.070120633 0.6488958
-0.061169069 -0.071612537 0.6488958
-0.061169069 -0.073104471 0.6488958
-0.059177183 0.069533169 0.64738709
-0.059177183 0.068053782 0.64738709
-0.059177183 0.066574365 0.64738709
-0.059177183 0.065094888 0.64738709
-0.059177183 0.063615471 0.64738709
-0.059177183 0.062136054 0.64738709
-0.059177183 0.060656607 0.64738709
-0.059177183 0.05917719 0.64738709
-0.059177183 0.057697743 0.64738709
-0.059177183 0.056218326 0.64738709
-0.059177183 0.054738909 0.64738709
-0.059177183 0.053259462 0.64738709
-0.059177183 0.051780015 0.64738709
-0.059177183 0.050300628 0.64738709
-0.059177183 0.048821181 0.64738709
-0.059177183 0.047341764 0.64738709
-0.059177183 0.045862317 0.64738703
-0.059177183 0.04438287 0.64738709
-0.059177183 0.042903483 0.64738709
-0.059177183 0.041424066 0.64738709
-0.059177183 0.039944589 0.64738709
-0.059177183 0.038465202 0.64738709
-0.059177183 0.036985755 0.64738709
-0.059177183 0.035506308 0.64738703
-0.059177183 0.034026891 0.64738709
-0.059177183 0.032547444 0.64738709
-0.059177183 0.031068027 0.64738703
-0.059177183 0.02958861 0.64738709
-0.059177183 0.028109163 0.64738709
-0.059177183 0.026629716 0.64738703
-0.059177183 0.025150329 0.64738703
-0.059177183 0.023670882 0.64738709
-0.059177183 0.022191465 0.64738703
-0.059177183 0.020712018 0.64738703
-0.059177183 0.019232601 0.64738709
-0.059177183 0.017753184 0.64738709
-0.059177183 0.016273767 0.64738703
-0.059177183 0.01479429 0.64738703
-0.059177183 0.013314843 0.64738709
-0.059177183 0.011835456 0.64738709
-0.059177183 0.010355979 0.64738709
-0.059177183 0.0088765919 0.64738703
-0.059177183 0.0073971152 0.64738715
-0.059177183 0.0059177279 0.64738703
-0.059177183 0.0044382811 0.64738709
-0.059177183 0.002958864 0.64738703
-0.059177183 0.0014794171 0.64738715
-0.059177183 2.9802322e-08 0.64738703
-0.059177183 -0.0014794469 0.64738709
-0.059177183 -0.0029588342 0.64738703
-0.059177183 -0.0044382811 0.64738709
-0.059177183 -0.0059176981 0.64738709
-0.059177183 -0.007397145 0.64738709
-0.059177183 -0.0088765621 0.64738709
-0.059177183 -0.010356009 0.64738709
-0.059177183 -0.011835456 0.64738709
-0.059177183 -0.013314873 0.64738709
-0.059177183 -0.01479432 0.64738709
-0.059177183 -0.016273737 0.64738709
-0.059177183 -0.017753184 0.64738709
-0.059177183 -0.019232571 0.64738709
-0.059177183 -0.020712018 0.64738709
-0.059177183 -0.022191435 0.64738709
-0.059177183 -0.023670882 0.64738709
-0.059177183 -0.025150269 0.64738709
-0.059177183 -0.026629746 0.64738709
-0.059177183 -0.028109163 0.64738703
-0.059177183 -0.02958858 0.64738709
-0.059177183 -0.031067997 0.64738709
-0.059177183 -0.032547444 0.64738709
-0.059177183 -0.034026861 0.64738709
-0.059177183 -0.035506308 0.64738709
-0.059177183 -0.036985755 0.64738709
-0.059177183 -0.038465172 0.64738703
-0.059177183 -0.039944619 0.64738709
-0.059177183 -0.041424006 0.64738709
-0.059177183 -0.042903453 0.64738709
-0.059177183 -0.04438287 0.64738709
-0.059177183 -0.045862317 0.64738709
-0.059177183 -0.047341734 0.64738709
-0.059177183 -0.048821181 0.64738703
-0.059177183 -0.050300568 0.64738709
-0.059177183 -0.051780045 0.64738703
-0.059177183 -0.053259432 0.64738703
-0.059177183 -0.054738894 0.64738709
-0.059177183 -0.056218296 0.64738709
-0.059177183 -0.057697743 0.64738703
-0.059177183 -0.059177145 0.64738703
-0.059177183 -0.060656607 0.64738709
-0.059177183 -0.062136069 0.64738715
-0.059177183 -0.063615456 0.64738703
-0.059177183 -0.065094918 0.64738709
-0.059177183 -0.06657432 0.64738703
-0.059177183 -0.068053782 0.64738715
-0.059177183 -0.069533169 0.64738703
-0.059177183 -0.071012631 0.64738709
-0.059177183 -0.072492033 0.64738703
-0.057218399 0.070422679 0.64590341
-0.057218399 0.068955511 0.64590347
-0.057218399 0.067488372 0.64590335
-0.057218399 0.066021204 0.64590341
-0.057218399 0.064554095 0.64590347
-0.057218399 0.063086957 0.64590335
-0.057218399 0.061619788 0.64590341
-0.057218399 0.06015268 0.64590335
-0.057218399 0.058685541 0.64590341
-0.057218399 0.057218432 0.64590335
-0.057218399 0.055751264 0.64590341
-0.057218399 0.054284126 0.64590341
-0.057218399 0.052817017 0.64590335
-0.057218399 0.051349849 0.64590341
-0.057218399 0.04988271 0.64590341
-0.057218399 0.048415571 0.64590341
-0.057218399 0.046948433 0.64590341
-0.057218399 0.045481324 0.64590335
-0.057218399 0.044014156 0.64590341
-0.057218399 0.042547017 0.64590335
-0.057218399 0.041079909 0.64590335
-0.057218399 0.03961274 0.64590341
-0.057218399 0.038145602 0.64590335
-0.057218399 0.036678463 0.64590341
-0.057218399 0.035211325 0.64590341
-0.057218399 0.033744186 0.64590341
-0.057218224 0.032276958 0.64590287
-0.057218224 0.03080982 0.64590281
-0.057218224 0.029342681 0.64590287
-0.057218224 0.027875572 0.64590287
-0.057218224 0.026408404 0.64590281
-0.057218224 0.024941266 0.64590287
-0.057218224 0.023474157 0.64590281
-0.057218224 0.022007018 0.64590287
-0.057218224 0.02053988 0.64590281
-0.057218224 0.019072741 0.64590287
-0.057218224 0.017605573 0.64590287
-0.057218224 0.016138464 0.64590287
-0.057218224 0.014671326 0.64590287
-0.057218224 0.013204217 0.64590287
-0.057218224 0.011737049 0.64590287
-0.057218224 0.01026994 0.64590287
-0.057218224 0.0088028312 0.64590287
-0.057218224 0.0073356926 0.64590287
-0.057218224 0.0058685541 0.64590281
-0.057218224 0.0044013858 0.64590287
-0.057218224 0.0029343069 0.64590287
-0.057218224 0.0014671385 0.64590287
-0.057218224 2.9802322e-08 0.64590281
-0.057218224 -0.0014671385 0.64590287
-0.057218224 -0.0029342771 0.64590287
-0.057218224 -0.0044013858 0.64590287
-0.057218224 -0.0058685243 0.64590281
-0.057218224 -0.0073356628 0.64590287
-0.057218224 -0.0088028312 0.64590287
-0.057218224 -0.01026991 0.64590287
-0.057218224 -0.011737078 0.64590287
-0.057218224 -0.013204217 0.64590287
-0.057218224 -0.014671355 0.64590287
-0.057218224 -0.016138464 0.64590281
-0.057218224 -0.017605603 0.64590281
-0.057218224 -0.019072741 0.64590287
-0.057218224 -0.02053985 0.64590287
-0.057218224 -0.022007018 0.64590287
-0.057218224 -0.023474127 0.64590287
-0.057218224 -0.024941266 0.64590287
-0.057218224 -0.026408374 0.64590281
-0.057218224 -0.027875543 0.64590287
-0.057218224 -0.029342651 0.64590287
-0.057218224 -0.03080979 0.64590281
-0.057218224 -0.032276958 0.64590287
-0.057218224 -0.033744067 0.64590287
-0.057218224 -0.035211205 0.64590287
-0.057218224 -0.036678314 0.64590281
-0.057218224 -0.038145483 0.64590287
-0.057218224 -0.039612621 0.64590287
-0.057218224 -0.04107976 0.64590281
-0.057218224 -0.042546898 0.64590287
-0.057218224 -0.044014007 0.64590287
-0.057218224 -0.045481175 0.64590287
-0.057218224 -0.046948284 0.64590281
-0.057218224 -0.048415422 0.64590281
-0.057218224 -0.049882531 0.64590287
-0.057218224 -0.05134967 0.64590287
-0.057218224 -0.052816808 0.64590287
-0.057218224 -0.054283962 0.64590287
-0.057218224 -0.05575107 0.64590287
-0.057218224 -0.057218194 0.64590287
-0.057218224 -0.058685362 0.64590287
-0.057218224 -0.060152486 0.64590287
-0.057218224 -0.061619624 0.64590287
-0.057218224 -0.063086748 0.64590287
-0.057218224 -0.064553887 0.64590287
-0.057218224 -0.066021025 0.64590287
-0.057218224 -0.067488149 0.64590281
-0.057218224 -0.068955302 0.64590287
-0.057218224 -0.070422441 0.64590287
-0.057218224 -0.071889564 0.64590281
-0.05529172 0.071297228 0.64444363
-0.05529172 0.06984219 0.64444363
-0.05529172 0.068387121 0.64444363
-0.05529172 0.066932082 0.64444363
-0.05529172 0.065477014 0.64444363
-0.05529172 0.064022005 0.64444363
-0.05529172 0.062566936 0.64444363
-0.05529172 0.061111897 0.64444363
-0.05529172 0.059656888 0.64444363
-0.05529172 0.058201849 0.64444363
-0.05529172 0.056746781 0.64444363
-0.05529172 0.055291712 0.64444363
-0.05529172 0.053836703 0.64444363
-0.05529172 0.052381635 0.64444363
-0.05529172 0.050926596 0.64444363
-0.05529172 0.049471527 0.64444363
-0.05529172 0.048016518 0.64444363
-0.05529172 0.04656145 0.64444363
-0.05529172 0.045106411 0.64444363
-0.05529172 0.043651342 0.64444363
-0.05529172 0.042196333 0.64444363
-0.05529172 0.040741324 0.64444363
-0.05529172 0.039286256 0.64444363
-0.05529172 0.037831187 0.64444357
-0.05529172 0.036376148 0.64444363
-0.05529172 0.034921139 0.64444363
-0.05529172 0.033466041 0.64444363
-0.05529172 0.032011002 0.64444363
-0.05529172 0.030555964 0.64444363
-0.05529172 0.029100925 0.64444363
-0.05529172 0.027645856 0.64444363
-0.05529172 0.026190817 0.64444363
-0.05529172 0.024735779 0.64444363
-0.05529172 0.02328074 0.64444363
-0.05529172 0.021825671 0.64444363
-0.05529172 0.020370632 0.64444363
-0.05529172 0.018915594 0.64444363
-0.05529172 0.017460525 0.64444363
-0.05529172 0.016005516 0.64444363
-0.05529172 0.014550447 0.64444363
-0.05529172 0.013095409 0.64444363
-0.05529172 0.01164034 0.64444363
-0.05529172 0.010185331 0.64444369
-0.05529172 0.0087302625 0.64444363
-0.05529172 0.0072752237 0.64444363
-0.05529172 0.0058201849 0.64444363
-0.05529172 0.0043651462 0.64444363
-0.05529172 0.0029100776 0.64444363
-0.05529172 0.0014550388 0.64444363
-0.05529172 2.9802322e-08 0.64444363
-0.05529172 -0.0014550388 0.64444363
-0.05529172 -0.0029100776 0.64444363
-0.05529172 -0.0043651462 0.64444363
-0.05529172 -0.0058201849 0.64444363
-0.05529172 -0.0072752237 0.64444363
-0.05529172 -0.0087302625 0.64444363
-0.05529172 -0.010185301 0.64444357
-0.05529172 -0.01164034 0.64444363
-0.05529172 -0.013095379 0.64444363
-0.05529172 -0.014550447 0.64444363
-0.05529172 -0.016005516 0.64444363
-0.05529172 -0.017460525 0.64444363
-0.05529172 -0.018915564 0.64444363
-0.05529172 -0.020370632 0.64444363
-0.05529172 -0.021825671 0.64444363
-0.05529172 -0.02328071 0.64444363
-0.05529172 -0.024735749 0.64444363
-0.05529172 -0.026190817 0.64444363
-0.05529172 -0.027645856 0.64444363
-0.05529172 -0.029100925 0.64444363
-0.05529172 -0.030555964 0.64444363
-0.05529172 -0.032011002 0.64444363
-0.05529172 -0.033466041 0.64444363
-0.05529172 -0.03492111 0.64444363
-0.05529172 -0.036376148 0.64444363
-0.05529172 -0.037831187 0.64444363
-0.05529172 -0.039286226 0.64444363
-0.05529172 -0.040741235 0.64444363
-0.05529172 -0.042196304 0.64444363
-0.05529172 -0.043651342 0.64444363
-0.05529172 -0.045106411 0.64444363
-0.05529172 -0.04656142 0.64444363
-0.05529172 -0.048016489 0.64444363
-0.05529172 -0.049471527 0.64444363
-0.05529172 -0.050926596 0.64444363
-0.05529172 -0.052381605 0.64444363
-0.05529172 -0.053836688 0.64444363
-0.05529172 -0.055291712 0.64444363
-0.05529172 -0.056746796 0.64444363
-0.05529172 -0.058201805 0.64444363
-0.05529172 -0.059656858 0.64444363
-0.05529172 -0.061111912 0.64444369
-0.05529172 -0.062566921 0.64444357
-0.05529172 -0.064021975 0.64444363
-0.05529172 -0.065477014 0.64444363
-0.05529172 -0.066932067 0.64444363
-0.05529172 -0.068387121 0.64444363
-0.05529172 -0.06984219 0.64444363
-0.05529172 -0.071297213 0.64444363
-0.053396713 0.072157741 0.64300823
-0.053396713 0.070714593 0.64300823
-0.053396713 0.069271445 0.64300823
-0.053396713 0.067828298 0.64300829
-0.053396713 0.06638515 0.64300823
-0.053396713 0.064941972 0.64300823
-0.053396713 0.063498825 0.64300823
-0.053396713 0.062055677 0.64300823
-0.053396713 0.06061244 0.64300829
-0.053396713 0.059169292 0.64300823
-0.053396713 0.057726145 0.64300823
-0.053396713 0.056282997 0.64300823
-0.053396713 0.054839849 0.64300823
-0.053396713 0.053396702 0.64300823
-0.053396713 0.051953554 0.64300823
-0.053396713 0.050510406 0.64300829
-0.053396713 0.049067259 0.64300829
-0.053396713 0.047624111 0.64300823
-0.053396713 0.046180964 0.64300823
-0.053396713 0.044737816 0.64300823
-0.053396713 0.043294668 0.64300823
-0.053396713 0.041851521 0.64300823
-0.053396713 0.040408373 0.64300823
-0.053396713 0.038965136 0.64300829
-0.053396713 0.037522018 0.64300823
-0.053396713 0.03607884 0.64300829
-0.053396713 0.034635693 0.64300829
-0.053396713 0.033192545 0.64300829
-0.053396713 0.031749368 0.64300829
-0.053396713 0.03030622 0.64300829
-0.053396713 0.028863072 0.64300823
-0.053396713 0.027419925 0.64300823
-0.053396713 0.025976777 0.64300823
-0.053396713 0.024533629 0.64300823
-0.053396713 0.023090482 0.64300823
-0.053396713 0.021647334 0.64300823
-0.053396713 0.020204186 0.64300823
-0.053396713 0.018761039 0.64300823
-0.053396713 0.017317891 0.64300823
-0.053396713 0.015874714 0.64300823
-0.053396713 0.014431506 0.64300829
-0.053396713 0.012988389 0.64300823
-0.053396713 0.011545211 0.64300829
-0.053396713 0.010102063 0.64300823
-0.053396713 0.0086589158 0.64300823
-0.053396713 0.0072157681 0.64300829
-0.053396713 0.0057726204 0.64300829
-0.053396713 0.0043294728 0.64300829
-0.053396713 0.0028862953 0.64300823
-0.053396713 0.0014431477 0.64300823
-0.053396713 -0 0.64300823
-0.053396713 -0.0014431477 0.64300823
-0.053396549 -0.0028862655 0.6430077
-0.053396549 -0.004329443 0.64300776
-0.053396549 -0.0057725906 0.6430077
-0.053396549 -0.0072157681 0.64300776
-0.053396549 -0.008658886 0.6430077
-0.053396549 -0.010102063 0.64300776
-0.053396549 -0.011545181 0.6430077
-0.053396549 -0.012988359 0.64300776
-0.053396549 -0.014431536 0.64300776
-0.053396549 -0.015874684 0.64300776
-0.053396549 -0.017317832 0.64300776
-0.053396549 -0.018760979 0.64300776
-0.053396549 -0.020204127 0.64300776
-0.053396549 -0.021647274 0.64300776
-0.053396549 -0.023090422 0.64300776
-0.053396549 -0.02453354 0.64300776
-0.053396549 -0.025976717 0.64300776
-0.053396549 -0.027419865 0.64300776
-0.053396549 -0.028863013 0.64300776
-0.053396549 -0.030306131 0.64300776
-0.053396549 -0.031749278 0.64300776
-0.053396549 -0.033192426 0.64300776
-0.053396549 -0.034635603 0.6430077
-0.053396549 -0.036078751 0.6430077
-0.053396549 -0.037521899 0.64300776
-0.053396549 -0.038965046 0.64300776
-0.053396549 -0.040408194 0.64300776
-0.053396549 -0.041851342 0.64300776
-0.053396549 -0.043294489 0.64300776
-0.053396549 -0.044737637 0.64300776
-0.053396549 -0.046180785 0.6430077
-0.053396549 -0.047623932 0.64300776
-0.053396549 -0.04906708 0.64300776
-0.053396549 -0.050510228 0.64300776
-0.053396549 -0.051953375 0.64300776
-0.053396549 -0.053396523 0.64300776
-0.053396549 -0.0548397 0.64300776
-0.053396549 -0.056282818 0.6430077
-0.053396549 -0.057725966 0.6430077
-0.053396549 -0.059169114 0.6430077
-0.053396549 -0.060612321 0.64300776
-0.053396549 -0.062055439 0.6430077
-0.053396549 -0.063498586 0.6430077
-0.053396549 -0.064941734 0.64300776
-0.053396549 -0.066384912 0.64300776
-0.053396549 -0.067828029 0.6430077
-0.053396549 -0.069271207 0.64300776
-0.053396549 -0.070714325 0.6430077
-0.051532261 0.071572602 0.64159566
-0.051532261 0.070141107 0.64159566
-0.051532261 0.068709701 0.6415956
-0.051532261 0.067278236 0.6415956
-0.051532261 0.065846771 0.6415956
-0.051532261 0.064415336 0.64159566
-0.051532261 0.062983871 0.6415956
-0.051532261 0.061552465 0.6415956
-0.051532261 0.060121 0.6415956
-0.051532261 0.058689535 0.6415956
-0.051532261 0.05725807 0.6415956
-0.051532261 0.055826634 0.64159566
-0.051532261 0.054395169 0.6415956
-0.051532261 0.052963704 0.64159566
-0.051532261 0.051532239 0.64159566
-0.051532261 0.050100863 0.64159566
-0.051532261 0.048669398 0.6415956
-0.051532261 0.047237933 0.64159566
-0.051532261 0.045806438 0.6415956
-0.051532261 0.044375032 0.64159566
-0.051532261 0.042943597 0.6415956
-0.051532261 0.041512102 0.6415956
-0.051532261 0.040080667 0.6415956
-0.051532261 0.038649231 0.6415956
-0.051532261 0.037217766 0.64159566
-0.051532261 0.035786301 0.64159566
-0.051532261 0.034354836 0.64159566
-0.051532261 0.03292343 0.6415956
-0.051532261 0.031491935 0.6415956
-0.051532261 0.03006047 0.6415956
-0.051532261 0.028629035 0.64159566
-0.051532261 0.027197599 0.6415956
-0.051532261 0.025766134 0.64159566
-0.051532261 0.024334699 0.6415956
-0.051532261 0.022903234 0.6415956
-0.051532261 0.021471798 0.6415956
-0.051532261 0.020040333 0.64159566
-0.051532261 0.018608868 0.6415956
-0.051532261 0.017177403 0.64159566
-0.051532261 0.015745938 0.64159566
-0.051532261 0.014314562 0.6415956
-0.051532261 0.012883097 0.6415956
-0.051532261 0.011451632 0.64159566
-0.051532261 0.010020167 0.64159566
-0.051532261 0.0085887015 0.64159566
-0.051532261 0.0071572661 0.6415956
-0.051532261 0.005725801 0.6415956
-0.051532261 0.0042943656 0.6415956
-0.051532261 0.0028629303 0.6415956
-0.051532261 0.0014314651 0.64159566
-0.051532261 -0 0.64159566
-0.051532261 -0.0014314651 0.64159566
-0.051532261 -0.0028628707 0.6415956
-0.051532261 -0.0042943358 0.6415956
-0.051532261 -0.0057258308 0.6415956
-0.051532261 -0.0071572661 0.64159566
-0.051532261 -0.0085887015 0.6415956
-0.051532261 -0.010020167 0.64159566
-0.051532261 -0.011451602 0.6415956
-0.051532261 -0.012883067 0.6415956
-0.051532261 -0.014314502 0.6415956
-0.051532261 -0.015745968 0.64159566
-0.051532261 -0.017177433 0.6415956
-0.051532261 -0.018608898 0.64159566
-0.051532261 -0.020040333 0.64159566
-0.051532261 -0.021471739 0.6415956
-0.051532261 -0.022903204 0.6415956
-0.051532261 -0.024334669 0.64159566
-0.051532261 -0.025766104 0.64159566
-0.051532261 -0.02719757 0.6415956
-0.051532261 -0.028629035 0.6415956
-0.051532261 -0.0300605 0.6415956
-0.051532261 -0.031491935 0.6415956
-0.051532261 -0.032923371 0.6415956
-0.051532261 -0.034354836 0.64159566
-0.051532261 -0.035786301 0.64159566
-0.051532261 -0.037217736 0.64159566
-0.051532261 -0.038649201 0.64159572
-0.051532261 -0.040080667 0.6415956
-0.051532261 -0.041512102 0.6415956
-0.051532261 -0.042943537 0.64159566
-0.051532261 -0.044375002 0.6415956
-0.051532261 -0.045806468 0.64159566
-0.051532261 -0.047237903 0.6415956
-0.051532261 -0.048669338 0.6415956
-0.051532261 -0.050100803 0.6415956
-0.051532261 -0.051532269 0.64159566
-0.051532261 -0.052963719 0.64159566
-0.051532261 -0.054395154 0.64159566
-0.051532261 -0.055826619 0.64159566
-0.051532261 -0.057258055 0.6415956
-0.051532261 -0.05868952 0.6415956
-0.051532105 -0.060120776 0.64159513
-0.051532105 -0.061552241 0.64159513
-0.051532105 -0.062983677 0.64159513
-0.051532105 -0.064415142 0.64159518
-0.051532105 -0.065846562 0.64159513
-0.051532105 -0.067278028 0.64159513
-0.051532105 -0.068709463 0.64159513
-0.051532105 -0.070140898 0.64159513
-0.049697965 0.070997119 0.64020628
-0.049697965 0.069577157 0.64020628
-0.049697965 0.068157226 0.64020628
-0.049697965 0.066737294 0.64020622
-0.049697965 0.065317333 0.64020622
-0.049697965 0.063897371 0.64020628
-0.049697965 0.062477469 0.64020628
-0.049697965 0.061057508 0.64020622
-0.049697965 0.059637547 0.64020628
-0.049697965 0.058217615 0.64020628
-0.049697965 0.056797683 0.64020622
-0.049697965 0.055377722 0.64020628
-0.049697965 0.05395779 0.64020628
-0.049697965 0.052537829 0.64020622
-0.049697965 0.051117897 0.64020628
-0.049697965 0.049697965 0.64020628
-0.049697965 0.048278034 0.64020622
-0.049697965 0.046858072 0.64020628
-0.049697965 0.04543817 0.64020628
-0.049697965 0.044018209 0.64020622
-0.049697965 0.042598248 0.64020628
-0.049697965 0.041178316 0.64020628
-0.049697965 0.039758384 0.64020622
-0.049697965 0.038338453 0.64020622
-0.049697965 0.036918491 0.64020628
-0.049697965 0.035498559 0.64020622
-0.049697965 0.034078568 0.64020628
-0.049697965 0.032658666 0.64020628
-0.049697965 0.031238705 0.64020622
-0.049697965 0.029818803 0.64020622
-0.049697965 0.028398812 0.64020628
-0.049697965 0.02697891 0.64020628
-0.049697965 0.025558919 0.64020628
-0.049697965 0.024139017 0.64020628
-0.049697965 0.022719055 0.64020622
-0.049697965 0.021299154 0.64020622
-0.049697965 0.019879192 0.64020628
-0.049697965 0.01845926 0.64020622
-0.049697965 0.017039329 0.64020622
-0.049697965 0.015619338 0.64020628
-0.049697965 0.014199436 0.64020628
-0.049697965 0.012779474 0.64020622
-0.049697965 0.011359572 0.64020622
-0.049697965 0.0099395812 0.64020628
-0.049697965 0.0085196793 0.64020622
-0.049697965 0.0070996881 0.64020628
-0.049697965 0.0056797862 0.64020628
-0.049697965 0.0042598248 0.64020622
-0.049697965 0.0028398931 0.64020622
-0.049697965 0.0014199317 0.64020628
-0.049697965 -0 0.64020622
-0.049697965 -0.0014199615 0.64020628
-0.049697813 -0.0028398633 0.64020574
-0.049697813 -0.0042598248 0.64020574
-0.049697813 -0.0056797564 0.64020574
-0.049697813 -0.0070996881 0.64020574
-0.049697813 -0.0085195899 0.64020574
-0.049697813 -0.0099395812 0.64020574
-0.049697813 -0.011359483 0.64020574
-0.049697813 -0.012779415 0.64020574
-0.049697813 -0.014199346 0.64020574
-0.049697813 -0.015619338 0.64020574
-0.049697813 -0.017039239 0.64020574
-0.049697813 -0.018459201 0.64020574
-0.049697813 -0.019879133 0.64020574
-0.049697813 -0.021299064 0.64020574
-0.049697813 -0.022718966 0.64020574
-0.049697813 -0.024138927 0.64020574
-0.049697813 -0.025558889 0.64020574
-0.049697813 -0.026978821 0.64020574
-0.049697813 -0.028398782 0.64020574
-0.049697813 -0.029818714 0.64020574
-0.049697813 -0.031238645 0.64020574
-0.049697813 -0.032658547 0.64020574
-0.049697813 -0.034078479 0.64020574
-0.049697813 -0.03549841 0.64020574
-0.049697813 -0.036918372 0.64020574
-0.049697813 -0.038338274 0.64020574
-0.049697813 -0.039758265 0.64020574
-0.049697813 -0.041178167 0.64020574
-0.049697813 -0.042598099 0.64020574
-0.049697813 -0.04401803 0.64020574
-0.049697813 -0.045437992 0.64020574
-0.049697813 -0.046857923 0.64020574
-0.049697813 -0.048277855 0.64020574
-0.049697813 -0.049697816 0.64020574
-0.049697813 -0.051117748 0.64020574
-0.049697813 -0.05253765 0.64020574
-0.049697813 -0.053957611 0.64020574
-0.049697813 -0.055377573 0.64020574
-0.049697813 -0.056797504 0.64020574
-0.049697813 -0.058217436 0.64020574
-0.049697813 -0.059637368 0.64020568
-0.049697813 -0.061057329 0.64020574
-0.049697813 -0.062477231 0.64020574
-0.049697813 -0.063897178 0.64020574
-0.049697813 -0.065317109 0.64020574
-0.049697813 -0.066737071 0.64020574
-0.049697813 -0.068156973 0.64020574
-0.047892783 0.070430547 0.63883853
-0.047892783 0.06902194 0.63883853
-0.047892783 0.067613333 0.63883853
-0.047892783 0.066204697 0.63883853
-0.047892783 0.06479612 0.63883853
-0.047892783 0.063387543 0.63883853
-0.047892783 0.061978906 0.63883853
-0.047892783 0.0605703 0.63883853
-0.047892783 0.059161663 0.63883853
-0.047892783 0.057753086 0.63883853
-0.047892783 0.056344509 0.63883853
-0.047892783 0.054935843 0.63883853
-0.047892783 0.053527236 0.63883853
-0.047892783 0.052118599 0.63883853
-0.047892783 0.050710022 0.63883853
-0.047892783 0.049301416 0.63883853
-0.047892783 0.047892749 0.63883853
-0.047892783 0.046484172 0.63883853
-0.047892783 0.045075536 0.63883853
-0.047892783 0.043666929 0.63883853
-0.047892783 0.042258352 0.63883853
-0.047892783 0.040849715 0.63883859
-0.047892783 0.039441139 0.63883853
-0.047892783 0.038032532 0.63883853
-0.047892783 0.036623895 0.63883853
-0.047892783 0.035215288 0.63883853
-0.047892783 0.033806682 0.63883853
-0.047892783 0.032398045 0.63883853
-0.047892783 0.030989468 0.63883853
-0.047892783 0.029580802 0.63883853
-0.047892783 0.028172225 0.63883853
-0.047892783 0.026763648 0.63883853
-0.047892783 0.025354981 0.63883853
-0.047892783 0.023946404 0.63883853
-0.047892783 0.022537768 0.63883853
-0.047892783 0.021129161 0.63883853
-0.047892783 0.019720584 0.63883853
-0.047892783 0.018311948 0.63883853
-0.047892783 0.016903371 0.63883853
-0.047892783 0.015494704 0.63883859
-0.047892783 0.014086097 0.63883853
-0.047892783 0.012677521 0.63883853
-0.047892783 0.011268914 0.63883853
-0.047892783 0.0098602772 0.63883853
-0.047892783 0.0084516406 0.63883847
-0.047892783 0.0070430338 0.63883853
-0.047892783 0.0056344569 0.63883853
-0.047892783 0.0042258501 0.63883853
-0.047892783 0.0028172135 0.63883853
-0.047892783 0.0014086366 0.63883853
-0.047892783 -0 0.63883853
-0.047892783 -0.0014086068 0.63883853
-0.047892783 -0.0028172135 0.63883853
-0.047892783 -0.0042258203 0.63883853
-0.047892783 -0.0056344271 0.63883853
-0.047892783 -0.0070430636 0.63883853
-0.047892783 -0.0084516704 0.63883853
-0.047892783 -0.0098602772 0.63883853
-0.047892783 -0.011268854 0.63883853
-0.047892783 -0.012677491 0.63883853
-0.047892783 -0.014086127 0.63883853
-0.047892783 -0.015494734 0.63883853
-0.047892783 -0.016903311 0.63883853
-0.047892783 -0.018311918 0.63883853
-0.047892783 -0.019720554 0.63883853
-0.047892783 -0.021129161 0.63883853
-0.047892783 -0.022537768 0.63883853
-0.047892783 -0.023946375 0.63883853
-0.047892783 -0.025354981 0.63883853
-0.047892783 -0.026763618 0.63883853
-0.047892783 -0.028172225 0.63883853
-0.047892783 -0.029580832 0.63883853
-0.047892783 -0.030989438 0.63883853
-0.047892783 -0.032398045 0.63883853
-0.047892783 -0.033806622 0.63883853
-0.047892783 -0.035215259 0.63883853
-0.047892783 -0.036623895 0.63883853
-0.047892783 -0.038032502 0.63883853
-0.047892783 -0.039441109 0.63883853
-0.047892783 -0.040849686 0.63883853
-0.047892783 -0.042258322 0.63883853
-0.047892783 -0.043666929 0.63883853
-0.047892783 -0.045075566 0.63883853
-0.047892783 -0.046484172 0.63883853
-0.047892783 -0.047892779 0.63883853
-0.047892783 -0.049301386 0.63883853
-0.047892783 -0.050709993 0.63883853
-0.047892783 -0.052118614 0.63883853
-0.047892783 -0.053527191 0.63883853
-0.047892783 -0.054935843 0.63883853
-0.047892783 -0.05634442 0.63883847
-0.047892783 -0.057753071 0.63883853
-0.047892634 -0.059161514 0.63883805
-0.047892634 -0.060570106 0.63883805
-0.047892634 -0.061978683 0.63883799
-0.047892634 -0.063387334 0.63883805
-0.047892634 -0.064795911 0.63883805
-0.047892634 -0.066204503 0.63883799
-0.047892634 -0.06761314 0.63883805
-0.046116319 0.069873244 0.63749295
-0.046116319 0.068475753 0.63749295
-0.046116319 0.067078263 0.63749301
-0.046116319 0.065680832 0.63749301
-0.046116319 0.064283341 0.63749301
-0.046116319 0.06288588 0.63749301
-0.046116319 0.06148842 0.63749295
-0.046116319 0.060090959 0.63749301
-0.046116319 0.058693498 0.63749301
-0.046116319 0.057296038 0.63749295
-0.046116319 0.055898547 0.63749295
-0.046116319 0.054501116 0.63749301
-0.046116319 0.053103656 0.63749295
-0.046116319 0.051706165 0.63749295
-0.046116319 0.050308704 0.63749295
-0.046116319 0.048911273 0.63749295
-0.046116319 0.047513813 0.63749295
-0.046116319 0.046116322 0.63749295
-0.046116319 0.044718862 0.6374929
-0.046116319 0.043321431 0.63749295
-0.046116319 0.04192394 0.63749295
-0.046116319 0.040526479 0.6374929
-0.046116319 0.039129019 0.6374929
-0.046116319 0.037731558 0.63749295
-0.046116319 0.036334068 0.63749301
-0.046116319 0.034936607 0.63749295
-0.046116319 0.033539116 0.63749295
-0.046116319 0.032141656 0.63749295
-0.046116319 0.030744225 0.63749295
-0.046116319 0.029346734 0.63749295
-0.046116319 0.027949274 0.63749295
-0.046116319 0.026551813 0.63749295
-0.046116319 0.025154352 0.63749295
-0.046116319 0.023756921 0.63749295
-0.046116319 0.022359431 0.63749295
-0.046116319 0.02096197 0.63749295
-0.046116319 0.019564509 0.63749295
-0.046116319 0.018167078 0.63749295
-0.046116319 0.016769558 0.63749301
-0.046116319 0.015372097 0.63749301
-0.046116319 0.013974637 0.63749301
-0.046116319 0.012577176 0.63749295
-0.046116319 0.011179715 0.63749301
-0.046116319 0.0097822547 0.63749295
-0.046116181 0.008384794 0.63749248
-0.046116181 0.0069873035 0.63749248
-0.046116181 0.0055898428 0.63749248
-0.046116181 0.0041923821 0.63749248
-0.046116181 0.0027949214 0.63749242
-0.046116181 0.0013974607 0.63749242
-0.046116181 -0 0.63749248
-0.046116181 -0.0013974905 0.63749242
-0.046116181 -0.0027949214 0.63749248
-0.046116181 -0.0041923523 0.63749242
-0.046116181 -0.0055898428 0.63749248
-0.046116181 -0.0069873035 0.63749242
-0.046116181 -0.0083847642 0.63749242
-0.046116181 -0.0097821653 0.63749242
-0.046116181 -0.011179656 0.63749248
-0.046116181 -0.012577116 0.63749248
-0.046116181 -0.013974577 0.63749242
-0.046116181 -0.015372097 0.63749248
-0.046116181 -0.016769528 0.63749248
-0.046116181 -0.018166989 0.63749254
-0.046116181 -0.01956448 0.63749248
-0.046116181 -0.02096191 0.63749248
-0.046116181 -0.022359341 0.63749248
-0.046116181 -0.023756832 0.63749254
-0.046116181 -0.025154293 0.63749248
-0.046116181 -0.026551753 0.63749248
-0.046116181 -0.027949214 0.63749248
-0.046116181 -0.029346645 0.63749254
-0.046116181 -0.030744106 0.63749248
-0.046116181 -0.032141596 0.63749248
-0.046116181 -0.033539057 0.63749248
-0.046116181 -0.034936488 0.63749248
-0.046116181 -0.036333978 0.63749248
-0.046116181 -0.037731439 0.63749248
-0.046116181 -0.03912887 0.63749248
-0.046116181 -0.04052636 0.63749248
-0.046116181 -0.041923791 0.63749248
-0.046116181 -0.043321252 0.63749248
-0.046116181 -0.044718742 0.63749248
-0.046116181 -0.046116203 0.63749242
