# .PCD v0.7 - Point Cloud Data file format
VERSION 0.7
FIELDS x y z
SIZE 4 4 4
TYPE F F F
COUNT 1 1 1
WIDTH 1329
HEIGHT 1
VIEWPOINT 0 0 0 1 0 0 0
POINTS 1329
DATA ascii
-0.017832549 0.056739926 0.66449308
-0.016623398 0.051381409 0.65122426
-0.016327243 0.048981756 0.64797431
-0.016375799 0.047638685 0.64850718
-0.016424645 0.046287656 0.6490432
-0.016473781 0.044928551 0.64958239
-0.016523214 0.04356122 0.65012491
-0.016572943 0.042185694 0.65067065
-0.016622974 0.040801853 0.65121961
-0.016673306 0.039409637 0.6517719
-0.016723946 0.038008958 0.65232766
-0.016774891 0.036599785 0.65288675
-0.016826151 0.035181969 0.65344924
-0.016877724 0.033755481 0.65401518
-0.016929613 0.032320201 0.65458453
-0.016981823 0.03087604 0.65515757
-0.017034356 0.029422998 0.65573394
-0.017087214 0.027960896 0.65631407
-0.017140403 0.026489735 0.65689772
-0.017193923 0.025009334 0.65748501
-0.017247722 0.023519635 0.65807545
-0.017301915 0.022020638 0.65867007
-0.01735645 0.020512164 0.65926856
-0.017411331 0.018994212 0.6598708
-0.017466558 0.017466545 0.66047686
-0.017522138 0.015929252 0.6610868
-0.017578073 0.014382064 0.66170055
-0.017634366 0.012825012 0.66231835
-0.01769102 0.011257917 0.66294003
-0.017748039 0.0096807778 0.66356575
-0.017805427 0.0080933869 0.66419548
-0.017863188 0.006495744 0.66482937
-0.017921325 0.0048876107 0.66546738
-0.017979842 0.0032690763 0.66610944
-0.018038742 0.0016399026 0.6667558
-0.018098028 -0 0.66740644
-0.018157708 -0.0016507208 0.66806132
-0.018217782 -0.0033123195 0.66872054
-0.018278252 -0.0049850047 0.66938418
-0.018339125 -0.0066687763 0.67005217
-0.018400341 -0.0083637834 0.67072392
-0.018462034 -0.010070175 0.6714009
-0.01852414 -0.01178807 0.67208242
-0.018586667 -0.013517559 0.67276859
-0.018649617 -0.015258759 0.67345941
-0.018712994 -0.017011821 0.67415488
-0.018776804 -0.018776774 0.67485511
-0.018841051 -0.020553857 0.67556012
-0.018905738 -0.022343129 0.67627001
-0.018970871 -0.024144739 0.67698473
-0.019036455 -0.025958806 0.67770445
-0.019102493 -0.02778542 0.67842907
-0.019168992 -0.02962482 0.67915887
-0.019235956 -0.031477004 0.67989373
-0.019303387 -0.033342242 0.68063366
-0.019371293 -0.035220504 0.6813789
-0.019439681 -0.037112117 0.68212926
-0.019508552 -0.039017111 0.68288505
-0.019577913 -0.040935665 0.6836462
-0.019647768 -0.042867839 0.68441272
-0.019718124 -0.044813901 0.68518484
-0.01978891 -0.046773762 0.6859616
-0.019860283 -0.048747987 0.68674487
-0.019932171 -0.050736427 0.6875338
-0.020004584 -0.052739352 0.68832844
-0.020077521 -0.05475688 0.68912882
-0.020150995 -0.05678919 0.68993503
-0.020225007 -0.058836371 0.6907472
-0.020299567 -0.060898751 0.69156551
-0.020374676 -0.062976271 0.69238967
-0.020450344 -0.065069288 0.69322002
-0.020526577 -0.067177862 0.69405651
-0.020603379 -0.069302291 0.69489932
-0.020680759 -0.071442634 0.69574851
-0.020758722 -0.0735991 0.69660407
-0.01905242 0.070493937 0.69878721
-0.017551988 0.063187182 0.68067533
-0.016270574 0.056947023 0.66520733
-0.015163582 0.0515562 0.65184474
-0.014856949 0.049027979 0.64814335
-0.014901173 0.047683746 0.64867717
-0.014945663 0.046331584 0.64921421
-0.014990417 0.044971228 0.64975446
-0.015035441 0.043602794 0.650298
-0.015080736 0.042226046 0.65084475
-0.015126306 0.040841073 0.65139478
-0.01517215 0.039447576 0.65194821
-0.015218275 0.038045704 0.65250498
-0.015264631 0.036635101 0.65306455
-0.015311319 0.035216033 0.65362811
-0.015358294 0.033788234 0.65419519
-0.015405559 0.032351673 0.65476567
-0.015453116 0.03090626 0.65533972
-0.015500966 0.029451847 0.65591729
-0.015549114 0.027988404 0.65649855
-0.015597563 0.026515871 0.65708339
-0.015646314 0.0250341 0.65767187
-0.015695371 0.02354309 0.65826398
-0.015744735 0.022042632 0.65885991
-0.015794413 0.020532757 0.65945953
-0.015844405 0.019013286 0.66006297
-0.015894711 0.017484188 0.66067022
-0.015945341 0.015945345 0.66128147
-0.015996294 0.014396697 0.66189647
-0.016047575 0.012838066 0.66251552
-0.016099183 0.01126948 0.66313845
-0.016151125 0.009690702 0.66376543
-0.016203403 0.0081017315 0.66439652
-0.016255965 0.0065023899 0.66503102
-0.016308926 0.0048927069 0.66567028
-0.016362233 0.003272444 0.66631377
-0.01641589 0.0016416013 0.66696143
-0.0164699 -0 0.66761339
-0.016524265 -0.0016524196 0.66826963
-0.016578991 -0.0033158064 0.66893029
-0.016634081 -0.0049902201 0.66959524
-0.016689539 -0.0066758096 0.67026466
-0.016745366 -0.0083726943 0.67093861
-0.01680157 -0.010080934 0.67161697
-0.016858151 -0.011800677 0.67229998
-0.016915115 -0.013532102 0.67298758
-0.016972465 -0.01527524 0.67367989
-0.017030206 -0.01703018 0.67437685
-0.017088339 -0.018797159 0.67507863
-0.017146872 -0.020576239 0.67578518
-0.017205808 -0.022367537 0.67649662
-0.017265148 -0.024171203 0.67721295
-0.017324902 -0.025987357 0.67793423
-0.017385069 -0.027816117 0.67866051
-0.01744559 -0.029657513 0.67939103
-0.017506601 -0.031511903 0.6801275
-0.017568041 -0.033379257 0.68086916
-0.017629912 -0.035259783 0.68161595
-0.017692219 -0.037153661 0.68236816
-0.01775497 -0.03906092 0.68312562
-0.017818168 -0.04098177 0.68388838
-0.017881816 -0.042916387 0.68465674
-0.017945921 -0.044864804 0.68543053
-0.018010488 -0.046827286 0.68620992
-0.01807552 -0.048803926 0.68699497
-0.018141024 -0.05079484 0.68778563
-0.018207004 -0.052800268 0.68858212
-0.018273467 -0.054820418 0.68938434
-0.018340414 -0.056855291 0.69019252
-0.018407857 -0.058905125 0.6910066
-0.018475795 -0.060970128 0.6918267
-0.018544238 -0.063050419 0.69265288
-0.018613189 -0.065146178 0.6934852
-0.018682657 -0.067257583 0.69432378
-0.018752644 -0.069384784 0.6951685
-0.018823156 -0.071527988 0.69601971
-0.018894201 -0.073687404 0.6968773
-0.017220844 0.070796818 0.69977516
-0.015859228 0.063436896 0.68151283
-0.014697207 0.057155788 0.66592741
-0.013693802 0.051732153 0.65246946
-0.013383835 0.049074054 0.64831209
-0.013423712 0.047728747 0.64884692
-0.013463828 0.046375453 0.64938498
-0.013504184 0.045013934 0.64992625
-0.013544782 0.043644309 0.65047079
-0.013585626 0.042266428 0.65101856
-0.013626716 0.040880173 0.65156972
-0.013668057 0.039485514 0.65212417
-0.013709648 0.038082361 0.65268201
-0.013751494 0.036670655 0.65324324
-0.013793596 0.035250276 0.65380794
-0.013835955 0.033821225 0.65437603
-0.013878576 0.032383353 0.65494776
-0.013921461 0.030936569 0.65552294
-0.013964612 0.029480845 0.65610164
-0.014008031 0.028016061 0.65668404
-0.01405172 0.026542127 0.65726995
-0.014095684 0.025059015 0.65785962
-0.014139921 0.023566544 0.65845299
-0.01418444 0.022064686 0.65905005
-0.014229191 0.020553291 0.65965027
-0.014274274 0.019032359 0.66025496
-0.014319642 0.017501801 0.6608634
-0.014365301 0.015961438 0.66147584
-0.014411251 0.014411271 0.66209209
-0.014457496 0.012851089 0.6627124
-0.014504039 0.011280924 0.66333663
-0.014550882 0.0097005665 0.66396493
-0.014598031 0.0081100166 0.66459727
-0.014645483 0.0065090954 0.66523373
-0.014693247 0.0048977733 0.6658743
-0.014741322 0.0032758713 0.66651911
-0.014789714 0.0016433001 0.66716814
-0.014838425 -0 0.66782147
-0.014887456 -0.0016541481 0.66847914
-0.014936814 -0.0033193231 0.66914111
-0.014986498 -0.0049954951 0.66980749
-0.015036515 -0.0066828728 0.67047834
-0.015086868 -0.0083815753 0.67115366
-0.015137558 -0.010091722 0.67183357
-0.015188537 -0.011813313 0.6725173
-0.015239913 -0.013546586 0.67320633
-0.01529164 -0.015291631 0.67390013
-0.015343718 -0.017048597 0.67459869
-0.015396152 -0.018817544 0.67530191
-0.015448947 -0.02059859 0.67601001
-0.015502103 -0.022391945 0.67672294
-0.015555627 -0.024197638 0.67744082
-0.015609522 -0.026015848 0.67816365
-0.015663791 -0.027846754 0.67889154
-0.015718441 -0.029690385 0.67962456
-0.015773471 -0.03154695 0.68036258
-0.015828891 -0.033416539 0.68110591
-0.015884697 -0.035299301 0.68185443
-0.015940903 -0.037195414 0.68260825
-0.015997505 -0.039104998 0.68336737
-0.016054511 -0.041028202 0.68413198
-0.016111925 -0.042965114 0.68490201
-0.016169751 -0.044915944 0.68567753
-0.016227994 -0.046880871 0.68645877
-0.016286656 -0.048859954 0.68724567
-0.016345683 -0.050853252 0.68803728
-0.016405202 -0.052861214 0.68883556
-0.016465155 -0.054883838 0.68963969
-0.01652555 -0.056921333 0.69044971
-0.016586389 -0.058973849 0.6912657
-0.016647678 -0.061041474 0.69208765
-0.016709421 -0.063124478 0.69291586
-0.016771624 -0.065223008 0.69375014
-0.016834291 -0.067337155 0.69459063
-0.016897429 -0.069467187 0.69543743
-0.016961042 -0.071613282 0.69629073
-0.017025135 -0.073775589 0.69715029
-0.015373399 0.071101993 0.7007708
-0.014153033 0.063688636 0.68235689
-0.013112215 0.057365984 0.66665214
-0.012213993 0.051909477 0.65309906
-0.011907984 0.049120426 0.64848173
-0.011943498 0.047773987 0.64901757
-0.011979223 0.046419501 0.64955664
-0.012015165 0.04505688 0.65009898
-0.012051321 0.043686062 0.65064454
-0.012087696 0.04230696 0.65119338
-0.012124291 0.040919513 0.6517455
-0.012161109 0.039523602 0.65230107
-0.01219815 0.038119256 0.65285999
-0.012235418 0.036706269 0.65342236
-0.012272915 0.035284638 0.65398806
-0.012310601 0.033854187 0.65455675
-0.012348561 0.032414973 0.65512949
-0.012386755 0.030966878 0.65570581
-0.012425186 0.029509813 0.6562857
-0.012463857 0.028043658 0.65686923
-0.012502769 0.026568413 0.65745634
-0.012541926 0.02508384 0.65804714
-0.012581326 0.023590028 0.65864164
-0.012620976 0.02208671 0.65923995
-0.012660878 0.020573914 0.65984201
-0.012701032 0.019051552 0.6604479
-0.012741441 0.017519504 0.66105759
-0.012782108 0.015977651 0.66167122
-0.012823035 0.014425904 0.66228878
-0.012864226 0.012864232 0.66291034
-0.012905682 0.011292487 0.66353583
-0.012947407 0.0097105503 0.66416538
-0.012989402 0.008118391 0.66479903
-0.013031669 0.0065158308 0.66543686
-0.013074169 0.0049028397 0.66607809
-0.013116991 0.0032792389 0.66672421
-0.013160095 0.0016450584 0.66737461
-0.013203483 -0 0.66802931
-0.013247159 -0.0016558766 0.66868836
-0.013291124 -0.0033227801 0.6693517
-0.013335382 -0.0050007403 0.67001951
-0.013379936 -0.0066899657 0.67069173
-0.013424789 -0.0083904862 0.67136854
-0.013469943 -0.010102451 0.67204988
-0.013515402 -0.011825919 0.67273575
-0.013561169 -0.013561159 0.67342633
-0.013607246 -0.015308142 0.67412162
-0.013653638 -0.017067045 0.67482162
-0.013700347 -0.018837959 0.67552638
-0.013747377 -0.020621061 0.67623603
-0.013794731 -0.022416443 0.67695057
-0.013842413 -0.024224222 0.67767
-0.013890426 -0.026044548 0.67839444
-0.013938772 -0.02787751 0.67912394
-0.013987456 -0.029723376 0.67985857
-0.014036429 -0.031581938 0.68059742
-0.014085799 -0.033453763 0.68134242
-0.014135518 -0.035338819 0.68209267
-0.014185589 -0.037237167 0.68284816
-0.014236014 -0.039149016 0.68360901
-0.014286801 -0.041074544 0.68437529
-0.014337952 -0.043013841 0.68514711
-0.014389469 -0.044967085 0.68592447
-0.014441358 -0.046934396 0.68670738
-0.014493623 -0.048915952 0.68749601
-0.014546268 -0.050911963 0.68829036
-0.014599297 -0.052922428 0.68909049
-0.014652713 -0.054947674 0.68989646
-0.014706522 -0.056987762 0.69070834
-0.014760727 -0.059042901 0.69152629
-0.014815333 -0.061113238 0.69235021
-0.014870346 -0.063198954 0.69318032
-0.014925768 -0.065300256 0.69401658
-0.014981604 -0.067417204 0.69485909
-0.015037861 -0.069550097 0.69570792
-0.015094539 -0.071699053 0.69656312
-0.015151649 -0.073864281 0.69742489
-0.013509959 0.071409792 0.70177501
-0.01243329 0.063942641 0.68320853
-0.011515524 0.05757764 0.66738224
-0.01072397 0.052087873 0.65373236
-0.010429341 0.049166918 0.64865166
-0.010460441 0.047819197 0.64918792
-0.01049176 0.04646349 0.64972806
-0.010523268 0.045099735 0.65027142
-0.010554967 0.043727726 0.65081799
-0.010586855 0.042347401 0.6513679
-0.010618937 0.040958762 0.65192115
-0.010651215 0.039561659 0.65247774
-0.010683688 0.038156033 0.65303767
-0.010716361 0.036741793 0.65360117
-0.010749235 0.035318911 0.65416801
-0.010782309 0.033887267 0.65473837
-0.010815589 0.032446772 0.65531224
-0.010849075 0.030997366 0.65588969
-0.010882768 0.029538959 0.65647072
-0.010916673 0.028071433 0.65705538
-0.010950788 0.026594818 0.65764368
-0.010985116 0.025108844 0.65823567
-0.011019662 0.023613572 0.65883142
-0.011054426 0.022108823 0.65943092
-0.011089409 0.020594627 0.66003418
-0.011124577 0.019070685 0.6606406
-0.011160007 0.017537147 0.66125154
-0.011195662 0.015993804 0.66186643
-0.011231547 0.014440566 0.66248524
-0.011267662 0.012877345 0.66310799
-0.011304011 0.011304021 0.66373479
-0.011340594 0.0097205043 0.66436571
-0.011377416 0.0081267357 0.66500062
-0.011414476 0.0065225661 0.66563976
-0.011451779 0.0049079061 0.66628295
-0.011489327 0.0032826662 0.66693044
-0.011527121 0.0016467273 0.66758221
-0.011565166 -0 0.66823828
-0.011603462 -0.001657635 0.66889864
-0.011642013 -0.0033262372 0.66956341
-0.01168082 -0.0050060451 0.67023271
-0.011719887 -0.0066970885 0.67090631
-0.011759218 -0.0083994269 0.67158461
-0.011798811 -0.010113239 0.67226732
-0.011838674 -0.011838645 0.67295474
-0.011878763 -0.013575733 0.67364603
-0.011919168 -0.015324652 0.67434281
-0.011959848 -0.017085493 0.67504436
-0.012000808 -0.018858433 0.67575067
-0.012042048 -0.020643473 0.67646182
-0.012083573 -0.02244091 0.67717791
-0.012125386 -0.024250776 0.67789894
-0.012167489 -0.026073188 0.67862493
-0.012209886 -0.027908325 0.6793561
-0.012252579 -0.029756248 0.68009228
-0.012295571 -0.031617165 0.6808337
-0.012338866 -0.033491194 0.68158031
-0.012382468 -0.035378456 0.68233216
-0.012426378 -0.037279099 0.68308932
-0.012470602 -0.039193302 0.68385196
-0.012515141 -0.041121155 0.68462002
-0.012559998 -0.043062836 0.68539351
-0.012605179 -0.045018494 0.68617266
-0.012650686 -0.046988249 0.68695742
-0.012696523 -0.048972309 0.68774784
-0.012742694 -0.050970793 0.68854403
-0.012789201 -0.05298385 0.68934602
-0.012835999 -0.055011421 0.690153
-0.012883191 -0.057054132 0.69096684
-0.012930731 -0.059111923 0.69178665
-0.012978625 -0.061184913 0.69261247
-0.013026873 -0.06327334 0.69344449
-0.013075482 -0.065377384 0.69428271
-0.013124454 -0.067497224 0.69512725
-0.013173795 -0.069632918 0.69597816
-0.013223509 -0.071784765 0.6968354
-0.013273599 -0.073952913 0.69769919
-0.011630362 0.0717206 0.70278895
-0.010699736 0.064198434 0.68406618
-0.0099070072 0.057790875 0.66811776
-0.0092236698 0.052267492 0.65437001
-0.0089478698 0.04921332 0.64882141
-0.0089746071 0.047864556 0.64935929
-0.0090015028 0.046507806 0.64990032
-0.0090285605 0.0451428 0.65044475
-0.0090557821 0.043769598 0.65099239
-0.0090831686 0.042388141 0.65154332
-0.0091107199 0.04099825 0.6520977
-0.0091384398 0.039599895 0.65265536
-0.0091663282 0.038193047 0.65321642
-0.0091943881 0.036777556 0.65378094
-0.0092226202 0.035353392 0.65434891
-0.0092510264 0.033920437 0.6549204
-0.0092795771 0.032478511 0.65549481
-0.0093083354 0.031027794 0.65607333
-0.0093372725 0.029568046 0.65665555
-0.0093663903 0.028099179 0.65724134
-0.0093956897 0.026621133 0.65783077
-0.0094251735 0.025133818 0.65842396
-0.0094548427 0.023637146 0.65902084
-0.0094846999 0.022130966 0.65962154
-0.0095147453 0.02061528 0.66022599
-0.0095449826 0.019089997 0.66083431
-0.0095754117 0.017554909 0.66144651
-0.0096060364 0.016010046 0.66206264
-0.0096368566 0.014455259 0.66268271
-0.0096678762 0.012890518 0.66330677
-0.009699095 0.011315644 0.66393483
-0.0097305169 0.0097305179 0.66456699
-0.0097621428 0.0081351399 0.66520327
-0.0097939754 0.0065293312 0.66584367
-0.0098260157 0.0049130321 0.66648829
-0.0098582665 0.0032861233 0.66713715
-0.0098906951 0.0016484261 0.66778958
-0.0099233724 -2.9802322e-08 0.66844696
-0.0099562667 -0.0016593933 0.66910875
-0.0099893799 -0.0033297837 0.66977495
-0.010022714 -0.0050113499 0.67044556
-0.010056271 -0.0067041814 0.67112064
-0.010090054 -0.0084083676 0.67180032
-0.010124064 -0.010124058 0.67248452
-0.010158305 -0.011851311 0.67317343
-0.010192778 -0.013590336 0.67386699
-0.010227485 -0.015341252 0.67456526
-0.01026243 -0.017104059 0.67526829
-0.010297614 -0.018878967 0.67597616
-0.010333041 -0.020666063 0.67668879
-0.010368712 -0.022465527 0.67740649
-0.010404631 -0.024277449 0.67812914
-0.010440798 -0.026101977 0.67885673
-0.010477219 -0.02793926 0.67958951
-0.010513893 -0.029789358 0.6803273
-0.010550787 -0.031652391 0.68106955
-0.01058798 -0.033528626 0.68181789
-0.010625436 -0.035418123 0.68257141
-0.010663157 -0.037321031 0.6833303
-0.01070115 -0.039237529 0.68409461
-0.010739412 -0.041167736 0.6848644
-0.010777949 -0.043111801 0.68563974
-0.010816763 -0.045069873 0.68642062
-0.010855859 -0.047042072 0.68720716
-0.010895238 -0.049028546 0.68799937
-0.010934904 -0.051029533 0.68879735
-0.010974859 -0.053045124 0.68960124
-0.011015108 -0.055075556 0.69041097
-0.011055653 -0.05712086 0.69122666
-0.011096498 -0.059181303 0.69204843
-0.011137645 -0.061257035 0.69287622
-0.011179098 -0.063348234 0.69371015
-0.011220861 -0.065455019 0.6945504
-0.011262939 -0.06757763 0.69539696
-0.011305332 -0.069716185 0.69624984
-0.011348045 -0.071870983 0.69710922
-0.011391084 -0.074042022 0.69797498
-0.0097342934 0.072033763 0.70381069
-0.0089522563 0.064456254 0.68493074
-0.008286559 0.058005899 0.66885936
-0.0077129882 0.052448303 0.65501213
-0.0074636247 0.049259961 0.64899194
-0.0074859476 0.047910094 0.64953089
-0.0075084036 0.046552092 0.65007305
-0.007530971 0.045185834 0.65061784
-0.007553699 0.04381144 0.65116656
-0.0075765643 0.042428762 0.65171856
-0.007599568 0.041037679 0.65227395
-0.0076227123 0.039638102 0.65283269
-0.0076459982 0.038229972 0.65339482
-0.007669426 0.036813259 0.65396047
-0.0076929987 0.035387784 0.65452957
-0.0077167167 0.033953547 0.65510213
-0.0077405805 0.03251043 0.65567827
-0.0077645932 0.031058371 0.65625799
-0.007788755 0.029597312 0.65684128
-0.0078130681 0.028127044 0.65742826
-0.007837533 0.026647627 0.65801889
-0.0078621516 0.025158912 0.6586132
-0.0078869257 0.023660779 0.65921134
-0.0079118554 0.022153199 0.65981323
-0.0079369443 0.020636082 0.66041893
-0.0079621933 0.019109249 0.6610285
-0.0079875747 0.017572671 0.66164124
-0.0080131469 0.016026288 0.66225863
-0.0080388831 0.014469981 0.66287994
-0.008064785 0.012903661 0.66350526
-0.0080908546 0.011327207 0.66413462
-0.0081170928 0.0097405612 0.6647681
-0.0081435023 0.0081434846 0.66540569
-0.0081700841 0.0065360963 0.66604739
-0.0081968401 0.0049181283 0.66669333
-0.0082237711 0.0032894909 0.6673435
-0.0082508801 0.0016501546 0.66799802
-0.0082781687 -0 0.66865677
-0.008305639 -0.0016611516 0.66931999
-0.0083332909 -0.0033333302 0.66998756
-0.0083611282 -0.0050166547 0.6706596
-0.0083891517 -0.0067113042 0.67133617
-0.0084173642 -0.0084173679 0.67201722
-0.0084457668 -0.010134935 0.67270303
-0.0084743621 -0.011864096 0.67339331
-0.0085031511 -0.013605028 0.67408836
-0.0085321069 -0.015357792 0.6747874
-0.0085612899 -0.017122567 0.67549193
-0.008590674 -0.018899471 0.67620134
-0.0086202603 -0.020688623 0.67691565
-0.0086500514 -0.022490114 0.67763484
-0.0086800493 -0.024304122 0.67835903
-0.0087102549 -0.026130736 0.67908823
-0.0087406719 -0.027970165 0.67982268
-0.0087713031 -0.029822439 0.68056214
-0.0088021485 -0.031687737 0.68130678
-0.0088332128 -0.033566147 0.68205667
-0.0088644959 -0.035457969 0.68281198
-0.0088960025 -0.037363201 0.68357259
-0.0089277327 -0.039281994 0.68433863
-0.008959691 -0.041214585 0.68511021
-0.0089918785 -0.043161035 0.68588728
-0.0090242978 -0.045121491 0.68666995
-0.0090569519 -0.047096133 0.68745828
-0.0090898443 -0.04908517 0.68825233
-0.0091229752 -0.051088631 0.68905222
-0.0091563482 -0.053106815 0.68985796
-0.0091899671 -0.05513978 0.69066948
-0.0092238337 -0.057187796 0.69148719
-0.0092579145 -0.059250653 0.69230992
-0.009292284 -0.061329097 0.69313967
-0.0093269106 -0.063422978 0.69397563
-0.0093617961 -0.065532565 0.69481778
-0.0093969423 -0.067657977 0.69566643
-0.0094323549 -0.069799393 0.69652128
-0.0094680348 -0.071957022 0.69738269
-0.0095039858 -0.074131072 0.69825059
-0.0078215916 0.072349757 0.70484155
-0.0071906843 0.06471616 0.68580222
-0.0066539841 0.058222353 0.66960585
-0.0061918357 0.052630633 0.65565932
-0.0059765447 0.049306512 0.64916235
-0.0059944363 0.047955483 0.64970231
-0.006012436 0.046596408 0.65024543
-0.0060305432 0.045229077 0.65079188
-0.0060487599 0.043853521 0.65134156
-0.0060670874 0.042469651 0.65189469
-0.0060855262 0.041077316 0.6524511
-0.0061040772 0.039676517 0.6530109
-0.0061227428 0.038267165 0.65357423
-0.006141521 0.036849141 0.65414095
-0.0061604162 0.035422385 0.65471113
-0.0061794273 0.033986837 0.65528488
-0.0061985566 0.032542467 0.65586209
-0.0062177838 0.031088918 0.6564424
-0.006237152 0.029626489 0.65702683
-0.0062566404 0.02815488 0.65761495
-0.0062762513 0.026674062 0.65820676
-0.0062959855 0.025183946 0.65880227
-0.0063158437 0.023684412 0.65940154
-0.0063358285 0.022175431 0.66000462
-0.0063559394 0.020656794 0.66061151
-0.0063761789 0.019128531 0.66122234
-0.006396547 0.017590523 0.66183704
-0.0064170463 0.01604265 0.66245562
-0.0064376774 0.014484763 0.66307825
-0.0064584413 0.012916893 0.66370481
-0.0064793397 0.01133886 0.66433549
-0.0065003741 0.0097505748 0.66497028
-0.0065215454 0.0081519485 0.66560912
-0.0065428545 0.0065428317 0.66625226
-0.0065643038 0.0049232543 0.6668995
-0.0065858942 0.003292948 0.66755104
-0.0066076266 0.0016519129 0.66820693
-0.00662948 -2.9802322e-08 0.6688664
-0.0066515021 -0.0016628802 0.66953093
-0.0066736708 -0.0033368468 0.67019999
-0.0066959877 -0.0050219893 0.6708734
-0.006718454 -0.0067184567 0.67155141
-0.0067410721 -0.0084263384 0.67223394
-0.0067638429 -0.010145754 0.67292112
-0.0067867679 -0.011876851 0.67361295
-0.0068098488 -0.013619691 0.67430949
-0.0068330872 -0.015374422 0.6750108
-0.0068564853 -0.017141223 0.67571682
-0.0068800431 -0.018920124 0.67642784
-0.0069037648 -0.020711303 0.67714363
-0.0069276495 -0.02251488 0.67786443
-0.0069517004 -0.024330914 0.67859024
-0.006975919 -0.026159674 0.67932111
-0.0070003066 -0.028001249 0.68005711
-0.0070248656 -0.029855669 0.68079817
-0.0070495978 -0.031723201 0.6815446
-0.0070745042 -0.033603877 0.68229616
-0.0070995605 -0.035497785 0.6830523
-0.0071248221 -0.037405312 0.68381464
-0.0071502645 -0.039326459 0.68458247
-0.0071758884 -0.041261345 0.68535578
-0.0072016972 -0.043210179 0.68613452
-0.0072276923 -0.045173079 0.68691903
-0.0072538755 -0.047150165 0.68770915
-0.0072802491 -0.049141675 0.68850505
-0.0073068156 -0.051147699 0.6893068
-0.0073335762 -0.053168446 0.69011438
-0.0073605338 -0.055204004 0.69092786
-0.0073876898 -0.057254583 0.69174737
-0.0074150474 -0.05932039 0.69257301
-0.0074426089 -0.061401546 0.69340473
-0.0074703749 -0.063498229 0.69424266
-0.0074983491 -0.065610588 0.6950869
-0.0075265341 -0.067738801 0.6959374
-0.007554932 -0.069883108 0.69679439
-0.0075835446 -0.072043657 0.69765782
-0.0076123746 -0.074220657 0.69852793
-0.0058920616 0.072668761 0.70588237
-0.0054148682 0.064978421 0.68668163
-0.005009179 0.058440417 0.67035794
-0.0046600578 0.052813977 0.65631032
-0.0044866642 0.049353331 0.64933348
-0.0045001088 0.04800117 0.64987451
-0.0045136339 0.046640903 0.6504187
-0.0045272261 0.045272261 0.65096563
-0.0045409151 0.043895543 0.65151644
-0.0045546866 0.04251042 0.65207052
-0.0045685424 0.041116923 0.65262806
-0.0045824829 0.039714873 0.653189
-0.0045965086 0.03830424 0.65375334
-0.00461062 0.036884993 0.65432113
-0.0046248189 0.035456955 0.65489244
-0.0046391054 0.034020096 0.65546727
-0.0046534804 0.032574356 0.65604568
-0.0046679443 0.031119645 0.65662766
-0.004682499 0.029655844 0.65721333
-0.0046971445 0.028182864 0.65780264
-0.0047118817 0.026700646 0.65839565
-0.0047267121 0.025209129 0.65899235
-0.0047416356 0.023708194 0.65959281
-0.0047566541 0.022197723 0.66019714
-0.0047717681 0.020677656 0.66080523
-0.0047869785 0.019147933 0.66141725
-0.0048022857 0.017608374 0.6620332
-0.0048176912 0.016058981 0.66265309
-0.00483318 0.014499515 0.66327631
-0.0048487848 0.012930095 0.66390419
-0.0048644906 0.011350483 0.66453612
-0.0048802984 0.0097606182 0.66517222
-0.0048962096 0.0081603229 0.66581237
-0.0049122246 0.0065496564 0.66645682
-0.0049283453 0.0049283803 0.66710538
-0.0049445713 0.0032963455 0.66775835
-0.0049609048 0.0016536415 0.66841555
-0.0049773469 -0 0.6690771
-0.0049938983 -0.0016646385 0.66974306
-0.0050105602 -0.0033403635 0.67041349
-0.0050273333 -0.0050273538 0.6710884
-0.0050442191 -0.0067256093 0.67176783
-0.005061219 -0.0084353387 0.67245185
-0.0050783334 -0.010156661 0.67314041
-0.0050955643 -0.011889666 0.67383385
-0.0051129125 -0.013634413 0.67453182
-0.0051303795 -0.015391141 0.67523462
-0.005147947 -0.017159849 0.67594153
-0.0051656542 -0.018940747 0.67665398
-0.0051834839 -0.020733923 0.67737138
-0.005201437 -0.022539586 0.67809379
-0.0052195149 -0.024357736 0.67882121
-0.0052377186 -0.026188612 0.67955363
-0.0052560503 -0.028032273 0.68029124
-0.0052745105 -0.029888898 0.68103403
-0.0052931006 -0.031758606 0.68178207
-0.0053118225 -0.033641547 0.68253541
-0.0053306771 -0.035537839 0.68329406
-0.0053496659 -0.037447661 0.68405801
-0.0053687911 -0.039371133 0.68482757
-0.0053880527 -0.041308373 0.68560266
-0.005407454 -0.04325965 0.68638325
-0.0054269941 -0.045224965 0.68716949
-0.0054466771 -0.047204554 0.68796152
-0.0054665031 -0.049198538 0.68875921
-0.0054864739 -0.051207125 0.6895628
-0.0055065909 -0.053230345 0.69037223
-0.0055268565 -0.055268526 0.69118768
-0.0055472716 -0.057321817 0.69200909
-0.005567838 -0.059390247 0.69283658
-0.0055885576 -0.061474144 0.69367033
-0.0056094099 -0.063573301 0.69450933
-0.0056304405 -0.065688461 0.69535559
-0.0056516295 -0.067819566 0.69620812
-0.0056729787 -0.069966733 0.69706714
-0.005694489 -0.072130173 0.69793272
-0.0057161637 -0.074310124 0.69880474
-0.0039454224 0.072990328 0.70693141
-0.0036245869 0.065242559 0.68756735
-0.003352019 0.058660358 0.67111635
-0.0031175679 0.052998662 0.65696597
-0.0029939427 0.049400091 0.64950454
-0.0030029225 0.048046798 0.65004653
-0.0030119566 0.046685308 0.65059173
-0.0030210451 0.045315683 0.65114033
-0.0030301884 0.043937743 0.65169215
-0.0030393873 0.042551458 0.65224737
-0.0030486423 0.041156679 0.65280598
-0.0030579541 0.039753437 0.653368
-0.0030673223 0.038341522 0.65393341
-0.0030767487 0.036920995 0.65450233
-0.003086233 0.035491705 0.65507472
-0.0030957758 0.034053534 0.65565073
-0.003105378 0.032606453 0.65623027
-0.00311504 0.031150401 0.65681344
-0.0031247623 0.029685259 0.65740013
-0.0031345347 0.028210819 0.65798998
-0.0031443795 0.026727229 0.65858424
-0.0031542857 0.025234282 0.65918213
-0.0031642548 0.023731947 0.65978378
-0.0031742873 0.022219986 0.66038936
-0.0031843833 0.020698518 0.6609987
-0.003194544 0.019167274 0.66161191
-0.0032047697 0.017626256 0.66222906
-0.003215061 0.016075343 0.6628502
-0.0032254187 0.014514387 0.66347533
-0.0032358435 0.012943387 0.66410452
-0.0032463353 0.011362195 0.66473776
-0.0032568958 0.0097707212 0.66537517
-0.0032675252 0.0081688166 0.6660167
-0.003278224 0.0065564513 0.66666245
-0.0032889934 0.0049334764 0.66731244
-0.0032998337 0.0032998621 0.66796666
-0.0033107456 0.0016553998 0.6686253
-0.0033217298 5.9604645e-08 0.66928828
-0.0033327877 -0.0016663969 0.66995561
-0.003343907 -0.0033438802 0.67062676
-0.0033551129 -0.0050326884 0.67130309
-0.0033663942 -0.0067327619 0.67198396
-0.0033777514 -0.0084443986 0.67266947
-0.0033891858 -0.010167569 0.67335957
-0.0034006976 -0.011902452 0.67405438
-0.0034122881 -0.013649136 0.67475396
-0.0034239576 -0.015407801 0.67545819
-0.0034357077 -0.017178506 0.67616737
-0.0034475382 -0.018961459 0.67688143
-0.0034594506 -0.020756692 0.67760038
-0.0034714455 -0.022564411 0.6783244
-0.0034835243 -0.024384677 0.67905343
-0.0034956872 -0.026217639 0.67978746
-0.003507935 -0.028063476 0.68052673
-0.0035202692 -0.029922277 0.6812712
-0.0035326907 -0.03179422 0.6820209
-0.0035452 -0.033679396 0.68277586
-0.003557798 -0.035577983 0.68353629
-0.0035704861 -0.0374901 0.68430203
-0.0035832648 -0.039415926 0.68507332
-0.0035961354 -0.04135555 0.68585008
-0.003609099 -0.043309182 0.68663251
-0.0036221421 -0.045276791 0.68741977
-0.003635294 -0.047258824 0.68821359
-0.0036485419 -0.049255341 0.68901312
-0.0036618866 -0.051266402 0.68981856
-0.0036753295 -0.053292245 0.69062984
-0.0036888709 -0.055333048 0.69144714
-0.0037025127 -0.057388961 0.69227058
-0.003716256 -0.059460074 0.69309998
-0.0037301015 -0.061546654 0.69393569
-0.0037440509 -0.06364888 0.69477755
-0.0037581045 -0.065766841 0.69562578
-0.0037722643 -0.067900777 0.69648039
-0.0037865313 -0.070050806 0.69734144
-0.0038009062 -0.072217256 0.69820911
-0.0038153911 -0.074400097 0.69908333
-0.0019814791 0.073314756 0.70798981
-0.0018196978 0.06550917 0.68846107
-0.0016823342 0.0588817 0.67187983
-0.0015642585 0.053184777 0.65762687
-0.0014983953 0.04944706 0.64967644
-0.0015028937 0.048092574 0.65021944
-0.0015074194 0.046730012 0.65076572
-0.0015119723 0.045359194 0.65131533
-0.0015165528 0.043980062 0.65186822
-0.0015211612 0.042592525 0.65242457
-0.0015257928 0.041196406 0.65298361
-0.0015304575 0.039791912 0.65354669
-0.0015351509 0.038378745 0.65411323
-0.0015398732 0.036956936 0.65468323
-0.0015446246 0.035526395 0.65525681
-0.0015494055 0.034086913 0.6558339
-0.0015542159 0.03263855 0.65641457
-0.0015590563 0.031181157 0.65699887
-0.001563927 0.029714584 0.65758681
-0.0015688284 0.028238893 0.65817845
-0.0015737604 0.026753932 0.65877378
-0.0015787237 0.025259584 0.65937293
-0.0015837181 0.023755789 0.65997583
-0.0015887445 0.022242397 0.66058254
-0.0015938028 0.020719439 0.66119313
-0.0015988934 0.019186705 0.66180766
-0.0016040165 0.017644197 0.66242605
-0.0016091727 0.016091734 0.66304845
-0.0016143621 0.014529258 0.66367483
-0.0016195851 0.012956709 0.66430533
-0.0016248364 0.011373848 0.66493922
-0.0016301275 0.0097807646 0.66557789
-0.0016354532 0.0081772506 0.66622078
-0.0016408138 0.0065632463 0.66686785
-0.0016462096 0.0049386322 0.66751921
-0.0016516411 0.0033033192 0.6681748
-0.0016571085 0.0016571283 0.66883481
-0.0016626122 2.9802322e-08 0.66949916
-0.0016681526 -0.0016681254 0.67016792
-0.0016737301 -0.0033474267 0.67084122
-0.0016793449 -0.0050380528 0.67151904
-0.0016849976 -0.0067399442 0.67220128
-0.0016906884 -0.0084534585 0.67288828
-0.0016964179 -0.010178506 0.67357987
-0.0017021863 -0.011915267 0.67427617
-0.0017079939 -0.013663948 0.67497724
-0.0017138416 -0.015424579 0.67568308
-0.0017197292 -0.017197281 0.67639381
-0.0017256575 -0.018982261 0.67710942
-0.0017316268 -0.02077955 0.67782998
-0.0017376312 -0.022589207 0.67855477
-0.0017436837 -0.024411589 0.67928541
-0.0017497786 -0.026246667 0.68002105
-0.0017559162 -0.028094679 0.68076205
-0.001762097 -0.029955626 0.68150806
-0.0017683216 -0.031829804 0.68225944
-0.0017745903 -0.033717185 0.68301606
-0.0017809035 -0.035618067 0.68377817
-0.0017872618 -0.037532508 0.6845457
-0.0017936657 -0.039460659 0.68531871
-0.0018001157 -0.041402668 0.68609732
-0.0018066121 -0.043358684 0.68688154
-0.0018131557 -0.045328856 0.68767136
-0.0018197469 -0.047313422 0.68846703
-0.0018263861 -0.049312413 0.68926841
-0.001833074 -0.051326036 0.6900757
-0.001839811 -0.053354502 0.690889
-0.0018465976 -0.055397898 0.69170821
-0.0018534346 -0.057456464 0.69253349
-0.0018603225 -0.059530318 0.69336492
-0.0018672616 -0.061619639 0.69420254
-0.0018742528 -0.063724577 0.69504648
-0.0018812965 -0.06584537 0.69589669
-0.0018883857 -0.067981899 0.69675243
-0.0018955362 -0.070134819 0.69761556
-0.0019027411 -0.072304159 0.69848531
-0.001910001 -0.074490041 0.69936168
0 0.073642373 0.7090587
0 0.0657776 0.68936133
0 0.05910477 0.67264903
0 0.053372085 0.6582917
0 0.049493968 0.64984804
0 0.04813838 0.65039212
0 0.046774626 0.65093946
0 0.045402616 0.65149009
0 0.044022292 0.65204406
0 0.042633593 0.65260142
0 0.041236371 0.65316218
0 0.039830595 0.65372634
0 0.038416266 0.65429395
0 0.036993116 0.65486515
0 0.035561204 0.65543985
0 0.0341205 0.65601802
0 0.032670766 0.65659988
0 0.031212032 0.65718532
0 0.029744148 0.65777445
0 0.028267086 0.65836722
0 0.026780605 0.65896314
0 0.025284857 0.65956342
0 0.023779601 0.66016757
0 0.022264808 0.66077554
0 0.02074039 0.66138732
0 0.019206136 0.6620031
0 0.017662108 0.66262275
0 0.016108125 0.66324645
0 0.014544129 0.66387415
0 0.012969971 0.6645059
0 0.01138559 0.66514176
0 0.0097908974 0.6657818
0 0.0081857741 0.66642594
0 0.0065701008 0.66707438
0 0.0049438179 0.66772711
0 0.0033067465 0.66838408
0 0.0016588569 0.66904545
0 -0 0.66971123
0 -0.0016699135 0.67038143
0 -0.0033510327 0.67105615
0 -0.0050433874 0.67173463
0 -0.0067471862 0.67241842
0 -0.0084624588 0.67310679
0 -0.010189444 0.67379993
0 -0.011928141 0.67449772
0 -0.0136787 0.67520028
0 -0.015441298 0.67590767
0 -0.017216027 0.67661989
0 -0.019002974 0.67733711
0 -0.020802349 0.67805922
0 -0.022614151 0.6787864
0 -0.02443862 0.67951864
0 -0.026275873 0.68025601
0 -0.028126001 0.6809985
0 -0.029989213 0.68174624
0 -0.031865507 0.68249929
0 -0.033755243 0.6832577
0 -0.035658389 0.68402153
0 -0.037575155 0.68479085
0 -0.039505601 0.68556553
0 -0.041450053 0.68634593
0 -0.043408453 0.68713188
0 -0.045381129 0.68792355
0 -0.04736796 0.68872017
0 -0.049369484 0.68952352
0 -0.051385671 0.69033265
0 -0.053416699 0.69114774
0 -0.055462718 0.69196892
0 -0.057523936 0.69279617
0 -0.059600472 0.69362956
0 -0.061692506 0.69446921
0 -0.063800246 0.69531506
0 -0.06592381 0.69616735
0 -0.068063468 0.69702607
0 -0.070219338 0.69789124
0 -0.072391629 0.69876313
0 -0.074580431 0.69964153
0.0019992597 0.073972613 0.71013612
0.0018346752 0.066048324 0.69026899
0.0016951339 0.059329718 0.67342484
0.0015753133 0.053560644 0.6589613
0.0015012466 0.049541146 0.6500206
0.0015057623 0.048184395 0.65056574
0.0015103051 0.046819448 0.65111411
0.0015148757 0.045446306 0.65166575
0.0015194737 0.04406476 0.65222085
0.0015241 0.04267481 0.65277922
0.0015287544 0.041276395 0.65334111
0.0015334323 0.039869219 0.65390575
0.0015381441 0.038453639 0.6544745
0.0015428847 0.037029237 0.65504676
0.0015476547 0.035596043 0.6556226
0.0015524544 0.034153998 0.65620196
0.0015572839 0.032702982 0.65678489
0.0015621436 0.031242907 0.65737152
0.0015670336 0.029773653 0.65796185
0.0015719543 0.02829513 0.65855581
0.0015769061 0.026807427 0.65915346
0.0015818892 0.025310218 0.65975505
0.0015869038 0.023803562 0.66036034
0.0015919504 0.022287339 0.6609695
0.0015970292 0.0207614 0.66158259
0.0016021404 0.019225687 0.66219962
0.0016072845 0.017680109 0.66282052
0.0016124618 0.016124636 0.66344547
0.0016176724 0.014559031 0.66407442
0.0016229169 0.012983352 0.66470754
0.0016281954 0.011397392 0.66534466
0.0016335028 0.0098010302 0.66598535
0.0016388507 0.0081942677 0.66663086
0.0016442336 0.0065769255 0.66728067
0.0016496519 0.0049489737 0.66793472
0.0016551062 0.0033102334 0.66859305
0.0016605966 0.0016605854 0.66925585
0.0016661235 -2.9802322e-08 0.66992307
0.0016716874 -0.0016716719 0.67059463
0.0016772884 -0.0033545494 0.67127073
0.0016829274 -0.0050487518 0.67195141
0.0016886042 -0.0067544281 0.67263669
0.0016943194 -0.0084716082 0.67332661
0.0017000736 -0.010200441 0.67402112
0.0017058669 -0.011941046 0.67472047
0.0017116999 -0.013693601 0.67542458
0.0017175728 -0.015458167 0.67613351
0.0017234862 -0.017234832 0.67684728
0.0017294405 -0.019023865 0.67756605
0.0017354359 -0.020825207 0.67828977
0.0017414732 -0.022639155 0.67901856
0.0017475527 -0.02446574 0.67975241
0.0017536682 -0.02630505 0.68049061
0.0017598332 -0.028157294 0.68123478
0.0017660417 -0.03002274 0.68198425
0.0017722941 -0.0319013 0.68273896
0.001778591 -0.033793241 0.68349904
0.0017849329 -0.035698682 0.68426454
0.00179132 -0.037617713 0.68503559
0.001797753 -0.039550602 0.68581212
0.0018042325 -0.04149735 0.68659425
0.0018107588 -0.043458223 0.6873821
0.0018173325 -0.045433313 0.68817556
0.0018239541 -0.047422796 0.68897486
0.0018306242 -0.049426883 0.68978
0.0018373431 -0.051445603 0.69059104
0.0018441117 -0.053479224 0.6914081
0.00185093 -0.055527896 0.69223118
0.0018577994 -0.057591766 0.6930604
0.0018647197 -0.059671044 0.6938957
0.0018716917 -0.06176582 0.69473732
0.0018787161 -0.063876361 0.69558525
0.0018857935 -0.066002786 0.6964395
0.0018929243 -0.068145275 0.69730031
0.0019001092 -0.070304036 0.69816756
0.0019073414 -0.07247895 0.69904059
0.0019146363 -0.074670821 0.69992119
0.0040165316 0.074305862 0.71122324
0.0036845282 0.066321522 0.69118506
0.003403208 0.059556097 0.6742059
0.0031618096 0.053750783 0.65963626
0.0030053477 0.049588233 0.65019292
0.0030143964 0.04823035 0.65073907
0.0030234996 0.046864301 0.65128845
0.0030326582 0.045489877 0.65184122
0.0030418721 0.044107169 0.65239733
0.0030511422 0.042715967 0.65295684
0.0030604692 0.04131636 0.65351975
0.0030698532 0.039908081 0.65408611
0.0030792949 0.038491189 0.65465605
0.0030887946 0.037065536 0.65522933
0.0030983537 0.03563109 0.6558063
0.003107972 0.034187704 0.65638679
0.00311765 0.032735318 0.65697098
0.0031273887 0.031273901 0.65755868
0.003137188 0.029803276 0.6581502
0.0031470491 0.028323442 0.65874529
0.0031569726 0.026834279 0.65934432
0.0031669587 0.02533567 0.65994704
0.0031769974 0.023827463 0.66055292
0.0031871111 0.02230978 0.66116333
0.0031972891 0.020782381 0.66177756
0.0032075325 0.019245178 0.66239583
0.0032178415 0.017698109 0.66301805
0.0032282169 0.016141087 0.66364419
0.0032386596 0.014573961 0.66427451
0.0032491703 0.012996674 0.66490889
0.0032597492 0.011409163 0.66554737
0.0032703972 0.0098111928 0.66619003
0.0032811149 0.0082027912 0.66683698
0.0032919031 0.0065837801 0.6674881
0.0033027625 0.0049541593 0.66814351
0.0033136939 0.0033136904 0.66880327
0.0033246982 0.0016623735 0.66946733
0.0033357751 2.9802322e-08 0.67013597
0.0033469265 -0.00167346 0.67080897
0.0033581527 -0.0033581555 0.67148662
0.0033694548 -0.0050541759 0.67216867
0.0033808204 -0.0067616403 0.67285472
0.0033922757 -0.0084806979 0.67354608
0.0034038087 -0.010211438 0.67424214
0.0034154202 -0.01195398 0.67494291
0.0034271111 -0.013708442 0.67564857
0.0034388825 -0.015474975 0.67635906
0.0034507355 -0.017253667 0.67707443
0.0034626699 -0.019044697 0.67779469
0.0034746875 -0.020848095 0.67852002
0.0034867886 -0.0226641 0.67925042
0.0034989743 -0.0244928 0.67998588
0.0035112454 -0.026334316 0.68072653
0.0035236028 -0.028188795 0.6814723
0.0035360479 -0.030056417 0.6822235
0.0035485809 -0.031937242 0.68297994
0.0035612031 -0.033831418 0.68374175
0.0035739155 -0.035739154 0.68450898
0.0035867188 -0.037660509 0.68528175
0.0035996144 -0.039595753 0.68606007
0.0036126031 -0.041544944 0.68684399
0.0036256853 -0.043508232 0.68763363
0.0036388633 -0.045485795 0.68842888
0.003652123 -0.047477603 0.68922925
0.003665494 -0.049484164 0.69003624
0.0036789633 -0.051505476 0.69084918
0.0036925317 -0.05354169 0.69166809
0.0037062007 -0.055593014 0.69249314
0.0037199713 -0.057659566 0.69332427
0.0037338447 -0.059741527 0.69416159
0.0037478218 -0.061839044 0.69500518
0.0037619038 -0.063952357 0.69585514
0.0037760923 -0.066081613 0.69671148
0.0037903886 -0.068226993 0.69757432
0.0038047929 -0.070388675 0.69844371
0.0038193075 -0.072566837 0.69931972
0.0038339328 -0.074761719 0.70020247
0.0060520861 0.07464239 0.71232128
0.0055497256 0.066596746 0.69210786
0.005124371 0.059784353 0.67499286
0.0047595925 0.053942084 0.66031533
0.0045123263 0.049635619 0.65036613
0.004525925 0.048276544 0.65091324
0.0045396062 0.046909273 0.65146375
0.0045533702 0.045533717 0.65201759
0.004567218 0.044149786 0.65257478
0.0045811501 0.042757422 0.65313536
0.0045951675 0.041356534 0.6536994
0.004609271 0.039947003 0.65426683
0.0046234461 0.03852874 0.65483725
0.0046377243 0.037101805 0.65541178
0.0046520904 0.035666049 0.65598983
0.0046665459 0.034221351 0.65657145
0.0046810922 0.032767653 0.65715671
0.0046957284 0.031304866 0.65774566
0.0047104573 0.0298329 0.65833831
0.0047252784 0.028351665 0.65893465
0.004740193 0.026861072 0.65953475
0.0047552022 0.025361091 0.66013873
0.0047703069 0.023851514 0.66074646
0.0047855079 0.0223324 0.66135806
0.0048008058 0.020803511 0.6619736
0.004816202 0.019264787 0.66259313
0.0048316973 0.017716229 0.66321659
0.0048472928 0.016157657 0.66384411
0.0048629888 0.014588982 0.66447568
0.0048787869 0.013010144 0.6651113
0.0048946883 0.011420935 0.66575116
0.0049106935 0.0098213553 0.66639519
0.0049267868 0.0082113445 0.66704267
0.0049430025 0.0065906644 0.66769516
0.0049593258 0.0049593151 0.66835201
0.0049757576 0.0033171475 0.66901314
0.0049922979 0.0016641021 0.66967869
0.005008949 2.9802322e-08 0.67034864
0.0050257114 -0.0016752481 0.67102313
0.0050425865 -0.003361702 0.67170215
0.0050595752 -0.0050595999 0.67238569
0.0050766785 -0.0067688823 0.67307389
0.0050938986 -0.0084897876 0.67376673
0.0051112352 -0.010222435 0.67446434
0.0051286905 -0.011966944 0.67516667
0.0051462655 -0.013723344 0.67587388
0.0051639611 -0.015491873 0.67658591
0.0051817787 -0.017272592 0.67730284
0.0051997197 -0.019065648 0.67802471
0.0052177859 -0.020871103 0.67875159
0.0052359779 -0.022689223 0.67948365
0.0052542971 -0.024520069 0.68022072
0.0052727447 -0.02636373 0.68096298
0.0052913227 -0.028220356 0.68171048
0.005310012 -0.030090064 0.68246245
0.0053288536 -0.031973124 0.68322062
0.0053478298 -0.033869594 0.68398416
0.005366941 -0.035779595 0.68475318
0.00538619 -0.037703335 0.68552768
0.0054055774 -0.039640903 0.68630779
0.0054251044 -0.041592479 0.6870935
0.0054447735 -0.04355818 0.68788493
0.0054645855 -0.045538217 0.68868208
0.0054845423 -0.047532707 0.68948507
0.0055046454 -0.049541801 0.69029391
0.0055248966 -0.051565677 0.69110876
0.0055452972 -0.053604513 0.69192964
0.0055658491 -0.055658489 0.69275665
0.0055865534 -0.057727724 0.69358969
0.0056074131 -0.059812397 0.69442898
0.0056284284 -0.061912715 0.69527459
0.005649602 -0.0640288 0.69612658
0.0056709363 -0.066160917 0.69698495
0.0056924317 -0.068309158 0.69784987
0.0057140905 -0.07047376 0.69872141
0.0057359152 -0.072654933 0.6995995
0.0057579065 -0.074852794 0.7004844
0.0081061302 0.074981689 0.71342826
0.0074304673 0.066874176 0.69303834
0.0068587987 0.060014516 0.67578667
0.0063687884 0.054134727 0.6609993
0.0060221665 0.049682885 0.65053904
0.0060403328 0.048322648 0.65108728
0.0060586091 0.046954215 0.65163881
0.0060769962 0.045577466 0.65219373
0.0060954955 0.044192344 0.65275198
0.0061141076 0.042798758 0.65331364
0.0061328337 0.041396618 0.65387875
0.0061516748 0.039985865 0.65444732
0.0061706319 0.03856647 0.6550194
0.0061897072 0.037138283 0.655595
0.0062088999 0.035701156 0.65617424
0.0062282123 0.034255177 0.65675706
0.0062476443 0.032800138 0.65734351
0.0062671988 0.03133601 0.65793359
0.0062868763 0.029862672 0.65852737
0.0063066776 0.028380036 0.65912497
0.0063266037 0.026888072 0.65972626
0.0063466565 0.025386631 0.66033137
0.0063668364 0.023875654 0.66094041
0.0063871234 0.022354931 0.66155267
0.0064075622 0.020824581 0.6621694
0.0064281323 0.019284397 0.66279012
0.0064488347 0.017734289 0.66341496
0.0064696711 0.016174197 0.66404366
0.0064906422 0.014603943 0.66467655
0.0065117497 0.013023496 0.66531354
0.006532995 0.011432737 0.66595471
0.0065543801 0.0098315775 0.66660005
0.0065759043 0.0082198679 0.66724956
0.0065975715 0.0065975785 0.66790342
0.0066193813 0.0049645305 0.66856164
0.0066413358 0.003320694 0.66922414
0.0066634365 0.0016658604 0.66989112
0.0066856849 -0 0.67056251
0.0067080827 -0.0016770065 0.67123842
0.006730631 -0.0033652782 0.67191887
0.0067533311 -0.0050649941 0.67260391
0.0067761848 -0.0067762136 0.67329359
0.0067991936 -0.0084989965 0.67398793
0.0068223346 -0.010233492 0.67468625
0.0068456591 -0.011979908 0.67539012
0.0068691429 -0.013738275 0.67609882
0.0068927882 -0.015508741 0.67681241
0.0069165975 -0.017291486 0.67753088
0.0069405716 -0.01908654 0.67825437
0.0069647124 -0.02089417 0.67898291
0.0069890213 -0.022714317 0.67971647
0.0070135016 -0.024547249 0.68045521
0.0070381532 -0.026393026 0.68119913
0.0070629786 -0.028251916 0.68194836
0.0070879799 -0.030123919 0.68270284
0.0071131596 -0.032009184 0.68346268
0.0071385182 -0.03390798 0.68422794
0.0071640578 -0.035820246 0.68499863
0.0071897819 -0.03774637 0.68577498
0.0072156899 -0.039686263 0.68655682
0.0072417865 -0.041640252 0.68734437
0.0072680721 -0.043608457 0.68813759
0.0072945496 -0.045590907 0.68893665
0.0073212204 -0.047587931 0.68974149
0.0073480872 -0.049599588 0.69055229
0.0073751225 -0.051625848 0.6913681
0.0074023865 -0.053667277 0.69219089
0.0074298535 -0.055723906 0.69301981
0.007457525 -0.057795793 0.69385481
0.0074854032 -0.059883207 0.69469613
0.007513491 -0.061986297 0.69554371
0.0075417897 -0.064105183 0.69639772
0.0075703021 -0.066240132 0.69725823
0.007599032 -0.068391263 0.69812518
0.0076279799 -0.070558816 0.69899881
0.0076571498 -0.072742909 0.69987905
0.0076865428 -0.074943781 0.70076609
0.010178933 0.075324118 0.71454531
0.0093269842 0.067154318 0.69397748
0.0086066015 0.060246199 0.67658591
0.0079895472 0.054328889 0.66168886
0.0075349095 0.04973042 0.65071291
0.0075576608 0.04836905 0.65126216
0.0075805504 0.046999395 0.65181482
0.0076035787 0.045621485 0.65237075
0.0076267477 0.04423517 0.65293002
0.0076500578 0.042840332 0.65349287
0.0076735108 0.04143694 0.65405905
0.0076971091 0.040024996 0.65462875
0.0077208518 0.038604259 0.65520197
0.0077447421 0.037174761 0.65577871
0.0077687548 0.035736293 0.65635842
0.0077929422 0.034288943 0.65694243
0.0078172814 0.032832563 0.65752995
0.0078417733 0.031367093 0.65812123
0.007866418 0.029892385 0.65871626
0.0078912191 0.028408378 0.65931499
0.0079161767 0.026915014 0.65991753
0.0079412926 0.025412142 0.66052389
0.0079665687 0.023899734 0.66113412
0.0079920059 0.02237761 0.66174817
0.008017607 0.020845741 0.66236627
0.0080433711 0.019304097 0.66298831
0.008069302 0.017752469 0.66361427
0.0080954013 0.016190797 0.66424441
0.0081216693 0.014618993 0.66487855
0.0081481077 0.013037026 0.66551685
0.0081747202 0.011444598 0.66615933
0.008201506 0.0098417997 0.66680598
0.0082284678 0.0082284808 0.66745692
0.0082555795 0.0066044927 0.66811144
0.0082828999 0.0049697459 0.66877103
0.0083104009 0.0033241808 0.66943496
0.0083380844 0.0016676188 0.67010325
0.0083659533 2.9802322e-08 0.67077607
0.0083940104 -0.0016787946 0.67145342
0.0084222555 -0.0033689141 0.67213535
0.0084506907 -0.0050703883 0.67282188
0.0084793195 -0.0067834258 0.673513
0.0085081421 -0.008508116 0.67420882
0.0085371621 -0.010244578 0.67490947
0.0085663805 -0.011992931 0.67561483
0.0085957991 -0.013753265 0.67632508
0.0086254217 -0.015525728 0.67704016
0.0086552482 -0.01731047 0.67776024
0.0086852815 -0.01910758 0.67848533
0.0087155243 -0.020917267 0.67921549
0.0087459777 -0.02273953 0.67995071
0.0087766461 -0.024574608 0.68069112
0.0088075297 -0.02642256 0.68143672
0.0088386312 -0.028283656 0.68218756
0.0088699535 -0.030157834 0.6829437
0.0089014648 -0.032045275 0.68370456
0.008933235 -0.033946276 0.68447149
0.0089652324 -0.035860926 0.68524402
0.008997459 -0.037789345 0.68602198
0.0090299193 -0.039731652 0.68680561
0.0090626143 -0.041687995 0.68759501
0.0090955477 -0.043658614 0.68839002
0.0091287205 -0.045643568 0.68919092
0.0091621354 -0.047643065 0.68999767
0.0091957971 -0.049657285 0.69081032
0.0092297066 -0.051686347 0.69162893
0.0092638666 -0.053730398 0.69245362
0.0092982817 -0.055789679 0.69328451
0.0093329521 -0.057864279 0.69412148
0.0093678832 -0.059954435 0.69496483
0.009403076 -0.062060267 0.69581443
0.0094385343 -0.064182013 0.69667041
0.0094742607 -0.066319823 0.69753301
0.0095102601 -0.068473846 0.69840205
0.0095465323 -0.070644319 0.69927776
0.009583083 -0.072831422 0.70016015
0.0096199149 -0.075035334 0.70104945
0.012270805 0.075669974 0.71567369
0.011239409 0.067436457 0.69492358
0.010367953 0.06047973 0.67739123
0.0096219443 0.054524362 0.66238272
0.0090505499 0.049778044 0.65088713
0.0090778749 0.048415333 0.65143692
0.0091053955 0.047044545 0.65199053
0.0091330828 0.045665413 0.6525476
0.0091609387 0.044277906 0.653108
0.009188965 0.042881846 0.65367186
0.0092171635 0.041477233 0.65423912
0.0092455363 0.040064007 0.65480995
0.0092740832 0.038642049 0.65538424
0.009302807 0.03721121 0.65596217
0.0093317106 0.035771579 0.65654367
0.009360793 0.034322917 0.65712875
0.0093900571 0.032865226 0.65771747
0.0094195055 0.031398356 0.65830994
0.0094491392 0.029922277 0.6589061
0.0094789602 0.028436899 0.65950608
0.0095089693 0.026942104 0.66010976
0.0095391702 0.025437802 0.66071737
