# .PCD v0.7 - Point Cloud Data file format
VERSION 0.7
FIELDS x y z
SIZE 4 4 4
TYPE F F F
COUNT 1 1 1
WIDTH 1311
HEIGHT 1
VIEWPOINT 0 0 0 1 0 0 0
POINTS 1311
DATA ascii
-0.029848613 0.02029708 0.61292601
-0.029848613 0.01910311 0.61292595
-0.029848613 0.017909169 0.61292601
-0.029848613 0.016715229 0.61292601
-0.029848613 0.015521288 0.61292601
-0.029848613 0.014327317 0.61292601
-0.029848613 0.013133407 0.61292589
-0.029848613 0.011939436 0.61292601
-0.029848613 0.010745496 0.61292595
-0.029848613 0.0095515847 0.61292595
-0.029848613 0.0083576143 0.61292595
-0.029848613 0.0071636736 0.61292595
-0.029848613 0.005969733 0.61292595
-0.029848613 0.0047757924 0.61292595
-0.029848613 0.0035818219 0.61292595
-0.029848613 0.0023878813 0.61292595
-0.029848613 0.0011939406 0.61292601
-0.029848613 -0 0.61292595
-0.029848613 -0.0011939108 0.61292595
-0.029848613 -0.0023878813 0.61292601
-0.029848613 -0.0035818219 0.61292601
-0.029848613 -0.0047757626 0.61292601
-0.029848613 -0.0059697032 0.61292601
-0.029848613 -0.0071636736 0.61292595
-0.029848613 -0.0083576143 0.61292601
-0.029848613 -0.0095515549 0.61292601
-0.029848613 -0.010745525 0.61292601
-0.029848613 -0.011939406 0.61292595
-0.029848613 -0.013133407 0.61292601
-0.029848613 -0.014327317 0.61292595
-0.029848613 -0.015521288 0.61292601
-0.029848613 -0.016715229 0.61292595
-0.029848613 -0.017909169 0.61292595
-0.029848613 -0.01910311 0.61292595
-0.029848613 -0.02029705 0.61292595
-0.029848613 -0.021490961 0.61292601
-0.029848613 -0.022684902 0.61292595
-0.029848613 -0.023878872 0.61292595
-0.029848613 -0.025072813 0.61292601
-0.029848613 -0.026266754 0.61292595
-0.029848613 -0.027460724 0.61292601
-0.029848613 -0.028654665 0.61292595
-0.029848613 -0.029848605 0.61292595
-0.029848613 -0.031042546 0.61292601
-0.029848613 -0.032236487 0.61292601
-0.029848613 -0.033430442 0.61292601
-0.029848613 -0.034624368 0.61292589
-0.029848613 -0.035818338 0.61292601
-0.02878565 0.037181497 0.61358476
-0.02878565 0.035982072 0.61358476
-0.02878565 0.034782678 0.61358476
-0.02878565 0.033583283 0.61358476
-0.02878565 0.032383859 0.61358476
-0.02878565 0.031184465 0.61358476
-0.02878565 0.02998504 0.61358476
-0.02878565 0.028785676 0.61358476
-0.02878565 0.027586222 0.61358476
-0.02878565 0.026386827 0.61358476
-0.02878565 0.025187463 0.61358476
-0.02878565 0.023988038 0.61358476
-0.02878565 0.022788644 0.61358476
-0.02878565 0.02158922 0.61358482
-0.02878565 0.020389825 0.61358476
-0.02878565 0.019190401 0.61358476
-0.02878565 0.017991036 0.61358476
-0.02878565 0.016791672 0.61358476
-0.02878565 0.015592217 0.61358476
-0.02878565 0.014392853 0.61358476
-0.02878565 0.013193429 0.61358476
-0.02878565 0.011994034 0.61358476
-0.02878565 0.01079461 0.61358476
-0.02878565 0.0095952153 0.61358476
-0.02878565 0.0083958507 0.61358476
-0.02878565 0.0071964264 0.61358476
-0.02878565 0.0059970021 0.61358476
-0.02878565 0.0047976077 0.61358476
-0.02878565 0.0035982132 0.61358476
-0.02878565 0.0023988187 0.61358476
-0.02878565 0.0011993945 0.61358476
-0.02878565 2.9802322e-08 0.61358476
-0.02878565 -0.0011993945 0.61358476
-0.02878565 -0.0023987889 0.61358476
-0.02878565 -0.0035982132 0.61358476
-0.02878565 -0.0047975779 0.61358476
-0.02878565 -0.0059969723 0.61358476
-0.02878565 -0.0071964264 0.61358476
-0.02878565 -0.0083957911 0.61358476
-0.02878565 -0.0095952153 0.61358476
-0.02878565 -0.01079461 0.61358476
-0.02878565 -0.011994004 0.61358476
-0.02878565 -0.013193399 0.61358476
-0.02878565 -0.014392793 0.61358476
-0.02878565 -0.015592217 0.61358476
-0.02878565 -0.016791612 0.61358476
-0.02878565 -0.017991066 0.61358476
-0.02878565 -0.019190431 0.6135847
-0.02878565 -0.020389855 0.61358476
-0.02878565 -0.021589249 0.61358476
-0.02878565 -0.022788644 0.61358476
-0.02878565 -0.023988038 0.61358476
-0.02878565 -0.025187433 0.61358476
-0.02878565 -0.026386857 0.61358476
-0.02878565 -0.027586222 0.61358476
-0.02878565 -0.028785616 0.61358476
-0.02878565 -0.02998504 0.61358476
-0.02878565 -0.031184465 0.61358482
-0.02878565 -0.032383859 0.61358476
-0.02878565 -0.033583254 0.61358482
-0.02878565 -0.034782678 0.61358476
-0.02878565 -0.035982072 0.61358476
-0.027712926 0.037352204 0.61424965
-0.027712926 0.036147296 0.61424959
-0.027712926 0.034942389 0.61424959
-0.027712926 0.033737481 0.61424959
-0.027712926 0.032532573 0.61424959
-0.027712926 0.031327665 0.61424959
-0.027712926 0.030122727 0.61424965
-0.027712926 0.028917849 0.61424959
-0.027712926 0.027712941 0.61424959
-0.027712926 0.026508003 0.61424965
-0.027712926 0.025303155 0.61424959
-0.027712926 0.024098217 0.61424959
-0.027712926 0.02289328 0.61424959
-0.027712926 0.021688402 0.61424959
-0.027712926 0.020483464 0.61424959
-0.027712926 0.019278556 0.61424965
-0.027712926 0.018073648 0.61424959
-0.027712926 0.016868711 0.61424959
-0.027712926 0.015663803 0.61424959
-0.027712926 0.014458925 0.61424959
-0.027712926 0.013254046 0.61424959
-0.027712926 0.012049109 0.61424959
-0.027712926 0.010844201 0.61424959
-0.027712926 0.009639293 0.61424959
-0.027712926 0.0084343851 0.61424965
-0.027712926 0.007229507 0.61424959
-0.027712926 0.0060245693 0.61424959
-0.027712926 0.0048196316 0.61424959
-0.027712926 0.0036147535 0.61424959
-0.027712926 0.0024098158 0.61424959
-0.027712926 0.0012049079 0.61424959
-0.027712926 -2.9802322e-08 0.61424965
-0.027712926 -0.0012049377 0.61424959
-0.027712926 -0.0024098158 0.61424959
-0.027712926 -0.0036146939 0.61424959
-0.027712926 -0.0048196018 0.61424959
-0.027712926 -0.0060245395 0.61424959
-0.027712926 -0.0072294772 0.61424959
-0.027712926 -0.0084343553 0.61424959
-0.027712926 -0.009639293 0.61424959
-0.027712926 -0.010844171 0.61424959
-0.027712926 -0.012049079 0.61424959
-0.027712926 -0.013254017 0.61424959
-0.027712926 -0.014458925 0.61424965
-0.027712926 -0.015663832 0.61424959
-0.027712926 -0.01686874 0.61424959
-0.027712926 -0.018073618 0.61424959
-0.027712926 -0.019278556 0.61424959
-0.027712926 -0.020483464 0.61424959
-0.027712926 -0.021688372 0.61424965
-0.027712926 -0.02289328 0.61424959
-0.027712926 -0.024098188 0.61424959
-0.027712926 -0.025303096 0.61424959
-0.027712926 -0.026508003 0.61424959
-0.027712926 -0.027712941 0.61424959
-0.027712926 -0.028917849 0.61424959
-0.027712926 -0.030122727 0.61424959
-0.027712926 -0.031327665 0.61424959
-0.027712926 -0.032532543 0.61424959
-0.027712926 -0.033737451 0.61424959
-0.027712926 -0.034942374 0.61424959
-0.027712926 -0.036147296 0.61424959
-0.026630307 0.037524492 0.61492062
-0.026630307 0.03631407 0.61492056
-0.026630307 0.035103619 0.61492056
-0.026630307 0.033893138 0.61492062
-0.026630307 0.032682687 0.61492056
-0.026630307 0.031472206 0.61492062
-0.026630307 0.030261725 0.61492062
-0.026630307 0.029051244 0.61492062
-0.026630307 0.027840793 0.61492062
-0.026630307 0.026630282 0.61492062
-0.026630307 0.025419831 0.61492062
-0.026630307 0.02420938 0.61492056
-0.026630307 0.022998899 0.61492062
-0.026630307 0.021788448 0.61492062
-0.026630307 0.020577967 0.61492062
-0.026630307 0.019367546 0.61492062
-0.026630307 0.018157035 0.61492062
-0.026630307 0.016946554 0.61492062
-0.026630307 0.015736103 0.61492062
-0.026630307 0.014525622 0.61492056
-0.026630307 0.013315141 0.61492062
-0.026630307 0.01210469 0.61492056
-0.026630307 0.010894239 0.61492062
-0.026630307 0.0096837282 0.61492062
-0.026630307 0.0084733069 0.61492056
-0.026630307 0.007262826 0.61492062
-0.026630307 0.0060523748 0.61492062
-0.026630307 0.0048418939 0.61492056
-0.026630307 0.003631413 0.61492062
-0.026630307 0.0024209321 0.61492062
-0.026630307 0.0012104511 0.61492062
-0.026630307 2.9802322e-08 0.61492056
-0.026630307 -0.0012104809 0.61492062
-0.026630307 -0.0024209321 0.61492062
-0.026630307 -0.0036314428 0.61492062
-0.026630307 -0.0048418343 0.61492062
-0.026630307 -0.006052345 0.61492056
-0.026630307 -0.0072627962 0.61492062
-0.026630307 -0.0084732771 0.61492056
-0.026630307 -0.009683758 0.61492056
-0.026630307 -0.010894209 0.61492062
-0.026630307 -0.01210466 0.61492056
-0.026630307 -0.013315141 0.61492062
-0.026630307 -0.014525652 0.61492062
-0.026630307 -0.015736073 0.61492056
-0.026630307 -0.016946554 0.61492062
-0.026630307 -0.018157005 0.61492062
-0.026630307 -0.019367516 0.61492062
-0.026630307 -0.020577937 0.61492056
-0.026630307 -0.021788418 0.61492062
-0.026630307 -0.022998899 0.61492062
-0.026630307 -0.02420935 0.61492056
-0.026630307 -0.025419831 0.61492062
-0.026630307 -0.026630312 0.61492062
-0.026630307 -0.027840793 0.61492062
-0.026630307 -0.029051244 0.61492056
-0.026630307 -0.030261725 0.61492062
-0.026630307 -0.031472176 0.61492062
-0.026630307 -0.032682598 0.61492056
-0.026630307 -0.033893108 0.61492062
-0.026630307 -0.035103559 0.61492062
-0.026630307 -0.03631404 0.61492056
-0.025537649 0.037698478 0.61559778
-0.025537649 0.036482364 0.61559784
-0.025537649 0.03526628 0.61559778
-0.025537649 0.034050226 0.61559778
-0.025537649 0.032834142 0.61559778
-0.025537649 0.031618059 0.61559778
-0.025537649 0.030401975 0.61559784
-0.025537649 0.029185891 0.61559784
-0.025537649 0.027969807 0.61559778
-0.025537649 0.026753753 0.61559778
-0.025537649 0.02553767 0.61559778
-0.025537649 0.024321586 0.61559772
-0.025537649 0.023105502 0.61559784
-0.025537649 0.021889418 0.61559778
-0.025537649 0.020673335 0.61559778
-0.025537649 0.019457281 0.61559778
-0.025537649 0.018241197 0.61559778
-0.025537649 0.017025083 0.61559784
-0.025537649 0.015809029 0.61559784
-0.025537649 0.014592946 0.61559778
-0.025537649 0.013376862 0.61559778
-0.025537649 0.012160808 0.61559778
-0.025537649 0.010944724 0.61559772
-0.025537649 0.0097286403 0.61559778
-0.025537649 0.0085125566 0.61559778
-0.025537649 0.0072964728 0.61559778
-0.025537649 0.006080389 0.61559778
-0.025537649 0.0048643351 0.61559778
-0.025537649 0.0036482215 0.61559784
-0.025537649 0.0024321377 0.61559778
-0.025537649 0.0012160838 0.61559778
-0.025537649 -0 0.61559778
-0.025537649 -0.0012160838 0.61559772
-0.025537649 -0.0024321377 0.61559778
-0.025537649 -0.0036482215 0.61559778
-0.025537649 -0.0048643351 0.61559778
-0.025537649 -0.006080389 0.61559778
-0.025537649 -0.0072964728 0.61559778
-0.025537649 -0.0085125566 0.61559772
-0.025537649 -0.0097286403 0.61559784
-0.025537649 -0.010944724 0.61559778
-0.025537649 -0.012160808 0.61559778
-0.025537649 -0.013376862 0.61559778
-0.025537649 -0.014592946 0.61559778
-0.025537649 -0.015809029 0.61559778
-0.025537649 -0.017025113 0.61559784
-0.025537649 -0.018241197 0.61559778
-0.025537649 -0.019457281 0.61559778
-0.025537649 -0.020673335 0.61559778
-0.025537649 -0.021889418 0.61559772
-0.025537649 -0.023105532 0.61559778
-0.025537649 -0.024321586 0.61559778
-0.025537649 -0.02553767 0.61559778
-0.025537649 -0.026753753 0.61559778
-0.025537649 -0.027969807 0.61559778
-0.025537649 -0.029185891 0.61559778
-0.025537649 -0.030401975 0.61559784
-0.025537649 -0.031618059 0.61559778
-0.025537649 -0.032834142 0.61559778
-0.025537649 -0.034050196 0.61559778
-0.025537649 -0.03526628 0.61559772
-0.025537649 -0.036482379 0.61559778
-0.02443482 0.037873983 0.61628133
-0.02443482 0.036652237 0.61628127
-0.02443482 0.035430521 0.61628127
-0.02443482 0.034208745 0.61628127
-0.02443482 0.032986999 0.61628127
-0.02443482 0.031765252 0.61628133
-0.02443482 0.030543536 0.61628133
-0.02443482 0.02932179 0.61628127
-0.02443482 0.028100044 0.61628127
-0.02443482 0.026878327 0.61628127
-0.02443482 0.025656551 0.61628127
-0.02443482 0.024434805 0.61628127
-0.02443482 0.023213089 0.61628127
-0.02443482 0.021991372 0.61628127
-0.02443482 0.020769596 0.61628127
-0.02443482 0.01954785 0.61628127
-0.02443482 0.018326104 0.61628127
-0.02443482 0.017104357 0.61628127
-0.02443482 0.015882641 0.61628127
-0.02443482 0.014660895 0.61628127
-0.02443482 0.013439149 0.61628133
-0.02443482 0.012217432 0.61628133
-0.02443482 0.010995656 0.61628133
-0.02443482 0.0097739398 0.61628133
-0.02443482 0.0085521638 0.61628127
-0.02443482 0.0073304474 0.61628127
-0.02443482 0.006108731 0.61628127
-0.02443482 0.0048869848 0.61628127
-0.02443482 0.0036652386 0.61628127
-0.02443482 0.0024434924 0.61628127
-0.02443482 0.0012217462 0.61628133
-0.02443482 -2.9802322e-08 0.61628127
-0.02443482 -0.0012217462 0.61628127
-0.02443482 -0.0024434626 0.61628127
-0.02443482 -0.003665179 0.61628127
-0.02443482 -0.0048869252 0.61628127
-0.02443482 -0.0061087012 0.61628127
-0.02443482 -0.0073304474 0.61628133
-0.02443482 -0.0085522234 0.61628133
-0.02443482 -0.0097739398 0.61628127
-0.02443482 -0.010995656 0.61628127
-0.02443482 -0.012217373 0.61628127
-0.02443482 -0.013439119 0.61628127
-0.02443482 -0.014660895 0.61628127
-0.02443482 -0.015882611 0.61628127
-0.02443482 -0.017104387 0.61628127
-0.02443482 -0.018326133 0.61628127
-0.02443482 -0.01954785 0.61628133
-0.02443482 -0.020769566 0.61628133
-0.02443482 -0.021991313 0.61628127
-0.02443482 -0.023213059 0.61628127
-0.02443482 -0.024434805 0.61628127
-0.02443482 -0.025656581 0.61628133
-0.02443482 -0.026878297 0.61628133
-0.02443482 -0.028100044 0.61628133
-0.02443482 -0.02932176 0.61628127
-0.02443482 -0.030543506 0.61628127
-0.02443482 -0.031765252 0.61628127
-0.02443482 -0.032986999 0.61628127
-0.02443482 -0.034208745 0.61628127
-0.02443482 -0.035430476 0.61628127
-0.02443482 -0.036652222 0.61628127
-0.02332167 0.038051158 0.61697119
-0.02332167 0.03682366 0.61697125
-0.02332167 0.035596251 0.61697119
-0.02332167 0.034368753 0.61697119
-0.02332167 0.033141345 0.61697119
-0.02332167 0.031913877 0.61697119
-0.02332167 0.030686408 0.61697114
-0.02332167 0.02945894 0.61697119
-0.02332167 0.028231502 0.61697119
-0.02332167 0.027004033 0.61697119
-0.02332167 0.025776565 0.61697125
-0.02332167 0.024549127 0.61697119
-0.02332167 0.023321718 0.61697114
-0.02332167 0.02209422 0.61697119
-0.02332167 0.020866752 0.61697119
-0.02332167 0.019639313 0.61697119
-0.02332167 0.018411845 0.61697125
-0.02332167 0.017184407 0.61697119
-0.02332167 0.015956938 0.61697119
-0.02332167 0.01472947 0.61697119
-0.02332167 0.013502002 0.61697119
-0.02332167 0.012274593 0.61697114
-0.02332167 0.011047125 0.61697119
-0.02332167 0.0098196864 0.61697119
-0.02332167 0.0085922182 0.61697119
-0.02332167 0.0073647201 0.61697125
-0.02332167 0.0061372817 0.61697119
-0.02332167 0.0049098134 0.61697119
-0.02332167 0.003682375 0.61697119
-0.02332167 0.0024549365 0.61697119
-0.02332167 0.0012274683 0.61697114
-0.02332167 2.9802322e-08 0.61697119
-0.02332167 -0.0012274683 0.61697119
-0.02332167 -0.0024549067 0.61697119
-0.02332167 -0.003682375 0.61697114
-0.02332167 -0.0049098134 0.61697119
-0.02332167 -0.0061372519 0.61697114
-0.02332167 -0.0073647201 0.61697119
-0.02332167 -0.0085921884 0.61697119
-0.02332167 -0.0098196268 0.61697119
-0.02332167 -0.011047125 0.61697125
-0.02332167 -0.012274534 0.61697119
-0.02332167 -0.013502032 0.61697119
-0.02332167 -0.01472944 0.61697119
-0.02332167 -0.015956968 0.61697119
-0.02332167 -0.017184377 0.61697114
-0.02332167 -0.018411845 0.61697119
-0.02332167 -0.019639283 0.61697119
-0.02332167 -0.020866752 0.61697119
-0.02332167 -0.02209419 0.61697114
-0.02332167 -0.023321658 0.61697119
-0.02332167 -0.024549156 0.61697119
-0.02332167 -0.025776595 0.61697119
-0.02332167 -0.027004004 0.61697119
-0.02332167 -0.028231502 0.61697119
-0.02332167 -0.02945894 0.61697125
-0.02332167 -0.030686378 0.61697119
-0.02332167 -0.031913877 0.61697119
-0.02332167 -0.033141315 0.61697119
-0.02332167 -0.034368783 0.61697119
-0.02332167 -0.035596222 0.61697114
-0.022198113 0.038230091 0.61766803
-0.022198113 0.036996871 0.61766797
-0.022198113 0.035763621 0.61766797
-0.022198113 0.034530431 0.61766791
-0.022198113 0.033297181 0.61766797
-0.022198113 0.032063961 0.61766797
-0.022198113 0.030830741 0.61766791
-0.022198113 0.029597461 0.61766797
-0.022198113 0.028364271 0.61766791
-0.022198113 0.027131021 0.61766797
-0.022198113 0.025897801 0.61766797
-0.022198113 0.024664581 0.61766797
-0.022198113 0.023431391 0.61766797
-0.022198113 0.022198111 0.61766797
-0.022198113 0.020964891 0.61766797
-0.022198113 0.019731641 0.61766797
-0.022198113 0.018498421 0.61766797
-0.022198113 0.01726523 0.61766797
-0.022198113 0.016031951 0.61766797
-0.022198113 0.01479876 0.61766791
-0.022198113 0.013565511 0.61766797
-0.022198113 0.01233232 0.61766797
-0.022198113 0.01109907 0.61766797
-0.022198113 0.0098658502 0.61766797
-0.022198113 0.0086326003 0.61766803
-0.022198113 0.0073993802 0.61766797
-0.022198113 0.0061661303 0.61766803
-0.022198113 0.0049329102 0.61766797
-0.022198113 0.0036997199 0.61766797
-0.022198113 0.0024664402 0.61766797
-0.022198113 0.0012332499 0.61766791
-0.022198113 -0 0.61766797
-0.022198113 -0.0012332201 0.61766791
-0.022198113 -0.00246647 0.61766797
-0.022198113 -0.0036996901 0.61766797
-0.022198113 -0.0049328804 0.61766791
-0.022198113 -0.0061661303 0.61766797
-0.022198113 -0.0073993802 0.61766803
-0.022198113 -0.0086326003 0.61766797
-0.022198113 -0.0098657906 0.61766797
-0.022198113 -0.011099041 0.61766803
-0.022198113 -0.01233229 0.61766797
-0.022198113 -0.01356554 0.61766797
-0.022198113 -0.01479876 0.61766791
-0.022198113 -0.016031981 0.61766797
-0.022198113 -0.017265171 0.61766797
-0.022198113 -0.018498391 0.61766791
-0.022198113 -0.019731641 0.61766797
-0.022198113 -0.020964861 0.61766803
-0.022198113 -0.022198111 0.61766797
-0.022198113 -0.023431331 0.61766797
-0.022198113 -0.024664581 0.61766797
-0.022198113 -0.025897801 0.61766797
-0.022198113 -0.027131021 0.61766803
-0.022198113 -0.028364241 0.61766797
-0.022198113 -0.029597491 0.61766797
-0.022198113 -0.030830711 0.61766797
-0.022198113 -0.032063901 0.61766791
-0.022198113 -0.033297151 0.61766797
-0.022198113 -0.034530371 0.61766791
-0.022198113 -0.035763651 0.61766797
-0.021063887 0.037171572 0.61837095
-0.021063887 0.035932511 0.61837095
-0.021063887 0.03469348 0.61837089
-0.021063887 0.033454418 0.61837095
-0.021063887 0.032215357 0.61837095
-0.021063887 0.030976295 0.61837095
-0.021063887 0.029737234 0.61837095
-0.021063887 0.028498203 0.61837089
-0.021063887 0.027259171 0.61837095
-0.021063887 0.02602011 0.61837095
-0.021063887 0.024781048 0.61837095
-0.021063887 0.023541957 0.61837095
-0.021063887 0.022302955 0.61837089
-0.021063887 0.021063924 0.61837095
-0.021063887 0.019824862 0.61837095
-0.021063887 0.018585801 0.61837095
-0.021063887 0.01734671 0.61837089
-0.021063887 0.016107678 0.61837095
-0.021063887 0.014868647 0.61837095
-0.021063887 0.013629586 0.61837089
-0.021063887 0.012390524 0.61837095
-0.021063887 0.011151463 0.61837095
-0.021063887 0.0099124014 0.61837095
-0.021063887 0.0086733401 0.61837095
-0.021063887 0.0074343383 0.61837089
-0.021063887 0.006195277 0.61837095
-0.021063887 0.0049562156 0.61837095
-0.021063887 0.0037171543 0.61837095
-0.021063887 0.0024780929 0.61837095
-0.021063887 0.0012390912 0.61837089
-0.021063887 2.9802322e-08 0.61837095
-0.021063887 -0.0012390316 0.61837095
-0.021063887 -0.0024780929 0.61837095
-0.021063887 -0.0037171543 0.61837095
-0.021063887 -0.004956156 0.61837089
-0.021063887 -0.0061952472 0.61837095
-0.021063887 -0.0074343085 0.61837095
-0.021063887 -0.0086733699 0.61837095
-0.021063887 -0.0099124312 0.61837095
-0.021063887 -0.011151433 0.61837089
-0.021063887 -0.012390524 0.61837095
-0.021063887 -0.013629556 0.61837095
-0.021063887 -0.014868647 0.61837095
-0.021063887 -0.016107678 0.61837095
-0.021063887 -0.01734671 0.61837101
-0.021063887 -0.018585801 0.61837095
-0.021063887 -0.019824803 0.61837089
-0.021063887 -0.021063894 0.61837095
-0.021063887 -0.022302926 0.61837095
-0.021063887 -0.023541987 0.61837095
-0.021063887 -0.024781048 0.61837095
-0.021063887 -0.02602005 0.61837089
-0.021063887 -0.027259141 0.61837089
-0.021063887 -0.028498173 0.61837095
-0.021063887 -0.029737264 0.61837095
-0.021063887 -0.030976325 0.61837095
-0.021063887 -0.032215327 0.61837089
-0.021063887 -0.033454418 0.61837089
-0.021063887 -0.03469345 0.61837095
-0.021063887 -0.035932511 0.61837095
-0.019918894 0.037347943 0.6190806
-0.019918894 0.03610298 0.6190806
-0.019918894 0.034858078 0.61908054
-0.019918894 0.033613145 0.6190806
-0.019918894 0.032368183 0.6190806
-0.019918894 0.031123281 0.61908054
-0.019918894 0.029878318 0.61908054
-0.019918894 0.028633386 0.6190806
-0.019918894 0.027388483 0.6190806
-0.019918894 0.026143551 0.6190806
-0.019918894 0.024898589 0.6190806
-0.019918894 0.023653686 0.61908054
-0.019918894 0.022408754 0.6190806
-0.019918894 0.021163821 0.6190806
-0.019918894 0.019918889 0.61908054
-0.019918894 0.018673956 0.61908054
-0.019918894 0.017429024 0.6190806
-0.019918894 0.016184092 0.61908054
-0.019918894 0.014939159 0.61908054
-0.019918894 0.013694227 0.6190806
-0.019918894 0.012449324 0.6190806
-0.019918894 0.011204362 0.6190806
-0.019918894 0.0099594295 0.6190806
-0.019918894 0.0087145269 0.61908054
-0.019918894 0.0074695945 0.6190806
-0.019918894 0.0062246323 0.6190806
-0.019918894 0.0049797297 0.61908054
-0.019918894 0.0037347972 0.61908054
-0.019918894 0.002489835 0.6190806
-0.019918894 0.0012449324 0.61908054
-0.019918894 -0 0.61908054
-0.019918894 -0.0012449324 0.6190806
-0.019918894 -0.0024898648 0.61908054
-0.019918894 -0.0037347972 0.6190806
-0.019918894 -0.0049797297 0.6190806
-0.019918894 -0.0062246621 0.61908054
-0.019918894 -0.0074695945 0.61908054
-0.019918894 -0.0087145269 0.6190806
-0.019918894 -0.0099594295 0.61908054
-0.019918894 -0.011204392 0.61908054
-0.019918894 -0.012449324 0.6190806
-0.019918894 -0.013694227 0.6190806
-0.019918894 -0.014939189 0.6190806
-0.019918894 -0.016184121 0.6190806
-0.019918894 -0.017429024 0.61908054
-0.019918894 -0.018673986 0.61908054
-0.019918894 -0.019918919 0.6190806
-0.019918894 -0.021163821 0.61908054
-0.019918894 -0.022408754 0.61908054
-0.019918894 -0.023653686 0.6190806
-0.019918894 -0.024898589 0.61908054
-0.019918894 -0.026143581 0.61908054
-0.019918894 -0.027388513 0.6190806
-0.019918894 -0.028633416 0.61908054
-0.019918894 -0.029878348 0.6190806
-0.019918894 -0.031123281 0.6190806
-0.019918894 -0.032368213 0.61908054
-0.019918894 -0.033613145 0.61908054
-0.019918894 -0.034858078 0.6190806
-0.019918894 -0.03610298 0.61908054
-0.018762987 0.037526011 0.61979693
-0.018762987 0.036275119 0.61979699
-0.018762987 0.035024226 0.61979699
-0.018762987 0.033773363 0.61979699
-0.018762987 0.0325225 0.61979699
-0.018762987 0.031271636 0.61979699
-0.018762987 0.030020773 0.61979699
-0.018762987 0.02876991 0.61979699
-0.018762987 0.027519017 0.61979699
-0.018762987 0.026268184 0.61979699
-0.018762987 0.025017321 0.61979699
-0.018762987 0.023766458 0.61979699
-0.018762987 0.022515565 0.61979699
-0.018762987 0.021264702 0.61979699
-0.018762987 0.020013869 0.61979699
-0.018762987 0.018762976 0.61979699
-0.018762987 0.017512143 0.61979699
-0.018762987 0.01626125 0.61979699
-0.018762987 0.015010387 0.61979699
-0.018762987 0.013759524 0.61979699
-0.018762987 0.012508661 0.61979699
-0.018762987 0.011257797 0.61979699
-0.018762987 0.010006905 0.61979699
-0.018762987 0.0087560713 0.61979699
-0.018762987 0.0075052083 0.61979699
-0.018762987 0.0062543154 0.61979699
-0.018762987 0.0050034821 0.61979699
-0.018762987 0.0037525892 0.61979699
-0.018762987 0.0025017262 0.61979699
-0.018762987 0.0012508631 0.61979699
-0.018762987 -0 0.61979699
-0.018762987 -0.0012508631 0.61979699
-0.018762987 -0.0025017262 0.61979699
-0.018762987 -0.0037525892 0.61979699
-0.018762987 -0.0050034523 0.61979699
-0.018762987 -0.0062543154 0.61979699
-0.018762987 -0.0075051785 0.61979699
-0.018762987 -0.0087560415 0.61979699
-0.018762987 -0.010006934 0.61979693
-0.018762987 -0.011257768 0.61979699
-0.018762987 -0.012508631 0.61979699
-0.018762987 -0.013759494 0.61979699
-0.018762987 -0.015010387 0.61979699
-0.018762987 -0.01626122 0.61979699
-0.018762987 -0.017512113 0.61979699
-0.018762987 -0.018763006 0.61979699
-0.018762987 -0.020013809 0.61979699
-0.018762987 -0.021264702 0.61979693
-0.018762987 -0.022515565 0.61979699
-0.018762987 -0.023766428 0.61979693
-0.018762987 -0.025017262 0.61979699
-0.018762987 -0.026268154 0.61979699
-0.018762987 -0.027519047 0.61979699
-0.018762987 -0.028769881 0.61979699
-0.018762987 -0.030020803 0.61979699
-0.018762987 -0.031271607 0.61979699
-0.018762987 -0.0325225 0.61979699
-0.018762987 -0.033773363 0.61979693
-0.018762987 -0.035024256 0.61979699
-0.018762987 -0.036275089 0.61979693
-0.017596006 0.037705749 0.62052023
-0.017596006 0.036448896 0.62052023
-0.017596006 0.035192043 0.62052023
-0.017596006 0.033935159 0.62052023
-0.017596006 0.032678276 0.62052023
-0.017596006 0.031421483 0.62052023
-0.017596006 0.030164599 0.62052023
-0.017596006 0.028907746 0.62052023
-0.017596006 0.027650893 0.62052023
-0.017596006 0.026394039 0.62052023
-0.017596006 0.025137126 0.62052023
-0.017596006 0.023880273 0.62052029
-0.017596006 0.02262342 0.62052023
-0.017596006 0.021366566 0.62052029
-0.017596006 0.020109743 0.62052023
-0.017596006 0.01885286 0.62052023
-0.017596006 0.017596006 0.62052023
-0.017596006 0.016339123 0.62052023
-0.017596006 0.0150823 0.62052023
-0.017596006 0.013825417 0.62052023
-0.017596006 0.012568593 0.62052023
-0.017596006 0.01131174 0.62052023
-0.017596006 0.010054886 0.62052023
-0.017596006 0.0087979734 0.62052023
-0.017596006 0.0075411499 0.62052023
-0.017596006 0.0062842965 0.62052023
-0.017596006 0.0050274432 0.62052029
-0.017596006 0.00377056 0.62052023
-0.017596006 0.0025137067 0.62052029
-0.017596006 0.0012568533 0.62052023
-0.017596006 -0 0.62052023
-0.017596006 -0.0012568533 0.62052023
-0.017596006 -0.0025137067 0.62052023
-0.017596006 -0.0037705898 0.62052023
-0.017596006 -0.0050274134 0.62052023
-0.017596006 -0.0062842667 0.62052023
-0.017596006 -0.0075411499 0.62052023
-0.017596006 -0.0087980032 0.62052023
-0.017596006 -0.010054857 0.62052023
-0.017596006 -0.01131174 0.62052023
-0.017596006 -0.012568563 0.62052023
-0.017596006 -0.013825446 0.62052029
-0.017596006 -0.0150823 0.62052023
-0.017596006 -0.016339183 0.62052029
-0.017596006 -0.017595977 0.62052023
-0.017596006 -0.01885286 0.62052023
-0.017596006 -0.020109713 0.62052023
-0.017596006 -0.021366566 0.62052023
-0.017596006 -0.02262345 0.62052023
-0.017596006 -0.023880303 0.62052023
-0.017596006 -0.025137126 0.62052023
-0.017596006 -0.02639401 0.62052023
-0.017596006 -0.027650833 0.62052023
-0.017596006 -0.028907716 0.62052023
-0.017596006 -0.03016457 0.62052023
-0.017596006 -0.031421453 0.62052023
-0.017596006 -0.032678306 0.62052023
-0.017596006 -0.033935159 0.62052023
-0.017596006 -0.035192013 0.62052029
-0.017596006 -0.036448866 0.62052023
-0.01641779 0.037887216 0.62125045
-0.01641779 0.036624312 0.62125045
-0.01641779 0.035361439 0.62125045
-0.01641779 0.034098476 0.62125051
-0.01641779 0.032835573 0.62125045
-0.01641779 0.0315727 0.62125045
-0.01641779 0.030309767 0.62125045
-0.01641779 0.029046893 0.62125045
-0.01641779 0.02778396 0.62125051
-0.01641779 0.026521057 0.62125051
-0.01641779 0.025258183 0.62125051
-0.01641779 0.023995191 0.62125051
-0.01641779 0.022732317 0.62125051
-0.01641779 0.021469444 0.62125051
-0.01641779 0.020206511 0.62125045
-0.01641779 0.018943608 0.62125045
-0.01641779 0.017680705 0.62125051
-0.01641779 0.016417801 0.62125051
-0.01641779 0.015154898 0.62125051
-0.01641779 0.013891965 0.62125045
-0.01641779 0.012629062 0.62125045
-0.01641779 0.011366189 0.62125051
-0.01641779 0.010103256 0.62125051
-0.01641779 0.0088403523 0.62125045
-0.01641779 0.0075774491 0.62125051
-0.01641779 0.0063145161 0.62125051
-0.01641779 0.0050516427 0.62125045
-0.01641779 0.0037887096 0.62125045
-0.01641779 0.0025258064 0.62125045
-0.01641779 0.0012629032 0.62125051
-0.01641779 -0 0.62125051
-0.01641779 -0.001262933 0.62125045
-0.01641779 -0.0025257766 0.62125051
-0.01641779 -0.0037887096 0.62125045
-0.01641779 -0.0050516129 0.62125051
-0.01641779 -0.0063145459 0.62125051
-0.01641779 -0.0075774491 0.62125051
-0.01641779 -0.0088403225 0.62125051
-0.01641779 -0.010103226 0.62125045
-0.01641779 -0.011366189 0.62125051
-0.01641779 -0.012629062 0.62125051
-0.01641779 -0.013891965 0.62125051
-0.01641779 -0.015154898 0.62125051
-0.01641779 -0.016417801 0.62125051
-0.01641779 -0.017680705 0.62125051
-0.01641779 -0.018943608 0.62125045
-0.01641779 -0.020206481 0.62125045
-0.01641779 -0.021469444 0.62125051
-0.01641779 -0.022732317 0.62125051
-0.01641779 -0.023995221 0.62125051
-0.01641779 -0.025258124 0.62125045
-0.01641779 -0.026521027 0.62125045
-0.01641779 -0.02778396 0.62125051
-0.01641779 -0.029046863 0.62125045
-0.01641779 -0.030309737 0.62125045
-0.01641779 -0.03157267 0.62125045
-0.01641779 -0.032835573 0.62125045
-0.01641779 -0.034098506 0.62125051
-0.01641779 -0.035361379 0.62125051
-0.01641779 -0.036624312 0.62125045
-0.015228178 0.03807047 0.62198776
-0.015228178 0.036801457 0.62198776
-0.015228178 0.035532445 0.62198776
-0.015228178 0.034263402 0.62198782
-0.015228178 0.032994419 0.62198776
-0.015228178 0.031725377 0.62198782
-0.015228178 0.030456364 0.62198776
-0.015228178 0.029187351 0.62198782
-0.015228178 0.027918339 0.62198776
-0.015228178 0.026649326 0.62198776
-0.015228178 0.025380313 0.62198776
-0.015228178 0.024111301 0.62198776
-0.015228178 0.022842288 0.62198776
-0.015228178 0.021573305 0.62198776
-0.015228178 0.020304203 0.62198782
-0.015228178 0.01903522 0.62198782
-0.015228178 0.017766207 0.62198776
-0.015228178 0.016497165 0.62198776
-0.015228178 0.015228182 0.62198782
-0.015228178 0.013959169 0.62198776
-0.015228178 0.012690127 0.62198776
-0.015228178 0.011421144 0.62198776
-0.015228178 0.010152131 0.62198776
-0.015228178 0.0088830888 0.62198782
-0.015228178 0.0076141059 0.62198776
-0.015228178 0.0063450634 0.62198782
-0.015228178 0.005076021 0.62198782
-0.015228178 0.0038070381 0.62198776
-0.015228178 0.0025380552 0.62198782
-0.015228178 0.0012690127 0.62198776
-0.015228178 -0 0.62198776
-0.015228178 -0.0012690127 0.62198776
-0.015228178 -0.0025380254 0.62198776
-0.015228178 -0.0038070381 0.6219877
-0.015228178 -0.0050760508 0.62198782
-0.015228178 -0.0063450634 0.62198776
-0.015228178 -0.0076141059 0.62198776
-0.015228178 -0.0088830888 0.62198782
-0.015228178 -0.010152131 0.62198782
-0.015228178 -0.011421114 0.62198776
-0.015228178 -0.012690127 0.62198776
-0.015228178 -0.013959169 0.62198776
-0.015228178 -0.015228152 0.62198776
-0.015228178 -0.016497165 0.62198776
-0.015228178 -0.017766207 0.62198776
-0.015228178 -0.01903522 0.62198782
-0.015228178 -0.020304233 0.62198782
-0.015228178 -0.021573275 0.62198776
-0.015228178 -0.022842258 0.62198782
-0.015228178 -0.024111271 0.62198782
-0.015228178 -0.025380284 0.62198776
-0.015228178 -0.026649296 0.62198776
-0.015228178 -0.027918309 0.62198776
-0.015228178 -0.029187322 0.62198776
-0.015228178 -0.030456364 0.62198782
-0.015228178 -0.031725317 0.62198776
-0.015228178 -0.03299439 0.62198782
-0.015228178 -0.034263402 0.62198782
-0.015228178 -0.035532385 0.62198776
-0.014027004 0.038255483 0.62273222
-0.014027004 0.036980301 0.62273222
-0.014027004 0.035705119 0.62273228
-0.014027004 0.034429967 0.62273222
-0.014027004 0.033154756 0.62273228
-0.014027004 0.031879574 0.62273222
-0.014027004 0.030604362 0.62273222
-0.014027004 0.029329211 0.62273222
-0.014027004 0.028053999 0.62273222
-0.014027004 0.026778847 0.62273222
-0.014027004 0.025503635 0.62273222
-0.014027004 0.024228454 0.62273222
-0.014027004 0.022953242 0.62273222
-0.014027004 0.02167809 0.62273222
-0.014027004 0.020402908 0.62273228
-0.014027004 0.019127756 0.62273222
-0.014027004 0.017852545 0.62273222
-0.014027004 0.016577363 0.62273222
-0.014027004 0.015302181 0.62273228
-0.014027004 0.014026999 0.62273222
-0.014027004 0.012751848 0.62273228
-0.014027004 0.011476666 0.62273222
-0.014027004 0.010201454 0.62273228
-0.014027004 0.0089262724 0.62273222
-0.014027004 0.0076510906 0.62273222
-0.014027004 0.0063759089 0.62273222
-0.014027004 0.0051007569 0.62273228
-0.014027004 0.0038255751 0.62273222
-0.014027004 0.0025503635 0.62273222
-0.014027004 0.0012751818 0.62273222
-0.014027004 -0 0.62273228
-0.014027004 -0.001275152 0.62273222
-0.014027004 -0.0025503635 0.62273228
-0.014027004 -0.0038255453 0.62273222
-0.014027004 -0.0051007569 0.62273222
-0.014027004 -0.0063759089 0.62273222
-0.014027004 -0.0076511204 0.62273228
-0.014027004 -0.0089262724 0.62273222
-0.014027004 -0.010201454 0.62273228
-0.014027004 -0.011476636 0.62273222
-0.014027004 -0.012751818 0.62273216
-0.014027004 -0.014027029 0.62273222
-0.014027004 -0.015302211 0.62273228
-0.014027004 -0.016577363 0.62273222
-0.014027004 -0.017852515 0.62273222
-0.014027004 -0.019127727 0.62273222
-0.014027004 -0.020402938 0.62273228
-0.014027004 -0.02167809 0.62273228
-0.014027004 -0.022953242 0.62273216
-0.014027004 -0.024228454 0.62273222
-0.014027004 -0.025503635 0.62273228
-0.014027004 -0.026778817 0.62273222
-0.014027004 -0.028053999 0.62273222
-0.014027004 -0.029329181 0.62273222
-0.014027004 -0.030604362 0.62273228
-0.014027004 -0.031879544 0.62273222
-0.014027004 -0.033154726 0.62273222
-0.014027004 -0.034429938 0.62273222
-0.014027004 -0.035705149 0.62273228
-0.012814097 0.037160873 0.62348402
-0.012814097 0.035879463 0.62348396
-0.012814097 0.034598053 0.62348402
-0.012814097 0.033316672 0.62348396
-0.012814097 0.032035232 0.62348396
-0.012814097 0.030753851 0.62348402
-0.012814097 0.029472411 0.62348396
-0.012814097 0.028191 0.62348402
-0.012814097 0.02690962 0.62348396
-0.012814097 0.025628179 0.62348402
-0.012814097 0.024346799 0.62348396
-0.012814097 0.023065418 0.62348396
-0.012814097 0.021783948 0.62348402
-0.012814097 0.020502567 0.62348396
-0.012814097 0.019221127 0.62348396
-0.012814097 0.017939746 0.62348396
-0.012814097 0.016658336 0.62348396
-0.012814097 0.015376925 0.62348402
-0.012814097 0.014095515 0.62348396
-0.012814097 0.012814105 0.62348396
-0.012814097 0.011532694 0.62348396
-0.012814097 0.010251254 0.62348396
-0.012814097 0.0089698732 0.62348396
-0.012814097 0.0076884329 0.62348396
-0.012814097 0.0064070523 0.62348396
-0.012814097 0.0051256716 0.62348396
-0.012814097 0.0038442314 0.62348396
-0.012814097 0.0025628507 0.62348396
-0.012814097 0.0012814105 0.62348396
-0.012814097 -0 0.62348396
-0.012814097 -0.0012813807 0.6234839
-0.012814097 -0.0025628209 0.62348396
-0.012814097 -0.0038442016 0.62348396
-0.012814097 -0.0051256418 0.62348396
-0.012814097 -0.0064070225 0.62348396
-0.012814097 -0.0076884329 0.6234839
-0.012814097 -0.0089698434 0.62348396
-0.012814097 -0.010251284 0.6234839
-0.012814097 -0.011532694 0.62348396
-0.012814097 -0.012814075 0.62348396
-0.012814097 -0.014095515 0.62348396
-0.012814097 -0.015376925 0.62348396
-0.012814097 -0.016658306 0.62348402
-0.012814097 -0.017939746 0.62348396
-0.012814097 -0.019221097 0.62348396
-0.012814097 -0.020502567 0.62348396
-0.012814097 -0.021783948 0.62348396
-0.012814097 -0.023065388 0.62348396
-0.012814097 -0.024346769 0.62348396
-0.012814097 -0.025628179 0.62348396
-0.012814097 -0.02690959 0.62348396
-0.012814097 -0.028191 0.62348396
-0.012814097 -0.02947244 0.62348396
-0.012814097 -0.030753821 0.62348396
-0.012814097 -0.032035202 0.6234839
-0.012814097 -0.033316672 0.62348396
-0.012814097 -0.034598053 0.62348402
-0.012814097 -0.035879493 0.62348396
-0.011589318 0.037343353 0.6242435
-0.011589318 0.036055684 0.6242435
-0.011589318 0.034767956 0.6242435
-0.011589318 0.033480227 0.6242435
-0.011589318 0.032192558 0.6242435
-0.011589318 0.03090483 0.6242435
-0.011589318 0.029617161 0.6242435
-0.011589318 0.028329432 0.6242435
-0.011589318 0.027041763 0.6242435
-0.011589318 0.025754064 0.6242435
-0.011589318 0.024466366 0.6242435
-0.011589318 0.023178637 0.6242435
-0.011589318 0.021890938 0.6242435
-0.011589318 0.02060324 0.6242435
-0.011589318 0.019315541 0.6242435
-0.011589318 0.018027812 0.6242435
-0.011589318 0.016740143 0.6242435
-0.011589318 0.015452415 0.6242435
-0.011589318 0.014164746 0.6242435
-0.011589318 0.012877047 0.6242435
-0.011589318 0.011589348 0.6242435
-0.011589318 0.01030159 0.62424344
-0.011589318 0.0090139508 0.6242435
-0.011589318 0.0077261925 0.6242435
-0.011589318 0.0064385235 0.6242435
-0.011589318 0.005150795 0.6242435
-0.011589318 0.003863126 0.6242435
-0.011589318 0.0025753677 0.6242435
-0.011589318 0.0012877285 0.6242435
-0.011589318 -2.9802322e-08 0.6242435
-0.011589318 -0.0012876987 0.6242435
-0.011589318 -0.0025754273 0.6242435
-0.011589318 -0.0038630962 0.62424356
-0.011589318 -0.0051508546 0.6242435
-0.011589318 -0.0064384639 0.6242435
-0.011589318 -0.0077262223 0.6242435
-0.011589318 -0.0090138912 0.6242435
-0.011589318 -0.01030162 0.6242435
-0.011589318 -0.011589289 0.6242435
-0.011589318 -0.012877047 0.6242435
-0.011589318 -0.014164686 0.6242435
-0.011589318 -0.015452445 0.6242435
-0.011589318 -0.016740113 0.62424344
-0.011589318 -0.018027842 0.6242435
-0.011589318 -0.019315511 0.6242435
-0.011589318 -0.02060324 0.62424344
-0.011589318 -0.021890908 0.6242435
-0.011589318 -0.023178637 0.6242435
-0.011589318 -0.024466336 0.6242435
-0.011589318 -0.025754035 0.6242435
-0.011589318 -0.027041733 0.6242435
-0.011589318 -0.028329462 0.6242435
-0.011589318 -0.029617131 0.6242435
-0.011589318 -0.030904859 0.6242435
-0.011589318 -0.032192558 0.6242435
-0.011589318 -0.033480257 0.6242435
-0.011589318 -0.034767956 0.6242435
-0.011589318 -0.036055684 0.6242435
-0.010352422 0.037527561 0.62501007
-0.010352422 0.036233485 0.62501013
-0.010352422 0.034939438 0.62501007
-0.010352422 0.033645362 0.62501013
-0.010352422 0.032351315 0.62501013
-0.010352422 0.031057268 0.62501007
-0.010352422 0.029763192 0.62501013
-0.010352422 0.028469145 0.62501013
-0.010352422 0.027175099 0.62501013
-0.010352422 0.025881052 0.62501013
-0.010352422 0.024587035 0.62501007
-0.010352422 0.023292959 0.62501007
-0.010352422 0.021998912 0.62501007
-0.010352422 0.020704865 0.62501007
-0.010352422 0.019410789 0.62501007
-0.010352422 0.018116772 0.62501007
-0.010352422 0.016822696 0.62501013
-0.010352422 0.015528619 0.62501013
-0.010352422 0.014234602 0.62501007
-0.010352422 0.012940526 0.62501013
-0.010352422 0.011646479 0.62501013
-0.010352422 0.010352403 0.62501013
-0.010352422 0.0090583563 0.62501013
-0.010352422 0.0077643394 0.62501013
-0.010352422 0.0064702332 0.62501013
-0.010352422 0.0051762462 0.62501007
-0.010352422 0.0038821995 0.62501007
-0.010352422 0.0025881231 0.62501007
-0.010352422 0.0012940764 0.62501007
-0.010352422 -0 0.62501007
-0.010352422 -0.0012940168 0.62501007
-0.010352422 -0.0025880933 0.62501007
-0.010352422 -0.0038821697 0.62501013
-0.010352422 -0.0051761866 0.62501007
-0.010352422 -0.0064702928 0.62501007
-0.010352422 -0.0077643096 0.62501013
-0.010352422 -0.0090583563 0.62501007
-0.010352422 -0.010352433 0.62501013
-0.010352422 -0.011646479 0.62501013
-0.010352422 -0.012940526 0.62501013
-0.010352422 -0.014234602 0.62501013
-0.010352422 -0.015528649 0.62501013
-0.010352422 -0.016822696 0.62501013
-0.010352422 -0.018116742 0.62501013
-0.010352422 -0.019410759 0.62501007
-0.010352422 -0.020704836 0.62501007
-0.010352422 -0.021998882 0.62501007
-0.010352422 -0.023292959 0.62501007
-0.010352422 -0.024587005 0.62501013
-0.010352422 -0.025881052 0.62501007
-0.010352422 -0.027175099 0.62501013
-0.010352422 -0.028469145 0.62501007
-0.010352422 -0.029763192 0.62501007
-0.010352422 -0.031057268 0.62501013
-0.010352422 -0.032351315 0.62501013
-0.010352422 -0.033645391 0.62501013
-0.010352422 -0.034939438 0.62501013
-0.010352422 -0.036233425 0.62501007
-0.0091032637 0.037713528 0.62578428
-0.0091032637 0.036413074 0.62578428
-0.0091032637 0.03511259 0.62578434
-0.0091032637 0.033812135 0.62578428
-0.0091032637 0.032511652 0.62578434
-0.0091032637 0.031211197 0.62578428
-0.0091032637 0.029910713 0.62578428
-0.0091032637 0.028610259 0.62578428
-0.0091032637 0.027309805 0.62578434
-0.0091032637 0.026009351 0.62578428
-0.0091032637 0.024708837 0.62578428
-0.0091032637 0.023408383 0.62578428
-0.0091032637 0.022107929 0.62578428
-0.0091032637 0.020807505 0.62578428
-0.0091032637 0.019506961 0.62578434
-0.0091032637 0.018206537 0.62578428
-0.0091032637 0.016906053 0.62578428
-0.0091032637 0.015605599 0.62578428
-0.0091032637 0.014305115 0.62578434
-0.0091032637 0.01300469 0.62578428
-0.0091032637 0.011704177 0.62578428
-0.0091032637 0.010403752 0.62578428
-0.0091032637 0.0091032386 0.62578428
-0.0091032637 0.007802844 0.62578428
-0.0091032637 0.0065023303 0.62578428
-0.0091032637 0.0052018762 0.62578428
-0.0091032637 0.0039013922 0.62578428
-0.0091032637 0.0026009381 0.62578428
-0.0091032637 0.0013004541 0.62578428
-0.0091032637 2.9802322e-08 0.62578428
-0.0091032637 -0.0013004839 0.62578428
-0.0091032637 -0.0026009381 0.62578428
-0.0091032637 -0.0039013922 0.62578428
-0.0091032637 -0.0052018166 0.62578428
-0.0091032637 -0.0065023601 0.62578428
-0.0091032637 -0.0078027844 0.62578428
-0.0091032637 -0.0091032386 0.62578428
-0.0091032637 -0.010403752 0.62578428
-0.0091032637 -0.011704206 0.62578428
-0.0091032637 -0.013004631 0.62578428
-0.0091032637 -0.014305115 0.62578428
-0.0091032637 -0.015605628 0.62578428
-0.0091032637 -0.016906053 0.62578428
-0.0091032637 -0.018206507 0.62578428
-0.0091032637 -0.019506991 0.62578428
-0.0091032637 -0.020807475 0.62578434
-0.0091032637 -0.022107929 0.62578428
-0.0091032637 -0.023408383 0.62578428
-0.0091032637 -0.024708837 0.62578428
-0.0091032637 -0.026009351 0.62578434
-0.0091032637 -0.027309775 0.62578428
-0.0091032637 -0.028610229 0.62578428
-0.0091032637 -0.029910713 0.62578428
-0.0091032637 -0.031211197 0.62578434
-0.0091032637 -0.032511652 0.62578428
-0.0091032637 -0.033812106 0.62578428
-0.0091032637 -0.03511256 0.62578428
-0.0091032637 -0.036413074 0.62578434
-0.0078416634 0.037901372 0.62656623
-0.0078416634 0.03659445 0.62656617
-0.0078416634 0.035287499 0.62656617
-0.0078416634 0.033980548 0.62656623
-0.0078416634 0.032673597 0.62656617
-0.0078416634 0.031366646 0.62656617
-0.0078416634 0.030059695 0.62656623
-0.0078416634 0.028752804 0.62656623
-0.0078416634 0.027445853 0.62656623
-0.0078416634 0.026138842 0.62656623
-0.0078416634 0.024831951 0.62656617
-0.0078416634 0.023525 0.62656617
-0.0078416634 0.022218078 0.62656617
-0.0078416634 0.020911098 0.62656617
-0.0078416634 0.019604146 0.62656617
-0.0078416634 0.018297225 0.62656623
-0.0078416634 0.016990304 0.62656623
-0.0078416634 0.015683293 0.62656617
-0.0078416634 0.014376402 0.62656617
-0.0078416634 0.013069451 0.62656617
-0.0078416634 0.0117625 0.62656623
-0.0078416634 0.010455549 0.62656617
-0.0078416634 0.0091485977 0.62656617
-0.0078416634 0.0078416765 0.62656617
-0.0078416634 0.0065347552 0.62656623
-0.0078416634 0.0052277446 0.62656617
-0.0078416634 0.0039208233 0.62656623
-0.0078416634 0.0026139021 0.62656617
-0.0078416634 0.001306951 0.62656623
-0.0078416634 2.9802322e-08 0.62656617
-0.0078416634 -0.001306951 0.62656617
-0.0078416634 -0.0026139021 0.62656617
-0.0078416634 -0.0039207935 0.62656617
-0.0078416634 -0.0052277446 0.62656623
-0.0078416634 -0.0065346956 0.62656617
-0.0078416634 -0.0078416467 0.62656617
-0.0078416634 -0.0091485977 0.62656623
-0.0078416634 -0.010455549 0.62656623
-0.0078416634 -0.0117625 0.62656617
-0.0078416634 -0.013069451 0.62656617
-0.0078416634 -0.014376372 0.62656617
-0.0078416634 -0.015683293 0.62656623
-0.0078416634 -0.016990274 0.62656623
-0.0078416634 -0.018297225 0.62656623
-0.0078416634 -0.019604146 0.62656617
-0.0078416634 -0.020911098 0.62656623
-0.0078416634 -0.022218049 0.62656617
-0.0078416634 -0.023525 0.62656617
-0.0078416634 -0.024831951 0.62656623
-0.0078416634 -0.026138842 0.62656617
-0.0078416634 -0.027445793 0.62656623
-0.0078416634 -0.028752774 0.62656617
-0.0078416634 -0.030059695 0.62656617
-0.0078416634 -0.031366646 0.62656623
-0.0078416634 -0.032673597 0.62656623
-0.0078416634 -0.033980548 0.62656617
-0.0078416634 -0.035287499 0.62656617
-0.0078416634 -0.036594421 0.62656617
-0.0065674316 0.038091123 0.62735593
-0.0065674316 0.036777586 0.62735593
-0.0065674316 0.035464108 0.62735593
-0.0065674316 0.03415066 0.62735593
-0.0065674316 0.032837182 0.62735593
-0.0065674316 0.031523675 0.62735593
-0.0065674316 0.030210197 0.62735593
-0.0065674316 0.028896689 0.62735599
-0.0065674316 0.027583212 0.62735593
-0.0065674316 0.026269764 0.62735593
-0.0065674316 0.024956197 0.62735593
-0.0065674316 0.023642749 0.62735593
-0.0065674316 0.022329301 0.62735593
-0.0065674316 0.021015793 0.62735599
-0.0065674316 0.019702315 0.62735593
-0.0065674316 0.018388808 0.62735593
-0.0065674316 0.01707533 0.62735593
-0.0065674316 0.015761852 0.62735593
-0.0065674316 0.014448375 0.62735593
-0.0065674316 0.013134867 0.62735593
-0.0065674316 0.011821389 0.62735593
-0.0065674316 0.010507911 0.62735593
-0.0065674316 0.0091944039 0.62735593
-0.0065674316 0.0078809261 0.62735593
-0.0065674316 0.0065674782 0.62735593
-0.0065674316 0.0052539408 0.62735593
-0.0065674316 0.0039404631 0.62735593
-0.0065674316 0.0026269853 0.62735593
-0.0065674316 0.0013135076 0.62735593
-0.0065674316 2.9802322e-08 0.62735593
-0.0065674316 -0.0013134778 0.62735593
-0.0065674316 -0.0026269853 0.62735593
-0.0065674316 -0.0039404333 0.62735593
-0.0065674316 -0.005253911 0.62735593
-0.0065674316 -0.0065674484 0.62735593
-0.0065674316 -0.0078809261 0.62735593
-0.0065674316 -0.0091944039 0.62735593
-0.0065674316 -0.010507882 0.62735593
-0.0065674316 -0.011821389 0.62735599
-0.0065674316 -0.013134897 0.62735593
-0.0065674316 -0.014448345 0.62735593
-0.0065674316 -0.015761852 0.62735593
-0.0065674316 -0.01707533 0.62735593
-0.0065674316 -0.018388808 0.62735593
-0.0065674316 -0.019702315 0.62735599
-0.0065674316 -0.021015793 0.62735593
-0.0065674316 -0.022329271 0.62735593
-0.0065674316 -0.023642778 0.62735593
-0.0065674316 -0.024956226 0.62735599
-0.0065674316 -0.026269734 0.62735593
-0.0065674316 -0.027583212 0.62735593
-0.0065674316 -0.028896689 0.62735593
-0.0065674316 -0.030210167 0.62735593
-0.0065674316 -0.031523675 0.62735593
-0.0065674316 -0.032837152 0.62735593
-0.0065674316 -0.03415063 0.62735593
-0.0065674316 -0.035464138 0.62735593
-0.0052803783 0.038282752 0.62815362
-0.0052803783 0.036962628 0.62815362
-0.0052803783 0.035642564 0.62815362
-0.0052803783 0.03432247 0.62815362
-0.0052803783 0.033002377 0.62815368
-0.0052803783 0.031682283 0.62815362
-0.0052803783 0.030362159 0.62815368
-0.0052803783 0.029042095 0.62815362
-0.0052803783 0.027722001 0.62815368
-0.0052803783 0.026401907 0.62815368
-0.0052803783 0.025081813 0.62815362
-0.0052803783 0.023761719 0.62815362
-0.0052803783 0.022441596 0.62815368
-0.0052803783 0.021121532 0.62815362
-0.0052803783 0.019801438 0.62815362
-0.0052803783 0.018481344 0.62815356
-0.0052803783 0.01716122 0.62815362
-0.0052803783 0.015841126 0.62815362
-0.0052803783 0.014521033 0.62815368
-0.0052803783 0.013200969 0.62815362
-0.0052803783 0.011880845 0.62815362
-0.0052803783 0.010560751 0.62815362
-0.0052803783 0.0092406571 0.62815362
-0.0052803783 0.0079205632 0.62815368
-0.0052803783 0.0066004992 0.62815362
-0.0052803783 0.0052803755 0.62815362
-0.0052803783 0.0039602816 0.62815356
-0.0052803783 0.0026401877 0.62815362
-0.0052803783 0.0013200939 0.62815362
-0.0052803783 -0 0.62815368
-0.0052803783 -0.0013200939 0.62815362
-0.0052803783 -0.0026402175 0.62815362
-0.0052803783 -0.0039602518 0.62815362
-0.0052803783 -0.0052803755 0.62815362
-0.0052803783 -0.0066004694 0.62815368
-0.0052803783 -0.0079205632 0.62815362
-0.0052803783 -0.0092406869 0.62815362
-0.0052803783 -0.010560721 0.62815362
-0.0052803783 -0.011880815 0.62815362
-0.0052803783 -0.013200939 0.62815368
-0.0052803783 -0.014521062 0.62815368
-0.0052803783 -0.015841156 0.62815362
-0.0052803783 -0.01716122 0.62815368
-0.0052803783 -0.018481314 0.62815362
-0.0052803783 -0.019801408 0.62815362
-0.0052803783 -0.021121532 0.62815368
-0.0052803783 -0.022441626 0.62815362
-0.0052803783 -0.02376169 0.62815362
-0.0052803783 -0.025081754 0.62815362
-0.0052803783 -0.026401848 0.62815362
-0.0052803783 -0.027722001 0.62815362
-0.0052803783 -0.029042095 0.62815362
-0.0052803783 -0.030362159 0.62815362
-0.0052803783 -0.031682283 0.62815368
-0.0052803783 -0.033002347 0.62815362
-0.0052803783 -0.03432247 0.62815362
-0.0052803783 -0.035642564 0.62815368
-0.0039803088 0.037149608 0.62895936
-0.0039803088 0.035822779 0.62895936
-0.0039803088 0.034496009 0.62895942
-0.0039803088 0.03316927 0.62895936
-0.0039803088 0.03184247 0.62895942
-0.0039803088 0.030515701 0.62895942
-0.0039803088 0.029188901 0.62895942
-0.0039803088 0.027862161 0.62895936
-0.0039803088 0.026535392 0.62895942
