# .PCD v0.7 - Point Cloud Data file format
VERSION 0.7
FIELDS x y z
SIZE 4 4 4
TYPE F F F
COUNT 1 1 1
WIDTH 1309
HEIGHT 1
VIEWPOINT 0 0 0 1 0 0 0
POINTS 1309
DATA ascii
-0.022187818 -0.007006675 0.60976768
-0.022187818 -0.0081744492 0.60976762
-0.022266833 -0.0093755126 0.61026967
-0.022691539 -0.010748625 0.61296785
-0.023132756 -0.012175113 0.61577094
-0.023591476 -0.013658226 0.61868536
-0.024068817 -0.01520136 0.62171793
-0.02456581 -0.016808182 0.62487549
-0.02508376 -0.018482774 0.62816608
-0.025624018 -0.020229489 0.63159847
-0.026188066 -0.022053093 0.63518202
-0.026777582 -0.023958892 0.63892728
-0.027394164 -0.025952369 0.64284462
-0.028039815 -0.028039783 0.64694643
-0.028716633 -0.030228049 0.65124643
-0.029426934 -0.032524496 0.6557591
-0.030173363 -0.034937561 0.66050136
-0.030958541 -0.037476122 0.66548973
-0.031785671 -0.040150315 0.67074466
-0.032658216 -0.042971313 0.67628807
-0.033580016 -0.045951575 0.68214446
-0.034555499 -0.049105167 0.68834186
-0.035589207 -0.05244723 0.69490921
-0.03668667 -0.055995464 0.70188165
-0.037853971 -0.059769392 0.70929772
-0.039098166 -0.063791752 0.71720237
-0.024234373 0.067317724 0.63132346
-0.024006547 0.065351158 0.62979561
-0.023783028 0.063421398 0.62829661
-0.023563569 0.061527103 0.62682492
-0.02334819 0.059667587 0.62538052
-0.023136647 0.057841629 0.62396187
-0.022928903 0.056048453 0.62256873
-0.022724917 0.054287344 0.6212008
-0.02252447 0.052557111 0.6198566
-0.022327526 0.050857157 0.61853582
-0.022134056 0.049186796 0.6172384
-0.02194385 0.047545016 0.61596286
-0.021756943 0.045931309 0.61470938
-0.021573139 0.044344813 0.61347681
-0.021392414 0.04278484 0.61226487
-0.021214746 0.041250885 0.61107337
-0.021039952 0.039742112 0.60990119
-0.020868065 0.038258106 0.60874844
-0.020816589 0.037007272 0.60840321
-0.020816589 0.035850793 0.60840327
-0.020816589 0.034694314 0.60840327
-0.020816589 0.033537835 0.60840327
-0.020816589 0.032381415 0.60840321
-0.020816589 0.031224906 0.60840327
-0.020816589 0.030068457 0.60840321
-0.020816589 0.028911948 0.60840327
-0.020816589 0.027755469 0.60840327
-0.020816589 0.02659896 0.60840327
-0.020816589 0.025442511 0.60840321
-0.020816589 0.024286032 0.60840327
-0.020816589 0.023129553 0.60840321
-0.020816589 0.021973044 0.60840327
-0.020816589 0.020816594 0.60840321
-0.020816589 0.019660115 0.60840327
-0.020816589 0.018503636 0.60840327
-0.020816589 0.017347157 0.60840327
-0.020816589 0.016190678 0.60840321
-0.020816589 0.015034199 0.60840327
-0.020816589 0.01387772 0.60840321
-0.020816589 0.01272127 0.60840327
-0.020816589 0.011564791 0.60840321
-0.020816589 0.010408282 0.60840327
-0.020816589 0.009251833 0.60840327
-0.020816589 0.008095324 0.60840327
-0.020816589 0.0069388747 0.60840327
-0.020816589 0.0057823956 0.60840321
-0.020816589 0.0046259165 0.60840327
-0.020816589 0.0034694374 0.60840327
-0.020816589 0.0023129582 0.60840327
-0.020816589 0.0011564791 0.60840321
-0.020816589 -0 0.60840327
-0.020816589 -0.0011564493 0.60840321
-0.020816589 -0.0023129582 0.60840327
-0.020816589 -0.0034694076 0.60840321
-0.020816589 -0.0046259165 0.60840327
-0.020816589 -0.0057823658 0.60840327
-0.020816589 -0.0069388747 0.60840327
-0.020878617 -0.0081194937 0.60881925
-0.021272682 -0.0094545186 0.61146188
-0.02168191 -0.010840982 0.61420625
-0.022107191 -0.012281775 0.61705828
-0.022549549 -0.013780266 0.62002474
-0.023009906 -0.015339941 0.62311196
-0.023489455 -0.016964585 0.62632787
-0.023989419 -0.0186584 0.62968069
-0.024511125 -0.020425946 0.63317937
-0.025056101 -0.02227211 0.63683408
-0.025625788 -0.024202138 0.64065444
-0.026221979 -0.026221991 0.64465266
-0.026846576 -0.028338045 0.64884126
-0.027501652 -0.030557394 0.6532343
-0.02818959 -0.032887846 0.6578477
-0.028912732 -0.035337776 0.6626972
-0.029673949 -0.03791669 0.66780198
-0.030476334 -0.040635109 0.67318296
-0.031323314 -0.043504626 0.67886299
-0.032218847 -0.046538353 0.68486851
-0.03316696 -0.049750447 0.69122666
-0.034172565 -0.05315733 0.69797045
-0.035241056 -0.056777239 0.70513582
-0.036378521 -0.060630858 0.71276391
-0.037592031 -0.06474182 0.72090185
-0.02313393 0.068040997 0.63306952
-0.022914134 0.066046655 0.63150883
-0.022698538 0.064089984 0.629978
-0.022486899 0.062169671 0.62847525
-0.022279169 0.060284823 0.62700021
-0.022075307 0.058434635 0.62555265
-0.021875076 0.056617886 0.6241309
-0.021678448 0.05483374 0.62273473
-0.021485379 0.053081542 0.62136382
-0.021295667 0.05136016 0.62001669
-0.021109326 0.049669027 0.61869359
-0.020926166 0.048007101 0.61739302
-0.020746157 0.046373785 0.61611485
-0.02056927 0.044768393 0.61485887
-0.020395324 0.043190062 0.61362374
-0.020224344 0.041638345 0.61240971
-0.020056158 0.040112317 0.61121541
-0.019890746 0.038611472 0.6100409
-0.019728089 0.037135214 0.60888594
-0.019568022 0.035682857 0.60774934
-0.019471645 0.03436175 0.60706502
-0.019471645 0.033216357 0.60706502
-0.019471645 0.032070965 0.60706508
-0.019471645 0.030925572 0.60706508
-0.019471645 0.029780179 0.60706502
-0.019471645 0.028634816 0.60706508
-0.019471645 0.027489364 0.60706502
-0.019471645 0.026344031 0.60706502
-0.019471645 0.025198609 0.60706502
-0.019471645 0.024053186 0.60706502
-0.019471645 0.022907823 0.60706502
-0.019471645 0.021762431 0.60706502
-0.019471645 0.020617008 0.60706502
-0.019471645 0.019471645 0.60706508
-0.019471645 0.018326283 0.60706502
-0.019471645 0.01718089 0.60706502
-0.019471645 0.016035467 0.60706508
-0.019471645 0.014890075 0.60706508
-0.019471645 0.013744682 0.60706502
-0.019471645 0.012599289 0.60706508
-0.019471645 0.011453897 0.60706508
-0.019471645 0.010308504 0.60706502
-0.019471645 0.0091631114 0.60706508
-0.019471645 0.0080177188 0.60706508
-0.019471645 0.0068723559 0.60706502
-0.019471645 0.0057269633 0.60706502
-0.019471645 0.0045815706 0.60706508
-0.019471645 0.0034362078 0.60706502
-0.019471645 0.0022907853 0.60706502
-0.019471645 0.0011453927 0.60706508
-0.019471645 2.9802322e-08 0.60706502
-0.019471645 -0.0011453927 0.60706502
-0.019471645 -0.0022907853 0.60706502
-0.019471645 -0.003436178 0.60706508
-0.019471645 -0.0045815706 0.60706502
-0.019471645 -0.0057269335 0.60706502
-0.019518577 -0.0068888962 0.60739827
-0.019883163 -0.0081871748 0.60998708
-0.020261632 -0.0095348954 0.61267442
-0.020654785 -0.010934889 0.61546606
-0.021063499 -0.012390286 0.61836821
-0.021488773 -0.013904512 0.6213879
-0.021931512 -0.015481055 0.62453169
-0.022392878 -0.017123967 0.62780762
-0.022874074 -0.018837452 0.63122439
-0.023376403 -0.020626217 0.63479125
-0.023901364 -0.022495419 0.63851881
-0.024450369 -0.024450362 0.64241707
-0.025025187 -0.026497245 0.64649862
-0.025627682 -0.028642684 0.65077674
-0.026259905 -0.030894011 0.65526593
-0.026924202 -0.033259302 0.65998286
-0.027622884 -0.03574723 0.66494393
-0.028358793 -0.038367778 0.67016935
-0.029134987 -0.041131735 0.67568088
-0.029954869 -0.04405126 0.68150246
-0.030822348 -0.047140092 0.68766218
-0.031741444 -0.050412893 0.6941883
-0.032717034 -0.05388689 0.70111561
-0.033754498 -0.057581216 0.70848227
-0.034860067 -0.061517775 0.7163325
-0.036040347 -0.065720618 0.72471327
-0.02179822 0.066757053 0.63325894
-0.021590877 0.064772606 0.63169467
-0.021387503 0.062825769 0.63016033
-0.021187864 0.060915083 0.62865424
-0.020991918 0.059039772 0.62717593
-0.02079962 0.057198972 0.62572515
-0.020610757 0.055391431 0.62430024
-0.020425348 0.053616524 0.6229015
-0.02024319 0.051873177 0.62152719
-0.020064255 0.050160617 0.62017721
-0.019888505 0.048478246 0.6188513
-0.019715758 0.046824932 0.61754805
-0.019546036 0.045200229 0.61626756
-0.019379161 0.043603122 0.61500859
-0.019215111 0.042033046 0.61377096
-0.019053863 0.040489465 0.61255443
-0.018895254 0.038971484 0.61135781
-0.018739261 0.037478566 0.61018091
-0.01858587 0.036010116 0.60902369
-0.018434923 0.034565508 0.60788488
-0.018286454 0.033144206 0.60676479
-0.018152246 0.031766415 0.60575223
-0.018152246 0.03063193 0.60575223
-0.018152246 0.029497385 0.60575223
-0.018152246 0.02836284 0.60575223
-0.018152246 0.027228415 0.60575223
-0.018152246 0.02609387 0.60575223
-0.018152246 0.024959326 0.60575223
-0.018152246 0.023824871 0.60575223
-0.018152246 0.022690356 0.60575223
-0.018152246 0.021555811 0.60575223
-0.018152246 0.020421296 0.60575223
-0.018152246 0.019286782 0.60575229
-0.018152246 0.018152267 0.60575223
-0.018152246 0.017017752 0.60575223
-0.018152246 0.015883237 0.60575223
-0.018152246 0.014748693 0.60575223
-0.018152246 0.013614178 0.60575229
-0.018152246 0.012479693 0.60575223
-0.018152246 0.011345178 0.60575223
-0.018152246 0.010210633 0.60575223
-0.018152246 0.0090761185 0.60575223
-0.018152246 0.0079416335 0.60575223
-0.018152246 0.0068070889 0.60575223
-0.018152246 0.005672574 0.60575223
-0.018152246 0.0045380592 0.60575223
-0.018152246 0.0034035444 0.60575223
-0.018152246 0.0022690594 0.60575223
-0.018152246 0.0011345148 0.60575223
-0.018152246 -0 0.60575223
-0.018152246 -0.0011345148 0.60575229
-0.018152246 -0.0022690296 0.60575223
-0.018152246 -0.0034035444 0.60575223
-0.018152246 -0.004538089 0.60575223
-0.018185863 -0.0056830943 0.60600591
-0.018522082 -0.0069457889 0.60854244
-0.018870967 -0.0082560778 0.61117458
-0.019233245 -0.0096166134 0.61390775
-0.019609706 -0.011030436 0.61674792
-0.020001253 -0.012500763 0.61970192
-0.020408697 -0.014030993 0.62277591
-0.02083309 -0.015624791 0.62597764
-0.021275504 -0.01728633 0.62931538
-0.021737119 -0.019019991 0.63279802
-0.022219272 -0.020830542 0.63643563
-0.022723235 -0.022723228 0.64023763
-0.023250585 -0.024703741 0.64421618
-0.023802998 -0.02677834 0.64838386
-0.024382297 -0.028953969 0.65275437
-0.024990577 -0.031238198 0.65734345
-0.0256299 -0.033639222 0.66216677
-0.026302794 -0.03616634 0.66724336
-0.027011974 -0.038829684 0.67259365
-0.027760452 -0.041640699 0.67824054
-0.028551698 -0.04461205 0.68421012
-0.029389262 -0.047757536 0.69052899
-0.03027745 -0.051093191 0.69722986
-0.031220997 -0.054636747 0.70434839
-0.032225244 -0.058408231 0.71192479
-0.033296384 -0.062430739 0.72000599
-0.020658037 0.067482919 0.6350472
-0.020459425 0.065470129 0.63344884
-0.020264594 0.063495755 0.631881
-0.020073496 0.061558753 0.63034314
-0.019885913 0.059657782 0.62883359
-0.019701857 0.057792127 0.62735242
-0.019521123 0.055960536 0.625898
-0.019343676 0.054162294 0.62447
-0.019169478 0.052396595 0.62306815
-0.018998338 0.050662249 0.62169087
-0.018830277 0.048958749 0.62033844
-0.018665113 0.047284931 0.61900938
-0.018502822 0.04564029 0.61770332
-0.018343376 0.04402411 0.61642021
-0.018186608 0.042435437 0.61515868
-0.018032497 0.040873706 0.61391842
-0.017881021 0.039338261 0.61269945
-0.017732024 0.037828326 0.61150044
-0.017585535 0.036343455 0.61032158
-0.017441401 0.034882814 0.60916167
-0.017299611 0.033445925 0.60802066
-0.017160151 0.032032281 0.60689837
-0.01702288 0.030641198 0.60579371
-0.016887829 0.029272258 0.60470688
-0.016857665 0.02809611 0.60446417
-0.016857665 0.026972264 0.60446411
-0.016857665 0.025848418 0.60446417
-0.016857665 0.024724603 0.60446411
-0.016857665 0.023600757 0.60446411
-0.016857665 0.022476912 0.60446411
-0.016857665 0.021353066 0.60446411
-0.016857665 0.02022922 0.60446417
-0.016857665 0.019105345 0.60446411
-0.016857665 0.017981499 0.60446411
-0.016857665 0.016857654 0.60446411
-0.016857665 0.015733808 0.60446405
-0.016857665 0.014609993 0.60446411
-0.016857665 0.013486147 0.60446417
-0.016857665 0.012362331 0.60446411
-0.016857665 0.011238486 0.60446417
-0.016857665 0.01011458 0.60446417
-0.016857665 0.0089907348 0.60446411
-0.016857665 0.0078668892 0.60446411
-0.016857665 0.0067430437 0.60446417
-0.016857665 0.0056192279 0.60446411
-0.016857665 0.0044954121 0.60446411
-0.016857665 0.0033715367 0.60446417
-0.016857665 0.002247721 0.60446417
-0.016857665 0.0011238158 0.60446417
-0.016857665 -2.9802322e-08 0.60446417
-0.016857665 -0.0011238456 0.60446411
-0.016857665 -0.0022476912 0.60446411
-0.016857665 -0.0033715665 0.60446417
-0.016879624 -0.0045012236 0.60464084
-0.017188571 -0.0057295263 0.60712707
-0.017508997 -0.0070035756 0.60970569
-0.017841596 -0.0083260536 0.61238217
-0.018187074 -0.0096997619 0.61516237
-0.018546198 -0.01112774 0.61805236
-0.01891984 -0.012613207 0.62105924
-0.019308794 -0.014159799 0.62418932
-0.019714076 -0.01577127 0.62745076
-0.020136736 -0.017451853 0.6308521
-0.020577917 -0.019206047 0.63440239
-0.021038923 -0.02103892 0.63811231
-0.021520995 -0.022955745 0.64199173
-0.022025675 -0.024962395 0.64605308
-0.022554597 -0.027065516 0.6503095
-0.023109544 -0.029272109 0.65477538
-0.023692567 -0.031590104 0.65946722
-0.02430569 -0.034027934 0.66440117
-0.024951383 -0.036595374 0.66959733
-0.025632326 -0.039302886 0.67507714
-0.026351472 -0.042162389 0.68086445
-0.027112242 -0.045187056 0.68698657
-0.027918136 -0.048391461 0.69347191
-0.028773407 -0.051792145 0.70035458
-0.029682735 -0.055407763 0.70767236
-0.030651547 -0.059259683 0.71546876
-0.031685594 -0.063371181 0.72379011
-0.019492788 0.068224758 0.63687468
-0.019303339 0.066182882 0.63524121
-0.019117534 0.064180285 0.63363916
-0.018935328 0.062216073 0.63206816
-0.018756509 0.060288787 0.6305263
-0.018581036 0.058397561 0.62901336
-0.018408867 0.056541532 0.62752891
-0.018239807 0.054719478 0.62607121
-0.018073827 0.052930504 0.62464011
-0.017910888 0.051173955 0.62323523
-0.017750813 0.049448699 0.62185502
-0.01759362 0.047754109 0.62049967
-0.01743914 0.046089172 0.61916769
-0.017287349 0.044453204 0.61785901
-0.017138224 0.042845577 0.61657315
-0.016991606 0.041265309 0.615309
-0.016847517 0.039712012 0.6140666
-0.016705809 0.038184732 0.61284482
-0.016566467 0.036682874 0.61164337
-0.016429469 0.03520599 0.61046219
-0.016294679 0.033753276 0.60929996
-0.016162083 0.032324195 0.60815668
-0.016031666 0.030918211 0.60703224
-0.015903298 0.029534698 0.60592538
-0.015777007 0.028173238 0.60483646
-0.01565267 0.026833177 0.60376441
-0.015587211 0.025607556 0.60320002
-0.015587211 0.024494171 0.60320008
-0.015587211 0.023380816 0.60320002
-0.015587211 0.022267461 0.60320002
-0.015587211 0.021154076 0.60320008
-0.015587211 0.020040691 0.60320008
-0.015587211 0.018927336 0.60320008
-0.015587211 0.017813951 0.60319996
-0.015587211 0.016700566 0.60320008
-0.015587211 0.015587211 0.60320002
-0.015587211 0.014473855 0.60320002
-0.015587211 0.013360441 0.60320008
-0.015587211 0.012247086 0.60320008
-0.015587211 0.011133701 0.60320008
-0.015587211 0.010020375 0.60320002
-0.015587211 0.0089069903 0.60320008
-0.015587211 0.0077936053 0.60320008
-0.015587211 0.0066802502 0.60320002
-0.015587211 0.0055668354 0.60320008
-0.015587211 0.0044534802 0.60320008
-0.015587211 0.0033401251 0.60320002
-0.015587211 0.0022267699 0.60320002
-0.015587211 0.001113385 0.60320002
-0.015587211 -0 0.60320002
-0.015587211 -0.001113385 0.60320002
-0.015587211 -0.0022267103 0.60320002
-0.015599155 -0.0033426583 0.60330302
-0.015881805 -0.0045376718 0.60574007
-0.016174845 -0.0057767332 0.60826671
-0.016478904 -0.0070623755 0.61088836
-0.016794614 -0.0083972812 0.61361051
-0.017122656 -0.0097843707 0.61643893
-0.017463814 -0.011226743 0.61938047
-0.017818797 -0.012727708 0.62244117
-0.01818851 -0.014290959 0.62562895
-0.01857389 -0.01592046 0.62895173
-0.018975953 -0.017620534 0.63241839
-0.019395865 -0.019395858 0.63603896
-0.019834725 -0.0212515 0.6398229
-0.020293903 -0.023193002 0.64378202
-0.020774843 -0.025226593 0.64792883
-0.021279132 -0.02735886 0.65227687
-0.021808514 -0.029597253 0.65684128
-0.022364985 -0.031949937 0.66163927
-0.022950515 -0.034425765 0.66668785
-0.023567529 -0.03703469 0.67200792
-0.024218636 -0.03978774 0.67762184
-0.024906741 -0.042697251 0.68355483
-0.025635192 -0.045777112 0.68983567
-0.02640743 -0.049042404 0.69649404
-0.027227642 -0.05251044 0.70356607
-0.028100435 -0.056200862 0.71109146
-0.029031167 -0.06013599 0.71911639
-0.030025529 -0.064340413 0.72768998
-0.018121805 0.06691128 0.63707298
-0.017945472 0.064879805 0.6354357
-0.017772539 0.06288746 0.63382989
-0.017602958 0.060933322 0.63225532
-0.017436532 0.05901596 0.63070995
-0.017273223 0.057134509 0.62919354
-0.017112995 0.055288166 0.62770575
-0.016955663 0.053475559 0.6262449
-0.016801244 0.051696151 0.62481099
-0.016649568 0.049948722 0.6234026
-0.016500605 0.048232526 0.62201947
-0.016354328 0.046546936 0.6206612
-0.01621058 0.044890821 0.61932641
-0.016069377 0.043263704 0.61801535
-0.015930573 0.041664571 0.61672652
-0.015794145 0.040092826 0.61545968
-0.015660074 0.038547873 0.61421478
-0.015528222 0.037028849 0.6129905
-0.015398571 0.035535187 0.61178654
-0.015271105 0.03406629 0.61060303
-0.015145695 0.032621503 0.60943854
-0.015022364 0.03120029 0.60829329
-0.014900989 0.029801995 0.60716629
-0.014781561 0.028426081 0.60605741
-0.014664067 0.027072132 0.6049664
-0.014548389 0.025739491 0.60389227
-0.014434559 0.024427742 0.6028353
-0.014340214 0.023164988 0.60195923
-0.014340214 0.022061884 0.60195929
-0.014340214 0.020958781 0.60195923
-0.014340214 0.019855708 0.60195929
-0.014340214 0.018752575 0.60195929
-0.014340214 0.017649472 0.60195929
-0.014340214 0.016546428 0.60195929
-0.014340214 0.015443295 0.60195929
-0.014340214 0.014340222 0.60195929
-0.014340214 0.013237119 0.60195929
-0.014340214 0.012134016 0.60195929
-0.014340214 0.011030942 0.60195923
-0.014340214 0.009927839 0.60195929
-0.014340214 0.0088247657 0.60195929
-0.014340214 0.0077216625 0.60195923
-0.014340214 0.0066185594 0.60195929
-0.014340214 0.005515486 0.60195929
-0.014340214 0.0044123828 0.60195929
-0.014340214 0.0033092797 0.60195923
-0.014340214 0.0022061765 0.60195929
-0.014340214 0.0011031032 0.60195929
-0.014340214 -0 0.60195923
-0.014340214 -0.0011030734 0.60195929
-0.014343663 -0.0022066832 0.6019913
-0.014600948 -0.0033694804 0.60438031
-0.014867667 -0.0045746565 0.60685694
-0.015144276 -0.0058246851 0.60942531
-0.015431372 -0.0071221292 0.61209112
-0.015729563 -0.0084697306 0.61485994
-0.016039506 -0.0098704696 0.61773795
-0.016361952 -0.011327505 0.62073195
-0.016697582 -0.012844294 0.6238485
-0.017047271 -0.014424622 0.62709546
-0.017411921 -0.016072512 0.63048136
-0.01779251 -0.017792523 0.63401538
-0.018190164 -0.019589394 0.63770777
-0.018605942 -0.021468401 0.64156842
-0.019041173 -0.023435295 0.64560974
-0.019497251 -0.025496423 0.64984465
-0.019975716 -0.027658671 0.65428734
-0.020478323 -0.029929847 0.65895426
-0.021006802 -0.032318115 0.66386145
-0.02156328 -0.034832984 0.66902858
-0.022150043 -0.037484705 0.67447698
-0.022769632 -0.040284723 0.68023008
-0.023424974 -0.04324609 0.68631518
-0.024119057 -0.046382785 0.69276005
-0.02485553 -0.049711049 0.69959855
-0.025638398 -0.053248972 0.70686781
-0.026472181 -0.057016999 0.71460986
-0.027362142 -0.061038613 0.72287357
-0.028313892 -0.065339744 0.73171097
-0.016913923 0.067655683 0.63894504
-0.016747581 0.065594703 0.63727176
-0.01658443 0.063573658 0.63563061
-0.016424427 0.061591595 0.6340211
-0.016267529 0.05964762 0.63244283
-0.016113555 0.057740211 0.63089395
-0.015962511 0.055868775 0.62937462
-0.015814232 0.054031968 0.62788302
-0.015668679 0.052228928 0.62641889
-0.015525825 0.050458938 0.62498188
-0.015385511 0.048720807 0.62357044
-0.015247751 0.047013909 0.62218463
-0.015112396 0.0453372 0.62082303
-0.014979423 0.043689996 0.6194855
-0.014848808 0.04207164 0.61817163
-0.014720413 0.04048112 0.61688006
-0.014594221 0.038917899 0.61561066
-0.014470208 0.037381381 0.61436319
-0.014348251 0.035870612 0.61313635
-0.014228367 0.034385264 0.61193043
-0.014110436 0.032924384 0.61074412
-0.013994442 0.031487495 0.60957736
-0.013880374 0.030074179 0.60842991
-0.013768118 0.028683603 0.6073007
-0.013657696 0.027315438 0.60618991
-0.013548998 0.025968909 0.60509652
-0.013442017 0.024643719 0.60402036
-0.013336742 0.023339301 0.60296136
-0.013233075 0.022055119 0.60191858
-0.013131005 0.020790786 0.60089183
-0.013116033 0.019674033 0.60074127
-0.013116033 0.018581063 0.60074121
-0.013116033 0.017488062 0.60074121
-0.013116033 0.016395062 0.60074121
-0.013116033 0.015302032 0.60074121
-0.013116033 0.014209032 0.60074121
-0.013116033 0.013116032 0.60074121
-0.013116033 0.012023032 0.60074121
-0.013116033 0.010930032 0.60074121
-0.013116033 0.0098370314 0.60074121
-0.013116033 0.0087440312 0.60074121
-0.013116033 0.007651031 0.60074121
-0.013116033 0.006558001 0.60074121
-0.013116033 0.0054650307 0.60074121
-0.013116033 0.0043720305 0.60074121
-0.013116033 0.0032790005 0.60074121
-0.013116033 0.00218606 0.60074121
-0.013116033 0.00109303 0.60074121
-0.013116033 -0 0.60074121
-0.013116033 -0.0010930002 0.60074121
-0.01334531 -0.0022242367 0.60304761
-0.013586653 -0.0033966601 0.60547531
-0.013836852 -0.004612267 0.60799211
-0.01409644 -0.0058735013 0.61060339
-0.014365952 -0.0071829557 0.61331445
-0.014645972 -0.0085434914 0.61613125
-0.014937164 -0.0099580884 0.6190604
-0.015240129 -0.011430115 0.62210798
-0.015555639 -0.012962997 0.62528175
-0.015884489 -0.014560789 0.62858975
-0.016227541 -0.016227543 0.63204056
-0.016585739 -0.01796788 0.63564378
-0.016960159 -0.019786835 0.63941014
-0.017351819 -0.021689773 0.64334995
-0.017761998 -0.023682624 0.64747602
-0.018192038 -0.025772035 0.65180188
-0.018643416 -0.027965099 0.65634239
-0.01911783 -0.030269891 0.66111469
-0.019616952 -0.032694936 0.66613543
-0.020142833 -0.035249949 0.67142534
-0.020697687 -0.037945747 0.67700684
-0.021283973 -0.040794313 0.68290442
-0.021904528 -0.043809056 0.68914664
-0.022562265 -0.04700473 0.69576299
-0.023260724 -0.050398231 0.70278895
-0.024003811 -0.054008573 0.71026385
-0.024796048 -0.057857454 0.71823311
-0.02564225 -0.061968774 0.72674519
-0.015678909 0.068417042 0.64085972
-0.015522994 0.066325516 0.63914877
-0.015370105 0.064274997 0.63747102
-0.015220199 0.062264442 0.63582593
-0.015073231 0.060292959 0.63421321
-0.014929032 0.058358967 0.63263083
-0.014787565 0.056461602 0.63107836
-0.014648797 0.05460009 0.62955558
-0.014512568 0.052772969 0.6280607
-0.014378889 0.050979704 0.62659371
-0.01424761 0.049219012 0.62515306
-0.014118708 0.047490209 0.62373859
-0.013992154 0.04579252 0.6223498
-0.013867813 0.044124871 0.62098533
-0.013745661 0.042486608 0.61964488
-0.013625679 0.040877044 0.61832821
-0.013507739 0.039295256 0.61703396
-0.013391856 0.037740678 0.61576235
-0.01327791 0.036212474 0.61451191
-0.013165888 0.034710079 0.61328256
-0.013055773 0.033232898 0.61207426
-0.012947452 0.031780094 0.61088556
-0.012840946 0.030351341 0.60971677
-0.012736146 0.028945774 0.60856676
-0.012633044 0.027563006 0.60743535
-0.012531626 0.0262025 0.60632241
-0.012431796 0.024863601 0.60522687
-0.012333543 0.023545891 0.60414869
-0.01223686 0.022248864 0.60308766
-0.012141652 0.020971984 0.60204291
-0.012047942 0.019714832 0.60101461
-0.01195564 0.018476933 0.60000169
-0.011914045 0.017329514 0.59954524
-0.011914045 0.016246408 0.59954524
-0.011914045 0.015163362 0.59954524
-0.011914045 0.014080256 0.59954524
-0.011914045 0.01299718 0.59954524
-0.011914045 0.011914045 0.59954524
-0.011914045 0.010830939 0.59954524
-0.011914045 0.0097478628 0.59954524
-0.011914045 0.008664757 0.5995453
-0.011914045 0.0075816512 0.59954524
-0.011914045 0.006498605 0.59954524
-0.011914045 0.0054154992 0.59954524
-0.011914045 0.0043323934 0.59954524
-0.011914045 0.0032492876 0.59954524
-0.011914045 0.0021661818 0.59954524
-0.011914045 0.0010831058 0.59954524
-0.011914045 -0 0.59954524
-0.01211412 -0.0011012554 0.60174084
-0.012330997 -0.0022419691 0.60412073
-0.012555812 -0.0034243166 0.60658777
-0.012788945 -0.0046505034 0.60914612
-0.0130309 -0.0059231222 0.61180127
-0.013282184 -0.0072448254 0.61455882
-0.013543353 -0.0086185038 0.61742479
-0.013815034 -0.010047317 0.62040615
-0.014097801 -0.011534572 0.62350917
-0.014392384 -0.013083965 0.62674177
-0.014699542 -0.014699519 0.63011241
-0.015020095 -0.016385525 0.63363016
-0.015354986 -0.018146813 0.63730514
-0.015705105 -0.019988298 0.64114726
-0.016071562 -0.021915764 0.6451686
-0.016455529 -0.023935318 0.64938211
-0.016858293 -0.026053727 0.65380192
-0.017281324 -0.0282785 0.65844411
-0.017726071 -0.030617774 0.66332471
-0.018194314 -0.033080548 0.66846305
-0.018687967 -0.035677016 0.67388028
-0.019209156 -0.038418293 0.67959958
-0.019760324 -0.041317046 0.68564796
-0.020343976 -0.044386864 0.69205278
-0.020963157 -0.047643512 0.69884747
-0.021621211 -0.051104665 0.70606875
-0.022321915 -0.054790169 0.71375811
-0.023069661 -0.058722794 0.72196358
-0.023869131 -0.062927723 0.73073673
-0.014270771 0.06707263 0.64106756
-0.01412869 0.064991951 0.6393525
-0.013989368 0.062952191 0.63767076
-0.013852769 0.060952187 0.63602185
-0.01371885 0.058991045 0.63440526
-0.013587457 0.057067335 0.63281924
-0.013458595 0.055180222 0.63126373
-0.013332116 0.053328454 0.62973696
-0.013207993 0.051511198 0.62823868
-0.013086196 0.049727589 0.62676847
-0.012966589 0.047976375 0.62532473
-0.012849148 0.04625693 0.62390709
-0.012733852 0.044568509 0.62251532
-0.012620571 0.04290992 0.62114787
-0.01250932 0.041280776 0.61980498
-0.012399983 0.039679974 0.61848515
-0.01229254 0.038106889 0.61718816
-0.012186972 0.036560893 0.61591387
-0.012083173 0.035041213 0.61466098
-0.011981158 0.033547252 0.61342943
-0.01188082 0.032078236 0.61221832
-0.01178215 0.030633599 0.61102724
-0.011685133 0.029212832 0.60985613
-0.011589673 0.027815223 0.60870385
-0.01149576 0.026440293 0.60757023
-0.011403385 0.025087416 0.60645521
-0.011312454 0.023756146 0.60535753
-0.011222989 0.022446007 0.60427761
-0.011134902 0.021156341 0.60321426
-0.011048188 0.019886762 0.60216749
-0.010962837 0.018636823 0.60113728
-0.010878772 0.017406046 0.60012251
-0.01079601 0.016194016 0.59912348
-0.010733652 0.015027136 0.59837079
-0.010733652 0.013953745 0.59837073
-0.010733652 0.012880385 0.59837079
-0.010733652 0.011807024 0.59837073
-0.010733652 0.010733634 0.59837079
-0.010733652 0.0096602738 0.59837073
-0.010733652 0.0085869133 0.59837073
-0.010733652 0.0075135529 0.59837079
-0.010733652 0.0064402223 0.59837079
-0.010733652 0.0053668618 0.59837073
-0.010733652 0.0042934418 0.59837079
-0.010733652 0.0032201111 0.59837073
-0.010733652 0.0021467209 0.59837079
-0.010733652 0.0010733902 0.59837073
-0.010906667 -0 0.60045928
-0.011100013 -0.0011099875 0.6027931
-0.011300362 -0.0022600889 0.60521156
-0.01150805 -0.0034524202 0.60771859
-0.011723515 -0.0046893954 0.61031944
-0.011947202 -0.0059736073 0.61301959
-0.012179592 -0.0073077381 0.61582482
-0.012421234 -0.008694917 0.61874169
-0.012672623 -0.010138065 0.62177622
-0.012934399 -0.011640966 0.62493616
-0.013207218 -0.013207227 0.62822938
-0.013491793 -0.014840931 0.63166445
-0.013788943 -0.016546756 0.6352514
-0.014099435 -0.018329263 0.63899934
-0.014424231 -0.020193934 0.64292002
-0.014764344 -0.022146523 0.64702559
-0.015120884 -0.024193406 0.65132934
-0.015495121 -0.026341707 0.65584683
-0.0158883 -0.028598934 0.66059285
-0.01630195 -0.030973703 0.66558605
-0.016737716 -0.033475429 0.67084616
-0.017197417 -0.036114544 0.6763953
-0.017683148 -0.038902909 0.68225861
-0.018197048 -0.041853189 0.6884619
-0.01874171 -0.044980079 0.69503659
-0.019319983 -0.048299938 0.70201695
-0.019935077 -0.051831186 0.70944178
-0.020590715 -0.055594921 0.71735597
-0.021290848 -0.05961436 0.72580743
-0.022040272 -0.063916802 0.73485374
-0.012990056 0.06783697 0.64303058
-0.012859266 0.065725178 0.64127642
-0.012731046 0.063655257 0.63955665
-0.012605359 0.061626196 0.63787097
-0.012482128 0.059636861 0.63621813
-0.01236132 0.05768618 0.63459778
-0.012242791 0.055772722 0.63300812
-0.01212655 0.053895801 0.63144898
-0.01201246 0.052054018 0.62991881
-0.011900498 0.050246596 0.62841713
-0.011790637 0.048472643 0.62694365
-0.011682753 0.046731025 0.62549669
-0.011576856 0.045021087 0.62407637
-0.011472832 0.043341815 0.62268114
-0.011370661 0.041692406 0.62131083
-0.011270322 0.040072262 0.61996502
-0.01117171 0.038480341 0.61864239
-0.011074808 0.036916018 0.61734277
-0.010979602 0.035378724 0.6160658
-0.01088599 0.033867508 0.61481023
-0.010793989 0.032381952 0.61357629
-0.010703502 0.030921251 0.61236268
-0.010614521 0.029484779 0.61116922
-0.010527032 0.028072089 0.60999584
-0.010440948 0.026682436 0.60884118
-0.010356287 0.025315344 0.60770571
-0.010272962 0.023970246 0.60658813
-0.010190967 0.022646606 0.60548842
-0.010110295 0.021343946 0.60440648
-0.010030867 0.020061761 0.6033411
-0.0099526998 0.018799514 0.60229266
-0.0098757185 0.017556846 0.60126019
-0.0097999191 0.016333193 0.60024357
-0.0097252969 0.015128225 0.59924269
-0.0096517801 0.013941437 0.59825671
-0.0095793661 0.012772471 0.59728539
-0.0095742773 0.011701882 0.5972172
-0.0095742773 0.010638118 0.5972172
-0.0095742773 0.0095743239 0.5972172
-0.0095742773 0.0085105002 0.5972172
-0.0095742773 0.0074466765 0.59721714
-0.0095742773 0.006382823 0.5972172
-0.0095742773 0.0053190291 0.5972172
-0.0095742773 0.0042552352 0.5972172
-0.0095742773 0.0031914115 0.5972172
-0.0095742773 0.0021276176 0.59721714
-0.0097222729 0.0010802746 0.5992021
-0.009892947 2.9802322e-08 0.60149127
-0.010069745 -0.0011188686 0.60386252
-0.010252952 -0.0022784173 0.60631979
-0.010442949 -0.0034810007 0.60886806
-0.010640119 -0.0047289133 0.61151254
-0.010844881 -0.0060249269 0.61425889
-0.011057675 -0.0073717833 0.61711299
-0.01127902 -0.0087725818 0.62008166
-0.011509375 -0.010230541 0.62317127
-0.011749335 -0.011749327 0.62638968
-0.011999514 -0.013332784 0.62974513
-0.01226058 -0.014985144 0.63324666
-0.012533293 -0.016711056 0.63690436
-0.012818378 -0.018515408 0.640728
-0.013116733 -0.020403832 0.64472961
-0.013429306 -0.02238217 0.64892203
-0.013757143 -0.024457127 0.653319
-0.014101433 -0.026636034 0.65793669
-0.014463346 -0.0289267 0.66279078
-0.014844328 -0.031338006 0.66790068
-0.015245924 -0.033879846 0.67328697
-0.015669852 -0.036563009 0.67897284
-0.016118092 -0.039399803 0.6849848
-0.016592667 -0.042403489 0.69134992
-0.017096035 -0.045589447 0.69810122
-0.017630899 -0.048974723 0.705275
-0.018200314 -0.052578688 0.71291208
-0.018807817 -0.056423426 0.72106022
-0.019457188 -0.060533464 0.72976971
-0.020153005 -0.064937472 0.73910218
-0.011679813 0.068618894 0.6450389
-0.01156084 0.066474855 0.64324367
-0.011444299 0.064374179 0.64148527
-0.011330052 0.062315315 0.63976139
-0.011218063 0.060297102 0.63807166
-0.011108298 0.058318555 0.63641536
-0.011000629 0.056378216 0.63479078
-0.010895026 0.054475158 0.63319737
-0.010791463 0.052608401 0.63163471
-0.010689819 0.050776601 0.63010108
-0.010590103 0.048979253 0.62859643
-0.010492201 0.047214925 0.62711924
-0.010396092 0.045482934 0.625669
-0.010301756 0.043782473 0.62424558
-0.010209089 0.04211247 0.62284738
-0.010118074 0.040472269 0.62147409
-0.010028695 0.038861185 0.62012541
-0.0099408533 0.037278205 0.61880004
-0.0098545644 0.035722822 0.61749804
-0.009769734 0.034194082 0.61621803
-0.0096863527 0.032691449 0.6149599
-0.0096044075 0.031214327 0.6137234
-0.0095238118 0.029761881 0.61250734
-0.0094445823 0.028333753 0.61131185
-0.0093666352 0.02692908 0.61013579
-0.009289966 0.025547415 0.60897887
-0.0092145633 0.024188221 0.60784113
-0.0091403536 0.022850901 0.6067214
-0.0090673277 0.02153492 0.60561955
-0.0089954827 0.02023986 0.60453546
-0.008924745 0.018965095 0.60346812
-0.0088551333 0.017710239 0.60241777
-0.0087865777 0.016474813 0.60138333
-0.0087190755 0.015258402 0.6003648
-0.0086526219 0.014060497 0.59936213
-0.0085871546 0.012880743 0.59837431
-0.0085226903 0.01171869 0.59740162
-0.0084591666 0.010573983 0.59644306
-0.0084353657 0.0094897747 0.596084
-0.0084353657 0.0084353685 0.59608394
-0.0084353657 0.0073809326 0.59608394
-0.0084353657 0.0063265264 0.596084
-0.0084353657 0.0052721202 0.59608394
-0.0084353657 0.0042177141 0.596084
-0.0084353657 0.0031632781 0.59608394
-0.0085602831 0.0021401048 0.59796882
-0.0087091122 0.001088649 0.60021448
-0.0088632088 -0 0.60253966
-0.0090228776 -0.0011278689 0.60494882
-0.0091883829 -0.0022970736 0.60744607
-0.0093600731 -0.0035100281 0.61003667
-0.0095383013 -0.0047691166 0.61272597
-0.0097234491 -0.0060771406 0.61551964
-0.0099159526 -0.0074369609 0.6184243
-0.010116206 -0.008851707 0.62144589
-0.010324714 -0.010324717 0.62459201
-0.010541997 -0.011859745 0.62787056
-0.010768623 -0.013460785 0.63129008
-0.011005208 -0.015132129 0.63485986
-0.011252454 -0.016878694 0.63859057
-0.011511031 -0.018705428 0.64249218
-0.01178177 -0.020618081 0.6465773
-0.012065551 -0.022622883 0.65085918
-0.012363382 -0.024726748 0.65535313
-0.012676246 -0.026937038 0.66007388
-0.013005354 -0.029262036 0.66503978
-0.013352008 -0.031710982 0.67027032
-0.013717648 -0.034294099 0.67578745
-0.014103876 -0.03702268 0.68161517
-0.01451254 -0.039909482 0.68778145
-0.014945534 -0.042968422 0.69431484
-0.01540516 -0.046215475 0.70125008
-0.015893953 -0.04966861 0.70862538
-0.016414853 -0.053348243 0.71648514
-0.016970975 -0.057277054 0.72487634
-0.017566102 -0.061481327 0.73385608
-0.018204482 -0.065991223 0.74348855
-0.010232482 0.067241997 0.645257
-0.010128124 0.065109372 0.64345735
-0.010025903 0.063019961 0.64169461
-0.0099256942 0.060972124 0.63996661
-0.0098274695 0.058964819 0.63827276
-0.0097311977 0.056997061 0.63661259
-0.0096367663 0.055067271 0.63498425
-0.0095441779 0.053174704 0.63338757
-0.0094533237 0.05131802 0.63182086
-0.009364184 0.049496382 0.63028371
-0.0092767347 0.047708929 0.62877572
-0.0091908788 0.045954406 0.6272952
-0.0091065969 0.044232041 0.6258418
-0.0090238722 0.042541116 0.62441522
-0.0089426124 0.040880531 0.62301397
-0.008862826 0.039249659 0.62163812
-0.0087844282 0.037647575 0.62028623
-0.0087074051 0.036073565 0.61895794
-0.0086317435 0.034526974 0.61765325
-0.0085573634 0.033006996 0.61637056
-0.008484276 0.031513035 0.61511022
-0.0084124049 0.030044287 0.61387086
-0.0083417408 0.028600305 0.6126523
-0.0082722753 0.027180344 0.61145443
-0.0082039367 0.025783807 0.61027592
-0.0081367185 0.024410158 0.60911679
-0.0080706114 0.023058891 0.60797685
-0.0080055511 0.02172935 0.60685492
-0.0079415506 0.020421118 0.60575128
-0.0078785457 0.019133627 0.6046648
-0.0078165336 0.017866343 0.60359544
-0.0077555072 0.016618937 0.60254306
-0.0076954099 0.015390813 0.60150671
-0.0076362533 0.014181614 0.60048664
-0.0075779823 0.012990832 0.59948176
-0.0075205937 0.011818081 0.59849215
-0.0074640848 0.010662973 0.59751767
-0.0074084019 0.0095250905 0.59655744
-0.0073535605 0.0084040761 0.59561175
-0.0073163803 0.0073164105 0.59497058
-0.0073163803 0.0062711835 0.59497058
-0.0073163803 0.0052259862 0.59497058
-0.0073163803 0.0041807592 0.59497058
-0.0074200677 0.003180027 0.5967586
-0.0075478442 0.0021565259 0.59896207
-0.0076800981 0.0010971427 0.60124266
-0.0078170691 2.9802322e-08 0.60360467
-0.0079590343 -0.0011370182 0.60605276
-0.0081062308 -0.0023160875 0.60859108
-0.0082589751 -0.0035395622 0.61122501
-0.0084175849 -0.0048100352 0.61396021
-0.0085824076 -0.0061302781 0.61680239
-0.0087538362 -0.0075033009 0.61975861
-0.0089322291 -0.0089322329 0.62283492
-0.0091180438 -0.01042062 0.62603915
-0.0093117543 -0.011972219 0.62937957
-0.0095138736 -0.01359126 0.63286495
-0.0097249895 -0.015282124 0.6365056
-0.009945659 -0.01704967 0.64031088
-0.010176575 -0.018899351 0.64429289
-0.010418468 -0.02083692 0.64846414
-0.010672142 -0.022868901 0.65283859
-0.010938512 -0.02500236 0.65743202
-0.011218482 -0.027244866 0.66225994
-0.01151316 -0.029605269 0.66734147
-0.011823736 -0.032092988 0.67269707
-0.012151533 -0.034718663 0.67834979
-0.01249807 -0.037494212 0.6843257
-0.012864903 -0.040432572 0.69065148
-0.013253921 -0.043548614 0.6973598
-0.013667199 -0.046858996 0.70448655
-0.014107081 -0.050382435 0.71207201
-0.014576284 -0.054140478 0.72016317
-0.015077703 -0.058156848 0.72880977
-0.015614848 -0.062459409 0.73807251
-0.008873105 0.068027139 0.64731729
-0.0087815654 0.065861732 0.64547563
-0.00869192 0.06374076 0.64367211
-0.0086040618 0.061662436 0.64190447
-0.008517961 0.059625715 0.64017224
-0.0084335674 0.057629377 0.6384744
-0.0083508529 0.055672318 0.6368103
-0.0082697226 0.053753197 0.63517809
-0.0081901764 0.051871121 0.63357776
-0.0081121223 0.050024718 0.63200742
-0.0080355424 0.048213214 0.63046676
-0.0079604173 0.046435773 0.62895536
-0.0078866612 0.044691056 0.62747145
-0.0078142816 0.042978555 0.62601537
-0.0077431966 0.041297078 0.62458521
-0.0076733939 0.03964591 0.62318087
-0.0076048588 0.038024306 0.62180209
-0.0075375168 0.036431342 0.62044728
-0.007471377 0.034866422 0.6191166
-0.0074063684 0.033328682 0.61780876
-0.0073424811 0.031817436 0.61652344
-0.0072797053 0.030332088 0.61526048
-0.0072179749 0.028871894 0.61401856
-0.0071572834 0.027436256 0.6127975
-0.0070976214 0.02602461 0.61159724
-0.0070389286 0.024636239 0.61041647
-0.0069812159 0.023270696 0.60925537
-0.0069244248 0.021927357 0.60811281
-0.0068685501 0.020605624 0.60698867
-0.0068135862 0.01930517 0.60588288
-0.0067594787 0.018025279 0.60479438
-0.0067062406 0.016765654 0.60372323
-0.0066538178 0.015525579 0.60266858
-0.0066022091 0.014304787 0.60163033
-0.0065514096 0.013102829 0.60060829
-0.0065013706 0.0119192 0.59960163
-0.0064520906 0.010753512 0.59861016
-0.0064035663 0.0096053481 0.59763396
-0.0063557522 0.00847435 0.59667194
-0.0063086618 0.0073601305 0.59572458
-0.0062622488 0.0062622428 0.59479082
-0.0062168008 0.0051806867 0.59387648
-0.0063010207 0.0042006671 0.59557092
-0.0064085019 0.0032042563 0.5977332
-0.0065197134 0.002173245 0.5999707
-0.0066348538 0.0011058152 0.60228705
-0.0067541497 -0 0.60468709
-0.0068777967 -0.0011462867 0.60717469
-0.0070060557 -0.0023353398 0.60975504
-0.0071391901 -0.003569603 0.61243355
-0.0072774817 -0.0048516393 0.61521578
-0.007421236 -0.0061843395 0.61810791
-0.0075708055 -0.0075708032 0.621117
-0.0077265063 -0.0090142787 0.62424946
-0.0078887464 -0.010518372 0.62751341
-0.0080579445 -0.012086928 0.63091749
-0.0082345614 -0.013724297 0.6344707
-0.0084191179 -0.01543504 0.63818371
-0.0086121112 -0.017224222 0.64206636
-0.0088141598 -0.019097358 0.6461314
-0.0090259165 -0.021060467 0.65039158
-0.0092480993 -0.023120224 0.65486151
-0.0094815278 -0.025284082 0.6595577
-0.0097270124 -0.027559847 0.66449648
-0.0099855447 -0.029956639 0.66969782
-0.010258197 -0.032484263 0.67518306
-0.010546156 -0.035153866 0.68097639
-0.01085079 -0.037977785 0.68710518
-0.011173503 -0.040969521 0.69359767
-0.011516 -0.04414466 0.70048821
-0.011880158 -0.047520667 0.70781446
-0.012268152 -0.051117301 0.71562028
-0.012682287 -0.054956555 0.72395205
-0.01312536 -0.05906412 0.73286593
-0.013600511 -0.063469052 0.74242532
-0.0074035223 0.066631734 0.64754099
-0.0073270481 0.06447804 0.64569473
-0.00725216 0.062368542 0.64388674
-0.0071787657 0.060301661 0.64211488
-0.0071068411 0.058276087 0.64037848
-0.0070363651 0.056290925 0.638677
-0.0069672526 0.054344594 0.63700849
-0.0068994844 0.052436084 0.6353724
-0.0068330416 0.050564528 0.63376838
-0.0067678471 0.048728466 0.6321944
-0.0067039039 0.046927363 0.6306507
-0.0066411388 0.045159757 0.62913537
-0.0065795383 0.043424964 0.62764823
-0.0065190881 0.041722178 0.62618881
-0.0064597204 0.040050298 0.62475556
-0.0064014248 0.038408548 0.62334818
-0.0063441885 0.036796331 0.62196636
-0.0062879501 0.035212517 0.62060869
-0.0062327171 0.033656716 0.61927521
-0.0061784284 0.032127827 0.61796463
-0.006125079 0.030625403 0.61667657
-0.0060726576 0.029148757 0.61541104
-0.0060211108 0.027697086 0.61416662
-0.0059704459 0.026269972 0.61294341
-0.0059206132 0.024866581 0.61174035
-0.0058716047 0.023486406 0.6105572
-0.0058234148 0.022128969 0.60939378
-0.005775996 0.020793587 0.60824901
-0.0057293572 0.019479841 0.60712302
-0.0056834514 0.018187076 0.60601473
-0.0056382758 0.016914815 0.6049242
-0.0055938256 0.01566273 0.60385102
-0.0055500581 0.014430165 0.60279435
-0.00550697 0.013216734 0.60175413
-0.0054645585 0.012022048 0.60073018
-0.0054227826 0.010845572 0.59972167
-0.0053816531 0.0096870065 0.59872872
-0.0053411308 0.0085457861 0.59775043
-0.0053012138 0.0074217021 0.59678674
-0.0052619008 0.0063142776 0.59583759
-0.005223155 0.005223155 0.59490228
-0.0052904715 0.0042324066 0.5965274
-0.0053814081 0.003228873 0.59872276
-0.0054755253 0.0021902025 0.600995
-0.0055729924 0.0011146367 0.60334802
-0.0056740069 -0 0.6057868
-0.0057787369 -0.0011557639 0.60831517
-0.0058874055 -0.0023549497 0.61093861
-0.0060002389 -0.0036001503 0.61366272
-0.0061174822 -0.0048940182 0.61649323
-0.0062394151 -0.0062394142 0.61943692
-0.0063662906 -0.0076395571 0.62249994
-0.0064984327 -0.0090978444 0.62569022
-0.0066361772 -0.010617882 0.62901562
-0.0067798877 -0.012203783 0.63248503
-0.0069299801 -0.013859987 0.63610864
-0.007086847 -0.015591085 0.63989574
-0.00725098 -0.017402351 0.64385831
-0.0074228966 -0.019299537 0.6480087
-0.0076031629 -0.021288842 0.65236068
-0.0077924281 -0.02337724 0.65692997
-0.0079913307 -0.02557227 0.66173196
-0.008200652 -0.027882189 0.66678536
-0.0084212339 -0.030316442 0.67211074
-0.0086540114 -0.032885224 0.67773038
-0.0089000231 -0.035600096 0.68366969
-0.0091604665 -0.038473964 0.68995738
-0.0094365738 -0.041520923 0.69662321
-0.0097298445 -0.044757277 0.70370334
-0.010041926 -0.048201233 0.71123773
-0.010374739 -0.051873684 0.71927243
-0.010730318 -0.055797637 0.72785687
-0.011111136 -0.060000092 0.73705065
-0.01151998 -0.064511865 0.74692106
-0.0059928782 0.067419887 0.64965522
-0.0059302505 0.065232754 0.64776528
-0.0058689183 0.063090891 0.64591438
-0.0058088596 0.060993016 0.64410198
-0.0057500005 0.05893749 0.64232576
-0.0056923213 0.05692324 0.64058512
-0.0056358059 0.054949105 0.6388796
-0.0055803838 0.053013653 0.63720709
-0.0055260579 0.051116049 0.63556767
-0.0054727639 0.049254864 0.63395941
-0.0054204883 0.047429264 0.6323818
-0.0053692167 0.045638353 0.63083452
-0.0053188913 0.04388085 0.62931585
-0.0052695 0.042156011 0.62782538
-0.0052210325 0.040463001 0.62636268
-0.005173434 0.038800776 0.62492633
-0.0051267091 0.037168652 0.62351626
-0.005080808 0.035565674 0.62213105
-0.0050357208 0.033991128 0.62077045
-0.0049914401 0.032444358 0.61943412
-0.0049479185 0.030924469 0.61812079
-0.0049051619 0.029430985 0.61683047
-0.0048631253 0.027962983 0.6155619
-0.0048218034 0.026519895 0.61431491
-0.0047811898 0.025101244 0.61308926
-0.0047412426 0.023706228 0.61188376
-0.0047019576 0.022334337 0.61069822
-0.0046633296 0.020984977 0.60953259
-0.0046253195 0.019657612 0.6083855
-0.0045879357 0.018351734 0.60725731
-0.0045511401 0.017066777 0.60614693
-0.0045149303 0.015802264 0.6050542
-0.0044793026 0.014557719 0.60397905
-0.0044442224 0.013332665 0.60292041
-0.0044096974 0.012126684 0.60187852
-0.0043756948 0.01093924 0.60085237
-0.0043422123 0.0097699761 0.59984195
-0.0043092486 0.0086185336 0.59884715
-0.0042767716 0.0074843466 0.59786713
-0.0042447806 0.0063671768 0.59690171
-0.004213274 0.005266577 0.59595096
-0.0042645563 0.0042645633 0.59749848
-0.0043384251 0.0032538474 0.59972763
-0.0044148988 0.002207458 0.60203546
-0.0044941162 0.0011235476 0.60442603
-0.0045762397 -0 0.60690439
-0.0046614092 -0.0011653602 0.6094746
-0.0047498085 -0.0023749173 0.61214226
-0.0048416257 -0.0036312342 0.61491311
-0.004937063 -0.0049370527 0.61779314
-0.0050363513 -0.0062954128 0.62078947
-0.0051397015 -0.007709533 0.62390834
-0.005247382 -0.00918293 0.62715787
-0.0053596715 -0.010719329 0.63054645
-0.005476871 -0.012322962 0.63408333
-0.0055993279 -0.01399833 0.63777882
-0.0057273689 -0.015750259 0.64164275
-0.005861402 -0.017584205 0.64568758
-0.006001859 -0.019506037 0.64992625
-0.0061492133 -0.021522254 0.65437305
-0.0063040061 -0.023640007 0.65904433
-0.006466771 -0.025867105 0.66395622
-0.0066381642 -0.028212219 0.66912842
-0.0068188892 -0.030685008 0.6745823
-0.0070097302 -0.033296227 0.68034148
-0.0072115888 -0.036057979 0.68643308
-0.0074253883 -0.038983285 0.69288504
-0.007652252 -0.042087376 0.69973129
-0.0078934152 -0.045387119 0.70700896
-0.0081503084 -0.048901796 0.71476138
-0.0084244488 -0.052652776 0.72303438
-0.0087176729 -0.056664854 0.73188317
-0.0090320446 -0.060966283 0.7413702
-0.0093699377 -0.065589577 0.75156701
-0.0045484616 0.068226933 0.65182006
-0.0045003658 0.066005379 0.64988482
-0.0044532763 0.063830286 0.64799011
-0.0044071758 0.061700493 0.64613515
-0.0043620067 0.059614092 0.64431775
-0.0043177539 0.05757007 0.64253712
-0.0042744027 0.055567265 0.64079279
-0.0042319009 0.053604066 0.63908273
-0.0041902363 0.051679581 0.63740617
-0.004149396 0.049792767 0.63576293
-0.0041093323 0.047942221 0.63415086
-0.0040700343 0.046127051 0.63256961
-0.0040314933 0.044346452 0.63101888
-0.0039936635 0.042599052 0.62949669
-0.0039565479 0.040884346 0.6280033
-0.0039201053 0.039201081 0.62653697
-0.0038843281 0.037548512 0.62509739
-0.0038492081 0.035925955 0.62368429
-0.0038147073 0.034332395 0.62229609
-0.0037808295 0.032767177 0.620933
-0.0037475384 0.031229496 0.61959338
-0.0037148283 0.029718637 0.61827725
-0.0036826939 0.028234005 0.61698425
-0.0036511011 0.026774764 0.61571312
-0.0036200462 0.025340348 0.61446351
-0.003589524 0.023930132 0.61323541
-0.003559503 0.02254352 0.61202747
-0.0035299892 0.021179944 0.6108399
-0.0035009519 0.01983875 0.60967153
-0.0034723887 0.018519402 0.60852224
-0.0034442958 0.017221481 0.60739183
-0.0034166456 0.015944362 0.60627931
-0.0033894442 0.014687598 0.60518485
-0.003362664 0.013450652 0.60410726
-0.0033363043 0.012233108 0.60304666
-0.0033103621 0.011034578 0.60200274
-0.0032848127 0.0098544359 0.6009748
-0.0032596621 0.0086924434 0.59996277
-0.0032348861 0.0075480938 0.59896588
-0.0032104843 0.00642097 0.59798408
-0.003186455 0.0053107738 0.59701717
-0.0032229212 0.0042972565 0.59848446
-0.0032791826 0.0032792091 0.60074818
-0.0033374433 0.0022249818 0.60309249
-0.0033978196 0.0011326373 0.6055218
-0.0034604124 2.9802322e-08 0.60804039
-0.0035253542 -0.0011751056 0.6106534
-0.0035927808 -0.0023951828 0.61336648
-0.0036628363 -0.0036628544 0.61618531
-0.0037356885 -0.0049809217 0.61911654
-0.0038114868 -0.0063524842 0.62216651
-0.003890425 -0.0077808499 0.62534273
-0.0039727022 -0.0092696548 0.62865329
-0.0040585343 -0.010822743 0.6321069
-0.0041481699 -0.012444496 0.63571358
-0.0042418409 -0.014139444 0.63948262
-0.0043398407 -0.015912741 0.64342582
-0.0044424753 -0.017769873 0.64755547
-0.0045500821 -0.019717008 0.65188527
-0.0046630311 -0.021760792 0.65643001
-0.0047817472 -0.023908734 0.66120672
-0.0049066483 -0.026168764 0.66623241
-0.0050382493 -0.028550059 0.67152762
-0.0051771048 -0.031062633 0.67711473
-0.005323831 -0.033717573 0.68301857
-0.0054791369 -0.036527604 0.68926764
-0.0056437547 -0.039506257 0.69589126
-0.00581857 -0.042669535 0.70292532
-0.0060045621 -0.046034962 0.71040905
-0.006202864 -0.049622893 0.71838802
-0.0064146817 -0.053455681 0.72691101
-0.0066414773 -0.05755946 0.73603654
-0.006884899 -0.061964065 0.74583107
-0.0030362043 0.066796511 0.65205526
-0.0030040583 0.064587265 0.65011507
-0.0029725858 0.062424302 0.64821553
-0.0029417754 0.06030643 0.64635593
-0.0029115877 0.058231741 0.64453399
-0.0028820136 0.056199282 0.64274907
-0.0028530427 0.054207861 0.64100045
-0.0028246401 0.052255839 0.63928628
-0.0027967975 0.050342351 0.63760579
-0.0027695065 0.048466355 0.63595861
-0.002742735 0.046626508 0.63434285
-0.0027164838 0.044822007 0.63275838
-0.0026907227 0.043051571 0.63120359
-0.0026654454 0.041314393 0.62967801
-0.0026406464 0.0396097 0.62818122
-0.0026162975 0.0379363 0.62671161
-0.0025924002 0.036293626 0.62526929
-0.0025689288 0.034680516 0.62385261
-0.0025458783 0.033096433 0.62246144
-0.0025232448 0.031540573 0.62109542
-0.0025010034 0.030012071 0.619753
-0.0024791507 0.028510213 0.61843413
-0.002457683 0.027034551 0.61713839
-0.0024365776 0.025584042 0.61586463
-0.002415838 0.024158388 0.61461282
-0.002395442 0.022756696 0.61338186
-0.0023753878 0.021378517 0.61217141
-0.0023556724 0.020023197 0.61098152
-0.0023362758 0.018690199 0.60981083
-0.0023172016 0.017379016 0.60865963
-0.0022984308 0.016089022 0.60752666
-0.0022799617 0.014819771 0.60641199
-0.0022617923 0.013570756 0.60531539
-0.0022439051 0.01234147 0.60423577
-0.0022262984 0.011131495 0.60317314
-0.0022089712 0.0099403858 0.60212731
-0.0021919066 0.0087676346 0.6010974
-0.0021751085 0.0076128542 0.60008359
-0.002158561 0.0064756572 0.59908485
-0.0021422633 0.0053556859 0.59810114
-0.0021652023 0.0043303967 0.59948564
-0.0022032964 0.0033049285 0.60178483
