# .PCD v0.7 - Point Cloud Data file format
VERSION 0.7
FIELDS x y z
SIZE 4 4 4
TYPE F F F
COUNT 1 1 1
WIDTH 688
HEIGHT 1
VIEWPOINT 0 0 0 1 0 0 0
POINTS 688
DATA ascii
-0.048755188 2.9802322e-08 0.60892963
-0.040920027 -0.0046766102 0.60993224
-0.046550952 -0.0011637807 0.60928404
-0.046550952 -0.0011637807 0.60928404
-0.042255394 -0.0023475289 0.61048961
-0.042255394 -0.0023475289 0.61048961
-0.050636984 0.0058880448 0.61095351
-0.037885468 -0.0035517514 0.61171603
-0.032344207 -0.0047917366 0.61340749
-0.049093496 0.0095792115 0.61334336
-0.047156449 0.010882258 0.61476022
-0.036377884 0.0024251938 0.61517745
-0.049981281 0.015847743 0.61595714
-0.026863508 -0.0036631823 0.61620009
-0.041607819 0.0097900629 0.61652499
-0.048915546 0.015897572 0.61641985
-0.025911458 -0.0012338758 0.61774647
-0.034540676 0.006167978 0.61771232
-0.034540676 0.006167978 0.61771232
-0.044259127 0.013523608 0.61720824
-0.022258583 -0.0037097335 0.61807346
-0.02851158 0.0024792552 0.61844122
-0.036055882 0.0099464059 0.61888444
-0.046071187 -0.011206478 0.61910903
-0.016214259 -0.0062362552 0.61936063
-0.024939222 0.001246959 0.61932564
-0.041262954 0.016255081 0.61973989
-0.047456652 0.021230608 0.61955476
-0.018796969 -0.0025062561 0.62007046
-0.021404095 0.0012590587 0.62078667
-0.021404095 0.0012590587 0.62078667
-0.051470652 0.026363015 0.62034214
-0.048198104 -0.01268369 0.62191004
-0.034125939 -0.010111392 0.62137324
-0.025313884 0.0063284636 0.62158692
-0.02659297 0.0075980127 0.62166387
-0.034165688 0.013919353 0.62155098
-0.039306317 0.019019186 0.62185872
-0.049277738 0.02653414 0.62132591
-0.016558558 -0.0076423883 0.62255758
-0.053550571 0.033150375 0.6227119
-0.053550571 0.033150375 0.6227119
-0.01535722 0.0012798011 0.62328583
-0.01922584 0.0051269233 0.62352175
-0.032084487 0.016683966 0.62372172
-0.055271778 0.037276328 0.62396449
-0.0090038534 -0.0025725365 0.62406999
-0.033512577 0.019334197 0.62439358
-0.04252499 0.027061313 0.62435627
-0.025957467 -0.01038295 0.62547129
-0.01167746 0.0025949776 0.6254257
-0.04021408 0.027241826 0.62539339
-0.046640944 0.032389551 0.62519467
-0.0506058 0.036332399 0.62543643
-0.0506058 0.036332399 0.62543643
-0.0039104926 -0.002606988 0.62615019
-0.028737506 0.019593745 0.62648249
-0.035223678 0.024787039 0.6262809
-0.037872046 0.027424604 0.62644416
-0.0547942 0.041747957 0.62628615
0.0013109212 -0.005243659 0.62704629
-0.0013174191 -0.0013174117 0.62783062
-0.01181389 0.0065632761 0.6272555
-0.059286006 0.0092222989 0.62783641
-0.059286173 0.01053977 0.62783688
-0.018353557 0.01179871 0.62705195
-0.018425222 0.013160884 0.62766993
-0.018425222 0.013160884 0.62766993
-0.04201813 0.032826662 0.62730527
-0.047369245 0.038158566 0.62763673
-0.0079564406 0.0066303313 0.62887537
-0.023739221 0.01846385 0.62800288
-0.023739221 0.01846385 0.62800288
-0.051599003 0.04366073 0.62851053
-0.056787707 0.047543198 0.62821996
-0.059491504 0.050237268 0.62838769
-0.059491504 0.050237268 0.62838769
-0.058416899 -0.017259538 0.62906647
-0.011953546 0.010625392 0.62912863
-0.011953546 0.010625392 0.62912863
-0.018643606 0.017311931 0.62955284
-0.019985883 0.018653482 0.62963814
-0.026613101 0.023951799 0.62942839
-0.034570165 0.030581295 0.62930369
-0.034570165 0.030581295 0.62930369
-0.056202766 -0.017396092 0.6303345
-0.026718581 0.025382668 0.63006502
-0.037776701 -0.014840841 0.63166308
0.013519044 -0.0054076016 0.63199341
-0.020225737 0.022922546 0.63156831
-0.028293831 0.029641151 0.6314407
-0.036494944 0.037846625 0.63196445
-0.044391993 0.043046802 0.63118553
-0.044391993 0.043046802 0.63118553
-0.051255058 0.049906254 0.63162076
-0.055390522 0.054039568 0.63188285
-0.055390522 0.054039568 0.63188285
-0.028449487 -0.013547391 0.63233542
-0.018942973 0.023002177 0.63213408
-0.037866972 0.03921935 0.63205224
-0.040615458 0.041969329 0.63222808
-0.047321931 0.047321945 0.63201165
-0.059539486 0.058186352 0.63214624
-0.0027213567 0.010885417 0.63305253
-0.0041008093 0.013669401 0.63380796
-0.008181762 0.016363531 0.63340849
-0.0068421238 0.016421139 0.63398761
-0.027369447 0.034211814 0.63399339
-0.040944375 0.045038819 0.63355154
-0.055838138 0.057200074 0.63320071
-0.010965276 0.020559907 0.63425732
-0.028753575 0.035599649 0.63408339
-0.043899298 0.04938671 0.63440144
-0.049494762 0.054994166 0.63476378
-0.050897308 0.056399703 0.63485408
-0.038698133 -0.016584903 0.6356355
-0.022118783 -0.013824224 0.63567746
0.017904989 -0.0027545989 0.63505977
0.019350821 -0.0027644038 0.63565063
0.01242299 0.0027606487 0.63542497
-0.026307149 0.037383854 0.63593853
0.013852444 0.0027705133 0.63601792
0.011094183 0.0055470765 0.63620239
0.006945339 0.0097234547 0.6364795
0.006945339 0.0097234547 0.6364795
-0.020894488 0.034824163 0.63694996
-0.036138389 0.0472579 0.63658446
-0.040375065 0.051513046 0.63686275
0.0070030596 0.012605518 0.63787293
0.0070030596 0.012605518 0.63787293
-0.022392338 0.03778708 0.63774121
0.022552906 0.0014095306 0.63895267
0.012629877 0.0084199011 0.63819981
0.011232828 0.0098287165 0.63829446
0.0014037365 0.018248588 0.63825011
-0.012651518 0.03092593 0.63849002
-0.040711503 0.054749966 0.63826317
-0.044998299 0.059060246 0.63854712
-0.044998299 0.059060246 0.63854712
-0.039665643 -0.018416166 0.63980651
0.014143066 0.0099001527 0.63952601
0.001415531 0.021232963 0.63967383
-0.029719476 0.04811728 0.63963544
-0.01567664 0.03847903 0.64083481
-0.021335348 0.042670727 0.64049768
-0.025645876 0.047017425 0.64078915
-0.027086001 0.048469692 0.64088672
-0.036899194 0.055348814 0.64011669
-0.053068526 -0.021514237 0.64193755
-0.0028586865 -0.012864053 0.64134109
0.0042958781 0.02291134 0.64165688
-0.025754742 0.048647851 0.64151925
0.033031553 -0.0071807802 0.64216328
0.018667853 0.011487871 0.64214331
0 0.028810829 0.6426928
-0.028771268 0.053226858 0.64245409
-0.028771268 0.053226858 0.64245409
-0.033143762 0.057641327 0.64275223
-0.036067184 0.06059286 0.64295185
0.036114041 -0.0014445484 0.64317811
0.023133351 0.010120869 0.64333177
0.0057736225 0.024537921 0.64303857
-0.0058002323 0.036251485 0.64384162
0.017465061 0.017465085 0.64448905
0.0087251402 0.024721265 0.6443404
-0.0087103713 0.03919664 0.64404327
-0.0087103713 0.03919664 0.64404327
-0.021889575 0.052534997 0.64495784
-0.046891365 -0.021980345 0.64568812
0.042523645 -0.0014663339 0.64580613
0.026333684 0.011703849 0.64540172
0.024885187 0.013174504 0.64550459
0.038358655 0.0044260025 0.64689255
0.038358655 0.0044260025 0.64689255
0.038358655 0.0044260025 0.64689255
0.032391489 0.0088340342 0.64653134
0.028023623 0.013274342 0.64684361
-0.022080841 0.055938154 0.64649701
-0.023566624 0.057443649 0.6466006
-0.027912462 0.060232162 0.64613736
-0.060854174 -0.025232255 0.64796877
0.047459126 -0.0014831126 0.64782983
0.023640458 0.017730355 0.64715755
0.011823924 0.028081864 0.64721334
0.0059258817 0.03407383 0.64763343
0.0059258817 0.03407383 0.64763343
-0.023670061 0.059175193 0.64738095
-0.0074272603 -0.016339958 0.64811409
0.028271044 0.016367465 0.64841551
0 0.040094107 0.64805543
-0.0059539168 0.046142876 0.64847946
-0.0089414651 0.049178034 0.64869249
-0.031458121 -0.020972073 0.64962935
0.052508764 -0.0015002489 0.64990038
0.052508764 -0.0015002489 0.64990038
0.046411846 0.0029943287 0.64952683
0.040519629 0.0090043545 0.6499579
0.019412231 0.025385231 0.64905512
0.051221702 -0.0075325668 0.6506573
0.034599237 0.015043139 0.65039098
0.027158845 0.02263239 0.65093541
0.012035016 0.034600675 0.65039849
-0.004522691 0.049749583 0.65078312
0.043878648 -0.0090783536 0.65144622
0.057418019 -0.0030219853 0.65119803
0.024279026 0.027313918 0.65197527
-0.015139098 0.060556382 0.65154922
0.0091140876 -0.015190125 0.65216541
0.036471475 -0.010637492 0.65224147
0.060912922 -0.0030456483 0.65262508
0.060912922 -0.0030456483 0.65262508
0.050239075 0.0060895979 0.65257359
0.028909229 0.024344623 0.65247005
0.0030651439 -0.01685831 0.65380192
0.058200739 0.0015316308 0.65368438
0.038244966 0.018357605 0.65346718
0.0030607169 0.048971474 0.65353477
0.0030607169 0.048971474 0.65353477
-0.032312382 -0.02308023 0.65453982
0.065055616 -0 0.65577811
0.055711739 0.007737726 0.65560979
-0.0030963642 0.058830917 0.65568626
0.068383478 -0.0015541613 0.65640903
0.054447521 0.0108895 0.65658695
0.007778883 0.05134061 0.65660298
0.04681401 0.018725634 0.6571691
0.031258475 0.032821387 0.6574657
0.020388136 -0.015683204 0.65811688
0.032953821 0.032953829 0.65822691
0.032953821 0.032953829 0.65822691
0.029852536 0.036137283 0.658463
0.004747638 -0.018990546 0.65983433
0.042753372 -0.012667656 0.65994442
0.042753372 -0.012667656 0.65994442
0.069342911 0.0031519234 0.65904117
0.055212162 0.015774935 0.65922403
0.045919981 0.025335163 0.6599431
0.041054223 0.028422177 0.65940732
0.012656427 0.053789824 0.65977484
-0.041309718 -0.027010202 0.66059351
0.074628338 0.0015878677 0.66047305
0.022273799 0.047729582 0.66085309
-0.020758362 -0.023951948 0.66155457
-0.020758362 -0.023951948 0.66155457
0.071882099 0.0063895285 0.66162497
0.049489509 0.025542974 0.66151094
0.046355516 0.028772414 0.66175604
0.039873846 0.033494055 0.66133213
0.012776363 0.057493657 0.6615845
-0.019252513 -0.024065644 0.66246945
-0.0096276617 -0.022464544 0.6624977
0.02407692 0.049758941 0.66256022
0.067862563 0.014541984 0.66384542
0.054955151 0.025861263 0.66391218
0.020993378 0.054905772 0.66373682
0.019390959 0.05655697 0.66386211
-0.074729115 0.003249079 0.66490418
0.066608675 0.017870665 0.66491091
0.04044804 0.038830131 0.66410452
0.025912296 0.0518246 0.66429728
0.063441478 0.021147162 0.66516471
0.076799318 0.011438191 0.66604877
-0.050913312 -0.031204939 0.66705513
0.034562938 0.051021516 0.6674763
0.028052993 0.057756156 0.66799802
-0.039615016 -0.029711246 0.66805226
0.061152611 0.02974993 0.66831148
0.056305163 0.034776717 0.66870511
0.043072134 0.046385407 0.66877592
0.036541857 0.053151786 0.66930377
-0.043764062 -0.031981409 0.67198831
-0.0050277612 -0.025138795 0.67110562
0.02515031 -0.020120233 0.67119819
0.068934716 0.03026405 0.67175919
0.062065624 0.035226434 0.67129016
0.056347512 0.047810018 0.67491764
-0.049545795 -0.034169495 0.67503536
0.063326471 0.042788148 0.67540365
0.044606794 0.060047626 0.67590094
-0.068664476 -0.037765443 0.67601752
-0.037783306 -0.03263101 0.67611539
0.084461913 0.027579397 0.67687464
0.068669468 0.039484948 0.67603254
0.069376163 0.043360114 0.6781652
0.053823423 0.057295889 0.67838675
0.061126821 -0.017464817 0.67962301
0.071617082 -0.015720814 0.67965651
0.05580879 0.057552814 0.67932653
0.042119764 -0.021059901 0.68065017
0.073500223 0.043750107 0.68004847
0.068392806 0.049102515 0.68048984
0.086225726 0.035194218 0.68121976
0.086225726 0.035194218 0.68121976
-0.057256479 -0.039363831 0.68478751
0.085871384 0.042935699 0.68475395
0.063070841 -0.01982227 0.6863277
0.082850769 0.048629791 0.68621659
-0.020009279 -0.034561485 0.68837994
0.089496732 0.049314559 0.68927777
0.084660642 0.057053894 0.69096595
0.077103361 0.06241703 0.69040406
0.085125446 0.059217691 0.69218564
0.089679234 0.059786171 0.69432998
-0.05447324 -0.043202907 0.69554555
0.035738371 -0.028214514 0.69585693
0.074221253 -0.022837281 0.69852972
-0.07256303 -0.04773882 0.69930756
-0.059542622 -0.046097487 0.70065671
0.057760309 -0.029875994 0.7092278
0.081690744 -0.025901943 0.709315
0.084179029 -0.026055366 0.71073997
-0.082452431 -0.054297894 0.71155751
0.038280036 -0.034250557 0.71200454
-0.056666847 -0.050595403 0.71310031
-0.054971918 -0.050899923 0.7145707
0.045130655 -0.034873724 0.71642923
0 -0.043575227 0.71928018
-0.072990127 -0.05630669 0.72053808
-0.072990127 -0.05630669 0.72053808
-0.07134454 -0.056655943 0.72209966
-0.017011143 -0.048907071 0.72548246
-0.049817596 -0.056315541 0.73026133
0.028191237 -0.043371141 0.73057204
-0.032917779 -0.054862946 0.73370594
0.072535329 -0.037366658 0.73413104
0.072535329 -0.037366658 0.73413104
-0.030924026 -0.055221498 0.73543698
-0.026857056 -0.055952191 0.73896521
0.059044018 -0.043147564 0.74292886
0.027985377 -0.051306516 0.75031525
0.044627324 -0.04932493 0.75233012
0.058040861 -0.055517346 0.77341944
-0.049346395 0.00058157742 0.60896271
-0.046874639 0.0011718571 0.61026084
-0.049006786 0.0053151026 0.61135232
-0.038037848 -0.0071320832 0.61229086
-0.036992323 0.0030333251 0.61521339
-0.052727174 0.015296678 0.61456501
-0.028767215 -0.0012241751 0.61657548
-0.043087356 0.012927324 0.61740708
-0.028857911 -0.0087828636 0.62025881
-0.027125718 -0.0088320225 0.62110674
-0.029045695 0.0088400245 0.62124437
-0.04061652 0.017168572 0.62044001
-0.047169447 0.023271933 0.62064356
-0.052949689 0.028996229 0.62098491
-0.0089171799 -0.0063694119 0.6225754
-0.0070449794 -0.0064056367 0.62344968
-0.039755072 0.023083568 0.62360609
-0.050682504 0.03271915 0.62368768
-0.020610251 -0.0090169609 0.62429643
-0.012882391 0.001288265 0.62430829
-0.018003397 0.005143851 0.62403286
-0.018003397 0.005143851 0.62403286
-0.032683462 0.018922856 0.62453932
-0.053255804 0.038967699 0.62559789
-0.055396985 0.040683091 0.62553203
-0.047068074 -0.014381915 0.62662685
-0.016939348 -0.0091211796 0.62609339
0.00043867988 -0.0035054586 0.62751347
-0.017066944 0.011160418 0.62727815
-0.024780191 0.01565066 0.62623751
-0.043018382 0.03128612 0.62616104
-0.047002271 0.035251707 0.62640625
-0.047002271 0.035251707 0.62640625
-0.057314195 -0.017327577 0.62969798
-0.0033141524 -0.0079570562 0.62888831
0.0066709137 -0.0066708922 0.6298542
-0.0052883318 0.0033064932 0.62839371
-0.031204011 0.027222827 0.62909323
-0.04108388 0.035121396 0.62878036
-0.048901558 0.040971577 0.62834305
-0.0087062893 0.010716856 0.6305089
-0.016797565 0.018814594 0.63102698
-0.020541541 0.02098923 0.63051957
-0.036061116 0.033389926 0.63002491
-0.04863885 0.045070112 0.63039899
-0.053213567 0.051193908 0.63142657
-0.058830775 0.053482562 0.63020188
-0.057347313 0.05532442 0.63168824
0.016832948 -0.0050035617 0.63354975
0.0054251091 0.0027125478 0.63252127
0.0068051163 0.0027220547 0.63309413
-0.0068421238 0.016421139 0.63398761
-0.034534119 0.039079309 0.6333577
0.008936909 -0.0082481652 0.63474435
0.0082956348 0.0069130659 0.63569939
-0.012342665 0.021942496 0.63434768
-0.037089996 0.043958515 0.63462484
0.02083461 -0.006944865 0.63646811
0.0056055714 0.014013946 0.63796717
-0.013273834 0.029344946 0.63748252
-0.023001913 0.036945939 0.63709062
-0.030511241 0.041606247 0.63621473
0.025313426 -0.0070315003 0.6385597
0.014754552 0.0070253611 0.63841164
-0.0014053062 0.0210796 0.63843954
-0.016826695 0.033653378 0.6380676
-0.019315206 0.038632117 0.63940972
-0.026858807 0.045235902 0.63944328
-0.036667772 0.052887693 0.63904226
-0.043121532 0.05938223 0.63947248
-0.053068526 -0.021514237 0.64193755
0.032701798 -0.0042654276 0.6404326
0.012789621 0.012789607 0.64034235
0.012789621 0.012789607 0.64034235
0.0042958781 0.02291134 0.64165688
-0.0092581753 0.032764286 0.64076078
-0.029310074 0.051473647 0.64139915
-0.037055325 0.057008237 0.64084154
-0.037055325 0.057008237 0.64084154
-0.042672366 0.061163753 0.64050448
-0.042672366 0.061163753 0.64050448
0.034614772 -0.0072113872 0.64290297
0.027365152 0.0050424933 0.6426602
0.023133351 0.010120869 0.64333177
0.0086876592 0.023167104 0.64358634
0.001439716 0.027354598 0.6425932
-0.015946334 0.044939667 0.64379442
-0.035259053 0.059007183 0.6425308
-0.033286069 0.059336066 0.64349908
-0.065048575 -0.024850622 0.64525914
-0.03875174 -0.020473436 0.64533019
0.040726721 -0.0029090345 0.64438093
0.029099472 0.0072748661 0.64443499
0.013093332 0.021096393 0.64441574
-0.0029346051 0.038149923 0.6459232
-0.0029346051 0.038149923 0.6459232
-0.01461399 0.046764761 0.64521056
-0.023261674 0.052338749 0.64429992
-0.023261674 0.052338749 0.64429992
-0.024837023 0.055518061 0.64516258
-0.019140186 -0.01766789 0.64652908
0.048593067 -0.0051521808 0.64655268
0.024993733 0.014702231 0.64627528
0.016300671 0.025191933 0.64768279
0.013352614 0.028188854 0.64789337
0.0088783568 0.031074226 0.64742285
0.0049119228 0.032907218 0.6466617
0.05690762 -0.0059902668 0.64957666
0.037396323 0.010470986 0.64936954
0.0044864938 0.038883001 0.64932668
0.00074698206 0.041007146 0.6487968
-0.0029999106 0.046498626 0.64986479
-0.013406429 0.052882582 0.64861512
-0.048136234 -0.024068087 0.65038407
0.052861962 0.00075685978 0.65111852
0.028779317 0.022720546 0.65164465
-0.0090616578 0.054369956 0.65111065
0.044892427 0.012754261 0.65354025
0.033413168 0.019744128 0.65213716
0.033413168 0.019744128 0.65213716
0.028974775 0.025164023 0.65288651
0.024499619 0.030624539 0.65363944
-0.0068655172 0.056462139 0.65300906
-0.0046179947 -0.018472016 0.65461785
0.024752343 -0.013923198 0.65554619
0.032343976 -0.012321502 0.65472144
0.052620776 -0.0092860162 0.65562439
0.064463146 -0.0030696988 0.65407532
0.062966555 -0.0015357733 0.65418792
0.046384528 0.015461534 0.65544105
0.032425523 0.027023062 0.65519011
0.0061983331 0.051136255 0.65585536
0.018732965 -0.015610784 0.65724325
0.042211223 0.023450673 0.65752059
0.038952123 0.024929345 0.65688163
0.03280111 0.031239182 0.65734911
-0.0015543693 0.059066057 0.65643311
-0.0015615706 0.060901225 0.65730238
-0.0015615706 0.060901225 0.65730238
-0.033214334 -0.025306165 0.65972435
0.042753372 -0.012667656 0.65994442
0.062902451 0.0078628361 0.658629
0.05829398 0.012604117 0.65898538
0.051879328 0.017293066 0.65857351
0.039500024 0.030020028 0.65952712
0.0070865629 0.056679785 0.65885562
0.017574983 -0.017574936 0.66166669
0.073213197 -0.0079579651 0.66092616
0.075158663 -0.0079956055 0.66183507
0.073086664 0.0031776726 0.66059417
0.057561718 0.019187212 0.6618129
0.012776363 0.057493657 0.6615845
0.06910266 0.011249274 0.66279083
0.038485426 0.036881894 0.66237086
0.032307219 0.045230091 0.66379541
0.025176987 0.049282342 0.66278642
0.0048840479 -0.021164209 0.66532302
-0.074729115 -0.0016245544 0.66490424
-0.074729115 0.0008122921 0.66490412
0.057082228 0.027725637 0.66567367
0.022812264 0.057030648 0.66549581
0.019578686 0.060367614 0.6657505
0.072389089 0.018097281 0.6673981
0.06918925 0.02141574 0.66765845
0.052291248 0.032682031 0.66605765
0.052291248 0.032682031 0.66605765
0.019825444 -0.019825429 0.66823268
0.039662674 -0.016526103 0.66829193
0.054955337 0.038302243 0.6698252
0.047947194 0.041333824 0.66838127
0.037990533 0.049552858 0.66818947
-0.063943043 -0.035336941 0.67192543
-0.053855211 -0.033659518 0.67195725
-0.053855211 -0.033659518 0.67195725
0.055356022 -0.015097082 0.67129087
0.070568852 0.028563619 0.67162347
0.0486633 0.046985298 0.67136204
0.03672282 0.055084229 0.67029667
0.03672282 0.055084229 0.67029667
0.0067380923 -0.023583323 0.67214406
0.049125928 -0.016939938 0.67328769
0.079497054 0.023679972 0.67297745
0.077858023 0.025388509 0.6731149
0.062376048 0.037088454 0.67230296
-0.039301053 -0.032466084 0.67506742
0.063321888 -0.015402585 0.67538863
0.07360176 -0.013693333 0.67542082
0.083884835 -0.011983573 0.67545307
0.049652245 0.054788679 0.67547846
0.034386076 -0.020631641 0.67634243
0.08071243 0.029193878 0.67609882
0.07404536 0.036161691 0.67666614
-0.033135738 -0.033135712 0.67932189
0.085334711 0.031347454 0.67902476
0.066340268 0.048882276 0.6795404
0.057512913 0.055770099 0.67918056
0.077293918 0.042160332 0.6808542
0.070097826 0.047316045 0.68034303
-0.028342249 -0.033656418 0.68262988
0.082410403 0.046579778 0.68506098
-0.0018002597 -0.030604392 0.68611467
0.030619461 -0.025216043 0.6862216
0.063070841 -0.01982227 0.6863277
0.0018196278 -0.030933648 0.68845266
0.047597889 -0.023798913 0.68978775
-0.059123471 -0.042494982 0.69183028
0.071809381 -0.020253867 0.6910646
0.086437806 0.055173069 0.69080341
0.020459602 -0.029759437 0.69332159
0.040709145 -0.025905818 0.69216901
0.085176148 -0.01851657 0.69231868
-0.043210473 -0.041331768 0.69558525
-0.081102811 -0.050206482 0.70189881
0.081303149 -0.02322945 0.70247453
0.015648946 -0.035210162 0.70492852
-0.053065162 -0.04716903 0.70604599
0.055442132 -0.029701144 0.70782048
-0.024011737 -0.044021487 0.71034354
-0.080922484 -0.05462268 0.71300936
-0.056666847 -0.050595403 0.71310031
0.018344445 -0.038727164 0.7148453
-0.016395845 -0.045088559 0.71619833
-0.014433814 -0.045363426 0.71770632
0.057449736 -0.03282842 0.71647543
-0.069678716 -0.057009876 0.72368187
0.044418007 -0.038072556 0.72412449
-0.099561013 -0.031774789 0.72450793
-0.099561013 -0.025419861 0.72450787
-0.053464632 -0.055603206 0.72695416
-0.047958702 -0.056678444 0.73194623
0.054235321 -0.039049417 0.7306754
-0.0065862169 -0.050494313 0.73381299
0.051200069 -0.042295694 0.73751694
0.0068531148 -0.052540511 0.74455214
0.075462691 -0.041161448 0.74483907
0.031847868 -0.056346208 0.76452541
-0.045177113 -0.0061792685 0.60863924
-0.042137295 -0.0063519464 0.60985267
-0.045705028 -0.0018212751 0.60931963
-0.045461312 -0.0092588272 0.6144976
-0.041776858 -0.0084160566 0.61393416
-0.034199163 -0.0020357096 0.61395383
-0.03870346 0.0052695079 0.61557192
-0.052744072 0.014243474 0.61405742
-0.049815439 -0.012612984 0.62105644
-0.033838645 -0.010120928 0.6215173
-0.022054171 0.0060083694 0.62277645
-0.041438777 0.018310152 0.62064403
-0.012882917 -0.0077297091 0.62431467
-0.0035111932 0.00043961406 0.6277625
-0.010583444 0.0058410703 0.6274187
-0.033944409 0.021841865 0.6254077
-0.033944409 0.021841865 0.6254077
0.0058581689 -0.0021726005 0.63037771
-0.021867393 0.021985335 0.63044721
-0.05391518 0.049725678 0.63043994
-0.04202329 -0.016400807 0.63378358
-0.04202329 -0.016400807 0.63378358
0.010000933 -0.0082734451 0.63525289
0.017931882 -0.0022982161 0.635288
-0.0084637133 0.014220186 0.63227379
-0.028407382 0.03111285 0.63209337
-0.042355083 0.049787667 0.63522786
0.024749726 0.00070734322 0.63952297
0.0045900755 0.017654143 0.63927937
-0.0070718089 0.028287262 0.63953269
0.00072384736 -0.013001472 0.64318401
0.017999034 0.010145656 0.64123011
0.017999034 0.010145656 0.64123011
0.021955911 0.0095393751 0.64257079
-0.026312081 0.053590707 0.64363933
-0.054443102 -0.0235448 0.64643598
-0.054443102 -0.0235448 0.64643598
0.045898907 -0.0056949556 0.64611435
0.041646849 0.0012933351 0.64675689
0.0058337897 0.033435144 0.64729202
-0.01928257 0.056364417 0.64785123
-0.063728146 -0.02731204 0.65196288
-0.025245938 -0.019305706 0.6480661
-0.022118829 -0.019498564 0.64985693
-0.0022612952 -0.01659514 0.65091443
0.033964999 -0.010566354 0.65101457
0.038134672 0.009721905 0.64931738
0.0095584337 0.037984885 0.65098768
-0.0057481658 -0.018409424 0.65398848
0.019034859 -0.013703853 0.65260446
0.052620776 -0.0092860162 0.65562439
0.046293035 0.0099071451 0.65276355
0.031163013 0.022042543 0.65230346
0.014254011 0.038376827 0.65310681
-0.0022816369 0.051351555 0.65246677
0.0055985963 0.050173063 0.65515053
0.0046516024 0.052718163 0.65597016
-0.065791532 -0.029588945 0.65678841
-0.037776023 -0.024927638 0.6568687
-0.014993034 -0.022097692 0.65933478
0.065753877 0.0055075735 0.65868318
0.049847376 0.017869843 0.65801138
0.041637581 0.025926135 0.65846109
0.02578653 0.041574173 0.65937376
-0.041309718 -0.027010202 0.66059351
0.021588886 0.050372154 0.66182715
0.018414207 0.053638503 0.66207302
0.054459922 0.030187529 0.66576457
0.036185224 0.049343467 0.66734695
-0.028959211 -0.02813375 0.66857147
-0.0091028195 -0.02483137 0.66863173
0.0020828431 -0.023265108 0.66940033
0.054384857 -0.015059829 0.67079127
0.034245618 0.054130137 0.66882342
-0.04154747 -0.032222107 0.67351758
0.0097772479 -0.023791149 0.67393601
0.041813061 -0.018772259 0.67480505
0.082447708 0.022396911 0.67358249
0.055782143 0.043949544 0.6728496
0.05863291 0.041720152 0.6729638
0.0087255016 -0.026176512 0.67945635
0.079048857 0.030932158 0.67623985
0.076893173 0.040194154 0.67975467
0.054395214 0.054395519 0.67724383
0.042920444 0.061805427 0.67604232
-0.061640821 -0.038749486 0.68141675
-0.029951189 -0.033481698 0.68151987
0.0819747 0.044551462 0.68391764
0.073384792 0.050304752 0.68311632
0.062007498 -0.019769743 0.68575132
0.085855998 -0.016266972 0.68698192
0.057523489 -0.021912768 0.68922961
-0.07842467 -0.046685439 0.69422138
-0.0027788375 -0.033376545 0.6926322
0.051820159 -0.024059355 0.69220579
-0.064210765 -0.045325249 0.69677252
0.085654743 -0.0209378 0.69856954
-0.048026636 -0.044184506 0.70069718
0.069676138 -0.025160819 0.70243341
0.069676138 -0.025160819 0.70243341
-0.077377394 -0.050933808 0.70527554
-0.059168838 -0.050145611 0.71092856
-0.059168838 -0.050145611 0.71092856
0.045801602 -0.031861961 0.70918417
-0.042763859 -0.048872977 0.7146163
-0.020249346 -0.044548541 0.71323538
-0.020249346 -0.044548541 0.71323538
0.02715208 -0.039683789 0.72092301
-0.08072447 -0.059481204 0.7252332
-0.0042536086 -0.046789706 0.72553211
0.049264379 -0.038554728 0.72735786
-0.023835201 -0.052004099 0.73036444
-0.023835201 -0.052004099 0.73036444
0.014051413 -0.045385733 0.72968704
0.014051413 -0.045385733 0.72968704
-0.045121893 -0.057232305 0.73451757
0.035377294 -0.04422164 0.73570526
-0.0023151594 -0.055563807 0.7482686
0.055566151 -0.050734282 0.76043135
0.031847868 -0.056346208 0.76452541
