# .PCD v0.7 - Point Cloud Data file format
VERSION 0.7
FIELDS x y z
SIZE 4 4 4
TYPE F F F
COUNT 1 1 1
WIDTH 794
HEIGHT 1
VIEWPOINT 0 0 0 1 0 0 0
POINTS 794
DATA ascii
-0.040675916 0.03589052 0.6132164
-0.037145261 0.038343519 0.61344379
-0.039959177 0.033904791 0.61497074
-0.035448175 0.035448164 0.61635494
-0.034650665 0.033413172 0.61818647
-0.034650665 0.033413172 0.61818647
-0.044746313 0.044746339 0.61884189
-0.028711317 0.036201239 0.61948943
-0.046388123 0.021313459 0.62014306
-0.04529554 0.021389574 0.62068343
-0.027685327 0.035235912 0.6207093
-0.031551257 0.031551242 0.62114704
-0.022770602 0.037951022 0.62150717
-0.04685415 0.046854138 0.62166345
-0.047240384 0.016597956 0.62292355
-0.040659029 0.02287069 0.62217844
-0.039530862 0.022953451 0.62273306
-0.034454465 0.02679792 0.62284195
-0.024168851 0.035617262 0.62235355
-0.022874702 0.036853731 0.62220526
-0.049951278 0.048670471 0.62341064
-0.045222122 0.015504748 0.62476963
-0.021882823 0.034755051 0.62418592
-0.037597436 0.0207434 0.62530106
-0.049707033 0.0091565549 0.62670332
-0.037773605 0.019538075 0.62603438
-0.037773605 0.019538075 0.62603438
-0.028861243 0.02492559 0.62716138
-0.024968663 0.027596951 0.62743485
-0.019726474 0.031562328 0.62755054
-0.052926645 0.0039694905 0.62852442
-0.031697944 0.021131963 0.62823248
-0.054251939 0.030434012 0.62853068
-0.054251939 0.033080459 0.62853068
-0.040054321 0.012016296 0.62997025
-0.033369265 0.017352045 0.62992519
-0.032002047 0.018667847 0.62976193
-0.013272913 0.034509569 0.62902236
-0.011990787 0.034640044 0.62962812
-0.053693384 -0 0.63083827
-0.034887027 0.048305124 0.63077474
-0.03766926 0.012107998 0.6311999
-0.0040499317 0.037799358 0.63176078
-0.050240222 -0 0.63271034
-0.032469299 0.01488176 0.63211209
-0.023057308 0.021701008 0.63252544
-0.013531354 0.029769003 0.63214201
-0.046476644 0.0013669729 0.63381082
-0.016350927 0.025888979 0.63328171
-0.0013670827 0.036911219 0.6338256
-0.041242756 0.004124254 0.63475215
-0.0054854536 0.032912731 0.63434231
-0.0054854536 0.032912731 0.63434231
-0.052420467 -0.0055179298 0.63532281
-0.019305365 0.020684302 0.63525867
-0.057931479 0.028965741 0.6353029
-0.057931311 0.042758822 0.63530242
-0.057931311 0.044138134 0.63530242
-0.026223172 0.048305809 0.635405
-0.057931311 0.056551993 0.63530242
-0.030593846 0.009734422 0.63666791
-0.012531336 0.023670316 0.63687813
0.0069631669 0.038993716 0.63690984
-0.040194709 0.052668929 0.63611209
-0.040629309 -0 0.63792109
-0.033614386 0.0056023896 0.63787144
-0.0097748199 0.025135279 0.63736486
-0.02255822 0.012689024 0.63899279
-0.0056241849 0.026714891 0.63852894
0.0028082656 0.033699214 0.63829792
-0.056705493 -0.015593976 0.6399281
-0.056417767 -0.014104456 0.63905978
-0.045204781 -0.0056506097 0.63932598
-0.026874401 0.0084866583 0.6395424
-0.0084974626 0.022659898 0.63975984
-0.015663082 0.015663058 0.64068609
-0.05309302 -0.015784413 0.64201748
-0.061936662 0.010082722 0.64267427
0.0071789618 0.031587452 0.64211959
-0.061936662 0.051853955 0.64267427
-0.044811547 0.057821363 0.64329547
-0.05392817 -0.020405263 0.64474213
-0.045119327 -0.013099164 0.64449394
0.011628403 0.03197813 0.64426321
-0.039195467 0.05661568 0.64403784
-0.030706853 -0.0029244721 0.645311
-0.016074792 0.0087680817 0.64520407
-0.0029241636 0.019007087 0.64529294
0.0014648963 0.021973431 0.64563274
-0.061883412 -0.029468298 0.64666104
-0.048647407 -0.019164115 0.6467514
-0.044076554 -0.014692187 0.64615446
-0.0014681686 0.019086212 0.64602774
-0.062213175 -0.031106591 0.64760876
-0.013332689 0.0074070394 0.64762616
0.0059335451 0.022250831 0.6478647
0.017735111 0.032514364 0.64720559
0.023666134 0.036978334 0.64735126
-0.044547457 -0.017819017 0.64804924
-0.026794482 -0.0044657588 0.64849198
-0.016332373 0.0044543147 0.64803064
-0.056636602 0.064088821 0.64871573
-0.04943388 -0.023967922 0.64962828
-0.032897934 -0.010467499 0.64931011
-0.020969754 -0.0014978051 0.64960933
-0.014990797 0.0029981732 0.64975905
-0.0044855997 0.011961609 0.64929068
0.013490304 0.025481701 0.6497401
0.019502142 0.030003279 0.64989007
-0.05567985 -0.030097187 0.65045691
-0.066313125 0.0030142367 0.65072918
-0.066313125 0.0030142367 0.65072918
0.015053211 0.02559045 0.65051246
-0.066313125 0.031649441 0.65072918
0.028615955 0.036146492 0.65060681
-0.066313125 0.037677914 0.65072918
-0.066313125 0.043706387 0.65072918
-0.066313125 0.043706387 0.65072918
-0.045107182 0.061646461 0.6503014
-0.06356813 -0.037838161 0.65150297
-0.045520104 -0.024277389 0.65196288
-0.036362611 -0.016666174 0.65169394
0.0030192689 0.048308313 0.65103316
-0.0060859378 0.0060859323 0.65246356
0.0060962029 0.01524052 0.65277338
0.0060962029 0.01524052 0.65277338
0.028929442 0.033497274 0.65259844
-0.056599069 -0.035183191 0.65345579
-0.033621393 -0.016810715 0.65327966
0.0153018 0.021422535 0.65351313
-0.061402649 -0.039911717 0.65410304
-0.050802737 -0.032329023 0.65463543
-0.049205713 -0.030753583 0.65441835
-0.043091599 -0.026162773 0.65457612
-0.063361503 -0.043271273 0.65535069
-0.0093032047 -0.0015505254 0.6559701
0.035635389 0.034086049 0.65582901
-0.066982411 -0.048289627 0.65683883
-0.029620901 0.060800821 0.65699142
-0.056241818 -0.040619075 0.65738714
-0.051661056 -0.037571669 0.65777504
-0.051661056 -0.037571669 0.65777504
-0.04543855 -0.032903761 0.6579392
-0.038985156 -0.026509911 0.65704113
-0.028151248 -0.018767506 0.65759057
0 0.0031313002 0.65779448
0.028212123 0.025077462 0.6579988
-0.047061414 -0.034511685 0.65816468
-0.026705811 -0.018851131 0.65843219
-0.015755497 -0.011028826 0.65898979
0.012546919 0.012546927 0.65812248
0.022047993 0.018898278 0.6589061
0.022047993 0.018898278 0.6589061
-0.06646315 -0.05222103 0.65982342
-0.071114786 -0.017383605 0.65956664
-0.071114786 -0.012642622 0.65956664
0.0079148244 0.006331861 0.65988487
-0.071114786 0.022124618 0.65956664
-0.071114786 0.050570518 0.65956664
-0.071114548 0.05689165 0.65956604
-0.011064632 0.056903839 0.65960687
-0.05720634 -0.046082914 0.66062129
-0.025391484 -0.020630598 0.66036808
-0.017450903 -0.014277995 0.66030502
0.020614659 0.015857428 0.66022021
-0.062199213 -0.051035255 0.66131979
-0.055869021 -0.046291441 0.66148943
-0.055869021 -0.046291441 0.66148943
-0.046220124 -0.038251132 0.66119248
-0.041525707 -0.035137117 0.66159624
-0.033528771 -0.028738946 0.66153181
-0.033528771 -0.028738946 0.66153181
-0.0047951061 -0.0063934624 0.6617443
0.017585922 0.01119104 0.66178674
0.035105813 0.025531501 0.66142446
-0.068913303 -0.057694852 0.66225928
-0.043425038 -0.038600028 0.6629473
0.019272011 0.011242002 0.66266555
0.041765247 0.028914422 0.6627084
-0.027482368 -0.02748239 0.66394621
-0.0096812118 -0.01290828 0.66357505
0.0064498247 -0 0.66344476
0.045128446 0.0306229 0.6633572
0.014494548 0.051536173 0.66320932
-0.04189527 0.067676991 0.66331208
-0.016215023 -0.019458026 0.66453677
0.0064874566 -0.0016218424 0.66458046
0.014591819 0.0048639774 0.66451395
-0.037458561 -0.037458569 0.66539752
0 -0.0081495345 0.66555142
0 -0.0081495345 0.66555142
0.008146788 -0.0016293526 0.66548496
0.034139406 0.019508243 0.6650418
-0.052066196 0.071591049 0.6652087
-0.070540056 -0.065618664 0.66682595
-0.021282474 -0.026193798 0.66642118
0.024567679 0.0098270774 0.66650951
-0.039600216 -0.042900234 0.66797787
0.042753492 0.023021132 0.66729653
0.056010347 0.032947272 0.66765845
0.056010347 0.032947272 0.66765845
0.036291454 0.047838718 0.66792989
-0.050930303 0.072288215 0.66712129
-0.074446142 -0.071137443 0.66850293
-0.046433553 -0.049750239 0.66898358
-0.04471872 -0.048031211 0.66873103
-0.024764229 -0.031368017 0.6680913
0.037962932 0.018156171 0.66804463
-0.076406501 -0.041525275 0.66930592
-0.076406769 -0.024915248 0.66930658
-0.076406769 -0.0033220053 0.66930658
-0.076406769 -0.0016610026 0.66930658
-0.076406769 0.0033220351 0.66930664
-0.076406769 0.0083051026 0.66930664
-0.076406769 0.0099661052 0.66930658
-0.076406769 0.01328817 0.66930658
-0.076406769 0.034881353 0.66930658
-0.0083331438 0.061665267 0.66998404
0.028442832 0.0066924393 0.67076612
0.043525919 0.018414795 0.6708827
0.058626443 0.030150712 0.67099953
-0.013399949 0.063649744 0.67099375
-0.055022817 0.075031102 0.67007202
-0.063822366 -0.067181408 0.67154205
0.0083927577 -0.010071307 0.67142326
0.0653871 0.035208464 0.67118669
-0.036857963 0.070365191 0.67103815
-0.064210325 -0.069279552 0.67277443
-0.025366861 -0.038895845 0.67294085
0.01521293 -0.0067612827 0.67284453
0.025313413 0.0016875565 0.67251074
-0.032297678 -0.045896679 0.67399752
-0.010214847 -0.028942078 0.67431092
0.015306003 -0.0085033476 0.67409277
0.052832477 0.020451277 0.67452812
0.056440506 0.022234172 0.6752578
0.073491551 0.035891235 0.67511147
-0.046376653 -0.060117871 0.67614329
-0.0068763145 -0.029224336 0.67631525
0.0670036 0.029206693 0.67619002
-0.051549103 0.077323675 0.67622167
-0.062182933 -0.074274048 0.67730814
-0.046665002 -0.062220007 0.67743242
0.039856188 0.0051986575 0.67798096
0.076036662 0.034562141 0.677405
0.015534207 0.058684826 0.67715353
0.015534207 0.058684826 0.67715353
-0.027943997 -0.05064851 0.67962533
-0.010471376 -0.036649823 0.67947191
0.040106203 0.0034874976 0.67929316
-0.031520758 -0.054285735 0.68018699
-0.024539879 -0.049079746 0.68039167
-0.082268223 -0.028006226 0.6800946
0.0052719605 -0.026359797 0.68093145
0.0315971 -0.0052661598 0.68069893
-0.082268223 0.015753537 0.6800946
-0.082267925 0.038508415 0.68009382
-0.044191174 -0.06717059 0.68217796
0.058741704 0.049841464 0.68367535
0.058741704 0.049841464 0.68367535
-0.0035621829 0.067681462 0.68380088
0.08402355 0.030391514 0.68460286
-0.048473317 -0.075402915 0.68551695
-0.037635982 -0.066310972 0.68514049
-0.037635982 -0.066310972 0.68514049
-0.034178764 -0.064759791 0.68594843
0 -0.037771642 0.6859203
0.019743362 -0.021538228 0.68546182
0.026949482 -0.016169697 0.68567681
0.053838581 0.0053838491 0.68543386
0.053838581 0.0053838491 0.68543386
0.068331249 0.016183734 0.68586493
0.061167117 0.050372928 0.68596661
-0.014453947 -0.050588816 0.68689734
0.0054087322 -0.034255296 0.68643475
0.021648394 -0.021648407 0.68657011
0.032627288 -0.014501005 0.68760759
0.059749089 0.007242322 0.68736029
0.077796452 0.021710634 0.68719625
0.047223039 -0.0036325157 0.68804735
0.027482357 -0.021985888 0.68996507
0.038407102 -0.012802362 0.68957305
-0.025843581 -0.066454947 0.69163245
-0.0074275178 -0.053849488 0.6929493
-0.088796303 -0.031448662 0.69210958
-0.088796303 -0.031448662 0.69210958
0.038919229 -0.016679674 0.69251686
0.048167199 -0.0092629194 0.69243085
0.066641577 0.005553484 0.69225824
-0.088796303 0.0092495978 0.69210958
-0.088796303 0.0092495978 0.69210958
0.074619703 0.0093274713 0.69398898
-0.014939451 -0.061625242 0.69422305
0.029863441 -0.026130527 0.6941064
-0.022537336 -0.069490135 0.69551224
0.031957865 0.06391573 0.69572502
-0.018854624 -0.067876667 0.69639957
0.088581041 0.01696232 0.6963079
0.03971355 -0.022693455 0.69708264
0.047327656 -0.017037988 0.69732231
0.03421903 0.064635932 0.698282
0.03421903 0.064635932 0.698282
0.0076061259 0.072258204 0.69833922
-0.017177511 -0.070618629 0.69919407
-0.0076314295 -0.062959284 0.69910288
0.0057440256 -0.053610891 0.69992584
0.036282688 -0.028644204 0.69931507
0.063033603 -0.0076404512 0.69937468
-0.013413434 -0.068983376 0.7001105
0.09032239 0.04996559 0.70078021
0.0096160388 0.073081881 0.70095587
0.025043283 -0.040454537 0.70134199
0.017439963 -0.048444331 0.70271409
0.063911937 -0.011620373 0.70258754
0.075390778 -0.001933068 0.70214951
0.083212346 0.0038703382 0.70239997
0.08924482 0.0077604055 0.70299548
0.08924482 0.0077604055 0.70299548
0.077750385 -0.0019437671 0.70343667
0.035148438 -0.03710112 0.70451474
-0.0098232049 -0.074656337 0.70595729
-0.096111171 -0.035306156 0.70557237
-0.096111581 -0.0078458488 0.70557332
0.013797459 -0.057160914 0.70673281
0.043310333 -0.033467084 0.7064414
0.072750703 -0.0098311603 0.7061497
0.037573114 -0.039550632 0.70751333
0.090997711 0.053411722 0.70759535
-0.0039675664 -0.073399991 0.70826799
0.0059489026 -0.065437943 0.70816946
0.031784032 -0.045689553 0.70859611
0.027895458 -0.04981333 0.70932412
0.022018032 -0.05604589 0.71042335
0.051977675 -0.031986266 0.71012187
0.089948423 -0.0019988418 0.71008712
0.052354194 -0.034231544 0.7118699
0.052354194 -0.034231544 0.7118699
0.056209229 -0.030112088 0.71112752
0.080567226 -0.01208508 0.71193731
0.080567226 -0.01208508 0.71193731
0.016322788 -0.067331493 0.715096
0.043080192 0.071800321 0.7164346
0.043080192 0.071800321 0.7164346
0.053517204 -0.041167051 0.71726942
0.072093576 -0.026777595 0.71744597
0.045686964 0.072683811 0.71948159
0.079669386 -0.027255327 0.72188163
0.081635557 -0.025118619 0.7214781
0.025254101 -0.07155332 0.72284079
0.035761036 -0.063107699 0.72272992
0.061217766 -0.04433012 0.72361928
0.055574793 -0.053437293 0.72682226
0.068258345 -0.042661458 0.72628886
0.043171242 -0.066915452 0.72936559
0.082147688 -0.036750287 0.72975421
0.05057586 -0.068167478 0.73424095
0.068333447 -0.055107623 0.73488724
0.068333447 -0.055107623 0.73488724
0.046332978 -0.072808951 0.73513204
0.067857385 -0.065595448 0.74184114
0.065708697 -0.067974508 0.74231237
0.06841407 -0.068414092 0.74408102
-0.044813961 0.037148446 0.61115998
-0.034825515 0.037254862 0.61545014
-0.041796915 0.043026239 0.61719632
-0.040848874 0.028470427 0.61822522
-0.040848874 0.028470427 0.61822522
-0.050922584 0.014639467 0.62247658
-0.038962737 0.022995099 0.62301254
-0.017981287 0.03917399 0.62384224
-0.050860029 0.047045499 0.62228787
-0.02136904 0.041447818 0.6251539
-0.016837208 0.040150285 0.62514496
-0.040458865 0.016966611 0.62634665
-0.040458865 0.016966611 0.62634665
-0.03006129 0.024833232 0.62657452
-0.03006129 0.024833232 0.62657452
-0.048926055 0.0072712153 0.62842298
-0.033369265 0.017352045 0.62992519
-0.031822372 0.04640764 0.62885821
-0.033692833 0.014824808 0.63148755
-0.022779575 0.024787918 0.63055336
-0.012815759 0.031030774 0.63166249
-0.0087413453 0.034970537 0.63116241
-0.044733405 0.0047428012 0.63243437
-0.040639792 0.0081279576 0.63232601
-0.034635182 0.012224644 0.6327647
-0.028741416 0.01505506 0.63401347
-0.020706011 0.019325584 0.6354332
-0.057931311 0.037241548 0.63530242
0.00092080003 0.036751729 0.63517588
-0.036965452 0.050656378 0.63406801
-0.053079329 -0.0090810955 0.63741577
-0.053079329 -0.0090810955 0.63741577
-0.031066786 0.0092721088 0.63672948
-0.023752674 0.013972193 0.63746297
-0.020913722 0.016730964 0.63710475
-0.020786587 0.047116309 0.6360817
-0.059065714 -0.015469581 0.63856274
-0.0049296105 0.026768386 0.63886887
-0.0049296105 0.026768386 0.63886887
0.0070694173 0.035347074 0.63947493
0.0098510031 0.038698584 0.63867861
-0.056996163 -0.017098844 0.64080524
-0.03705477 -0.0014251769 0.64083898
-0.031218549 0.0042570829 0.64009559
-0.0085629448 0.020691961 0.64107728
-0.057283305 -0.020700198 0.64312589
-0.061936662 -0.0028807819 0.64267427
-0.033181604 -0.0014426708 0.64295077
-0.014370804 0.014370799 0.64227509
-0.061936662 0.018725067 0.64267427
0.00072292879 0.025248982 0.64297825
-0.061936662 0.041051075 0.64267427
-0.061936662 0.054734737 0.64267433
-0.062598027 -0.026933625 0.64453089
-0.046872176 -0.016112298 0.64561576
-0.037178434 -0.0072901845 0.64480472
-0.030706853 -0.0029244721 0.645311
-0.023266254 0.0043624341 0.64433444
-0.0029088636 0.020362079 0.64436954
0.013101831 0.032752693 0.64452982
0.013101831 0.032752693 0.64452982
-0.054499686 -0.023567438 0.64660668
-0.025142826 -0.0014789999 0.64733398
0.014812568 0.029625118 0.64760762
0.020699525 0.034743667 0.64727938
0.022880232 0.036901131 0.64697838
-0.056789078 -0.029143766 0.64920008
-0.040171098 -0.014878154 0.64839965
-0.029153559 -0.0074756891 0.64928293
-0.011965347 0.005982697 0.64934725
0.026806982 0.040210485 0.64857572
-0.029933641 0.056873918 0.64946967
-0.066312909 -0.036924258 0.65072858
-0.066312909 -0.027127981 0.65072858
-0.027084561 -0.0075234473 0.65043718
-0.066313125 -0.0030142367 0.65072918
-0.012030074 0.0045112967 0.65032393
-0.0045098574 0.010522991 0.65026677
-0.0030031421 0.012012541 0.65005982
0.0070429994 0.018611154 0.65096879
0.0090734893 0.019659221 0.65134865
-0.066313125 0.042952836 0.65072918
-0.060731888 -0.036439121 0.65207881
-0.05500526 -0.033614367 0.65324086
-0.025971936 -0.010694295 0.65322119
-0.025122868 -0.0091361851 0.65260994
0.0068747662 0.015273601 0.65317261
0.027589874 0.030655444 0.65382594
0.027438579 0.032011658 0.65281129
0.021419192 0.044368327 0.65348446
-0.063361503 -0.043271273 0.65535069
-0.01898234 -0.0071838698 0.65459633
-0.0030694644 0.0061389506 0.65406263
0.013864054 0.018485397 0.65475291
0.013864054 0.018485397 0.65475291
0.018420674 0.023025841 0.65410179
0.033963311 0.041682303 0.65515566
-0.062088385 -0.043461859 0.65617239
-0.041167088 -0.027185947 0.65632308
-0.024963928 -0.01560244 0.6571424
0.0062680305 0.0078350604 0.65795863
0.0062680305 0.0078350604 0.65795863
0.034317806 0.031198025 0.65710074
0.020351596 0.046965241 0.65777761
-0.040538009 0.063925326 0.65701067
-0.067372166 0.072072566 0.657933
-0.0062925899 -0.0031462908 0.65869981
0.0015726344 0.0031452477 0.65863788
0.022173613 0.01742211 0.65998924
0.039298598 0.03301084 0.65855455
0.0047191437 0.051910609 0.65868783
-0.028323632 0.06136784 0.65874666
-0.057370789 -0.04701446 0.66117269
-0.028634559 -0.023862123 0.66083175
0.036656968 0.027094275 0.66119057
0.036447994 0.028524548 0.66009378
0.047052231 0.035088465 0.66132915
-0.02700194 0.061945617 0.6605348
-0.035371568 -0.032155991 0.66288257
-0.027482368 -0.02748239 0.66394621
0.0032328437 -0.0032328665 0.6639235
0.019384 0.0096920133 0.66379207
0.050069686 0.033918172 0.66377008
0.041663278 0.04326576 0.66223496
-0.07058128 0.075393617 0.66243857
-0.017084375 -0.021154404 0.665232
-0.0016271722 -0.0089517981 0.66522115
0.016288072 0.0048864484 0.66541857
0.050362311 0.032491833 0.6649096
0.058465563 0.038977057 0.66484356
-0.060960084 -0.059312522 0.66768336
-0.034317199 -0.035951346 0.66606379
-0.027970266 -0.032906204 0.66741061
0.036941029 0.018880725 0.66699255
-0.034328479 0.067022294 0.66612858
-0.066151649 -0.064497858 0.66843438
-0.076406501 -0.061457425 0.66930592
-0.076406501 -0.058965892 0.66930592
-0.076406769 -0.019101679 0.66930652
-0.003306807 -0.014880598 0.66838759
-0.076406769 -0.0091355741 0.66930664
-0.076406769 -0.0091355741 0.66930664
0.011649762 -0.0049927235 0.66969705
0.011649762 -0.0049927235 0.66969705
0.024860637 0.0066294968 0.66886705
-0.076406769 0.0091356039 0.66930664
0.036358088 0.016526401 0.6682955
-0.076406769 0.021593213 0.66930658
-0.076406769 0.023254246 0.66930658
-0.076406769 0.034881353 0.66930658
-0.076406769 0.043186456 0.66930658
-0.076406501 0.04484731 0.66930592
-0.076406501 0.05149132 0.66930592
-0.076406501 0.058965892 0.66930592
-0.068709321 -0.070385188 0.67109555
-0.055072755 -0.058410525 0.67025471
0 -0.016791373 0.67149377
0.00083849841 -0.015057236 0.67075616
0.048655182 0.021810949 0.67132825
0.0653871 0.035208464 0.67118669
-0.0067510637 -0.023628712 0.67253554
0.035380911 0.010108858 0.67217815
-0.058924817 -0.068321005 0.67498106
-0.049634978 -0.061615795 0.67540663
-0.042829417 -0.056534827 0.67560291
-0.0324964 -0.047889411 0.67526001
-0.025679311 -0.042798847 0.67545527
0.0068469979 -0.017117471 0.67543054
0.018773617 -0.0068267584 0.67482013
0.054466035 0.022126824 0.67426139
0.0017087351 0.061514437 0.67506671
-0.056777097 -0.068820715 0.67648906
-0.043095011 -0.058609188 0.67688525
-0.039789654 -0.057089478 0.67763174
-0.024084274 -0.043007612 0.67646331
-0.017219475 -0.037882835 0.67666155
-0.017219475 -0.037882835 0.67666155
0.015543896 -0.012955904 0.67728341
0.032791398 0.00086025894 0.67713428
0.039609268 0.0068885982 0.67668509
0.065371118 0.02752468 0.67646182
0.075902045 0.041401118 0.67703563
-0.029544074 -0.050398678 0.67858559
0.01223581 -0.019227684 0.67980313
0.022543697 -0.0086706579 0.67813218
0.034795228 -0 0.67881191
0.045157652 0.0086841285 0.67845845
0.053822432 0.015625864 0.67838287
0.057501886 0.017424822 0.67914021
-0.038187306 0.074638844 0.67833209
-0.038187306 0.074638844 0.67833209
-0.0070063001 -0.035031497 0.68023801
-0.082268223 -0.019254237 0.6800946
0.042057913 0.0035048425 0.6803391
-0.031112408 -0.058673322 0.68342531
0.044310011 0.0017724037 0.68275177
0.051449981 0.0070965588 0.6829614
0.056543339 0.012368828 0.68209743
0.064926676 0.016898289 0.68352783
-0.016031636 0.07125172 0.68382519
-0.050014012 -0.075020999 0.68441933
-0.034986842 -0.064595312 0.68539703
0.0089321202 -0.028582782 0.68444461
0.044882357 -0.0017952621 0.68551534
-0.045050602 -0.073882997 0.6863277
-0.028850317 -0.061306894 0.686463
-0.028850317 -0.061306894 0.686463
0.048654091 -0 0.68632519
0.06533628 0.010889351 0.68788153
0.075599097 0.02159977 0.68608075
-0.032974865 -0.069613606 0.68993843
-0.025504841 -0.061940312 0.6887117
-0.018236162 -0.056532085 0.68893403
0.0036343855 -0.038161039 0.68815869
0.0091077127 -0.034609288 0.68868375
0.038156059 -0.010901719 0.68812996
-0.031305552 -0.069977075 0.69109321
-0.018356588 -0.058741093 0.69038773
0.043999579 -0.0091665685 0.6901049
0.060537703 0.0036689341 0.69024497
0.084525339 0.022050112 0.69061089
0.086528666 0.023009896 0.69103676
0.04045096 0.058837771 0.69075239
-0.011037362 0.073582411 0.69085872
-0.02391717 0.077270865 0.69088548
-0.08879596 -0.055497468 0.69210869
-0.0018614216 -0.050258428 0.69349766
0 -0.048328429 0.69317937
0.0037070874 -0.044485033 0.69254661
-0.08879596 -0.036998332 0.69210869
0.024043633 -0.027742684 0.69205981
-0.088796303 -0.020349145 0.69210958
0.038919229 -0.016679674 0.69251686
0.050283939 -0.0093118548 0.6936118
0.055634461 -0.0037089586 0.69265985
0.067088343 0.003727138 0.69375634
-0.08879596 0.018499166 0.69210875
-0.08879596 0.020349115 0.69210869
0.011207467 -0.041094035 0.69428092
0.04488771 -0.014962554 0.69457191
-0.018854624 -0.067876667 0.69639957
-0.013231019 -0.064264923 0.69696486
-0.013231019 -0.064264923 0.69696486
-0.0075794091 -0.060635269 0.69753301
0.0094162291 -0.045197934 0.69613206
0.0094162291 -0.045197934 0.69613206
0.058578819 -0.0075585246 0.69690377
0.042117223 -0.024887413 0.69989496
0.047652185 -0.01906088 0.69888926
0.049486414 -0.017129898 0.69855559
0.068804249 0.055425674 0.69950986
0 -0.061967343 0.70255786
0.038667317 -0.030933827 0.70218199
0.04645038 -0.025160611 0.70243144
0.066212565 -0.011684597 0.70387954
0.069900014 -0.0077666342 0.70318407
0.083212346 0.0038703382 0.70239997
0.091050349 0.0096862316 0.70264989
-0.096111581 -0.017653137 0.70557344
-0.096111581 -0.013730198 0.70557338
0.072239719 -0.0078096986 0.70448267
0.019565394 0.072391957 0.7049793
-0.0019667833 -0.068837404 0.70621586
0.013797459 -0.057160914 0.70673281
0.029630624 -0.045433611 0.70725298
0.065276325 -0.017802626 0.70757836
0.065276325 -0.017802626 0.70757836
0.086833 2.9802322e-08 0.70702392
0.082605928 0.055070609 0.70621884
0.04131896 0.066897392 0.70631075
0.055806212 -0.02790311 0.70939004
0.071649611 0.059707999 0.7090506
0.038115419 -0.044133633 0.71095878
0.038115419 -0.044133633 0.71095878
0.07242962 -0.018107414 0.71166611
0.080567226 -0.01208508 0.71193731
0.086213268 -0.0060149133 0.71082419
0.004058931 -0.07509023 0.71378231
0.054716144 0.066875309 0.71342719
0.030497514 -0.05489552 0.71422917
0.046868317 -0.042792797 0.71478266
0.08175195 -0.016350359 0.71551251
0.085573085 -0.012224704 0.71474659
0.020796778 -0.07070902 0.71984345
0.074589059 -0.026934922 0.71890676
0.04389422 -0.05434522 0.72111374
0.071200684 -0.033506185 0.72158897
0.027314818 -0.069337606 0.72243416
0.048358895 0.073589623 0.72260565
0.060116261 -0.051528245 0.72797108
0.074867427 -0.038503259 0.72701263
0.058064222 -0.053763151 0.72839564
0.062930599 0.073780686 0.73074883
0.062930599 0.073780686 0.73074883
0.050178919 -0.065450728 0.73215765
0.068333447 -0.055107623 0.73488724
0.060890652 -0.06991148 0.74103194
0.072132967 -0.060862154 0.74090469
-0.047723282 0.038239822 0.61651468
-0.038960509 0.043987662 0.62051225
-0.025947569 0.029731115 0.6254369
-0.022945352 0.022945374 0.6317305
-0.054251939 0.034072869 0.62853062
-0.010236752 0.034385439 0.63075393
-0.057931311 0.0058620945 0.63530242
-0.057931311 0.0058620945 0.63530242
-0.02605265 0.017745201 0.63362169
-0.022119006 0.018674804 0.63511491
-0.008592803 0.033015233 0.63258749
-0.0040696957 0.036627263 0.63255602
-0.050491162 -0.0088349786 0.63864946
-0.038225412 -0.00070688128 0.63971031
-0.030174555 0.0063515939 0.63922131
0.0055679148 0.034649163 0.63914102
-0.049565919 -0.010909836 0.64057779
-0.01799497 0.013541076 0.6408807
-0.014149648 0.014148763 0.64254761
-0.014149648 0.014148763 0.64254761
0.017811293 0.038508873 0.64312482
-0.030808117 0.053023875 0.64179182
-0.026543029 -0.0018449351 0.64682627
0.020759262 0.041518539 0.64779449
0.0096004028 0.044294655 0.64703202
-0.043501385 -0.021941155 0.65145123
-0.01346023 0.0047363839 0.64939356
-0.050369821 0.063154444 0.65031397
-0.038767677 -0.024811327 0.65599102
-0.038767677 -0.024811327 0.65599102
0.017897032 0.024746779 0.65263426
0.017897032 0.024746779 0.65263426
0.017897032 0.024746779 0.65263426
-0.064710535 -0.046779945 0.65703207
-0.021790195 -0.01442796 0.65805548
-0.071114786 0.021729529 0.65956664
0.042324629 0.037444077 0.65714669
-0.030216439 -0.026544968 0.6618191
0.0023885891 0.00039717555 0.66096979
0.01325448 0.006421119 0.6627183
0.047682051 0.036556214 0.66066194
-0.020745113 0.06063956 0.66143155
-0.062686116 -0.061036468 0.66793263
-0.054348916 -0.052918009 0.66687042
-0.037240375 -0.035621226 0.6642524
-0.026185742 -0.030009314 0.66638631
0.038311601 0.022005327 0.66558677
-0.029280983 0.065068871 0.66516674
-0.076406501 -0.070177704 0.66930592
-0.076406501 -0.070177704 0.66930592
-0.015103476 -0.02852881 0.67137647
-0.015103476 -0.02852881 0.67137647
0.0014637883 -0.01376608 0.67020738
-0.076406769 0.014118671 0.66930658
0.057390463 0.030358547 0.6701867
0.059100345 0.033691019 0.66882193
0.043098271 0.046413511 0.66889727
0.033485156 0.050227731 0.67090493
-0.076406501 0.062287927 0.66930592
-0.076406501 0.062287927 0.66930592
-0.044573277 0.070987076 0.66808081
-0.067700014 0.077607363 0.66812396
-0.057736427 -0.065666229 0.67379987
0.01521293 -0.0067612827 0.67284453
0.02669636 0.0014775656 0.67340529
0.038418438 0.0098545793 0.67400002
0.073847167 0.038193181 0.67372125
-0.024084274 -0.043007612 0.67646331
0.020967996 -0.01223135 0.67972589
0.070644096 0.027471438 0.67935729
0.066236518 0.045319736 0.67921084
0.017438639 0.059291363 0.6793071
-0.0034350581 0.063548565 0.67612821
-0.0034350581 0.063548565 0.67612821
0.0034524372 0.062143862 0.67717713
0.0020010776 -0.030239264 0.68182594
-0.082268223 -0.0026255697 0.6800946
0.034519579 -0.0029268067 0.68067515
-0.082268223 0.0021879897 0.6800946
0.062846661 0.01820622 0.68150067
0.062846661 0.01820622 0.68150067
0.074636973 0.028536379 0.68078959
0.04516425 0.053128973 0.68257844
-0.024550807 0.071898788 0.6804859
-0.033978041 -0.06555976 0.68660724
-0.022429645 -0.054736786 0.685426
0.05853821 0.0095555782 0.68511331
0.081375949 0.045208871 0.68709183
0.048579622 0.05397734 0.68599224
-0.030408418 -0.06629362 0.68904686
-0.0030567311 -0.046475671 0.69024819
-0.0030567311 -0.046475671 0.69024819
0.016628541 -0.033257097 0.69183111
0.017427003 -0.030266806 0.69020808
0.053970125 -0.0024547577 0.69089544
0.082206756 0.022098992 0.68931997
-0.010198005 -0.05563876 0.69267726
-0.088796303 -0.030523703 0.69210958
0.031473827 -0.022216797 0.69228804
-0.015246731 -0.068610281 0.69885951
0.077316634 0.0038179755 0.69923949
0.03421903 0.064635932 0.698282
0.014266407 0.070354506 0.69833219
-0.0068135522 -0.069102272 0.70377022
-0.002888392 -0.062642246 0.70145601
0.017439963 -0.048444331 0.70271409
0.041335329 -0.026914299 0.70086455
0.041335329 -0.026914299 0.70086455
0.047055196 -0.022088155 0.700647
0.06114148 -0.01455836 0.70310622
0.059386212 -0.0114941 0.70004773
0.066109307 0.058331728 0.70351291
0.027308224 -0.0429129 0.70426083
0.073718503 -0.010532966 0.70715684
0.068847157 0.059011877 0.70624948
0.05961135 -0.02384451 0.70866168
0.05961135 -0.02384451 0.70866168
0.086524889 -0.0029844046 0.70890915
0.086524889 -0.0029844046 0.70890915
0.057725277 0.063696861 0.70908201
0.02403596 0.074110925 0.7105872
0.037265528 -0.049462259 0.71416229
0.049893104 -0.037758201 0.71296018
0.049893104 -0.037758201 0.71296018
0.083065391 0.05875361 0.71336216
0.033207912 -0.060189337 0.71933842
0.030130457 -0.058891475 0.71677798
0.069666587 -0.03035146 0.71858776
0.061217766 -0.04433012 0.72361928
0.055150717 -0.050908357 0.7248534
0.051098272 0.074518293 0.72580862
0.043171242 -0.066915452 0.72936559
0.053317666 -0.062024519 0.73150289
0.078109622 0.069430768 0.73071146
