# .PCD v0.7 - Point Cloud Data file format
VERSION 0.7
FIELDS x y z
SIZE 4 4 4
TYPE F F F
COUNT 1 1 1
WIDTH 1351
HEIGHT 1
VIEWPOINT 0 0 0 1 0 0 0
POINTS 1351
DATA ascii
0.015074963 -0.066329822 0.65077502
0.024024568 0.067705601 0.73244244
0.023374438 0.063748479 0.72530818
0.02275857 0.059999883 0.71854985
0.022174323 0.056443751 0.71213841
0.021619232 0.053065419 0.70604706
0.021091336 0.049852252 0.70025408
0.020588608 0.046792299 0.69473732
0.020109288 0.0438748 0.68947744
0.01965178 0.041090071 0.68445677
0.019214623 0.03842926 0.67965961
0.018796494 0.035884231 0.67507118
0.018396175 0.033447593 0.6706782
0.018012552 0.031112611 0.66646838
0.017644601 0.028872997 0.66243064
0.017291382 0.026723057 0.65855455
0.016952028 0.024657488 0.65483057
0.016625686 0.022671372 0.65124941
0.01631172 0.020760387 0.64780402
0.016009392 0.018920183 0.64448637
0.015718069 0.017147005 0.64128941
0.015437158 0.015437156 0.63820684
0.015166111 0.013787389 0.63523245
0.014904419 0.012194514 0.6323607
0.014651605 0.010655701 0.62958646
0.014407223 0.0091682374 0.62690461
0.014170861 0.0077295601 0.62431085
0.013942128 0.0063373446 0.62180084
0.013720663 0.004989326 0.61937058
0.013506124 0.0036835074 0.61701626
0.013298189 0.0024178922 0.61473441
0.013096528 0.0011906028 0.61252147
0.012900923 -0 0.61037493
0.012711075 -0.0011555254 0.60829163
0.012526735 -0.0022775829 0.6062687
0.012347665 -0.0033675134 0.60430366
0.012339925 -0.0044872165 0.60421872
0.012417541 -0.0056443214 0.60507047
0.01249617 -0.006816119 0.60593331
0.012575769 -0.008002758 0.60680681
0.01265639 -0.0092046559 0.60769153
0.012738082 -0.010422051 0.60858798
0.012820804 -0.011655271 0.60949576
0.012904607 -0.012904614 0.6104154
0.012989545 -0.014170378 0.61134744
0.013075576 -0.015452921 0.61229151
0.013162788 -0.01675263 0.61324853
0.013251137 -0.018069744 0.61421806
0.01334068 -0.01940462 0.6152007
0.013431476 -0.020757705 0.61619705
0.013523481 -0.022129297 0.61720669
0.013616756 -0.023519844 0.61823028
0.013711362 -0.024929732 0.61926842
0.013807256 -0.02635929 0.6203208
0.013904499 -0.027808994 0.6213879
0.01400316 -0.029279351 0.62247062
0.014103194 -0.0307706 0.6235683
0.014204706 -0.032283396 0.62468225
0.01430765 -0.033818096 0.62581193
0.014412096 -0.035375148 0.62695813
0.01451812 -0.036955178 0.62812155
0.014625675 -0.038558602 0.62930185
0.014734834 -0.040185899 0.63049972
0.014845679 -0.041837841 0.63171613
0.014958158 -0.043514639 0.63295043
0.015072358 -0.045217037 0.63420355
0.015188357 -0.04694584 0.63547659
0.01530611 -0.048701257 0.63676882
0.015425751 -0.050484255 0.63808167
0.015547229 -0.052295193 0.63941467
0.015670637 -0.054134905 0.64076895
0.015796067 -0.056004241 0.6421454
0.015923472 -0.057903543 0.64354348
0.01605295 -0.059833705 0.64496434
0.0161846 -0.061795756 0.64640903
0.016318377 -0.063789979 0.64787704
0.016454382 -0.06581752 0.6493696
0.025939595 0.067010641 0.72973633
0.025244657 0.063111663 0.72274578
0.024585983 0.059416115 0.71612
0.023960805 0.055908561 0.70983124
0.023366541 0.052574724 0.70385331
0.022801127 0.049402475 0.69816577
0.022262434 0.046380073 0.69274694
0.021748606 0.043497205 0.6875782
0.021257961 0.040744454 0.6826427
0.020788968 0.038113087 0.67792499
0.020340221 0.035595417 0.67341089
0.019910436 0.033184052 0.66908765
0.01949844 0.030872554 0.66494334
0.019103147 0.028654724 0.66096693
0.018723564 0.02652505 0.6571486
0.018358773 0.024478346 0.6534791
0.018007923 0.022509903 0.64994985
0.017670177 0.02061519 0.64655238
0.01734492 0.018790334 0.64328057
0.01703142 0.017031431 0.64012694
0.016729051 0.015334994 0.63708538
0.016437232 0.013697684 0.63414991
0.016155422 0.012116581 0.63131511
0.015883109 0.010588765 0.62857586
0.015619825 0.0091115832 0.62592745
0.015365126 0.0076825917 0.62336534
0.015118601 0.0062994063 0.62088549
0.014879861 0.0049599707 0.61848396
0.014648545 0.0036621392 0.61615705
0.01442431 0.0024040341 0.6139015
0.014206836 0.0011838973 0.61171389
0.013995789 2.9802322e-08 0.60959089
0.013790954 -0.0011492372 0.60753042
0.013592028 -0.0022653341 0.60552937
0.013398759 -0.0033496618 0.60358518
0.013384212 -0.0044614077 0.60343891
0.013467908 -0.0056115985 0.60428077
0.01355269 -0.0067763329 0.60513365
0.013638512 -0.0079558194 0.60599697
0.013725462 -0.0091502964 0.6068716
0.013813496 -0.010360152 0.60775721
0.013902664 -0.011585534 0.60865414
0.013993027 -0.012826949 0.60956311
0.014084536 -0.014084518 0.61048365
0.01417725 -0.015358657 0.61141622
0.014271229 -0.016649812 0.61236161
0.014366427 -0.017958045 0.61331916
0.014462939 -0.019283861 0.61429
0.014560719 -0.020627648 0.61527359
0.01465983 -0.021989733 0.6162706
0.014760339 -0.023370534 0.61728168
0.014862196 -0.024770349 0.61830628
0.014965468 -0.026189566 0.61934513
0.015070226 -0.02762875 0.62039888
0.01517642 -0.02908814 0.62146711
0.015284121 -0.030568242 0.62255055
0.015393405 -0.032069564 0.62364984
0.01550422 -0.033592492 0.62476456
0.01561664 -0.035137445 0.62589538
0.015730748 -0.036705077 0.62704325
0.015846491 -0.038295686 0.6282075
0.015963994 -0.039910018 0.62938952
0.016083209 -0.041548252 0.63058871
0.016204217 -0.043211222 0.63180596
0.016327105 -0.044899553 0.63304216
0.016451824 -0.046613514 0.63429672
0.016578466 -0.048353866 0.63557065
0.01670712 -0.050121352 0.63686472
0.016837735 -0.051916361 0.63817865
0.016970411 -0.053739607 0.63951325
0.017105244 -0.055592015 0.64086956
0.017242186 -0.057473943 0.64224708
0.017381391 -0.059386432 0.64364743
0.017522806 -0.061329827 0.64506996
0.017666543 -0.06330511 0.64651585
0.017812714 -0.065313295 0.64798617
0.027815705 0.066329807 0.72708505
0.027077876 0.062487394 0.72023404
0.026378179 0.058843613 0.71373701
0.025713731 0.055383444 0.70756733
0.025081832 0.052093089 0.70169991
0.024480341 0.048960716 0.69611478
0.023907026 0.045975059 0.69079125
0.023359949 0.043126047 0.68571144
0.02283735 0.040404558 0.68085891
0.022337621 0.0378021 0.67621869
0.021859296 0.035311192 0.67177719
0.021401023 0.032924652 0.66752201
0.020961573 0.030636162 0.66344148
0.020539807 0.02843973 0.65952516
0.020134678 0.026329964 0.65576345
0.019745223 0.024301827 0.65214717
0.019370548 0.022350609 0.64866811
0.019009769 0.02047205 0.64531815
0.018662238 0.018662214 0.64209116
0.018327188 0.016917408 0.63898009
0.018003955 0.015234113 0.6359787
0.017691925 0.013609171 0.63308138
0.017390529 0.012039572 0.63028276
0.017099228 0.010522604 0.62757796
0.016817527 0.0090555847 0.62496221
0.016544957 0.0076361597 0.62243128
0.01628108 0.0062619448 0.61998105
0.016025487 0.0049309134 0.61760783
0.015777798 0.0036410689 0.61530787
0.015537648 0.0023904443 0.613078
0.015304699 0.0011773109 0.61091495
0.015078594 -2.9802322e-08 0.60881543
0.014859109 -0.0011430085 0.60677743
0.014645922 -0.0022532344 0.6047979
0.014438765 -0.0033320487 0.6028744
0.014416538 -0.0044358373 0.60266799
0.014506204 -0.0055793226 0.60350055
0.014596959 -0.0067370236 0.60434324
0.014688855 -0.0079094172 0.6051966
0.014781952 -0.0090965927 0.60606104
0.014876201 -0.010298878 0.6069361
0.014971695 -0.01151669 0.60782284
0.015068387 -0.012750149 0.60872066
0.015166336 -0.013999671 0.60963017
0.015265603 -0.015265584 0.61055189
0.01536614 -0.016548157 0.61148542
0.015468012 -0.017847687 0.61243135
0.015571281 -0.019164652 0.61339021
0.015675899 -0.020499259 0.6143617
0.015781933 -0.021851897 0.61534625
0.015889451 -0.023223042 0.61634463
0.015998403 -0.024612904 0.6173563
0.016108902 -0.026022077 0.61838233
0.016220896 -0.027450711 0.6194222
0.016334455 -0.028899431 0.62047666
0.016449662 -0.030368596 0.62154645
0.016566461 -0.031858563 0.62263095
0.016684931 -0.033369869 0.62373102
0.016805151 -0.03490299 0.62484729
0.016927071 -0.036458313 0.62597936
0.017050773 -0.038036317 0.62712801
0.017176343 -0.039637685 0.62829399
0.017303729 -0.041262716 0.62947679
0.017433068 -0.042912155 0.63067776
0.017564304 -0.044586301 0.63189638
0.017697534 -0.046285838 0.63313341
0.017832849 -0.048011512 0.63438994
0.017970197 -0.04976362 0.63566524
0.018109677 -0.051542923 0.63696039
0.018251393 -0.05335024 0.63827628
0.01839529 -0.055185854 0.63961244
0.018541476 -0.05705069 0.64096987
0.018690059 -0.058945566 0.64234948
0.018840985 -0.060870871 0.64375091
0.018994369 -0.062827528 0.6451751
0.01915033 -0.06481646 0.64662325
0.029654078 0.065662593 0.7244873
0.028875187 0.061875403 0.71777153
0.028136168 0.058282077 0.71139956
0.027434032 0.054868072 0.70534563
0.026766086 0.051620305 0.69958645
0.026129894 0.048526973 0.69410104
0.025523143 0.045577079 0.68886954
0.024944022 0.042761207 0.68387628
0.024390602 0.040070295 0.67910457
0.023861205 0.037496179 0.67453998
0.023354301 0.035031497 0.67016935
0.022868486 0.032669276 0.66598058
0.022402471 0.030403346 0.66196251
0.021955071 0.028227955 0.65810496
0.021525189 0.026137769 0.65439838
0.021111818 0.024127811 0.65083426
0.020714026 0.022193611 0.64740443
0.020330947 0.020330936 0.64410144
0.019961778 0.018535912 0.64091837
0.01960572 0.016804904 0.63784838
0.019262198 0.015134603 0.63488644
0.018930506 0.01352182 0.63202655
0.018610043 0.011963606 0.62926346
0.018300252 0.010457277 0.6265924
0.018000603 0.0090003014 0.62400877
0.017710611 0.0075902939 0.62150836
0.017429814 0.0062249303 0.61908728
0.017157782 0.004902184 0.61674178
0.01689411 0.0036201775 0.61446834
0.016638419 0.002376914 0.61226374
0.016390353 0.0011707246 0.61012489
0.016149575 -0 0.60804886
0.01591577 -0.0011368394 0.60603291
0.0156886 -0.0022412241 0.60407424
0.015467861 -0.0033145547 0.602171
0.015437146 -0.0044105947 0.60190618
0.015532574 -0.0055473447 0.60272896
0.015629189 -0.0066982508 0.603562
0.015727051 -0.0078634918 0.60440576
0.015826108 -0.0090434849 0.6052599
0.01592646 -0.010238439 0.60612512
0.016028052 -0.011448652 0.60700107
0.016130952 -0.012674302 0.60788822
0.016235217 -0.013915896 0.6087873
0.016340801 -0.015173614 0.60969764
0.016447768 -0.016447753 0.6106199
0.016556185 -0.01773876 0.61155468
0.016665999 -0.019046843 0.61250156
0.016777279 -0.020372391 0.61346102
0.016890099 -0.02171582 0.61443377
0.017004402 -0.023077399 0.61541933
0.017120263 -0.024457514 0.6164183
0.017237758 -0.025856644 0.6174314
0.017356833 -0.027274996 0.61845803
0.017477609 -0.028713226 0.61949944
0.017600032 -0.030171484 0.62055492
0.017724181 -0.031650335 0.62162542
0.017850142 -0.033150285 0.62271148
0.01797786 -0.034671575 0.62381268
0.018107416 -0.036214828 0.62492973
0.018238902 -0.037780553 0.62606341
0.018372264 -0.039369136 0.62721324
0.018507641 -0.040981174 0.62838054
0.018644974 -0.042617053 0.62956464
0.018784363 -0.0442774 0.63076645
0.018925903 -0.04596293 0.63198686
0.019069538 -0.047673836 0.63322532
0.01921537 -0.049410939 0.63448274
0.019363508 -0.051174983 0.63576001
0.019513888 -0.052966282 0.63705665
0.019666623 -0.054785565 0.63837349
0.019821828 -0.0566338 0.63971174
0.019979442 -0.058511227 0.64107072
0.020139581 -0.06041874 0.64245141
0.020302372 -0.062357262 0.64385504
0.020467751 -0.06432721 0.64528096
0.020635912 -0.066329703 0.6467309
0.032318939 0.068947077 0.72888684
0.031455837 0.065008759 0.72194111
0.030637635 0.061275244 0.71535677
0.029860921 0.057731092 0.70910621
0.029122613 0.054362237 0.70316482
0.028419934 0.051155865 0.69751012
0.027750365 0.048100621 0.69212186
0.027111517 0.045185864 0.68698078
0.026501518 0.042402476 0.68207192
0.025918366 0.039741516 0.67737901
0.025360325 0.037195116 0.67288828
0.024825808 0.034756154 0.66858685
0.024313359 0.032417804 0.66446292
0.023821637 0.030174077 0.66050583
0.02334941 0.028019309 0.65670562
0.022895539 0.025948316 0.65305322
0.022458982 0.023956269 0.64954001
0.022038756 0.022038758 0.64615834
0.02163397 0.020191729 0.64290082
0.021243785 0.018411279 0.63976085
0.020867363 0.01669389 0.63673168
0.020504106 0.015036374 0.63380843
0.020153282 0.013435543 0.6309852
0.01981426 0.011888534 0.62825698
0.019486457 0.010392815 0.62561905
0.019169321 0.0089456737 0.6230669
0.018862344 0.0075449347 0.62059659
0.018565046 0.0061883628 0.618204
0.018276971 0.004873842 0.61588585
0.017997701 0.0035995543 0.6136384
0.017726837 0.0023635626 0.61145866
0.017464004 0.0011642575 0.60934365
0.017208852 -0 0.60729027
0.016961049 -0.0011307299 0.60529608
0.016720241 -0.0022293329 0.60335821
0.016486213 -0.0032972395 0.60147494
0.016446166 -0.0043856204 0.60115266
0.016547251 -0.0055157542 0.60196608
0.016649626 -0.0066598356 0.60278994
0.016753238 -0.0078181624 0.60362375
0.016858146 -0.008991003 0.60446799
0.016964417 -0.010178655 0.60532326
0.017071996 -0.011381358 0.60618895
0.017180948 -0.012599349 0.60706568
0.017291341 -0.013833046 0.60795408
0.01740312 -0.015082717 0.60885358
0.017516395 -0.01634863 0.60976523
0.017631112 -0.017631084 0.61068833
0.017747343 -0.018930495 0.61162364
0.017865159 -0.020247161 0.61257184
0.017984504 -0.021581411 0.61353225
0.018105455 -0.022933573 0.61450559
0.018228091 -0.024304122 0.61549246
0.018352352 -0.025693268 0.61649245
0.018478319 -0.027101517 0.61750615
0.018606076 -0.028529286 0.61853427
0.018735562 -0.029976934 0.61957628
0.018866913 -0.031444848 0.6206333
0.019000068 -0.032933474 0.62170488
0.019135118 -0.03444317 0.62279165
0.01927215 -0.035974681 0.62389445
0.019411109 -0.037528127 0.62501264
0.019552086 -0.039104164 0.62614715
0.019695178 -0.040703356 0.62729865
0.019840326 -0.042326033 0.62846673
0.01998763 -0.043972775 0.62965214
0.020137193 -0.045644283 0.63085568
0.020288955 -0.047340885 0.63207698
0.02044308 -0.04906337 0.63331729
0.020599505 -0.050812125 0.63457614
0.02075834 -0.052587777 0.63585436
0.020919709 -0.05439125 0.63715291
0.021083541 -0.056222782 0.63847142
0.021249961 -0.058083206 0.63981056
0.021419093 -0.059973449 0.64117169
0.021590872 -0.061893806 0.64255404
0.021765433 -0.063845277 0.64395881
0.021942902 -0.065828726 0.64538693
0.034124397 0.068248808 0.72625279
0.033222064 0.064367771 0.71944523
0.032366224 0.060686648 0.71298838
0.031553369 0.057190508 0.70685595
0.030780341 0.053865612 0.70102388
0.030044289 0.05069977 0.69547075
0.029342614 0.047681779 0.69017702
0.028672967 0.044801474 0.68512493
0.0280331 0.042049676 0.68029749
0.027421264 0.039418072 0.67568159
0.026835568 0.036898881 0.67126286
0.02627437 0.034485132 0.6670289
0.025736159 0.032170236 0.66296846
0.025219558 0.029948205 0.65907103
0.024723288 0.027813703 0.6553269
0.024246169 0.025761575 0.65172732
0.023787122 0.023787111 0.64826405
0.023345131 0.021886051 0.64492953
0.022919266 0.02005437 0.6417166
0.02250866 0.018288314 0.63861883
0.022112509 0.016584367 0.63563013
0.021729996 0.014939368 0.63274431
0.021360554 0.013350368 0.62995708
0.021003462 0.011814445 0.62726301
0.020658117 0.010329038 0.62465757
0.020323941 0.0088917315 0.62213641
0.020000406 0.0075001419 0.61969554
0.01968701 0.0061521828 0.61733115
0.019383285 0.0048458278 0.61503971
0.019088788 0.0035791099 0.61281788
0.018803105 0.0023504198 0.61066258
0.01852585 0.0011578798 0.60857087
0.018256649 -0 0.60653991
0.017995162 -0.0011247098 0.60456711
0.017741058 -0.0022176206 0.60265005
0.017493991 -0.0032801032 0.60078609
0.017443823 -0.0043609738 0.60040766
0.017550435 -0.0054845214 0.60121191
0.017658399 -0.0066218674 0.60202646
0.017767657 -0.0077733397 0.60285074
0.017878318 -0.008939147 0.60368562
0.017990323 -0.010119557 0.60453063
0.018103741 -0.011314839 0.60538632
0.018218642 -0.01252532 0.60625315
0.018334964 -0.013751209 0.60713077
0.018452784 -0.014992893 0.60801965
0.018572174 -0.01625064 0.60892034
0.018693071 -0.017524719 0.60983241
0.018815599 -0.018815607 0.61075687
0.018939698 -0.020123422 0.61169314
0.019065443 -0.021448612 0.61264175
0.019192919 -0.022791564 0.61360347
0.01932206 -0.024152577 0.61457777
0.019452952 -0.025531948 0.6155653
0.01958568 -0.026930302 0.61656666
0.01972018 -0.02834776 0.61758137
0.01985654 -0.029784799 0.61861014
0.019994853 -0.031241983 0.61965364
0.020135051 -0.032719463 0.62071133
0.02027723 -0.034217805 0.62178397
0.020421486 -0.035737604 0.62287235
0.020567752 -0.03727901 0.62397581
0.020716188 -0.038842857 0.62509573
0.020866724 -0.040429264 0.62623137
0.021019461 -0.042038947 0.62738371
0.021174513 -0.043672428 0.62855351
0.021331808 -0.045330063 0.62974018
0.021491457 -0.047012553 0.63094461
0.021653576 -0.048720539 0.63216776
0.021818096 -0.050454348 0.63340896
0.021985136 -0.052214712 0.63466918
0.022154817 -0.054002345 0.63594931
0.022327073 -0.055817708 0.63724887
0.022502096 -0.057661593 0.6385693
0.022679815 -0.059534505 0.6399101
0.022860363 -0.061437219 0.64127231
0.023043882 -0.06337066 0.64265674
0.023230299 -0.065335199 0.64406323
0.035893653 0.067564517 0.72367162
0.034953803 0.06373924 0.7169981
0.034061916 0.060109317 0.71066511
0.033214413 0.056659877 0.70464736
0.032408062 0.053377986 0.69892174
0.031639934 0.050251663 0.6934675
0.03090737 0.047270119 0.68826592
0.030207964 0.044423491 0.68329966
0.029539403 0.041702718 0.67855245
0.028899899 0.039099872 0.67401153
0.028287496 0.036607385 0.66966307
0.027700512 0.034218252 0.6654951
0.027137389 0.031926364 0.66149664
0.026596708 0.02972576 0.65765744
0.026077149 0.027611107 0.65396827
0.025577502 0.025577515 0.65042043
0.02509664 0.023620367 0.64700603
0.024633527 0.021735489 0.64371759
0.024187194 0.019918859 0.64054841
0.023756748 0.018166929 0.63749194
0.023341358 0.016476244 0.63454247
0.022940241 0.014843673 0.63169426
0.022552615 0.013266236 0.62894183
0.022177933 0.011741251 0.62628138
0.021815496 0.010266125 0.62370783
0.021464715 0.0088384151 0.62121701
0.021125037 0.0074558854 0.61880517
0.020795941 0.0061164498 0.61646837
0.020476941 0.0048180819 0.61420327
0.020167582 0.0035589933 0.6120066
0.01986743 0.0023373663 0.60987532
0.01957608 0.0011515319 0.60780662
0.019293154 2.9802322e-08 0.60579759
0.019018287 -0.0011186898 0.60384595
0.018751144 -0.0022060275 0.60194904
0.018491358 -0.0032631755 0.60010433
0.018430311 -0.0043365359 0.59967089
0.018542362 -0.0054536164 0.60046649
0.018655738 -0.0065843761 0.60127157
0.018770508 -0.0077290237 0.60208654
0.018886745 -0.0088878572 0.60291189
0.019004386 -0.010061145 0.60374719
0.019123545 -0.011249155 0.60459334
0.019244164 -0.012452096 0.60544974
0.019366313 -0.013670355 0.6063171
0.019490071 -0.014904171 0.60719585
0.019615371 -0.016153842 0.60808557
0.019742293 -0.017419666 0.60898679
0.019870918 -0.01870203 0.60990012
0.02000118 -0.020001173 0.61082506
0.020133162 -0.021317482 0.61176223
0.020266948 -0.022651285 0.61271214
0.020402471 -0.02400288 0.61367446
0.020539872 -0.025372773 0.61465013
0.020679083 -0.026761174 0.61563861
0.020820193 -0.028168499 0.61664057
0.020963298 -0.029595256 0.61765671
0.021108329 -0.031041622 0.61868656
0.021255378 -0.032508224 0.61973065
0.021404551 -0.033995479 0.62078989
0.021555772 -0.035503596 0.62186366
0.021709144 -0.03703323 0.6229527
0.021864777 -0.038584918 0.62405777
0.022022596 -0.040158838 0.62517834
0.022182768 -0.041755781 0.62631571
0.02234523 -0.043376014 0.6274693
0.022510085 -0.045020163 0.62863988
0.022677457 -0.046688899 0.62982833
0.022847272 -0.048382446 0.63103408
0.023019647 -0.050101608 0.63225812
0.02319471 -0.051846996 0.63350117
0.023372391 -0.053619012 0.63476276
0.023552813 -0.055418372 0.63604391
0.023736114 -0.057245925 0.63734543
0.023922216 -0.059101939 0.63866687
0.024111262 -0.060987338 0.64000922
0.024303392 -0.062902898 0.64137352
0.024498535 -0.064849019 0.64275908
0.037627779 0.066893846 0.72114158
0.036652055 0.063122988 0.71459824
0.035725649 0.059542745 0.70838565
0.03484492 0.056139082 0.7024793
0.034006573 0.052899122 0.69685721
0.033207618 0.049811453 0.69149935
0.032445341 0.046865523 0.68638742
0.031717274 0.044051766 0.68150491
0.031021168 0.04136157 0.67683673
0.030354852 0.038786769 0.67236829
0.029716661 0.036320359 0.66808844
0.029104751 0.033955544 0.66398489
0.028517537 0.031686127 0.66004694
0.027953546 0.029506534 0.65626478
0.027411433 0.027411431 0.65262932
0.026889944 0.025396079 0.64913213
0.026387928 0.023455948 0.64576554
0.025904315 0.021586925 0.64252234
0.025438108 0.019785196 0.63939583
0.024988385 0.018047184 0.63637996
0.024554284 0.016369522 0.63346881
0.024135014 0.014749169 0.63065714
0.023729818 0.013183236 0.62793982
0.02333794 0.01166901 0.62531179
0.022958854 0.010203928 0.62276965
0.022591891 0.0087857246 0.62030864
0.02223647 0.0074121654 0.61792517
0.021892061 0.0060811043 0.61561555
0.021558158 0.0047906935 0.61337638
0.021234289 0.0035390556 0.61120439
0.020920005 0.0023244619 0.60909677
0.020614889 0.0011453032 0.6070506
0.020318545 -2.9802322e-08 0.60506332
0.020030601 -0.0011128187 0.60313231
0.019750703 -0.002194494 0.60125524
0.01947852 -0.0032464266 0.59942997
0.019405862 -0.004312396 0.5989427
0.019523138 -0.0054230988 0.59972918
0.019641837 -0.0065472722 0.6005252
0.019762037 -0.0076852143 0.60133129
0.01988367 -0.0088371634 0.60214698
0.020006808 -0.010003388 0.60297275
0.020131528 -0.011184186 0.60380918
0.020257767 -0.012379736 0.60465574
0.020385599 -0.013590425 0.60551298
0.020515101 -0.014816463 0.60638142
0.020646211 -0.016058177 0.6072607
0.020779058 -0.017315865 0.60815156
0.020913575 -0.018589854 0.60905373
0.021049844 -0.019880384 0.60996747
0.021187956 -0.021187961 0.61089373
0.021327835 -0.022512734 0.61183178
0.021469574 -0.02385509 0.6127823
0.021613266 -0.025215477 0.61374593
0.021758836 -0.026594132 0.61472213
0.021906381 -0.027991503 0.61571157
0.022056 -0.029407978 0.61671495
0.022207618 -0.030843884 0.61773169
0.022361392 -0.032299817 0.61876297
0.022517253 -0.033775866 0.6198082
0.022675302 -0.035272688 0.62086809
0.022835646 -0.036790758 0.62194335
0.02299821 -0.038330346 0.62303352
0.023163106 -0.039892048 0.62413943
0.02333045 -0.041476369 0.6252616
0.023500163 -0.043083608 0.6263997
0.023672363 -0.044714466 0.62755448
0.02384717 -0.046369478 0.62872678
0.024024514 -0.048049048 0.62991607
0.024204582 -0.04975386 0.6311236
0.024387302 -0.051484317 0.63234901
0.024572801 -0.053241059 0.63359296
0.024761211 -0.055024922 0.63485646
0.024952466 -0.056836158 0.63613904
0.025146693 -0.058675602 0.63744164
0.025344048 -0.060544133 0.6387651
0.025544446 -0.062441975 0.640109
0.025748037 -0.064370096 0.64147431
0.02595498 -0.06632942 0.64286208
0.039327823 0.066236347 0.71866143
0.038317773 0.062518448 0.71224433
0.03735831 0.058986783 0.70614874
0.036445722 0.055627704 0.70035088
0.035576656 0.052428752 0.69482952
0.03474807 0.049378842 0.68956536
0.033957206 0.046467781 0.68454081
0.033201538 0.043686241 0.67973995
0.032478768 0.041025847 0.67514801
0.031786796 0.038478762 0.67075181
0.03112359 0.036037803 0.6665383
0.030487593 0.03369683 0.66249764
0.02987707 0.031449556 0.65861893
0.029290518 0.029290557 0.65489244
0.028726555 0.027214646 0.65130949
0.028183898 0.025217175 0.6478619
0.027661363 0.023293793 0.6445421
0.027157851 0.021440446 0.64134324
0.026672339 0.01965332 0.6382587
0.026203886 0.017928988 0.63528252
0.025751602 0.0162642 0.63240904
0.025314664 0.014655888 0.62963307
0.02489231 0.01310122 0.62694979
0.024483752 0.011597544 0.62435406
0.024088448 0.010142505 0.62184274
0.02370571 0.0087336898 0.61941105
0.023334943 0.0073689222 0.61705554
0.022975594 0.0060462058 0.61477256
0.022627147 0.0047636032 0.61255878
0.02228911 0.0035193264 0.61041111
0.021961026 0.0023116767 0.60832679
0.021642458 0.0011391044 0.60630286
0.021333003 2.9802322e-08 0.6043368
0.02103227 -0.0011069477 0.60242623
0.0207399 -0.0021831691 0.60056871
0.020455547 -0.0032298267 0.59876215
0.020370571 -0.0042885244 0.59822226
0.02049299 -0.005392909 0.5990001
0.020616936 -0.0065105855 0.59978747
0.020742344 -0.0076419413 0.60058427
0.020869287 -0.0087870657 0.60139072
0.020997839 -0.0099463463 0.60220742
0.021127937 -0.011119962 0.60303402
0.02125966 -0.01230824 0.60387087
0.021393083 -0.013511449 0.60471851
0.02152814 -0.014729798 0.60557657
0.021664916 -0.015963614 0.60644549
0.021803491 -0.017213285 0.60732591
0.021943798 -0.01847899 0.60821736
0.022085976 -0.019761145 0.60912061
0.022229953 -0.02105996 0.6100353
0.022375818 -0.022375822 0.61096203
0.02252367 -0.023709118 0.61190134
0.02267343 -0.025060117 0.61285281
0.022825196 -0.026429176 0.61381698
0.022979064 -0.027816743 0.61479455
0.023134962 -0.029223084 0.61578506
0.02329299 -0.030648649 0.61678898
0.023453254 -0.032093912 0.61780721
0.023615675 -0.033559114 0.61883909
0.023780361 -0.03504476 0.61988533
0.023947425 -0.036551327 0.62094676
0.02411679 -0.038079143 0.62202275
0.024288628 -0.039628789 0.62311447
0.024462869 -0.041200623 0.62422144
0.024639629 -0.042795107 0.62534446
0.024819029 -0.044412985 0.62648422
0.025000991 -0.046054453 0.62764025
0.025185641 -0.047720194 0.62881339
0.025373114 -0.04941079 0.63000441
0.025563322 -0.051126644 0.63121283
0.025756478 -0.052868575 0.63244003
0.025952499 -0.054636836 0.63368541
0.02615153 -0.056432247 0.63494992
0.026353711 -0.058255568 0.6362344
0.026558967 -0.060107142 0.63753843
0.026767444 -0.061987773 0.63886285
0.026979299 -0.063898295 0.64020878
0.027194455 -0.065839186 0.64157575
0.040994767 0.065591633 0.71622944
0.039951894 0.061925441 0.70993519
0.03896077 0.058441162 0.70395321
0.038017627 0.055125594 0.69826078
0.037119064 0.051966667 0.69283754
0.036262002 0.048953712 0.68766469
0.035443623 0.046076745 0.68272531
0.034661368 0.043326735 0.67800397
0.033912897 0.040695488 0.67348659
0.033196066 0.038175493 0.66916013
0.032508802 0.035759687 0.66501212
0.031849522 0.03344202 0.66103297
0.031216452 0.031216443 0.65721208
0.03060806 0.029077649 0.65354013
0.030022928 0.027020633 0.6500085
0.029459748 0.025040776 0.64660943
0.028917311 0.023133844 0.64333552
0.028394483 0.021295875 0.64017999
0.027890228 0.019523174 0.63713652
0.027403571 0.017812341 0.63419926
0.026933603 0.01616016 0.6313628
0.026479488 0.014563709 0.62862194
0.026040429 0.013020217 0.62597203
0.025615692 0.011527061 0.6234085
0.025204521 0.010081828 0.62092692
0.02480641 0.008682251 0.61852401
0.024420677 0.0073261857 0.61619592
0.024046756 0.0060116947 0.61393917
0.023684114 0.0047368109 0.61175042
0.023332246 0.0034998059 0.60962671
0.022990681 0.0022990406 0.60756516
0.022658972 0.0011329353 0.60556316
0.022336701 2.9802322e-08 0.60361803
0.022023467 -0.001101166 0.60172749
0.021718895 -0.0021719337 0.59988928
0.021422632 -0.0032134056 0.59810114
0.021324657 -0.0042649209 0.59750986
0.021452101 -0.0053630173 0.598279
0.021581125 -0.0064743161 0.59905767
0.021711661 -0.0075990856 0.59984559
0.021843836 -0.0087375343 0.60064334
0.021977579 -0.0098899305 0.60145056
0.022112969 -0.011056483 0.60226774
0.022250092 -0.012237519 0.60309529
0.022388872 -0.013433307 0.60393292
0.022529393 -0.014644116 0.60478103
0.022671748 -0.015870214 0.60564023
0.022815853 -0.017111897 0.60650998
0.022961803 -0.018369436 0.60739088
0.023109691 -0.019643217 0.6082834
0.023259437 -0.020933539 0.60918725
0.023411136 -0.022240579 0.61010277
0.023564886 -0.023564905 0.61103082
0.023720609 -0.024906635 0.61197072
0.023878466 -0.026266336 0.61292344
0.024038376 -0.027644098 0.61388856
0.024200443 -0.029040515 0.61486673
0.024364771 -0.030455977 0.61585855
0.024531284 -0.031890661 0.61686349
0.024700088 -0.033345073 0.61788231
0.024871297 -0.034819812 0.61891568
0.025044829 -0.036314994 0.61996305
0.0252208 -0.037831217 0.62102509
0.025399327 -0.039368927 0.62210262
0.025580334 -0.040928572 0.62319511
0.025764009 -0.042510614 0.62430364
0.025950268 -0.044115454 0.62542784
0.026139239 -0.045743674 0.62656844
0.026331058 -0.047395885 0.62772608
0.026525637 -0.049072385 0.62890053
0.026723115 -0.050773919 0.63009238
0.02692363 -0.052501082 0.6313026
0.0271271 -0.054254204 0.63253069
0.027333669 -0.056033984 0.63377738
0.027543489 -0.057841316 0.63504374
0.027756473 -0.059676424 0.63632923
0.027972858 -0.061540291 0.63763523
0.028192559 -0.063433245 0.63896126
0.028415741 -0.065356195 0.64030826
0.043761052 0.068767399 0.72034824
0.042629573 0.064959347 0.71384436
0.041555304 0.061343551 0.70766932
0.040533848 0.057905525 0.70179784
0.039561406 0.054632425 0.69620812
0.038634527 0.051512718 0.6908803
0.037750084 0.048535824 0.68579644
0.036905233 0.045692205 0.68094009
0.036097366 0.042973071 0.67629641
0.035324112 0.040370435 0.67185163
0.034583293 0.037876964 0.66759324
0.033872791 0.035485744 0.66350925
0.033191007 0.033191025 0.65959024
0.032536127 0.030986786 0.65582591
0.03190659 0.028867871 0.65220726
0.031300951 0.026829392 0.64872599
0.030717876 0.024866879 0.64537436
0.030156126 0.0229761 0.6421454
0.029614555 0.021153271 0.63903236
0.029092092 0.019394755 0.63602912
0.028587746 0.017697185 0.63313007
0.028100587 0.016057491 0.63032985
0.027629752 0.014472723 0.62762344
0.027174437 0.012940228 0.62500626
0.026733885 0.011457413 0.6224739
0.026307387 0.010021895 0.6200223
0.025894217 0.0086314082 0.61764741
0.025493892 0.0072839558 0.61534631
0.025105754 0.005977571 0.61311519
0.024729257 0.0047103763 0.61095107
0.024363888 0.0034805536 0.60885084
0.024009159 0.002286613 0.60681182
0.023664609 0.0011268854 0.60483134
0.023329809 2.9802322e-08 0.60290682
0.023004347 -0.001095444 0.60103607
0.022687845 -0.0021607578 0.59921676
0.022379933 -0.0031971037 0.5974468
0.022268295 -0.0042415857 0.59680516
0.022400696 -0.0053334832 0.59756619
0.022534627 -0.0064384341 0.59833598
0.022670172 -0.0075567067 0.59911513
0.022807408 -0.0086885393 0.599904
0.022946263 -0.0098341107 0.60070217
0.02308682 -0.010993689 0.60151011
0.023229161 -0.012167633 0.6023283
0.023373218 -0.013356119 0.60315633
0.023519125 -0.014559448 0.60399508
0.02366681 -0.015777856 0.60484397
0.02381636 -0.017011702 0.60570359
0.02396787 -0.018261224 0.60657448
0.024121262 -0.01952675 0.60745621
0.024276631 -0.020808518 0.60834932
0.024434075 -0.022107005 0.6092543
0.024593512 -0.02342239 0.61017072
0.024755044 -0.024755001 0.61109924
0.024918774 -0.026105374 0.6120404
0.025084622 -0.027473629 0.61299372
0.025252756 -0.028860301 0.61396021
0.025423093 -0.03026557 0.61493927
0.025595747 -0.031689942 0.61593175
0.025770826 -0.033133924 0.61693811
0.025948249 -0.034597635 0.61795795
0.02612813 -0.036081731 0.61899197
0.026310595 -0.03758657 0.62004077
0.026495555 -0.039112493 0.621104
0.026683133 -0.040659994 0.62218219
0.02687346 -0.042229742 0.62327617
0.027066447 -0.043821856 0.62438554
0.027262228 -0.045437038 0.62551093
0.027460936 -0.047075897 0.62665308
0.027662486 -0.048738629 0.62781161
0.027867092 -0.050426155 0.62898767
0.028074671 -0.052138701 0.6301809
0.028285364 -0.053876862 0.631392
0.028499324 -0.055641532 0.63262188
0.028716465 -0.05743292 0.63387001
0.028936937 -0.059251845 0.63513732
0.029160909 -0.061099067 0.63642478
0.029388286 -0.062974915 0.63773173
0.029619241 -0.064880237 0.63905931
0.029853942 -0.066815943 0.6404084
0.045395702 0.068093538 0.71788347
0.044233356 0.064339429 0.71150589
0.043128867 0.060772508 0.70544571
0.042078357 0.057379574 0.69968176
0.041077811 0.054148018 0.69419187
0.040123738 0.051066577 0.68895704
0.039212979 0.048125029 0.68395984
0.038342647 0.045314044 0.67918444
0.037510112 0.042625129 0.67461652
0.036712963 0.040050507 0.67024261
0.035948992 0.037583083 0.66605079
0.035216168 0.035216153 0.66202986
0.03451262 0.032943875 0.65816963
0.033836525 0.030760497 0.65446007
0.033186514 0.028661072 0.65089357
0.032561012 0.026640862 0.64746147
0.031958647 0.024695307 0.6441564
0.031378169 0.022820473 0.64097142
0.030818395 0.021012545 0.63789999
0.030278247 0.019267976 0.63493627
0.029756708 0.017583519 0.63207471
0.029252829 0.015956104 0.62931001
0.028765734 0.014382899 0.62663734
0.028294591 0.012861192 0.62405229
0.027838636 0.01138857 0.6215505
0.027397141 0.0099626184 0.61912811
0.026969433 0.0085811913 0.61678129
0.026554804 0.0072422326 0.6145063
0.026152797 0.0059438348 0.61230057
0.02576278 0.0046841502 0.61016065
0.025384227 0.0034614503 0.60808355
0.025016634 0.002274245 0.60606658
0.024659537 0.0011208951 0.60410726
0.024312491 -0 0.60220307
0.02397508 -0.0010897815 0.60035175
0.023646904 -0.0021497309 0.59855115
0.023327593 -0.0031810105 0.59679908
0.023288034 -0.0042341948 0.59658206
0.023338849 -0.0053042471 0.59686083
0.023477623 -0.0064029694 0.59762228
0.02361811 -0.0075148344 0.59839308
0.023760235 -0.0086400509 0.59917295
0.02390408 -0.0097789466 0.59996217
0.024049731 -0.010931671 0.60076135
0.024197113 -0.012098551 0.60157001
0.024346313 -0.013279796 0.60238862
0.02449742 -0.014475733 0.60321772
0.02465036 -0.015686572 0.60405689
0.024805278 -0.016912699 0.60490692
0.024962094 -0.018154204 0.60576737
0.025120908 -0.019411623 0.60663879
0.025281817 -0.020685136 0.60752165
0.025444737 -0.021975011 0.60841548
0.025609773 -0.023281604 0.609321
0.025777023 -0.024605334 0.61023879
0.025946412 -0.025946409 0.61116815
0.02611804 -0.027305216 0.61210984
0.02629202 -0.028682202 0.61306441
0.026468268 -0.030077577 0.61403149
0.026646961 -0.031491846 0.61501193
0.026828015 -0.032925278 0.61600536
0.027011545 -0.03437832 0.61701238
0.027197674 -0.035851508 0.61803365
0.027386317 -0.037344992 0.61906874
0.027577594 -0.038859293 0.62011814
0.027771633 -0.040395096 0.62118286
0.027968349 -0.041952521 0.62226224
0.028167872 -0.043532148 0.623357
0.028370338 -0.045134634 0.62446785
0.028575657 -0.046760172 0.6255945
0.028784052 -0.048409522 0.62673783
0.028995426 -0.050083041 0.62789768
0.029209927 -0.051781252 0.62907457
0.029427709 -0.053504929 0.63026953
0.02964868 -0.055254355 0.63148195
0.029872991 -0.057030246 0.63271272
0.030100811 -0.05883339 0.63396275
0.030332047 -0.060664088 0.63523149
0.03056686 -0.062523142 0.63651991
0.030805429 -0.064411342 0.63782889
0.031047657 -0.066329062 0.63915789
0.046998631 0.067432851 0.71546662
0.04580662 0.063730925 0.70921057
0.044673394 0.060211957 0.70326304
0.043595061 0.056863099 0.69760364
0.042567562 0.053672135 0.69221103
0.041587375 0.050628096 0.68706673
0.040651318 0.047721148 0.682154
0.039756469 0.044942081 0.67745763
0.03890017 0.04228279 0.6729635
0.038079977 0.039735645 0.66865891
0.037293658 0.037293673 0.66453207
0.036539156 0.034950495 0.66057223
0.03581458 0.03270027 0.65676945
0.035118181 0.030537546 0.65311456
0.034448236 0.028457254 0.64959848
0.033803482 0.026454896 0.6462146
0.033182416 0.024526149 0.64295506
0.032583762 0.022666931 0.63981318
0.032006327 0.020873696 0.63678265
0.031449001 0.019142896 0.63385761
0.030910751 0.017471343 0.63103271
0.030390615 0.015855998 0.62830287
0.029887697 0.014294147 0.62566346
0.029401151 0.01278311 0.62310994
0.028930191 0.011320531 0.62063819
0.028474083 0.0099040568 0.61824435
0.028032135 0.0085315406 0.61592489
0.027603624 0.0072009265 0.61367595
0.027188083 0.0059104562 0.61149508
0.026784873 0.0046582222 0.60937887
0.026393441 0.0034426451 0.60732454
0.026013291 0.0022620261 0.60532945
0.025643932 0.0011149645 0.60339093
0.025284918 2.9802322e-08 0.60150671
0.024935815 -0.0010841489 0.59967452
0.024726206 -0.0021500885 0.5985744
0.024726206 -0.0032251477 0.5985744
0.024726206 -0.0043002069 0.5985744
0.024726206 -0.0053752661 0.59857446
0.024726206 -0.0064503253 0.5985744
0.024726206 -0.0075253546 0.5985744
0.024726206 -0.0086004138 0.59857446
0.024851263 -0.0097243786 0.59923077
0.025001779 -0.010870308 0.60002071
0.025154131 -0.012030244 0.6008203
0.025308408 -0.013204396 0.60162997
0.025464531 -0.014392972 0.60244936
0.025622593 -0.01559636 0.60327888
0.025782688 -0.016814828 0.60411918
0.025944738 -0.018048495 0.60496962
0.026108896 -0.019297868 0.60583121
0.026275083 -0.020563096 0.6067034
0.026443401 -0.021844566 0.60758674
0.026613953 -0.023142576 0.60848188
0.026786653 -0.024457365 0.60938823
0.02696161 -0.02578938 0.6103065
0.027138934 -0.027138919 0.61123711
0.027318537 -0.028506339 0.61217976
0.027500536 -0.029891849 0.61313486
0.027685044 -0.031296134 0.61410326
0.027871974 -0.032719254 0.61508435
0.028061444 -0.034161747 0.61607873
0.028253585 -0.035624057 0.61708713
0.028448297 -0.037106469 0.61810905
0.028645787 -0.038609549 0.61914551
0.028845962 -0.040133506 0.6201961
0.029048957 -0.041678905 0.62126148
0.029254906 -0.043246374 0.62234235
0.029463716 -0.044836104 0.6234383
0.029675528 -0.046448648 0.62454987
0.029890491 -0.048084676 0.62567806
0.030108506 -0.049744487 0.62682229
0.03032981 -0.051428825 0.62798375
0.030554306 -0.053137928 0.62916201
0.030782148 -0.054872498 0.63035774
0.031013506 -0.056633353 0.63157201
0.031248275 -0.058420688 0.63280416
0.031486627 -0.060235277 0.63405508
0.031728733 -0.062077969 0.63532573
0.031974502 -0.063948959 0.63661557
0.032224104 -0.065849274 0.63792557
0.048570752 0.066784799 0.71309608
0.047350403 0.063133866 0.70695829
0.046189882 0.059661925 0.70112133
0.045084707 0.056355894 0.69556266
0.044031356 0.053204566 0.69026476
0.043026093 0.050197095 0.68520868
0.04206571 0.047323883 0.68037832
0.041147269 0.044576228 0.6757589
0.040268075 0.041945934 0.67133689
0.039425664 0.039425671 0.66709989
0.038617779 0.037008703 0.66303658
0.037842337 0.034688771 0.65913641
0.037097424 0.032460243 0.65538979
0.036381271 0.030317724 0.65178782
0.035692248 0.028256387 0.64832222
0.035028726 0.026271552 0.64498496
0.034389529 0.024359226 0.64177012
0.033773243 0.022515506 0.63867044
0.033178661 0.020736665 0.6356799
0.032604646 0.019019395 0.63279283
0.032050155 0.017360508 0.63000393
0.031514212 0.015757114 0.62730837
0.030995898 0.014206469 0.62470144
0.030494355 0.012705982 0.62217891
0.030008785 0.011253268 0.61973667
0.029538438 0.0098461509 0.61737096
0.029082606 0.0084824264 0.61507833
0.02864063 0.007160157 0.61285532
0.028211815 0.005877465 0.61069858
0.027795719 0.004632622 0.6086058
0.027391721 0.0034239888 0.60657382
0.026999297 0.0022499263 0.60460007
0.026617957 0.0011090636 0.60268211
0.026247241 -0 0.60081756
0.026209937 -0.0010920465 0.60062993
0.026209937 -0.0021841526 0.60062993
0.026209937 -0.0032762289 0.60062993
0.026209937 -0.004368335 0.60062993
0.026209937 -0.0054603815 0.60062993
0.026209937 -0.0065524876 0.60062987
0.026209937 -0.0076445937 0.60062993
0.026209937 -0.0087366104 0.60062993
0.026209937 -0.0098287463 0.60062993
0.026209937 -0.010920793 0.60062993
0.026209937 -0.012012899 0.60062993
0.026259579 -0.013129771 0.60087961
0.026420649 -0.014311194 0.6016897
0.026583768 -0.015507191 0.60251015
0.026748853 -0.01671803 0.60334045
0.026915997 -0.017943978 0.60418111
0.027085312 -0.019185424 0.60503268
0.027256703 -0.020442545 0.60589474
0.027430277 -0.021715641 0.60676777
0.027606145 -0.023005128 0.60765231
0.027784212 -0.024311185 0.60854793
0.027964661 -0.025634229 0.60945547
0.028147399 -0.026974589 0.61037457
0.028332541 -0.028332531 0.61130577
0.028520208 -0.029708564 0.61224967
0.028710304 -0.031102806 0.61320579
0.028902952 -0.032515794 0.61417472
0.029098274 -0.033948004 0.61515713
0.029296182 -0.035399526 0.61615252
0.029496798 -0.036870986 0.61716157
0.029700261 -0.038362816 0.61818492
0.02990647 -0.039875284 0.61922204
0.030115642 -0.041408986 0.62027407
0.03032768 -0.042964235 0.62134057
0.030542724 -0.044541478 0.62242216
0.030760923 -0.046141386 0.6235196
0.03098218 -0.047764167 0.62463248
0.031206641 -0.049410477 0.62576139
0.031434465 -0.051080987 0.62690729
0.031665549 -0.052775905 0.62806958
0.031900059 -0.054495916 0.62924904
0.032138161 -0.056241766 0.63044655
0.03237975 -0.058013737 0.63166171
0.032625094 -0.05981268 0.63289571
0.032874085 -0.061638907 0.634148
0.033126909 -0.063493222 0.63541961
0.033383749 -0.065376505 0.63671142
0.050112937 0.066149056 0.71077079
0.048865534 0.062547892 0.7047478
0.047678724 0.059121639 0.69901735
0.046548009 0.055857599 0.6935578
0.045469861 0.052745044 0.68835205
0.044440519 0.049773395 0.68338192
0.043456759 0.046933293 0.6786319
0.042515606 0.044216245 0.67408764
0.04161435 0.041614354 0.66973597
0.040750518 0.039120495 0.66556507
0.039921816 0.036728084 0.66156369
0.03912615 0.03443104 0.65772188
0.038361575 0.032223731 0.6540302
0.037626315 0.030101031 0.65048003
0.036918707 0.028058201 0.64706337
0.036237109 0.026090711 0.64377236
0.03558033 0.024194658 0.64060116
0.034946937 0.022366047 0.63754284
0.034335699 0.020601422 0.63459158
0.033745479 0.018897474 0.6317417
0.0331752 0.017251104 0.62898821
0.032623883 0.015659481 0.62632614
0.032090589 0.014119864 0.62375116
0.031574447 0.012629807 0.62125903
0.031074647 0.011186898 0.61884576
0.030590421 0.0097889304 0.61650771
0.030121058 0.008433938 0.61424142
0.029665878 0.0071198046 0.61204362
0.029224252 0.0058448613 0.60991132
0.028795511 0.0046072602 0.60784113
0.028379235 0.0034055114 0.60583115
0.027974823 0.0022379756 0.6038785
0.027741428 0.0011096597 0.60275155
0.027741428 -0 0.60275161
0.027741428 -0.0011096597 0.60275155
0.027741428 -0.0022193193 0.60275161
0.027741428 -0.0033289492 0.60275155
0.027741428 -0.0044386387 0.60275161
0.027741428 -0.0055482686 0.60275161
0.027741428 -0.0066579282 0.60275161
0.027741428 -0.0077675879 0.60275161
0.027741428 -0.0088772476 0.60275161
0.027741428 -0.0099868774 0.60275161
0.027741428 -0.011096567 0.60275161
0.027741428 -0.012206256 0.60275161
0.027741428 -0.013315856 0.60275161
0.027741428 -0.014425546 0.60275155
0.027741428 -0.015535206 0.60275161
0.027741428 -0.016644865 0.60275161
0.027876141 -0.017840713 0.60340202
0.028050411 -0.019074291 0.60424352
0.028226877 -0.020323336 0.60509551
0.028405642 -0.021588266 0.6059587
0.028586619 -0.022869289 0.6068325
0.028769916 -0.024166733 0.60771757
0.02895565 -0.025480986 0.60861439
0.029143725 -0.026812226 0.60952246
0.029334333 -0.02816093 0.61044276
0.029527375 -0.029527336 0.61137486
0.029722976 -0.030911893 0.61231935
0.029921262 -0.032314956 0.61327672
0.030122131 -0.033736795 0.61424667
0.03032572 -0.035177827 0.61522961
0.030532155 -0.036638588 0.61622643
0.030741343 -0.038119256 0.61723644
0.030953415 -0.039620385 0.61826044
0.031168517 -0.041142449 0.61929905
0.031386543 -0.042685702 0.62035179
0.031607643 -0.044250682 0.62141931
0.031831969 -0.045838013 0.62250245
0.032059412 -0.04744792 0.6236006
0.032290217 -0.049081087 0.62471509
0.03252428 -0.050737828 0.62584519
0.03276176 -0.052418843 0.62699193
0.033002824 -0.054124638 0.62815583
0.033247374 -0.055855587 0.6293366
0.033495571 -0.057612374 0.63053507
0.033747599 -0.059395805 0.63175195
0.034003351 -0.061206013 0.63298678
0.034263007 -0.063043922 0.63424057
0.034526762 -0.064910322 0.63551408
0.034794506 -0.066805407 0.63680685
0.051626045 0.065525383 0.70848936
0.050352797 0.061972678 0.70257801
0.049140837 0.058591038 0.69695121
0.047985666 0.055368066 0.69158804
0.046883736 0.05229339 0.68647212
0.045831271 0.049356759 0.68158579
0.044825025 0.046549082 0.6769141
0.043862019 0.043862045 0.67244315
0.042939514 0.041288018 0.66816014
0.042055018 0.038820058 0.66405374
0.041206226 0.036451638 0.66011304
0.040391017 0.034177005 0.6563282
0.039607439 0.031990618 0.65269029
0.038853683 0.029887468 0.64919078
0.038128078 0.027862817 0.64582205
0.037429083 0.025912464 0.64257681
0.036755145 0.024032205 0.63944793
0.036105152 0.022218585 0.63643014
0.035477746 0.020467937 0.63351727
0.034871779 0.018777102 0.63070399
0.03428616 0.017143101 0.62798512
0.033719886 0.015563041 0.62535608
0.033172011 0.014034301 0.62281251
0.03264166 0.012554526 0.62035012
0.032127999 0.011121243 0.61796534
0.031630252 0.0097324252 0.61565447
0.031147694 0.0083859265 0.61341411
0.030679638 0.0070798993 0.61124104
0.030225441 0.0058126152 0.60913235
0.029784497 0.0045822263 0.60708517
0.029356161 0.0033872426 0.60509652
0.029323021 0.0022556186 0.60494268
0.029323021 0.0011278093 0.60494262
0.029323021 -0 0.60494268
0.029323021 -0.0011277795 0.60494268
0.029323021 -0.0022555888 0.60494268
0.029323021 -0.0033834279 0.60494268
0.029323021 -0.0045112073 0.60494268
0.029323021 -0.0056390464 0.60494268
0.029323021 -0.0067668855 0.60494268
0.029323021 -0.007894665 0.60494268
0.029323021 -0.0090224743 0.60494268
0.029323021 -0.010150224 0.60494268
0.029323021 -0.011278093 0.60494268
0.029323021 -0.012405872 0.60494262
0.029323021 -0.013533682 0.60494268
0.029323021 -0.014661491 0.60494268
0.029323021 -0.01578933 0.60494268
0.029323021 -0.016917109 0.60494268
0.029323021 -0.018044889 0.60494262
0.029323021 -0.019172758 0.60494262
0.029323021 -0.020300567 0.60494268
0.029369565 -0.021462351 0.60515875
0.029555585 -0.022735059 0.60602236
0.029744048 -0.024024069 0.60689735
0.029934855 -0.0253295 0.60778326
0.030128127 -0.0266518 0.60868055
0.030323984 -0.027991354 0.60958987
0.030522332 -0.029348373 0.61051071
0.030723291 -0.030723333 0.61144376
0.030926989 -0.032116473 0.61238945
0.031133328 -0.033528179 0.61334741
0.031342521 -0.034958974 0.61431861
0.031554461 -0.036408991 0.61530262
0.031769287 -0.037878782 0.61629999
0.031987146 -0.039368778 0.61731142
0.032207925 -0.040879264 0.61833644
0.03243177 -0.042410761 0.61937565
0.032658841 -0.04396379 0.62042987
0.03288902 -0.045538634 0.62149858
0.033122472 -0.0471358 0.62258244
0.033359349 -0.048755974 0.6236822
0.033599548 -0.050399318 0.6247974
0.033843324 -0.052066639 0.62592912
0.034090571 -0.053758174 0.62707704
0.034341455 -0.055474654 0.62824178
0.034596156 -0.057216704 0.62942433
0.034854565 -0.058984682 0.63062406
0.035116863 -0.060779214 0.63184184
0.035383239 -0.062601104 0.63307852
0.035653587 -0.064450696 0.63433367
0.035928097 -0.066328794 0.63560814
0.05447552 0.068598807 0.71235138
0.053110886 0.064913303 0.70625049
0.051812951 0.061407924 0.70044768
0.050576944 0.058069855 0.69492179
0.049398337 0.054887027 0.68965256
0.048273597 0.051849395 0.68462408
0.047198936 0.048947066 0.67981952
0.046171073 0.046171099 0.67522413
0.04518703 0.043513447 0.67082477
0.044244055 0.040966749 0.66660893
0.043339632 0.038524121 0.66256553
0.042471446 0.036179394 0.65868402
0.041637361 0.033926755 0.65495503
0.040835403 0.031760842 0.65136969
0.040063757 0.029676855 0.64791977
0.03932073 0.027670115 0.64459789
0.038604762 0.025736511 0.64139694
0.037914403 0.023872048 0.63831055
0.037248187 0.02207303 0.63533205
0.03660509 0.020336151 0.6324569
0.03598382 0.01865828 0.62967932
0.035383288 0.017036408 0.62699449
0.03480247 0.015467763 0.62439781
0.034240413 0.013949811 0.621885
0.033696223 0.01248008 0.619452
0.033169061 0.011056393 0.61709523
0.032658137 0.0096764565 0.614811
0.032162715 0.008338511 0.61259609
0.0316821 0.0070405304 0.61044735
0.031215636 0.0057806373 0.60836196
0.03095722 0.0045862794 0.60720664
0.03095722 0.0034396648 0.60720658
0.03095722 0.0022931099 0.60720658
0.03095722 0.0011465847 0.60720664
0.03095722 -0 0.60720664
0.03095722 -0.0011465549 0.60720658
0.03095722 -0.0022931397 0.60720658
0.03095722 -0.0034396648 0.60720658
0.03095722 -0.0045862496 0.60720658
0.03095722 -0.0057328045 0.60720658
0.03095722 -0.0068793893 0.60720658
0.03095722 -0.0080259442 0.60720658
0.03095722 -0.0091724694 0.60720658
0.03095722 -0.010319054 0.60720658
0.03095722 -0.011465639 0.60720658
0.03095722 -0.012612194 0.60720658
0.03095722 -0.013758719 0.60720658
0.03095722 -0.014905334 0.60720658
0.03095722 -0.016051888 0.60720664
0.03095722 -0.017198414 0.60720658
0.03095722 -0.018345028 0.60720664
0.03095722 -0.019491553 0.60720658
0.03095722 -0.020638138 0.60720664
0.03095722 -0.021784693 0.60720658
0.03095722 -0.022931278 0.60720664
0.03095722 -0.024077833 0.60720658
0.03095722 -0.025224417 0.60720658
0.031100895 -0.026493341 0.60784888
0.031301793 -0.027823776 0.60874707
0.031505302 -0.029171556 0.60965693
0.031711552 -0.030537039 0.61057901
0.03192044 -0.031920463 0.61151296
0.0321321 -0.0333222 0.61245924
0.032346666 -0.034742713 0.61341852
0.032564037 -0.036182269 0.61439025
0.032784346 -0.037641287 0.61537528
0.033007741 -0.039120272 0.61637402
0.033234116 -0.040619463 0.6173861
0.033463709 -0.0421395 0.61841249
0.033696402 -0.043680504 0.61945283
0.033932358 -0.045243129 0.62050778
0.03417173 -0.046827912 0.62157786
0.034414411 -0.048435077 0.6226629
0.034660567 -0.050065234 0.62376332
0.034910358 -0.05171904 0.62488019
0.035163686 -0.053396672 0.62601268
0.035420716 -0.055098891 0.62716186
0.035681628 -0.056826308 0.62832832
0.035946313 -0.058579177 0.62951171
0.036215056 -0.060358465 0.63071316
0.036487743 -0.062164292 0.63193226
0.03676457 -0.063997597 0.63316989
0.037045736 -0.065859064 0.63442695
0.055957019 0.067947835 0.71004015
0.054568246 0.064312577 0.70405304
0.053246737 0.060853422 0.69835591
