# .PCD v0.7 - Point Cloud Data file format
VERSION 0.7
FIELDS x y z
SIZE 4 4 4
TYPE F F F
COUNT 1 1 1
WIDTH 1358
HEIGHT 1
VIEWPOINT 0 0 0 1 0 0 0
POINTS 1358
DATA ascii
-0.0048513399 -0.05174765 0.66400695
-0.0050652693 -0.055717975 0.67261481
-0.0052989372 -0.0600546 0.68201691
-0.0055552055 -0.064810723 0.69232827
-0.0058375215 -0.070050269 0.70368791
-0.0039110063 0.078220099 0.70485425
-0.0038932522 0.075918436 0.70378268
-0.003875643 0.073637217 0.70271987
-0.0038582075 0.07137683 0.70166755
-0.0038409289 0.069136739 0.7006247
-0.0038237884 0.066916317 0.69959021
-0.0038068159 0.064715892 0.69856572
-0.0037899781 0.06253463 0.69754952
-0.0037733037 0.060372829 0.6965431
-0.0037567751 0.058230042 0.69554555
-0.0037403761 0.056105673 0.69455576
-0.0037241343 0.05399996 0.6935755
-0.0037080185 0.051912278 0.69260287
-0.0036920558 0.049842745 0.69163942
-0.0036762157 0.047790825 0.69068336
-0.003660525 0.045756549 0.68973637
-0.0036449677 0.043739617 0.68879741
-0.0036295285 0.041739613 0.6878655
-0.0036142331 0.039756596 0.68694234
-0.0035990523 0.03779009 0.6860261
-0.0035840122 0.035840124 0.68511838
-0.0035690835 0.033906311 0.68421739
-0.0035542925 0.031988651 0.68332464
-0.0035396102 0.030086696 0.68243849
-0.0035250618 0.028200537 0.6815604
-0.0035106323 0.026329756 0.68068957
-0.0034963076 0.024474174 0.67982495
-0.0034821122 0.022633731 0.67896819
-0.0034680192 0.020808101 0.67811763
-0.0034540521 0.018997282 0.67727458
-0.0034401843 0.017200887 0.67643762
-0.0034264403 0.015419006 0.6756081
-0.0034128055 0.013651222 0.67478514
-0.0033992666 0.011897445 0.67396802
-0.0033858467 0.010157555 0.67315805
-0.0033725204 0.0084313154 0.67235374
-0.0033593106 0.0067186058 0.67155647
-0.003346192 0.0050192475 0.67076468
-0.0033331872 0.0033332109 0.66997981
-0.003320283 0.0016601384 0.6692009
-0.0033074666 2.9802322e-08 0.66842741
-0.0032947608 -0.0016473532 0.66766047
-0.0032821405 -0.0032821298 0.66689885
-0.0032696277 -0.0049044192 0.6661436
-0.003257199 -0.0065144002 0.66539347
-0.0032448752 -0.0081121624 0.66464961
-0.0032326446 -0.0096979439 0.66391146
-0.0032204948 -0.011271715 0.66317821
-0.0032084468 -0.012833774 0.66245097
-0.0031964781 -0.01438418 0.66172868
-0.0031846089 -0.015923023 0.66101223
-0.0031728167 -0.017450452 0.66030049
-0.0031611223 -0.018966734 0.65959471
-0.0031495136 -0.020471871 0.65889412
-0.0031379797 -0.021965861 0.65819794
-0.00312654 -0.023449063 0.65750754
-0.0031151737 -0.024921358 0.65682149
-0.0031038993 -0.026383132 0.65614104
-0.0030926964 -0.027834266 0.65546489
-0.0030815841 -0.02927506 0.65479416
-0.0030705512 -0.030705512 0.65412831
-0.0030595872 -0.032125652 0.65346652
-0.0030487112 -0.033535838 0.6528101
-0.0030379025 -0.034935862 0.65215772
-0.0030271795 -0.03632617 0.6515106
-0.0030165226 -0.037706554 0.65086734
-0.00300595 -0.039077342 0.65022928
-0.0029954512 -0.040438592 0.64959562
-0.0029850162 -0.041790247 0.64896578
-0.0029746627 -0.043132603 0.64834088
-0.0029823035 -0.044734567 0.64880204
-0.0031031554 -0.048098892 0.6560961
-0.0032342265 -0.05174765 0.66400695
-0.0033768462 -0.055717975 0.67261481
-0.0035326246 -0.0600546 0.68201691
-0.0037034703 -0.064810723 0.69232827
-0.0038916813 -0.070050269 0.70368791
-0.0019555031 0.078220099 0.70485425
-0.0019466261 0.075918436 0.70378268
-0.0019378215 0.073637217 0.70271987
-0.0019291037 0.07137683 0.70166755
-0.0019204644 0.069136739 0.7006247
-0.0019118942 0.066916317 0.69959021
-0.001903408 0.064715892 0.69856572
-0.0018949891 0.06253463 0.69754952
-0.0018866519 0.060372829 0.6965431
-0.0018783875 0.058230042 0.69554555
-0.001870188 0.056105673 0.69455576
-0.0018620671 0.05399996 0.6935755
-0.0018540092 0.051912278 0.69260287
-0.0018460279 0.049842745 0.69163942
-0.0018381078 0.047790825 0.69068336
-0.0018302625 0.045756549 0.68973637
-0.0018224838 0.043739617 0.68879741
-0.0018147642 0.041739613 0.6878655
-0.0018071166 0.039756596 0.68694234
-0.0017995262 0.03779009 0.6860261
-0.0017920061 0.035840124 0.68511838
-0.0017845418 0.033906311 0.68421739
-0.0017771462 0.031988651 0.68332464
-0.0017698051 0.030086696 0.68243849
-0.0017625309 0.028200537 0.6815604
-0.0017553162 0.026329756 0.68068957
-0.0017481538 0.024474174 0.67982495
-0.0017410561 0.022633731 0.67896819
-0.0017340096 0.020808101 0.67811763
-0.0017270261 0.018997282 0.67727458
-0.0017200921 0.017200887 0.67643762
-0.0017132201 0.015419006 0.6756081
-0.0017064027 0.013651222 0.67478514
-0.0016996333 0.011897445 0.67396802
-0.0016929234 0.010157555 0.67315805
-0.0016862602 0.0084313154 0.67235374
-0.0016796553 0.0067186058 0.67155647
-0.001673096 0.0050192475 0.67076468
-0.0016665936 0.0033332109 0.66997981
-0.0016601415 0.0016601384 0.6692009
-0.0016537333 2.9802322e-08 0.66842741
-0.0016473804 -0.0016473532 0.66766047
-0.0016410702 -0.0032821298 0.66689885
-0.0016348138 -0.0049044192 0.6661436
-0.0016285995 -0.0065144002 0.66539347
-0.0016224376 -0.0081121624 0.66464961
-0.0016163223 -0.0096979439 0.66391146
-0.0016102474 -0.011271715 0.66317821
-0.0016042234 -0.012833774 0.66245097
-0.0015982391 -0.01438418 0.66172868
-0.0015923044 -0.015923023 0.66101223
-0.0015864084 -0.017450452 0.66030049
-0.0015805612 -0.018966734 0.65959471
-0.0015747568 -0.020471871 0.65889412
-0.0015689898 -0.021965861 0.65819794
-0.00156327 -0.023449063 0.65750754
-0.0015575868 -0.024921358 0.65682149
-0.0015519497 -0.026383132 0.65614104
-0.0015463482 -0.027834266 0.65546489
-0.0015407921 -0.02927506 0.65479416
-0.0015352756 -0.030705512 0.65412831
-0.0015297936 -0.032125652 0.65346652
-0.0015243556 -0.033535838 0.6528101
-0.0015189513 -0.034935862 0.65215772
-0.0015135898 -0.03632617 0.6515106
-0.0015082613 -0.037706554 0.65086734
-0.001502975 -0.039077342 0.65022928
-0.0014977256 -0.040438592 0.64959562
-0.0014925081 -0.041790247 0.64896578
-0.0014873313 -0.043132603 0.64834088
-0.0014911518 -0.044734567 0.64880204
-0.0015515777 -0.048098892 0.6560961
-0.0016171132 -0.05174765 0.66400695
-0.0016884231 -0.055717975 0.67261481
-0.0017663123 -0.0600546 0.68201691
-0.0018517352 -0.064810723 0.69232827
-0.0019458407 -0.070050269 0.70368791
0 0.078220099 0.70485425
0 0.075918436 0.70378268
0 0.073637217 0.70271987
0 0.07137683 0.70166755
0 0.069136739 0.7006247
0 0.066916317 0.69959021
0 0.064715892 0.69856572
0 0.06253463 0.69754952
0 0.060372829 0.6965431
0 0.058230042 0.69554555
0 0.056105673 0.69455576
0 0.05399996 0.6935755
0 0.051912278 0.69260287
0 0.049842745 0.69163942
0 0.047790825 0.69068336
0 0.045756549 0.68973637
0 0.043739617 0.68879741
0 0.041739613 0.6878655
0 0.039756596 0.68694234
0 0.03779009 0.6860261
0 0.035840124 0.68511838
0 0.033906311 0.68421739
0 0.031988651 0.68332464
0 0.030086696 0.68243849
0 0.028200537 0.6815604
0 0.026329756 0.68068957
0 0.024474174 0.67982495
0 0.022633731 0.67896819
0 0.020808101 0.67811763
0 0.018997282 0.67727458
0 0.017200887 0.67643762
0 0.015419006 0.6756081
0 0.013651222 0.67478514
0 0.011897445 0.67396802
0 0.010157555 0.67315805
0 0.0084313154 0.67235374
0 0.0067186058 0.67155647
0 0.0050192475 0.67076468
0 0.0033332109 0.66997981
0 0.0016601384 0.6692009
0 2.9802322e-08 0.66842741
0 -0.0016473532 0.66766047
0 -0.0032821298 0.66689885
0 -0.0049044192 0.6661436
0 -0.0065144002 0.66539347
0 -0.0081121624 0.66464961
0 -0.0096979439 0.66391146
0 -0.011271715 0.66317821
0 -0.012833774 0.66245097
0 -0.01438418 0.66172868
0 -0.015923023 0.66101223
0 -0.017450452 0.66030049
0 -0.018966734 0.65959471
0 -0.020471871 0.65889412
0 -0.021965861 0.65819794
0 -0.023449063 0.65750754
0 -0.024921358 0.65682149
0 -0.026383132 0.65614104
0 -0.027834266 0.65546489
0 -0.02927506 0.65479416
0 -0.030705512 0.65412831
0 -0.032125652 0.65346652
0 -0.033535838 0.6528101
0 -0.034935862 0.65215772
0 -0.03632617 0.6515106
0 -0.037706554 0.65086734
0 -0.039077342 0.65022928
0 -0.040438592 0.64959562
0 -0.041790247 0.64896578
0 -0.043132603 0.64834088
0 -0.044734567 0.64880204
0 -0.048098892 0.6560961
0 -0.05174765 0.66400695
0 -0.055717975 0.67261481
0 -0.0600546 0.68201691
0 -0.064810723 0.69232827
0 -0.070050269 0.70368791
0.0019555031 0.078220099 0.70485425
0.0019466261 0.075918436 0.70378268
0.0019378215 0.073637217 0.70271987
0.0019291037 0.07137683 0.70166755
0.0019204644 0.069136739 0.7006247
0.0019118942 0.066916317 0.69959021
0.001903408 0.064715892 0.69856572
0.0018949891 0.06253463 0.69754952
0.0018866519 0.060372829 0.6965431
0.0018783875 0.058230042 0.69554555
0.001870188 0.056105673 0.69455576
0.0018620671 0.05399996 0.6935755
0.0018540092 0.051912278 0.69260287
0.0018460279 0.049842745 0.69163942
0.0018381078 0.047790825 0.69068336
0.0018302625 0.045756549 0.68973637
0.0018224838 0.043739617 0.68879741
0.0018147642 0.041739613 0.6878655
0.0018071166 0.039756596 0.68694234
0.0017995262 0.03779009 0.6860261
0.0017920061 0.035840124 0.68511838
0.0017845418 0.033906311 0.68421739
0.0017771462 0.031988651 0.68332464
0.0017698051 0.030086696 0.68243849
0.0017625309 0.028200537 0.6815604
0.0017553162 0.026329756 0.68068957
0.0017481538 0.024474174 0.67982495
0.0017410561 0.022633731 0.67896819
0.0017340096 0.020808101 0.67811763
0.0017270261 0.018997282 0.67727458
0.0017200921 0.017200887 0.67643762
0.0017132201 0.015419006 0.6756081
0.0017064027 0.013651222 0.67478514
0.0016996333 0.011897445 0.67396802
0.0016929234 0.010157555 0.67315805
0.0016862602 0.0084313154 0.67235374
0.0016796553 0.0067186058 0.67155647
0.001673096 0.0050192475 0.67076468
0.0016665936 0.0033332109 0.66997981
0.0016601415 0.0016601384 0.6692009
0.0016537333 2.9802322e-08 0.66842741
0.0016473804 -0.0016473532 0.66766047
0.0016410702 -0.0032821298 0.66689885
0.0016348138 -0.0049044192 0.6661436
0.0016285995 -0.0065144002 0.66539347
0.0016224376 -0.0081121624 0.66464961
0.0016163223 -0.0096979439 0.66391146
0.0016102474 -0.011271715 0.66317821
0.0016042234 -0.012833774 0.66245097
0.0015982391 -0.01438418 0.66172868
0.0015923044 -0.015923023 0.66101223
0.0015864084 -0.017450452 0.66030049
0.0015805612 -0.018966734 0.65959471
0.0015747568 -0.020471871 0.65889412
0.0015689898 -0.021965861 0.65819794
0.00156327 -0.023449063 0.65750754
0.0015575868 -0.024921358 0.65682149
0.0015519497 -0.026383132 0.65614104
0.0015463482 -0.027834266 0.65546489
0.0015407921 -0.02927506 0.65479416
0.0015352756 -0.030705512 0.65412831
0.0015297936 -0.032125652 0.65346652
0.0015243556 -0.033535838 0.6528101
0.0015189513 -0.034935862 0.65215772
0.0015135898 -0.03632617 0.6515106
0.0015082613 -0.037706554 0.65086734
0.001502975 -0.039077342 0.65022928
0.0014977256 -0.040438592 0.64959562
0.0014925081 -0.041790247 0.64896578
0.0014873313 -0.043132603 0.64834088
0.0014911518 -0.044734567 0.64880204
0.0015515777 -0.048098892 0.6560961
0.0016171132 -0.05174765 0.66400695
0.0016884231 -0.055717975 0.67261481
0.0017663123 -0.0600546 0.68201691
0.0018517352 -0.064810723 0.69232827
0.0019458407 -0.070050269 0.70368791
0.0039110063 0.078220099 0.70485425
0.0038932522 0.075918436 0.70378268
0.003875643 0.073637217 0.70271987
0.0038582075 0.07137683 0.70166755
0.0038409289 0.069136739 0.7006247
0.0038237884 0.066916317 0.69959021
0.0038068159 0.064715892 0.69856572
0.0037899781 0.06253463 0.69754952
0.0037733037 0.060372829 0.6965431
0.0037567751 0.058230042 0.69554555
0.0037403761 0.056105673 0.69455576
0.0037241343 0.05399996 0.6935755
0.0037080185 0.051912278 0.69260287
0.0036920558 0.049842745 0.69163942
0.0036762157 0.047790825 0.69068336
0.003660525 0.045756549 0.68973637
0.0036449677 0.043739617 0.68879741
0.0036295285 0.041739613 0.6878655
0.0036142331 0.039756596 0.68694234
0.0035990523 0.03779009 0.6860261
0.0035840122 0.035840124 0.68511838
0.0035690835 0.033906311 0.68421739
0.0035542925 0.031988651 0.68332464
0.0035396102 0.030086696 0.68243849
0.0035250618 0.028200537 0.6815604
0.0035106323 0.026329756 0.68068957
0.0034963076 0.024474174 0.67982495
0.0034821122 0.022633731 0.67896819
0.0034680192 0.020808101 0.67811763
0.0034540521 0.018997282 0.67727458
0.0034401843 0.017200887 0.67643762
0.0034264403 0.015419006 0.6756081
0.0034128055 0.013651222 0.67478514
0.0033992666 0.011897445 0.67396802
0.0033858467 0.010157555 0.67315805
0.0033725204 0.0084313154 0.67235374
0.0033593106 0.0067186058 0.67155647
0.003346192 0.0050192475 0.67076468
0.0033331872 0.0033332109 0.66997981
0.003320283 0.0016601384 0.6692009
0.0033074666 2.9802322e-08 0.66842741
0.0032947608 -0.0016473532 0.66766047
0.0032821405 -0.0032821298 0.66689885
0.0032696277 -0.0049044192 0.6661436
0.003257199 -0.0065144002 0.66539347
0.0032448752 -0.0081121624 0.66464961
0.0032326446 -0.0096979439 0.66391146
0.0032204948 -0.011271715 0.66317821
0.0032084468 -0.012833774 0.66245097
0.0031964781 -0.01438418 0.66172868
0.0031846089 -0.015923023 0.66101223
0.0031728167 -0.017450452 0.66030049
0.0031611223 -0.018966734 0.65959471
0.0031495136 -0.020471871 0.65889412
0.0031379797 -0.021965861 0.65819794
0.00312654 -0.023449063 0.65750754
0.0031151737 -0.024921358 0.65682149
0.0031038993 -0.026383132 0.65614104
0.0030926964 -0.027834266 0.65546489
0.0030815841 -0.02927506 0.65479416
0.0030705512 -0.030705512 0.65412831
0.0030595872 -0.032125652 0.65346652
0.0030487112 -0.033535838 0.6528101
0.0030379025 -0.034935862 0.65215772
0.0030271795 -0.03632617 0.6515106
0.0030165226 -0.037706554 0.65086734
0.00300595 -0.039077342 0.65022928
0.0029954512 -0.040438592 0.64959562
0.0029850162 -0.041790247 0.64896578
0.0029746627 -0.043132603 0.64834088
0.0029823035 -0.044734567 0.64880204
0.0031031554 -0.048098892 0.6560961
0.0032342265 -0.05174765 0.66400695
0.0033768462 -0.055717975 0.67261481
0.0035326246 -0.0600546 0.68201691
0.0037034703 -0.064810723 0.69232827
0.0038916813 -0.070050269 0.70368791
0.0058665089 0.078220099 0.70485425
0.0058398782 0.075918436 0.70378268
0.0058134641 0.073637217 0.70271987
0.0057873116 0.07137683 0.70166755
0.0057613933 0.069136739 0.7006247
0.0057356828 0.066916317 0.69959021
0.0057102242 0.064715892 0.69856572
0.0056849667 0.06253463 0.69754952
0.0056599551 0.060372829 0.6965431
0.0056351628 0.058230042 0.69554555
0.0056105643 0.056105673 0.69455576
0.0055862013 0.05399996 0.6935755
0.0055620275 0.051912278 0.69260287
0.0055380836 0.049842745 0.69163942
0.0055143237 0.047790825 0.69068336
0.0054907878 0.045756549 0.68973637
0.0054674521 0.043739617 0.68879741
0.0054442929 0.041739613 0.6878655
0.0054213498 0.039756596 0.68694234
0.0053985789 0.03779009 0.6860261
0.0053760181 0.035840124 0.68511838
0.0053536259 0.033906311 0.68421739
0.005331439 0.031988651 0.68332464
0.005309415 0.030086696 0.68243849
0.0052875928 0.028200537 0.6815604
0.0052659484 0.026329756 0.68068957
0.0052444614 0.024474174 0.67982495
0.0052231685 0.022633731 0.67896819
0.0052020284 0.020808101 0.67811763
0.0051810779 0.018997282 0.67727458
0.0051602768 0.017200887 0.67643762
0.0051396606 0.015419006 0.6756081
0.0051192082 0.013651222 0.67478514
0.0050988998 0.011897445 0.67396802
0.0050787702 0.010157555 0.67315805
0.0050587808 0.0084313154 0.67235374
0.005038966 0.0067186058 0.67155647
0.005019288 0.0050192475 0.67076468
0.0049997806 0.0033332109 0.66997981
0.0049804244 0.0016601384 0.6692009
0.0049612005 2.9802322e-08 0.66842741
0.004942141 -0.0016473532 0.66766047
0.0049232105 -0.0032821298 0.66689885
0.0049044415 -0.0049044192 0.6661436
0.0048857983 -0.0065144002 0.66539347
0.004867313 -0.0081121624 0.66464961
0.0048489668 -0.0096979439 0.66391146
0.0048307423 -0.011271715 0.66317821
0.0048126704 -0.012833774 0.66245097
0.0047947168 -0.01438418 0.66172868
0.0047769132 -0.015923023 0.66101223
0.0047592251 -0.017450452 0.66030049
0.0047416836 -0.018966734 0.65959471
0.0047242707 -0.020471871 0.65889412
0.0047069695 -0.021965861 0.65819794
0.0046898103 -0.023449063 0.65750754
0.0046727601 -0.024921358 0.65682149
0.0046558492 -0.026383132 0.65614104
0.0046390444 -0.027834266 0.65546489
0.0046223761 -0.02927506 0.65479416
0.0046058269 -0.030705512 0.65412831
0.0045893807 -0.032125652 0.65346652
0.0045730667 -0.033535838 0.6528101
0.0045568538 -0.034935862 0.65215772
0.0045407694 -0.03632617 0.6515106
0.0045247842 -0.037706554 0.65086734
0.0045089251 -0.039077342 0.65022928
0.0044931769 -0.040438592 0.64959562
0.0044775242 -0.041790247 0.64896578
0.0044619944 -0.043132603 0.64834088
0.0044734553 -0.044734567 0.64880204
0.004654733 -0.048098892 0.6560961
0.0048513399 -0.05174765 0.66400695
0.0050652693 -0.055717975 0.67261481
0.0052989372 -0.0600546 0.68201691
0.0055552055 -0.064810723 0.69232827
0.0058375215 -0.070050269 0.70368791
0.0078220125 0.078220099 0.70485425
0.0077865045 0.075918436 0.70378268
0.007751286 0.073637217 0.70271987
0.007716415 0.07137683 0.70166755
0.0076818578 0.069136739 0.7006247
0.0076475767 0.066916317 0.69959021
0.0076136319 0.064715892 0.69856572
0.0075799562 0.06253463 0.69754952
0.0075466074 0.060372829 0.6965431
0.0075135501 0.058230042 0.69554555
0.0074807522 0.056105673 0.69455576
0.0074482686 0.05399996 0.6935755
0.0074160369 0.051912278 0.69260287
0.0073841116 0.049842745 0.69163942
0.0073524313 0.047790825 0.69068336
0.0073210499 0.045756549 0.68973637
0.0072899354 0.043739617 0.68879741
0.0072590569 0.041739613 0.6878655
0.0072284662 0.039756596 0.68694234
0.0071981046 0.03779009 0.6860261
0.0071680243 0.035840124 0.68511838
0.007138167 0.033906311 0.68421739
0.007108585 0.031988651 0.68332464
0.0070792204 0.030086696 0.68243849
0.0070501235 0.028200537 0.6815604
0.0070212646 0.026329756 0.68068957
0.0069926153 0.024474174 0.67982495
0.0069642244 0.022633731 0.67896819
0.0069360384 0.020808101 0.67811763
0.0069081043 0.018997282 0.67727458
0.0068803686 0.017200887 0.67643762
0.0068528806 0.015419006 0.6756081
0.006825611 0.013651222 0.67478514
0.0067985333 0.011897445 0.67396802
0.0067716935 0.010157555 0.67315805
0.0067450409 0.0084313154 0.67235374
0.0067186211 0.0067186058 0.67155647
0.0066923839 0.0050192475 0.67076468
0.0066663744 0.0033332109 0.66997981
0.006640566 0.0016601384 0.6692009
0.0066149333 2.9802322e-08 0.66842741
0.0065895217 -0.0016473532 0.66766047
0.0065642809 -0.0032821298 0.66689885
0.0065392554 -0.0049044192 0.6661436
0.0065143979 -0.0065144002 0.66539347
0.0064897505 -0.0081121624 0.66464961
0.0064652893 -0.0096979439 0.66391146
0.0064409897 -0.011271715 0.66317821
0.0064168936 -0.012833774 0.66245097
0.0063929562 -0.01438418 0.66172868
0.0063692178 -0.015923023 0.66101223
0.0063456334 -0.017450452 0.66030049
0.0063222446 -0.018966734 0.65959471
0.0062990272 -0.020471871 0.65889412
0.0062759593 -0.021965861 0.65819794
0.00625308 -0.023449063 0.65750754
0.0062303473 -0.024921358 0.65682149
0.0062077986 -0.026383132 0.65614104
0.0061853928 -0.027834266 0.65546489
0.0061631682 -0.02927506 0.65479416
0.0061411024 -0.030705512 0.65412831
0.0061191744 -0.032125652 0.65346652
0.0060974224 -0.033535838 0.6528101
0.0060758051 -0.034935862 0.65215772
0.006054359 -0.03632617 0.6515106
0.0060330452 -0.037706554 0.65086734
0.0060119 -0.039077342 0.65022928
0.0059909024 -0.040438592 0.64959562
0.0059700324 -0.041790247 0.64896578
0.0059493254 -0.043132603 0.64834088
0.005964607 -0.044734567 0.64880204
0.0062063108 -0.048098892 0.6560961
0.006468453 -0.05174765 0.66400695
0.0067536924 -0.055717975 0.67261481
0.0070652491 -0.0600546 0.68201691
0.0074069407 -0.064810723 0.69232827
0.0077833626 -0.070050269 0.70368791
0.0097775152 0.078220099 0.70485425
0.0097331302 0.075918436 0.70378268
0.0096891075 0.073637217 0.70271987
0.0096455188 0.07137683 0.70166755
0.0096023222 0.069136739 0.7006247
0.0095594712 0.066916317 0.69959021
0.0095170401 0.064715892 0.69856572
0.0094749453 0.06253463 0.69754952
0.0094332583 0.060372829 0.6965431
0.0093919374 0.058230042 0.69554555
0.0093509406 0.056105673 0.69455576
0.0093103359 0.05399996 0.6935755
0.0092700459 0.051912278 0.69260287
0.0092301397 0.049842745 0.69163942
0.0091905389 0.047790825 0.69068336
0.0091513125 0.045756549 0.68973637
0.0091124196 0.043739617 0.68879741
0.0090738218 0.041739613 0.6878655
0.0090355827 0.039756596 0.68694234
0.0089976313 0.03779009 0.6860261
0.008960031 0.035840124 0.68511838
0.0089227092 0.033906311 0.68421739
0.0088857319 0.031988651 0.68332464
0.0088490257 0.030086696 0.68243849
0.0088126548 0.028200537 0.6815604
0.0087765809 0.026329756 0.68068957
0.0087407688 0.024474174 0.67982495
0.0087052807 0.022633731 0.67896819
0.0086700479 0.020808101 0.67811763
0.0086351307 0.018997282 0.67727458
0.0086004613 0.017200887 0.67643762
0.0085661011 0.015419006 0.6756081
0.0085320137 0.013651222 0.67478514
0.0084981667 0.011897445 0.67396802
0.0084646167 0.010157555 0.67315805
0.0084313015 0.0084313154 0.67235374
0.0083982768 0.0067186058 0.67155647
0.0083654802 0.0050192475 0.67076468
0.0083329678 0.0033332109 0.66997981
0.0083007077 0.0016601384 0.6692009
0.0082686665 2.9802322e-08 0.66842741
0.0082369018 -0.0016473532 0.66766047
0.0082053505 -0.0032821298 0.66689885
0.0081740692 -0.0049044192 0.6661436
0.0081429975 -0.0065144002 0.66539347
0.0081121884 -0.0081121624 0.66464961
0.0080816112 -0.0096979439 0.66391146
0.0080512371 -0.011271715 0.66317821
0.0080211172 -0.012833774 0.66245097
0.0079911947 -0.01438418 0.66172868
0.0079615219 -0.015923023 0.66101223
0.0079320418 -0.017450452 0.66030049
0.0079028057 -0.018966734 0.65959471
0.0078737848 -0.020471871 0.65889412
0.0078449491 -0.021965861 0.65819794
0.0078163501 -0.023449063 0.65750754
0.0077879336 -0.024921358 0.65682149
0.007759748 -0.026383132 0.65614104
0.0077317408 -0.027834266 0.65546489
0.0077039599 -0.02927506 0.65479416
0.0076763779 -0.030705512 0.65412831
0.0076489681 -0.032125652 0.65346652
0.0076217782 -0.033535838 0.6528101
0.0075947559 -0.034935862 0.65215772
0.0075679487 -0.03632617 0.6515106
0.0075413068 -0.037706554 0.65086734
0.0075148754 -0.039077342 0.65022928
0.0074886279 -0.040438592 0.64959562
0.0074625406 -0.041790247 0.64896578
0.0074366569 -0.043132603 0.64834088
0.0074557588 -0.044734567 0.64880204
0.0077578886 -0.048098892 0.6560961
0.0080855666 -0.05174765 0.66400695
0.008442116 -0.055717975 0.67261481
0.0088315615 -0.0600546 0.68201691
0.0092586763 -0.064810723 0.69232827
0.0097292028 -0.070050269 0.70368791
0.011733018 0.078220099 0.70485425
0.011679756 0.075918436 0.70378268
0.011626928 0.073637217 0.70271987
0.011574623 0.07137683 0.70166755
0.011522787 0.069136739 0.7006247
0.011471366 0.066916317 0.69959021
0.011420448 0.064715892 0.69856572
0.011369933 0.06253463 0.69754952
0.01131991 0.060372829 0.6965431
0.011270326 0.058230042 0.69554555
0.011221129 0.056105673 0.69455576
0.011172403 0.05399996 0.6935755
0.011124055 0.051912278 0.69260287
0.011076167 0.049842745 0.69163942
0.011028647 0.047790825 0.69068336
0.010981576 0.045756549 0.68973637
0.010934904 0.043739617 0.68879741
0.010888586 0.041739613 0.6878655
0.0108427 0.039756596 0.68694234
0.010797158 0.03779009 0.6860261
0.010752036 0.035840124 0.68511838
0.010707252 0.033906311 0.68421739
0.010662878 0.031988651 0.68332464
0.01061883 0.030086696 0.68243849
0.010575186 0.028200537 0.6815604
0.010531897 0.026329756 0.68068957
0.010488923 0.024474174 0.67982495
0.010446337 0.022633731 0.67896819
0.010404057 0.020808101 0.67811763
0.010362156 0.018997282 0.67727458
0.010320554 0.017200887 0.67643762
0.010279321 0.015419006 0.6756081
0.010238416 0.013651222 0.67478514
0.0101978 0.011897445 0.67396802
0.01015754 0.010157555 0.67315805
0.010117562 0.0084313154 0.67235374
0.010077932 0.0067186058 0.67155647
0.010038576 0.0050192475 0.67076468
0.0099995611 0.0033332109 0.66997981
0.0099608488 0.0016601384 0.6692009
0.009922401 2.9802322e-08 0.66842741
0.009884282 -0.0016473532 0.66766047
0.009846421 -0.0032821298 0.66689885
0.0098088831 -0.0049044192 0.6661436
0.0097715966 -0.0065144002 0.66539347
0.0097346259 -0.0081121624 0.66464961
0.0096979337 -0.0096979439 0.66391146
0.0096614845 -0.011271715 0.66317821
0.0096253408 -0.012833774 0.66245097
0.0095894337 -0.01438418 0.66172868
0.0095538264 -0.015923023 0.66101223
0.0095184501 -0.017450452 0.66030049
0.0094833672 -0.018966734 0.65959471
0.0094485413 -0.020471871 0.65889412
0.009413939 -0.021965861 0.65819794
0.0093796207 -0.023449063 0.65750754
0.0093455203 -0.024921358 0.65682149
0.0093116984 -0.026383132 0.65614104
0.0092780888 -0.027834266 0.65546489
0.0092447521 -0.02927506 0.65479416
0.0092116538 -0.030705512 0.65412831
0.0091787614 -0.032125652 0.65346652
0.0091461334 -0.033535838 0.6528101
0.0091137076 -0.034935862 0.65215772
0.0090815388 -0.03632617 0.6515106
0.0090495683 -0.037706554 0.65086734
0.0090178503 -0.039077342 0.65022928
0.0089863539 -0.040438592 0.64959562
0.0089550484 -0.041790247 0.64896578
0.0089239888 -0.043132603 0.64834088
0.0089469105 -0.044734567 0.64880204
0.009309466 -0.048098892 0.6560961
0.0097026797 -0.05174765 0.66400695
0.010130539 -0.055717975 0.67261481
0.010597874 -0.0600546 0.68201691
0.011110411 -0.064810723 0.69232827
0.011675043 -0.070050269 0.70368791
0.013688521 0.078220099 0.70485425
0.013626383 0.075918436 0.70378268
0.013564749 0.073637217 0.70271987
0.013503727 0.07137683 0.70166755
0.01344325 0.069136739 0.7006247
0.013383259 0.066916317 0.69959021
0.013323856 0.064715892 0.69856572
0.013264923 0.06253463 0.69754952
0.013206563 0.060372829 0.6965431
0.013148713 0.058230042 0.69554555
0.013091316 0.056105673 0.69455576
0.013034469 0.05399996 0.6935755
0.012978065 0.051912278 0.69260287
0.012922195 0.049842745 0.69163942
0.012866754 0.047790825 0.69068336
0.012811838 0.045756549 0.68973637
0.012757387 0.043739617 0.68879741
0.012703349 0.041739613 0.6878655
0.012649816 0.039756596 0.68694234
0.012596683 0.03779009 0.6860261
0.012544042 0.035840124 0.68511838
0.012491793 0.033906311 0.68421739
0.012440023 0.031988651 0.68332464
0.012388634 0.030086696 0.68243849
0.012337716 0.028200537 0.6815604
0.012287213 0.026329756 0.68068957
0.012237078 0.024474174 0.67982495
0.012187394 0.022633731 0.67896819
0.012138066 0.020808101 0.67811763
0.012089182 0.018997282 0.67727458
0.012040646 0.017200887 0.67643762
0.011992542 0.015419006 0.6756081
0.01194482 0.013651222 0.67478514
0.011897433 0.011897445 0.67396802
0.011850463 0.010157555 0.67315805
0.011803823 0.0084313154 0.67235374
0.011757588 0.0067186058 0.67155647
0.011711672 0.0050192475 0.67076468
0.011666154 0.0033332109 0.66997981
0.01162099 0.0016601384 0.6692009
0.011576134 2.9802322e-08 0.66842741
0.011531662 -0.0016473532 0.66766047
0.011487491 -0.0032821298 0.66689885
0.011443697 -0.0049044192 0.6661436
0.011400197 -0.0065144002 0.66539347
0.011357063 -0.0081121624 0.66464961
0.011314256 -0.0096979439 0.66391146
0.011271732 -0.011271715 0.66317821
0.011229564 -0.012833774 0.66245097
0.011187673 -0.01438418 0.66172868
0.011146131 -0.015923023 0.66101223
0.011104858 -0.017450452 0.66030049
0.011063929 -0.018966734 0.65959471
0.011023299 -0.020471871 0.65889412
0.01098293 -0.021965861 0.65819794
0.010942891 -0.023449063 0.65750754
0.010903107 -0.024921358 0.65682149
0.010863648 -0.026383132 0.65614104
0.010824437 -0.027834266 0.65546489
0.010785544 -0.02927506 0.65479416
0.010746929 -0.030705512 0.65412831
0.010708555 -0.032125652 0.65346652
0.010670489 -0.033535838 0.6528101
0.010632658 -0.034935862 0.65215772
0.010595129 -0.03632617 0.6515106
0.010557829 -0.037706554 0.65086734
0.010520825 -0.039077342 0.65022928
0.01048408 -0.040438592 0.64959562
0.010447556 -0.041790247 0.64896578
0.01041132 -0.043132603 0.64834088
0.010438062 -0.044734567 0.64880204
0.010861044 -0.048098892 0.6560961
0.011319793 -0.05174765 0.66400695
0.011818962 -0.055717975 0.67261481
0.012364185 -0.0600546 0.68201691
0.012962147 -0.064810723 0.69232827
0.013620883 -0.070050269 0.70368791
0.015644025 0.078220099 0.70485425
0.015573009 0.075918436 0.70378268
0.015502572 0.073637217 0.70271987
0.01543283 0.07137683 0.70166755
0.015363716 0.069136739 0.7006247
0.015295153 0.066916317 0.69959021
0.015227264 0.064715892 0.69856572
0.015159912 0.06253463 0.69754952
0.015093215 0.060372829 0.6965431
0.0150271 0.058230042 0.69554555
0.014961504 0.056105673 0.69455576
0.014896537 0.05399996 0.6935755
0.014832074 0.051912278 0.69260287
0.014768223 0.049842745 0.69163942
0.014704863 0.047790825 0.69068336
0.0146421 0.045756549 0.68973637
0.014579871 0.043739617 0.68879741
0.014518114 0.041739613 0.6878655
0.014456932 0.039756596 0.68694234
0.014396209 0.03779009 0.6860261
0.014336049 0.035840124 0.68511838
0.014276334 0.033906311 0.68421739
0.01421717 0.031988651 0.68332464
0.014158441 0.030086696 0.68243849
0.014100247 0.028200537 0.6815604
0.014042529 0.026329756 0.68068957
0.013985231 0.024474174 0.67982495
0.013928449 0.022633731 0.67896819
0.013872077 0.020808101 0.67811763
0.013816209 0.018997282 0.67727458
0.013760737 0.017200887 0.67643762
0.013705761 0.015419006 0.6756081
0.013651222 0.013651222 0.67478514
0.013597067 0.011897445 0.67396802
0.013543387 0.010157555 0.67315805
0.013490082 0.0084313154 0.67235374
0.013437242 0.0067186058 0.67155647
0.013384768 0.0050192475 0.67076468
0.013332749 0.0033332109 0.66997981
0.013281132 0.0016601384 0.6692009
0.013229867 2.9802322e-08 0.66842741
0.013179043 -0.0016473532 0.66766047
0.013128562 -0.0032821298 0.66689885
0.013078511 -0.0049044192 0.6661436
0.013028796 -0.0065144002 0.66539347
0.012979501 -0.0081121624 0.66464961
0.012930579 -0.0096979439 0.66391146
0.012881979 -0.011271715 0.66317821
0.012833787 -0.012833774 0.66245097
0.012785912 -0.01438418 0.66172868
0.012738436 -0.015923023 0.66101223
0.012691267 -0.017450452 0.66030049
0.012644489 -0.018966734 0.65959471
0.012598054 -0.020471871 0.65889412
0.012551919 -0.021965861 0.65819794
0.01250616 -0.023449063 0.65750754
0.012460695 -0.024921358 0.65682149
0.012415597 -0.026383132 0.65614104
0.012370786 -0.027834266 0.65546489
0.012326336 -0.02927506 0.65479416
0.012282205 -0.030705512 0.65412831
0.012238349 -0.032125652 0.65346652
0.012194845 -0.033535838 0.6528101
0.01215161 -0.034935862 0.65215772
0.012108718 -0.03632617 0.6515106
0.01206609 -0.037706554 0.65086734
0.0120238 -0.039077342 0.65022928
0.011981805 -0.040438592 0.64959562
0.011940065 -0.041790247 0.64896578
0.011898651 -0.043132603 0.64834088
0.011929214 -0.044734567 0.64880204
0.012412622 -0.048098892 0.6560961
0.012936906 -0.05174765 0.66400695
0.013507385 -0.055717975 0.67261481
0.014130498 -0.0600546 0.68201691
0.014813881 -0.064810723 0.69232827
0.015566725 -0.070050269 0.70368791
0.017599527 0.078220099 0.70485425
0.017519636 0.075918436 0.70378268
0.017440394 0.073637217 0.70271987
0.017361935 0.07137683 0.70166755
0.017284179 0.069136739 0.7006247
0.017207049 0.066916317 0.69959021
0.017130671 0.064715892 0.69856572
0.017054901 0.06253463 0.69754952
0.016979866 0.060372829 0.6965431
0.016905488 0.058230042 0.69554555
0.016831692 0.056105673 0.69455576
0.016758604 0.05399996 0.6935755
0.016686082 0.051912278 0.69260287
0.016614251 0.049842745 0.69163942
0.016542969 0.047790825 0.69068336
0.016472364 0.045756549 0.68973637
0.016402356 0.043739617 0.68879741
0.016332878 0.041739613 0.6878655
0.016264047 0.039756596 0.68694234
0.016195735 0.03779009 0.6860261
0.016128056 0.035840124 0.68511838
0.016060878 0.033906311 0.68421739
0.015994316 0.031988651 0.68332464
0.015928244 0.030086696 0.68243849
0.015862778 0.028200537 0.6815604
0.015797846 0.026329756 0.68068957
0.015733385 0.024474174 0.67982495
0.015669506 0.022633731 0.67896819
0.015606086 0.020808101 0.67811763
0.015543235 0.018997282 0.67727458
0.01548083 0.017200887 0.67643762
0.015418981 0.015419006 0.6756081
0.015357625 0.013651222 0.67478514
0.0152967 0.011897445 0.67396802
0.015236311 0.010157555 0.67315805
0.015176343 0.0084313154 0.67235374
0.015116897 0.0067186058 0.67155647
0.015057864 0.0050192475 0.67076468
0.014999342 0.0033332109 0.66997981
0.014941273 0.0016601384 0.6692009
0.0148836 2.9802322e-08 0.66842741
0.014826423 -0.0016473532 0.66766047
0.014769631 -0.0032821298 0.66689885
0.014713325 -0.0049044192 0.6661436
0.014657394 -0.0065144002 0.66539347
0.014601939 -0.0081121624 0.66464961
0.014546901 -0.0096979439 0.66391146
0.014492228 -0.011271715 0.66317821
0.014438012 -0.012833774 0.66245097
0.014384151 -0.01438418 0.66172868
0.01433074 -0.015923023 0.66101223
0.014277676 -0.017450452 0.66030049
0.01422505 -0.018966734 0.65959471
0.014172811 -0.020471871 0.65889412
0.014120908 -0.021965861 0.65819794
0.014069431 -0.023449063 0.65750754
0.01401828 -0.024921358 0.65682149
0.013967547 -0.026383132 0.65614104
0.013917133 -0.027834266 0.65546489
0.013867128 -0.02927506 0.65479416
0.013817481 -0.030705512 0.65412831
0.013768143 -0.032125652 0.65346652
0.013719201 -0.033535838 0.6528101
0.013670561 -0.034935862 0.65215772
0.013622308 -0.03632617 0.6515106
0.013574352 -0.037706554 0.65086734
0.013526775 -0.039077342 0.65022928
0.013479531 -0.040438592 0.64959562
0.013432574 -0.041790247 0.64896578
0.013385982 -0.043132603 0.64834088
0.013420366 -0.044734567 0.64880204
0.013964199 -0.048098892 0.6560961
0.01455402 -0.05174765 0.66400695
0.015195809 -0.055717975 0.67261481
0.01589681 -0.0600546 0.68201691
0.016665617 -0.064810723 0.69232827
0.017512565 -0.070050269 0.70368791
0.01955503 0.078220099 0.70485425
0.01946626 0.075918436 0.70378268
0.019378215 0.073637217 0.70271987
0.019291038 0.07137683 0.70166755
0.019204644 0.069136739 0.7006247
0.019118942 0.066916317 0.69959021
0.01903408 0.064715892 0.69856572
0.018949891 0.06253463 0.69754952
0.018866517 0.060372829 0.6965431
0.018783875 0.058230042 0.69554555
0.018701881 0.056105673 0.69455576
0.018620672 0.05399996 0.6935755
0.018540092 0.051912278 0.69260287
0.018460279 0.049842745 0.69163942
0.018381078 0.047790825 0.69068336
0.018302625 0.045756549 0.68973637
0.018224839 0.043739617 0.68879741
0.018147644 0.041739613 0.6878655
0.018071165 0.039756596 0.68694234
0.017995263 0.03779009 0.6860261
0.017920062 0.035840124 0.68511838
0.017845418 0.033906311 0.68421739
0.017771464 0.031988651 0.68332464
0.017698051 0.030086696 0.68243849
0.01762531 0.028200537 0.6815604
0.017553162 0.026329756 0.68068957
0.017481538 0.024474174 0.67982495
0.017410561 0.022633731 0.67896819
0.017340096 0.020808101 0.67811763
0.017270261 0.018997282 0.67727458
0.017200923 0.017200887 0.67643762
0.017132202 0.015419006 0.6756081
0.017064027 0.013651222 0.67478514
0.016996333 0.011897445 0.67396802
0.016929233 0.010157555 0.67315805
0.016862603 0.0084313154 0.67235374
0.016796554 0.0067186058 0.67155647
0.01673096 0.0050192475 0.67076468
0.016665936 0.0033332109 0.66997981
0.016601415 0.0016601384 0.6692009
0.016537333 2.9802322e-08 0.66842741
0.016473804 -0.0016473532 0.66766047
0.016410701 -0.0032821298 0.66689885
0.016348138 -0.0049044192 0.6661436
0.016285995 -0.0065144002 0.66539347
0.016224377 -0.0081121624 0.66464961
0.016163222 -0.0096979439 0.66391146
0.016102474 -0.011271715 0.66317821
0.016042234 -0.012833774 0.66245097
0.015982389 -0.01438418 0.66172868
0.015923044 -0.015923023 0.66101223
0.015864084 -0.017450452 0.66030049
0.015805611 -0.018966734 0.65959471
0.01574757 -0.020471871 0.65889412
0.015689898 -0.021965861 0.65819794
0.0156327 -0.023449063 0.65750754
0.015575867 -0.024921358 0.65682149
0.015519496 -0.026383132 0.65614104
0.015463482 -0.027834266 0.65546489
0.01540792 -0.02927506 0.65479416
0.015352756 -0.030705512 0.65412831
0.015297936 -0.032125652 0.65346652
0.015243556 -0.033535838 0.6528101
0.015189512 -0.034935862 0.65215772
0.015135897 -0.03632617 0.6515106
0.015082614 -0.037706554 0.65086734
0.015029751 -0.039077342 0.65022928
0.014977256 -0.040438592 0.64959562
0.014925081 -0.041790247 0.64896578
0.014873314 -0.043132603 0.64834088
0.014911518 -0.044734567 0.64880204
0.015515777 -0.048098892 0.6560961
0.016171133 -0.05174765 0.66400695
0.016884232 -0.055717975 0.67261481
0.017663123 -0.0600546 0.68201691
0.018517353 -0.064810723 0.69232827
0.019458406 -0.070050269 0.70368791
0.021510534 0.078220099 0.70485425
0.021412887 0.075918436 0.70378268
0.021316035 0.073637217 0.70271987
0.021220142 0.07137683 0.70166755
0.021125108 0.069136739 0.7006247
0.021030838 0.066916317 0.69959021
0.020937487 0.064715892 0.69856572
0.020844879 0.06253463 0.69754952
0.020753169 0.060372829 0.6965431
0.020662263 0.058230042 0.69554555
0.020572068 0.056105673 0.69455576
0.020482739 0.05399996 0.6935755
0.020394102 0.051912278 0.69260287
0.020306308 0.049842745 0.69163942
0.020219186 0.047790825 0.69068336
0.020132888 0.045756549 0.68973637
0.020047324 0.043739617 0.68879741
0.019962406 0.041739613 0.6878655
0.019878281 0.039756596 0.68694234
0.019794786 0.03779009 0.6860261
0.019712066 0.035840124 0.68511838
0.019629961 0.033906311 0.68421739
0.019548608 0.031988651 0.68332464
0.019467855 0.030086696 0.68243849
0.019387839 0.028200537 0.6815604
0.019308478 0.026329756 0.68068957
0.019229693 0.024474174 0.67982495
0.019151619 0.022633731 0.67896819
0.019074105 0.020808101 0.67811763
0.018997286 0.018997282 0.67727458
0.018921016 0.017200887 0.67643762
0.018845422 0.015419006 0.6756081
0.01877043 0.013651222 0.67478514
0.018695965 0.011897445 0.67396802
0.018622158 0.010157555 0.67315805
0.018548863 0.0084313154 0.67235374
0.018476209 0.0067186058 0.67155647
0.018404055 0.0050192475 0.67076468
0.01833253 0.0033332109 0.66997981
0.018261557 0.0016601384 0.6692009
0.018191068 2.9802322e-08 0.66842741
0.018121183 -0.0016473532 0.66766047
0.018051773 -0.0032821298 0.66689885
0.017982952 -0.0049044192 0.6661436
0.017914593 -0.0065144002 0.66539347
0.017846813 -0.0081121624 0.66464961
0.017779546 -0.0096979439 0.66391146
0.017712722 -0.011271715 0.66317821
0.017646458 -0.012833774 0.66245097
0.01758063 -0.01438418 0.66172868
0.017515348 -0.015923023 0.66101223
0.017450493 -0.017450452 0.66030049
0.017386172 -0.018966734 0.65959471
0.017322326 -0.020471871 0.65889412
0.017258888 -0.021965861 0.65819794
0.017195972 -0.023449063 0.65750754
0.017133454 -0.024921358 0.65682149
0.017071446 -0.026383132 0.65614104
0.01700983 -0.027834266 0.65546489
0.016948711 -0.02927506 0.65479416
0.016888032 -0.030705512 0.65412831
0.01682773 -0.032125652 0.65346652
0.016767912 -0.033535838 0.6528101
0.016708463 -0.034935862 0.65215772
0.016649488 -0.03632617 0.6515106
0.016590875 -0.037706554 0.65086734
0.016532725 -0.039077342 0.65022928
0.016474983 -0.040438592 0.64959562
0.016417589 -0.041790247 0.64896578
0.016360646 -0.043132603 0.64834088
0.016402669 -0.044734567 0.64880204
0.017067354 -0.048098892 0.6560961
0.017788246 -0.05174765 0.66400695
0.018572655 -0.055717975 0.67261481
0.019429436 -0.0600546 0.68201691
0.020369086 -0.064810723 0.69232827
0.021404246 -0.070050269 0.70368791
0.023466036 0.078220099 0.70485425
0.023359513 0.075918436 0.70378268
0.023253856 0.073637217 0.70271987
0.023149246 0.07137683 0.70166755
0.023045573 0.069136739 0.7006247
0.022942731 0.066916317 0.69959021
0.022840897 0.064715892 0.69856572
0.022739867 0.06253463 0.69754952
0.02263982 0.060372829 0.6965431
0.022540651 0.058230042 0.69554555
0.022442257 0.056105673 0.69455576
0.022344805 0.05399996 0.6935755
0.02224811 0.051912278 0.69260287
0.022152334 0.049842745 0.69163942
0.022057295 0.047790825 0.69068336
0.021963151 0.045756549 0.68973637
0.021869808 0.043739617 0.68879741
0.021777172 0.041739613 0.6878655
0.021685399 0.039756596 0.68694234
0.021594316 0.03779009 0.6860261
0.021504072 0.035840124 0.68511838
0.021414503 0.033906311 0.68421739
0.021325756 0.031988651 0.68332464
0.02123766 0.030086696 0.68243849
0.021150371 0.028200537 0.6815604
0.021063793 0.026329756 0.68068957
0.020977845 0.024474174 0.67982495
0.020892674 0.022633731 0.67896819
0.020808114 0.020808101 0.67811763
0.020724311 0.018997282 0.67727458
0.020641107 0.017200887 0.67643762
0.020558642 0.015419006 0.6756081
0.020476833 0.013651222 0.67478514
0.020395599 0.011897445 0.67396802
0.020315081 0.010157555 0.67315805
0.020235123 0.0084313154 0.67235374
0.020155864 0.0067186058 0.67155647
0.020077152 0.0050192475 0.67076468
0.019999122 0.0033332109 0.66997981
0.019921698 0.0016601384 0.6692009
0.019844802 2.9802322e-08 0.66842741
0.019768564 -0.0016473532 0.66766047
0.019692842 -0.0032821298 0.66689885
0.019617766 -0.0049044192 0.6661436
0.019543193 -0.0065144002 0.66539347
0.019469252 -0.0081121624 0.66464961
0.019395867 -0.0096979439 0.66391146
0.019322969 -0.011271715 0.66317821
0.019250682 -0.012833774 0.66245097
0.019178867 -0.01438418 0.66172868
0.019107653 -0.015923023 0.66101223
0.0190369 -0.017450452 0.66030049
0.018966734 -0.018966734 0.65959471
0.018897083 -0.020471871 0.65889412
0.018827878 -0.021965861 0.65819794
0.018759241 -0.023449063 0.65750754
0.018691041 -0.024921358 0.65682149
0.018623397 -0.026383132 0.65614104
0.018556178 -0.027834266 0.65546489
0.018489504 -0.02927506 0.65479416
0.018423308 -0.030705512 0.65412831
0.018357523 -0.032125652 0.65346652
0.018292267 -0.033535838 0.6528101
0.018227415 -0.034935862 0.65215772
0.018163078 -0.03632617 0.6515106
0.018099137 -0.037706554 0.65086734
0.018035701 -0.039077342 0.65022928
0.017972708 -0.040438592 0.64959562
0.017910097 -0.041790247 0.64896578
0.017847978 -0.043132603 0.64834088
0.017893821 -0.044734567 0.64880204
0.018618932 -0.048098892 0.6560961
0.019405359 -0.05174765 0.66400695
0.020261077 -0.055717975 0.67261481
0.021195749 -0.0600546 0.68201691
0.022220822 -0.064810723 0.69232827
0.023350086 -0.070050269 0.70368791
0.025421541 0.078220099 0.70485425
0.025306139 0.075918436 0.70378268
0.025191678 0.073637217 0.70271987
0.025078351 0.07137683 0.70166755
0.024966037 0.069136739 0.7006247
0.024854627 0.066916317 0.69959021
0.024744302 0.064715892 0.69856572
0.024634857 0.06253463 0.69754952
0.024526473 0.060372829 0.6965431
0.024419038 0.058230042 0.69554555
0.024312444 0.056105673 0.69455576
0.024206873 0.05399996 0.6935755
0.02410212 0.051912278 0.69260287
0.023998363 0.049842745 0.69163942
0.0238954 0.047790825 0.69068336
0.023793414 0.045756549 0.68973637
0.023692291 0.043739617 0.68879741
0.023591934 0.041739613 0.6878655
0.023492515 0.039756596 0.68694234
0.02339384 0.03779009 0.6860261
0.023296079 0.035840124 0.68511838
0.023199044 0.033906311 0.68421739
0.023102902 0.031988651 0.68332464
0.023007467 0.030086696 0.68243849
0.022912899 0.028200537 0.6815604
0.022819111 0.026329756 0.68068957
0.022726001 0.024474174 0.67982495
0.022633731 0.022633731 0.67896819
0.022542123 0.020808101 0.67811763
0.022451339 0.018997282 0.67727458
0.0223612 0.017200887 0.67643762
0.022271862 0.015419006 0.6756081
0.022183236 0.013651222 0.67478514
0.022095231 0.011897445 0.67396802
0.022008004 0.010157555 0.67315805
0.021921383 0.0084313154 0.67235374
0.021835519 0.0067186058 0.67155647
0.021750249 0.0050192475 0.67076468
0.021665717 0.0033332109 0.66997981
0.02158184 0.0016601384 0.6692009
0.021498535 2.9802322e-08 0.66842741
0.021415945 -0.0016473532 0.66766047
0.021333912 -0.0032821298 0.66689885
0.021252578 -0.0049044192 0.6661436
0.021171793 -0.0065144002 0.66539347
0.021091688 -0.0081121624 0.66464961
0.021012191 -0.0096979439 0.66391146
0.020933216 -0.011271715 0.66317821
0.020854905 -0.012833774 0.66245097
0.020777106 -0.01438418 0.66172868
0.020699957 -0.015923023 0.66101223
0.02062331 -0.017450452 0.66030049
0.020547295 -0.018966734 0.65959471
0.020471839 -0.020471871 0.65889412
0.020396868 -0.021965861 0.65819794
0.020322511 -0.023449063 0.65750754
0.020248627 -0.024921358 0.65682149
0.020175345 -0.026383132 0.65614104
0.020102527 -0.027834266 0.65546489
0.020030295 -0.02927506 0.65479416
0.019958582 -0.030705512 0.65412831
0.019887317 -0.032125652 0.65346652
0.019816624 -0.033535838 0.6528101
0.019746365 -0.034935862 0.65215772
0.019676669 -0.03632617 0.6515106
0.019607399 -0.037706554 0.65086734
0.019538676 -0.039077342 0.65022928
0.019470433 -0.040438592 0.64959562
0.019402605 -0.041790247 0.64896578
0.019335309 -0.043132603 0.64834088
0.019384973 -0.044734567 0.64880204
0.02017051 -0.048098892 0.6560961
0.021022473 -0.05174765 0.66400695
0.021949502 -0.055717975 0.67261481
0.02296206 -0.0600546 0.68201691
0.024072558 -0.064810723 0.69232827
0.025295926 -0.070050269 0.70368791
0.027377043 0.078220099 0.70485425
0.027252765 0.075918436 0.70378268
0.027129497 0.073637217 0.70271987
0.027007453 0.07137683 0.70166755
0.0268865 0.069136739 0.7006247
0.026766518 0.066916317 0.69959021
0.026647711 0.064715892 0.69856572
0.026529847 0.06253463 0.69754952
0.026413126 0.060372829 0.6965431
0.026297426 0.058230042 0.69554555
0.026182633 0.056105673 0.69455576
0.026068939 0.05399996 0.6935755
0.02595613 0.051912278 0.69260287
0.02584439 0.049842745 0.69163942
0.025733508 0.047790825 0.69068336
0.025623675 0.045756549 0.68973637
0.025514774 0.043739617 0.68879741
0.025406698 0.041739613 0.6878655
0.025299631 0.039756596 0.68694234
0.025193365 0.03779009 0.6860261
0.025088085 0.035840124 0.68511838
0.024983587 0.033906311 0.68421739
0.024880046 0.031988651 0.68332464
0.024777269 0.030086696 0.68243849
0.024675433 0.028200537 0.6815604
0.024574427 0.026329756 0.68068957
0.024474155 0.024474174 0.67982495
0.024374789 0.022633731 0.67896819
0.024276132 0.020808101 0.67811763
0.024178363 0.018997282 0.67727458
0.024081292 0.017200887 0.67643762
0.023985084 0.015419006 0.6756081
0.02388964 0.013651222 0.67478514
0.023794865 0.011897445 0.67396802
0.023700926 0.010157555 0.67315805
0.023607645 0.0084313154 0.67235374
0.023515176 0.0067186058 0.67155647
0.023423344 0.0050192475 0.67076468
0.023332309 0.0033332109 0.66997981
0.02324198 0.0016601384 0.6692009
0.023152268 2.9802322e-08 0.66842741
0.023063324 -0.0016473532 0.66766047
0.022974983 -0.0032821298 0.66689885
0.022887394 -0.0049044192 0.6661436
0.022800393 -0.0065144002 0.66539347
0.022714127 -0.0081121624 0.66464961
0.022628512 -0.0096979439 0.66391146
0.022543464 -0.011271715 0.66317821
0.022459129 -0.012833774 0.66245097
0.022375345 -0.01438418 0.66172868
0.022292262 -0.015923023 0.66101223
0.022209717 -0.017450452 0.66030049
0.022127857 -0.018966734 0.65959471
0.022046598 -0.020471871 0.65889412
0.021965859 -0.021965861 0.65819794
0.021885782 -0.023449063 0.65750754
0.021806214 -0.024921358 0.65682149
0.021727296 -0.026383132 0.65614104
0.021648875 -0.027834266 0.65546489
0.021571089 -0.02927506 0.65479416
0.021493858 -0.030705512 0.65412831
0.021417109 -0.032125652 0.65346652
0.021340977 -0.033535838 0.6528101
0.021265317 -0.034935862 0.65215772
0.021190258 -0.03632617 0.6515106
0.021115659 -0.037706554 0.65086734
0.02104165 -0.039077342 0.65022928
0.02096816 -0.040438592 0.64959562
0.020895112 -0.041790247 0.64896578
0.020822641 -0.043132603 0.64834088
0.020876125 -0.044734567 0.64880204
0.021722088 -0.048098892 0.6560961
0.022639586 -0.05174765 0.66400695
0.023637924 -0.055717975 0.67261481
0.024728371 -0.0600546 0.68201691
0.025924293 -0.064810723 0.69232827
0.027241766 -0.070050269 0.70368791
0.029332547 0.078220099 0.70485425
0.029199392 0.075918436 0.70378268
0.029067321 0.073637217 0.70271987
0.028936557 0.07137683 0.70166755
0.028806966 0.069136739 0.7006247
0.028678413 0.066916317 0.69959021
0.028551118 0.064715892 0.69856572
0.028424837 0.06253463 0.69754952
0.028299777 0.060372829 0.6965431
0.028175812 0.058230042 0.69554555
0.028052822 0.056105673 0.69455576
0.027931007 0.05399996 0.6935755
0.027810138 0.051912278 0.69260287
0.02769042 0.049842745 0.69163942
0.027571617 0.047790825 0.69068336
0.027453937 0.045756549 0.68973637
0.027337259 0.043739617 0.68879741
0.027221464 0.041739613 0.6878655
0.027106747 0.039756596 0.68694234
0.026992893 0.03779009 0.6860261
0.026880093 0.035840124 0.68511838
0.026768127 0.033906311 0.68421739
0.026657194 0.031988651 0.68332464
0.026547076 0.030086696 0.68243849
0.026437962 0.028200537 0.6815604
0.026329743 0.026329756 0.68068957
0.026222307 0.024474174 0.67982495
0.026115842 0.022633731 0.67896819
0.026010145 0.020808101 0.67811763
0.025905391 0.018997282 0.67727458
0.025801383 0.017200887 0.67643762
0.025698302 0.015419006 0.6756081
0.025596043 0.013651222 0.67478514
0.025494499 0.011897445 0.67396802
0.025393851 0.010157555 0.67315805
0.025293903 0.0084313154 0.67235374
0.025194829 0.0067186058 0.67155647
0.025096441 0.0050192475 0.67076468
0.024998905 0.0033332109 0.66997981
0.024902124 0.0016601384 0.6692009
0.024806002 2.9802322e-08 0.66842741
0.024710706 -0.0016473532 0.66766047
0.024616051 -0.0032821298 0.66689885
0.024522208 -0.0049044192 0.6661436
