# .PCD v0.7 - Point Cloud Data file format
VERSION 0.7
FIELDS x y z
SIZE 4 4 4
TYPE F F F
COUNT 1 1 1
WIDTH 1355
HEIGHT 1
VIEWPOINT 0 0 0 1 0 0 0
POINTS 1355
DATA ascii
0.035595015 0.01186502 0.64783323
0.035671145 0.01040408 0.64821613
0.035747483 0.008936882 0.6486001
0.035824269 0.0074633956 0.64898622
0.035901267 0.0059835613 0.64937353
0.035978712 0.0044973195 0.64976311
0.036056377 0.0030047297 0.6501537
0.036134381 0.0015055835 0.65054601
0.036212835 -0 0.65094066
0.036291517 -0.0015121102 0.65133631
0.036370657 -0.0030308962 0.65173441
0.036450025 -0.0045562387 0.65213358
0.036529861 -0.0060883462 0.65253508
0.036609925 -0.00762707 0.65293783
0.036690343 -0.0091725886 0.65334231
0.036771234 -0.010724932 0.65374911
0.03685236 -0.01228407 0.65415716
0.03693397 -0.013850242 0.65456766
0.037015818 -0.015423208 0.65497929
0.037098031 -0.017003238 0.65539283
0.037180733 -0.018590361 0.65580881
0.03726368 -0.020184487 0.65622592
0.037347123 -0.021785825 0.65664566
0.037430815 -0.023394227 0.65706658
0.037515007 -0.025010049 0.65749002
0.037599456 -0.026632935 0.65791476
0.037684284 -0.028263211 0.65834141
0.037769623 -0.029900938 0.65877062
0.037855219 -0.031546026 0.6592012
0.037941337 -0.033198655 0.65963435
0.038027715 -0.034858763 0.66006875
0.038114619 -0.036526531 0.66050589
0.03820179 -0.038201779 0.66094422
0.038289364 -0.039884716 0.6613847
0.038377464 -0.041575581 0.6618278
0.038465846 -0.043274075 0.66227239
0.038554762 -0.044980556 0.66271961
0.038643964 -0.046694815 0.66316831
0.038733575 -0.048416972 0.66361892
0.038823739 -0.050147325 0.66407245
0.038914189 -0.051885575 0.66452742
0.039005194 -0.05363214 0.66498512
0.039096493 -0.055386692 0.66544425
0.039188221 -0.0571495 0.66590565
0.039280511 -0.058920771 0.6663698
0.039373104 -0.060700208 0.66683555
0.039466273 -0.062488258 0.66730416
0.039559744 -0.064284593 0.66777426
0.0396538 -0.06608966 0.66824734
0.039748162 -0.067903101 0.66872191
0.039842974 -0.069725186 0.66919881
0.039938383 -0.071556225 0.66967869
0.040034108 -0.073395848 0.67016011
0.034538068 0.056642413 0.63556862
0.034606762 0.055370837 0.63590038
0.034675833 0.054094285 0.63623387
0.034745079 0.052812546 0.63656819
0.0348146 0.051525593 0.63690388
0.034884509 0.050233722 0.63724142
0.034954589 0.048936397 0.6375798
0.035025056 0.047634095 0.63792002
0.035095707 0.046326309 0.6382612
0.03516664 0.045013309 0.63860369
0.035237968 0.043695092 0.63894808
0.035309479 0.042371392 0.63929337
0.035381388 0.041042417 0.63964057
0.03545348 0.039707899 0.63998866
0.035525978 0.038368076 0.64033872
0.035598665 0.03702262 0.64068973
0.035671648 0.035671651 0.64104211
0.035745043 0.034315258 0.6413964
0.035818625 0.032953143 0.64175177
0.035892624 0.031585515 0.64210904
0.035966825 0.030212134 0.64246738
0.036041323 0.028833091 0.64282703
0.03611625 0.027448326 0.64318877
0.036191374 0.02605778 0.64355159
0.036266923 0.024661541 0.64391631
0.036342673 0.023259312 0.6442821
0.036418859 0.021851301 0.64464992
0.036495246 0.02043733 0.64501882
0.036571957 0.019017398 0.64538914
0.036649104 0.017591596 0.64576161
0.036726467 0.016159654 0.64613521
0.036804266 0.014721692 0.64651084
0.036882281 0.01327762 0.64688754
0.036960747 0.011827439 0.64726639
0.037039429 0.010371059 0.64764631
0.03711845 0.0089084506 0.64802784
0.037197921 0.0074395835 0.64841157
0.037277617 0.0059643984 0.64879638
0.037357774 0.0044829547 0.64918339
0.037438158 0.0029950738 0.64957154
0.037518889 0.0015007555 0.64996135
0.037600089 2.9802322e-08 0.65035337
0.037681516 -0.0015072525 0.65074658
0.037763424 -0.0030210614 0.65114212
0.037845563 -0.0045414567 0.65153861
0.037928186 -0.0060685277 0.6519376
0.038011044 -0.0076022148 0.65233767
0.038094267 -0.0091426373 0.65273952
0.038177978 -0.010689795 0.6531437
0.038261935 -0.012243837 0.65354908
0.038346384 -0.013804704 0.65395683
0.038431086 -0.015372455 0.65436584
0.038516283 -0.01694715 0.65477717
0.038601737 -0.018528789 0.65518975
0.038687568 -0.020117551 0.65560424
0.038773909 -0.021713346 0.65602112
0.038860511 -0.023316294 0.65643924
0.038947627 -0.024926513 0.65685993
0.039035007 -0.026543796 0.65728176
0.039122779 -0.02816841 0.65770566
0.039211076 -0.029800415 0.6581319
0.039299641 -0.031439722 0.65855956
0.039388742 -0.033086509 0.65898979
0.039478112 -0.034740746 0.65942132
0.039568026 -0.036402553 0.65985543
0.039658215 -0.038071901 0.66029096
0.039748814 -0.039748818 0.66072834
0.039839964 -0.041433543 0.66116846
0.039931398 -0.043125927 0.66160995
0.040023386 -0.04482621 0.66205412
0.040115666 -0.046534151 0.66249967
0.040208507 -0.048250198 0.66294795
0.04030164 -0.049974024 0.66339767
0.040395211 -0.051705897 0.66384941
0.04048935 -0.053445965 0.66430402
0.040583793 -0.055193961 0.66475999
0.040678818 -0.056950301 0.66521877
0.040774144 -0.058714747 0.6656791
0.040869925 -0.060487479 0.66614157
0.040966291 -0.062268764 0.6666069
0.041062977 -0.064058244 0.66707367
0.041160259 -0.065856427 0.66754341
0.041257858 -0.06766288 0.66801465
0.041355927 -0.06947796 0.6684882
0.041454606 -0.071301922 0.66896468
0.041553609 -0.073134348 0.66944271
0.035813525 0.056475163 0.63507628
0.035884552 0.055207014 0.63540596
0.035955958 0.053933918 0.63573754
0.036027547 0.052655667 0.63606989
0.036099423 0.05137229 0.63640356
0.03617169 0.050083905 0.63673908
0.036244143 0.048790187 0.63707548
0.036316991 0.047491461 0.63741368
0.036390029 0.046187341 0.63775277
0.036463466 0.044878155 0.63809371
0.036537088 0.043563455 0.63843548
0.036611013 0.042243481 0.63877875
0.036685348 0.040918291 0.63912386
0.036759872 0.039587557 0.63946986
0.03683481 0.038251549 0.63981777
0.036909945 0.036909968 0.64016658
0.03698539 0.035562873 0.64051688
0.037061252 0.034210384 0.64086902
0.037137311 0.032852203 0.64122224
0.037213799 0.031488627 0.6415773
0.037290491 0.03011927 0.64193338
0.037367612 0.02874434 0.64229143
0.037444938 0.027363598 0.64265043
0.037522588 0.025977135 0.64301097
0.03760067 0.024585068 0.64337343
0.037678964 0.023187071 0.6437369
0.037757702 0.021783322 0.64410245
0.037836656 0.020373613 0.64446902
0.037915938 0.018957973 0.64483714
0.03799567 0.017536491 0.64520729
0.038075618 0.01610893 0.6455785
0.038156025 0.014675379 0.64595181
0.038236652 0.013235748 0.64632612
0.03831774 0.011790067 0.64670259
0.038399052 0.010338217 0.64708018
0.03848071 0.008880198 0.64745921
0.038562838 0.0074159503 0.6478405
0.038645197 0.0059454441 0.64822286
0.038728029 0.0044686198 0.64860749
0.038811095 0.0029854774 0.64899307
0.038894638 0.0014959276 0.64938098
0.038978424 2.9802322e-08 0.64976996
0.039062567 -0.0015023947 0.65016067
0.039147198 -0.0030113459 0.65055358
0.039232075 -0.0045267642 0.65094757
0.039317444 -0.0060488582 0.65134394
0.039403059 -0.0075775087 0.65174145
0.039489049 -0.0091128647 0.65214068
0.039575543 -0.010654926 0.65254223
0.039662287 -0.012203783 0.65294492
0.039749544 -0.013759434 0.65335006
0.039837051 -0.01532194 0.65375632
0.03992508 -0.01689136 0.65416497
0.040013362 -0.018467724 0.65457493
0.040102039 -0.020051032 0.65498662
0.040191244 -0.021641403 0.65540075
0.040280711 -0.023238868 0.65581614
0.04037071 -0.024843514 0.65623403
0.040460981 -0.026455253 0.65665305
0.040551789 -0.028074354 0.65707469
0.040642869 -0.029700518 0.65749753
0.040734366 -0.031334132 0.65792227
0.040826403 -0.032975137 0.65834963
0.040918726 -0.034623504 0.65877819
0.041011602 -0.03627947 0.65920943
0.041104764 -0.037942857 0.65964192
0.04119835 -0.039613813 0.6600765
0.0412925 -0.041292489 0.66051352
0.041386947 -0.042978764 0.66095209
0.041481961 -0.044672877 0.66139317
0.041577276 -0.046374679 0.66183573
0.041673169 -0.048084408 0.66228092
0.041769367 -0.049801946 0.66272753
0.041866004 -0.051527381 0.66317618
0.041963235 -0.053261042 0.66362762
0.042060778 -0.05500254 0.66408038
0.042158917 -0.056752384 0.66453612
0.042257372 -0.058510184 0.66499317
0.042356286 -0.06027624 0.66545242
0.042455811 -0.06205079 0.66591448
0.042555656 -0.063833475 0.66637802
0.04265612 -0.065624833 0.66684449
0.042756911 -0.067424372 0.66731244
0.042858183 -0.069232449 0.6677826
0.042960085 -0.071049377 0.66825569
0.043062318 -0.072874665 0.66873032
0.03708148 0.056308925 0.63458675
0.037154801 0.055044115 0.63491452
0.037228517 0.053774536 0.63524413
0.03730242 0.052499712 0.63557452
0.037376616 0.051219791 0.63590622
0.037451219 0.049934924 0.63623977
0.037526008 0.048644841 0.63657415
0.03760121 0.047349662 0.63691032
0.037676603 0.046049178 0.63724744
0.037752409 0.044743627 0.6375863
0.037828408 0.043432653 0.63792604
0.037904713 0.042116374 0.63826722
0.037981443 0.040794909 0.63861024
0.038058367 0.039467931 0.63895416
0.038135719 0.038135707 0.63929999
0.038213272 0.036798 0.63964671
0.038291257 0.035454899 0.63999534
0.038369443 0.034106165 0.64034492
0.03844795 0.032751977 0.64069593
0.038526893 0.031392276 0.64104885
0.038606044 0.030026913 0.64140272
0.038685642 0.028656065 0.64175856
0.038765449 0.027279437 0.64211535
0.038845588 0.025897056 0.64247364
0.038926177 0.024509072 0.64283395
0.039006978 0.023115277 0.64319515
0.039088238 0.021715701 0.6435585
0.039169718 0.020310253 0.64392281
0.039251659 0.018898934 0.64428914
0.03933382 0.017481685 0.64465642
0.039416328 0.016058505 0.64502525
0.039499305 0.014629364 0.64539623
0.039582506 0.013194174 0.64576828
0.039666187 0.011752963 0.64614236
0.039750092 0.010305554 0.64651752
0.039834481 0.0088520944 0.64689475
0.039919104 0.0073924661 0.64727306
0.040004089 0.0059265494 0.64765298
0.040089563 0.0044544041 0.64803517
0.040175274 0.0029759407 0.64841837
0.040261477 0.001491189 0.64880377
0.040347926 -2.9802322e-08 0.64919025
0.040434748 -0.0014975965 0.64957845
0.040522072 -0.0030016303 0.6499688
0.040609647 -0.004512161 0.65036035
0.040697727 -0.006029278 0.65075415
0.040786061 -0.0075529516 0.65114903
0.04087491 -0.0090833008 0.65154624
0.040964015 -0.010620296 0.65194464
0.041053511 -0.012163997 0.65234476
0.041143533 -0.013714492 0.65274721
0.041233815 -0.015271753 0.65315086
0.04132463 -0.016835958 0.65355682
0.04141571 -0.018406987 0.6539641
0.041507326 -0.01998499 0.65437365
0.041599214 -0.021569937 0.65478444
0.041691512 -0.023161948 0.65519708
0.041784354 -0.024761111 0.65561217
0.041877471 -0.026367247 0.65602845
0.041971147 -0.027980775 0.65644729
0.042065103 -0.029601365 0.65686738
0.042159479 -0.031229258 0.65728927
0.042254418 -0.032864541 0.65771377
0.042349651 -0.034507096 0.65813947
0.042445451 -0.036157221 0.65856779
0.042541545 -0.037814677 0.65899742
0.042638216 -0.039479822 0.65942955
0.042735182 -0.041152418 0.65986311
0.042832594 -0.042832583 0.66029865
0.042930599 -0.044520587 0.66073674
0.043028902 -0.046216249 0.66117626
0.043127801 -0.04791978 0.66161841
0.043227013 -0.049631 0.66206199
0.043326683 -0.051350117 0.66250753
0.043426957 -0.05307737 0.66295582
0.043527555 -0.054812461 0.66340566
0.043628763 -0.056555808 0.66385806
0.0437303 -0.058307052 0.66431206
0.043832451 -0.06006667 0.6647687
0.043934934 -0.061834335 0.66522694
0.044037901 -0.063610315 0.66568732
0.044141501 -0.065394819 0.66615045
0.044245441 -0.067187518 0.66661513
0.044349864 -0.068988666 0.66708195
0.04445494 -0.070798606 0.66755176
0.044560358 -0.07261689 0.66802311
0.038341984 0.056143641 0.63410008
0.038417574 0.054882288 0.63442594
0.038493574 0.053616047 0.63475364
0.038569763 0.05234468 0.63508207
0.038646366 0.051068425 0.63541234
0.038723163 0.049786896 0.63574338
0.038800262 0.048500329 0.63607574
0.038877785 0.047208726 0.63641
0.038955506 0.045911849 0.6367451
0.039033648 0.044609874 0.63708192
0.039111994 0.043302596 0.63741964
0.03919065 0.041990012 0.63775873
0.039269742 0.040672243 0.63809973
0.039349038 0.039349049 0.63844156
0.039428771 0.038020581 0.63878536
0.039508712 0.036686689 0.63912994
0.039589092 0.035347402 0.63947654
0.039669685 0.034002572 0.63982391
0.039750606 0.032652318 0.64017278
0.039831977 0.031296551 0.64052361
0.039913561 0.029935151 0.64087528
0.0399956 0.028568268 0.64122897
0.040077858 0.027195692 0.64158362
0.040160574 0.025817513 0.64194024
0.04024351 0.024433583 0.64229774
0.040326793 0.023043901 0.6426568
0.040410545 0.021648526 0.64301783
0.040494516 0.020247251 0.64337981
0.040578965 0.018840224 0.64374387
0.040663641 0.017427295 0.64410895
0.040748671 0.016008377 0.64447558
0.040834185 0.014583647 0.64484423
0.04091993 0.013152838 0.64521384
0.041006163 0.011716068 0.64558566
0.041092634 0.010273129 0.64595842
0.041179597 0.0088241696 0.64633334
0.041266803 0.0073690414 0.64670926
0.041354377 0.005907774 0.6470868
0.041442454 0.004440248 0.64746654
0.041530777 0.0029664636 0.64784729
0.041619606 0.0014864206 0.6482302
0.041708685 -0 0.64861429
0.041798279 -0.0014927983 0.64900053
0.041888125 -0.0029920042 0.64938784
0.041978359 -0.0044976473 0.64977682
0.042069118 -0.0060098767 0.65016806
0.042160135 -0.0075285733 0.65056044
0.04225168 -0.0090539455 0.65095514
0.04234349 -0.010585874 0.65135098
0.042435698 -0.012124479 0.65174848
0.042528447 -0.013669848 0.65214831
0.042621464 -0.015221924 0.65254933
0.042715024 -0.016780883 0.65295267
0.042808864 -0.018346667 0.65335727
0.042903248 -0.019919366 0.65376413
0.042997915 -0.021498948 0.65417224
0.043093003 -0.023085505 0.65458214
0.043188646 -0.024679214 0.65499449
0.043284576 -0.026279926 0.65540808
0.043381076 -0.027887821 0.65582407
0.043477867 -0.029502839 0.65624136
0.043575231 -0.031125188 0.65666109
0.043672886 -0.03275466 0.65708208
0.04377098 -0.034391493 0.65750504
0.043869663 -0.036035806 0.65793043
0.043968651 -0.037687391 0.65835714
0.044068228 -0.039346635 0.65878648
0.044168111 -0.041013241 0.65921706
0.044268444 -0.042687446 0.65964961
0.044369388 -0.04436937 0.66008478
0.044470642 -0.046058863 0.66052133
0.04457251 -0.047756255 0.6609605
0.044674695 -0.049461275 0.66140097
0.044777498 -0.051174283 0.66184425
0.044880625 -0.05289501 0.66228878
0.044984225 -0.054623693 0.6627354
0.045088463 -0.056360573 0.66318482
0.045193031 -0.05810532 0.66363561
0.045298237 -0.059858352 0.66408914
0.045403779 -0.061619431 0.66454422
0.045509815 -0.063388675 0.66500127
0.045616508 -0.065166444 0.66546124
0.045723539 -0.066952318 0.66592264
0.04583123 -0.06874685 0.66638696
0.045939278 -0.070549592 0.66685271
0.046047829 -0.072360888 0.66732079
0.039595116 0.055979311 0.63361633
0.039672945 0.054721326 0.63394028
0.039751198 0.053458512 0.63426602
0.039829642 0.052190572 0.63459253
0.039908517 0.050917804 0.63492078
0.039987586 0.049639761 0.63524997
0.040066969 0.048356712 0.63558042
0.040146783 0.047068655 0.6359126
0.040226799 0.045775324 0.63624567
0.040307254 0.044476956 0.63658053
0.040387914 0.043173313 0.63691628
0.040469013 0.041864514 0.63725388
0.040550321 0.040550351 0.63759232
0.040631957 0.039230853 0.63793206
0.040714044 0.03790617 0.63827378
0.04079634 0.036576092 0.63861632
0.040879089 0.03524062 0.63896072
0.040962055 0.033899605 0.63930613
0.04104536 0.032553226 0.63965285
0.041129123 0.031201422 0.64000148
0.04121311 0.029843986 0.64035106
0.041297562 0.028481066 0.64070266
0.041382238 0.027112484 0.64105511
0.041467387 0.025738388 0.64140952
0.041552756 0.024358541 0.64176488
0.041638482 0.022972971 0.64212167
0.041724689 0.021581739 0.64248049
0.041811127 0.020184696 0.64284027
0.041898049 0.0187819 0.64320213
0.04198521 0.017373204 0.64356494
0.042072859 0.015958667 0.64392972
0.042160746 0.014538169 0.64429557
0.042248998 0.01311177 0.64466292
0.042337757 0.011679381 0.64503241
0.042426754 0.010240942 0.64540285
0.042516258 0.0087964535 0.64577544
0.042606011 0.0073458552 0.64614892
0.042696141 0.0058891475 0.64652413
0.042786788 0.0044262409 0.64690143
0.042877685 0.0029571056 0.6472798
0.042969108 0.0014817119 0.64766032
0.04306078 -0 0.6480419
0.043152984 -0.00148803 0.6484257
0.04324545 -0.0029824674 0.64881057
0.043338306 -0.0044832826 0.6491971
0.043431707 -0.005990535 0.64958584
0.043525368 -0.0075044036 0.64997578
0.043619573 -0.0090247393 0.65036786
0.043714046 -0.010551661 0.65076107
0.043809071 -0.012085259 0.65115666
0.043904368 -0.013625503 0.65155327
0.044000085 -0.015172422 0.65195167
0.044096362 -0.016726166 0.65235245
0.04419291 -0.018286735 0.65275431
0.044290032 -0.019854128 0.65315866
0.044387441 -0.021428436 0.6535641
0.044485271 -0.023009628 0.65397125
0.044583682 -0.024597883 0.65438086
0.044682387 -0.026193112 0.65479171
0.04478167 -0.027795523 0.65520501
0.044881251 -0.029404968 0.6556195
0.044981431 -0.031021684 0.6560365
0.045081902 -0.032645494 0.65645474
0.045182824 -0.034276605 0.65687478
0.045284349 -0.035915166 0.65729731
0.04538618 -0.03756097 0.65772122
0.045488622 -0.039214313 0.65814763
0.045591377 -0.040875018 0.65857536
0.045694746 -0.042543352 0.65900564
0.045798436 -0.044219166 0.65943724
0.045902595 -0.04590261 0.65987086
0.046007391 -0.047593862 0.66030699
0.046112504 -0.049292654 0.66074449
0.046218254 -0.050999463 0.66118473
0.046324331 -0.052713901 0.66162622
0.046430904 -0.054436207 0.6620698
0.046538118 -0.056166679 0.66251612
0.046645679 -0.057904959 0.66296381
0.046753891 -0.059651524 0.66341424
0.046862449 -0.061405927 0.6638661
0.046971511 -0.063168615 0.66432005
0.047081243 -0.064939648 0.66477686
0.047191326 -0.066718757 0.6652351
0.047302093 -0.068506479 0.66569614
0.047413211 -0.070302337 0.66615862
0.047524855 -0.072106674 0.66662335
0.040840931 0.055815935 0.63313532
0.040920977 0.054561287 0.63345742
0.04100145 0.053301901 0.63378119
0.041082125 0.052037358 0.6341058
0.041163243 0.050767988 0.63443226
0.041244555 0.049493462 0.63475943
0.04132631 0.048214048 0.63508832
0.041408274 0.046929359 0.63541818
0.041490559 0.045639634 0.63574922
0.041573297 0.044344872 0.63608211
0.041656237 0.043044776 0.6364159
0.041739639 0.041739643 0.63675141
0.041823246 0.040429115 0.63708788
0.041907195 0.039113373 0.63742566
0.041991599 0.037792414 0.63776529
0.042076223 0.036466092 0.63810575
0.042161316 0.035134435 0.63844812
0.042246625 0.033797294 0.63879144
0.042332407 0.032454848 0.63913661
0.042418409 0.031106859 0.63948262
0.042504761 0.029753327 0.63983005
0.042591594 0.028394431 0.64017951
0.042678662 0.027029842 0.64052975
0.04276621 0.02565974 0.64088202
0.042853985 0.024283946 0.64123523
0.042942252 0.022902548 0.64159042
0.043030757 0.021515399 0.64194649
0.043119624 0.020122498 0.64230406
0.04320899 0.018723905 0.64266372
0.043298595 0.017319441 0.64302421
0.043388706 0.015909225 0.64338678
0.043479063 0.014493048 0.64375037
0.043569796 0.013070941 0.64411545
0.043661039 0.011642963 0.64448255
0.043752529 0.010208905 0.64485073
0.043844547 0.0087689459 0.64522099
0.043936811 0.0073227882 0.64559221
0.044029601 0.0058706403 0.64596552
0.044122644 0.0044122636 0.64633995
0.044216085 0.0029477477 0.64671588
0.044310059 0.0014769733 0.64709407
0.044404294 -0 0.64747322
0.044499073 -0.0014833212 0.64785457
0.04459412 -0.0029729009 0.64823699
0.044689707 -0.0044689476 0.64862162
0.044785567 -0.0059714317 0.64900732
0.044881839 -0.0074802935 0.64939469
0.044978667 -0.0089957118 0.64978433
0.045075774 -0.010517687 0.65017498
0.045173448 -0.012046218 0.65056801
0.045271393 -0.013581395 0.65096211
0.04536977 -0.015123218 0.65135801
0.045468714 -0.016671866 0.65175611
0.045567952 -0.01822719 0.6521554
0.045667764 -0.019789368 0.65255702
0.04576787 -0.021358341 0.65295982
0.045868564 -0.022934288 0.65336502
0.045969553 -0.024517119 0.65377134
0.046070993 -0.026106864 0.65417945
0.046173025 -0.027703822 0.65459001
0.046275362 -0.029307753 0.65500182
0.046378307 -0.030918896 0.65541601
0.046481553 -0.032537073 0.65583146
0.046585415 -0.034162641 0.6562494
0.046689589 -0.035795361 0.65666854
0.046794232 -0.037435412 0.65708959
0.046899501 -0.039082885 0.65751314
0.047005083 -0.040737748 0.657938
0.047111303 -0.042400181 0.65836537
0.047217846 -0.044070005 0.65879405
0.04732487 -0.045747399 0.65922475
0.047432542 -0.047432542 0.65965796
0.047540542 -0.049125224 0.66009247
0.047649194 -0.050825804 0.66052967
0.047758188 -0.052533984 0.66096818
0.047867842 -0.054250211 0.6614095
0.047977839 -0.055974126 0.661852
0.048088342 -0.057705998 0.66229665
0.048199516 -0.059446037 0.66274405
0.048311044 -0.061193973 0.66319275
0.048423253 -0.062950224 0.66364431
0.04853582 -0.064714462 0.66409719
0.048648912 -0.066486835 0.66455227
0.048762698 -0.068267763 0.66501004
0.048876848 -0.070056781 0.66546935
0.048991702 -0.071854502 0.66593152
0.049106933 -0.073660403 0.66639519
0.042079493 0.055653512 0.63265717
0.042161845 0.054402351 0.63297784
0.042244401 0.053146183 0.63329935
0.042327281 0.051885068 0.63362205
0.042410605 0.050619155 0.63394648
0.042494137 0.049348027 0.63427174
0.042578124 0.0480721 0.63459873
0.042662319 0.046790957 0.63492662
0.042746846 0.045504719 0.63525575
0.042831834 0.044213533 0.63558668
0.042917036 0.042917043 0.63591844
0.043002702 0.041615546 0.63625205
0.043088589 0.040308714 0.63658649
0.043174941 0.038996726 0.63692272
0.043261517 0.037679404 0.63725984
0.043348435 0.036356747 0.63759828
0.043435834 0.035028875 0.63793862
0.043523457 0.033695579 0.6382798
0.043611567 0.032356977 0.63862288
0.043699905 0.031012833 0.6389668
0.043788597 0.029663265 0.63931221
0.04387778 0.028308272 0.63965952
0.043967199 0.026947647 0.64000767
0.044057116 0.025581568 0.64035779
0.044147268 0.024209827 0.6407088
0.044237919 0.022832483 0.64106184
0.044328813 0.021449417 0.64141572
0.044420082 0.020060688 0.64177114
0.044511862 0.018666297 0.64212853
0.04460388 0.017266035 0.64248693
0.044696424 0.015860021 0.64284724
0.044789214 0.014448166 0.6432085
0.044882528 0.01303038 0.64357191
0.044976089 0.011606753 0.64393616
0.045070045 0.010177135 0.64430201
0.045164533 0.0087415278 0.64466995
0.045259282 0.0072999299 0.6450389
0.045354564 0.0058521926 0.64541
0.045450106 0.0043984056 0.64578199
0.045546055 0.0029384792 0.6461556
0.045642555 0.0014723837 0.64653134
0.045739315 2.9802322e-08 0.6469081
0.045836631 -0.0014786124 0.64728707
0.045934219 -0.0029634833 0.64766705
0.046032373 -0.0044547617 0.64804924
0.046130795 -0.0059523582 0.64843249
0.046229642 -0.007456392 0.64881736
0.046329059 -0.0089669228 0.64920449
0.046428762 -0.010483921 0.64959276
0.046529036 -0.012007475 0.64998323
0.0466296 -0.013537616 0.65037477
0.046730746 -0.015074432 0.65076864
0.046832185 -0.016617864 0.65116358
0.046934064 -0.018168032 0.65156031
0.047036536 -0.019724995 0.6519593
0.047139309 -0.021288693 0.65235955
0.047242679 -0.022859335 0.65276206
0.04734635 -0.024436831 0.65316582
0.047450487 -0.026021242 0.65357125
0.047555231 -0.027612746 0.65397912
0.04766028 -0.029211134 0.65438813
0.047765955 -0.030816704 0.65479958
0.04787194 -0.032429397 0.65521228
0.047978558 -0.034049302 0.65562749
0.048085488 -0.035676301 0.65604383
0.0481929 -0.0373106 0.65646207
0.048300952 -0.03895238 0.65688282
0.048409328 -0.040601373 0.65730488
0.048518352 -0.042257935 0.65772939
0.048627708 -0.043921769 0.6581552
0.04873772 -0.045593321 0.65858358
0.048848066 -0.047272325 0.65901321
0.048958912 -0.048958927 0.65944493
0.049070429 -0.050653309 0.65987915
0.049182292 -0.052355379 0.66031468
0.049294833 -0.054065317 0.66075289
0.049407721 -0.055782884 0.66119248
0.049521126 -0.057508409 0.66163409
0.049635224 -0.05924204 0.66207838
0.049749672 -0.060983479 0.66252398
0.049864825 -0.062733144 0.66297245
0.049980346 -0.064490765 0.66342223
0.050096568 -0.066256732 0.6638748
0.050213162 -0.06803073 0.66432881
0.0503303 -0.069813013 0.66478491
0.050448161 -0.071603835 0.66524386
0.050566401 -0.073402822 0.66570425
0.043226812 0.056735188 0.63186467
0.043310873 0.055492073 0.63218176
0.043395389 0.05424428 0.63250053
0.043480109 0.05299139 0.63282019
0.043565165 0.051733643 0.63314104
0.043650676 0.050471097 0.63346356
0.043736398 0.049203455 0.63378692
0.043822587 0.047930956 0.63411206
0.043908983 0.04665333 0.63443804
0.043995857 0.045370758 0.63476568
0.04408294 0.04408294 0.63509417
0.044170372 0.042790085 0.63542396
0.044258282 0.041492134 0.6357556
0.044346407 0.040188938 0.63608801
0.044435021 0.038880646 0.63642228
0.044523854 0.037567019 0.63675737
0.044613041 0.036248118 0.6370939
0.044702724 0.03492403 0.63743216
0.044792634 0.033594489 0.63777131
0.044883035 0.032259703 0.63811231
0.044973671 0.030919403 0.6384542
0.045064811 0.029573798 0.638798
0.045156185 0.02822262 0.63914269
0.045247927 0.026865959 0.6394887
0.04534018 0.025503874 0.63983679
0.045432679 0.024136096 0.64018559
0.045525689 0.022762865 0.64053655
0.04561894 0.021383882 0.64088827
0.045712575 0.019999236 0.64124149
0.045806736 0.018608987 0.64159667
0.045901142 0.017212927 0.64195281
0.045996081 0.015811175 0.64231092
0.046091273 0.014403522 0.64267004
0.046187002 0.012990087 0.64303112
0.046282992 0.011570752 0.64339316
0.046379376 0.010145515 0.64375675
0.046476305 0.0087143183 0.64412242
0.046573497 0.0072771013 0.64448905
0.046671238 0.005833894 0.64485776
0.04676925 0.0043846369 0.64522749
0.046867821 0.0029292405 0.64559931
0.046966657 0.0014677048 0.64597213
0.04706591 -0 0.64634657
0.04716574 -0.0014739633 0.64672315
0.047265835 -0.0029541254 0.64710069
0.047366511 -0.0044406354 0.64748049
0.04746747 -0.0059334338 0.64786136
0.047568854 -0.0074326098 0.64824378
0.047670823 -0.0089382827 0.64862841
0.047773086 -0.010450363 0.64901412
0.047875933 -0.01196897 0.64940214
0.047979072 -0.013494074 0.64979118
0.048082814 -0.015025884 0.65018255
0.04818685 -0.01656422 0.65057492
0.048291337 -0.018109262 0.65096909
0.048396435 -0.019661039 0.65136552
0.048501831 -0.021219552 0.65176314
0.048607845 -0.022784919 0.65216303
0.048714168 -0.02435708 0.65256411
0.048821114 -0.025936216 0.65296757
0.048928369 -0.027522236 0.65337217
0.049036101 -0.02911517 0.65377849
0.049144465 -0.030715257 0.65418732
0.049253151 -0.032322347 0.65459728
0.049362484 -0.033936709 0.65500969
0.049472135 -0.035558105 0.65542334
0.049582273 -0.037186712 0.65583885
0.04969307 -0.03882274 0.65625679
0.049804196 -0.040465891 0.65667593
0.049915992 -0.042116582 0.65709764
0.050028116 -0.043774605 0.65752059
0.050140921 -0.045440197 0.65794611
0.050254062 -0.04711318 0.65837294
0.050367717 -0.048793733 0.65880167
0.050482053 -0.050482064 0.65923297
0.050596744 -0.052177876 0.65966558
0.050712124 -0.053881615 0.66010082
0.050827861 -0.055593014 0.66053742
0.050944302 -0.05731234 0.66097665
0.051061105 -0.059039384 0.66141725
0.05117844 -0.060774386 0.66185981
0.051296495 -0.062517583 0.66230524
0.051414914 -0.064268634 0.66275197
0.051534068 -0.066028014 0.66320133
0.051653586 -0.067795321 0.66365224
0.051773667 -0.069570854 0.66410518
0.051894486 -0.071354911 0.66456097
0.052015692 -0.073147073 0.6650182
0.044448934 0.056571364 0.63139391
0.044535127 0.055331528 0.6317091
0.044621781 0.054087013 0.63202608
0.044708643 0.052837491 0.63234389
0.044795841 0.051583081 0.63266277
0.044883516 0.050323963 0.63298357
0.044971403 0.049059719 0.63330501
0.045059767 0.047790676 0.63362819
0.045148343 0.046516478 0.63395226
0.045237403 0.045237392 0.634278
0.04532668 0.043953151 0.63460457
0.045416314 0.042663813 0.6349324
0.045506436 0.041369468 0.63526207
0.045596778 0.040069878 0.63559258
0.04568762 0.038765252 0.63592482
0.045778681 0.037455291 0.63625795
0.045870252 0.036140203 0.63659286
0.045962047 0.034819752 0.63692868
0.046054214 0.033493996 0.6372658
0.046146881 0.032162964 0.63760483
0.046239797 0.030826539 0.63794464
0.046333216 0.029484779 0.63828635
0.046426877 0.028137505 0.63862902
0.046520915 0.026784778 0.63897294
0.046615478 0.025426626 0.63931882
0.046710286 0.024062872 0.63966566
0.04680562 0.022693604 0.64001441
0.046901204 0.021318734 0.64036405
0.046997316 0.01993829 0.6407156
0.047093686 0.018552065 0.6410681
0.04719045 0.017160177 0.64142203
0.047287758 0.015762597 0.64177799
0.047385324 0.014359206 0.6421349
0.047483433 0.012950033 0.64249372
0.047581807 0.011534989 0.64285356
0.047680739 0.010114074 0.64321548
0.047779929 0.0086872578 0.64357829
0.047879539 0.0072544515 0.64394271
0.047979712 0.0058157146 0.64430904
0.048080154 0.004370898 0.64467651
0.048181165 0.0029200912 0.645046
0.048282459 0.0014630854 0.6454165
0.048384171 -0 0.64578855
0.048486467 -0.0014692545 0.64616275
0.048589047 -0.0029447675 0.6465379
0.048692215 -0.0044265687 0.64691538
0.048795667 -0.0059145987 0.64729381
0.048899714 -0.0074090064 0.64767432
0.049004052 -0.0089097917 0.64805597
0.049108833 -0.010416985 0.64843929
0.049214222 -0.011930734 0.64882481
0.049319904 -0.013450891 0.64921135
0.049426198 -0.014977604 0.64960015
0.049532801 -0.016510934 0.64999008
0.049640015 -0.018050939 0.65038234
0.049747538 -0.019597501 0.65077555
0.04985553 -0.021150827 0.65117061
0.049964149 -0.022711009 0.65156794
0.05007308 -0.024277866 0.65196639
0.050182652 -0.025851637 0.65236717
0.05029254 -0.027432263 0.65276915
0.050402913 -0.029019833 0.65317291
0.050513934 -0.030614465 0.653579
0.050625283 -0.032216102 0.65398633
0.050737284 -0.033824831 0.654396
0.050849617 -0.035440624 0.65480691
0.050962619 -0.037063688 0.65522027
0.051075954 -0.038693875 0.65563476
0.051189795 -0.040331334 0.65605122
0.051304311 -0.041976243 0.65647012
0.051419176 -0.043628395 0.65689027
0.051534723 -0.045288086 0.65731299
0.051650617 -0.046955109 0.6577369
0.05176704 -0.048629612 0.65816271
0.051884159 -0.050311893 0.65859115
0.052001633 -0.052001655 0.6590209
0.052119818 -0.053699225 0.65945315
0.052238367 -0.055404305 0.65988684
0.052357629 -0.057117373 0.66032302
0.052477263 -0.058838159 0.6607607
0.052597441 -0.060566753 0.66120034
0.052718353 -0.062303483 0.66164255
0.052839641 -0.064048052 0.66208625
0.05296167 -0.065800875 0.66253257
0.053084079 -0.067561537 0.66298032
0.053207062 -0.069330424 0.66343015
0.053330794 -0.071107715 0.66388279
0.053454921 -0.072893068 0.66433686
0.045664024 0.056408495 0.63092577
0.045752317 0.055171937 0.63123918
0.045841079 0.0539307 0.63155437
0.045930061 0.052684486 0.63187027
0.046019513 0.051433593 0.63218784
0.046109188 0.050177634 0.63250625
0.046199214 0.048916817 0.63282585
0.04628972 0.047651231 0.63314718
0.046380453 0.04638049 0.63346928
0.046471674 0.045104831 0.63379318
0.046563119 0.043824136 0.63411784
0.046654925 0.042538345 0.63444376
0.04674723 0.041247576 0.63477147
0.046839762 0.039951563 0.63510001
0.046932802 0.038650572 0.63543034
0.047026075 0.037344247 0.63576144
0.047119852 0.036032826 0.63609439
0.047213871 0.03471607 0.63642824
0.047308266 0.033394068 0.63676327
0.047403175 0.032066852 0.63710034
0.047498327 0.030734241 0.63743812
0.047594007 0.029396325 0.63777781
0.047689926 0.028052926 0.63811833
0.047786377 0.026704133 0.63846076
0.047883075 0.025349885 0.63880408
0.047980163 0.023990065 0.63914877
0.048077792 0.02262482 0.63949537
0.048175674 0.021253973 0.63984293
0.048274104 0.019877613 0.64019233
0.048372786 0.0184955 0.64054269
0.048471875 0.017107755 0.64089447
0.048571516 0.015714318 0.64124823
0.048671428 0.014315158 0.64160293
0.048771888 0.012910217 0.64195967
0.048872624 0.011499465 0.6423173
0.048973922 0.010082901 0.64267689
0.049075492 0.0086604059 0.6430375
0.049177483 0.0072320104 0.64339966
0.049280047 0.0057976246 0.64376378
0.049382895 0.004357338 0.64412886
0.04948632 0.0029109418 0.64449608
0.049590029 0.0014585555 0.64486432
0.049694326 2.9802322e-08 0.64523458
0.049798906 -0.0014646649 0.64560586
0.049903933 -0.002935499 0.64597881
0.050009556 -0.0044125915 0.64635378
0.05011547 -0.0058959424 0.64672983
0.050221991 -0.0073855817 0.64710796
0.050328813 -0.0088815689 0.64748722
0.050436083 -0.010383874 0.64786804
0.050543975 -0.011892676 0.64825112
0.050652169 -0.013407916 0.64863527
0.050760984 -0.014929682 0.64902157
0.050870109 -0.016457975 0.649409
0.050979868 -0.017992884 0.64979863
0.051089942 -0.019534379 0.65018946
0.051200487 -0.02108252 0.6505819
0.051311672 -0.022637486 0.65097672
0.051423185 -0.024199158 0.65137261
0.051535342 -0.025767654 0.65177071
0.051647827 -0.027342975 0.65217018
0.051760972 -0.02892524 0.6525718
0.051874444 -0.030514359 0.65297467
0.051988412 -0.032110512 0.65337932
0.052103054 -0.033713728 0.6537863
0.052218035 -0.035323948 0.65419459
0.05233369 -0.036941409 0.65460515
0.052449692 -0.038565964 0.65501702
0.052566208 -0.0401977 0.65543067
0.052683413 -0.041836828 0.65584677
0.052800968 -0.043483108 0.65626407
0.052919228 -0.045136988 0.65668398
0.053037837 -0.04679811 0.65710515
0.053157162 -0.048466802 0.65752876
0.053276844 -0.050142914 0.65795368
0.053397071 -0.051826566 0.65838051
0.053518016 -0.053518027 0.6588099
0.05363933 -0.055216968 0.6592406
0.053761374 -0.056923807 0.65967393
0.053883798 -0.058638245 0.66010857
0.054006964 -0.0603607 0.66054583
0.054130509 -0.062090874 0.6609844
0.054254618 -0.063828945 0.66142505
0.054379486 -0.065575242 0.66186839
0.054504741 -0.067329407 0.6623131
0.054630764 -0.069091842 0.6627605
0.054757182 -0.070862234 0.66320932
0.054884188 -0.072640836 0.66366023
0.046872135 0.056246549 0.63046038
0.0469625 0.055013269 0.63077199
0.047053352 0.053775281 0.63108528
0.04714442 0.052532375 0.63139939
0.047235977 0.05128479 0.63171518
0.047327753 0.050032228 0.63203168
0.047419891 0.048774779 0.63234943
0.04751252 0.047512531 0.63266897
0.047605377 0.046245217 0.63298917
0.047698729 0.044973105 0.63331115
0.047792315 0.043695837 0.63363391
0.047886409 0.042413682 0.63395846
0.047980737 0.041126341 0.63428378
0.04807543 0.039833963 0.6346103
0.048170637 0.038536519 0.63493872
0.04826609 0.037233859 0.63526785
0.048362058 0.035926104 0.6355989
0.048458267 0.034613043 0.63593072
0.04855486 0.033294737 0.63626385
0.048651982 0.031971306 0.63659877
0.048749346 0.03064245 0.63693464
0.048847251 0.029308349 0.63727224
0.048945401 0.027968824 0.63761073
0.049044095 0.026623964 0.63795114
0.049143042 0.025273561 0.63829243
0.049242385 0.023917705 0.63863504
0.049342278 0.022556484 0.63897955
0.049442429 0.0211896 0.63932496
0.049543139 0.019817263 0.63967228
0.049644113 0.018439233 0.64002055
0.049745645 0.01705569 0.64037073
0.049847443 0.015666336 0.6407218
0.049949657 0.014271349 0.6410743
0.050052445 0.01287064 0.64142883
0.050155506 0.011464119 0.64178431
0.050259143 0.010051817 0.6421417
0.050363056 0.008633703 0.6425001
0.050467402 0.0072096586 0.64285994
0.050572332 0.0057796836 0.64322186
0.050677545 0.0043437779 0.64358473
0.050783355 0.0029019117 0.64394969
0.050889447 0.0014540255 0.64431548
0.050996147 -2.9802322e-08 0.64468354
0.051103134 -0.0014600754 0.64505249
0.051210567 -0.0029263198 0.64542305
0.051318619 -0.0043987036 0.6457957
0.051426962 -0.0058773756 0.64616936
0.051535927 -0.0073623061 0.64654517
0.051645193 -0.0088534653 0.64692205
0.051755082 -0.010351032 0.64730108
0.051865283 -0.011854887 0.64768106
0.051975951 -0.013365239 0.64806277
0.052087255 -0.014882088 0.64844668
0.052198872 -0.016405344 0.64883161
0.052311141 -0.017935246 0.64921874
0.052423719 -0.019471645 0.64960706
0.052536786 -0.02101472 0.649997
0.052650511 -0.022564501 0.65038919
0.052764557 -0.024120927 0.65078259
0.05287927 -0.025684208 0.65117818
0.052994315 -0.027254224 0.65157497
0.05311003 -0.028831124 0.65197408
0.05322608 -0.030414879 0.65237427
0.053342637 -0.032005578 0.6527763
0.053459879 -0.03360334 0.65318066
0.053577464 -0.035208076 0.65358615
0.053695746 -0.036819935 0.65399408
0.05381437 -0.038438827 0.65440321
0.053933699 -0.04006502 0.65481478
0.054053381 -0.041698337 0.65522754
0.054173592 -0.043338865 0.65564215
0.054294523 -0.044986904 0.65605927
0.054415811 -0.046642095 0.65647757
0.054537825 -0.048304915 0.65689832
0.054660205 -0.049975038 0.65732044
0.054783139 -0.05165267 0.65774441
0.054906808 -0.053337991 0.65817094
0.055030853 -0.055030853 0.65859872
0.055155642 -0.056731522 0.65902913
0.055280812 -0.058439732 0.65946084
0.055406738 -0.060155869 0.65989512
0.055533059 -0.061879694 0.66033077
0.05565995 -0.063611344 0.66076833
0.055787615 -0.065351188 0.66120869
0.055915672 -0.067098826 0.66165036
0.056044511 -0.068854675 0.66209471
0.056173753 -0.070618421 0.66254044
0.056303594 -0.072390333 0.66298831
0.048073333 0.056085557 0.62999761
0.04816575 0.054855436 0.63030744
0.048258662 0.053620726 0.63061899
0.048351794 0.052381098 0.63093132
0.048445418 0.051136851 0.63124526
0.048539273 0.049887598 0.63155997
0.048633493 0.048633516 0.63187587
0.04872822 0.047374696 0.63219345
0.048823174 0.046110779 0.63251185
0.048918642 0.044842094 0.63283199
0.049014341 0.043568313 0.63315284
0.049110558 0.042289644 0.63347548
0.049207009 0.04100585 0.63379884
0.049303841 0.039716989 0.63412356
0.049401194 0.038423151 0.63445002
0.049498793 0.037124127 0.63477725
0.049596924 0.035819978 0.63510633
0.049695298 0.034510642 0.63543618
0.049794212 0.033196151 0.63576782
0.049893364 0.031876326 0.63610029
0.049992919 0.030551225 0.63643414
0.050093021 0.029220909 0.63676977
0.050193377 0.027885228 0.63710624
0.05029428 0.026544213 0.63744462
0.050395444 0.025197715 0.63778377
0.050497018 0.023845822 0.63812435
0.050599143 0.022488505 0.63846684
0.05070154 0.021125644 0.63881016
0.0508045 0.01975733 0.63915539
0.050907727 0.018383354 0.63950151
0.051011529 0.017003864 0.6398496
0.051115599 0.015618652 0.64019859
0.051220097 0.014227808 0.64054894
0.05132518 0.012831271 0.64090127
0.051430535 0.011429042 0.64125448
0.051536478 0.010020941 0.64160979
0.051642705 0.0086070895 0.64196599
0.051749531 0.0071874559 0.64232415
0.051856637 0.0057618618 0.64268327
0.05196419 0.004330337 0.64304394
0.052072346 0.0028929412 0.64340657
0.052180797 0.0014494658 0.64377022
0.052289862 -0 0.64413595
0.052399218 -0.0014555156 0.64450258
0.052509032 -0.0029171407 0.64487082
0.052619476 -0.0043849647 0.64524108
0.052730218 -0.005858928 0.64561248
0.052841593 -0.0073391199 0.6459859
0.052953277 -0.0088255107 0.6463604
0.053065591 -0.010318309 0.64673698
0.053178225 -0.011817366 0.64711469
0.053291336 -0.01332283 0.64749396
0.053405091 -0.014834762 0.64787537
0.053519171 -0.016353101 0.64825791
0.053633906 -0.017877936 0.6486426
0.053748962 -0.019409359 0.64902836
0.053864688 -0.020947397 0.64941645
0.053980742 -0.022491962 0.64980555
0.054097291 -0.024043232 0.65019637
0.054214522 -0.025601327 0.65058947
0.054332089 -0.027166039 0.65098363
0.054450344 -0.028737664 0.65138012
0.054568931 -0.030316055 0.6517778
0.054688044 -0.03190136 0.65217721
0.054807849 -0.033493698 0.65257895
0.054928008 -0.03509286 0.65298182
0.055048868 -0.036699235 0.65338707
0.055170085 -0.038312554 0.65379351
0.055292018 -0.039933145 0.6542024
0.055414308 -0.041560739 0.65461242
0.055537142 -0.043195546 0.65502429
0.055660702 -0.044837773 0.65543854
0.055784632 -0.046487182 0.65585417
0.055909298 -0.048144102 0.65627217
0.056034338 -0.049808264 0.65669137
0.056160122 -0.051480114 0.65711325
0.05628629 -0.053159267 0.65753627
0.056413021 -0.054846019 0.65796113
0.056540515 -0.056540519 0.65838867
0.056668397 -0.05824253 0.65881747
0.056797046 -0.059952438 0.65924883
0.056926094 -0.061669946 0.65968156
0.057055734 -0.063395262 0.66011626
0.057186145 -0.065128669 0.66055357
0.05731697 -0.066869825 0.66099221
0.057448592 -0.068619177 0.66143352
0.057580616 -0.070376307 0.66187626
0.057713255 -0.072141528 0.66232091
0.049267672 0.055925488 0.62953746
0.049362112 0.054698586 0.62984556
0.049457058 0.053467095 0.63015532
0.049552228 0.052230775 0.63046581
0.049647909 0.050989747 0.63077796
0.049743816 0.049743831 0.63109088
0.049840234 0.048493207 0.63140547
0.049936887 0.047237605 0.63172078
0.050033916 0.045977116 0.63203734
0.050131466 0.044711858 0.63235551
0.050229251 0.043441534 0.63267457
0.050327566 0.042166322 0.63299531
0.050426118 0.040886045 0.63331681
0.050525207 0.039600849 0.63364011
0.050624531 0.038310468 0.63396418
0.050724253 0.037015021 0.6342895
0.050824519 0.035714537 0.63461661
0.050925031 0.034408808 0.63494456
0.051026091 0.033098012 0.63527423
0.051127397 0.031781912 0.63560474
0.051229116 0.030460536 0.63593662
0.051331386 0.029134035 0.63627023
0.05143391 0.027802169 0.63660467
0.051537 0.026464969 0.63694108
0.051640354 0.025122315 0.6372782
0.051744275 0.023774415 0.63761729
0.05184846 0.022420973 0.63795722
0.051953066 0.021062046 0.63829845
0.05205825 0.019697726 0.6386416
0.052163709 0.018327802 0.63898563
0.052269749 0.016952336 0.63933158
0.052376062 0.015571237 0.63967842
0.05248281 0.014184535 0.64002669
0.05259015 0.01279223 0.64037687
0.052697778 0.011394113 0.640728
0.052806001 0.0099903345 0.64108109
0.052914508 0.0085807443 0.64143515
0.053023629 0.0071653724 0.64179105
0.053133029 0.0057441294 0.64214802
0.053242892 0.0043169856 0.64250642
0.053353369 0.0028839707 0.64286685
0.053464144 0.0014449954 0.64322823
0.053575538 -0 0.64359164
0.053687237 -0.0014510155 0.64395612
0.05379957 -0.0029081106 0.64432263
0.053912207 -0.0043712854 0.6446901
0.054025315 -0.0058405995 0.64505905
0.054139066 -0.0073160827 0.64543009
0.054253131 -0.0087977946 0.64580226
0.054367844 -0.010285795 0.64617652
0.054482877 -0.011780083 0.64655185
0.054598395 -0.01328069 0.64692867
0.054714572 -0.014787704 0.64730775
0.05483108 -0.016301125 0.64768785
0.054948248 -0.017821044 0.6480701
0.055065755 -0.019347399 0.64845341
0.055183932 -0.020880401 0.648839
0.055302445 -0.0224199 0.64922565
0.055421472 -0.023966014 0.64961398
0.055541184 -0.025518924 0.65000451
0.055661239 -0.02707845 0.65039617
0.05578199 -0.0286448 0.6507901
0.055903088 -0.030217856 0.65118515
0.056024894 -0.031797886 0.6515826
0.056147054 -0.033384711 0.65198112
0.056269743 -0.034978479 0.65238136
0.056393154 -0.036579341 0.65278399
0.056516923 -0.038187116 0.65318781
0.056641422 -0.039802074 0.65359396
0.056766283 -0.041424036 0.65400136
0.056891698 -0.04305318 0.65441048
0.057017855 -0.044689685 0.65482211
0.057144385 -0.046333283 0.65523481
0.057271667 -0.047984362 0.65565014
0.057399329 -0.049642622 0.6560666
0.057527747 -0.051308513 0.65648556
0.057656556 -0.052981675 0.65690577
0.057785936 -0.054662347 0.65732789
0.057916097 -0.056350768 0.65775251
0.05804665 -0.058046639 0.65817845
0.058177985 -0.059750348 0.65860701
0.058309726 -0.061461598 0.6590367
0.058442254 -0.063180804 0.65946913
0.058575194 -0.064907655 0.65990281
0.058708739 -0.066642359 0.66033846
0.058843091 -0.068385199 0.66077679
0.058977861 -0.070135832 0.6612165
0.059113454 -0.07189472 0.66165882
0.059249468 -0.073661506 0.66210264
0.050455213 0.055766284 0.62907994
0.050551798 0.05454275 0.62938678
0.050648607 0.053314328 0.62969434
0.050745796 0.052081227 0.63000304
0.050843496 0.050843507 0.6303134
0.05094143 0.049600869 0.63062453
0.051039889 0.048353583 0.63093728
0.051138584 0.047101378 0.63125074
0.051237803 0.045844376 0.63156599
0.051337261 0.044582367 0.63188195
0.05143711 0.04331547 0.63219911
0.051537495 0.042043716 0.63251799
0.051638126 0.040766984 0.63283759
0.051739298 0.039485246 0.63315898
0.051840715 0.038198441 0.63348114
0.051942535 0.03690654 0.63380462
0.052044902 0.035609663 0.63412976
0.052147526 0.034307569 0.6344558
0.052250702 0.033000439 0.63478357
0.052354138 0.031688035 0.63511211
0.052458141 0.030370504 0.6354425
0.052562397 0.029047668 0.63577366
0.052667074 0.027719498 0.63610613
0.052772325 0.026386142 0.63644052
0.052877836 0.025047392 0.63677567
0.052983928 0.023703367 0.63711268
0.053090289 0.022353798 0.63745058
0.053197239 0.020998925 0.63779032
0.053304464 0.019638479 0.6381309
0.053412113 0.018272549 0.63847291
0.053520367 0.016901165 0.63881671
0.053628895 0.015524149 0.63916147
0.053738024 0.014141589 0.63950813
0.05384744 0.012753367 0.63985574
0.053957302 0.011359423 0.64020473
0.054067776 0.0099598765 0.64055562
0.054178536 0.0085545182 0.64090753
0.054289918 0.0071434081 0.64126128
0.054401595 0.0057264864 0.64161605
0.054513898 0.0043037534 0.64197278
0.054626498 0.0028751194 0.64233047
0.054739565 0.0014405251 0.64268965
0.054853264 -0 0.64305085
0.054967273 -0.0014465153 0.64341301
0.055081926 -0.0028990209 0.64377719
0.055196889 -0.0043576658 0.64414239
0.055312332 -0.0058223307 0.64450908
0.055428427 -0.0072931945 0.64487791
0.055544842 -0.0087702274 0.6452477
0.055661917 -0.010253489 0.64561963
0.055779316 -0.011743009 0.64599252
0.055897381 -0.013238847 0.64636755
0.056015778 -0.014740974 0.64674366
0.056134671 -0.016249508 0.64712137
0.056254253 -0.017764539 0.64750123
0.056374166 -0.019285887 0.6478821
0.056494765 -0.020813882 0.64826524
0.05661571 -0.022348315 0.64864945
0.056737348 -0.023889393 0.64903581
0.056859333 -0.025437087 0.64942324
0.056981839 -0.026991397 0.64981246
0.057105061 -0.028552502 0.65020388
0.057228629 -0.030120313 0.65059638
0.057352923 -0.031695008 0.6509912
0.057477571 -0.033276498 0.65138721
0.057602756 -0.034864843 0.65178484
0.057728682 -0.036460221 0.6521849
0.057854965 -0.038062453 0.65258604
0.057981998 -0.039671898 0.65298957
0.058109395 -0.041288257 0.65339422
0.058237545 -0.042911887 0.65380132
0.058366075 -0.044542491 0.65420961
0.058495168 -0.046180397 0.65461969
0.058625028 -0.047825694 0.65503216
0.058755271 -0.049478143 0.65544593
0.058886286 -0.051138103 0.65586209
0.059017699 -0.052805305 0.65627956
0.059149887 -0.054480135 0.65669948
0.059282478 -0.056162357 0.6571207
0.059415665 -0.057852119 0.65754372
0.059549645 -0.059549659 0.65796936
0.059684038 -0.06125465 0.65839624
0.059819233 -0.062967613 0.6588257
0.059954844 -0.064688101 0.65925646
0.060091071 -0.066416442 0.65968919
0.060228121 -0.06815289 0.6601246
0.060365595 -0.069896996 0.66056132
0.0605039 -0.071649358 0.66100061
0.060642634 -0.073409513 0.66144133
0.051636014 0.055608034 0.62862509
0.051734574 0.054387659 0.62893015
0.051833373 0.053162456 0.62923598
0.051932544 0.051932544 0.62954295
0.052032243 0.050698102 0.62985146
0.052132186 0.049458742 0.63016081
0.052232653 0.048214763 0.63047177
0.052333362 0.046965808 0.6307835
0.052434608 0.045712233 0.63109684
0.052536096 0.044453621 0.63141102
0.052637983 0.043190122 0.63172638
0.052740417 0.041921914 0.63204336
0.05284309 0.04064855 0.63236117
0.052946325 0.039370358 0.63268065
0.053049807 0.03808704 0.63300103
0.05315385 0.036798805 0.63332301
0.053258147 0.035505414 0.63364577
0.053362846 0.034206957 0.6339699
0.053468123 0.032903463 0.6342957
0.053573657 0.031594723 0.6346224
0.053679764 0.030280888 0.63495082
0.05378614 0.028961778 0.63528007
0.053892933 0.027637392 0.63561064
0.054000311 0.026307851 0.63594294
0.054107957 0.024972916 0.63627619
0.054216195 0.023632675 0.63661116
0.054324709 0.022287071 0.63694704
0.054433811 0.020936102 0.6372847
0.054543201 0.019579589 0.63762331
0.054653026 0.018217653 0.63796318
0.054763459 0.016850322 0.63830495
0.054874167 0.015477329 0.63864768
0.054985497 0.014098853 0.63899219
0.055097114 0.012714714 0.63933772
0.05520935 0.011324972 0.63968515
0.055321876 0.0099295676 0.64003336
0.05543486 0.0085284412 0.64038312
0.055548482 0.0071215928 0.64073479
0.055662394 0.0057089925 0.64108729
0.055776943 0.0042905509 0.64144194
0.055891801 0.0028662682 0.64179742
0.056007132 0.0014360845 0.64215434
0.056123104 -0 0.64251328
0.056239396 -0.001442045 0.64287323
0.056356337 -0.0028900802 0.64323521
0.056473594 -0.0043441057 0.64359814
0.056591514 -0.0058042407 0.64396304
0.056709748 -0.0072704554 0.64432907
0.056828484 -0.0087428391 0.64469659
0.056947891 -0.010221392 0.64506614
0.057067625 -0.011706173 0.6454367
0.057188038 -0.013197243 0.64580941
0.057308786 -0.014694542 0.64618313
0.057430219 -0.016198248 0.646559
0.057551991 -0.017708272 0.64693588
0.057674285 -0.019224733 0.64731443
0.057797275 -0.020747751 0.64769512
0.057920612 -0.022277176 0.64807683
0.058044657 -0.023813188 0.64846081
0.058169052 -0.025355756 0.64884579
0.05829398 -0.026904911 0.64923251
0.05841963 -0.02846083 0.64962137
0.058545642 -0.030023396 0.65001142
0.058672383 -0.031592786 0.65040368
0.058799483 -0.033168942 0.65079713
0.058927331 -0.034752011 0.65119278
0.059055541 -0.036341876 0.65158963
0.059184309 -0.037938654 0.65198815
0.05931383 -0.039542556 0.65238905
0.059443731 -0.041153342 0.65279114
0.059574395 -0.042771369 0.65319556
0.059705444 -0.044396311 0.65360111
0.059837062 -0.046028465 0.65400851
0.059969462 -0.04766801 0.65441835
0.06010225 -0.049314678 0.65482938
0.060235832 -0.050968766 0.6552428
0.060369808 -0.052630067 0.65565747
0.060504574 -0.054298967 0.65607458
0.06063975 -0.055975169 0.65649295
0.06077553 -0.057658851 0.65691322
