# .PCD v0.7 - Point Cloud Data file format
VERSION 0.7
FIELDS x y z
SIZE 4 4 4
TYPE F F F
COUNT 1 1 1
WIDTH 1347
HEIGHT 1
VIEWPOINT 0 0 0 1 0 0 0
POINTS 1347
DATA ascii
0.0013801871 -0.0013801754 0.63540745
0.0013785242 -0.0027570426 0.6352067
0.0013768614 -0.0041305721 0.63500595
0.0013752065 -0.0055008233 0.63480628
0.0013735518 -0.0068677664 0.63460648
0.0013719049 -0.0082314312 0.63440764
0.0013702579 -0.0095917881 0.63420892
0.0013686189 -0.010948956 0.63401103
0.001366984 -0.012302846 0.63381368
0.0013653488 -0.013653457 0.63361633
0.0013637216 -0.015000939 0.63341987
0.0013620942 -0.016345114 0.63322341
0.0013604746 -0.017686158 0.63302791
0.0013588551 -0.019023955 0.63283241
0.0013572432 -0.020358622 0.63263786
0.0013556352 -0.02169016 0.63244379
0.0013540271 -0.02301845 0.63224971
0.0013524266 -0.024343699 0.63205647
0.0013508261 -0.0256657 0.63186324
0.0013492333 -0.026984632 0.63167095
0.0028652817 0.045844525 0.64173919
0.0028616986 0.044356316 0.64152294
0.0028581158 0.042871743 0.64130664
0.0028545507 0.041390955 0.64109147
0.0028509859 0.039913833 0.64087629
0.0028474384 0.038440436 0.64066219
0.0028438913 0.036970586 0.64044821
0.0028403616 0.03550452 0.64023507
0.0028368405 0.03404212 0.64002258
0.0028333196 0.032583177 0.63981009
0.0028298162 0.031127989 0.63959861
0.0028263128 0.029676318 0.63938719
0.0028228264 0.028228253 0.63917673
0.0028193402 0.026783764 0.63896632
0.0028158708 0.025342822 0.63875699
0.0028124021 0.023905426 0.63854754
0.0028089499 0.022471607 0.63833928
0.0028054977 0.021041274 0.6381309
0.0028020628 0.019614428 0.63792354
0.0027986278 0.018191099 0.63771623
0.0027952092 0.016771257 0.63750994
0.0027917991 0.015354902 0.63730413
0.0027883891 0.013941973 0.63709831
0.0027849956 0.012532502 0.63689345
0.0027816026 0.011126399 0.63668871
0.0027782253 0.0097238123 0.63648486
0.0027748486 0.0083245337 0.63628101
0.0027714879 0.0069287717 0.63607824
0.0027681275 0.0055362284 0.6358754
0.0027647829 0.004147172 0.63567352
0.0027614466 0.0027614534 0.63547218
0.0027581106 0.0013790429 0.63527083
0.0027547905 -0 0.63507044
0.0027514701 -0.0013757348 0.63487005
0.0027481657 -0.0027481318 0.63467062
0.0027448616 -0.0041172504 0.63447118
0.0027415731 -0.0054831207 0.63427269
0.0027382928 -0.0068457127 0.63407469
0.0027350122 -0.0082050562 0.63387674
0.0027317472 -0.0095611215 0.63367963
0.0027284822 -0.010913938 0.63348258
0.0027252331 -0.012263566 0.63328648
0.0027219837 -0.013609916 0.63309038
0.0027187499 -0.014953107 0.63289523
0.0027155236 -0.016293108 0.63270044
0.0027122973 -0.017629892 0.63250577
0.0027090865 -0.018963605 0.63231194
0.0027058758 -0.02029407 0.63211811
0.0027026797 -0.021621436 0.63192523
0.0026994841 -0.022945613 0.6317324
0.0026963034 -0.02426672 0.63154042
0.0026931227 -0.025584668 0.63134843
0.0026899567 -0.026899546 0.6311574
0.0042888988 0.047177881 0.64137608
0.0042835469 0.045691133 0.64116073
0.0042781951 0.04420799 0.64094543
0.0042728698 0.042728692 0.64073116
0.0042675445 0.041252941 0.64051688
0.0042622457 0.039780974 0.64030367
0.0042569474 0.038312525 0.64009041
0.0042516747 0.03684783 0.63987833
0.0042464025 0.035386711 0.6396662
0.0042411559 0.033929259 0.63945508
0.0042359093 0.032475293 0.63924396
0.0042306888 0.031025082 0.63903391
0.0042254683 0.029578298 0.63882381
0.0042202733 0.028135151 0.63861477
0.0042150784 0.02669549 0.6384058
0.0042099091 0.025259465 0.63819778
0.0042047398 0.023826897 0.63798976
0.0041995957 0.022397846 0.63778281
0.0041944641 0.020972311 0.63757634
0.004189332 0.019550234 0.63736987
0.0041842256 0.018131644 0.63716435
0.0041791191 0.01671645 0.6369589
0.0041740374 0.015304834 0.63675439
0.0041689556 0.013896555 0.63654995
0.004163899 0.012491703 0.63634652
0.004158854 0.011090279 0.63614351
0.004153809 0.0096922219 0.63594055
0.0041487888 0.0082975626 0.63573849
0.0041437685 0.006906271 0.63553649
0.0041387724 0.005518347 0.63533545
0.0041337758 0.0041337907 0.63513446
0.004128804 0.0027525425 0.63493437
0.0041238316 0.0013746023 0.63473427
0.0041188835 -0 0.63453519
0.004113947 -0.0013713241 0.63433659
0.0041090106 -0.0027393103 0.63413793
0.0041040978 -0.0041040778 0.63394028
0.0040991851 -0.0054655373 0.63374257
0.0040942957 -0.006823808 0.63354588
0.0040894062 -0.0081788301 0.63334912
0.0040845401 -0.0095306039 0.63315332
0.0040796855 -0.010879159 0.63295794
0.004074831 -0.012224466 0.63276267
0.0040699998 -0.013566643 0.63256824
0.0040651681 -0.014905602 0.63237381
0.0040603592 -0.016241461 0.63218039
0.0040555508 -0.017574072 0.63198686
0.0040507647 -0.018903583 0.63179433
0.0040459903 -0.020229936 0.63160217
0.0040412154 -0.021553129 0.63141006
0.0040364633 -0.022873253 0.63121885
0.0040317108 -0.024190247 0.63102764
0.0040269811 -0.025504231 0.63083732
0.0040222509 -0.026814967 0.630647
0.0056994269 0.047020286 0.64079952
0.0056923386 0.045538723 0.64058566
0.0056852507 0.044060707 0.64037174
0.0056781974 0.042586505 0.64015889
0.0056711445 0.04111582 0.63994604
0.005664126 0.039648861 0.63973427
0.005657108 0.038185477 0.63952249
0.0056501245 0.036725819 0.63931173
0.0056431582 0.035269737 0.63910145
0.0056361919 0.033817142 0.63889122
0.0056292601 0.032368243 0.63868207
0.0056223278 0.03092283 0.63847286
0.00561543 0.029480964 0.63826472
0.0056085321 0.028042674 0.63805652
0.0056016678 0.026607931 0.63784939
0.0055948035 0.025176644 0.63764226
0.0055879727 0.023748904 0.63743609
0.0055811419 0.022324562 0.63722998
0.0055743447 0.020903796 0.63702488
0.0055675474 0.019486427 0.63681972
0.0055607827 0.018072546 0.63661557
0.0055540181 0.016662091 0.63641143
0.0055472869 0.015255034 0.6362083
0.0055405716 0.013851434 0.63600564
0.0055338559 0.012451142 0.63580304
0.0055271732 0.011054337 0.63560134
0.00552049 0.0096608698 0.6353997
0.0055138399 0.0082707703 0.63519895
0.0055071888 0.0068839788 0.63499826
0.0055005704 0.005500555 0.63479853
0.0054939673 0.0041204691 0.63459927
0.0054873647 0.0027436614 0.63440001
0.0054807938 0.0013702214 0.63420171
0.0054742224 -0 0.63400334
0.0054676826 -0.0013669133 0.63380605
0.0054611424 -0.0027305782 0.6336087
0.0054546339 -0.0040909648 0.63341224
0.0054481416 -0.0054481328 0.63321632
0.005441648 -0.0068020523 0.6330204
0.005435186 -0.0081527531 0.63282537
0.0054287231 -0.0095002651 0.63263035
0.0054222918 -0.010844588 0.63243628
0.0054158601 -0.012185663 0.63224214
0.0054094587 -0.013523668 0.63204896
0.0054030572 -0.014858425 0.63185579
0.0053966865 -0.016190052 0.6316635
0.0053903307 -0.01751855 0.63147175
0.0053839744 -0.018843919 0.63127995
0.0053776489 -0.020166188 0.63108903
0.0053713224 -0.021485269 0.63089812
0.0053650257 -0.02280134 0.63070804
0.005358729 -0.024114281 0.63051808
0.0053524626 -0.025424182 0.63032895
0.0053462097 -0.026731044 0.63014024
0.0071005835 0.046863854 0.64022738
0.0070917602 0.045387268 0.64001435
0.0070829811 0.043914527 0.6398024
0.0070742015 0.042445213 0.63959044
0.0070654643 0.040979713 0.6393795
0.0070567289 0.039517701 0.63916862
0.0070480346 0.038059354 0.63895875
0.0070393421 0.036604583 0.63874888
0.007030691 0.035153478 0.63854003
0.0070220409 0.033705771 0.63833117
0.0070134327 0.032261789 0.63812339
0.0070048249 0.030821234 0.63791549
0.0069962582 0.029384255 0.63770878
0.0069876928 0.027950764 0.63750196
0.0069791679 0.026520818 0.63729614
0.0069706445 0.025094301 0.63709038
0.0069621615 0.023671359 0.63688558
0.006953699 0.022251844 0.63668126
0.0069452371 0.020835698 0.63647699
0.006936816 0.019423097 0.63627368
0.006928395 0.018013835 0.63607037
0.0069200145 0.016608059 0.63586807
0.006911634 0.015205592 0.63566577
0.006903294 0.013806581 0.63546437
0.0068949545 0.012410909 0.63526303
0.006886655 0.011018664 0.63506269
0.0068783751 0.0096297562 0.63486278
0.0068700956 0.008244127 0.63466287
0.0068618548 0.0068618655 0.63446397
0.0068536149 0.0054828823 0.63426507
0.0068454146 0.0041072667 0.63406706
0.0068372139 0.0027348995 0.63386905
0.0068290527 0.0013658106 0.63367206
0.0068209106 -0 0.63347542
0.0068127685 -0.0013625324 0.63327891
0.0068046656 -0.0027218461 0.63308328
0.0067965616 -0.0040779114 0.63288766
0.0067884973 -0.0054307878 0.63269293
0.0067804321 -0.0067804456 0.6324982
0.0067724059 -0.0081268847 0.63230443
0.0067643984 -0.0094701648 0.63211113
0.0067563904 -0.010810226 0.63191783
0.0067484207 -0.012147158 0.63172543
0.0067404509 -0.013480872 0.63153303
0.0067325188 -0.014811575 0.63134152
0.0067245858 -0.016139001 0.63115001
0.0067166914 -0.017463356 0.63095939
0.0067087961 -0.018784642 0.63076878
0.0067009381 -0.020102829 0.63057905
0.0066930982 -0.021417916 0.63038981
0.0066852588 -0.022729874 0.63020051
0.0066774557 -0.024038821 0.63001215
0.0066696522 -0.02534467 0.6298238
0.0066618854 -0.026647508 0.62963629
0.0084924232 0.046708316 0.63965845
0.0084819058 0.045236826 0.63944685
0.0084714387 0.043769121 0.63923633
0.0084609734 0.042304873 0.63902575
0.0084505584 0.040844351 0.63881624
0.0084401444 0.039387375 0.63860673
0.0084297815 0.037934005 0.63839823
0.0084194429 0.036484271 0.63819021
0.0084091052 0.035037935 0.63798225
0.0083988179 0.033595264 0.6377753
0.0083885305 0.03215605 0.63756835
0.0083782934 0.030720413 0.63736236
0.0083680563 0.029288203 0.63715637
0.0083578685 0.027859569 0.63695145
0.0083476817 0.026434362 0.63674653
0.0083375433 0.025012672 0.63654256
0.0083274068 0.02359432 0.63633853
0.0083173178 0.022179514 0.63613564
0.0083072288 0.020768076 0.63593268
0.0082971891 0.019360095 0.63573068
0.0082871737 0.017955571 0.63552916
0.0082771583 0.016554326 0.6353277
0.0082671903 0.015156537 0.63512713
0.0082572233 0.013762027 0.63492662
0.0082473038 0.012370944 0.63472706
0.0082373843 0.010983199 0.63452744
0.0082275122 0.0095987618 0.6343289
0.0082176402 0.0082176328 0.63413024
0.0082078157 0.0068398416 0.63393259
0.0081980145 0.0054653585 0.63373542
0.0081882132 0.004094094 0.63353825
0.0081784585 0.0027261972 0.63334203
0.0081687039 0.0013614595 0.63314575
0.0081589958 2.9802322e-08 0.63295043
0.0081493109 -0.001358211 0.63275558
0.0081396252 -0.0027132332 0.63256073
0.008129986 -0.0040649772 0.63236678
0.0081203468 -0.0054135621 0.63217294
0.0081107533 -0.0067589581 0.63197988
0.0081011588 -0.0081011653 0.63178688
0.0080916109 -0.0094402134 0.63159478
0.008082062 -0.010776043 0.63140261
0.0080725588 -0.012108833 0.63121146
0.0080630779 -0.013438433 0.63102067
0.0080535961 -0.014764935 0.63082993
0.00804416 -0.016088307 0.63064009
0.0080347229 -0.01740855 0.63045025
0.0080253305 -0.018725783 0.6302613
0.0080159372 -0.020039856 0.63007236
0.0080065886 -0.02135089 0.62988424
0.0079972623 -0.022658885 0.62969655
0.0079879342 -0.023963779 0.62950897
0.0079786507 -0.025265723 0.62932217
0.0079693673 -0.026564538 0.62913537
0.0098750554 0.04655385 0.63909334
0.0098628942 0.045087546 0.63888365
0.0098507348 0.043624699 0.63867396
0.0098386351 0.042165577 0.63846529
0.0098265354 0.040709943 0.63825667
0.0098144943 0.039257973 0.63804907
0.0098024532 0.037809461 0.6378414
0.0097904708 0.036364615 0.63763475
0.0097784894 0.034923196 0.63742816
0.0097665656 0.033485353 0.63722253
0.0097546428 0.032050967 0.63701695
0.0097427778 0.030620158 0.63681227
0.0097309118 0.029192775 0.63660771
0.0097191036 0.02776888 0.63640404
0.0097072963 0.026348412 0.63620043
0.0096955448 0.024931401 0.63599789
0.0096838232 0.023517877 0.63579559
0.0096721007 0.022107661 0.63559353
0.0096604349 0.020700932 0.63539237
0.0096487692 0.01929754 0.6351912
0.0096371593 0.017897576 0.63499099
0.0096255494 0.01650095 0.63479078
0.0096139964 0.015107721 0.63459158
0.0096024703 0.0137178 0.6343928
0.0095909443 0.012331247 0.63419402
0.0095794732 0.010947973 0.63399625
0.0095680021 0.0095680058 0.63379836
0.0095565859 0.0081913769 0.63360155
0.0095451688 0.0068179965 0.63340467
0.0095338076 0.0054478645 0.63320875
0.0095224455 0.0040810108 0.63301283
0.0095111374 0.002717495 0.63281786
0.0094998563 0.0013571382 0.63262331
0.0094885752 -0 0.63242877
0.0094773481 -0.0013538897 0.63223505
0.00946612 -0.0027045906 0.63204151
0.0094549451 -0.0040521026 0.63184881
0.0094437702 -0.0053964555 0.63165617
0.0094326483 -0.0067375898 0.63146436
0.0094215525 -0.0080756247 0.63127297
0.0094104568 -0.0094104409 0.63108164
0.0093994131 -0.010742188 0.6308912
0.0093883695 -0.012070745 0.63070071
0.0093773771 -0.013396233 0.63051116
0.0093663847 -0.014718622 0.63032162
0.0093554445 -0.016037911 0.63013297
0.0093445294 -0.017354101 0.62994474
0.0093336133 -0.018667221 0.62975651
0.0093227495 -0.019977331 0.62956917
0.0093118846 -0.021284312 0.6293819
0.0093010711 -0.022588313 0.62919533
0.0092902575 -0.023889214 0.62900889
0.0092794932 -0.025187194 0.62882328
0.009268729 -0.026482075 0.62863767
0.011248571 0.046400368 0.63853192
0.011234765 0.044939071 0.63832361
0.011220959 0.043481231 0.63811535
0.011207221 0.042027086 0.63790798
0.011193484 0.040576369 0.6377008
0.011179812 0.039129347 0.63749444
0.011166141 0.037685722 0.63728821
0.011152538 0.036245763 0.63708293
0.011138965 0.034809291 0.63687813
0.011125395 0.033376187 0.63667333
0.01111189 0.031946689 0.6364696
0.011098384 0.030520558 0.63626581
0.011084944 0.029098004 0.63606304
0.011071504 0.027678728 0.6358602
0.01105813 0.026263088 0.63565838
0.011044755 0.024850667 0.63545662
0.011031444 0.023441821 0.63525581
0.011018134 0.022036284 0.63505495
0.011004888 0.020634174 0.63485509
0.010991641 0.019235373 0.63465518
0.010978458 0.017839968 0.63445628
0.010965307 0.016447961 0.63425785
0.010952155 0.015059233 0.63405943
0.010939067 0.013673812 0.6338619
0.010925978 0.012291729 0.63366437
0.010912952 0.010912985 0.63346785
0.010899958 0.0095374882 0.63327181
0.010886963 0.0081652403 0.63307571
0.01087403 0.0067962706 0.63288057
0.010861097 0.0054305494 0.63268542
0.010848224 0.0040680766 0.63249123
0.010835351 0.0027088523 0.63229692
0.010822541 0.0013528466 0.63210368
0.01080973 2.9802322e-08 0.63191038
0.01079698 -0.001349628 0.63171792
0.01078426 -0.0026960671 0.63152605
0.010771539 -0.0040393472 0.63133413
0.010758879 -0.0053794682 0.63114309
0.010746217 -0.0067163706 0.630952
0.010733616 -0.0080501735 0.63076186
0.010721015 -0.009380877 0.63057172
0.010708473 -0.010708481 0.63038254
0.01069596 -0.012032926 0.63019371
0.010683446 -0.013354331 0.63000488
0.010670992 -0.014672577 0.62981695
0.010658536 -0.015987813 0.62962902
0.010646139 -0.01729995 0.62944198
0.010633742 -0.018609047 0.62925494
0.010621403 -0.019915134 0.62906873
0.010609093 -0.021218181 0.62888294
0.010596782 -0.022518158 0.62869716
0.010584529 -0.023815185 0.62851232
0.010572275 -0.025109142 0.62832737
0.010560078 -0.026400179 0.62814343
0.012613096 0.046248019 0.63797474
0.01259763 0.044791549 0.63776726
0.012582237 0.043338835 0.63756084
0.012566846 0.041889489 0.63735443
0.012551528 0.040443838 0.63714898
0.012536213 0.039001554 0.63694352
0.012520969 0.037562907 0.63673908
0.012505727 0.036127657 0.63653469
0.012490559 0.034696013 0.6363312
0.012475391 0.033267707 0.63612783
0.012460295 0.031843007 0.63592529
0.012445201 0.030421585 0.63572282
0.01243018 0.029003739 0.63552141
0.012415157 0.027589232 0.63531995
0.012400206 0.026178211 0.63511944
0.012385294 0.024770588 0.63491935
0.01237038 0.023366302 0.63471931
0.012355537 0.021965414 0.63452029
0.012340696 0.020567834 0.63432121
0.012325925 0.019173682 0.63412309
0.012311153 0.017782778 0.63392496
0.012296453 0.016395271 0.63372779
0.012281752 0.015011042 0.63353068
0.012267121 0.013630152 0.6333344
0.012252526 0.012252539 0.63313866
0.01223793 0.010878146 0.63294291
0.012223403 0.0095070899 0.63274807
0.012208877 0.0081392527 0.63255322
0.01219442 0.0067746937 0.63235927
0.012179961 0.0054133236 0.63216537
0.012165573 0.004055202 0.63197237
0.012151217 0.002700299 0.63177985
0.012136862 0.0013485551 0.63158733
0.012122574 2.9802322e-08 0.6313957
0.012108286 -0.0013453364 0.63120401
0.012094066 -0.0026875734 0.63101333
0.012079846 -0.0040265918 0.6308226
0.012065692 -0.0053625107 0.63063282
0.012051571 -0.0066953003 0.63044333
0.01203745 -0.0080249608 0.63025397
0.012023396 -0.0093515217 0.63006544
0.01200934 -0.010674953 0.62987697
0.011995351 -0.011995345 0.62968934
0.011981362 -0.013312608 0.6295017
0.011967437 -0.01462689 0.62931496
0.011953513 -0.015938014 0.62912816
0.011939653 -0.017246157 0.62894225
0.011925826 -0.01855126 0.62875682
0.011911998 -0.019853354 0.62857139
0.011898234 -0.021152437 0.6283868
0.01188447 -0.022448421 0.62820214
0.011870771 -0.023741543 0.62801838
0.011857069 -0.025031596 0.62783468
0.011843433 -0.026318729 0.62765175
0.013968651 0.046096534 0.63742065
0.013951578 0.044645041 0.63721454
0.013934587 0.043197244 0.63700944
0.013917597 0.041752785 0.6368044
0.013900689 0.040311992 0.63660026
0.013883782 0.038874596 0.63639617
0.013866955 0.037440777 0.6361931
0.013850169 0.036010444 0.63599044
0.013833385 0.034583479 0.63578784
0.013816681 0.033160061 0.6355862
0.013799977 0.03173995 0.63538456
0.013783352 0.030323386 0.63518393
0.013766728 0.02891013 0.63498318
0.013750185 0.027500361 0.63478351
0.013733641 0.02609393 0.63458383
0.013717176 0.024690896 0.63438511
0.013700712 0.02329123 0.63418639
0.013684328 0.021894932 0.63398856
0.013667981 0.020501971 0.63379121
0.013651634 0.019112319 0.63359392
0.013635366 0.017725974 0.63339758
0.013619096 0.016342938 0.63320112
0.013602905 0.01496321 0.63300568
0.013586715 0.01358673 0.63281029
0.013570599 0.012213498 0.63261575
0.013554486 0.010843575 0.6324212
0.013538448 0.0094769299 0.6322276
0.013522447 0.0081134737 0.63203448
0.013506448 0.0067532361 0.63184142
0.013490522 0.0053962171 0.63164914
0.013474598 0.0040423572 0.63145691
0.013458747 0.0026917458 0.63126558
0.013442897 0.0013443232 0.63107425
0.013427123 -2.9802322e-08 0.63088381
0.013411384 -0.0013411641 0.63069385
0.013395646 -0.0026791692 0.63050389
0.013379982 -0.0040139854 0.63031477
0.013364316 -0.0053457022 0.63012564
0.013348725 -0.0066743493 0.62993747
0.013333132 -0.007999897 0.6297493
0.013317613 -0.0093223155 0.62956196
0.013302132 -0.010641694 0.62937504
0.013286647 -0.011957973 0.62918812
0.013271237 -0.013271213 0.62900209
0.013255824 -0.014581412 0.62881607
0.013240485 -0.015888572 0.62863088
0.013225145 -0.017192692 0.62844574
0.013209876 -0.018493831 0.62826145
0.013194606 -0.019791901 0.62807709
0.013179408 -0.021087021 0.62789363
0.013164246 -0.02237919 0.62771058
0.013149081 -0.023668319 0.62752753
0.013133988 -0.024954587 0.62734532
0.013118893 -0.026237786 0.62716317
0.015315356 0.045946091 0.63687021
0.015296743 0.044499636 0.636666
0.015278129 0.043056548 0.63646173
0.015259607 0.041617125 0.63625842
0.015241084 0.040181041 0.63605517
0.01522265 0.038748562 0.63585293
0.015204216 0.037319452 0.63565063
0.015185873 0.035893887 0.63544929
0.015167527 0.034471661 0.63524795
0.015149272 0.033052921 0.63504767
0.015131015 0.031637579 0.63484734
0.015112847 0.030225694 0.63464797
0.015094679 0.028817117 0.63444853
0.015076597 0.027411997 0.63425016
0.015058517 0.026010156 0.63405174
0.015040522 0.024611741 0.63385427
0.01502257 0.023216724 0.63365722
0.015004617 0.021824896 0.63346028
0.014986751 0.020436496 0.63326418
0.014968884 0.019051313 0.63306814
0.014951103 0.017669499 0.632873
0.014933321 0.016290873 0.63267791
0.014915624 0.014915615 0.63248366
0.014897969 0.013543606 0.63228995
0.014880314 0.012174815 0.63209617
0.014862741 0.010809273 0.63190341
0.014845169 0.009446919 0.63171053
0.01482768 0.0080878139 0.6315186
0.014810191 0.0067319274 0.63132668
0.014792784 0.0053792 0.6311357
0.014775419 0.0040296912 0.63094509
0.014758051 0.0026832521 0.63075453
0.014740767 0.0013400614 0.63056487
0.014723482 -0 0.63037515
0.014706279 -0.0013369322 0.63018632
0.014689073 -0.0026707351 0.62999755
0.014671952 -0.0040014386 0.62980968
0.014654825 -0.0053290427 0.6296218
0.014637782 -0.0066535473 0.6294347
0.01462078 -0.0079749525 0.62924814
0.014603774 -0.0092932582 0.62906152
0.014586849 -0.010608613 0.62887579
0.014569921 -0.01192084 0.62869
0.014553076 -0.013230085 0.62850517
0.014536228 -0.014536232 0.62832028
0.014519458 -0.015839368 0.62813628
0.014502728 -0.017139584 0.62795269
0.014485997 -0.01843676 0.62776911
0.014469344 -0.019730926 0.62758631
0.014452688 -0.021022111 0.62740356
0.014436111 -0.022310376 0.62722164
0.014419532 -0.023595601 0.62703967
0.014403032 -0.024877965 0.62685865
0.014386569 -0.026157409 0.62667799
0.016673567 0.047241807 0.63652724
0.016653297 0.045796573 0.63632333
0.016633123 0.044355035 0.63612044
0.016612949 0.042916775 0.63591754
0.016592873 0.04148218 0.63571554
0.016572798 0.040050954 0.6355136
0.016552817 0.038623273 0.63531256
0.016532838 0.037198871 0.63511169
0.016512955 0.035778075 0.63491166
0.016493121 0.034360707 0.6347121
0.016473284 0.032946557 0.6345126
0.016453544 0.031535953 0.634314
0.016433803 0.030128628 0.63411546
0.016414158 0.02872479 0.63391781
0.016394511 0.0273242 0.63372016
0.016374959 0.025927007 0.63352352
0.016355406 0.024533123 0.63332683
0.016335947 0.023142606 0.63313103
0.016316488 0.021755338 0.63293529
0.016297122 0.020371407 0.6327405
0.016277803 0.018990785 0.63254619
0.01625848 0.017613351 0.63235182
0.016239252 0.016239256 0.63215834
0.016220022 0.014868349 0.63196492
0.016200883 0.01350075 0.6317724
0.016181743 0.01213631 0.63157994
0.016162697 0.010775149 0.63138831
0.016143693 0.0094171762 0.63119715
0.016124688 0.0080623627 0.63100594
0.016105775 0.0067107975 0.63081568
0.01608686 0.0053622723 0.63062549
0.016068034 0.0040170252 0.63043606
0.016049206 0.0026748776 0.63024664
0.016030468 0.0013358593 0.63005823
0.016011775 -0 0.62987018
0.015993079 -0.0013327301 0.62968206
0.015974473 -0.0026624203 0.62949491
0.015955865 -0.0039889812 0.62930775
0.015937345 -0.0053124726 0.62912142
0.015918823 -0.0066328347 0.6289351
0.015900388 -0.0079501867 0.62874967
0.015881952 -0.0092644691 0.62856424
0.015863603 -0.010575742 0.62837964
0.015845295 -0.011883944 0.62819552
0.015826987 -0.013189167 0.62801135
0.015808765 -0.014491349 0.627828
0.015790541 -0.015790522 0.62764466
0.015772402 -0.017086715 0.62746221
0.01575426 -0.018379956 0.6272797
0.015736206 -0.019670248 0.62709808
0.015718192 -0.020957589 0.62691689
0.015700174 -0.02224192 0.62673569
0.015682243 -0.02352336 0.62655532
0.015664309 -0.024801821 0.6263749
0.015646458 -0.02607742 0.62619531
0.018004376 0.047088355 0.63598263
0.01798261 0.045648158 0.63578051
0.017960845 0.044211358 0.63557839
0.017939184 0.042778075 0.63537729
0.017917521 0.0413481 0.63517618
0.017895965 0.03992179 0.63497597
0.017874409 0.038498729 0.63477582
0.017852956 0.037079215 0.63457668
0.017831502 0.035663009 0.63437742
0.017810153 0.034250289 0.63417912
0.017788801 0.032840878 0.63398087
0.017767552 0.031434923 0.63378358
0.017746305 0.030032218 0.63358629
0.017725157 0.028632998 0.63338995
0.017704008 0.027236938 0.63319355
0.017682964 0.025844336 0.63299817
0.017661966 0.024455011 0.6328032
0.017640969 0.023068994 0.63260823
0.017620072 0.021686256 0.63241422
0.017599175 0.020306736 0.63222015
0.017578378 0.018930554 0.63202703
0.017557578 0.017557561 0.63183391
0.017536879 0.016187876 0.63164175
0.017516227 0.01482141 0.63144994
0.017495574 0.013458133 0.63125819
0.01747502 0.012098074 0.63106734
0.017454466 0.010741204 0.63087648
0.017434008 0.0093875825 0.63068646
0.017413549 0.0080370605 0.6304965
0.017393187 0.0066896677 0.63030744
0.017372824 0.0053454936 0.63011843
0.017352557 0.004004389 0.62993026
0.017332338 0.0026665032 0.62974244
0.017312117 0.001331687 0.62955469
0.017291991 -2.9802322e-08 0.62936783
0.017271865 -0.0013285875 0.62918091
0.017251832 -0.0026541054 0.62899494
0.017231798 -0.0039765835 0.62880892
0.01721186 -0.0052959621 0.62862378
0.017191967 -0.0066122711 0.62843907
0.01717207 -0.00792557 0.62825429
0.01715227 -0.0092358291 0.62807047
0.017132467 -0.010543048 0.62788659
0.017112756 -0.011847258 0.62770349
0.017093044 -0.013148487 0.62752044
0.017073425 -0.014446735 0.62733829
0.01705385 -0.015742004 0.62715656
0.017034272 -0.017034292 0.62697482
0.017014788 -0.0183236 0.62679386
0.0169953 -0.019609958 0.6266129
0.016975904 -0.020893425 0.62643284
0.016956506 -0.022173882 0.62625265
0.016937198 -0.023451507 0.62607342
0.016917935 -0.024726212 0.62589455
0.016898669 -0.025997937 0.62571561
0.01932657 0.046935976 0.63544148
0.019303281 0.045500606 0.63524067
0.019279992 0.044068545 0.63503987
0.019256815 0.04264009 0.63484007
0.019233638 0.041214973 0.63464022
0.019210573 0.039793313 0.63444138
0.019187506 0.03837505 0.63424242
0.019164551 0.036960214 0.63404453
0.01914165 0.035548776 0.63384712
0.01911875 0.034140646 0.63364965
0.019095959 0.032735944 0.63345313
0.019073166 0.03133449 0.63325661
0.019050485 0.029936463 0.63306105
0.019027801 0.028541684 0.63286543
0.019005226 0.027150333 0.63267082
0.018982651 0.0257622 0.63247615
0.018960182 0.024377376 0.63228244
0.018937767 0.022995859 0.63208914
0.018915351 0.021617591 0.6318959
0.018893043 0.020242542 0.63170356
0.018870732 0.018870741 0.63151115
0.018848527 0.017502218 0.63131976
0.018826323 0.016136885 0.63112825
0.018804222 0.01477474 0.63093776
0.018782122 0.013415784 0.6307472
0.018760126 0.012060076 0.63055754
0.01873818 0.010707527 0.63036829
0.018716235 0.0093581378 0.63017905
0.018694393 0.0080118775 0.62999076
0.018672548 0.0066687465 0.62980241
0.018650807 0.0053288043 0.62961495
0.018629067 0.0039919615 0.62942749
0.018607426 0.0026582479 0.62924093
0.018585838 0.0013275743 0.62905473
0.018564247 2.9802322e-08 0.62886858
0.018542759 -0.0013244748 0.62868333
0.018521266 -0.00264588 0.62849802
0.018499877 -0.0039642155 0.6283136
0.018478485 -0.0052795708 0.62812918
0.018457195 -0.0065918267 0.62794554
0.018435953 -0.0079011023 0.62776244
0.018414708 -0.0092073679 0.62757927
0.018393563 -0.010510594 0.62739694
0.018372416 -0.011810839 0.62721461
0.018351369 -0.013108104 0.62703311
0.018330319 -0.014402419 0.62685168
0.018309368 -0.015693754 0.62667102
0.018288413 -0.016982108 0.62649035
0.018267559 -0.018267542 0.62631047
0.018246749 -0.019550085 0.62613106
0.018225938 -0.020829648 0.62595165
0.018205225 -0.022106349 0.62577307
0.018184509 -0.023380071 0.62559444
0.018163892 -0.024650991 0.6254167
0.018143268 -0.025918961 0.62523884
0.020640293 0.046784669 0.63490438
0.02061544 0.045353979 0.63470435
0.020590708 0.043926865 0.63450533
0.020565975 0.042503029 0.63430631
0.020541361 0.04108271 0.63410825
0.020516748 0.039665759 0.63391012
0.020492252 0.038252205 0.63371307
0.020467754 0.036841959 0.63351589
0.020443374 0.0354352 0.63331968
0.020418994 0.034031659 0.63312352
0.020394731 0.032631576 0.63292825
0.020370467 0.031234711 0.63273299
0.020346317 0.029841274 0.63253862
0.020322168 0.028451055 0.63234431
0.020298135 0.027064204 0.63215089
0.020274157 0.025680602 0.63195795
0.020250179 0.024300218 0.63176501
0.020226315 0.022923142 0.63157296
0.020202449 0.021549314 0.63138092
0.020178698 0.020178705 0.6311897
0.020154944 0.018811315 0.63099861
0.020131303 0.017447144 0.63080835
0.020107718 0.016086221 0.63061851
0.020084132 0.014728367 0.63042873
0.020060657 0.013373762 0.63023984
0.02003718 0.012022316 0.6300509
0.020013815 0.010674059 0.62986284
0.019990448 0.0093289018 0.62967485
0.019967191 0.0079868734 0.62948769
0.019943988 0.0066480339 0.62930095
0.019920785 0.0053122044 0.62911421
0.01989769 0.0039795637 0.62892836
0.019874593 0.0026499629 0.62874246
0.019851606 0.0013234615 0.6285575
0.019828616 2.9802322e-08 0.62837249
0.019805735 -0.0013203621 0.62818837
0.019782851 -0.0026377141 0.62800419
0.019760074 -0.0039519966 0.62782091
0.019737352 -0.0052632987 0.62763804
0.019714624 -0.0065715313 0.62745512
0.019692006 -0.0078767836 0.62727308
0.019669382 -0.0091790259 0.62709105
0.019646868 -0.010478318 0.62690997
0.019624403 -0.011774659 0.62672913
0.019601936 -0.013067931 0.62654829
0.019579574 -0.014358371 0.62636834
0.01955721 -0.015645772 0.6261884
0.019534949 -0.016930282 0.62600923
0.019512687 -0.018211812 0.62583011
0.019490529 -0.01949051 0.62565172
0.019468367 -0.020766258 0.62547344
0.019446308 -0.022039145 0.62529594
0.019424301 -0.023309171 0.62511885
0.019402288 -0.024576247 0.62494171
0.019380379 -0.025840521 0.6247654
0.019358467 -0.027101845 0.62458909
0.02194551 0.046634227 0.63437021
0.02191917 0.045208275 0.63417149
0.021892959 0.04378593 0.63397372
0.021866808 0.042366982 0.63377643
0.021840658 0.040951252 0.63357913
0.021814572 0.03953892 0.63338232
0.021788608 0.038130075 0.63318646
0.021762706 0.036724597 0.63299108
0.021736804 0.035322309 0.63279569
0.021711027 0.033923477 0.63260114
0.021685248 0.032527894 0.63240665
0.021659592 0.031135648 0.63221312
0.021633934 0.029746652 0.63201958
0.021608399 0.028361022 0.63182694
0.021582864 0.026978582 0.63163424
0.021557448 0.02559948 0.63144255
0.021532035 0.024223506 0.6312508
0.02150674 0.022850901 0.63105994
0.021481505 0.021481544 0.63086951
0.021456266 0.020115227 0.63067913
0.02143115 0.018752247 0.63048971
0.02140603 0.017392427 0.63030016
0.02138103 0.016035795 0.63011152
0.021356029 0.014682263 0.62992293
0.021331146 0.01333198 0.62973523
0.021306321 0.011984825 0.62954789
0.021281494 0.01064074 0.62936056
0.021256782 0.0092998445 0.62917411
0.02123207 0.0079620183 0.62898773
0.021207476 0.006627351 0.62880218
0.021182876 0.0052956939 0.62861663
0.021158395 0.0039671957 0.62843192
0.02113397 0.0026417375 0.62824762
0.021109542 0.0013193488 0.62806332
0.021085229 -0 0.62787992
0.021060916 -0.001316309 0.62769645
0.021036714 -0.0026296079 0.62751389
0.021012511 -0.003939867 0.62733126
0.020988422 -0.0052470863 0.62714952
0.020964328 -0.0065513551 0.62696773
0.020940349 -0.0078526437 0.62678683
0.020916425 -0.0091509521 0.6266064
0.020892497 -0.010446221 0.62642586
0.020868681 -0.011738628 0.62624615
0.020844862 -0.013028055 0.62606651
0.020821156 -0.014314532 0.62588757
0.020797446 -0.015598089 0.6257087
0.020773847 -0.016878724 0.62553072
0.020750301 -0.018156528 0.62535304
0.02072675 -0.019431323 0.62517536
0.020703312 -0.020703316 0.62499857
0.020679869 -0.021972358 0.62482166
0.020656535 -0.023238569 0.62464559
0.020633198 -0.02450192 0.62446964
0.020609969 -0.025762469 0.62429434
0.020586794 -0.027020127 0.62411952
0.023242358 0.046484709 0.63383949
0.02321462 0.045063674 0.63364249
0.023186877 0.043645889 0.6334455
0.023159273 0.04223159 0.63324952
0.023131665 0.040820599 0.63305348
0.023104189 0.039413005 0.6328584
0.023076715 0.03800869 0.63266331
0.023049368 0.036607832 0.63246912
0.023022022 0.035210133 0.63227493
0.022994805 0.03381592 0.63208169
0.02296759 0.032424837 0.63188845
0.022940502 0.031037152 0.63169611
0.022913415 0.029652655 0.63150382
0.022886455 0.028271526 0.63131237
0.022859558 0.026893586 0.6311214
0.02283266 0.025518894 0.6309303
0.02280589 0.024147451 0.63074028
0.02277912 0.022779107 0.63055015
0.022752475 0.021414101 0.63036096
0.022725828 0.020052195 0.63017178
0.022699308 0.018693566 0.62998343
0.022672849 0.017338067 0.62979561
0.02264639 0.015985698 0.62960774
0.022620054 0.014636517 0.6294207
0.022593716 0.013290435 0.62923372
0.022567503 0.011947483 0.62904757
0.022541288 0.01060766 0.62886143
0.022515196 0.0092709661 0.62867618
0.022489101 0.0079373419 0.62849087
0.02246313 0.0066067874 0.62830651
0.02243722 0.0052793324 0.62812251
0.022411307 0.003954947 0.62793845
0.022385515 0.0026336014 0.62775528
0.022359721 0.0013152957 0.62757218
0.022334047 -0 0.62738991
0.022308433 -0.0013122261 0.62720799
0.022282815 -0.0026214719 0.62702608
0.022257319 -0.0039277375 0.62684506
0.022231819 -0.0052310228 0.62666398
0.022206439 -0.0065312982 0.6264838
0.022181055 -0.0078285933 0.62630355
0.02215579 -0.0091229975 0.62612414
0.022130521 -0.010414362 0.62594473
0.022105372 -0.011702836 0.62576616
0.022080282 -0.012988389 0.62558794
0.022055184 -0.014270991 0.62540978
0.022030205 -0.015550703 0.6252324
0.022005223 -0.016827494 0.62505502
0.021980356 -0.018101424 0.62487847
0.021955486 -0.019372493 0.62470192
0.021930734 -0.020640701 0.62452608
0.021906035 -0.021906048 0.62435073
0.021881334 -0.023168474 0.62417531
0.021856746 -0.024428129 0.62400079
0.021832155 -0.025684893 0.62382615
0.021807678 -0.026938885 0.62365234
0.024530916 0.046336204 0.63331211
0.024501733 0.044919848 0.63311642
0.02447255 0.043506771 0.63292068
0.024443505 0.042097181 0.63272589
0.024414461 0.04069078 0.63253111
0.024385555 0.039287806 0.63233727
0.024356645 0.03788811 0.63214338
0.024327876 0.036491841 0.63195044
0.024299173 0.035098821 0.63175797
0.024270467 0.033709019 0.63156545
0.024241902 0.032322556 0.63137388
0.024213333 0.030939251 0.63118231
0.024184899 0.029559344 0.63099164
0.024156466 0.028182566 0.63080096
0.024128165 0.026809096 0.63061118
0.024099866 0.025438756 0.63042134
0.024071699 0.024071693 0.63023251
0.024043597 0.02270785 0.6300441
0.024015492 0.021347106 0.62985557
0.023987522 0.01998961 0.629668
0.023959551 0.018635213 0.62948048
0.023931708 0.017284036 0.62929374
0.023903867 0.015935928 0.629107
0.023876157 0.014590979 0.62892121
0.023848509 0.013249189 0.62873578
0.023820858 0.011910439 0.62855035
0.02379334 0.010574847 0.62836576
0.023765819 0.0092422962 0.62818122
0.023738425 0.0079128146 0.62799752
0.023711031 0.0065864027 0.62781382
0.023683764 0.0052630603 0.62763095
0.023656497 0.0039427578 0.62744808
0.023629356 0.0026254654 0.62726617
0.023602277 0.0013112128 0.62708449
0.023575194 -0 0.62690288
0.023548242 -0.0013082325 0.62672216
0.023521284 -0.0026134551 0.62654132
0.02349445 -0.0039157271 0.62636143
0.023467615 -0.005215019 0.62618142
0.023440907 -0.0065113604 0.62600231
0.023414258 -0.0078047514 0.62582362
0.023387605 -0.0090951622 0.62564486
0.023361078 -0.010382682 0.62546694
0.023334546 -0.011667222 0.62528902
0.023308139 -0.01294896 0.62511194
0.023281725 -0.014227688 0.62493485
0.023255439 -0.015503615 0.62475854
0.02322921 -0.016776651 0.62458265
0.023202976 -0.018046737 0.62440675
0.023176868 -0.019314051 0.62423158
0.023150751 -0.020578444 0.62405652
0.023124758 -0.021840036 0.62388217
0.023098761 -0.023098737 0.62370783
0.023072883 -0.024354696 0.62353432
0.023047063 -0.025607824 0.62336111
0.02302124 -0.026858121 0.62318802
0.025811344 0.046188712 0.6327886
0.025780661 0.044776917 0.63259363
0.025750125 0.043368638 0.63239962
0.025719587 0.041963518 0.63220561
0.025689196 0.040561914 0.63201255
0.025658803 0.03916344 0.63181943
0.025628554 0.037768394 0.63162726
0.025598304 0.036376536 0.6314351
0.025568198 0.034988075 0.63124382
0.025538091 0.033602774 0.63105255
0.025508124 0.032220811 0.63086224
0.02547816 0.030842006 0.6306718
0.025448337 0.02946651 0.63048232
0.025418581 0.028094232 0.63029325
0.025388824 0.026725084 0.63010418
0.02535921 0.025359213 0.62991607
0.02532959 0.023996472 0.6297279
0.025300113 0.02263692 0.62954068
0.025270635 0.021280557 0.62935334
0.025241293 0.019927353 0.62916696
0.025211951 0.018577218 0.62898052
0.025182746 0.017230332 0.62879497
0.025153609 0.015886515 0.6286099
0.02512447 0.014545739 0.62842476
0.025095467 0.013208151 0.62824047
0.025066461 0.011873603 0.62805617
0.025037594 0.010542125 0.62787282
0.025008792 0.0092137754 0.62768984
0.024979986 0.0078884065 0.62750679
0.024951316 0.0065661371 0.6273247
0.024922643 0.0052468777 0.62714249
0.024894103 0.0039306581 0.62696117
0.024865562 0.0026174486 0.62677985
0.024837155 0.0013072491 0.62659943
0.024808742 2.9802322e-08 0.62641889
0.024780463 -0.001304239 0.62623924
0.024752252 -0.0026054978 0.62606001
0.024724033 -0.0039038062 0.62588072
0.024695946 -0.0051991343 0.6257022
0.024667859 -0.0064915121 0.62552381
0.024639899 -0.0077810287 0.62534618
0.024611939 -0.0090675652 0.62516856
0.024584105 -0.010351181 0.62499166
0.024556337 -0.011631936 0.62481529
0.024528563 -0.01290977 0.62463886
0.024500921 -0.014184743 0.6244632
0.02447327 -0.015456796 0.62428755
0.024445754 -0.016726047 0.62411273
0.024418229 -0.017992377 0.62393785
0.024390833 -0.019255906 0.6237638
0.024363499 -0.020516604 0.62359011
0.024336161 -0.021774471 0.62341642
0.02430895 -0.023029536 0.62324357
0.024281733 -0.02428174 0.62307066
0.024254641 -0.025531203 0.62289852
0.024227547 -0.026777804 0.62272644
0.027083568 0.046042085 0.63226795
0.027051475 0.044634908 0.63207424
0.027019534 0.043231279 0.63188142
0.026987672 0.041830897 0.63168913
0.026955804 0.040433735 0.63149679
0.026924012 0.03903982 0.63130492
0.026892373 0.037649333 0.63111395
0.026860809 0.036262125 0.63092345
0.026829241 0.034878016 0.63073289
0.026797824 0.033497244 0.63054329
0.026766405 0.032119662 0.63035363
0.026735133 0.030745417 0.63016492
0.026703861 0.029374242 0.62997615
0.026672736 0.028006375 0.62978828
0.026641609 0.026641607 0.62960047
0.026610628 0.025280088 0.62941349
0.026579721 0.023921758 0.62922692
0.02654881 0.022566527 0.62904036
0.026518045 0.021214426 0.62885469
0.02648728 0.019865453 0.62866902
0.026456656 0.01851964 0.62848419
0.026426032 0.017176896 0.62829936
0.02639555 0.015837342 0.6281153
0.026365066 0.014500797 0.62793136
0.026334725 0.013167351 0.62774825
0.026304455 0.011837006 0.62756556
0.026274182 0.01050967 0.62738281
0.02624405 0.0091854334 0.62720096
0.026213914 0.0078641772 0.62701911
0.026183922 0.0065459609 0.62683809
0.026153924 0.0052307844 0.62665701
0.026124068 0.003918618 0.62647676
0.02609428 0.0026094317 0.626297
0.026064487 0.0013032258 0.62611723
0.026034832 2.9802322e-08 0.62593824
0.026005177 -0.0013002455 0.62575924
0.025975658 -0.0025975406 0.62558103
0.025946135 -0.0038919151 0.62540293
0.02591675 -0.0051833391 0.62522554
0.025887433 -0.0064718723 0.62504864
0.025858112 -0.0077574253 0.62487161
0.025828924 -0.0090401471 0.62469548
0.025799735 -0.010319859 0.62451929
0.025770681 -0.011596769 0.62434393
0.025741622 -0.012870818 0.62416857
0.025712699 -0.014142007 0.62399399
0.025683841 -0.015410304 0.62381983
0.025654977 -0.01667574 0.6236456
0.025626248 -0.017938375 0.62347221
0.025597515 -0.019198149 0.62329882
0.025568914 -0.020455122 0.62312615
0.025540309 -0.021709234 0.62295353
0.025511837 -0.022960633 0.62278163
0.025483359 -0.024209201 0.62260979
0.025455011 -0.025454998 0.62243873
0.025426729 -0.026698083 0.62226802
0.028347738 0.045896381 0.63175052
0.028314335 0.044493973 0.63155854
0.028280931 0.043094724 0.63136655
0.028247682 0.041698992 0.6311754
0.028214434 0.04030633 0.63098431
0.028181342 0.038917094 0.63079405
0.028148249 0.037530988 0.63060385
0.028115315 0.03614828 0.63041449
0.028082376 0.034768671 0.63022518
0.028049594 0.03339237 0.63003677
0.028016809 0.032019198 0.6298483
0.027984181 0.030649364 0.62966073
0.027951548 0.02928257 0.62947315
0.027919071 0.027919054 0.62928653
0.027886668 0.026558757 0.62910026
0.027854264 0.02520147 0.628914
0.027822014 0.023847461 0.62872857
0.027789759 0.022496492 0.62854314
0.027757656 0.021148711 0.62835872
0.027725626 0.019804031 0.6281746
0.027693596 0.01846242 0.62799042
0.027661713 0.017123938 0.6278072
0.02762983 0.015788466 0.62762392
0.027598094 0.014456183 0.62744147
0.027566357 0.01312685 0.62725908
0.027534766 0.011800617 0.62707746
0.027503176 0.010477394 0.6268959
0.02747173 0.0091572702 0.62671512
0.027440358 0.007840097 0.62653482
0.027408982 0.0065259635 0.62635446
0.027377751 0.0052148104 0.62617493
0.027346518 0.0039066672 0.6259954
0.02731543 0.0026014745 0.6258167
0.027284339 0.001299262 0.62563795
0.027253391 2.9802322e-08 0.62546003
0.027222518 -0.0012963414 0.62528265
0.027191635 -0.0025896728 0.62510508
0.0271609 -0.0038801432 0.62492847
0.027130159 -0.0051676035 0.62475169
0.027099561 -0.0064522326 0.62457585
0.027068958 -0.0077340007 0.62439996
0.027038498 -0.0090128183 0.6242249
0.027008107 -0.010288805 0.6240502
0.026977712 -0.011561841 0.62387544
0.026947455 -0.012832075 0.62370151
0.026917197 -0.014099479 0.62352759
0.026887076 -0.015364051 0.62335443
0.026856951 -0.016625702 0.62318128
0.026826967 -0.017884642 0.62300897
0.026797049 -0.01914075 0.62283701
0.026767123 -0.020393997 0.62266493
0.026737342 -0.021644503 0.62249374
0.026707551 -0.022892147 0.6223225
0.026677897 -0.024137139 0.62215209
0.026648238 -0.02537927 0.62198162
0.026618719 -0.026618689 0.62181187
0.029638873 0.047152758 0.63142812
0.029603934 0.045751572 0.63123643
0.02956916 0.044353753 0.63104564
0.029534468 0.042959213 0.63085532
0.029499771 0.041567862 0.63066489
0.029465158 0.040179789 0.63047498
0.029430708 0.038795054 0.63028598
0.02939634 0.037413567 0.63009739
0.029361967 0.03603512 0.6299088
0.02932776 0.034660101 0.62972111
0.029293548 0.033288121 0.62953341
0.029259499 0.03191945 0.62934655
0.029225446 0.030553848 0.62915975
0.029191557 0.029191554 0.62897378
0.029157659 0.027832299 0.62878782
0.029123928 0.026476324 0.62860274
0.029090269 0.025123388 0.62841803
0.029056611 0.023773581 0.62823331
0.029023109 0.022426963 0.62804949
0.028989606 0.021083355 0.62786573
0.028956259 0.019742876 0.62768275
0.028922906 0.018405467 0.62749976
0.028889714 0.017071187 0.62731761
0.028856596 0.015739977 0.62713593
0.028823474 0.014411747 0.62695414
0.028790507 0.013086617 0.6267733
0.028757539 0.011764437 0.6265924
0.028724724 0.010445386 0.62641233
0.028691903 0.0091292262 0.62623227
0.028659238 0.0078161359 0.62605304
0.028626645 0.0065060556 0.62587416
0.028594049 0.0051989257 0.62569535
0.028561605 0.0038947761 0.62551731
0.028529158 0.0025936067 0.62533927
0.02849686 0.0012953579 0.62516207
0.028464559 2.9802322e-08 0.62498486
0.028432408 -0.0012923777 0.62480843
0.028400254 -0.0025818348 0.624632
0.028368248 -0.0038684011 0.62445641
0.028336313 -0.0051520467 0.62428117
0.028304376 -0.0064327717 0.62410593
0.028272586 -0.0077106655 0.62393153
0.028240792 -0.0089856684 0.62375706
0.028209144 -0.01025787 0.62358344
0.028177565 -0.011527181 0.62341017
0.028145984 -0.012793601 0.62323689
0.02811455 -0.014057279 0.6230644
0.028083108 -0.015318066 0.6228919
0.028051812 -0.016576082 0.62272024
0.028020512 -0.017831236 0.62254846
0.027989356 -0.019083619 0.62237746
0.027958196 -0.02033323 0.62220651
0.027927177 -0.02158007 0.62203634
0.027896229 -0.022824198 0.62186652
0.027865274 -0.024065465 0.62169665
0.027834462 -0.025304049 0.62152761
0.027803643 -0.026539832 0.62135851
0.030888526 0.047004282 0.63091612
0.030852312 0.045607775 0.63072604
0.030816099 0.044214427 0.63053596
0.030780056 0.042824417 0.63034678
0.030744011 0.041437596 0.63015759
0.030708138 0.040054083 0.62996936
0.030672261 0.038673759 0.62978107
0.030636556 0.037296683 0.62959367
0.030600846 0.035922736 0.62940627
0.030565305 0.034552097 0.62921971
0.030529762 0.033184528 0.62903315
0.030494384 0.031820238 0.62884748
0.030459089 0.030459106 0.62866229
0.030423792 0.029101014 0.62847704
0.030388663 0.027746171 0.62829268
0.030353526 0.026394397 0.62810826
0.030318558 0.025045782 0.62792474
0.030283585 0.023700207 0.62774116
0.030248776 0.022357792 0.62755847
0.030214049 0.021018475 0.6273762
0.030179316 0.019682169 0.62719393
0.030144747 0.018348992 0.62701249
0.030110175 0.017018825 0.62683105
0.030075764 0.015691727 0.62665045
0.030041348 0.01436764 0.62646985
0.030007094 0.013046563 0.62629008
0.029972918 0.011728555 0.62611067
0.029938739 0.010413498 0.62593138
0.029904718 0.0091014206 0.62575275
0.029870695 0.0077923536 0.62557423
0.029836828 0.0064862967 0.62539649
0.029802956 0.0051831603 0.62521863
0.029769244 0.0038829744 0.62504172
0.029735606 0.0025856793 0.62486523
0.029701965 0.001291424 0.62468863
0.029668482 -0 0.62451291
0.02963499 -0.0012884438 0.6243372
0.029601656 -0.0025740564 0.6241622
0.029568316 -0.0038567185 0.6239872
0.029535133 -0.0051365495 0.62381309
0.029501945 -0.0064134896 0.62363887
0.029468909 -0.0076875389 0.62346548
0.029435948 -0.0089587569 0.62329257
0.029402979 -0.010227144 0.62311947
0.029370164 -0.01149267 0.62294728
0.029337345 -0.012755334 0.62277496
0.029304676 -0.014015257 0.62260354
0.029272003 -0.015272349 0.62243211
0.029239479 -0.016526639 0.6222614
0.029207028 -0.017778218 0.62209111
0.029174572 -0.019026905 0.62192076
0.029142266 -0.020272881 0.62175119
0.029109951 -0.021516025 0.62158155
0.029077789 -0.022756547 0.62141281
0.029045619 -0.023994207 0.62124395
0.029013596 -0.025229186 0.62107587
0.028981645 -0.026461452 0.6209082
0.032130331 0.046856731 0.63040721
0.032092784 0.045464754 0.63021833
0.032055229 0.044075936 0.6300295
0.032017853 0.042690486 0.62984151
0.03198057 0.041308254 0.62965393
0.031943277 0.039929092 0.62946641
0.031906165 0.038553268 0.62927973
0.031869046 0.037180543 0.62909305
0.031832106 0.035811096 0.62890726
0.031795159 0.03444472 0.62872148
0.03175839 0.033081651 0.62853646
0.031721614 0.031721622 0.62835151
0.031685013 0.030364782 0.62816745
0.031648409 0.029011011 0.62798333
0.031611975 0.027660489 0.62780011
0.031575631 0.026313007 0.62761724
0.031539276 0.024968594 0.62743443
0.031503092 0.023627341 0.62725246
0.031466909 0.022289068 0.62707043
0.031430893 0.020953923 0.62688923
0.031394873 0.019621789 0.62670815
0.031359021 0.018292785 0.62652785
0.03132325 0.01696676 0.6263479
0.03128748 0.015643716 0.62616801
0.03125187 0.014323801 0.6259889
0.03121626 0.013006777 0.62580979
0.031180816 0.011692792 0.62563157
0.031145366 0.010381758 0.62545323
0.031110082 0.0090737939 0.62527573
0.031074794 0.0077687204 0.62509823
0.031039668 0.0064666271 0.62492162
0.031004624 0.0051674545 0.62474531
0.030969575 0.0038711727 0.62456906
0.030934688 0.0025778711 0.62439358
0.030899795 0.0012874901 0.62421811
0.030865066 -0 0.62404341
0.030830411 -0.0012845993 0.62386906
0.030795755 -0.0025663078 0.62369478
0.030761257 -0.0038451552 0.62352127
0.030726755 -0.0051211119 0.62334776
0.030692413 -0.0063942373 0.62317502
0.030658064 -0.0076645017 0.62300229
0.030623874 -0.0089319646 0.62283033
0.030589681 -0.010196567 0.62265837
0.030555643 -0.011458367 0.62248713
0.030521683 -0.012717366 0.62231636
0.030487714 -0.013973534 0.62214547
0.030453904 -0.01522693 0.62197542
0.030420085 -0.016477525 0.62180531
0.030386427 -0.017725408 0.62163603
0.030352758 -0.01897046 0.6214667
0.030319247 -0.020212799 0.62129813
0.030285809 -0.021452427 0.62112999
0.030252365 -0.022689283 0.62096179
0.030219074 -0.023923457 0.62079436
0.030185776 -0.025154799 0.62062687
0.030152632 -0.026383549 0.62046009
0.03336446 0.046710253 0.62990201
0.033325497 0.045322686 0.62971383
0.033286717 0.043938458 0.62952662
0.033247933 0.042557359 0.62933934
0.033209335 0.041179597 0.62915295
0.03317073 0.039804906 0.62896657
0.033132311 0.038433492 0.62878108
0.033093888 0.037065148 0.62859553
0.033055644 0.035700113 0.62841088
0.033017401 0.034338117 0.62822622
0.032979332 0.032979339 0.62804246
0.032941356 0.031623691 0.62785906
0.032903373 0.030271083 0.62767565
0.032865569 0.028921694 0.62749314
0.032827761 0.027575344 0.62731057
0.032790132 0.026232094 0.6271289
0.032752495 0.024891883 0.62694716
0.032715037 0.023554832 0.62676626
0.032677665 0.02222082 0.62658584
0.032640286 0.020889789 0.62640536
0.032603085 0.019561857 0.62622571
0.032565881 0.018236876 0.62604612
0.032528847 0.016915023 0.62586725
0.032491807 0.015596062 0.62568843
0.032454941 0.01428017 0.62551045
0.032418162 0.012967288 0.62533283
0.032381378 0.011657298 0.62515521
0.032344762 0.010350317 0.62497848
0.032308143 0.0090463161 0.62480164
0.032271694 0.0077452064 0.62462562
0.032235239 0.006447047 0.62444955
0.032198954 0.0051518679 0.62427443
0.032162663 0.00385952 0.6240992
0.032126542 0.0025701225 0.62392479
0.0320905 0.0012836158 0.62375081
0.03205445 -0 0.62357676
0.032018576 -0.001280725 0.62340349
0.03198269 -0.002558589 0.62323022
0.031946968 -0.0038336515 0.62305772
0.031911246 -0.0051057935 0.62288523
0.031875685 -0.0063751638 0.62271357
0.031840205 -0.0076416433 0.62254226
0.031804718 -0.0089052916 0.62237084
0.031769395 -0.010166228 0.62220037
0.031734064 -0.011424273 0.62202978
0.031698901 -0.012679547 0.62185991
0.031663727 -0.013932019 0.62169015
0.031628717 -0.01518175 0.62152106
0.031593781 -0.016428739 0.62135243
0.031558841 -0.017672926 0.62118369
0.031524062 -0.018914402 0.62101579
0.031489279 -0.020153135 0.62084782
0.031454653 -0.021389186 0.62068063
0.031420019 -0.022622436 0.62051338
0.031385545 -0.023852974 0.6203469
0.031351063 -0.02508086 0.62018043
0.031316739 -0.026306033 0.62001473
0.034590799 0.046564549 0.62939948
0.034550529 0.045181453 0.6292125
0.034510449 0.043801725 0.62902641
