# .PCD v0.7 - Point Cloud Data file format
VERSION 0.7
FIELDS x y z
SIZE 4 4 4
TYPE F F F
COUNT 1 1 1
WIDTH 676
HEIGHT 1
VIEWPOINT 0 0 0 1 0 0 0
POINTS 676
DATA ascii
-0.058766156 -0.0065295696 0.62644196
-0.064051233 -0.0052286685 0.62659323
-0.047283538 -0.0065671802 0.62734932
-0.061726477 -0.0039399862 0.62733698
-0.055332683 -0.0039523244 0.62783372
-0.043569937 -0.0052811801 0.6281786
-0.049069677 -0.0026524067 0.62889153
-0.063661531 2.9802322e-08 0.62890047
-0.036034938 -0.002669245 0.62990785
-0.036034938 -0.002669245 0.62990785
-0.044029895 -0.0013342202 0.629861
-0.053320341 -0 0.62971252
-0.056112513 0.0013360083 0.63007504
-0.052389 0.00268659 0.6309557
-0.0026921099 -0.0067302585 0.63128734
-0.04302584 0.0013445616 0.63110656
-0.037744157 0.0013479888 0.63152277
-0.031148246 -0.008125633 0.63227916
-0.029815935 -0.0081316233 0.63239962
0.0054261829 -0.0040696263 0.63255364
0.0081497794 -0.0040749013 0.632765
-0.024420699 0.0013567209 0.63257301
-0.033885825 0.0027108788 0.63241935
-0.045982245 0.0040572882 0.63205552
-0.023124607 -0.0081616342 0.63300335
0.023256354 -0.0041040182 0.63393885
-0.034007363 0.0040808916 0.63300622
-0.0286403 0.0040915012 0.63343227
-0.0286403 0.0040915012 0.63343227
-0.061299715 0.0095355213 0.63323814
0.032930784 -0.006860584 0.63443315
0.032863606 -0.0054772794 0.63409531
0.032982692 -0.0041228235 0.63469428
0.017866664 -0.0013743341 0.63470387
-0.0054961396 0.0027480721 0.63466489
-0.0054961396 0.0027480721 0.63466489
-0.023329426 0.00548926 0.63445771
-0.023329426 0.00548926 0.63445771
-0.055062588 0.012389094 0.63497013
-0.055062588 0.012389094 0.63497013
-0.037258305 -0.0096595287 0.63537729
0.0027592459 -0.0082777143 0.63533938
0.039940152 -0.006886214 0.6350525
0.049683686 -0.0055204034 0.6353972
0.051097367 -0.0055240393 0.63550675
0.026215667 -0.0013797879 0.63535738
0.022113284 -0 0.63563597
0.0096526546 0.0013789535 0.6352582
0.0013785362 0.0027571023 0.63520813
0.0013785362 0.0027571023 0.63520813
0.0041410453 0.0027607083 0.63542688
-0.019390807 0.0083103776 0.63599533
-0.044121012 0.011030257 0.63523781
-0.049686443 0.012421608 0.63540643
-0.068877392 0.01515305 0.6350888
-0.064872392 0.015182942 0.63541669
-0.062193427 0.01520282 0.6356355
-0.062193427 0.01520282 0.6356355
-0.067790531 0.016601801 0.63580495
-0.06397102 -0.011125386 0.63667333
-0.062627524 -0.01113376 0.63679993
0.055546548 -0.0069433153 0.63643068
0.059847783 -0.0069590509 0.6368103
0.042954918 -0.0027712584 0.63606596
0.020793354 0.0013862252 0.63613611
0.0055655632 0.0055655539 0.63675988
-0.026325585 0.0096989274 0.63605565
-0.015321901 0.0097503066 0.63694203
-0.015321901 0.0097503066 0.63694203
-0.059725527 0.016667604 0.6364671
-0.055879895 -0.01117599 0.63743663
-0.055879895 -0.01117599 0.63743663
0.043431073 0.0014010072 0.63792002
0.016785553 0.0055951774 0.63765377
-0.011206657 0.011206686 0.63789952
-0.011206657 0.011206686 0.63789952
-0.019605663 0.012603641 0.6378479
-0.039135475 0.01537466 0.63752091
-0.051596314 0.016733915 0.63713455
-0.051596314 0.016733915 0.63713455
-0.04340199 0.016800761 0.63780683
-0.058589883 0.018134981 0.63719517
-0.057232898 0.018147022 0.63730717
-0.065588683 0.019537061 0.63725632
-0.065588683 0.019537061 0.63725632
0 -0.0098589361 0.63881522
0.06461449 -0.0014046431 0.63836193
0.06461449 -0.0014046431 0.63836193
0.042157803 0.0028105378 0.63843405
0.02670153 0.0056214035 0.63844407
-0.0014021912 0.0098153651 0.63806361
-0.0084474366 0.012671143 0.63875347
-0.015492645 0.01408422 0.6388157
-0.044938121 0.018256128 0.63832009
0.028230371 0.0070575774 0.63918948
0.012704425 0.0098812282 0.63919961
0.01840025 0.0099078119 0.63965851
0.01840025 0.0099078119 0.63965851
-0.012692786 0.014103085 0.63904357
-0.02262708 0.016970307 0.63951224
-0.028313249 0.01840362 0.63968968
-0.040958874 0.019773245 0.63929284
-0.057872087 0.02258423 0.63918895
-0.062212922 0.024036825 0.63948053
-0.026972409 -0.011356801 0.64016509
-0.026972409 -0.011356801 0.64016509
0.052630834 0.0056898296 0.64050961
0.0056908648 0.014227152 0.64054114
-0.011374745 0.017062157 0.64043576
-0.02420556 0.019934028 0.64067876
-0.037072659 0.022813946 0.64092201
-0.061067771 0.02556327 0.64023507
-0.069828928 0.02850163 0.64082652
0.058699839 0.0071585178 0.641626
0.034352347 0.011450797 0.64158309
0.017165514 0.014304578 0.64147592
-0.0085748145 0.018578768 0.64131612
-0.0086072478 0.020083576 0.64196861
-0.018630544 0.021496803 0.64179683
-0.062916793 0.028598577 0.6414116
-0.070092306 0.030039549 0.64147538
0.044720713 -0.010098219 0.64294183
0.050283898 0.010056764 0.64222711
0.040187165 0.01148206 0.64205486
0.048999462 0.011529267 0.64276761
0.030224737 0.014392734 0.6425398
0.005755655 0.018705904 0.64249635
-0.014415167 0.023064286 0.64281058
-0.054559778 0.0287157 0.64211851
-0.046134163 0.028833866 0.6428318
-0.066185802 0.03165406 0.64248526
-0.036139008 -0.013010055 0.64329863
0.0072317389 -0.011570752 0.64339375
0.057884388 0.011576891 0.64348567
0.0638486 0.011608869 0.64396787
0.027517414 0.017379433 0.64362758
0.01013166 0.020263314 0.64351833
0.01013166 0.020263314 0.64351833
-0.024668699 0.027570933 0.64396739
-0.039059639 0.028933078 0.64343065
-0.062715255 -0.014584929 0.64485991
0.023343112 -0.011671543 0.64491427
0.01896669 0.02188465 0.64491814
-0.023322951 0.029153705 0.64476216
-0.032058973 0.03060177 0.64470685
-0.030622993 0.030623019 0.64482898
-0.040789496 0.032048911 0.64465153
-0.011720805 -0.013185889 0.64565742
0.037983686 0.018991858 0.64515167
0.045446161 0.019058108 0.64576662
0.02635302 0.021960855 0.64553142
0.023482893 0.023482919 0.64596885
0.023482893 0.023482919 0.64596885
-0.02640472 0.032272458 0.64587808
-0.049897734 0.03668952 0.64595675
-0.049897734 0.03668952 0.64595675
-0.068884499 0.039571971 0.64572108
-0.044209741 -0.014736563 0.64669043
-0.0014732997 -0.013259709 0.6466471
0.055981379 0.019151539 0.6466344
0.030929171 0.023565054 0.64658892
0.0088470522 0.028015703 0.64679307
0.063570097 0.019218862 0.64725965
0.069679566 0.019273072 0.64776301
0.054682404 0.02069065 0.64720273
0.034054816 0.025170952 0.64753366
0.038578339 0.025224298 0.6479125
0.038578339 0.025224298 0.6479125
-0.014809271 0.034061342 0.64756787
-0.035469558 0.036947489 0.64720219
-0.0296413 0.037051648 0.6477052
-0.038521368 0.038521379 0.64764798
-0.059142377 0.041399658 0.64728206
-0.051932052 0.041545659 0.64791137
-0.073984452 0.044390708 0.64741838
-0.069950372 -0.01637134 0.64845854
-0.069950372 -0.01637134 0.64845854
0.049015142 0.023764938 0.64809656
0.050735019 0.025367528 0.64892936
0.032807305 0.028333575 0.64881289
-0.023780089 0.037156403 0.648211
-0.023780089 0.037156403 0.648211
-0.046127163 0.041663259 0.64841831
-0.056484815 0.043106884 0.64823359
-0.055037327 0.043137372 0.64836073
0.025461094 0.031451941 0.64959383
0.010492127 0.034474134 0.64973438
-0.013442805 0.037341118 0.64910305
-0.011957663 0.037367731 0.64923131
-0.016471589 0.03893286 0.64955831
-0.046308998 0.043321311 0.64912641
-0.041916791 0.043413848 0.6495114
-0.045024525 0.045024514 0.6499688
-0.07196907 0.04947871 0.64979231
0.0645772 0.025530487 0.65008688
0.06612628 0.025548786 0.65021658
0.069231093 0.025585413 0.65047657
0.042099502 0.03007108 0.65029913
0.03319902 0.033199012 0.65096211
-0.010511865 0.039044052 0.65007472
-0.028626997 0.043693841 0.65067703
-0.043727994 0.046743721 0.65081918
-0.051287267 0.048270375 0.65089005
0.063533328 0.02874127 0.65140295
0.037807532 0.033270657 0.65135503
0.031793736 0.034821719 0.65155858
0.0015163679 0.040941924 0.65184593
-0.018171342 0.04391408 0.65159369
-0.031720974 0.045315683 0.65114033
-0.033417571 -0.016708761 0.65216124
0.074497573 0.028886795 0.65232766
0.054657295 0.031883448 0.6520741
0.015201531 0.039523989 0.65230286
0 0.04259786 0.65244758
-0.012198111 0.045742929 0.65285945
0.018341908 0.041269332 0.65330946
-0.029089339 0.050523579 0.65361434
-0.041263685 0.05196169 0.65328443
-0.041263685 0.05196169 0.65328443
-0.055382017 -0.018460661 0.65450418
-0.0061674509 -0.016960502 0.65492344
-0.0061674509 -0.016960502 0.65492344
0.072221071 0.033805609 0.65429044
0.052384198 0.038517803 0.65478444
0.035438795 0.041602045 0.6547972
0.0030717985 0.046076953 0.65420359
0.0076963813 0.046178311 0.65461123
-0.0092362594 0.04926008 0.65462327
-0.024549974 0.050634325 0.65401942
-0.024549974 0.050634325 0.65401942
-0.056820702 0.05682072 0.65417886
-0.056820702 0.05682072 0.65417886
-0.066012777 0.058336884 0.65411687
-0.072235167 0.059939802 0.65432662
-0.06777297 0.060071528 0.65473413
0.0015483394 -0.017031699 0.65570521
0.038576905 0.041663021 0.65506995
-0.01081163 0.050969124 0.65524399
-0.02322045 0.054181039 0.6556679
-0.034020215 0.055669457 0.65546793
-0.077915289 -0.02025795 0.65690827
0.0093292231 -0.017103583 0.65649366
0.051222246 0.041909099 0.65616989
0.057601091 0.042033225 0.65672481
0.038893517 0.045116484 0.65659863
0.034290869 0.046760291 0.65695292
0.0046678367 0.051346213 0.65662336
-0.017148828 0.056123435 0.65699017
-0.026493819 0.057663023 0.65692687
0.021916158 -0.017219841 0.65776944
0.071795948 0.040580302 0.65720713
0.071795948 0.040580302 0.65720713
0.062410232 0.042126924 0.65714365
0.037463702 0.046829611 0.65723205
0.040646099 0.046899319 0.65751255
0.015640514 0.051613718 0.65760183
0.015640514 0.051613718 0.65760183
-0.015730899 0.059777439 0.6586929
0.067799948 0.045725554 0.65913385
0.053693283 0.048955649 0.65943217
0.053693283 0.048955649 0.65943217
0.034719042 0.052078605 0.65930229
0.034719042 0.052078605 0.65930229
0.028439447 0.053718954 0.65952331
0.014242103 0.056968451 0.65982342
0.0031614499 0.058486789 0.65961456
0.06836842 0.049288869 0.66072965
0.027064707 0.057313502 0.66098052
0.011106835 0.058707565 0.66033465
-0.078365393 -0.022390127 0.66185594
0.060725074 -0.017578304 0.66170323
0.046200957 0.054166675 0.66111267
0.046200957 0.054166675 0.66111267
0.02247576 -0.019264936 0.66259444
0.070604049 0.052953035 0.66250098
0.033920608 -0.019383222 0.66378415
0.035567001 -0.01940015 0.66395485
0.072571173 0.054831564 0.66347337
0.049882147 0.057927698 0.6630398
0.043497134 0.059607178 0.66326964
0.045142762 0.059652925 0.66341889
0.042032432 0.061432034 0.66394889
0.07288108 0.056685269 0.66430473
0.07623782 0.056772858 0.66460663
0.066481829 0.058374316 0.66453743
0.043682691 0.06147933 0.66409922
0.001628549 -0.021171093 0.66538733
0.001628549 -0.021171093 0.66538733
0.048843339 -0.01953733 0.66533452
0.0033467489 -0.023427218 0.6707983
-0.04355941 -0.025130421 0.67103815
-0.040281802 -0.025176138 0.67140591
0.025400495 -0.023707151 0.67321151
0.079785772 -0.022068411 0.67371893
0.040979709 -0.02390483 0.67491615
0.053277675 -0.024060905 0.67626166
-0.027799236 -0.027799278 0.6785332
-0.073201224 -0.029629052 0.67918909
-0.017473394 -0.027957439 0.67972666
-0.047735218 -0.030055523 0.68221712
0.014221502 -0.028442979 0.68339002
0.034138348 -0.028748065 0.6856916
0.06199649 -0.029174805 0.68891108
-0.042005748 -0.032874018 0.68926239
-0.02942552 -0.033103704 0.69080251
-0.016668361 -0.033336699 0.69236517
0 -0.033641011 0.69440579
0.015073896 -0.033916295 0.69625163
-0.030312289 -0.035995841 0.69749272
0.032329548 -0.034231275 0.69836426
0.047939334 -0.034516305 0.70027572
0 -0.036597818 0.70131737
-0.046486747 -0.038738966 0.70261443
0.013582796 -0.036867589 0.70303106
-0.084200919 -0.041121393 0.70517504
-0.061486959 -0.041652441 0.70822775
0.0079827532 -0.039913803 0.709705
-0.04601568 -0.042014331 0.71030784
-0.055544589 -0.045258552 0.71713096
0.0061764335 -0.043235004 0.71732461
0.074424267 -0.041346818 0.71835428
-0.0063415691 -0.046504825 0.7239691
-0.06153525 -0.048803806 0.72494078
-0.028102512 -0.04971981 0.72974825
-0.078402281 -0.052268207 0.73169279
0.065911159 -0.048334837 0.73401016
-0.020246737 -0.053991318 0.74035943
-0.013547484 -0.05418998 0.74135846
-0.0045380746 -0.05445689 0.74270117
-0.020659849 -0.0066645294 0.62970042
-0.039034508 -0.0052928478 0.62852979
-0.041196436 -0.0033211261 0.62921864
-0.049241863 -0.0013308525 0.6294533
-0.049241863 -0.0013308525 0.6294533
-0.035133634 -0.0081077814 0.63191968
-0.01072144 -0.0067009032 0.63057816
-0.0047057932 -0.0067229122 0.6311096
-0.028896879 -0.00134404 0.6310454
-0.024912484 -0.001346603 0.63135707
-0.028999649 1.4901161e-08 0.63162243
-0.043178916 0.0026986897 0.63168401
-0.04928381 0.0040507317 0.63179338
-0.061271276 -0.0095310807 0.6331619
0.0088042766 -0.0067723244 0.63230264
0.023205029 -0.0068250299 0.63357443
-0.0027122973 -0.0027123094 0.63250577
-0.010904521 0.00068277121 0.63334066
-0.050782278 0.0054168254 0.63227051
-0.040750198 0.0047554225 0.63277024
-0.038750064 0.0047600493 0.63292944
-0.021892199 0.0041047931 0.633968
-0.059207514 0.0088483766 0.63310307
0.030891225 -0.0041187853 0.63453186
-0.0013717535 0.0013717711 0.6343894
0.008944232 0.00068925321 0.63490218
-0.024865516 0.0082885027 0.63555598
-0.048834465 0.011005014 0.63485676
-0.065185115 0.013038315 0.63445818
0.051264711 -0.006927669 0.63605273
0.048804443 -0.0013943911 0.6371246
-0.018521095 0.0092614098 0.63647789
-0.040964589 0.013193332 0.63642752
-0.06479311 0.018812254 0.637003
-0.051103707 0.018201426 0.63781208
-0.03115923 -0.011330605 0.63977009
0.06461449 -0.0014046431 0.63836193
0.052962959 0.002824679 0.63928854
0.046639878 0.0042400062 0.63940811
0.053160928 0.0042528808 0.63992578
0.012680871 0.0091597289 0.63888371
0.026900893 0.0084950626 0.63971072
0.00070463959 0.011270463 0.63886237
-0.016827293 0.012620479 0.63807362
-0.0049357074 0.012692422 0.63903874
-0.0049357074 0.012692422 0.63903874
-0.025280111 0.014748037 0.6383363
-0.032998469 0.018858016 0.63951969
-0.043194618 0.021243393 0.63975757
-0.055122983 0.022614568 0.63941777
-0.062898487 0.024028733 0.63942313
-0.062898487 0.024028733 0.63942313
0.058699839 0.0071585178 0.641626
0.048629735 0.0085817277 0.64145494
0.019258486 0.01283884 0.64100236
0.01478292 0.014784416 0.64149797
-0.0050102398 0.018610388 0.64160955
-0.0050102398 0.018610388 0.64160955
-0.010747822 0.020063087 0.64179164
-0.039171457 0.022790819 0.64074743
-0.050864372 0.027223289 0.6417591
0.064848073 0.0086464286 0.64275646
0.043116607 0.011497796 0.6422919
0.020935513 0.017325759 0.64308757
0.00071798341 0.018661216 0.64208138
-0.007191245 0.020855978 0.64241612
-0.030924981 0.025173068 0.64243233
-0.018844221 0.026092023 0.64378095
-0.033364851 0.029012918 0.64391255
-0.033364851 0.029012918 0.64391255
-0.065038279 0.033241779 0.64326662
-0.05871585 0.033344939 0.64380813
0.023343112 -0.011671543 0.64491427
0.065344848 0.011616856 0.64408898
0.068606608 0.01313743 0.64500737
0.05907958 0.014587492 0.64489067
0.037097685 0.017457619 0.64441419
0.04518427 0.016763315 0.64474684
0.046674147 0.016774938 0.64486873
0.060814478 0.01611945 0.6456939
0.039472055 0.01900503 0.64527446
0.027042596 0.02119676 0.6452527
0.014615571 0.023384929 0.6452297
-0.039209198 0.030496061 0.64409924
-0.027023971 0.030676171 0.64513451
-0.045414317 0.035159469 0.64564258
-0.045414317 0.035159469 0.64564258
-0.073128521 0.039489418 0.64535201
-0.06295424 0.038065374 0.64553082
0.054682404 0.02069065 0.64720273
0.054682404 0.02069065 0.64720273
0.041361578 0.022898033 0.64711785
0.025162909 0.026643068 0.64747661
0.011092354 0.028840892 0.64732873
0.011092354 0.028840892 0.64732873
-0.016152665 0.03083691 0.64605862
-0.016152665 0.03083691 0.64605862
-0.02514999 0.035505891 0.64738488
-0.031101421 0.037025481 0.64757901
-0.025315389 -0.014891416 0.64855933
0.013366588 -0.01336658 0.64808077
0.050935425 0.026965827 0.64964086
0.0074250894 0.031185389 0.64806163
0.026978044 0.031474382 0.64972287
-0.049421187 0.044928342 0.64958191
-0.069096267 0.04672901 0.64882058
-0.0090150116 -0.01502502 0.65017217
0.049121425 0.030985638 0.65124863
0.037038382 0.033258751 0.65128964
0.022612086 0.034671873 0.65077209
0.0030108241 0.037635297 0.65052342
0.015110742 0.037022829 0.65120691
0.00075516221 0.039254397 0.65105116
-0.024855264 0.042933784 0.65064216
-0.018883798 0.043057188 0.65116477
-0.058736004 0.048948199 0.65060055
-0.043160889 0.048461661 0.65161157
-0.06496077 0.051364332 0.65116364
-0.06668938 0.053048372 0.65176141
0.057003867 -0.013680845 0.65229583
0.068768583 0.032092005 0.65327311
0.030562952 0.038969308 0.65326786
0.030562952 0.038969308 0.65326786
-0.0030383125 0.042536408 0.65218246
0.010703704 0.042814821 0.6533829
-0.010659667 0.044924423 0.65262347
0.0030594091 0.044361442 0.65345579
-0.028856361 0.04708147 0.65213418
-0.016871369 0.049080342 0.65394545
-0.047430206 0.053550214 0.65349227
-0.058821283 0.055001974 0.65322983
-0.052863605 0.055162311 0.65376747
0.052959125 0.03684096 0.6540997
0.052959125 0.03684096 0.6540997
0.066418864 0.037071019 0.65525681
0.044789761 0.040930152 0.65523869
0.048739113 0.041005135 0.65558153
0.03715783 0.043350846 0.65569359
0.020825557 0.044735774 0.65501398
0.020910645 0.046467453 0.65577477
0.00077365257 0.049495608 0.65551192
0.0062029297 0.04962346 0.65599412
-0.021512588 0.050708234 0.65428978
-0.0031004171 0.051156908 0.65593082
-0.023126056 0.052419096 0.65490824
-0.015474115 0.052612007 0.65559316
-0.032497767 0.055710465 0.65560544
-0.047061779 0.057091698 0.65506291
-0.052541453 0.058722824 0.65534276
-0.040334929 -0.01861611 0.65606785
0.06486661 -0.015630409 0.65748012
0.076021567 0.037235022 0.65608197
0.070989475 0.040565237 0.65713716
0.040646099 0.046899319 0.65751255
0.032842796 0.048482239 0.65758872
-0.013221247 0.054441631 0.6565665
-0.017283047 -0.018854231 0.65846306
0.072991461 -0.015697017 0.65828383
0.065091118 0.043916717 0.65813327
0.047431588 0.050593704 0.65965408
0.026839288 0.053678572 0.65937996
0.0047260188 0.05671224 0.6589644
-0.018848844 0.059688002 0.65840882
-0.0071078567 0.06002441 0.65947741
0.074954994 0.049438417 0.66131192
0.058808457 0.050861329 0.66066384
0.068656474 0.051093191 0.6615383
0.046818923 0.052373379 0.66038066
0.033393834 0.055656374 0.66075617
0.054372676 0.054372638 0.66184425
0.024916824 -0.019290179 0.66284823
0.06923946 0.054747462 0.66317487
0.043313153 0.057750881 0.66244709
0.036939904 0.059425056 0.66267544
0.036939904 0.059425056 0.66267544
-0.0048684329 -0.021096557 0.66469473
0.06953492 0.056598186 0.66400433
0.06508857 0.06020692 0.66522622
0.06508857 0.06020692 0.66522622
0.014761328 -0.021321923 0.66678745
0.07253404 -0.019782007 0.66779578
0.074249111 -0.019799769 0.66797435
-0.064575598 -0.024836749 0.66867501
-0.064575598 -0.024836749 0.66867501
-0.046824969 -0.025084794 0.67067099
-0.046824969 -0.025084794 0.67067099
-0.04355941 -0.025130421 0.67103815
0.048426341 -0.021708339 0.6703757
-0.018683802 -0.025477916 0.67383456
0.028840242 -0.023750782 0.67358798
-0.015314987 -0.025524974 0.67421329
0.012960374 -0.025919929 0.67739165
0.060377508 -0.024150997 0.67703867
0.033189878 -0.02620253 0.6796658
-0.058859531 -0.029869214 0.68089443
-0.032100782 -0.030317396 0.68407673
-0.068384074 -0.032392472 0.68603277
-0.052650604 -0.032679707 0.68795896
0.045183271 -0.028917253 0.68696821
0.0091198757 -0.031007588 0.68897748
0.058234368 -0.029117167 0.68847632
0.058234368 -0.029117167 0.68847632
0.069565602 -0.029290766 0.68978596
-0.02942552 -0.033103704 0.69080251
0.020790355 -0.034020573 0.69695121
-0.076196164 -0.038098067 0.69874632
-0.01338548 -0.036332041 0.69962847
0.032329548 -0.034231275 0.69836426
-0.059606582 -0.038455844 0.7009058
0.059818335 -0.034733236 0.70173037
-0.038902555 -0.038902521 0.70360178
0.0077371662 -0.036751509 0.70229375
0.07386712 -0.034989715 0.7034502
-0.03817879 -0.042197615 0.71136141
-0.0040947343 -0.042994678 0.71594322
-0.051545288 -0.04535985 0.71768677
0.067993499 -0.041208178 0.71751755
0.067993499 -0.041208178 0.71751755
-0.047528047 -0.045461595 0.71824515
-0.083814166 -0.048193157 0.72173572
-0.083814166 -0.048193157 0.72173572
0.065884382 -0.044631362 0.72535086
-0.040785767 -0.049372226 0.72792393
-0.01954733 -0.049954295 0.73097873
0.047878087 -0.047878087 0.73150396
0.050113443 -0.047934592 0.73181403
-0.065989345 -0.056887358 0.74348062
0.065939493 -0.052296877 0.74327314
-0.061590496 -0.057028204 0.74416077
0.020701747 -0.05520466 0.74646211
0.020701747 -0.05520466 0.74646211
0.030052608 -0.055481762 0.74785572
0.046644367 -0.055973262 0.75032783
-0.041951969 -0.0052853376 0.62830389
-0.041951969 -0.0052853376 0.62830389
-0.021985022 -0.0054109832 0.62992054
-0.057875987 -0.0019831657 0.6284914
-0.05394233 0.0013406774 0.63024759
-0.057921592 0.0047157956 0.6314047
0.018043607 -0.0057863612 0.63317978
0.026093256 -0.005468498 0.63385403
0.026093256 -0.005468498 0.63385403
-0.016227122 -0.0013522804 0.63203639
-0.0020567509 0.0013746321 0.63433671
0.0058559706 0.0017256085 0.6351108
-0.03473033 0.0096626757 0.63537991
-0.062290639 -0.011135869 0.63683164
0.050005436 0.0014087161 0.63843966
0.0017399054 0.0062626563 0.63676316
0.049896009 0.0042464212 0.63966656
-0.045653969 -0.012941509 0.6423794
-0.030094907 -0.013053551 0.64388227
0.0097770561 -0.011586666 0.64363378
0.0097770561 -0.011586666 0.64363378
0.022092521 -0.0099771172 0.64085382
0.041907288 0.0071029067 0.64028299
0.065896399 0.0060918219 0.64172655
0.03008892 0.017400414 0.64383888
0.03008892 0.017400414 0.64383888
-0.06990996 0.026970595 0.64015353
-0.054026373 0.026036859 0.64099425
-0.04196915 0.026190035 0.64200771
-0.04196915 0.026190035 0.64200771
-0.013901575 -0.013170183 0.6454466
0.037860923 -0.011762373 0.64628452
0.050118383 0.014526993 0.64416045
0.042001411 0.018262599 0.64514965
0.0061875801 0.023291826 0.64452732
0.061909869 0.02075997 0.64780045
0.061909869 0.02075997 0.64780045
0.0059201708 0.030096691 0.64746928
0.0059201708 0.030096691 0.64746928
-0.010361708 0.033059038 0.64748073
-0.010361708 0.033059038 0.64748073
-0.061773729 0.04217083 0.64741099
-0.028979409 -0.01486139 0.64819694
0.022068294 0.03046263 0.64889663
0.053971507 0.029630437 0.65103948
-0.02198416 0.038009234 0.64872348
-0.02198416 0.038009234 0.64872348
-0.053949658 0.043160312 0.64845622
-0.0022701814 0.040868163 0.6515162
-0.069985263 0.0529624 0.65146482
0.058180533 -0.013689324 0.65240955
0.06613791 0.030408099 0.65233326
0.037877105 0.038263053 0.65353459
0.057365619 0.040311009 0.65595663
0.017750461 0.045534633 0.65512025
-0.053920768 0.051642656 0.65215194
-0.029971318 0.049637176 0.65315926
-0.0057932171 0.050216213 0.65531003
-0.0057932171 0.050216213 0.65531003
-0.040334929 -0.01861611 0.65606785
0.0058206227 -0.017071195 0.65613818
0.066690467 0.038773566 0.65601927
0.058400825 0.042053234 0.65679657
0.046143141 0.046144471 0.65761542
0.046143141 0.046144471 0.65761542
0.029813731 0.049709994 0.65788567
-0.022546489 0.055978209 0.6565032
0.001971507 0.057545923 0.65911126
-0.041729484 0.060840413 0.65711403
0.029817421 -0.019340783 0.6633575
0.077599362 0.050401084 0.66193891
0.061856609 0.05365058 0.6621176
0.062043574 0.056402981 0.66333103
-0.025936518 -0.023055591 0.66759378
-0.0056769876 -0.021087289 0.66460872
0.051750459 0.059836477 0.66401768
-0.069356076 -0.024770021 0.66813791
-0.054128893 -0.02498275 0.66984975
0.0058651785 -0.023459196 0.67107379
-0.01784236 -0.025489658 0.67392898
0.049747773 -0.024016172 0.67587608
-0.042228788 -0.02757822 0.67686594
-0.064793155 -0.029769808 0.6801886
0.0061954292 -0.028320029 0.68246222
-0.058363028 -0.032575391 0.68725955
0.074074179 -0.026773632 0.68426174
-0.078380726 -0.035041019 0.6914264
0.026699241 -0.03130199 0.69106817
0.026699241 -0.03130199 0.69106817
0.010337347 -0.033829734 0.69567144
-0.025641352 -0.036088511 0.69808149
-0.025641352 -0.036088511 0.69808149
0.018482998 -0.036964968 0.7036497
0.030348439 -0.03720066 0.70514721
0.042366169 -0.037439391 0.70666391
0.077269383 -0.038132668 0.71106839
-0.074299589 -0.044783667 0.71452528
-0.074299589 -0.044783667 0.71452528
-0.032256175 -0.042336226 0.7121582
-0.0051150154 -0.042970881 0.71580631
0.017608691 -0.043502375 0.71886134
0.021800801 -0.043600425 0.71942496
0.066926397 -0.041185126 0.71737838
-0.030251201 -0.045899257 0.7206465
-0.066647455 -0.048663646 0.72420514
-0.041834142 -0.049343556 0.72777343
0.030182645 -0.04742986 0.72904468
-0.041140437 -0.053372249 0.7372458
0.038090248 -0.051533878 0.73926878
0.065939493 -0.052296877 0.74327314
0.054236062 -0.051976234 0.74159044
-0.061590496 -0.057028204 0.74416077
-0.061590496 -0.057028204 0.74416077
-0.0093919588 -0.058699727 0.7522316
