# .PCD v0.7 - Point Cloud Data file format
VERSION 0.7
FIELDS x y z
SIZE 4 4 4
TYPE F F F
COUNT 1 1 1
WIDTH 1367
HEIGHT 1
VIEWPOINT 0 0 0 1 0 0 0
POINTS 1367
DATA ascii
0.025339987 -0.01036635 0.60784078
0.025339987 -0.01151818 0.60784084
0.025339987 -0.01267001 0.60784078
0.025339987 -0.01382181 0.60784078
0.025339987 -0.014973611 0.60784084
0.025339987 -0.016125411 0.60784078
0.025339987 -0.017277271 0.60784078
0.025339987 -0.018429071 0.60784078
0.025339987 -0.019580901 0.60784084
0.025339987 -0.020732731 0.60784084
0.025339987 -0.021884501 0.60784078
0.025339987 -0.023036361 0.60784084
0.025339987 -0.024188161 0.60784084
0.025339987 -0.025339991 0.60784078
0.025339987 -0.026491821 0.60784084
0.025339987 -0.027643621 0.60784078
0.025339987 -0.028795421 0.60784078
0.025400227 -0.030018449 0.60817134
0.025510358 -0.031308144 0.60877562
0.025621448 -0.032609105 0.60938513
0.025733512 -0.033921435 0.60999995
0.025846558 -0.035245314 0.61062026
0.025960602 -0.036580846 0.61124605
0.026075657 -0.037928224 0.61187732
0.026191736 -0.039287612 0.61251426
0.026308853 -0.040659145 0.61315686
0.026427025 -0.042042986 0.61380517
0.02654626 -0.043439329 0.6144594
0.026666576 -0.044848338 0.61511964
0.026787991 -0.046270147 0.61578578
0.026910514 -0.04770498 0.61645806
0.027034162 -0.049153 0.61713648
0.027158951 -0.050614387 0.61782122
0.0272849 -0.052089348 0.61851227
0.027412023 -0.053578049 0.61920977
0.027540335 -0.055080652 0.61991376
0.027669853 -0.056597397 0.62062442
0.027800595 -0.058128521 0.62134176
0.047445677 0.057759941 0.71781284
0.044833712 0.052630901 0.70410454
0.042494331 0.048037052 0.6918267
0.040386975 0.043898851 0.6807667
0.038478617 0.040151596 0.67075109
0.036742598 0.036742598 0.66163993
0.035156462 0.033627927 0.65331542
0.033701494 0.030770928 0.64567935
0.032362267 0.028141111 0.63865072
0.03112541 0.025712311 0.63215929
0.029979533 0.023462236 0.62614542
0.028915105 0.02137208 0.62055898
0.027923673 0.019425154 0.61535567
0.026997909 0.017607361 0.610497
0.026831023 0.016331941 0.60962111
0.026831023 0.015165359 0.60962117
0.026831023 0.013998806 0.60962111
0.026831023 0.012832195 0.60962117
0.026831023 0.011665672 0.60962111
0.026831023 0.01049912 0.60962111
0.026831023 0.0093325377 0.60962111
0.026831023 0.0081659555 0.60962117
0.026831023 0.0069994032 0.60962117
0.026831023 0.0058328509 0.60962105
0.026831023 0.0046662688 0.60962117
0.026831023 0.0034996867 0.60962111
0.026831023 0.0023331344 0.60962117
0.026831023 0.0011665523 0.60962111
0.026831023 -0 0.60962117
0.026831023 -0.0011665523 0.60962111
0.026831023 -0.0023331344 0.60962117
0.026831023 -0.0034996867 0.60962111
0.026831023 -0.0046662688 0.60962111
0.026831023 -0.0058328211 0.60962111
0.026831023 -0.0069994032 0.60962111
0.026831023 -0.0081659555 0.60962111
0.026831023 -0.0093325078 0.60962117
0.026831023 -0.01049909 0.60962111
0.026831023 -0.011665612 0.60962111
0.026831023 -0.012832224 0.60962111
0.026831023 -0.013998747 0.60962111
0.026831023 -0.015165359 0.60962111
0.026831023 -0.016331911 0.60962111
0.026831023 -0.017498493 0.60962111
0.026831023 -0.018665075 0.60962111
0.026831023 -0.019831628 0.60962111
0.026831023 -0.02099818 0.60962111
0.026831023 -0.022164762 0.60962117
0.026831023 -0.023331344 0.60962111
0.026831023 -0.024497896 0.60962117
0.026831023 -0.025664449 0.60962111
0.026831023 -0.026831031 0.60962117
0.026831023 -0.027997583 0.60962111
0.026831023 -0.029164135 0.60962111
0.026831023 -0.030330718 0.60962111
0.026831023 -0.031497285 0.60962117
0.026831023 -0.032663867 0.60962117
0.026831023 -0.033830389 0.60962111
0.026837848 -0.035005897 0.60965693
0.026955457 -0.036331266 0.6102742
0.027074104 -0.037668318 0.61089689
0.027193798 -0.0390172 0.61152512
0.027314557 -0.040378049 0.61215889
0.027436392 -0.041751042 0.61279827
0.027559318 -0.043136343 0.61344349
0.027683351 -0.044534057 0.61409438
0.027808506 -0.045944497 0.61475122
0.027934799 -0.047367737 0.61541408
0.028062241 -0.048803911 0.61608291
0.028190855 -0.050253257 0.61675793
0.028320652 -0.05171597 0.61743915
0.028451648 -0.053192228 0.61812663
0.028583862 -0.05468218 0.61882055
0.028717311 -0.05618605 0.6195209
0.028852012 -0.057704017 0.62022781
0.028987983 -0.059236288 0.62094146
0.048751764 0.056877106 0.71400654
0.046106696 0.051870018 0.70070291
0.043733712 0.047378212 0.68876767
0.041593183 0.043326229 0.6780017
0.039652415 0.039652437 0.66824037
0.037884559 0.036306024 0.65934873
0.036267724 0.033245474 0.65121669
0.034783252 0.030435354 0.64375037
0.033415519 0.027846277 0.63687122
0.032151189 0.025453031 0.63051212
0.030979132 0.023234338 0.6246171
0.029889524 0.021171749 0.61913681
0.028873885 0.01924926 0.61402851
0.02836081 0.017725497 0.61144799
0.02836081 0.016543835 0.61144793
0.02836081 0.015362084 0.61144799
0.02836081 0.014180452 0.61144793
0.02836081 0.0129987 0.61144793
0.02836081 0.011817038 0.61144799
0.02836081 0.010635316 0.61144793
0.02836081 0.0094536245 0.61144793
0.02836081 0.0082719326 0.61144799
0.02836081 0.0070901811 0.61144793
0.02836081 0.005908519 0.61144799
0.02836081 0.0047268271 0.61144799
0.02836081 0.0035451055 0.61144799
0.02836081 0.0023634136 0.61144799
0.02836081 0.0011816919 0.61144799
0.02836081 -0 0.61144799
0.02836081 -0.0011816919 0.61144799
0.02836081 -0.0023634136 0.61144799
0.02836081 -0.0035451055 0.61144799
0.02836081 -0.0047268271 0.61144799
0.02836081 -0.005908519 0.61144799
0.02836081 -0.0070901811 0.61144799
0.02836081 -0.0082719028 0.61144793
0.02836081 -0.0094535947 0.61144805
0.02836081 -0.010635287 0.61144793
0.02836081 -0.011817008 0.61144799
0.02836081 -0.0129987 0.61144793
0.02836081 -0.014180392 0.61144799
0.02836081 -0.015362084 0.61144793
0.02836081 -0.016543776 0.61144793
0.02836081 -0.017725497 0.61144799
0.02836081 -0.018907189 0.61144799
0.02836081 -0.020088911 0.61144799
0.02836081 -0.021270603 0.61144799
0.02836081 -0.022452295 0.61144793
0.02836081 -0.023634017 0.61144799
0.02836081 -0.024815708 0.61144799
0.02836081 -0.02599743 0.61144799
0.02836081 -0.027179092 0.61144799
0.02836081 -0.028360814 0.61144799
0.02836081 -0.029542506 0.61144799
0.02836081 -0.030724198 0.61144799
0.02836081 -0.03190589 0.61144799
0.02836081 -0.033087611 0.61144799
0.02836081 -0.034269318 0.61144799
0.02836081 -0.035451025 0.61144805
0.02836081 -0.036632732 0.61144799
0.02836081 -0.037814379 0.61144793
0.02836081 -0.03899613 0.61144805
0.02836081 -0.040177807 0.61144793
0.028431838 -0.041463092 0.6118052
0.02855834 -0.04283753 0.61244148
0.028685976 -0.044224218 0.61308348
0.028814759 -0.045623362 0.61373115
0.028944701 -0.047035143 0.61438471
0.02907582 -0.048459709 0.61504424
0.029208133 -0.049897239 0.61570966
0.029341657 -0.051347926 0.61638129
0.029476406 -0.052811906 0.61705899
0.0296124 -0.054289371 0.61774296
0.029749652 -0.05578059 0.6184333
0.029888187 -0.057285681 0.61913002
0.030028014 -0.058804855 0.61983335
0.053014066 0.061496317 0.72477871
0.050018527 0.056020766 0.71031487
0.047343209 0.051130682 0.69739735
0.044939723 0.046737313 0.68579233
0.042768482 0.042768478 0.6753087
0.040797237 0.039165378 0.66579056
0.038999829 0.03587988 0.65711194
0.037354112 0.032871634 0.64916575
0.035841558 0.030106902 0.64186251
0.034446828 0.027557492 0.63512814
0.033156581 0.025198996 0.62889826
0.031959414 0.023010761 0.6231178
0.030845767 0.020975143 0.61774063
0.029930811 0.019155741 0.61332285
0.029930811 0.017958522 0.61332285
0.029930811 0.016761243 0.61332285
0.029930811 0.015564054 0.61332285
0.029930811 0.014366806 0.61332285
0.029930811 0.013169557 0.61332285
0.029930811 0.011972308 0.61332285
0.029930811 0.010775089 0.61332285
0.029930811 0.0095778704 0.61332285
0.029930811 0.0083806217 0.61332285
0.029930811 0.0071834028 0.61332285
0.029930811 0.0059861541 0.61332285
0.029930811 0.0047889352 0.61332291
0.029930811 0.0035916865 0.61332291
0.029930811 0.0023944676 0.61332285
0.029930811 0.0011972189 0.61332291
0.029930811 2.9802322e-08 0.61332285
0.029930811 -0.0011972189 0.61332285
0.029930811 -0.0023944676 0.61332285
0.029930811 -0.0035916567 0.61332285
0.029930811 -0.0047889352 0.61332285
0.029930811 -0.0059861541 0.61332285
0.029930811 -0.007183373 0.61332285
0.029930811 -0.0083806217 0.61332285
0.029930811 -0.0095778406 0.61332285
0.029930811 -0.010775089 0.61332285
0.029930811 -0.011972308 0.61332285
0.029930811 -0.013169557 0.61332285
0.029930811 -0.014366776 0.61332285
0.029930811 -0.015564054 0.61332285
0.029930811 -0.016761243 0.61332291
0.029930811 -0.017958492 0.61332285
0.029930811 -0.019155711 0.61332285
0.029930811 -0.02035293 0.61332291
0.029930811 -0.021550149 0.61332285
0.029930811 -0.022747397 0.61332285
0.029930811 -0.023944646 0.61332285
0.029930811 -0.025141835 0.61332285
0.029930811 -0.026339114 0.61332285
0.029930811 -0.027536333 0.61332285
0.029930811 -0.028733552 0.61332285
0.029930811 -0.0299308 0.61332285
0.029930811 -0.031128019 0.61332285
0.029930811 -0.032325268 0.61332285
0.029930811 -0.033522516 0.61332285
0.029930811 -0.034719735 0.61332285
0.029930811 -0.035916969 0.61332285
0.029930811 -0.037114218 0.61332285
0.029930811 -0.038311452 0.61332285
0.029930811 -0.039508656 0.61332285
0.029930811 -0.040705904 0.61332285
0.029930811 -0.041903138 0.61332285
0.029930811 -0.043100372 0.61332285
0.029930811 -0.044297591 0.61332285
0.029930811 -0.045494854 0.61332285
0.029940521 -0.046707198 0.6133697
0.030075202 -0.048120305 0.61402005
0.0302111 -0.049546182 0.61467624
0.030348232 -0.050985038 0.61533833
0.030486615 -0.052437007 0.61600655
0.030626265 -0.053902209 0.61668074
0.030767202 -0.055380955 0.61736131
0.030909441 -0.056873366 0.61804807
0.031053001 -0.05837965 0.61874127
0.05426842 0.060530186 0.72075707
0.051247492 0.055189639 0.7067318
0.048545156 0.050412267 0.69418561
0.046113547 0.04611358 0.68289632
0.043913752 0.042224765 0.67268336
0.041914422 0.038690239 0.66340095
0.040089216 0.035463542 0.65492707
0.038416222 0.032506078 0.64715981
0.036877375 0.029785603 0.64001536
0.035457067 0.027274668 0.6334213
0.03414201 0.024949938 0.62731588
0.032921098 0.022791535 0.62164754
0.031784493 0.020782173 0.61637056
0.031542554 0.019410789 0.61524731
0.031542554 0.018197626 0.61524737
0.031542554 0.016984463 0.61524731
0.031542554 0.01577127 0.61524731
0.031542554 0.014558136 0.61524731
0.031542554 0.013344914 0.61524731
0.031542554 0.012131751 0.61524725
0.031542554 0.010918587 0.61524731
0.031542554 0.0097053945 0.61524731
0.031542554 0.0084922314 0.61524731
0.031542554 0.0072790682 0.61524731
0.031542554 0.0060658753 0.61524737
0.031542554 0.0048527122 0.61524731
0.031542554 0.0036395192 0.61524737
0.031542554 0.0024263561 0.61524731
0.031542554 0.0012131631 0.61524731
0.031542554 -0 0.61524725
0.031542554 -0.0012131929 0.61524731
0.031542554 -0.0024263561 0.61524737
0.031542554 -0.0036395192 0.61524731
0.031542554 -0.0048526824 0.61524725
0.031542554 -0.0060658753 0.61524731
0.031542554 -0.0072790384 0.61524737
0.031542554 -0.0084922016 0.61524731
0.031542554 -0.0097054243 0.61524731
0.031542554 -0.010918558 0.61524725
0.031542554 -0.012131751 0.61524731
0.031542554 -0.013344914 0.61524731
0.031542554 -0.014558077 0.61524731
0.031542554 -0.01577127 0.61524731
0.031542554 -0.016984433 0.61524731
0.031542554 -0.018197626 0.61524737
0.031542554 -0.019410819 0.61524737
0.031542554 -0.020623982 0.61524731
0.031542636 -0.021837205 0.61524767
0.031542636 -0.023050368 0.61524767
0.031542636 -0.024263561 0.61524773
0.031542636 -0.025476724 0.61524767
0.031542636 -0.026689917 0.61524773
0.031542636 -0.02790311 0.61524773
0.031542636 -0.029116273 0.61524773
0.031542636 -0.030329466 0.61524773
0.031542636 -0.031542629 0.61524767
0.031542636 -0.032755822 0.61524773
0.031542636 -0.033968985 0.61524767
0.031542636 -0.035182148 0.61524767
0.031542636 -0.036395356 0.61524773
0.031542636 -0.037608519 0.61524767
0.031542636 -0.038821697 0.61524773
0.031542636 -0.040034905 0.61524773
0.031542636 -0.041248068 0.61524767
0.031542636 -0.042461216 0.61524773
0.031542636 -0.043674394 0.61524773
0.031542636 -0.044887602 0.61524773
0.031542636 -0.046100736 0.61524767
0.031542636 -0.047313944 0.61524773
0.031542636 -0.048527151 0.61524773
0.031542636 -0.049740285 0.61524767
0.031542636 -0.050953493 0.61524773
0.031542636 -0.0521667 0.61524773
0.031625692 -0.053520381 0.61563331
0.031770192 -0.054986864 0.61630416
0.031916019 -0.056466788 0.61698121
0.03206319 -0.057960391 0.61766446
0.032211725 -0.059467793 0.61835408
0.055484202 0.059594154 0.71686101
0.052440744 0.05438295 0.70325446
0.049713608 0.049713671 0.69106197
0.047256272 0.04550603 0.68007588
0.045030423 0.04169485 0.67012459
0.04300468 0.038226366 0.66106796
0.041153487 0.03505668 0.65279174
0.039455086 0.032148629 0.64519858
0.037891317 0.02947104 0.63820732
0.036446676 0.026997536 0.63174868
0.035108246 0.024705797 0.62576485
0.033864629 0.022576421 0.62020493
0.033197887 0.020902365 0.6172241
0.033197887 0.019672841 0.6172241
0.033197887 0.018443257 0.6172241
0.033197887 0.017213702 0.6172241
0.033197887 0.015984178 0.6172241
0.033197887 0.014754593 0.6172241
0.033197887 0.013525069 0.6172241
0.033197887 0.012295514 0.6172241
0.033197887 0.01106596 0.6172241
0.033197887 0.0098364353 0.6172241
0.033197887 0.0086068511 0.6172241
0.033197887 0.0073772967 0.6172241
0.033197887 0.0061477423 0.6172241
0.033197887 0.0049182177 0.6172241
0.033197887 0.0036886632 0.6172241
0.033197887 0.0024591088 0.6172241
0.033197887 0.0012295544 0.6172241
0.033197887 -0 0.6172241
0.033197887 -0.0012295246 0.6172241
0.033197887 -0.002459079 0.6172241
0.033197887 -0.0036886632 0.6172241
0.033197887 -0.0049182177 0.6172241
0.033197887 -0.0061477423 0.6172241
0.033197887 -0.0073772967 0.6172241
0.033197887 -0.0086068511 0.6172241
0.033197887 -0.0098364055 0.6172241
0.033197887 -0.01106596 0.6172241
0.033197887 -0.012295485 0.6172241
0.033197887 -0.013525039 0.6172241
0.033197887 -0.014754593 0.6172241
0.033197887 -0.015984178 0.6172241
0.033197887 -0.017213702 0.6172241
0.033197887 -0.018443257 0.6172241
0.033197887 -0.019672811 0.6172241
0.033197887 -0.020902365 0.6172241
0.033197887 -0.02213192 0.6172241
0.033197887 -0.023361444 0.6172241
0.033197887 -0.024590999 0.6172241
0.033197887 -0.025820553 0.61722404
0.033197887 -0.027050138 0.6172241
0.033197887 -0.028279722 0.6172241
0.033197887 -0.029509217 0.6172241
0.033197887 -0.030738801 0.61722416
0.033197887 -0.031968325 0.6172241
0.033197887 -0.03319788 0.6172241
0.033197887 -0.034427404 0.6172241
0.033197887 -0.035656989 0.6172241
0.033197887 -0.036886498 0.6172241
0.033197887 -0.038116127 0.6172241
0.033197887 -0.039345637 0.61722404
0.033197887 -0.040575206 0.6172241
0.033197887 -0.041804716 0.61722404
0.033197887 -0.0430343 0.6172241
0.033197887 -0.044263825 0.6172241
0.033197887 -0.045493409 0.6172241
0.033197887 -0.046722949 0.6172241
0.033197887 -0.047952488 0.6172241
0.033197887 -0.049182028 0.6172241
0.033197887 -0.050411627 0.6172241
0.033197887 -0.051641166 0.6172241
0.033197887 -0.052870706 0.6172241
0.033197887 -0.05410026 0.6172241
0.033197887 -0.055329829 0.6172241
0.033197887 -0.056559369 0.6172241
0.033197887 -0.057788908 0.6172241
0.033211108 -0.059041977 0.61728323
0.056662966 0.058686644 0.71308362
0.053599399 0.053599417 0.69987631
0.050850306 0.049034238 0.68802464
0.048369456 0.044914484 0.67732948
0.046119254 0.041177928 0.66762859
0.044069257 0.037773639 0.65879095
0.042193744 0.034659147 0.6507054
0.04047123 0.03179884 0.64327943
0.038883954 0.029162973 0.63643658
0.037416488 0.026726067 0.63011014
0.036055654 0.024466366 0.6242435
0.03489852 0.022434801 0.61925495
0.03489852 0.021188378 0.61925495
0.03489852 0.019942015 0.61925495
0.03489852 0.018695593 0.61925501
0.03489852 0.01744929 0.61925495
0.03489852 0.016202897 0.61925495
0.03489852 0.014956504 0.61925501
0.03489852 0.013710141 0.61925495
0.03489852 0.012463748 0.61925495
0.03489852 0.011217386 0.61925501
0.03489852 0.0099710226 0.61925495
0.03489852 0.0087246299 0.61925495
0.03489852 0.0074782968 0.61925495
0.03489852 0.0062318742 0.61925501
0.03489852 0.0049855113 0.61925495
0.03489852 0.0037390888 0.61925501
0.03489852 0.0024927557 0.61925495
0.03489852 0.0012463927 0.61925495
0.03489852 -0 0.61925501
0.03489852 -0.0012463927 0.61925495
0.03489852 -0.0024927258 0.61925495
0.03489852 -0.0037391186 0.61925495
0.03489852 -0.0049855411 0.61925501
0.03489852 -0.0062318742 0.61925495
0.03489852 -0.0074782073 0.61925495
0.03489852 -0.0087246299 0.61925501
0.03489852 -0.0099710226 0.61925495
0.03489852 -0.011217356 0.61925495
0.03489852 -0.012463748 0.61925501
0.03489852 -0.013710111 0.61925495
0.03489852 -0.014956504 0.61925495
0.03489852 -0.016202867 0.61925495
0.03489852 -0.01744926 0.61925501
0.03489852 -0.018695652 0.61925495
0.03489852 -0.019942015 0.61925495
0.03489852 -0.021188378 0.61925501
0.03489852 -0.022434741 0.61925495
0.03489852 -0.023681104 0.61925495
0.03489852 -0.024927527 0.61925495
0.03489852 -0.02617389 0.61925501
0.03489852 -0.027420282 0.61925495
0.03489852 -0.028666645 0.61925495
0.03489852 -0.029913008 0.61925501
0.03489852 -0.031159371 0.61925495
0.03489852 -0.032405734 0.61925495
0.03489852 -0.033652157 0.61925495
0.03489852 -0.03489852 0.61925495
0.03489852 -0.036144882 0.61925495
0.03489852 -0.03739126 0.61925495
0.03489852 -0.038637653 0.61925501
0.03489852 -0.039884031 0.61925495
0.03489852 -0.041130364 0.61925495
0.03489852 -0.042376772 0.61925501
0.03489852 -0.043623134 0.61925495
0.03489852 -0.044869527 0.61925495
0.03489852 -0.04611589 0.61925495
0.03489852 -0.047362238 0.61925495
0.03489852 -0.048608661 0.61925495
0.03489852 -0.049855024 0.61925495
0.03489852 -0.051101401 0.61925501
0.03489852 -0.052347764 0.61925495
0.03489852 -0.053594157 0.61925495
0.03489852 -0.054840535 0.61925501
0.03489852 -0.056086868 0.61925495
0.03489852 -0.057333291 0.61925495
0.03489852 -0.058579639 0.61925495
0.057806116 0.057806104 0.70941842
0.054725353 0.052838266 0.69659495
0.051956158 0.048372984 0.68506837
0.049453896 0.044337988 0.67465281
0.047181576 0.040673733 0.66519451
0.045108903 0.037331522 0.6565671
0.043210544 0.034270436 0.64866525
0.041465629 0.031456679 0.64140224
0.039856169 0.028861374 0.63470292
0.03836688 0.026459932 0.62850386
0.036984973 0.024231523 0.62275171
0.03664634 0.022746027 0.62134218
0.03664634 0.021482319 0.62134218
0.03664634 0.0202187 0.62134218
0.03664634 0.018954992 0.62134218
0.03664634 0.017691344 0.62134218
0.03664634 0.016427666 0.62134224
0.03664634 0.015163988 0.62134224
0.03664634 0.01390034 0.62134218
0.03664634 0.012636691 0.62134218
0.03664634 0.011373043 0.62134218
0.03664634 0.010109365 0.62134218
0.03664634 0.0088456869 0.62134218
0.03664634 0.0075820088 0.62134218
0.03664634 0.0063183308 0.62134218
0.03664634 0.0050546825 0.62134218
0.03664634 0.0037910044 0.62134218
0.03664634 0.0025273263 0.62134218
0.03664634 0.0012636781 0.62134224
0.03664634 -0 0.62134218
0.03664634 -0.0012636483 0.62134218
0.03664634 -0.0025273561 0.62134224
0.03664634 -0.0037910342 0.62134224
0.03664634 -0.0050546825 0.62134224
0.03664634 -0.0063183308 0.62134218
0.03664634 -0.007581979 0.62134218
0.03664634 -0.0088456571 0.62134218
0.03664634 -0.010109305 0.62134218
0.03664634 -0.011372983 0.62134218
0.03664634 -0.012636691 0.62134218
0.03664634 -0.01390034 0.62134218
0.03664634 -0.015164018 0.62134218
0.03664634 -0.016427666 0.62134218
0.03664634 -0.017691344 0.62134224
0.03664634 -0.018955022 0.62134218
0.03664634 -0.020218641 0.62134218
0.03664634 -0.021482319 0.62134218
0.03664634 -0.022745997 0.62134218
0.03664634 -0.024009645 0.62134218
0.03664634 -0.025273353 0.62134218
0.03664634 -0.026536971 0.62134218
0.03664634 -0.027800679 0.62134218
0.03664634 -0.029064298 0.62134218
0.03664634 -0.030327976 0.62134218
0.03664634 -0.031591684 0.62134224
0.03664634 -0.032855332 0.62134218
0.03664634 -0.03411901 0.62134218
0.03664634 -0.035382658 0.62134224
0.03664634 -0.036646336 0.62134224
0.03664634 -0.037910014 0.62134224
0.03664634 -0.039173678 0.62134224
0.03664634 -0.040437326 0.62134218
0.03664634 -0.041700974 0.62134218
0.03664634 -0.042964652 0.62134218
0.03664634 -0.044228345 0.62134218
0.03664634 -0.045491993 0.62134218
0.03664634 -0.046755672 0.62134218
0.03664634 -0.04801932 0.62134218
0.03664634 -0.049283013 0.62134218
0.03664634 -0.050546661 0.62134224
0.03664634 -0.051810339 0.62134218
0.03664634 -0.053073987 0.62134218
0.03664634 -0.054337651 0.62134218
0.03664634 -0.055601329 0.62134218
0.03664634 -0.056864977 0.62134218
0.058915719 0.05695188 0.70586264
0.055819564 0.052098244 0.69340467
0.053032782 0.047729522 0.68219155
0.050511025 0.043776244 0.67204481
0.048218042 0.040181726 0.66281849
0.046124354 0.036899507 0.65439415
0.044204917 0.033890456 0.646671
0.042438854 0.03112179 0.63956487
0.040808365 0.028565913 0.63300431
0.039298635 0.026199102 0.62692964
0.03844323 0.024347395 0.62348771
0.03844323 0.023065954 0.62348771
0.03844323 0.021784514 0.62348771
0.03844323 0.020503044 0.62348777
0.03844323 0.019221634 0.62348771
0.03844323 0.017940164 0.62348771
0.03844323 0.016658723 0.62348771
0.03844323 0.015377253 0.62348777
0.03844323 0.014095873 0.62348771
0.03844323 0.012814432 0.62348771
0.03844323 0.011532933 0.62348777
0.03844323 0.010251552 0.62348771
0.03844323 0.0089701116 0.62348771
0.03844323 0.0076886117 0.62348777
0.03844323 0.0064072311 0.62348771
0.03844323 0.005125761 0.62348771
0.03844323 0.0038443208 0.62348777
0.03844323 0.0025629103 0.62348771
0.03844323 0.0012814403 0.62348771
0.03844323 -2.9802322e-08 0.62348771
0.03844323 -0.0012814105 0.62348771
0.03844323 -0.0025628805 0.62348771
0.03844323 -0.0038443208 0.62348771
0.03844323 -0.005125761 0.62348777
0.03844323 -0.0064072311 0.62348777
0.03844323 -0.0076886415 0.62348771
0.03844323 -0.0089700818 0.62348777
0.03844323 -0.010251552 0.62348777
0.03844323 -0.011532933 0.62348771
0.03844323 -0.012814403 0.62348771
0.03844323 -0.014095873 0.62348777
0.03844323 -0.015377253 0.62348771
0.03844323 -0.016658753 0.62348771
0.03844323 -0.017940193 0.62348777
0.03844323 -0.019221574 0.62348771
0.03844323 -0.020503044 0.62348771
0.03844323 -0.021784514 0.62348777
0.03844323 -0.023065895 0.62348771
0.03844323 -0.024347365 0.62348771
0.03844323 -0.025628835 0.62348771
0.03844323 -0.026910216 0.62348771
0.03844323 -0.028191686 0.62348771
0.03844323 -0.029473126 0.62348771
0.03844323 -0.030754566 0.62348771
0.03844323 -0.032036006 0.62348771
0.03844323 -0.033317477 0.62348771
0.03844323 -0.034598917 0.62348777
0.03844323 -0.035880357 0.62348777
0.03844323 -0.037161767 0.62348777
0.03844323 -0.038443238 0.62348771
0.03844323 -0.039724678 0.62348777
0.03844323 -0.041006103 0.62348771
0.03844323 -0.042287543 0.62348771
0.03844323 -0.043568999 0.62348777
0.03844323 -0.044850424 0.62348771
0.03844323 -0.046131849 0.62348771
0.03844323 -0.047413319 0.62348777
0.03844323 -0.048694745 0.62348771
0.03844323 -0.04997617 0.62348777
0.03844323 -0.051257655 0.62348771
0.03844323 -0.052539065 0.62348771
0.03844323 -0.053820491 0.62348771
0.03844323 -0.055101976 0.62348771
0.063461512 0.061414361 0.71591645
0.059992757 0.056122273 0.70240951
0.056883767 0.051378876 0.69030344
0.054081134 0.047102928 0.67939031
0.051541526 0.043228418 0.6695013
0.049229894 0.039701521 0.66050005
0.047116715 0.036477447 0.65227157
0.045177348 0.033518702 0.64471984
0.043391448 0.030793935 0.63776577
0.041741375 0.028276414 0.63134062
0.040291503 0.025994539 0.62569493
0.040291503 0.02469483 0.62569493
0.040291503 0.023395091 0.62569487
0.040291503 0.022095352 0.62569487
0.040291503 0.020795643 0.62569493
0.040291503 0.019495904 0.62569487
0.040291503 0.018196195 0.62569493
0.040291503 0.016896427 0.62569493
0.040291503 0.015596718 0.62569493
0.040291503 0.014297009 0.62569493
0.040291503 0.01299727 0.62569493
0.040291503 0.011697531 0.62569493
0.040291503 0.010397792 0.62569487
0.040291503 0.0090980828 0.62569493
0.040291503 0.0077983439 0.62569493
0.040291503 0.0064986348 0.62569493
0.040291503 0.0051989257 0.62569493
0.040291503 0.003899157 0.62569493
0.040291503 0.002599448 0.62569493
0.040291503 0.0012997091 0.62569493
0.040291503 -2.9802322e-08 0.62569493
0.040291503 -0.0012997389 0.62569493
0.040291503 -0.0025994778 0.62569493
0.040291503 -0.003899157 0.62569493
0.040291503 -0.0051988959 0.62569493
0.040291503 -0.006498605 0.62569493
0.040291503 -0.0077983439 0.62569493
0.040291503 -0.0090980828 0.62569493
0.040291503 -0.010397792 0.62569493
0.040291503 -0.011697561 0.62569493
0.040291503 -0.01299727 0.62569493
0.040291503 -0.014296979 0.62569493
0.040291503 -0.015596718 0.62569493
0.040291503 -0.016896427 0.62569499
0.040291503 -0.018196166 0.62569493
0.040291503 -0.019495875 0.62569499
0.040291503 -0.020795643 0.62569493
0.040291503 -0.022095352 0.62569499
0.040291503 -0.023395061 0.62569493
0.040291503 -0.0246948 0.62569487
0.040291503 -0.025994509 0.62569487
0.040291503 -0.027294248 0.62569493
0.040291503 -0.028593987 0.62569493
0.040291503 -0.029893696 0.62569487
0.040291503 -0.031193435 0.62569487
0.040291503 -0.032493144 0.62569493
0.040291503 -0.033792883 0.62569487
0.040291503 -0.035092592 0.62569493
0.040291503 -0.036392301 0.62569493
0.040291503 -0.03769204 0.62569493
0.040291503 -0.038991749 0.62569487
0.040291503 -0.040291488 0.62569493
0.040291503 -0.041591197 0.62569493
0.040291503 -0.042890951 0.62569487
0.040291503 -0.044190675 0.62569493
0.040291503 -0.045490399 0.62569493
0.040291503 -0.046790123 0.62569493
0.040291503 -0.048089847 0.62569493
0.040291503 -0.049389586 0.62569493
0.040291503 -0.05068931 0.62569493
0.040291503 -0.051989034 0.62569493
0.040291503 -0.053288758 0.62569493
0.040291503 -0.054588482 0.62569493
0.064514548 0.060482413 0.71216643
0.061039116 0.055316687 0.69905639
0.057918757 0.050678909 0.68728578
0.055102121 0.046492428 0.67666084
0.052546728 0.042694241 0.66702133
0.050217848 0.039232701 0.65823632
0.048086479 0.036064893 0.65019631
0.046128817 0.033155113 0.64281166
0.044324312 0.030472994 0.63600469
0.042655554 0.027992725 0.62970978
0.042193286 0.026370823 0.62796599
0.042193286 0.025052279 0.62796599
0.042193286 0.023733705 0.62796599
0.042193286 0.022415191 0.62796599
0.042193286 0.021096647 0.62796599
0.042193286 0.019778103 0.62796599
0.042193286 0.018459558 0.62796605
0.042193286 0.017141014 0.62796605
0.042193286 0.0158225 0.62796599
0.042193286 0.014503986 0.62796599
0.042193286 0.013185412 0.62796599
0.042193286 0.011866868 0.62796599
0.042193286 0.010548323 0.62796599
0.042193286 0.0092297792 0.62796599
0.042193286 0.0079112649 0.62796599
0.042193286 0.0065927207 0.62796599
0.042193286 0.0052741468 0.62796599
0.042193286 0.0039556324 0.62796599
0.042193286 0.0026370585 0.62796605
0.042193286 0.0013185441 0.62796605
0.042193286 -0 0.62796605
0.042193286 -0.001318574 0.62796605
0.042193286 -0.0026371181 0.62796605
0.042193286 -0.0039556324 0.62796605
0.042193286 -0.0052741766 0.62796605
0.042193286 -0.0065926611 0.62796599
0.042193286 -0.0079112649 0.62796599
0.042193286 -0.0092297792 0.62796599
0.042193286 -0.010548323 0.62796599
0.042193286 -0.011866838 0.62796599
0.042193286 -0.013185412 0.62796605
0.042193286 -0.014503956 0.62796605
0.042193286 -0.0158225 0.62796605
0.042193286 -0.017141014 0.62796605
0.042193286 -0.018459558 0.62796605
0.042193286 -0.019778073 0.62796599
0.042193286 -0.021096647 0.62796599
0.042193286 -0.022415161 0.62796599
0.042193286 -0.023733705 0.62796599
0.042193286 -0.025052249 0.62796599
0.042193286 -0.026370823 0.62796599
0.042193286 -0.027689338 0.62796599
0.042193286 -0.029007882 0.62796599
0.042193286 -0.030326396 0.62796605
0.042193286 -0.03164497 0.62796605
0.042193286 -0.032963514 0.62796605
0.042193286 -0.034282058 0.62796605
0.042193286 -0.035600573 0.62796605
0.042193286 -0.036919147 0.62796599
0.042193286 -0.038237661 0.62796605
0.042193286 -0.039556235 0.62796605
0.042193286 -0.04087472 0.62796599
0.042193286 -0.042193294 0.62796599
0.042193286 -0.043511823 0.62796599
0.042193286 -0.044830367 0.62796599
0.042193286 -0.046148896 0.62796605
0.042193286 -0.04746744 0.62796605
0.042193286 -0.048785985 0.62796599
0.042193286 -0.050104544 0.62796605
0.042193286 -0.051423058 0.62796605
0.042193286 -0.052741632 0.62796599
0.06553638 0.059578508 0.70852959
0.06205561 0.05453372 0.69579732
0.058926154 0.049997985 0.68435001
0.05609718 0.045897692 0.67400199
0.05352721 0.042172939 0.66460127
0.051182572 0.038774669 0.65602481
0.049034711 0.035661578 0.64816821
0.047059864 0.032799333 0.64094436
0.045237795 0.03015855 0.63427937
0.044150937 0.02809605 0.6303038
0.044150937 0.026758134 0.6303038
0.044150937 0.025420219 0.6303038
0.044150937 0.024082333 0.6303038
0.044150937 0.022744417 0.6303038
0.044150937 0.021406502 0.6303038
0.044150937 0.020068616 0.63030374
0.044150937 0.01873073 0.63030374
0.044150937 0.017392784 0.6303038
0.044150937 0.016054869 0.6303038
0.044150937 0.014716983 0.63030386
0.044150937 0.013379067 0.6303038
0.044150937 0.012041152 0.6303038
0.044150937 0.010703266 0.6303038
0.044150937 0.0093653798 0.63030374
0.044150937 0.0080274343 0.63030374
0.044150937 0.0066895485 0.6303038
0.044150937 0.0053516328 0.63030386
0.044150937 0.0040136874 0.63030386
0.044150937 0.0026758313 0.6303038
0.044150937 0.0013379157 0.6303038
0.044150937 -2.9802322e-08 0.6303038
0.044150937 -0.0013378859 0.63030374
0.044150937 -0.0026758015 0.63030374
0.044150937 -0.0040137172 0.6303038
0.044150937 -0.0053516328 0.63030386
0.044150937 -0.0066895485 0.63030386
0.044150937 -0.0080274045 0.6303038
0.044150937 -0.00936535 0.6303038
0.044150937 -0.010703266 0.6303038
0.044150937 -0.012041122 0.6303038
0.044150937 -0.013379037 0.6303038
0.044150937 -0.014716983 0.6303038
0.044150937 -0.016054869 0.63030386
0.044150937 -0.017392784 0.63030386
0.044150937 -0.0187307 0.6303038
0.044150937 -0.020068586 0.6303038
0.044150937 -0.021406502 0.6303038
0.044150937 -0.022744387 0.6303038
0.044150937 -0.024082303 0.6303038
0.044150937 -0.025420219 0.6303038
0.044150937 -0.026758134 0.63030386
0.044150937 -0.02809605 0.63030386
0.044150937 -0.029433936 0.6303038
0.044150937 -0.030771852 0.6303038
0.044150937 -0.032109767 0.6303038
0.044150937 -0.033447683 0.6303038
0.044150937 -0.034785569 0.6303038
0.044150937 -0.036123484 0.6303038
0.044150937 -0.03746143 0.6303038
0.044150937 -0.038799316 0.63030386
0.044150937 -0.040137202 0.6303038
0.044150937 -0.041475147 0.6303038
0.044150937 -0.042813033 0.6303038
0.044150937 -0.044150919 0.6303038
0.044150814 -0.045488715 0.63030338
0.044150814 -0.046826586 0.63030332
0.044150814 -0.048164532 0.63030332
0.044150814 -0.049502432 0.63030338
0.044150814 -0.050840303 0.63030332
0.044150814 -0.052178249 0.63030332
0.066527851 0.058701009 0.70499891
0.063043982 0.053772807 0.69263011
0.059906833 0.049335033 0.68149221
0.057066903 0.045317829 0.67140961
0.05448423 0.041664422 0.66224027
0.052125197 0.038327336 0.65386492
0.049961817 0.035267144 0.64618433
0.047970999 0.032450974 0.63911623
0.046166819 0.029872656 0.63271081
0.046166819 0.028514802 0.63271081
0.046166819 0.027157009 0.63271081
0.046166819 0.025799096 0.63271081
0.046166819 0.024441272 0.63271081
0.046166819 0.023083419 0.63271081
0.046166819 0.021725565 0.63271087
0.046166819 0.020367742 0.63271081
0.046166819 0.019009858 0.63271081
0.046166819 0.017652005 0.63271081
0.046166819 0.016294211 0.63271081
0.046166819 0.014936328 0.63271087
0.046166819 0.013578445 0.63271081
0.046166819 0.012220651 0.63271081
0.046166819 0.010862768 0.63271081
0.046166819 0.0095049143 0.63271087
0.046166819 0.0081470907 0.63271081
0.046166819 0.0067892373 0.63271087
0.046166819 0.0054313838 0.63271081
0.046166819 0.0040735602 0.63271081
0.046166819 0.0027157068 0.63271081
0.046166819 0.0013578534 0.63271081
0.046166819 2.9802322e-08 0.63271081
0.046166819 -0.0013578534 0.63271081
0.046166819 -0.002715677 0.63271081
0.046166819 -0.0040735304 0.63271081
0.046166819 -0.0054313838 0.63271081
0.046166819 -0.0067892075 0.63271081
0.046166819 -0.0081470907 0.63271087
0.046166819 -0.0095049441 0.63271081
0.046166819 -0.010862768 0.63271081
0.046166819 -0.012220621 0.63271087
0.046166819 -0.013578475 0.63271081
0.046166819 -0.014936328 0.63271081
0.046166819 -0.016294152 0.63271081
0.046166819 -0.017652035 0.63271081
0.046166819 -0.019009858 0.63271087
0.046166819 -0.020367712 0.63271081
0.046166819 -0.021725565 0.63271081
0.046166819 -0.023083389 0.63271081
0.046166819 -0.024441272 0.63271081
0.046166819 -0.025799096 0.63271087
0.046166819 -0.027156919 0.63271081
0.046166819 -0.028514802 0.63271081
0.046166819 -0.029872626 0.63271081
0.046166819 -0.031230479 0.63271081
0.046166819 -0.032588363 0.63271081
0.046166819 -0.033946186 0.63271087
0.046166819 -0.03530401 0.63271081
0.046166819 -0.036661923 0.63271081
0.046166819 -0.038019747 0.63271087
0.046166819 -0.03937757 0.63271081
0.046166819 -0.040735453 0.63271081
0.046166819 -0.042093247 0.63271081
0.046166819 -0.043451101 0.63271081
0.046166819 -0.044808954 0.63271081
0.046166819 -0.046166807 0.63271081
0.046166819 -0.047524661 0.63271081
0.046166819 -0.048882499 0.63271081
0.046166819 -0.050240338 0.63271087
0.067490809 0.057849288 0.70157164
0.064004898 0.053032666 0.68954909
0.060861625 0.048689336 0.67870831
0.058012627 0.044752598 0.66888249
0.055418435 0.041167945 0.65993547
0.053046152 0.037890106 0.65175378
0.050868787 0.034881473 0.64424425
0.048863124 0.032110035 0.63732702
0.048243843 0.030324727 0.6351912
0.048243843 0.02894631 0.6351912
0.048243843 0.027567893 0.6351912
0.048243843 0.026189536 0.6351912
0.048243843 0.024811119 0.6351912
0.048243843 0.023432732 0.63519114
0.048243843 0.022054374 0.63519114
0.048243843 0.020675957 0.6351912
0.048243843 0.01929754 0.6351912
0.048243843 0.017919153 0.6351912
0.048243843 0.016540766 0.6351912
0.048243843 0.015162349 0.6351912
0.048243843 0.013783962 0.6351912
0.048243843 0.012405574 0.6351912
0.048243843 0.011027128 0.6351912
0.048243843 0.0096487701 0.6351912
0.048243843 0.0082703531 0.6351912
0.048243843 0.0068919659 0.6351912
0.048243843 0.0055135787 0.6351912
0.048243843 0.0041351914 0.6351912
0.048243843 0.0027568042 0.63519114
0.048243843 0.001378417 0.63519114
0.048243843 -0 0.6351912
0.048243843 -0.0013783872 0.6351912
0.048243843 -0.0027567744 0.6351912
0.048243843 -0.0041351914 0.6351912
0.048243843 -0.0055135787 0.6351912
0.048243843 -0.0068919659 0.6351912
0.048243843 -0.0082703829 0.6351912
0.048243843 -0.0096487999 0.6351912
0.048243843 -0.011027128 0.6351912
0.048243843 -0.012405545 0.6351912
0.048243843 -0.013783962 0.6351912
0.048243843 -0.015162349 0.6351912
0.048243843 -0.016540766 0.6351912
0.048243843 -0.017919153 0.63519114
0.048243843 -0.01929751 0.63519114
0.048243843 -0.020675927 0.6351912
0.048243843 -0.022054315 0.6351912
0.048243843 -0.023432702 0.6351912
0.048243843 -0.024811119 0.6351912
0.048243843 -0.026189536 0.6351912
0.048243843 -0.027567923 0.6351912
0.048243843 -0.02894631 0.6351912
0.048243843 -0.030324727 0.6351912
0.048243843 -0.031703055 0.6351912
0.048243843 -0.033081472 0.6351912
0.048243843 -0.034459889 0.6351912
0.048243843 -0.035838276 0.6351912
0.048243843 -0.037216663 0.6351912
0.048243843 -0.038595051 0.63519114
0.048243843 -0.039973438 0.63519114
0.048243843 -0.041351855 0.6351912
0.048243843 -0.042730272 0.6351912
0.048243843 -0.044108689 0.6351912
0.048243843 -0.045487046 0.6351912
0.048243843 -0.046865463 0.6351912
0.048243843 -0.048243865 0.6351912
0.048243843 -0.049622238 0.6351912
0.068425946 0.057021618 0.69824141
0.064939976 0.052312762 0.68655264
0.061791971 0.048060387 0.6759972
0.058934852 0.044201136 0.66641712
0.056330457 0.04068315 0.65768433
0.053946506 0.03746286 0.64969075
0.051756144 0.034504116 0.64234626
0.0503847 0.032190233 0.63774776
0.0503847 0.030790657 0.63774776
0.0503847 0.02939108 0.63774776
0.0503847 0.027991503 0.63774776
0.0503847 0.026591927 0.63774776
0.0503847 0.02519235 0.63774776
0.0503847 0.023792773 0.63774776
0.0503847 0.022393197 0.63774776
0.0503847 0.02099365 0.63774776
0.0503847 0.019594043 0.63774776
0.0503847 0.018194467 0.63774776
0.0503847 0.01679492 0.63774776
0.0503847 0.015395314 0.63774776
0.0503847 0.013995737 0.63774776
0.0503847 0.01259619 0.63774776
0.0503847 0.011196643 0.63774776
0.0503847 0.0097970366 0.63774776
0.0503847 0.00839746 0.63774776
0.0503847 0.0069978833 0.63774776
0.0503847 0.0055983067 0.63774776
0.0503847 0.0041987598 0.63774776
0.0503847 0.0027991533 0.63774776
0.0503847 0.0013995767 0.63774776
0.0503847 -0 0.63774776
0.0503847 -0.0013995469 0.63774776
0.0503847 -0.0027991235 0.63774776
0.0503847 -0.00419873 0.63774776
0.0503847 -0.0055983067 0.63774776
0.0503847 -0.0069978535 0.63774776
0.0503847 -0.0083974004 0.63774776
0.0503847 -0.0097970366 0.63774776
0.0503847 -0.011196613 0.63774776
0.0503847 -0.01259613 0.63774776
0.0503847 -0.013995737 0.63774776
0.0503847 -0.015395314 0.63774776
0.0503847 -0.01679489 0.63774776
0.0503847 -0.018194437 0.63774776
0.0503847 -0.019594043 0.63774776
0.0503847 -0.02099362 0.63774776
0.0503847 -0.022393227 0.63774776
0.0503847 -0.023792803 0.63774776
0.0503847 -0.02519235 0.63774776
0.0503847 -0.026591927 0.63774776
0.0503847 -0.027991474 0.63774776
0.0503847 -0.02939108 0.63774776
0.0503847 -0.030790657 0.63774776
0.0503847 -0.032190204 0.63774776
0.0503847 -0.03358981 0.63774776
0.0503847 -0.034989417 0.63774776
0.0503847 -0.036388934 0.63774776
0.0503847 -0.03778851 0.63774776
0.0503847 -0.039188117 0.63774776
0.0503847 -0.040587664 0.63774776
0.0503847 -0.04198724 0.63774776
0.0503847 -0.043386847 0.63774776
0.0503847 -0.044786394 0.63774776
0.050384548 -0.046185821 0.63774723
0.050384548 -0.047585398 0.63774729
0.073209442 0.06133768 0.70764631
0.069334984 0.056217551 0.69500613
0.065850005 0.051612198 0.68363649
0.062698364 0.047447443 0.67335439
0.059834827 0.043663263 0.66401231
0.057221435 0.040209651 0.65548623
0.054826606 0.037045002 0.64767319
0.052624341 0.034134716 0.64048845
0.052592207 0.032692462 0.6403836
0.052592207 0.03127107 0.6403836
0.052592207 0.029849648 0.6403836
0.052592207 0.028428257 0.6403836
0.052592207 0.027006805 0.6403836
0.052592207 0.025585383 0.6403836
0.052592207 0.024164021 0.6403836
0.052592207 0.022742599 0.6403836
0.052592207 0.021321148 0.6403836
0.052592207 0.019899786 0.6403836
0.052592207 0.018478334 0.6403836
0.052592207 0.017056942 0.6403836
0.052592207 0.01563555 0.6403836
0.052592207 0.014214098 0.64038366
0.052592207 0.012792677 0.6403836
0.052592207 0.011371315 0.6403836
0.052592207 0.0099498928 0.6403836
0.052592207 0.0085285008 0.6403836
0.052592207 0.0071070492 0.6403836
0.052592207 0.0056856573 0.6403836
0.052592207 0.0042642355 0.6403836
0.052592207 0.0028428137 0.6403836
0.052592207 0.0014214516 0.6403836
0.052592207 -0 0.6403836
0.052592207 -0.0014214516 0.6403836
0.052592207 -0.0028428137 0.6403836
0.052592207 -0.0042642355 0.6403836
0.052592207 -0.0056856275 0.6403836
0.052592207 -0.0071070492 0.6403836
0.052592207 -0.008528471 0.6403836
0.052592207 -0.009949863 0.6403836
0.052592207 -0.011371255 0.6403836
0.052592207 -0.012792706 0.6403836
0.052592207 -0.014214128 0.6403836
0.052592207 -0.01563552 0.6403836
0.052592207 -0.017056942 0.64038366
0.052592207 -0.018478334 0.6403836
0.052592207 -0.019899726 0.6403836
0.052592207 -0.021321148 0.6403836
0.052592367 -0.022742599 0.64038408
0.052592367 -0.024164051 0.64038414
0.052592207 -0.025585383 0.6403836
0.052592207 -0.027006775 0.6403836
0.052592207 -0.028428257 0.6403836
0.052592207 -0.029849619 0.6403836
0.052592207 -0.03127104 0.6403836
0.052592207 -0.032692462 0.6403836
0.052592207 -0.034113854 0.6403836
0.052592207 -0.035535246 0.6403836
0.052592207 -0.036956728 0.6403836
0.052592207 -0.03837806 0.6403836
0.052592207 -0.039799511 0.6403836
0.052592207 -0.041220903 0.6403836
0.052592207 -0.042642295 0.6403836
0.052592207 -0.044063747 0.6403836
0.052592207 -0.045485169 0.6403836
0.052592207 -0.046906531 0.6403836
0.074085012 0.060437769 0.70414233
0.070218459 0.055435628 0.69185984
0.06673573 0.050929904 0.68079662
0.063582152 0.046850026 0.67077899
0.060713165 0.043138295 0.66166538
0.058091722 0.039747 0.65333813
0.055687465 0.036636502 0.64570075
0.054869857 0.034654647 0.64310354
0.054869857 0.033210754 0.64310354
0.054869857 0.031766772 0.64310348
0.054869857 0.03032279 0.6431036
0.054869857 0.028878868 0.6431036
0.054869857 0.027434945 0.64310354
0.054869857 0.025990963 0.6431036
0.054869857 0.02454704 0.6431036
0.054869857 0.023103118 0.6431036
0.054869857 0.021659166 0.6431036
0.054869857 0.020215213 0.64310354
0.054869857 0.018771261 0.6431036
0.054869857 0.017327338 0.6431036
0.054869857 0.015883356 0.6431036
0.054869857 0.014439434 0.64310354
0.054869857 0.012995511 0.64310354
0.054869857 0.011551529 0.64310354
0.054869857 0.010107607 0.6431036
0.054869857 0.0086636543 0.6431036
0.054869857 0.007219702 0.64310354
0.054869857 0.0057757795 0.64310354
0.054869857 0.0043318272 0.64310354
0.054869857 0.0028878748 0.64310354
0.054869857 0.0014439523 0.64310354
0.054869857 -0 0.64310354
0.054869857 -0.0014439523 0.64310354
0.054869857 -0.0028878748 0.64310354
0.054869857 -0.004331857 0.64310354
0.054869857 -0.0057757795 0.64310354
0.054869857 -0.007219702 0.64310354
0.054869857 -0.0086636543 0.64310354
0.054869857 -0.010107577 0.64310354
0.054869857 -0.011551559 0.64310354
0.054869857 -0.012995481 0.64310354
0.054869857 -0.014439404 0.64310354
0.054869857 -0.015883386 0.64310354
0.054869857 -0.017327309 0.64310354
0.054869857 -0.018771261 0.64310354
0.054869857 -0.020215213 0.64310354
0.054869857 -0.021659136 0.64310354
0.054869857 -0.023103088 0.64310354
0.054869857 -0.02454704 0.64310348
0.054869857 -0.025990963 0.64310354
0.054869857 -0.027434915 0.64310354
0.054869857 -0.028878868 0.64310354
0.054869857 -0.03032279 0.64310354
0.054869857 -0.031766772 0.64310348
0.054869857 -0.033210695 0.64310348
0.054869857 -0.034654617 0.64310354
0.054869857 -0.036098599 0.64310354
0.054869857 -0.037542492 0.64310348
0.054869857 -0.038986474 0.64310348
0.054869857 -0.040430397 0.64310348
0.054869857 -0.041874319 0.64310354
0.054869857 -0.043318301 0.64310354
0.054869857 -0.044762224 0.6431036
0.074934959 0.059563696 0.70073879
0.071077965 0.05467537 0.68880075
0.067598589 0.05026561 0.67803162
0.06444373 0.046267301 0.66826689
0.061570428 0.042625695 0.65937358
0.058942404 0.039294958 0.6512394
0.057220887 0.036680043 0.6459111
0.057220887 0.035212845 0.6459111
0.057220887 0.033745646 0.6459111
0.057220887 0.032278478 0.6459111
0.057220887 0.03081122 0.6459111
0.057220887 0.029344022 0.6459111
0.057220887 0.027876824 0.6459111
0.057220887 0.026409626 0.6459111
0.057220887 0.024942428 0.6459111
0.057220887 0.02347523 0.6459111
0.057220887 0.022008032 0.6459111
0.057220887 0.020540804 0.6459111
0.057220887 0.019073635 0.6459111
0.057220887 0.017606437 0.6459111
0.057220887 0.016139269 0.6459111
0.057220887 0.014672041 0.6459111
0.057220887 0.013204843 0.6459111
0.057220887 0.011737615 0.6459111
0.057220887 0.010270447 0.6459111
0.057220887 0.0088032484 0.6459111
0.057220887 0.0073360205 0.6459111
0.057220887 0.0058688223 0.6459111
0.057220887 0.004401654 0.6459111
0.057220887 0.0029343963 0.6459111
0.057220887 0.0014672279 0.6459111
0.057220887 -0 0.6459111
0.057220887 -0.0014671683 0.6459111
0.057220887 -0.0029343963 0.6459111
0.057220887 -0.0044015944 0.6459111
0.057220887 -0.0058688223 0.6459111
0.057220887 -0.0073359907 0.6459111
0.057220887 -0.0088032186 0.6459111
0.057220887 -0.010270417 0.6459111
0.057220887 -0.011737615 0.6459111
0.057220887 -0.013204783 0.6459111
0.057220887 -0.014672011 0.6459111
0.057220887 -0.016139239 0.6459111
0.057220887 -0.017606407 0.6459111
0.057220887 -0.019073606 0.6459111
0.057220887 -0.020540804 0.6459111
0.057220887 -0.022008061 0.6459111
0.057220887 -0.02347523 0.6459111
0.057220887 -0.024942428 0.6459111
0.057220887 -0.026409626 0.6459111
0.057220887 -0.027876854 0.6459111
0.057220887 -0.029344052 0.6459111
0.057220887 -0.03081122 0.6459111
0.057220887 -0.032278448 0.6459111
0.057220887 -0.033745676 0.6459111
0.057220887 -0.035212845 0.6459111
0.057220887 -0.036680043 0.6459111
0.057220887 -0.038147241 0.6459111
0.057220887 -0.039614499 0.6459111
0.057220887 -0.041081667 0.6459111
0.057220709 -0.042548716 0.64591056
0.057220709 -0.044015914 0.64591056
0.075760975 0.058714747 0.69743311
0.071914226 0.053935677 0.68582451
0.068438992 0.049618244 0.67533708
0.065284371 0.04569906 0.66581714
0.062407762 0.042125225 0.65713614
0.059773762 0.03885296 0.64918739
0.05964889 0.03728056 0.64881057
0.05964889 0.035789341 0.64881057
0.05964889 0.034298122 0.64881057
0.05964889 0.032806933 0.64881057
0.05964889 0.031315684 0.64881057
0.05964889 0.029824436 0.64881063
0.05964889 0.028333247 0.64881057
0.05964889 0.026841998 0.64881063
0.05964889 0.025350809 0.64881051
0.05964889 0.023859531 0.64881057
0.05964889 0.022368312 0.64881063
0.05964889 0.020877123 0.64881063
0.05964889 0.019385874 0.64881063
0.05964889 0.017894655 0.64881057
0.05964889 0.016403437 0.64881057
0.05964889 0.014912218 0.64881063
0.05964889 0.013420999 0.64881063
0.05964889 0.01192978 0.64881057
0.05964889 0.010438561 0.64881057
0.05964889 0.0089473724 0.64881063
0.05964889 0.0074561238 0.64881057
0.05964889 0.0059649348 0.64881063
0.05964889 0.0044736862 0.64881057
0.05964889 0.0029824376 0.64881057
0.05964889 0.0014912188 0.64881057
0.05964889 -0 0.64881057
0.05964889 -0.0014912188 0.64881057
0.05964889 -0.0029824674 0.64881057
0.05964889 -0.0044736266 0.64881063
0.05964889 -0.0059648752 0.64881057
0.05964889 -0.007456094 0.64881057
0.05964889 -0.0089473128 0.64881057
0.05964889 -0.010438532 0.64881057
0.05964889 -0.01192975 0.64881057
0.05964889 -0.013421029 0.64881063
0.05964889 -0.014912218 0.64881057
0.05964889 -0.016403437 0.64881063
0.05964889 -0.017894626 0.64881057
0.05964889 -0.019385874 0.64881063
0.05964889 -0.020877123 0.64881063
0.059648704 -0.022368282 0.64881003
0.059648704 -0.023859471 0.64881003
0.059648704 -0.02535069 0.64881003
0.059648704 -0.026841909 0.64881003
0.059648704 -0.028333127 0.64881003
0.059648704 -0.029824346 0.64881003
0.059648704 -0.031315565 0.64881003
0.059648704 -0.032806814 0.64881003
0.059648704 -0.034298033 0.64881003
0.059648704 -0.035789251 0.64881003
0.059648704 -0.03728044 0.64881003
0.059648704 -0.038771659 0.64881003
0.059648704 -0.040262878 0.64881003
0.059648704 -0.041754097 0.64881003
0.076563783 0.05788967 0.69422036
0.072727889 0.053215533 0.68292683
0.069258258 0.048987538 0.67271173
0.066104613 0.045144618 0.66342688
0.063225448 0.041636258 0.65495014
0.062157523 0.039416939 0.651806
0.062157523 0.037900925 0.651806
0.062157523 0.03638491 0.65180606
0.062157523 0.034868866 0.651806
0.062157523 0.033352852 0.651806
0.062157523 0.031836778 0.651806
0.062157523 0.030320764 0.651806
0.062157523 0.028804719 0.651806
0.062157523 0.027288675 0.651806
0.062157523 0.025772661 0.651806
0.062157523 0.024256587 0.651806
0.062157523 0.022740543 0.651806
0.062157523 0.021224529 0.651806
0.062157523 0.019708484 0.651806
0.062157523 0.01819244 0.651806
0.062157523 0.016676426 0.651806
0.062157523 0.015160412 0.651806
0.062157523 0.013644367 0.651806
0.062157523 0.012128294 0.651806
0.062157523 0.010612249 0.651806
0.062157523 0.0090962052 0.651806
0.062157523 0.0075801909 0.651806
0.062157523 0.0060641766 0.651806
0.062157523 0.0045481026 0.651806
0.062157523 0.0030320585 0.651806
0.062157523 0.0015160143 0.651806
0.062157523 -0 0.65180606
0.062157523 -0.0015160441 0.651806
0.062157523 -0.0030320585 0.651806
0.062157523 -0.0045481026 0.651806
0.062157523 -0.0060641468 0.651806
0.062157523 -0.0075801611 0.651806
0.062157523 -0.009096235 0.651806
0.062157523 -0.010612279 0.651806
0.062157523 -0.012128323 0.651806
0.062157523 -0.013644308 0.65180594
0.062157523 -0.015160352 0.651806
0.062157523 -0.016676396 0.651806
0.062157523 -0.01819241 0.651806
0.062157523 -0.019708484 0.651806
0.062157523 -0.021224529 0.651806
0.062157523 -0.022740543 0.651806
0.062157523 -0.024256587 0.651806
0.062157523 -0.025772631 0.651806
0.062157523 -0.027288675 0.651806
0.062157523 -0.028804719 0.651806
0.062157523 -0.030320764 0.651806
0.062157523 -0.031836808 0.651806
0.062157523 -0.033352792 0.651806
0.062157523 -0.034868836 0.651806
