# .PCD v0.7 - Point Cloud Data file format
VERSION 0.7
FIELDS x y z
SIZE 4 4 4
TYPE F F F
COUNT 1 1 1
WIDTH 1359
HEIGHT 1
VIEWPOINT 0 0 0 1 0 0 0
POINTS 1359
DATA ascii
0 0.029825121 0.60727382
0 0.028678 0.60727382
0 0.027530879 0.60727382
0 0.026383787 0.60727382
0 0.025236607 0.60727346
0 0.024089456 0.60727346
0 0.022942394 0.60727346
0 0.021795243 0.60727346
0 0.020648122 0.60727346
0 0.01950103 0.60727346
0 0.018353909 0.60727346
0 0.017206758 0.60727346
0 0.016059667 0.60727346
0 0.014912546 0.60727346
0 0.013765395 0.60727346
0 0.012618303 0.60727346
0 0.011471182 0.60727346
0 0.010324061 0.60727346
0 0.0091769099 0.60727346
0 0.0080298483 0.60727346
0 0.0068826973 0.60727346
0 0.0057355762 0.60727346
0 0.0045884848 0.60727346
0 0.0034413636 0.60727346
0 0.0022942424 0.60727346
0 0.0011471212 0.60727346
0 -0 0.60727346
0 -0.001147151 0.60727346
0 -0.0022942424 0.60727346
0 -0.0034413636 0.60727346
0 -0.0045884848 0.60727346
0 -0.0057355762 0.60727346
0 -0.0068826675 0.60727346
0 -0.0080297887 0.60727346
0 -0.0091769397 0.6072734
0 -0.010324031 0.60727346
0 -0.011471152 0.60727346
0 -0.012618273 0.60727346
0 -0.013765395 0.60727346
0 -0.014912516 0.60727346
0 -0.016059637 0.60727346
0 -0.017206818 0.60727382
0 -0.018353909 0.60727382
0 -0.01950106 0.60727382
0 -0.020648181 0.60727382
0.0011765194 0.055296421 0.61082256
0.0011692912 0.05378738 0.60995007
0.0011621539 0.052296937 0.60908854
0.0011551004 0.050824434 0.60823709
0.001148132 0.049369693 0.60739589
0.0011412472 0.047932386 0.60656488
0.0011411232 0.04678607 0.60654986
0.0011411232 0.045644939 0.60654986
0.0011411232 0.044503838 0.60654986
0.0011411232 0.043362677 0.60654986
0.0011411232 0.042221576 0.60654986
0.0011411232 0.041080445 0.60654986
0.0011411232 0.039939314 0.60654986
0.0011411232 0.038798183 0.60654986
0.0011411232 0.037657082 0.60654986
0.0011411232 0.036515951 0.60654986
0.0011411232 0.03537482 0.60654986
0.0011411232 0.03423366 0.60654986
0.0011411232 0.033092588 0.60654986
0.0011411232 0.031951457 0.60654986
0.0011411232 0.030810356 0.60654992
0.0011411232 0.029669225 0.60654986
0.0011411232 0.028528094 0.60654986
0.0011411232 0.027386963 0.60654986
0.0011411232 0.026245862 0.60654986
0.0011411204 0.025104642 0.60654956
0.0011411204 0.023963541 0.6065495
0.0011411204 0.02282241 0.60654956
0.0011411204 0.021681309 0.60654956
0.0011411204 0.020540178 0.60654956
0.0011411204 0.019399077 0.60654956
0.0011411204 0.018257916 0.6065495
0.0011411204 0.017116815 0.6065495
0.0011411204 0.015975684 0.60654956
0.0011411204 0.014834583 0.6065495
0.0011411204 0.013693452 0.6065495
0.0011411204 0.012552321 0.6065495
0.0011411204 0.01141122 0.6065495
0.0011411204 0.010270089 0.60654956
0.0011411204 0.0091289878 0.6065495
0.0011411204 0.0079878271 0.6065495
0.0011411204 0.0068466961 0.60654956
0.0011411204 0.0057056248 0.6065495
0.0011411204 0.0045644939 0.60654956
0.0011411204 0.0034233928 0.6065495
0.0011411204 0.0022822618 0.60654962
0.0011411204 0.0011411309 0.60654956
0.0011411204 -0 0.60654956
0.0011411204 -0.0011411011 0.60654956
0.0011411204 -0.002282232 0.60654956
0.0011411204 -0.003423363 0.60654956
0.0011411204 -0.0045644641 0.60654956
0.0011411204 -0.005705595 0.60654956
0.0011411204 -0.0068467259 0.60654956
0.0011411204 -0.0079878271 0.60654956
0.0011411204 -0.009128958 0.60654956
0.0011411204 -0.010270089 0.60654956
0.0011411204 -0.01141119 0.60654956
0.0011411204 -0.012552321 0.6065495
0.0011411204 -0.013693452 0.60654956
0.0011411204 -0.014834553 0.60654956
0.0011411204 -0.015975684 0.60654956
0.0011411232 -0.017116845 0.60654986
0.0011411232 -0.018257976 0.60654986
0.0011411232 -0.019399077 0.60654986
0.0011411232 -0.020540237 0.60654992
0.0023939677 0.056258231 0.61329281
0.0023790051 0.054717124 0.6123898
0.0023642285 0.053195179 0.61149794
0.0023496344 0.051691979 0.6106171
0.0023352194 0.050207227 0.60974711
0.0023209858 0.048740715 0.60888803
0.0023069188 0.047291845 0.60803902
0.0022930217 0.04586041 0.60720021
0.0022792909 0.0444462 0.60637152
0.002270377 0.043137193 0.60583353
0.002270377 0.042001992 0.60583347
0.002270377 0.040866792 0.60583347
0.002270377 0.039731592 0.60583353
0.002270377 0.038596392 0.60583353
0.002270377 0.037461221 0.60583347
0.002270377 0.036326021 0.60583353
0.002270377 0.03519085 0.60583347
0.002270377 0.03405568 0.60583347
0.002270377 0.03292051 0.60583353
0.002270377 0.03178528 0.60583353
0.002270377 0.030650079 0.60583353
0.002270377 0.029514909 0.60583353
0.002270377 0.028379709 0.60583353
0.002270377 0.027244508 0.60583353
0.002270377 0.026109338 0.60583347
0.002270377 0.024974167 0.60583347
0.002270377 0.023838937 0.60583353
0.002270377 0.022703797 0.60583347
0.002270377 0.021568596 0.60583347
0.002270377 0.020433426 0.60583353
0.002270377 0.019298226 0.60583347
0.002270377 0.018163025 0.60583353
0.002270377 0.017027825 0.60583353
0.0022703717 0.015892625 0.60583317
0.0022703717 0.014757425 0.60583317
0.0022703717 0.013622224 0.60583317
0.0022703717 0.012487054 0.60583317
0.0022703717 0.011351854 0.60583317
0.0022703717 0.010216653 0.60583317
0.0022703717 0.0090815127 0.60583317
0.0022703717 0.0079463124 0.60583317
0.0022703717 0.0068111122 0.60583317
0.0022703717 0.0056759417 0.60583317
0.0022703717 0.0045407414 0.60583317
0.0022703717 0.003405571 0.60583317
0.0022703717 0.0022703707 0.60583311
0.0022703717 0.0011352003 0.60583317
0.0022703717 -0 0.60583317
0.0022703717 -0.0011351407 0.60583317
0.0022703717 -0.0022703707 0.60583317
0.0022703717 -0.0034055412 0.60583317
0.0022703717 -0.0045407116 0.60583317
0.0022703717 -0.0056759417 0.60583317
0.0022703717 -0.0068111122 0.60583317
0.0022703717 -0.0079463124 0.60583317
0.0022703717 -0.0090814829 0.60583317
0.0022703717 -0.010216683 0.60583317
0.0022703717 -0.011351824 0.60583311
0.0022703717 -0.012487024 0.60583317
0.0022703717 -0.013622224 0.60583317
0.0022703717 -0.014757425 0.60583317
0.0022703717 -0.015892595 0.60583317
0.002270377 -0.017027825 0.60583353
0.002270377 -0.018163025 0.60583353
0.002270377 -0.019298196 0.60583347
0.002270377 -0.020433396 0.60583347
0.0036312661 0.055679411 0.61491501
0.0036083264 0.054124892 0.61399198
0.0035856655 0.052589774 0.61308014
0.0035632877 0.05107379 0.61217976
0.0035411874 0.04957664 0.61129051
0.0035193595 0.048097908 0.61041218
0.0034978078 0.046637416 0.60954505
0.0034765098 0.045194626 0.60868812
0.0034554696 0.04376927 0.60784149
0.0034346825 0.042361081 0.60700506
0.0034141527 0.040969819 0.606179
0.0033938582 0.039595038 0.60536242
0.0033879457 0.038396716 0.60512453
0.0033879457 0.037267417 0.60512453
0.0033879457 0.036138058 0.60512447
0.0033879457 0.035008788 0.60512453
0.0033879457 0.033879489 0.60512453
0.0033879457 0.03275016 0.60512447
0.0033879457 0.03162083 0.60512453
0.0033879457 0.030491531 0.60512453
0.0033879457 0.029362172 0.60512447
0.0033879457 0.028232843 0.60512453
0.0033879457 0.027103573 0.60512453
0.0033879457 0.025974244 0.60512453
0.0033879457 0.024844974 0.60512447
0.0033879457 0.023715645 0.60512447
0.0033879457 0.022586316 0.60512453
0.0033879457 0.021457016 0.60512453
0.0033879457 0.020327657 0.60512453
0.0033879457 0.019198388 0.60512453
0.0033879457 0.018069059 0.60512453
0.0033879457 0.0169397 0.60512453
0.0033879376 0.0158104 0.60512418
0.0033879376 0.014681071 0.60512418
0.0033879376 0.013551772 0.60512424
0.0033879376 0.012422442 0.60512418
0.0033879376 0.011293143 0.60512424
0.0033879376 0.010163814 0.60512424
0.0033879376 0.0090344846 0.60512424
0.0033879376 0.0079051852 0.60512424
0.0033879376 0.0067758858 0.60512418
0.0033879376 0.0056465864 0.60512418
0.0033879376 0.0045172572 0.60512418
0.0033879376 0.003387928 0.60512424
0.0033879376 0.0022586286 0.60512424
0.0033879376 0.0011292994 0.60512418
0.0033879376 -2.9802322e-08 0.60512424
0.0033879376 -0.0011292994 0.60512418
0.0033879376 -0.0022586286 0.60512418
0.0033879376 -0.003387928 0.60512418
0.0033879376 -0.0045172572 0.60512418
0.0033879376 -0.0056465566 0.60512424
0.0033879376 -0.006775856 0.60512418
0.0033879376 -0.0079051852 0.60512424
0.0033879376 -0.0090344846 0.60512424
0.0033879376 -0.010163814 0.60512424
0.0033879376 -0.011293113 0.60512418
0.0033879376 -0.012422413 0.60512418
0.0033879376 -0.013551742 0.60512424
0.0033879376 -0.014681041 0.60512418
0.0033879376 -0.01581037 0.60512424
0.0033879457 -0.016939729 0.60512453
0.0033879457 -0.018069059 0.60512453
0.0033879457 -0.019198358 0.60512453
0.0033879457 -0.020327657 0.60512447
0.0048966738 0.055087566 0.61657435
0.0048653781 0.053519189 0.61562991
0.004834481 0.05197069 0.61469752
0.0048039854 0.050441891 0.61377722
0.0047738599 0.048932046 0.61286807
0.0047441106 0.047441095 0.61197031
0.0047147293 0.045968622 0.61108363
0.0046857214 0.044514358 0.61020827
0.0046570566 0.043077797 0.60934323
0.0046287403 0.04165864 0.60848874
0.0046007661 0.040256709 0.60764456
0.0045731398 0.038871706 0.60681081
0.0045458321 0.037503153 0.60598671
0.0045188484 0.036150783 0.60517246
0.0044940095 0.034828573 0.60442287
0.0044940095 0.033705086 0.60442287
0.0044940095 0.032581598 0.60442281
0.0044940095 0.03145805 0.60442287
0.0044940095 0.030334562 0.60442287
0.0044940095 0.029211074 0.60442281
0.0044940095 0.028087556 0.60442287
0.0044940095 0.026964068 0.60442287
0.0044940095 0.025840551 0.60442287
0.0044940095 0.024717093 0.60442281
0.0044940095 0.023593575 0.60442287
0.0044940095 0.022470057 0.60442287
0.0044940095 0.021346569 0.60442281
0.0044940095 0.020223051 0.60442287
0.0044940095 0.019099504 0.60442287
0.0044940095 0.017976046 0.60442281
0.0044940095 0.016852528 0.60442287
0.0044939988 0.01572901 0.60442251
0.0044939988 0.014605492 0.60442257
0.0044939988 0.013481975 0.60442251
0.0044939988 0.012358516 0.60442251
0.0044939988 0.011234999 0.60442257
0.0044939988 0.010111511 0.60442251
0.0044939988 0.0089880228 0.60442257
0.0044939988 0.0078645349 0.60442251
0.0044939988 0.0067410171 0.60442251
0.0044939988 0.0056175292 0.60442257
0.0044939988 0.0044940114 0.60442251
0.0044939988 0.0033704937 0.60442251
0.0044939988 0.0022470057 0.60442257
0.0044939988 0.0011235178 0.60442251
0.0044939988 -0 0.60442257
0.0044939988 -0.0011234879 0.60442251
0.0044939988 -0.0022470057 0.60442251
0.0044939988 -0.0033704937 0.60442257
0.0044939988 -0.0044939816 0.60442251
0.0044939988 -0.0056174994 0.60442257
0.0044939988 -0.0067409575 0.60442251
0.0044939988 -0.0078644753 0.60442251
0.0044939988 -0.0089880228 0.60442257
0.0044939988 -0.010111481 0.60442251
0.0044939988 -0.011234999 0.60442251
0.0044939988 -0.012358487 0.60442251
0.0044939988 -0.013482004 0.60442251
0.0044939988 -0.014605522 0.60442251
0.0044939988 -0.01572901 0.60442251
0.0044940095 -0.016852528 0.60442287
0.0044940095 -0.017976016 0.60442281
0.0044940095 -0.019099534 0.60442281
0.006231681 0.05608514 0.61925024
0.0061911535 0.054482162 0.61827183
0.0061511332 0.052899748 0.61730564
0.0061116274 0.051337689 0.61635184
0.006072626 0.049795538 0.61541021
0.0060341344 0.048273087 0.61448103
0.0059961127 0.046769679 0.61356306
0.0059585669 0.045285106 0.61265665
0.0059214882 0.04381904 0.61176145
0.005884883 0.042371184 0.61087775
0.0058487132 0.040941 0.61000454
0.0058129854 0.03952831 0.60914195
0.0057776915 0.038132757 0.60828996
0.0057428232 0.036754072 0.60744816
0.0057083867 0.035391986 0.60661674
0.0056743477 0.034046113 0.60579503
0.0056407121 0.032716125 0.60498297
0.0056074732 0.031401873 0.60418051
0.0055887452 0.030179232 0.60372835
0.0055887452 0.029061466 0.60372835
0.0055887452 0.02794373 0.60372835
0.0055887452 0.026825994 0.60372835
0.0055887452 0.025708228 0.60372841
0.0055887452 0.024590492 0.60372841
0.0055887452 0.023472756 0.60372835
0.0055887452 0.02235502 0.60372835
0.0055887452 0.021237254 0.60372835
0.0055887452 0.020119488 0.60372835
0.0055887452 0.019001752 0.60372835
0.0055887452 0.017883986 0.60372841
0.0055887452 0.01676625 0.60372841
0.0055887452 0.015648514 0.60372841
0.0055887452 0.014530748 0.60372835
0.0055887452 0.013413012 0.60372835
0.0055887452 0.012295276 0.60372835
0.0055887452 0.01117751 0.60372841
0.0055887452 0.010059744 0.60372835
0.0055887452 0.0089420378 0.60372841
0.0055887452 0.0078242421 0.60372835
0.0055887317 0.0067064762 0.60372806
0.0055887317 0.0055887401 0.60372806
0.0055887317 0.004471004 0.60372806
0.0055887317 0.0033532381 0.60372806
0.0055887317 0.002235502 0.60372806
0.0055887317 0.0011177361 0.60372806
0.0055887317 2.9802322e-08 0.60372806
0.0055887317 -0.0011177063 0.60372806
0.0055887317 -0.0022354722 0.60372806
0.0055887317 -0.0033532083 0.60372806
0.0055887317 -0.004471004 0.60372806
0.0055887317 -0.0055887401 0.60372806
0.0055887317 -0.0067064762 0.60372806
0.0055887317 -0.0078242123 0.60372806
0.0055887317 -0.0089419484 0.60372806
0.0055887317 -0.010059685 0.60372806
0.0055887317 -0.01117748 0.60372806
0.0055887317 -0.012295216 0.60372806
0.0055887317 -0.013412952 0.60372806
0.0055887317 -0.014530718 0.60372806
0.0055887317 -0.015648425 0.603728
0.0055887452 -0.01676622 0.60372835
0.0055887452 -0.017883956 0.60372835
0.0055887452 -0.019001693 0.60372835
0.0075654928 0.055480272 0.62101007
0.0075156991 0.053862512 0.62000829
0.0074665761 0.052266032 0.61901999
0.0074180714 0.050690174 0.6180442
0.0073701935 0.049134642 0.61708093
0.007322948 0.047599196 0.61613047
0.0072762859 0.046083182 0.6151917
0.0072302152 0.044586331 0.61426485
0.0071847234 0.043108374 0.61334962
0.007139801 0.041648865 0.61244583
0.0070954552 0.040207565 0.61155367
0.0070516383 0.038784027 0.61067212
0.0070083593 0.037377894 0.60980141
0.0069656088 0.035988957 0.60894132
0.0069233761 0.034616888 0.60809171
0.0068816696 0.033261418 0.60725266
0.006840446 0.031922072 0.60642326
0.0067997137 0.0305987 0.60560375
0.0067594629 0.029291004 0.60479403
0.0067197019 0.027998775 0.60399407
0.0066803908 0.026721567 0.60320318
0.006672326 0.025577247 0.60304093
0.006672326 0.024465203 0.60304093
0.006672326 0.023353159 0.60304093
0.006672326 0.022241086 0.60304093
0.006672326 0.021129042 0.60304093
0.006672326 0.020016968 0.60304093
0.006672326 0.018904954 0.60304093
0.006672326 0.017792851 0.60304093
0.006672326 0.016680807 0.60304093
0.006672326 0.015568763 0.60304093
0.006672326 0.014456719 0.60304093
0.006672326 0.013344646 0.60304093
0.006672326 0.012232602 0.60304093
0.006672326 0.011120558 0.60304093
0.006672326 0.010008454 0.60304093
0.006672326 0.0088964701 0.60304093
0.006672326 0.0077843666 0.60304093
0.006672326 0.0066723228 0.60304099
0.006672326 0.0055602789 0.60304093
0.006672326 0.004448235 0.60304093
0.006672326 0.0033361614 0.60304093
0.006672326 0.0022241175 0.60304093
0.006672326 0.0011120439 0.60304093
0.006672326 2.9802322e-08 0.60304093
0.006672326 -0.0011120439 0.60304093
0.0066723102 -0.0022241175 0.60304058
0.0066723102 -0.0033361614 0.60304064
0.0066723102 -0.0044481754 0.60304064
0.0066723102 -0.0055602491 0.60304064
0.0066723102 -0.0066722929 0.60304064
0.0066723102 -0.0077843666 0.60304058
0.0066723102 -0.0088963807 0.60304064
0.0066723102 -0.010008454 0.6030407
0.0066723102 -0.011120498 0.60304064
0.0066723102 -0.012232572 0.60304064
0.0066723102 -0.013344646 0.60304064
0.0066723102 -0.01445666 0.60304064
0.006672326 -0.015568763 0.60304093
0.006672326 -0.016680807 0.60304093
0.006672326 -0.017792881 0.60304093
0.006672326 -0.018904924 0.60304093
0.0089308787 0.054861128 0.62281162
0.0088714072 0.053228438 0.62178606
0.0088127228 0.051617354 0.62077409
0.0087548327 0.050027609 0.61977577
0.0086976755 0.048458457 0.61879021
0.0086412588 0.04690972 0.61781728
0.0085855704 0.045380861 0.61685699
0.0085306168 0.04387176 0.61590934
0.0084763411 0.042381704 0.61497337
0.00842275 0.040910512 0.61404926
0.0083698342 0.039457768 0.61313677
0.0083175991 0.038023323 0.61223602
0.0082659917 0.03660655 0.61134601
0.0082150204 0.035207242 0.61046708
0.008164674 0.033825099 0.60959888
0.0081149405 0.032459766 0.60874128
0.00806583 0.031111091 0.60789436
0.0080172904 0.02977851 0.60705733
0.007969331 0.028461903 0.60623032
0.0079219425 0.027160972 0.60541308
0.0078751324 0.025875419 0.60460591
0.007828854 0.024605006 0.60380787
0.0077831168 0.023349345 0.60301912
0.0077449214 0.022128344 0.60236049
0.0077449214 0.021021903 0.60236049
0.0077449214 0.019915491 0.60236055
0.0077449214 0.01880911 0.60236055
0.0077449214 0.017702729 0.60236049
0.0077449214 0.016596287 0.60236049
0.0077449214 0.015489876 0.60236049
0.0077449214 0.014383435 0.60236049
0.0077449214 0.013277024 0.60236049
0.0077449214 0.012170613 0.60236049
0.0077449214 0.011064172 0.60236049
0.0077449214 0.0099577606 0.60236049
0.0077449214 0.0088513494 0.60236049
0.0077449214 0.0077449381 0.60236049
0.0077449214 0.0066385269 0.60236049
0.0077449214 0.0055320561 0.60236049
0.0077449214 0.0044256747 0.60236049
0.0077449214 0.0033192635 0.60236049
0.0077449214 0.0022128224 0.60236049
0.0077449214 0.0011064112 0.60236055
0.0077449214 -0 0.60236055
0.0077449214 -0.0011063814 0.60236049
0.0077449037 -0.0022128224 0.60236025
0.0077449037 -0.0033192337 0.60236019
0.0077449037 -0.0044256449 0.60236025
0.0077449037 -0.0055320859 0.60236025
0.0077449037 -0.0066384673 0.60236019
0.0077449037 -0.0077449083 0.60236025
0.0077449037 -0.0088512897 0.60236019
0.0077449037 -0.009957701 0.60236019
0.0077449037 -0.011064142 0.60236019
0.0077449037 -0.012170553 0.60236019
0.0077449037 -0.013276964 0.60236019
0.0077449037 -0.014383376 0.60236019
0.0077449214 -0.015489846 0.60236055
0.0077449214 -0.016596287 0.60236055
0.0077449214 -0.017702639 0.60236049
0.0077449214 -0.01880911 0.60236055
0.010399495 0.055897295 0.62572038
0.010328974 0.054227114 0.62465626
0.010259374 0.052579314 0.62360615
0.010190706 0.050953567 0.62256992
0.010122951 0.049349427 0.62154764
0.010056118 0.047766566 0.62053919
0.0099901343 0.046204388 0.61954355
0.0099250115 0.044662595 0.61856097
0.0098607335 0.04314068 0.61759114
0.0097973067 0.041638523 0.61663407
0.009734666 0.0401555 0.61568886
0.0096728215 0.038691282 0.61475575
0.0096117575 0.037245542 0.61383432
0.009551459 0.035817981 0.61292452
0.0094919372 0.034408301 0.61202633
0.0094331289 0.033015966 0.61113906
0.0093750441 0.031640768 0.61026263
0.0093176709 0.030282408 0.60939693
0.0092610186 0.028940678 0.60854208
0.0092050275 0.0276151 0.60769725
0.0091497106 0.026305437 0.60686255
0.0090950541 0.02501142 0.60603786
0.0090410467 0.023732781 0.605223
0.0089876987 0.022469223 0.60441804
0.0089349551 0.021220535 0.6036222
0.0088828262 0.019986361 0.6028356
0.0088313036 0.018766522 0.60205817
0.008806698 0.017613411 0.60168695
0.008806698 0.016512543 0.60168695
0.008806698 0.015411764 0.60168695
0.008806698 0.014310896 0.60168689
0.008806698 0.013210058 0.60168695
0.008806698 0.01210919 0.60168695
0.008806698 0.011008382 0.60168695
0.008806698 0.0099075437 0.60168695
0.008806698 0.0088067055 0.60168695
0.008806698 0.0077058971 0.60168689
0.008806698 0.0066050291 0.60168689
0.008806698 0.0055041909 0.60168695
0.008806698 0.0044033527 0.60168695
0.008806698 0.0033025146 0.60168695
0.008806698 0.0022016764 0.60168695
0.008806698 0.0011008382 0.60168695
0.008806698 2.9802322e-08 0.60168689
0.008806698 -0.0011008382 0.60168689
0.0088066775 -0.0022016764 0.60168666
0.0088066775 -0.0033024848 0.6016866
0.0088066775 -0.0044033527 0.6016866
0.0088066775 -0.0055041611 0.6016866
0.0088066775 -0.0066049993 0.6016866
0.0088066775 -0.0077058375 0.6016866
0.0088066775 -0.0088066757 0.60168666
0.0088066775 -0.0099075139 0.6016866
0.0088066775 -0.011008352 0.6016866
0.0088066775 -0.01210916 0.60168666
0.0088066775 -0.013209999 0.6016866
0.0088066775 -0.014310837 0.60168666
0.008806698 -0.015411735 0.60168695
0.008806698 -0.016512543 0.60168695
0.008806698 -0.017613381 0.60168695
0.011842246 0.055263817 0.62763584
0.011760934 0.053577572 0.62654525
0.011680763 0.051914513 0.62546998
0.011601646 0.050273806 0.62440884
0.011523595 0.048655182 0.623362
0.011446586 0.047058225 0.62232912
0.01137063 0.045482546 0.62131035
0.011295645 0.043927491 0.6203047
0.011221643 0.04239288 0.61931217
0.011148605 0.040878206 0.61833251
0.011076539 0.039383262 0.61736596
0.011005371 0.037907392 0.61641145
0.010935112 0.036450386 0.6154691
0.010865744 0.035011858 0.61453873
0.01079725 0.033591419 0.61362004
0.010729642 0.032188952 0.61271322
0.010662847 0.03080377 0.61181742
0.010596881 0.029435784 0.61093265
0.010531724 0.028084576 0.61005872
0.010467391 0.026749969 0.60919589
0.010403813 0.025431544 0.60834312
0.010341002 0.024129003 0.60750073
0.010278946 0.022842109 0.60666841
0.010217629 0.021570563 0.60584599
0.010157065 0.020314127 0.6050337
0.01009719 0.019072473 0.60423064
0.010038016 0.017845362 0.60343695
0.0099795321 0.016632527 0.60265255
0.0099217501 0.015433878 0.60187757
0.0098646088 0.014248908 0.60111117
0.0098578185 0.013143778 0.6010201
0.0098578185 0.012048453 0.6010201
0.0098578185 0.010953128 0.6010201
0.0098578185 0.0098578334 0.6010201
0.0098578185 0.0087625086 0.6010201
0.0098578185 0.0076671839 0.6010201
0.0098578185 0.0065718889 0.6010201
0.0098578185 0.005476594 0.6010201
0.0098578185 0.0043812394 0.6010201
0.0098578185 0.0032859445 0.6010201
0.0098578185 0.0021906197 0.6010201
0.0098578185 0.0010953248 0.6010201
0.0098578185 2.9802322e-08 0.6010201
0.0098578185 -0.001095295 0.6010201
0.0098578185 -0.0021906197 0.6010201
0.0098578185 -0.0032859445 0.6010201
0.0098578185 -0.0043812394 0.6010201
0.0098578185 -0.0054765642 0.6010201
0.0098578185 -0.0065718591 0.6010201
0.0098578185 -0.0076672137 0.6010201
0.0098578185 -0.0087625086 0.6010201
0.0098578185 -0.0098578334 0.6010201
0.0098577952 -0.010953099 0.6010198
0.0098577952 -0.012048423 0.6010198
0.0098577952 -0.013143688 0.6010198
0.0098577952 -0.014239013 0.6010198
0.0098578185 -0.015334398 0.6010201
0.0098578185 -0.016429693 0.6010201
0.0098578185 -0.017524987 0.6010201
0.013414544 0.056341112 0.630732
0.013320654 0.054614693 0.62959868
0.013228069 0.052912295 0.62848103
0.013136761 0.051233381 0.62737882
0.013046743 0.049577624 0.62629223
0.012957914 0.047944307 0.62521994
0.012870286 0.046333045 0.6241622
0.012783836 0.044743419 0.62311864
0.012698572 0.043175131 0.62208945
0.012614405 0.041627526 0.62107348
0.012531347 0.040100306 0.62007087
0.012449374 0.038593054 0.61908138
0.012368469 0.037105441 0.61810476
0.012288639 0.035637051 0.61714113
0.012209801 0.034187466 0.61618942
0.012131969 0.032756329 0.61524993
0.012055123 0.031343311 0.61432236
0.011979275 0.029948205 0.61340672
0.011904345 0.028570443 0.61250222
0.011830346 0.027209818 0.61160904
0.011757262 0.025866002 0.61072683
0.011685076 0.024538636 0.60985547
0.011613798 0.023227602 0.60899508
0.011543358 0.021932364 0.60814482
0.011473766 0.020652801 0.60730469
0.011405008 0.019388527 0.60647476
0.011337097 0.018139362 0.60565501
0.011269962 0.01690495 0.60484463
0.011203619 0.015685111 0.60404378
0.011138053 0.014479458 0.60325229
0.011073248 0.013287932 0.60247004
0.011009219 0.012110144 0.60169715
0.0109459 0.010945886 0.60093284
0.010898442 0.0098085999 0.60035998
0.010898442 0.0087187886 0.60035992
0.010898442 0.0076289177 0.60035992
0.010898442 0.0065390766 0.60035992
0.010898442 0.0054492056 0.60035998
0.010898442 0.0043593645 0.60035992
0.010898442 0.0032695532 0.60035992
0.010898442 0.0021797121 0.60035998
0.010898442 0.0010898411 0.60035998
0.010898442 2.9802322e-08 0.60035992
0.010898442 -0.0010898113 0.60035992
0.010898442 -0.0021796823 0.60035992
0.010898442 -0.0032695532 0.60035998
0.010898442 -0.0043593943 0.60035998
0.010898442 -0.0054492056 0.60035992
0.010898442 -0.0065390766 0.60035998
0.010898442 -0.0076288879 0.60035998
0.010898442 -0.0087187588 0.60035998
0.010898442 -0.0098085999 0.60035992
0.010898417 -0.010898441 0.60035968
0.010898417 -0.011988252 0.60035962
0.010898417 -0.013078123 0.60035968
0.010898417 -0.014167935 0.60035968
0.010898442 -0.015257806 0.60035992
0.010898442 -0.016347677 0.60035998
0.010898442 -0.017437518 0.60035998
0.014941906 0.055692524 0.63277209
0.01483606 0.053949326 0.63161057
0.01473166 0.052230418 0.63046491
0.01462872 0.050535619 0.62933528
0.014527208 0.048864245 0.62822133
0.014427137 0.047216058 0.62712318
0.014328394 0.045590341 0.62603962
0.014230994 0.043986678 0.62497079
0.014134908 0.042404741 0.62391633
0.014040151 0.040844113 0.62287647
0.013946617 0.039304107 0.62185007
0.013854321 0.037784547 0.62083721
0.013763241 0.036284894 0.61983776
0.013673347 0.034804881 0.6188513
0.013584658 0.033344179 0.61787802
0.013497076 0.031902164 0.61691701
0.013410616 0.030478686 0.61596823
0.013325257 0.029073298 0.61503142
0.013241011 0.027685761 0.61410701
0.01315779 0.02631557 0.61319375
0.013075609 0.024962515 0.61229187
0.012994448 0.023626298 0.61140126
0.012914289 0.022306532 0.61052161
0.012835144 0.021002978 0.60965312
0.012756932 0.019715279 0.60879481
0.012679668 0.018443167 0.60794699
0.012603332 0.017186373 0.60710931
0.012527942 0.01594466 0.606282
0.012453419 0.014717668 0.60546416
0.012379777 0.01350525 0.60465604
0.012307 0.012307018 0.6038574
0.012235073 0.011122793 0.60306811
0.012164013 0.0099523962 0.60228831
0.012093743 0.0087954402 0.6015172
0.012024282 0.0076518357 0.60075492
0.011955612 0.0065212548 0.60000139
0.011928725 0.0054221749 0.59970641
0.011928725 0.004337728 0.59970635
0.011928725 0.0032532811 0.59970641
0.011928725 0.0021688342 0.59970641
0.011928725 0.0010844469 0.59970641
0.011928725 -0 0.59970641
0.011928725 -0.0010844469 0.59970641
0.011928725 -0.002168864 0.59970629
0.011928725 -0.0032532811 0.59970635
0.011928725 -0.004337728 0.59970635
0.011928725 -0.0054221451 0.59970635
0.011928725 -0.006506592 0.59970635
0.011928725 -0.0075910091 0.59970635
0.011928725 -0.008675456 0.59970635
0.011928725 -0.0097598732 0.59970641
0.011928699 -0.01084429 0.59970605
0.011928699 -0.011928707 0.59970605
0.011928699 -0.013013124 0.59970605
0.011928699 -0.014097542 0.59970605
0.011928725 -0.015182018 0.59970641
0.011928725 -0.016266435 0.59970641
0.011928725 -0.017350852 0.59970641
0.016508292 0.055027634 0.63486475
0.016389821 0.053266913 0.63367301
0.016273085 0.051531404 0.63249874
0.016157953 0.049820364 0.63134056
0.01604444 0.048133314 0.63019872
0.015932508 0.046469837 0.62907279
0.015822174 0.044829488 0.62796289
0.015713312 0.043211609 0.62686789
0.01560594 0.041615844 0.62578773
0.015500023 0.040041715 0.6247223
0.015395536 0.038488835 0.62367129
0.015292489 0.036956847 0.62263471
0.015190772 0.035445124 0.62161148
0.015090398 0.033953398 0.62060183
0.014991342 0.032481253 0.61960536
0.014893617 0.03102836 0.61862236
0.01479712 0.029594243 0.6176517
0.014701866 0.028178573 0.6166935
0.014607829 0.026781023 0.61574751
0.014514988 0.025401235 0.61481357
0.014423356 0.02403897 0.61389184
0.014332837 0.022693694 0.61298132
0.014243448 0.021365166 0.61208212
0.014155168 0.020053178 0.61119413
0.014068009 0.018757343 0.61031735
0.013981882 0.017477363 0.609451
0.013896804 0.01621291 0.60859513
0.013812755 0.014963835 0.6077497
0.013729716 0.013729751 0.6069144
0.013647703 0.012510389 0.60608941
0.013566631 0.011305511 0.6052739
0.013486518 0.010114908 0.60446799
0.013407344 0.0089382231 0.60367161
0.013329125 0.0077753365 0.60288477
0.013251784 0.0066258907 0.60210681
0.013175335 0.0054897368 0.60133779
0.013099762 0.0043666065 0.60057753
0.013025082 0.003256321 0.59982628
0.012951218 0.0021585524 0.5990833
0.012948822 0.0010790825 0.59905916
0.012948822 -0 0.59905922
0.012948822 -0.0010790825 0.59905922
0.012948822 -0.0021581054 0.59905922
0.012948822 -0.0032372177 0.59905922
0.012948822 -0.0043162704 0.59905922
0.012948822 -0.0053953528 0.59905922
0.012948822 -0.0064744055 0.59905922
0.012948822 -0.007553488 0.59905922
0.012948822 -0.0086325705 0.59905922
0.012948822 -0.0097115934 0.59905922
0.012948822 -0.010790676 0.59905922
0.012948822 -0.011869758 0.59905922
0.012948822 -0.012948841 0.59905922
0.012948822 -0.014027894 0.59905922
0.012948822 -0.015106946 0.59905922
0.012948822 -0.016186029 0.59905922
0.018248793 0.056150138 0.63825208
0.018115178 0.054345548 0.63701147
0.017983506 0.052567184 0.6357888
0.017853733 0.050814509 0.63458383
0.017725874 0.049087048 0.63339663
0.01759978 0.047384024 0.63222575
0.017475469 0.04570508 0.63107151
0.0173529 0.04404965 0.62993342
0.017232088 0.042417437 0.6288116
0.0171129 0.040807664 0.62770486
0.016995346 0.039220065 0.62661332
0.016879398 0.037654042 0.62553668
0.016765023 0.036109298 0.62447464
0.01665223 0.034585416 0.62342733
0.016540902 0.0330818 0.62239361
0.016431052 0.03159821 0.62137359
0.016322652 0.030134141 0.62036705
0.016215716 0.028689355 0.6193741
0.016110128 0.027263314 0.61839366
0.016005907 0.02585569 0.61742598
0.015903024 0.024466217 0.61647063
0.015801458 0.023094445 0.61552757
0.015701219 0.021740139 0.61459684
0.015602206 0.020402879 0.61367744
0.015504434 0.019082397 0.61276954
0.015407878 0.017778337 0.61187297
0.015312556 0.01649043 0.6109879
0.01521837 0.015218377 0.61011338
0.015125334 0.013961852 0.60924947
0.015033429 0.012720615 0.60839605
0.014942635 0.011494339 0.60755301
0.014852966 0.010282844 0.60672039
0.014764331 0.0090857446 0.60589737
0.014676748 0.0079028606 0.60508412
0.014590199 0.006733954 0.60428047
0.014504697 0.0055787563 0.60348654
0.014420159 0.0044369698 0.6027016
0.014336601 0.0033084452 0.60192573
0.014254005 0.0021929145 0.6011588
0.014172355 0.0010901988 0.60040057
0.014091667 2.9802322e-08 0.5996514
0.014011861 -0.0010778308 0.59891039
0.013958883 -0.0021474957 0.59841847
0.013958883 -0.0032212734 0.59841847
0.013958883 -0.0042950511 0.59841847
0.013958883 -0.005368799 0.59841847
0.013958883 -0.0064425766 0.59841847
0.013958883 -0.0075162947 0.59841841
0.013958883 -0.0085900724 0.59841841
0.013958883 -0.0096638203 0.59841841
0.013958883 -0.010737598 0.59841847
0.013958883 -0.011811376 0.59841847
0.013958883 -0.012885094 0.59841847
0.013958883 -0.013958901 0.59841847
0.013958883 -0.015032649 0.59841847
0.013958883 -0.016106397 0.59841847
0.019911794 0.055468559 0.64048743
0.019764151 0.053645551 0.6392144
0.019618627 0.051849246 0.63795972
0.019475229 0.050079167 0.63672328
0.019333912 0.048334777 0.63550484
0.019194689 0.04661569 0.6343044
0.019057399 0.044921011 0.63312066
0.018922059 0.043250442 0.63195372
0.018788628 0.041603416 0.63080323
0.01865712 0.039979577 0.62966943
0.018527387 0.038378149 0.62855083
0.018399447 0.036798894 0.62744766
0.01827326 0.035241306 0.6263597
0.018148841 0.033704966 0.62528694
0.018026058 0.032189369 0.62422824
0.017904924 0.030694157 0.62318385
0.017785408 0.029218882 0.62215328
0.017667478 0.027763158 0.62113649
0.017551146 0.026326716 0.62013352
0.01743629 0.024909019 0.61914313
0.017322928 0.023509681 0.61816573
0.017211033 0.022128463 0.61720097
0.017100615 0.020765066 0.61624885
0.016991563 0.019418925 0.61530858
0.016883891 0.01808989 0.61438024
0.016777577 0.016777575 0.61346364
0.016672593 0.01548171 0.61255836
0.016568957 0.014201969 0.61166483
0.016466558 0.012938052 0.61078191
0.01636542 0.011689603 0.60990989
0.016265513 0.010456413 0.60904849
0.01616686 0.0092381835 0.60819787
0.01606936 0.0080347061 0.6073572
0.015973026 0.0068455935 0.60652661
0.015877839 0.0056706667 0.60570586
0.015783783 0.0045096576 0.60489494
0.015690871 0.003362298 0.60409385
0.015599008 0.0022284389 0.60330176
0.015508216 0.0011077523 0.60251892
0.015418475 -2.9802322e-08 0.60174519
0.0153298 -0.0010949671 0.60098058
0.015242105 -0.0021774173 0.60022449
0.015155409 -0.0032475591 0.59947693
0.015069692 -0.0043056011 0.5987379
0.014984941 -0.005351752 0.59800714
0.014959054 -0.006411016 0.59778392
0.014959054 -0.0074795485 0.59778398
0.014959054 -0.0085480213 0.59778392
0.014959054 -0.0096165538 0.59778398
0.014959054 -0.010685027 0.59778392
0.014959054 -0.011753529 0.59778398
0.014959054 -0.012822032 0.59778392
0.014959054 -0.013890564 0.59778392
0.014959054 -0.014959067 0.59778392
0.014959054 -0.01602757 0.59778392
0.02161932 0.05476895 0.64278299
0.021456828 0.052926868 0.64147532
0.021296823 0.051112384 0.64018774
0.021139123 0.049324602 0.63891864
0.020983743 0.047563165 0.63766825
0.020830629 0.045827389 0.63643605
0.020679794 0.044116914 0.63522226
0.020531069 0.042430848 0.63402545
0.020384468 0.040768951 0.63284564
0.020239944 0.039130598 0.63168263
0.020097513 0.037515342 0.63053644
0.019957017 0.035922647 0.62940574
0.01981847 0.034352034 0.62829089
0.019681834 0.032803059 0.62719125
0.019547071 0.031275332 0.6261068
0.019414192 0.029768467 0.62503743
0.019283056 0.028281838 0.62398219
0.019153679 0.026815146 0.62294102
0.019026026 0.025368035 0.62191379
0.018900115 0.023940116 0.62090051
0.01877581 0.022530973 0.61990023
0.018653128 0.021140218 0.61891294
0.01853204 0.019767523 0.61793852
0.01841256 0.01841256 0.61697698
0.018294565 0.017074972 0.61602741
0.018178074 0.015754342 0.61508995
0.018063055 0.014450431 0.61416435
0.017949484 0.013162941 0.61325037
0.017837375 0.011891633 0.6123482
0.017726615 0.010635972 0.61145693
0.017617222 0.0093958676 0.61057657
0.01750917 0.0081709623 0.60970706
0.017402435 0.0069609582 0.60884809
0.017297037 0.0057656765 0.60799992
0.017192865 0.0045847893 0.60716164
0.017089942 0.0034180284 0.60633337
0.016988242 0.0022651255 0.60551488
0.016887788 0.0011258423 0.60470659
0.016788473 -0 0.60390735
0.016690319 -0.0011126995 0.60311741
0.016593309 -0.0022124648 0.60233676
0.016497416 -0.0032994747 0.60156506
0.016402666 -0.0043740273 0.6008026
0.01630896 -0.0054363012 0.60004848
0.016216317 -0.0064865053 0.59930301
0.016124722 -0.0075248778 0.59856588
0.016034191 -0.008551538 0.59783733
0.01594948 -0.0095696747 0.59715563
0.01594948 -0.010632962 0.59715563
0.01594948 -0.011696279 0.59715569
0.01594948 -0.012759566 0.59715563
0.01594948 -0.013822883 0.59715563
0.01594948 -0.014886171 0.59715557
0.01594948 -0.015949488 0.59715557
0.02355385 0.055940419 0.64650416
0.023373131 0.054050356 0.64514077
0.023195093 0.052188993 0.64379758
0.023019748 0.050355703 0.64247471
0.022847103 0.048550129 0.64117217
0.022676958 0.046771228 0.63988858
0.022509331 0.045018673 0.63862389
0.022344161 0.043291807 0.6373778
0.022181464 0.041590273 0.63615036
0.022021057 0.039913148 0.63494015
0.021862952 0.038260162 0.63374734
0.021707101 0.03663072 0.63257158
0.021553518 0.035024494 0.63141286
0.021402029 0.033440679 0.63027
0.02125266 0.031878978 0.62914306
0.021105358 0.030338973 0.62803173
0.020960085 0.028820157 0.62693578
0.020816857 0.027322143 0.62585521
0.020675514 0.025844395 0.62478882
0.02053608 0.024386615 0.62373686
0.020398511 0.022948325 0.62269902
0.02026283 0.021529257 0.62167537
0.020128887 0.020128876 0.62066483
0.019996703 0.018746942 0.61966759
0.019866245 0.01738295 0.61868334
0.019737478 0.016036719 0.6177119
0.019610418 0.014707834 0.61675334
0.019484935 0.013395905 0.61580658
0.019361049 0.012100667 0.61487198
0.019238727 0.010821819 0.61394912
0.019117989 0.0095590055 0.61303824
0.01899871 0.0083119571 0.61213827
0.018880909 0.0070803463 0.61124957
0.018764559 0.0058639348 0.61037177
0.018649638 0.0046624243 0.60950476
0.018536158 0.0034755468 0.60864866
0.018424006 0.0023030043 0.60780251
0.018313205 0.001144588 0.60696661
0.018203728 -0 0.60614061
0.018095596 -0.0011309683 0.60532486
0.017988697 -0.0022485852 0.60451835
0.017883055 -0.0033530593 0.60372132
0.017778644 -0.0044446588 0.60293365
0.017675446 -0.0055235624 0.60215509
0.017573481 -0.0065900385 0.60138577
0.017472645 -0.0076442957 0.60062504
0.01737296 -0.0086864829 0.59987301
0.017274406 -0.0097168386 0.59912944
0.017176963 -0.010735601 0.59839433
0.017080652 -0.01174292 0.59766769
0.016985377 -0.012739033 0.59694892
0.016930306 -0.013755888 0.59653342
0.016930306 -0.014813989 0.59653342
0.025372477 0.055222452 0.64896464
0.025175054 0.053311884 0.64756286
0.024980752 0.05143097 0.64618313
0.024789354 0.049578696 0.64482409
0.024600863 0.047754616 0.64348572
0.024415294 0.045958191 0.64216805
0.02423243 0.044188559 0.64086962
0.024052285 0.042445213 0.63959044
0.023874799 0.040727586 0.63833022
0.02369998 0.039035261 0.63708884
0.023527635 0.037367433 0.63586509
0.023357781 0.035723656 0.63465905
0.023190359 0.034103483 0.63347024
0.023025321 0.032506347 0.63229841
0.022862682 0.03093189 0.63114351
0.02270226 0.029379398 0.63000441
0.022544071 0.027848542 0.62888122
0.022388073 0.026338905 0.62777346
0.02223428 0.0248501 0.62668145
0.022082526 0.023381501 0.62560391
0.021932829 0.02193287 0.62454098
0.021785147 0.02050367 0.62349236
0.0216395 0.019093692 0.62245816
0.021495728 0.017702371 0.62143731
0.021353856 0.016329408 0.62042993
0.021213844 0.014974505 0.61943573
0.021075657 0.013637185 0.61845452
0.020939311 0.01231727 0.61748636
0.020804666 0.011014253 0.6165303
0.02067174 0.0097278655 0.61558652
0.020540502 0.0084578693 0.61465454
0.02041092 0.007203877 0.61373454
0.020283014 0.0059655905 0.61282629
0.02015665 0.0047427714 0.61192894
0.020031853 0.0035350323 0.61104286
0.01990859 0.0023422241 0.61016762
0.019786883 0.0011639297 0.60930341
0.019666607 -0 0.60844934
0.019547785 -0.001149863 0.60760564
0.019430391 -0.0022858977 0.60677207
0.019314397 -0.003408432 0.60594845
0.019199826 -0.004517585 0.60513496
0.019086562 -0.0056137145 0.60433072
0.018974625 -0.0066969395 0.60353589
0.018863995 -0.0077675283 0.60275036
0.018754689 -0.0088257194 0.60197425
0.018646602 -0.0098717213 0.60120672
0.018539751 -0.010905713 0.60044801
0.018434118 -0.011927962 0.59969795
0.018329684 -0.012938619 0.59895641
0.018226465 -0.013937891 0.59822345
0.018124364 -0.014925957 0.59749848
0.027460547 0.056446701 0.65295857
0.027242173 0.054484338 0.6514942
0.027027246 0.052552968 0.65005285
0.026815686 0.050651819 0.64863408
0.026607493 0.048780382 0.6472379
0.026402425 0.046937674 0.6458627
0.026200496 0.0451231 0.64450854
0.02600171 0.043336213 0.64317548
0.025805842 0.041576117 0.64186192
0.0256129 0.039842308 0.64056802
0.025422825 0.038134247 0.63929337
0.025235625 0.036451459 0.63803792
0.025051085 0.034793198 0.63680041
0.024869226 0.033158988 0.63558084
0.024689985 0.031548321 0.63437879
0.024513314 0.029960692 0.63319409
0.024339221 0.028395772 0.63202655
0.024167517 0.026852816 0.63087505
0.023998216 0.025331467 0.6297397
0.023831271 0.023831248 0.62862015
0.023666698 0.022351891 0.62751651
0.023504319 0.020892709 0.62642759
0.023344152 0.019453466 0.62535352
0.023186153 0.018033683 0.62429392
0.023030277 0.016633004 0.62324858
0.022876548 0.01525104 0.62221766
0.022724794 0.013887376 0.62119997
0.022575043 0.012541682 0.62019569
0.02242725 0.01121363 0.61920458
0.02228144 0.0099028349 0.61822677
0.022137452 0.0086089969 0.61726117
0.021995317 0.0073317885 0.61630797
0.021854993 0.0060708523 0.61536694
0.021716451 0.0048259199 0.61443782
0.021579709 0.0035966039 0.61352086
0.021444621 0.0023826957 0.61261493
0.021311214 0.0011839569 0.61172032
0.02117946 2.9802322e-08 0.61083668
0.021049377 -0.0011693835 0.60996437
0.020920828 -0.0023245513 0.60910231
0.02079384 -0.0034656525 0.60825074
0.020668386 -0.0045929551 0.60740936
0.020544436 -0.0057067871 0.60657823
0.020422012 -0.0068073273 0.60575718
0.020300992 -0.007894814 0.6049456
0.020181395 -0.0089695156 0.60414356
0.020063199 -0.010031611 0.60335094
0.019946381 -0.011081338 0.60256755
0.019830963 -0.012118906 0.60179353
0.019716823 -0.013144583 0.60102808
0.019603994 -0.014158428 0.60027146
0.019492446 -0.015160799 0.59952337
0.029402167 0.055709362 0.6556018
0.029165121 0.053725243 0.65409577
0.028931772 0.051772654 0.65261328
0.028702127 0.04985109 0.65115428
0.0284761 0.047959775 0.64971828
0.028253695 0.046098143 0.6483053
0.028034648 0.04426524 0.64691371
0.027818974 0.042460531 0.64554346
0.027606674 0.040683538 0.64419466
0.027397508 0.038933277 0.64286584
0.027191488 0.037209392 0.64155692
0.026988544 0.035511255 0.64026755
0.026788605 0.033838242 0.63899732
0.026591688 0.032189935 0.63774627
0.026397567 0.030565619 0.63651299
0.026206257 0.028964788 0.63529754
0.026017701 0.027387053 0.6340996
0.025831914 0.025831908 0.63291925
0.025648687 0.024298787 0.63175523
0.025468042 0.022787213 0.63060749
0.025289923 0.021296799 0.62947589
0.02511435 0.019827157 0.62836045
0.024941128 0.018377692 0.62725991
0.024770278 0.016948104 0.62617451
0.024601756 0.015537947 0.62510383
0.024435509 0.014146864 0.62404764
0.024271557 0.012774527 0.62300605
0.024109729 0.011420399 0.62197793
0.023950044 0.010084242 0.62096339
0.023792462 0.0087656379 0.61996222
0.023636935 0.0074642897 0.61897421
0.023483494 0.006179899 0.61799932
0.023331972 0.004911989 0.6170367
0.023182392 0.0036603808 0.61608636
0.023034716 0.0024247169 0.61514813
0.02288897 0.0012046993 0.61422217
0.022744996 -0 0.61330748
0.022602824 -0.0011896193 0.61240423
0.022462418 -0.0023644567 0.61151218
0.022323746 -0.0035247803 0.61063123
0.022186833 -0.004670918 0.60976136
0.022051532 -0.0058030486 0.60890174
0.02191787 -0.0069214404 0.60805261
0.02178582 -0.0080263317 0.60721362
0.021655405 -0.0091180503 0.60638511
0.021526489 -0.010196745 0.60556602
0.021399099 -0.011262685 0.60475677
0.021273209 -0.012316078 0.60395694
0.02114879 -0.013357133 0.60316646
0.021025868 -0.014386088 0.60238552
0.020904317 -0.015403152 0.60161328
0.031400438 0.054950774 0.65832251
0.031143522 0.052944005 0.6567719
0.030890876 0.050969958 0.65524703
0.030642197 0.049027532 0.65374613
0.03039749 0.047116101 0.65226924
0.030156661 0.045234978 0.65081573
0.029919712 0.043383569 0.64938557
0.029686363 0.041560918 0.64797711
0.029456628 0.039766431 0.64659059
0.029230509 0.03799966 0.64522582
0.02900775 0.036259711 0.64388138
0.028788358 0.034546047 0.64255726
0.028572261 0.032858104 0.64125299
0.028359381 0.031195343 0.6399681
0.028149735 0.029557198 0.63870281
0.027943086 0.027943105 0.63745558
0.027739447 0.026352465 0.63622653
0.027538754 0.024784893 0.63501519
0.027341023 0.023239911 0.63382179
0.027146032 0.021716863 0.63264495
0.026953805 0.020215362 0.63148475
0.026764283 0.018734992 0.63034081
0.026577404 0.017275333 0.62921298
0.026393192 0.015835941 0.62810111
0.026211442 0.014416307 0.62700415
0.02603218 0.013016105 0.6259222
0.025855353 0.011634946 0.62485498
0.02568098 0.010272413 0.62380254
0.025508875 0.0089281201 0.62276381
0.025339061 0.0076016784 0.62173891
0.025171496 0.0062928796 0.62072754
0.025006128 0.0050012469 0.61972946
0.024842989 0.0037264526 0.61874479
0.024681898 0.0024681985 0.61777252
0.024522882 0.0012261271 0.61681277
0.024365902 -0 0.61586535
0.024210982 -0.0012105405 0.61493033
0.024057958 -0.0024057925 0.6140067
0.023906855 -0.003586024 0.61309481
0.02375764 -0.0047515333 0.61219418
0.023610273 -0.0059025586 0.61130476
0.023464784 -0.0070394576 0.61042666
0.023321021 -0.0081623495 0.60955894
0.023179004 -0.0092716217 0.60870183
0.023038711 -0.010367423 0.60785508
0.022900105 -0.011450052 0.60701847
0.022763211 -0.012519777 0.60619223
0.022627888 -0.013576716 0.60537553
0.022494165 -0.014621168 0.60456842
0.033740237 0.056233734 0.66274726
0.033457782 0.054169744 0.66112369
0.033180021 0.052140057 0.65952712
0.032906834 0.050143749 0.65795684
0.032638211 0.048180223 0.65641272
0.032373838 0.046248347 0.65489304
0.032113712 0.044347495 0.6533978
0.031857733 0.042477012 0.6519264
0.031605903 0.040636152 0.65047884
0.031357922 0.038824141 0.64905345
0.031113805 0.037040234 0.64765024
0.030873457 0.035283983 0.64626867
0.03063689 0.033554703 0.64490885
0.030403826 0.031851649 0.64356917
0.030174283 0.030174315 0.6422497
0.029948179 0.028522104 0.64095008
0.029725529 0.02689451 0.63967025
0.029506076 0.025290936 0.63840878
0.02928984 0.023710847 0.63716584
0.029076749 0.022153735 0.63594097
0.02886682 0.020619214 0.63473427
0.028659821 0.019106567 0.63354445
0.028455766 0.017615497 0.63237149
0.0282546 0.016145498 0.63121516
0.028056256 0.014696121 0.6300751
0.027860753 0.01326704 0.62895131
0.027667884 0.011857659 0.62784266
0.027477663 0.010467708 0.62674922
0.027290042 0.0090966821 0.62567079
0.027104964 0.0077443123 0.62460691
0.026922453 0.0064101219 0.62355781
0.026742311 0.0050937533 0.62252235
0.026564565 0.0037949383 0.62150061
0.026389167 0.0025132596 0.6204924
0.026216136 0.0012484193 0.61949778
0.026045293 -0 0.61851573
0.025876662 -0.001232177 0.61754644
0.025710201 -0.0024485886 0.61658967
0.025545867 -0.0036493838 0.61564505
0.025383687 -0.00483495 0.61471283
0.025223488 -0.0060055852 0.61379194
0.025065297 -0.0071615279 0.61288267
0.024909079 -0.0083030164 0.61198473
0.02475486 -0.0094304085 0.61109817
0.024602475 -0.010543913 0.61022228
0.024451956 -0.011643797 0.60935706
0.024303265 -0.0127303 0.60850239
0.024156375 -0.013803631 0.60765803
0.024011306 -0.014864147 0.60682416
0.03588162 0.05545339 0.66568112
0.035576858 0.05336526 0.66400898
0.03527711 0.051312149 0.66236424
0.034982368 0.049293339 0.66074705
0.034692515 0.047307968 0.65915668
0.034407537 0.04535538 0.65759313
0.03412709 0.043434501 0.65605432
0.033851177 0.041544646 0.65454042
0.033579692 0.03968513 0.65305078
0.033312634 0.037855268 0.65158552
0.033049684 0.036054194 0.65014273
0.032790851 0.034281373 0.64872253
0.032536045 0.03253603 0.64732456
0.032285266 0.030817747 0.64594847
0.032038223 0.029125661 0.644593
0.031794932 0.027459264 0.64325815
0.031555314 0.02581799 0.64194334
0.031319369 0.024201363 0.64064872
0.031086836 0.022608608 0.63937289
0.030857729 0.021039367 0.63811582
0.030631976 0.019493073 0.63687718
0.0304095 0.017969251 0.63565642
0.030190323 0.016467452 0.63445389
0.029974192 0.014987111 0.63326794
0.029761137 0.013527781 0.63209891
0.029551089 0.012089103 0.63094646
0.029344067 0.010670573 0.62981057
0.029139843 0.0092717707 0.62869006
0.028938444 0.0078923106 0.62758505
0.028739808 0.0065318048 0.62649512
0.028543962 0.005189836 0.62542051
0.028350687 0.0038660169 0.62436008
0.028160013 0.0025600195 0.62331384
0.027971886 0.0012714565 0.62228161
0.027786255 -0 0.62126315
0.027603146 -0.001254648 0.62025845
0.027422361 -0.0024929047 0.61926645
0.027243931 -0.0037150979 0.61828744
0.027067807 -0.0049214363 0.61732113
0.026894014 -0.0061123073 0.61636752
0.02672237 -0.0072878897 0.61542571
0.026552904 -0.0084486306 0.61449587
0.026385574 -0.0095947385 0.61357778
0.026220338 -0.010726511 0.6126712
0.026057227 -0.011844158 0.61177617
0.025896067 -0.012948036 0.61089194
0.025736885 -0.014038295 0.61001855
0.025579652 -0.015115231 0.60915577
0.038088918 0.054649323 0.66870576
0.037760351 0.05253619 0.6669814
0.037437528 0.050459296 0.66528714
0.037120055 0.048417479 0.66362095
0.036807925 0.046409994 0.66198277
0.036500994 0.044436008 0.66037196
0.036199261 0.042494774 0.65878838
0.035902362 0.040585279 0.65723014
0.035610288 0.038706839 0.65569729
0.035322931 0.036858737 0.65418911
0.035040285 0.035040289 0.65270573
0.034762017 0.03325063 0.65124524
0.034488134 0.031489164 0.64980787
0.034218531 0.029755235 0.64839292
0.033953216 0.028048337 0.64700043
0.033691883 0.026367575 0.64562893
0.03343454 0.024712473 0.64427829
0.033181097 0.023082465 0.64294815
0.03293157 0.021477103 0.64163858
0.032685667 0.019895613 0.64034802
0.032443412 0.018337578 0.63907659
0.032204721 0.01680246 0.63782388
0.031969517 0.015289783 0.63658941
0.031737816 0.013799042 0.63537335
0.031509355 0.012329757 0.63417435
0.031284161 0.010881424 0.63299251
0.031062165 0.0094537139 0.63182735
0.030843383 0.0080460906 0.63067919
0.030627575 0.0066581964 0.62954652
0.030414769 0.005289495 0.62842965
0.030204896 0.0039397776 0.62732822
0.0299979 0.0026085079 0.6262418
0.029793806 0.0012953877 0.62517065
0.029592389 -2.9802322e-08 0.62411356
0.029393675 -0.0012779832 0.62307066
0.029197613 -0.0025389194 0.62204164
0.029004229 -0.0037831366 0.62102675
0.02881331 -0.0050110221 0.62002474
0.02862489 -0.0062228143 0.61903584
0.028438918 -0.0074188709 0.61805987
0.028255347 -0.0085994601 0.61709636
0.028074201 -0.0097649693 0.61614567
0.027895294 -0.010915548 0.61520678
0.027718652 -0.012051612 0.61427963
0.027544234 -0.013173342 0.61336428
0.027372064 -0.014281064 0.61246067
0.051519942 -0.029119968 0.73919582
0.040724993 0.055996895 0.67363501
0.0403651 0.053820133 0.67182487
0.04001151 0.051681548 0.67004645
0.03966406 0.049580097 0.66829896
0.039322734 0.047515005 0.66658223
0.038987093 0.04548493 0.66489404
0.038657136 0.043489277 0.66323447
0.038332716 0.041527122 0.6616028
0.038013823 0.03959778 0.65999889
0.037700068 0.037700087 0.6584208
