# .PCD v0.7 - Point Cloud Data file format
VERSION 0.7
FIELDS x y z
SIZE 4 4 4
TYPE F F F
COUNT 1 1 1
WIDTH 1351
HEIGHT 1
VIEWPOINT 0 0 0 1 0 0 0
POINTS 1351
DATA ascii
0.020648301 0.036134541 0.62458348
0.020648301 0.034844011 0.62458354
0.020648301 0.033553481 0.62458348
0.020648301 0.032262981 0.62458348
0.020648301 0.030972421 0.62458348
0.020648301 0.029681951 0.62458348
0.020648301 0.028391451 0.62458348
0.020648301 0.027100891 0.62458348
0.020648301 0.025810361 0.62458348
0.020648301 0.024519891 0.62458354
0.020648301 0.023229361 0.62458348
0.020648301 0.021938831 0.62458348
0.020648301 0.020648301 0.62458348
0.020648301 0.019357771 0.62458348
0.020648301 0.018067241 0.62458354
0.020648301 0.01677677 0.62458348
0.020648301 0.01548624 0.62458348
0.020648301 0.014195681 0.62458348
0.020648301 0.01290524 0.62458348
0.020648301 0.01161468 0.62458354
0.020648301 0.01032415 0.62458348
0.020648301 0.0090336204 0.62458348
0.020648301 0.0077430904 0.62458354
0.020648301 0.00645262 0.62458348
0.020648301 0.0051620901 0.62458348
0.020648301 0.0038715601 0.62458348
0.020648301 0.0025810301 0.62458354
0.020648301 0.0012905002 0.62458354
0.020648301 -0 0.62458348
0.020648301 -0.0012905002 0.62458348
0.020648301 -0.0025810301 0.62458354
0.020648301 -0.0038715601 0.62458348
0.020648301 -0.0051620603 0.62458354
0.020648301 -0.0064525604 0.62458348
0.020648301 -0.0077431202 0.62458348
0.020648301 -0.0090336502 0.62458354
0.020648301 -0.01032415 0.62458348
0.020648301 -0.01161465 0.62458348
0.020648301 -0.01290518 0.62458348
0.020648301 -0.01419571 0.62458354
0.020648301 -0.01548624 0.62458354
0.020648301 -0.016776711 0.62458348
0.020648301 -0.018067241 0.62458348
0.020648301 -0.019357771 0.62458354
0.020648301 -0.020648271 0.62458348
0.020648301 -0.02193886 0.62458354
0.020648301 -0.023229331 0.62458348
0.020648301 -0.024519831 0.62458354
0.020648301 -0.025810391 0.62458354
0.020648301 -0.027100891 0.62458348
0.020648301 -0.028391361 0.62458348
0.020648301 -0.029681921 0.62458348
0.020648301 -0.030972451 0.62458354
0.020648301 -0.032262981 0.62458354
0.020648301 -0.033553481 0.62458348
0.020648301 -0.034844011 0.62458348
0.020648301 -0.036134511 0.62458354
0.020648301 -0.037425011 0.62458348
0.020648301 -0.038715571 0.62458348
0.020648301 -0.040006071 0.62458348
0.02202495 0.0362764 0.62519509
0.02202495 0.034980834 0.62519509
0.02202495 0.033685237 0.62519509
0.02202495 0.032389641 0.62519509
0.02202495 0.031094015 0.62519515
0.02202495 0.029798448 0.62519509
0.02202495 0.028502852 0.62519515
0.02202495 0.027207285 0.62519515
0.02202495 0.025911689 0.62519515
0.02202495 0.024616122 0.62519515
0.02202495 0.023320556 0.62519509
0.02202495 0.022024959 0.62519509
0.02202495 0.020729393 0.62519509
0.02202495 0.019433796 0.62519509
0.02202495 0.01813823 0.62519509
0.02202495 0.016842633 0.62519515
0.02202495 0.015547067 0.62519509
0.02202495 0.014251441 0.62519515
0.02202495 0.012955844 0.62519515
0.02202495 0.011660248 0.62519515
0.02202495 0.010364681 0.62519515
0.02202495 0.0090691149 0.62519509
0.02202495 0.0077735186 0.62519515
0.02202495 0.0064779222 0.62519515
0.02202495 0.0051823556 0.62519509
0.02202495 0.0038867891 0.62519509
0.02202495 0.0025911927 0.62519515
0.02202495 0.0012956262 0.62519509
0.02202495 5.9604645e-08 0.62519509
0.02202495 -0.0012955964 0.62519509
0.02202495 -0.0025911629 0.62519515
0.02202495 -0.0038867593 0.62519509
0.02202495 -0.005182296 0.62519509
0.02202495 -0.0064779222 0.62519509
0.02202495 -0.0077734888 0.62519509
0.02202495 -0.0090691149 0.62519509
0.02202495 -0.010364681 0.62519509
0.02202495 -0.011660278 0.62519515
0.02202495 -0.012955844 0.62519509
0.02202495 -0.014251441 0.62519515
0.02202495 -0.015547007 0.62519509
0.02202495 -0.016842633 0.62519515
0.02202495 -0.0181382 0.62519509
0.02202495 -0.019433767 0.62519509
0.02202495 -0.020729363 0.62519509
0.02202495 -0.022024959 0.62519515
0.02202495 -0.023320526 0.62519509
0.02202495 -0.024616092 0.62519509
0.02202495 -0.025911689 0.62519515
0.02202495 -0.027207285 0.62519509
0.02202495 -0.028502852 0.62519509
0.02202495 -0.029798448 0.62519509
0.02202495 -0.031094044 0.62519515
0.02202495 -0.032389641 0.62519509
0.02202495 -0.033685207 0.62519509
0.02202495 -0.034980804 0.62519509
0.02202495 -0.03627637 0.62519509
0.02202495 -0.037571967 0.62519509
0.02202495 -0.038867533 0.62519509
0.023412455 0.036419362 0.62581152
0.023412455 0.035118729 0.62581146
0.023412455 0.033817977 0.62581152
0.023412455 0.032517314 0.62581152
0.023412455 0.031216592 0.62581152
0.023412455 0.029915929 0.62581146
0.023412455 0.028615206 0.62581152
0.023412455 0.027314544 0.62581152
0.023412455 0.026013851 0.62581152
0.023412455 0.024713159 0.62581152
0.023412455 0.023412466 0.62581152
0.023412455 0.022111803 0.62581146
0.023412455 0.020811081 0.62581152
0.023412455 0.019510388 0.62581152
0.023412455 0.018209666 0.62581152
0.023412455 0.016909003 0.62581146
0.023412455 0.015608311 0.62581152
0.023412455 0.014307618 0.62581146
0.023412455 0.013006926 0.62581152
0.023412455 0.011706233 0.62581152
0.023412455 0.01040554 0.62581152
0.023412455 0.0091048777 0.62581152
0.023412455 0.0078041553 0.62581152
0.023412455 0.0065034628 0.62581146
0.023412455 0.0052027702 0.62581152
0.023412455 0.0039021075 0.62581152
0.023412455 0.0026013851 0.62581152
0.023412455 0.0013006926 0.62581146
0.023412455 -0 0.62581152
0.023412455 -0.0013006926 0.62581152
0.023412455 -0.0026013851 0.62581158
0.023412455 -0.0039020479 0.62581152
0.023412455 -0.0052027702 0.62581152
0.023412455 -0.0065034628 0.62581146
0.023412455 -0.0078041852 0.62581152
0.023412455 -0.0091048181 0.62581152
0.023412455 -0.01040554 0.62581152
0.023412455 -0.011706233 0.62581152
0.023412455 -0.013006896 0.62581152
0.023412455 -0.014307588 0.62581146
0.023412455 -0.015608311 0.62581152
0.023412455 -0.016908973 0.62581152
0.023412455 -0.018209696 0.62581152
0.023412455 -0.019510359 0.62581152
0.023412455 -0.020811081 0.62581152
0.023412455 -0.022111744 0.62581146
0.023412455 -0.023412436 0.62581152
0.023412455 -0.024713129 0.62581152
0.023412455 -0.026013821 0.62581152
0.023412455 -0.027314514 0.62581152
0.023412455 -0.028615236 0.62581152
0.023412455 -0.029915899 0.62581152
0.023412455 -0.031216621 0.62581152
0.023412455 -0.032517284 0.62581152
0.023412455 -0.033818007 0.62581152
0.023412455 -0.035118669 0.62581146
0.023412455 -0.036419362 0.62581152
0.023412455 -0.037720054 0.62581152
0.023412455 -0.039020747 0.62581158
0.024810936 0.036563486 0.62643284
0.024810936 0.035257667 0.62643278
0.024810936 0.033951849 0.62643278
0.024810936 0.032646 0.62643278
0.024810936 0.031340122 0.62643278
0.024810936 0.030034274 0.62643278
0.024810936 0.028728455 0.62643278
0.024810936 0.027422607 0.62643284
0.024810936 0.026116759 0.62643278
0.024810936 0.02481094 0.62643284
0.024810936 0.023505121 0.62643278
0.024810936 0.022199273 0.62643278
0.024810936 0.020893425 0.62643278
0.024810936 0.019587606 0.62643278
0.024810936 0.018281758 0.62643278
0.024810936 0.016975909 0.62643278
0.024810936 0.015670061 0.62643278
0.024810936 0.014364243 0.62643284
0.024810936 0.013058394 0.62643278
0.024810936 0.011752546 0.62643284
0.024810936 0.010446697 0.62643284
0.024810936 0.0091408491 0.62643284
0.024810936 0.0078350604 0.62643278
0.024810936 0.006529212 0.62643278
0.024810936 0.0052233338 0.62643278
0.024810936 0.0039175153 0.62643278
0.024810936 0.0026116967 0.62643278
0.024810936 0.0013058484 0.62643278
0.024810936 2.9802322e-08 0.62643278
0.024810936 -0.0013058186 0.62643278
0.024810936 -0.0026116669 0.62643278
0.024810936 -0.0039175153 0.62643278
0.024810936 -0.0052233338 0.62643278
0.024810936 -0.0065291822 0.62643278
0.024810936 -0.0078350306 0.62643284
0.024810936 -0.0091408789 0.62643278
0.024810936 -0.010446697 0.62643284
0.024810936 -0.011752546 0.62643284
0.024810936 -0.013058424 0.62643284
0.024810936 -0.014364213 0.62643278
0.024810936 -0.015670061 0.62643284
0.024810936 -0.016975909 0.62643278
0.024810936 -0.018281728 0.62643284
0.024810936 -0.019587576 0.62643278
0.024810936 -0.020893425 0.62643284
0.024811005 -0.022199303 0.62643325
0.024810936 -0.023505092 0.62643284
0.024810936 -0.02481091 0.62643278
0.024810936 -0.026116729 0.62643278
0.024810936 -0.027422577 0.62643278
0.024811005 -0.028728545 0.62643325
0.024811005 -0.030034363 0.62643325
0.024811005 -0.031340212 0.62643325
0.024811005 -0.03264606 0.62643325
0.024810936 -0.033951819 0.62643278
0.024810936 -0.035257638 0.62643284
0.024811005 -0.036563575 0.62643325
0.024811005 -0.037869424 0.62643325
0.024811005 -0.039175272 0.62643325
0.026220532 0.036708742 0.62705904
0.026220532 0.035397738 0.62705898
0.026220532 0.034086674 0.62705904
0.026220532 0.0327757 0.62705898
0.026220532 0.031464666 0.62705898
0.026220532 0.030153632 0.62705904
0.026220532 0.028842568 0.62705904
0.026220532 0.027531534 0.62705898
0.026220532 0.02622053 0.62705904
0.026220532 0.024909526 0.62705898
0.026220532 0.023598462 0.62705904
0.026220532 0.022287458 0.62705904
0.026220532 0.020976424 0.62705898
0.026220532 0.01966542 0.62705904
0.026220532 0.018354356 0.62705904
0.026220532 0.017043352 0.62705898
0.026220532 0.015732348 0.62705904
0.026220532 0.014421314 0.6270591
0.026220532 0.01311028 0.62705904
0.026220532 0.011799216 0.62705904
0.026220532 0.010488212 0.62705898
0.026220605 0.0091772377 0.62705946
0.026220532 0.007866174 0.62705904
0.026220532 0.0065551102 0.62705904
0.026220532 0.0052441061 0.62705898
0.026220532 0.0039330721 0.62705898
0.026220605 0.0026220381 0.62705946
0.026220605 0.001311034 0.62705946
0.026220605 -0 0.62705946
0.026220605 -0.001311034 0.62705946
0.026220605 -0.0026220679 0.62705946
0.026220605 -0.0039330721 0.62705946
0.026220605 -0.0052441359 0.62705946
0.026220605 -0.0065551102 0.62705946
0.026220605 -0.0078661442 0.62705946
0.026220605 -0.0091772079 0.62705946
0.026220605 -0.010488272 0.62705952
0.026220605 -0.011799276 0.62705946
0.026220605 -0.01311028 0.62705946
0.026220605 -0.014421314 0.62705946
0.026220605 -0.015732348 0.62705946
0.026220605 -0.017043382 0.62705946
0.026220605 -0.018354416 0.62705952
0.026220605 -0.01966545 0.62705946
0.026220605 -0.020976484 0.62705946
0.026220605 -0.022287518 0.62705946
0.026220605 -0.023598522 0.62705946
0.026220605 -0.024909556 0.62705946
0.026220605 -0.02622062 0.62705946
0.026220605 -0.027531654 0.62705952
0.026220605 -0.028842658 0.62705946
0.026220605 -0.030153692 0.62705946
0.026220605 -0.031464696 0.62705946
0.026220605 -0.03277576 0.62705946
0.026220605 -0.034086794 0.62705946
0.026220605 -0.035397828 0.62705946
0.026220605 -0.036708802 0.62705946
0.026220605 -0.038019866 0.62705946
0.027641375 0.036855161 0.62769026
0.027641375 0.035538942 0.62769026
0.027641449 0.034222752 0.62769073
0.027641449 0.032906443 0.62769073
0.027641449 0.031590223 0.62769067
0.027641449 0.030273944 0.62769067
0.027641375 0.028957635 0.62769026
0.027641449 0.027641445 0.62769073
0.027641449 0.026325196 0.62769073
0.027641449 0.025008976 0.62769067
0.027641449 0.023692697 0.62769073
0.027641449 0.022376448 0.62769073
0.027641449 0.021060169 0.62769073
0.027641449 0.01974389 0.62769073
0.027641449 0.01842764 0.62769067
0.027641449 0.017111391 0.62769067
0.027641449 0.015795112 0.62769067
0.027641449 0.014478862 0.62769073
0.027641449 0.013162583 0.62769067
0.027641449 0.011846334 0.62769067
0.027641449 0.010530055 0.62769067
0.027641449 0.0092138052 0.62769067
0.027641449 0.0078975558 0.62769067
0.027641449 0.0065813065 0.62769073
0.027641449 0.0052650869 0.62769067
0.027641449 0.0039488077 0.62769067
0.027641449 0.0026325583 0.62769067
0.027641449 0.0013162792 0.62769067
0.027641449 2.9802322e-08 0.62769067
0.027641449 -0.0013162494 0.62769067
0.027641449 -0.0026324987 0.62769067
0.027641449 -0.0039487779 0.62769067
0.027641449 -0.0052650273 0.62769067
0.027641449 -0.0065813065 0.62769073
0.027641449 -0.0078975856 0.62769067
0.027641449 -0.009213835 0.62769067
0.027641449 -0.010530055 0.62769067
0.027641449 -0.011846334 0.62769067
0.027641449 -0.013162583 0.62769067
0.027641449 -0.014478803 0.62769067
0.027641449 -0.015795082 0.62769067
0.027641449 -0.017111331 0.62769067
0.027641449 -0.01842761 0.62769073
0.027641449 -0.01974389 0.62769067
0.027641449 -0.021060169 0.62769073
0.027641449 -0.022376418 0.62769073
0.027641449 -0.023692667 0.62769067
0.027641449 -0.025008917 0.62769067
0.027641449 -0.026325196 0.62769073
0.027641449 -0.027641475 0.62769067
0.027641449 -0.028957725 0.62769067
0.027641449 -0.030273944 0.62769067
0.027641449 -0.031590223 0.62769067
0.027641449 -0.032906473 0.62769073
0.027641449 -0.034222722 0.62769073
0.027641449 -0.035539001 0.62769073
0.027641449 -0.036855221 0.62769067
0.027641449 -0.03817153 0.62769067
0.029073674 0.037002861 0.62832695
0.029073674 0.035681367 0.62832701
0.029073674 0.034359813 0.62832701
0.029073674 0.033038259 0.62832701
0.029073674 0.031716764 0.62832695
0.029073674 0.03039521 0.62832695
0.029073674 0.029073656 0.62832701
0.029073674 0.027752131 0.62832695
0.029073674 0.026430666 0.62832701
0.029073674 0.025109082 0.62832701
0.029073674 0.023787558 0.62832701
0.029073674 0.022466034 0.62832695
0.029073674 0.02114448 0.62832701
0.029073674 0.019822955 0.62832701
0.029073674 0.018501431 0.62832695
0.029073674 0.017179877 0.62832701
0.029073674 0.015858382 0.62832701
0.029073674 0.014536858 0.62832695
0.029073674 0.013215333 0.62832695
0.029073674 0.011893779 0.62832701
0.029073674 0.010572225 0.62832701
0.029073674 0.0092507303 0.62832695
0.029073674 0.0079291463 0.62832701
0.029073674 0.0066076815 0.62832701
0.029073674 0.0052861273 0.62832695
0.029073674 0.0039646327 0.62832695
0.029073674 0.0026430488 0.62832701
0.029073674 0.0013215244 0.62832695
0.029073674 2.9802322e-08 0.62832695
0.029073674 -0.0013215542 0.62832701
0.029073674 -0.0026430488 0.62832701
0.029073674 -0.0039645731 0.62832695
0.029073674 -0.0052860677 0.62832695
0.029073674 -0.0066076517 0.62832701
0.029073674 -0.0079291761 0.62832695
0.029073674 -0.0092507303 0.62832701
0.029073674 -0.010572255 0.62832701
0.029073674 -0.011893779 0.62832701
0.029073674 -0.013215274 0.62832695
0.029073674 -0.014536828 0.62832701
0.029073674 -0.015858352 0.62832701
0.029073674 -0.017179906 0.62832701
0.029073674 -0.018501431 0.62832701
0.029073674 -0.019822955 0.62832701
0.029073674 -0.02114448 0.62832695
0.029073674 -0.022465974 0.62832695
0.029073674 -0.023787558 0.62832701
0.029073674 -0.025109082 0.62832701
0.029073674 -0.026430637 0.62832701
0.029073674 -0.027752161 0.62832701
0.029073674 -0.029073685 0.62832695
0.029073674 -0.03039518 0.62832695
0.029073674 -0.031716734 0.62832701
0.029073674 -0.033038259 0.62832701
0.029073674 -0.034359783 0.62832701
0.029073674 -0.035681337 0.62832701
0.029073674 -0.037002861 0.62832701
0.030517416 0.037151664 0.62896836
0.030517416 0.035824805 0.62896836
0.030517416 0.034497947 0.62896836
0.030517416 0.033171088 0.62896836
0.030517416 0.031844258 0.62896836
0.030517416 0.030517399 0.62896836
0.030517416 0.0291906 0.62896836
0.030517416 0.027863741 0.62896842
0.030517416 0.026536882 0.62896836
0.030517416 0.025210023 0.62896836
0.030517416 0.023883194 0.62896836
0.030517416 0.022556365 0.62896836
0.030517416 0.021229535 0.62896836
0.030517416 0.019902647 0.62896842
0.030517416 0.018575817 0.62896836
0.030517416 0.017248988 0.62896836
0.030517416 0.015922159 0.62896836
0.030517416 0.0145953 0.62896836
0.030517416 0.013268441 0.62896842
0.030517416 0.011941612 0.62896842
0.030517416 0.010614723 0.62896836
0.030517416 0.0092878938 0.62896836
0.030517416 0.0079610944 0.62896836
0.030517416 0.0066342652 0.62896836
0.030517416 0.0053074062 0.62896836
0.030517416 0.0039805174 0.62896842
0.030517416 0.0026536882 0.62896836
0.030517416 0.001326859 0.62896842
0.030517416 -0 0.62896836
0.030517416 -0.0013268292 0.62896836
0.030517416 -0.0026536882 0.62896842
0.030517416 -0.0039805472 0.62896842
0.030517416 -0.0053073764 0.62896842
0.030517416 -0.0066342056 0.62896836
0.030517416 -0.0079610348 0.62896836
0.030517416 -0.0092879236 0.62896836
0.030517416 -0.010614753 0.62896836
0.030517416 -0.011941612 0.62896836
0.030517416 -0.013268411 0.62896842
0.030517416 -0.01459527 0.62896836
0.030517416 -0.015922129 0.62896836
0.030517416 -0.017248958 0.62896836
0.030517416 -0.018575847 0.62896842
0.030517416 -0.019902676 0.62896836
0.030517416 -0.021229506 0.62896836
0.030517416 -0.022556335 0.62896836
0.030517416 -0.023883194 0.62896836
0.030517416 -0.025210023 0.62896836
0.030517416 -0.026536882 0.62896836
0.030517416 -0.027863711 0.62896842
0.030517416 -0.02919057 0.62896836
0.030517416 -0.030517399 0.62896836
0.030517416 -0.031844258 0.62896836
0.030517416 -0.033171088 0.62896836
0.030517416 -0.034497947 0.62896842
0.030517416 -0.035824776 0.62896836
0.030517416 -0.037151635 0.62896836
0.031972814 0.038633853 0.62961495
0.031972814 0.03730163 0.62961495
0.031972814 0.035969436 0.62961501
0.031972814 0.034637243 0.62961495
0.031972814 0.033305049 0.62961495
0.031972814 0.031972826 0.62961495
0.031972814 0.030640662 0.62961495
0.031972814 0.029308438 0.62961495
0.031972814 0.027976215 0.62961495
0.031972814 0.026643991 0.62961495
0.031972814 0.025311828 0.62961495
0.031972814 0.023979634 0.62961495
0.031972814 0.022647411 0.62961495
0.031972814 0.021315217 0.62961495
0.031972814 0.019983053 0.62961495
0.031972814 0.0186508 0.62961495
0.031972814 0.017318577 0.62961495
0.031972814 0.015986413 0.62961495
0.031972814 0.014654219 0.62961495
0.031972814 0.013321996 0.62961495
0.031972814 0.011989832 0.62961495
0.031972814 0.010657609 0.62961495
0.031972814 0.0093253851 0.62961495
0.031972814 0.0079932213 0.62961495
0.031972814 0.0066609979 0.62961495
0.031972814 0.0053288043 0.62961495
0.031972814 0.0039965808 0.62961495
0.031972814 0.0026643872 0.62961495
0.031972814 0.0013322234 0.62961495
0.031972814 -2.9802322e-08 0.62961495
0.031972814 -0.0013321936 0.62961495
0.031972814 -0.002664417 0.62961495
0.031972814 -0.0039966106 0.62961495
0.031972814 -0.0053287745 0.62961495
0.031972814 -0.0066609979 0.62961495
0.031972814 -0.0079931915 0.62961495
0.031972814 -0.0093254447 0.62961495
0.031972814 -0.010657609 0.62961495
0.031972814 -0.011989802 0.62961495
0.031972814 -0.013322026 0.62961495
0.031972814 -0.014654189 0.62961495
0.031972814 -0.015986413 0.62961495
0.031972814 -0.017318606 0.62961495
0.031972814 -0.0186508 0.62961495
0.031972814 -0.019982994 0.62961495
0.031972814 -0.021315217 0.62961495
0.031972814 -0.022647411 0.62961495
0.031972814 -0.023979574 0.62961495
0.031972814 -0.025311798 0.62961495
0.031972814 -0.026643991 0.62961495
0.031972814 -0.027976215 0.62961495
0.031972814 -0.029308408 0.62961495
0.031972814 -0.030640602 0.62961495
0.031972814 -0.031972796 0.62961495
0.031972814 -0.033304989 0.62961495
0.031972814 -0.034637213 0.62961495
0.031972814 -0.035969406 0.62961495
0.031972814 -0.0373016 0.62961495
0.033440012 0.038790435 0.63026679
0.033440012 0.037452817 0.63026679
0.033440012 0.036115229 0.63026679
0.033440012 0.034777641 0.63026679
0.033440012 0.033439994 0.63026673
0.033440012 0.032102406 0.63026673
0.033440012 0.030764818 0.63026673
0.033440012 0.02942723 0.63026679
0.033440012 0.028089643 0.63026679
0.033440012 0.026752025 0.63026673
0.033440012 0.025414437 0.63026673
0.033440012 0.02407679 0.63026679
0.033440012 0.022739202 0.63026679
0.033440012 0.021401584 0.63026679
0.033440012 0.020063996 0.63026679
0.033440012 0.018726408 0.63026679
0.033440012 0.017388821 0.63026679
0.033440012 0.016051173 0.63026679
0.033440012 0.014713585 0.63026679
0.033440012 0.013375998 0.63026679
0.033440012 0.01203841 0.63026679
0.033440012 0.010700822 0.63026679
0.033440012 0.009363234 0.63026679
0.033440012 0.0080256164 0.63026679
0.033440012 0.0066879988 0.63026679
0.033440012 0.0053504109 0.63026679
0.033440012 0.0040128231 0.63026679
0.033440012 0.0026752353 0.63026679
0.033440012 0.0013376176 0.63026679
0.033440012 2.9802322e-08 0.63026679
0.033440012 -0.001337558 0.63026679
0.033440012 -0.0026752055 0.63026679
0.033440012 -0.0040128231 0.63026679
0.033440012 -0.0053504109 0.63026679
0.033440012 -0.0066880286 0.63026679
0.033440012 -0.0080256164 0.63026679
0.033440012 -0.0093632042 0.63026679
0.033440012 -0.010700822 0.63026679
0.033440012 -0.01203841 0.63026679
0.033440012 -0.013376027 0.63026679
0.033440012 -0.014713615 0.63026679
0.033440012 -0.016051203 0.63026679
0.033440012 -0.017388791 0.63026679
0.033440012 -0.018726379 0.63026679
0.033440012 -0.020063996 0.63026679
0.033440012 -0.021401614 0.63026679
0.033440012 -0.022739202 0.63026679
0.033440012 -0.02407679 0.63026679
0.033440012 -0.025414377 0.63026679
0.033440012 -0.026751995 0.63026679
0.033440012 -0.028089613 0.63026679
0.033440012 -0.029427201 0.63026679
0.033440012 -0.030764788 0.63026679
0.033440012 -0.032102406 0.63026679
0.033440012 -0.033439994 0.63026679
0.033440012 -0.034777582 0.63026679
0.033440012 -0.03611517 0.63026679
0.03491915 0.038948268 0.63092393
0.03491915 0.037605226 0.63092393
0.03491915 0.036262214 0.63092387
0.03491915 0.034919143 0.63092387
0.03491915 0.033576131 0.63092387
0.03491915 0.032233089 0.63092387
0.03491915 0.030890018 0.63092387
0.03491915 0.029546976 0.63092387
0.03491915 0.028203934 0.63092387
0.03491915 0.026860923 0.63092387
0.03491915 0.025517881 0.63092387
0.03491915 0.024174809 0.63092387
0.03491915 0.022831768 0.63092387
0.03491915 0.021488726 0.63092393
0.03491915 0.020145684 0.63092387
0.03491915 0.018802613 0.63092393
0.03491915 0.017459571 0.63092393
0.03491915 0.01611656 0.63092387
0.03491915 0.014773488 0.63092387
0.03491915 0.013430446 0.63092393
0.03491915 0.012087405 0.63092387
0.03491915 0.010744363 0.63092387
0.03491915 0.0094013214 0.63092393
0.03491915 0.0080582798 0.63092387
0.03491915 0.0067152083 0.63092387
0.03491915 0.0053722262 0.63092387
0.03491915 0.004029125 0.63092393
0.03491915 0.0026860833 0.63092387
0.03491915 0.0013430417 0.63092393
0.03491915 -0 0.63092393
0.03491915 -0.0013430715 0.63092393
0.03491915 -0.0026860833 0.63092393
0.03491915 -0.0040291548 0.63092393
0.03491915 -0.0053721666 0.63092393
0.03491915 -0.0067152083 0.63092393
0.03491915 -0.0080582798 0.63092387
0.03491915 -0.0094013214 0.63092387
0.03491915 -0.010744333 0.63092393
0.03491915 -0.012087405 0.63092387
0.03491915 -0.013430446 0.63092387
0.03491915 -0.014773488 0.63092387
0.03491915 -0.0161165 0.63092387
0.03491915 -0.017459571 0.63092387
0.03491915 -0.018802613 0.63092387
0.03491915 -0.020145655 0.63092387
0.034919251 -0.021488756 0.6309244
0.034919251 -0.022831827 0.6309244
0.03491915 -0.02417478 0.63092387
0.03491915 -0.025517851 0.63092387
0.03491915 -0.026860863 0.63092393
0.034919251 -0.028203994 0.63092434
0.034919251 -0.029547065 0.63092434
0.034919251 -0.030890077 0.63092434
0.034919251 -0.032233119 0.63092434
0.034919251 -0.03357619 0.63092434
0.03491915 -0.034919143 0.63092387
0.034919251 -0.036262274 0.6309244
0.03641038 0.039107472 0.63158643
0.03641038 0.037758917 0.63158637
0.03641038 0.036410391 0.63158643
0.03641038 0.035061866 0.63158637
0.03641038 0.033713281 0.63158643
0.03641038 0.032364786 0.63158637
0.03641038 0.031016231 0.63158643
0.03641038 0.029667705 0.63158637
0.03641038 0.02831921 0.63158637
0.03641038 0.026970655 0.63158643
0.03641038 0.0256221 0.63158643
0.03641038 0.024273634 0.63158643
0.03641038 0.022925049 0.63158637
0.03641038 0.021576524 0.63158643
0.03641038 0.020227969 0.63158643
0.03641038 0.018879443 0.63158643
0.03641038 0.017530948 0.63158637
0.03641038 0.016182393 0.63158643
0.03641038 0.014833868 0.63158637
0.03641038 0.013485342 0.63158643
0.036410484 0.012136847 0.63158685
0.036410484 0.010788292 0.63158691
0.036410484 0.0094397366 0.63158691
0.03641038 0.0080911815 0.63158643
0.03641038 0.0067426562 0.63158643
0.036410484 0.0053941607 0.63158685
0.036410484 0.0040455759 0.63158691
0.036410484 0.0026970804 0.63158685
0.036410484 0.0013485551 0.63158685
0.036410484 -0 0.63158691
0.036410484 -0.0013485551 0.63158691
0.036410484 -0.0026970804 0.63158685
0.036410484 -0.0040455759 0.63158685
0.036410484 -0.0053941309 0.63158685
0.036410484 -0.006742686 0.63158691
0.036410484 -0.0080912113 0.63158685
0.036410484 -0.0094397366 0.63158685
0.036410484 -0.010788321 0.63158685
0.036410484 -0.012136847 0.63158691
0.036410484 -0.013485342 0.63158685
0.036410484 -0.014833897 0.63158679
0.036410484 -0.016182423 0.63158685
0.036410484 -0.017530948 0.63158691
0.036410484 -0.018879533 0.63158685
0.036410484 -0.020228028 0.63158685
0.036410484 -0.021576554 0.63158691
0.036410484 -0.022925138 0.63158691
0.036410484 -0.024273664 0.63158685
0.036410484 -0.025622159 0.63158685
0.036410484 -0.026970714 0.63158685
0.036410484 -0.028319269 0.63158691
0.036410484 -0.029667765 0.63158691
0.036410484 -0.03101635 0.63158685
0.036410484 -0.032364875 0.63158685
0.036410484 -0.0337134 0.63158691
0.036410484 -0.035061955 0.63158685
0.036410484 -0.036410451 0.63158685
0.037913844 0.039267927 0.63225436
0.037913952 0.037913948 0.63225484
0.037913952 0.03655991 0.63225478
0.037913952 0.035205811 0.63225484
0.037913952 0.033851713 0.63225478
0.037913952 0.032497704 0.63225484
0.037913952 0.031143606 0.63225484
0.037913952 0.029789537 0.63225484
0.037913952 0.028435469 0.63225484
0.037913952 0.0270814 0.63225478
0.037913952 0.025727332 0.63225484
0.037913952 0.024373263 0.63225478
0.037913952 0.023019195 0.63225478
0.037913952 0.021665126 0.63225478
0.037913952 0.020311058 0.63225484
0.037913952 0.018956989 0.63225484
0.037913952 0.017602921 0.63225478
0.037913952 0.016248822 0.63225484
0.037913952 0.014894783 0.63225478
0.037913952 0.013540715 0.63225478
0.037913952 0.012186617 0.63225484
0.037913952 0.010832578 0.63225484
0.037913952 0.0094785094 0.63225478
0.037913952 0.0081244111 0.63225484
0.037913952 0.0067703724 0.63225478
0.037913952 0.0054162741 0.63225478
0.037913952 0.0040622056 0.63225484
0.037913952 0.0027081668 0.63225484
0.037913952 0.0013540685 0.63225478
0.037913952 -0 0.63225484
0.037913952 -0.0013540685 0.63225484
0.037913952 -0.002708137 0.63225478
0.037913952 -0.0040621758 0.63225478
0.037913952 -0.0054163039 0.63225478
0.037913952 -0.0067703426 0.63225478
0.037913952 -0.0081243813 0.63225478
0.037913952 -0.0094784796 0.63225472
0.037913952 -0.010832548 0.63225484
0.037913952 -0.012186617 0.63225478
0.037913952 -0.013540685 0.63225478
0.037913952 -0.014894754 0.63225478
0.037913952 -0.016248852 0.63225478
0.037913952 -0.017602891 0.63225478
0.037913952 -0.018956959 0.63225484
0.037913952 -0.020311058 0.63225478
0.037913952 -0.021665096 0.63225478
0.037913952 -0.023019195 0.63225484
0.037913952 -0.024373263 0.63225478
0.037913952 -0.025727302 0.63225478
0.037913952 -0.0270814 0.63225484
0.037913952 -0.028435469 0.63225478
0.037913952 -0.029789507 0.63225484
0.037913952 -0.031143606 0.63225484
0.037913952 -0.032497704 0.63225484
0.037913952 -0.033851713 0.63225478
0.037913952 -0.035205811 0.63225484
0.039429814 0.039429814 0.63292825
0.039429814 0.038070172 0.63292825
0.039429814 0.036710501 0.63292825
0.039429814 0.035350859 0.63292825
0.039429814 0.033991218 0.63292825
0.039429814 0.032631576 0.63292825
0.039429814 0.031271905 0.63292825
0.039429814 0.029912293 0.63292825
0.039429814 0.028552592 0.63292825
0.039429814 0.02719298 0.63292819
0.039429814 0.025833309 0.63292825
0.039429814 0.024473697 0.63292825
0.039429814 0.023114055 0.63292825
0.039429814 0.021754414 0.63292825
0.039429814 0.020394742 0.63292825
0.039429814 0.019035101 0.63292825
0.039429814 0.01767543 0.63292825
0.039429814 0.016315818 0.63292825
0.039429814 0.014956146 0.63292825
0.039429814 0.013596535 0.63292825
0.039429814 0.012236834 0.63292825
0.039429814 0.010877222 0.63292825
0.039429814 0.0095175505 0.63292825
0.039429814 0.0081579089 0.63292819
0.039429814 0.0067982674 0.63292825
0.039429814 0.0054386258 0.63292819
0.039429814 0.0040789545 0.63292825
0.039429814 0.0027192831 0.63292825
0.039429814 0.0013596714 0.63292825
0.039429814 2.9802322e-08 0.63292825
0.039429814 -0.0013596416 0.63292825
0.039429814 -0.0027192831 0.63292825
0.039429814 -0.0040789545 0.63292825
0.039429814 -0.005438596 0.63292819
0.039429814 -0.0067982376 0.63292825
0.039429814 -0.0081579089 0.63292825
0.039429814 -0.0095175505 0.63292825
0.039429814 -0.010877162 0.63292825
0.039429814 -0.012236804 0.63292825
0.039429814 -0.013596505 0.63292825
0.039429814 -0.014956146 0.63292825
0.039429814 -0.016315788 0.63292825
0.039429814 -0.01767543 0.63292825
0.039429814 -0.019035071 0.63292825
0.039429814 -0.020394713 0.63292825
0.039429814 -0.021754384 0.63292825
0.039429814 -0.023114026 0.63292819
0.039429814 -0.024473667 0.63292825
0.039429814 -0.025833309 0.63292825
0.039429814 -0.02719295 0.63292825
0.039429814 -0.028552592 0.63292825
0.039429814 -0.029912263 0.63292825
0.039429814 -0.031271905 0.63292819
0.039429814 -0.032631576 0.63292825
0.039429814 -0.033991218 0.63292825
0.039429814 -0.035350859 0.63292825
0.040958215 0.039592952 0.63360727
0.040958215 0.038227677 0.63360721
0.040958215 0.036862403 0.63360727
0.040958215 0.035497129 0.63360727
0.040958215 0.034131855 0.63360727
0.040958215 0.032766581 0.63360727
0.040958215 0.031401306 0.63360727
0.040958215 0.030036032 0.63360721
0.040958215 0.028670758 0.63360721
0.040958215 0.027305514 0.63360721
0.040958215 0.02594021 0.63360727
0.040958215 0.024574935 0.63360727
0.040958215 0.023209631 0.63360727
0.040958215 0.021844387 0.63360727
0.040958215 0.020479113 0.63360721
0.040958215 0.019113839 0.63360721
0.040958215 0.017748594 0.63360727
0.040958215 0.01638329 0.63360727
0.040958215 0.015018016 0.63360727
0.040958215 0.013652712 0.63360727
0.040958215 0.012287468 0.63360727
0.040958215 0.010922194 0.63360727
0.040958215 0.0095569193 0.63360727
0.040958215 0.0081916749 0.63360727
0.040958215 0.0068264008 0.63360727
0.040958215 0.0054611266 0.63360727
0.040958215 0.0040957928 0.63360727
0.040958215 0.0027305484 0.63360727
0.040958215 0.0013652742 0.63360727
0.040958215 -0 0.63360727
0.040958215 -0.0013652444 0.63360727
0.040958215 -0.0027305484 0.63360721
0.040958215 -0.0040958524 0.63360727
0.040958215 -0.0054611266 0.63360727
0.040958215 -0.006826371 0.63360727
0.040958215 -0.0081916451 0.63360727
0.040958215 -0.0095569193 0.63360727
0.040958215 -0.010922164 0.63360727
0.040958215 -0.012287468 0.63360721
0.040958215 -0.013652742 0.63360721
0.040958215 -0.015018016 0.63360721
0.040958215 -0.01638329 0.63360727
0.040958215 -0.017748564 0.63360727
0.040958215 -0.019113839 0.63360727
0.040958215 -0.020479083 0.63360727
0.040958215 -0.021844387 0.63360727
0.040958215 -0.023209661 0.63360727
0.040958215 -0.024574965 0.63360727
0.040958215 -0.02594021 0.63360727
0.040958215 -0.027305484 0.63360727
0.040958215 -0.028670758 0.63360727
0.040958215 -0.030036032 0.63360727
0.040958215 -0.031401306 0.63360727
0.040958215 -0.032766581 0.63360727
0.040958215 -0.034131855 0.63360727
0.040958215 -0.035497099 0.63360727
0.042499315 0.039757431 0.63429189
0.042499315 0.038386464 0.63429195
0.042499315 0.037015527 0.63429189
0.042499315 0.035644591 0.63429189
0.042499315 0.034273684 0.63429189
0.042499315 0.032902718 0.63429189
0.042499315 0.031531781 0.63429189
0.042499315 0.030160815 0.63429189
0.042499315 0.028789818 0.63429189
0.042499315 0.027418911 0.63429189
0.042499315 0.026047975 0.63429189
0.042499315 0.024677068 0.63429189
0.042499315 0.023306042 0.63429195
0.042499315 0.021935105 0.63429195
0.042499315 0.020564198 0.63429189
0.042499315 0.019193232 0.63429189
0.042499315 0.017822295 0.63429189
0.042499315 0.016451359 0.63429189
0.042499315 0.015080422 0.63429189
0.042499315 0.013709456 0.63429189
0.042499315 0.012338519 0.63429189
0.042499315 0.010967582 0.63429195
0.042499315 0.009596616 0.63429189
0.042499315 0.0082256794 0.63429189
0.042499315 0.0068547428 0.63429189
0.042499315 0.0054838061 0.63429195
0.042499315 0.0041128397 0.63429195
0.042499315 0.0027419031 0.63429189
0.042499315 0.0013709664 0.63429189
0.042499315 -2.9802322e-08 0.63429189
0.042499315 -0.0013709366 0.63429189
0.042499315 -0.0027418733 0.63429189
0.042499315 -0.0041128099 0.63429189
0.042499315 -0.0054838061 0.63429189
0.042499315 -0.006854713 0.63429195
0.042499315 -0.0082256496 0.63429189
0.042499315 -0.009596616 0.63429189
0.042499315 -0.010967553 0.63429189
0.042499315 -0.012338519 0.63429189
0.042499315 -0.013709456 0.63429189
0.042499315 -0.015080422 0.63429189
0.042499315 -0.016451329 0.63429189
0.042499315 -0.017822266 0.63429189
0.042499315 -0.019193232 0.63429189
0.042499315 -0.020564169 0.63429189
0.042499315 -0.021935135 0.63429195
0.042499315 -0.023306072 0.63429189
0.042499315 -0.024677008 0.63429189
0.042499315 -0.026047945 0.63429189
0.042499315 -0.027418882 0.63429189
0.042499315 -0.028789878 0.63429195
0.042499315 -0.030160815 0.63429195
0.042499315 -0.031531751 0.63429189
0.042499315 -0.032902688 0.63429195
0.042499315 -0.034273654 0.63429189
0.044053275 0.041299939 0.63498229
0.044053275 0.03992331 0.63498229
0.044053275 0.038546622 0.63498229
0.044053275 0.037169963 0.63498223
0.044053275 0.035793304 0.63498229
0.044053275 0.034416586 0.63498229
0.044053275 0.033039987 0.63498223
0.044053275 0.031663299 0.63498229
0.044053275 0.03028664 0.63498235
0.044053275 0.028909981 0.63498229
0.044053275 0.027533293 0.63498229
0.044053275 0.026156664 0.63498223
0.044053275 0.024779946 0.63498229
0.044053275 0.023403317 0.63498223
0.044053275 0.022026658 0.63498229
0.044053275 0.020649999 0.63498229
0.044053275 0.019273341 0.63498223
0.044053275 0.017896652 0.63498229
0.044053275 0.016519994 0.63498229
0.044053275 0.015143305 0.63498223
0.044053275 0.013766646 0.63498229
0.044053275 0.012389958 0.63498235
0.044053275 0.011013329 0.63498229
0.044053275 0.0096367002 0.63498223
0.044053275 0.0082600117 0.63498223
0.044053275 0.006883353 0.63498229
0.044053275 0.0055066645 0.63498223
0.044053275 0.0041300058 0.63498229
0.044053275 0.0027533174 0.63498229
0.044053275 0.0013766885 0.63498223
0.044053275 -2.9802322e-08 0.63498229
0.044053275 -0.0013766289 0.63498223
0.044053275 -0.0027532876 0.63498229
0.044053275 -0.004129976 0.63498223
0.044053275 -0.0055066347 0.63498229
0.044053275 -0.0068833232 0.63498229
0.044053275 -0.0082599521 0.63498229
0.044053275 -0.0096366704 0.63498229
0.044053275 -0.011013329 0.63498229
0.044053275 -0.012389988 0.63498229
0.044053275 -0.013766646 0.63498229
0.044053275 -0.015143305 0.63498229
0.044053275 -0.016519964 0.63498229
0.044053275 -0.017896622 0.63498223
0.044053275 -0.019273311 0.63498229
0.044053275 -0.02064997 0.63498229
0.044053275 -0.022026628 0.63498223
0.044053275 -0.023403317 0.63498229
0.044053275 -0.024779975 0.63498229
0.044053275 -0.026156604 0.63498229
0.044053275 -0.027533293 0.63498229
0.044053275 -0.028909981 0.63498235
0.044053275 -0.03028661 0.63498229
0.044053275 -0.031663299 0.63498229
0.044053275 -0.033039957 0.63498223
0.044053275 -0.034416616 0.63498229
0.045620255 0.041472942 0.63567841
0.045620255 0.040090561 0.63567841
0.045620255 0.038708091 0.63567841
0.045620255 0.03732568 0.63567841
0.045620255 0.03594321 0.63567841
0.045620255 0.034560829 0.63567841
0.045620255 0.033178359 0.63567847
0.045620255 0.031795949 0.63567841
0.045620255 0.030413508 0.63567841
0.045620255 0.029031068 0.63567841
0.045620255 0.027648658 0.63567841
0.045620255 0.026266217 0.63567841
0.045620255 0.024883777 0.63567847
0.045620255 0.023501366 0.63567841
0.045620255 0.022118926 0.63567841
0.045620255 0.020736486 0.63567841
0.045620255 0.019354045 0.63567841
0.045620255 0.017971605 0.63567841
0.045620255 0.016589195 0.63567841
0.045620255 0.015206784 0.63567847
0.045620255 0.013824344 0.63567841
0.045620255 0.012441903 0.63567841
0.045620255 0.011059463 0.63567841
0.045620255 0.0096770227 0.63567847
0.045620255 0.0082945824 0.63567841
0.045620255 0.0069122016 0.63567841
0.045620255 0.0055297315 0.63567841
0.045620255 0.0041472912 0.63567841
0.045620255 0.0027648807 0.63567841
0.045620255 0.0013824403 0.63567841
0.045620255 -0 0.63567841
0.045620255 -0.0013824105 0.63567847
0.045620255 -0.0027648509 0.63567841
0.045620255 -0.0041472614 0.63567841
0.045620255 -0.0055297315 0.63567841
0.045620255 -0.006912142 0.63567841
0.045620255 -0.0082946122 0.63567841
0.045620255 -0.0096769929 0.63567841
0.045620255 -0.011059463 0.63567841
0.045620389 -0.012441903 0.63567889
0.045620255 -0.013824314 0.63567841
0.045620255 -0.015206724 0.63567841
0.045620255 -0.016589195 0.63567847
0.045620255 -0.017971605 0.63567841
0.045620255 -0.019354016 0.63567841
0.045620389 -0.020736545 0.63567895
0.045620389 -0.022118956 0.63567889
0.045620389 -0.023501396 0.63567889
0.045620255 -0.024883747 0.63567841
0.045620255 -0.026266217 0.63567841
0.045620389 -0.027648687 0.63567889
0.045620389 -0.029031128 0.63567889
0.045620389 -0.030413568 0.63567889
0.045620389 -0.031796038 0.63567895
0.045620389 -0.033178449 0.63567889
0.045620389 -0.034560889 0.63567889
0.047200419 0.041647434 0.63638043
0.047200419 0.040259212 0.63638043
0.047200419 0.03887096 0.63638043
0.047200419 0.037482679 0.63638043
0.047200419 0.036094427 0.63638043
0.047200419 0.034706175 0.63638043
0.047200419 0.033317953 0.63638043
0.047200419 0.031929702 0.63638043
0.047200419 0.03054145 0.63638043
0.047200419 0.029153228 0.63638043
0.047200419 0.027764976 0.63638043
0.047200419 0.026376694 0.63638043
0.047200419 0.024988472 0.63638043
0.047200419 0.023600221 0.63638043
0.047200557 0.022211999 0.63638091
0.047200557 0.020823777 0.63638091
0.047200419 0.019435465 0.63638043
0.047200419 0.018047214 0.63638043
0.047200419 0.016658962 0.63638043
0.047200557 0.01527077 0.63638091
0.047200557 0.013882518 0.63638091
0.047200557 0.012494266 0.63638091
0.047200557 0.011106014 0.63638091
0.047200557 0.0097177625 0.63638091
0.047200557 0.0083295107 0.63638091
0.047200557 0.0069412589 0.63638091
0.047200557 0.0055530369 0.63638091
0.047200557 0.0041647851 0.63638091
0.047200557 0.0027765036 0.63638091
0.047200557 0.0013882518 0.63638091
0.047200557 -0 0.63638091
0.047200557 -0.001388222 0.63638091
0.047200557 -0.0027764738 0.63638091
0.047200557 -0.0041647553 0.63638091
0.047200557 -0.0055530071 0.63638091
0.047200557 -0.0069412887 0.63638091
0.047200557 -0.0083295107 0.63638091
0.047200557 -0.0097177625 0.63638091
0.047200557 -0.011106014 0.63638091
0.047200557 -0.012494266 0.63638091
0.047200557 -0.013882518 0.63638091
0.047200557 -0.01527074 0.63638091
0.047200557 -0.016659021 0.63638091
0.047200557 -0.018047273 0.63638091
0.047200557 -0.019435525 0.63638091
0.047200557 -0.020823777 0.63638091
0.047200557 -0.022211999 0.63638091
0.047200557 -0.02360028 0.63638097
0.047200557 -0.024988502 0.63638091
0.047200557 -0.026376784 0.63638091
0.047200557 -0.027765036 0.63638091
0.047200557 -0.029153258 0.63638091
0.047200557 -0.030541509 0.63638091
0.047200557 -0.031929761 0.63638091
0.047200557 -0.033318013 0.63638091
0.04879408 0.041823506 0.63708889
0.04879408 0.040429384 0.63708889
0.04879408 0.039035261 0.63708884
0.04879408 0.037641138 0.63708889
0.04879408 0.036247045 0.63708889
0.04879408 0.034852892 0.63708889
0.04879408 0.033458829 0.63708884
0.04879408 0.032064676 0.63708889
0.04879408 0.030670553 0.63708889
0.04879408 0.02927646 0.63708889
0.04879408 0.027882338 0.63708884
0.04879408 0.026488215 0.63708884
0.04879408 0.025094092 0.63708889
0.04879408 0.023699999 0.63708884
0.04879408 0.022305846 0.63708889
0.04879408 0.020911753 0.63708889
0.04879408 0.019517601 0.63708889
0.04879408 0.018123537 0.63708889
0.04879408 0.016729414 0.63708889
0.04879408 0.015335292 0.63708884
0.04879408 0.013941169 0.63708889
0.04879408 0.012547046 0.63708884
0.04879408 0.011152953 0.63708889
0.04879408 0.0097588301 0.63708889
0.04879408 0.0083647072 0.63708889
0.04879408 0.0069706142 0.63708884
0.04879408 0.0055764616 0.63708889
0.04879408 0.0041823685 0.63708889
0.04879408 0.0027882457 0.63708889
0.04879408 0.0013941228 0.63708884
0.04879408 -0 0.63708884
0.04879408 -0.0013941526 0.63708889
0.04879408 -0.0027882159 0.63708884
0.04879408 -0.0041823387 0.63708889
0.04879408 -0.0055764616 0.63708884
0.04879408 -0.0069705844 0.63708889
0.04879408 -0.0083647072 0.63708889
0.04879408 -0.0097588003 0.63708889
0.04879408 -0.011152953 0.63708889
0.04879408 -0.012547046 0.63708889
0.04879408 -0.013941169 0.63708884
0.04879408 -0.015335292 0.63708889
0.04879408 -0.016729385 0.63708889
0.04879408 -0.018123507 0.63708889
0.04879408 -0.019517601 0.63708884
0.04879408 -0.020911753 0.63708884
0.04879408 -0.022305876 0.63708889
0.04879408 -0.023699939 0.63708889
0.04879408 -0.025094092 0.63708889
0.04879408 -0.026488185 0.63708884
0.04879408 -0.027882338 0.63708889
0.04879408 -0.029276431 0.63708884
0.04879408 -0.030670553 0.63708889
0.04879408 -0.032064676 0.63708889
0.04879408 -0.033458769 0.63708889
0.050401118 0.042000949 0.63780278
0.050401118 0.040600896 0.63780284
0.050401118 0.039200872 0.63780284
0.050401118 0.037800819 0.63780284
0.050401118 0.036400825 0.63780284
0.050401118 0.035000771 0.63780284
0.050401118 0.033600748 0.63780284
0.050401118 0.032200724 0.63780284
0.050401118 0.0308007 0.63780284
0.050401118 0.029400647 0.63780284
0.050401118 0.028000653 0.63780284
0.050401118 0.026600599 0.63780284
0.050401118 0.025200576 0.63780284
0.050401118 0.023800522 0.63780278
0.050401118 0.022400528 0.63780284
0.050401118 0.021000475 0.63780284
0.050401118 0.019600481 0.63780278
0.050401118 0.018200397 0.63780284
0.050401118 0.016800374 0.63780284
0.050401118 0.01540035 0.63780278
0.050401118 0.014000356 0.63780284
0.050401118 0.012600273 0.63780284
0.050401118 0.011200249 0.63780284
0.050401118 0.0098001957 0.63780284
0.050401118 0.008400172 0.63780284
0.050401118 0.0070001483 0.63780284
0.050401118 0.0056001246 0.63780284
0.050401118 0.0042001009 0.63780278
0.050401118 0.0028000772 0.63780284
0.050401118 0.0013999939 0.63780284
0.050401118 -0 0.63780284
0.050401118 -0.0014000237 0.63780284
0.050401118 -0.0028000474 0.63780284
0.050401118 -0.0042000711 0.63780278
0.050401118 -0.0056001246 0.63780284
0.050401118 -0.0070001781 0.63780284
0.050401118 -0.008400172 0.63780284
0.050401118 -0.0098002255 0.63780278
0.050401118 -0.011200249 0.63780284
0.050401118 -0.012600273 0.63780278
0.050401118 -0.014000297 0.63780278
0.050401118 -0.01540035 0.63780284
0.050401118 -0.016800374 0.63780284
0.050401118 -0.018200427 0.63780284
0.050401118 -0.019600421 0.63780284
0.050401118 -0.021000475 0.63780284
0.050401118 -0.022400498 0.63780284
0.050401118 -0.023800522 0.63780284
0.050401118 -0.025200546 0.63780284
0.050401118 -0.026600599 0.63780284
0.050401118 -0.028000623 0.63780278
0.050401118 -0.029400647 0.63780278
0.050401118 -0.0308007 0.63780284
0.050401118 -0.032200694 0.63780278
0.050401118 -0.033600718 0.63780284
0.052021854 0.042179883 0.63852286
0.052021854 0.040773898 0.63852286
0.052021854 0.039367884 0.63852286
0.052021854 0.03796187 0.63852286
0.052021854 0.036555916 0.63852286
0.052021854 0.035149872 0.63852286
0.052021854 0.033743918 0.63852286
0.052021854 0.032337934 0.63852286
0.052021854 0.03093189 0.63852286
0.052021854 0.029525906 0.63852286
0.052021854 0.028119922 0.63852286
0.052021854 0.026713938 0.63852286
0.052021854 0.025307953 0.63852286
0.052021854 0.02390191 0.63852286
0.052021854 0.022495925 0.63852286
0.052021854 0.021089941 0.6385228
0.052021854 0.019683957 0.63852286
0.052021854 0.018277973 0.63852286
0.052021854 0.016871959 0.6385228
0.052021854 0.015465975 0.63852286
0.052021854 0.014059961 0.63852286
0.052021854 0.012654006 0.63852286
0.052021854 0.011247993 0.63852286
0.052021854 0.0098419785 0.63852286
0.052021854 0.0084359944 0.63852286
0.052021854 0.0070299506 0.63852286
0.052021854 0.0056239963 0.63852286
0.052021854 0.0042180419 0.63852286
0.052021854 0.0028119683 0.63852286
0.052021854 0.0014059842 0.63852286
0.052021854 -0 0.6385228
0.052021854 -0.0014059842 0.63852286
0.052021854 -0.0028119683 0.63852286
0.052021854 -0.0042180121 0.63852286
0.052021854 -0.0056239963 0.63852286
0.052021854 -0.0070299804 0.63852286
0.052021854 -0.0084359646 0.63852286
0.052021854 -0.0098419487 0.63852286
0.052021854 -0.011247993 0.63852286
0.052021854 -0.012653947 0.63852286
0.052021854 -0.014059961 0.63852286
0.052021854 -0.015465975 0.63852286
0.052021854 -0.016871929 0.63852286
0.052021854 -0.018277943 0.63852286
0.052021854 -0.019683927 0.6385228
0.052021854 -0.021089941 0.63852286
0.052021854 -0.022495925 0.6385228
0.052021854 -0.02390188 0.6385228
0.052021854 -0.025307953 0.63852286
0.052021854 -0.026713908 0.63852286
0.052021854 -0.028119892 0.6385228
0.052021854 -0.029525906 0.63852286
0.052021854 -0.03093189 0.63852286
0.052021854 -0.032337904 0.63852286
0.053656455 0.042360395 0.63924909
0.053656455 0.040948391 0.63924903
0.053656455 0.039536357 0.63924909
0.053656455 0.038124323 0.63924903
0.053656455 0.036712348 0.63924903
0.053656455 0.035300314 0.63924909
0.053656455 0.03388831 0.63924903
0.053656455 0.032476276 0.63924909
0.053656455 0.031064272 0.63924909
0.053656455 0.029652268 0.63924903
0.053656455 0.028240234 0.63924909
0.053656455 0.026828229 0.63924903
0.053656455 0.025416225 0.63924909
0.053656455 0.024004191 0.63924903
0.053656455 0.022592217 0.63924903
0.053656455 0.021180183 0.63924909
0.053656455 0.019768178 0.63924903
0.053656455 0.018356144 0.63924909
0.053656455 0.01694414 0.63924909
0.053656455 0.015532136 0.63924909
0.053656455 0.014120162 0.63924903
0.053656455 0.012708098 0.63924903
0.053656455 0.011296093 0.63924903
0.053656455 0.0098840594 0.63924909
0.053656455 0.008472085 0.63924903
0.053656455 0.0070600808 0.63924903
0.053656455 0.0056480169 0.63924909
0.053656455 0.0042360127 0.63924903
0.053656455 0.0028240383 0.63924909
0.053656455 0.001412034 0.63924909
0.053656455 2.9802322e-08 0.63924909
0.053656455 -0.0014119744 0.63924903
0.053656455 -0.0028240085 0.63924903
0.053656455 -0.0042360127 0.63924903
0.053656455 -0.0056480467 0.63924909
0.053656455 -0.007060051 0.63924903
0.053656455 -0.0084720552 0.63924903
0.053656455 -0.0098840892 0.63924909
0.053656455 -0.011296093 0.63924903
0.053656455 -0.012708127 0.63924909
0.053656455 -0.014120102 0.63924909
0.053656455 -0.015532136 0.63924903
0.053656455 -0.01694414 0.63924909
0.053656455 -0.018356144 0.63924903
0.053656455 -0.019768149 0.63924909
0.053656455 -0.021180153 0.63924909
0.053656455 -0.022592187 0.63924903
0.053656455 -0.024004221 0.63924909
0.053656455 -0.025416195 0.63924909
0.053656455 -0.026828229 0.63924909
0.053656455 -0.028240234 0.63924909
0.053656455 -0.029652268 0.63924909
0.053656455 -0.031064242 0.63924903
0.053656455 -0.032476276 0.63924909
0.055305112 0.042542398 0.63998145
0.055305112 0.041124344 0.63998151
0.055305112 0.03970626 0.63998151
0.055305112 0.038288146 0.63998151
0.055305112 0.036870092 0.63998151
0.055305112 0.035452008 0.63998151
0.055305112 0.034033924 0.63998151
0.055305112 0.03261584 0.63998151
0.055305112 0.031197757 0.63998151
0.055305112 0.029779643 0.63998151
0.055305112 0.028361559 0.63998151
0.055305112 0.026943535 0.63998151
0.055305112 0.025525421 0.63998151
0.055305112 0.024107367 0.63998151
0.055305112 0.022689283 0.63998151
0.055305112 0.021271199 0.63998151
0.055305112 0.019853115 0.63998151
0.055305112 0.018435031 0.63998151
0.055305112 0.017016977 0.63998145
0.055305112 0.015598893 0.63998145
0.055305112 0.014180809 0.63998145
0.055305112 0.012762725 0.63998151
0.055305112 0.011344641 0.63998151
0.055305112 0.0099265873 0.63998151
0.055305112 0.0085085034 0.63998151
0.055305112 0.0070903897 0.63998151
0.055305112 0.0056723058 0.63998151
0.055305112 0.0042542517 0.63998151
0.055305112 0.002836138 0.63998151
0.055305112 0.0014180243 0.63998151
0.055305112 2.9802322e-08 0.63998145
0.055305112 -0.0014180541 0.63998151
0.055305112 -0.002836138 0.63998151
0.055305112 -0.0042542219 0.63998151
0.055305112 -0.0056723356 0.63998151
0.055305112 -0.0070904195 0.63998151
0.055305112 -0.0085084736 0.63998151
0.055305112 -0.0099265277 0.63998151
0.055305112 -0.011344641 0.63998151
0.055305112 -0.012762696 0.63998145
0.055305112 -0.014180779 0.63998145
0.055305112 -0.015598863 0.63998151
0.055305112 -0.017016917 0.63998151
0.055305112 -0.018435031 0.63998151
0.055305112 -0.019853115 0.63998151
0.055305112 -0.021271229 0.63998151
0.055305112 -0.022689283 0.63998151
