# .PCD v0.7 - Point Cloud Data file format
VERSION 0.7
FIELDS x y z
SIZE 4 4 4
TYPE F F F
COUNT 1 1 1
WIDTH 1331
HEIGHT 1
VIEWPOINT 0 0 0 1 0 0 0
POINTS 1331
DATA ascii
-0.020636827 -0.037834197 0.67639458
-0.020636827 -0.03955394 0.67639458
-0.020636827 -0.041273654 0.67639458
-0.020636827 -0.042993397 0.67639452
-0.020636827 -0.04471314 0.67639458
-0.020636827 -0.046432853 0.67639458
-0.020636827 -0.048152626 0.67639458
-0.020636827 -0.049872339 0.67639458
-0.020636827 -0.051592052 0.67639452
-0.020636827 -0.053311795 0.67639452
-0.020636827 -0.055031508 0.67639452
-0.020636827 -0.056751251 0.67639458
-0.020636827 -0.058470964 0.67639458
-0.020636827 -0.060190737 0.67639458
-0.020636827 -0.06191048 0.67639458
-0.020636827 -0.063630193 0.67639452
-0.020636827 -0.065349936 0.67639452
-0.018817112 0.068425834 0.67529744
-0.018817112 0.066715211 0.67529744
-0.018817043 0.065004349 0.67529666
-0.018817043 0.063293695 0.67529666
-0.018817043 0.061583072 0.67529666
-0.018817043 0.059872389 0.67529666
-0.018817043 0.058161795 0.67529666
-0.018817043 0.056451112 0.67529666
-0.018817043 0.054740489 0.67529666
-0.018817043 0.053029865 0.67529666
-0.018817043 0.051319212 0.67529666
-0.018817043 0.049608588 0.67529666
-0.018817043 0.047897905 0.67529666
-0.018817043 0.046187311 0.67529666
-0.018817043 0.044476658 0.67529666
-0.018817043 0.042766035 0.67529666
-0.018817043 0.041055351 0.67529666
-0.018817043 0.039344758 0.67529666
-0.018817043 0.037634075 0.67529666
-0.018817043 0.035923451 0.67529666
-0.018817043 0.034212828 0.67529666
-0.018817043 0.032502174 0.67529666
-0.018817043 0.030791521 0.67529666
-0.018817043 0.029080868 0.67529666
-0.018817043 0.027370244 0.67529666
-0.018817043 0.025659621 0.67529666
-0.018817043 0.023948967 0.67529672
-0.018817043 0.022238314 0.67529666
-0.018817043 0.020527691 0.67529666
-0.018817043 0.018817037 0.67529666
-0.018817043 0.017106414 0.67529666
-0.018817043 0.015395761 0.67529666
-0.018817043 0.013685137 0.67529666
-0.018817043 0.011974484 0.67529666
-0.018817043 0.01026386 0.67529672
-0.018817043 0.0085532069 0.67529666
-0.018817043 0.0068425834 0.67529666
-0.018817043 0.0051319003 0.67529666
-0.018817043 0.0034213066 0.67529666
-0.018817043 0.0017106235 0.67529666
-0.018817043 2.9802322e-08 0.67529672
-0.018817043 -0.0017106533 0.67529666
-0.018817043 -0.003421247 0.67529666
-0.018817043 -0.0051319301 0.67529666
-0.018817043 -0.0068425238 0.67529666
-0.018817043 -0.0085532367 0.67529666
-0.018817043 -0.01026383 0.67529666
-0.018817043 -0.011974454 0.67529666
-0.018817043 -0.013685107 0.67529672
-0.018817043 -0.01539579 0.67529666
-0.018817043 -0.017106414 0.67529672
-0.018817043 -0.018817037 0.67529666
-0.018817043 -0.020527661 0.67529666
-0.018817043 -0.022238344 0.67529666
-0.018817043 -0.023948938 0.67529666
-0.018817043 -0.025659621 0.6752966
-0.018817043 -0.027370244 0.67529672
-0.018817043 -0.029080868 0.67529666
-0.018817043 -0.030791491 0.67529666
-0.018817043 -0.032502145 0.67529666
-0.018817043 -0.034212798 0.67529666
-0.018817043 -0.035923451 0.67529672
-0.018817043 -0.037634075 0.67529666
-0.018817043 -0.039344698 0.67529666
-0.018817043 -0.041055381 0.67529666
-0.018817043 -0.042766005 0.67529666
-0.018817043 -0.044476628 0.67529666
-0.018817043 -0.046187282 0.67529666
-0.018817043 -0.047897935 0.67529666
-0.018817043 -0.049608529 0.67529666
-0.018817043 -0.051319212 0.67529666
-0.018817043 -0.053029835 0.67529666
-0.018817043 -0.054740518 0.67529672
-0.018817043 -0.056451112 0.67529666
-0.018817043 -0.058161765 0.67529666
-0.018817043 -0.059872419 0.67529672
-0.018817043 -0.061583072 0.67529666
-0.018817043 -0.063293695 0.67529672
-0.018817043 -0.065004349 0.67529666
-0.017016469 0.068065882 0.67421103
-0.017016469 0.066364229 0.67421108
-0.017016469 0.064662576 0.67421108
-0.017016469 0.062960953 0.67421108
-0.017016469 0.06125927 0.67421108
-0.017016469 0.059557647 0.67421108
-0.017016469 0.057855994 0.67421103
-0.017016469 0.056154341 0.67421103
-0.017016469 0.054452717 0.67421103
-0.017016469 0.052751064 0.67421108
-0.017016469 0.051049441 0.67421108
-0.017016469 0.049347788 0.67421103
-0.017016469 0.047646135 0.67421103
-0.017016469 0.045944482 0.67421103
-0.017016469 0.044242799 0.67421108
-0.017016469 0.042541206 0.67421103
-0.017016469 0.040839553 0.67421108
-0.017016469 0.0391379 0.67421103
-0.017016407 0.037436098 0.67421031
-0.017016407 0.035734475 0.67421031
-0.017016407 0.034032822 0.67421031
-0.017016407 0.032331198 0.67421031
-0.017016407 0.030629575 0.67421031
-0.017016407 0.028927892 0.67421031
-0.017016407 0.027226269 0.67421031
-0.017016407 0.025524616 0.67421031
-0.017016407 0.023822993 0.67421031
-0.017016407 0.02212137 0.67421031
-0.017016407 0.020419717 0.67421031
-0.017016407 0.018718064 0.67421031
-0.017016407 0.017016411 0.67421031
-0.017016407 0.015314788 0.67421031
-0.017016407 0.013613135 0.67421031
-0.017016407 0.011911482 0.67421031
-0.017016407 0.010209858 0.67421031
-0.017016407 0.0085082054 0.67421031
-0.017016407 0.0068065524 0.67421031
-0.017016407 0.0051049292 0.67421031
-0.017016407 0.0034032762 0.67421031
-0.017016407 0.001701653 0.67421031
-0.017016407 2.9802322e-08 0.67421031
-0.017016407 -0.0017016232 0.67421031
-0.017016407 -0.0034032464 0.67421031
-0.017016407 -0.0051048994 0.67421031
-0.017016407 -0.0068065524 0.67421031
-0.017016407 -0.0085082054 0.67421031
-0.017016407 -0.010209858 0.67421031
-0.017016407 -0.011911482 0.67421031
-0.017016407 -0.013613135 0.67421031
-0.017016407 -0.015314758 0.67421031
-0.017016407 -0.017016381 0.67421031
-0.017016407 -0.018718064 0.67421031
-0.017016407 -0.020419687 0.67421031
-0.017016407 -0.02212134 0.67421031
-0.017016407 -0.023822963 0.67421031
-0.017016407 -0.025524616 0.67421031
-0.017016407 -0.027226269 0.67421031
-0.017016407 -0.028927892 0.67421031
-0.017016407 -0.030629545 0.67421037
-0.017016407 -0.032331169 0.67421031
-0.017016407 -0.034032792 0.67421037
-0.017016407 -0.035734445 0.67421031
-0.017016407 -0.037436068 0.67421031
-0.017016407 -0.039137751 0.67421031
-0.017016407 -0.040839374 0.67421031
-0.017016407 -0.042540997 0.67421031
-0.017016407 -0.04424268 0.67421031
-0.017016407 -0.045944303 0.67421037
-0.017016407 -0.047645956 0.67421037
-0.017016407 -0.049347609 0.67421031
-0.017016407 -0.051049232 0.67421037
-0.017016407 -0.052750885 0.67421031
-0.017016407 -0.054452509 0.67421037
-0.017016407 -0.056154102 0.67421031
-0.017016407 -0.057855785 0.67421031
-0.017016407 -0.059557378 0.67421031
-0.017016407 -0.061259091 0.67421031
-0.017016407 -0.062960684 0.67421031
-0.017016407 -0.064662367 0.67421031
-0.015234673 0.067709684 0.67313606
-0.015234673 0.066016912 0.67313612
-0.015234673 0.0643242 0.67313612
-0.015234673 0.062631458 0.67313612
-0.015234673 0.060938716 0.67313612
-0.015234673 0.059245974 0.67313612
-0.015234673 0.057553232 0.67313606
-0.015234673 0.05586046 0.67313612
-0.015234673 0.054167747 0.67313612
-0.015234673 0.052475005 0.67313612
-0.015234673 0.050782233 0.67313606
-0.015234673 0.049089521 0.67313606
-0.015234673 0.047396749 0.67313612
-0.015234673 0.045704007 0.67313612
-0.015234673 0.044011295 0.67313606
-0.015234673 0.042318553 0.67313606
-0.015234673 0.040625811 0.67313612
-0.015234673 0.038933069 0.67313612
-0.015234673 0.037240326 0.67313612
-0.015234673 0.035547614 0.67313606
-0.015234673 0.033854872 0.67313612
-0.015234673 0.0321621 0.67313612
-0.015234673 0.030469388 0.67313612
-0.015234673 0.028776616 0.67313612
-0.015234673 0.027083874 0.67313606
-0.015234673 0.025391132 0.67313612
-0.015234619 0.02369833 0.67313534
-0.015234619 0.022005588 0.6731354
-0.015234619 0.020312846 0.67313534
-0.015234619 0.018620104 0.6731354
-0.015234619 0.016927391 0.67313534
-0.015234619 0.015234619 0.6731354
-0.015234619 0.013541877 0.6731354
-0.015234619 0.011849105 0.6731354
-0.015234619 0.010156393 0.67313534
-0.015234619 0.0084636807 0.67313534
-0.015234619 0.0067709088 0.6731354
-0.015234619 0.0050782263 0.67313534
-0.015234619 0.0033854544 0.67313534
-0.015234619 0.0016927123 0.67313534
-0.015234619 2.9802322e-08 0.67313534
-0.015234619 -0.0016927123 0.67313534
-0.015234619 -0.0033854544 0.67313534
-0.015234619 -0.0050781965 0.6731354
-0.015234619 -0.0067709088 0.67313534
-0.015234619 -0.0084636807 0.67313534
-0.015234619 -0.010156393 0.67313534
-0.015234619 -0.011849135 0.6731354
-0.015234619 -0.013541877 0.67313534
-0.015234619 -0.01523459 0.67313534
-0.015234619 -0.016927361 0.6731354
-0.015234619 -0.018620104 0.6731354
-0.015234619 -0.020312816 0.6731354
-0.015234619 -0.022005558 0.67313534
-0.015234619 -0.0236983 0.6731354
-0.015234619 -0.025391012 0.6731354
-0.015234619 -0.027083784 0.6731354
-0.015234619 -0.028776497 0.67313534
-0.015234619 -0.030469209 0.67313528
-0.015234619 -0.032161981 0.67313534
-0.015234619 -0.033854723 0.6731354
-0.015234619 -0.035547435 0.6731354
-0.015234619 -0.037240177 0.67313534
-0.015234619 -0.03893292 0.6731354
-0.015234619 -0.040625632 0.67313534
-0.015234619 -0.042318404 0.67313534
-0.015234619 -0.044011116 0.67313534
-0.015234619 -0.045703828 0.6731354
-0.015234619 -0.0473966 0.6731354
-0.015234619 -0.049089313 0.67313534
-0.015234619 -0.050782084 0.6731354
-0.015234619 -0.052474797 0.67313534
-0.015234619 -0.054167509 0.67313528
-0.015234619 -0.055860281 0.6731354
-0.015234619 -0.057553023 0.6731354
-0.015234619 -0.059245735 0.6731354
-0.015234619 -0.060938448 0.67313534
-0.015234619 -0.06263119 0.6731354
-0.015234619 -0.064323932 0.6731354
-0.015234619 -0.066016674 0.67313534
-0.01347143 0.067357183 0.67207229
-0.01347143 0.065673232 0.67207235
-0.01347143 0.063989282 0.67207229
-0.01347143 0.062305361 0.67207229
-0.01347143 0.06062144 0.67207229
-0.01347143 0.05893755 0.67207229
-0.01347143 0.057253599 0.67207229
-0.01347143 0.055569679 0.67207229
-0.01347143 0.053885728 0.67207229
-0.01347143 0.052201778 0.67207235
-0.01347143 0.050517857 0.67207229
-0.01347143 0.048833936 0.67207229
-0.01347143 0.047150016 0.67207229
-0.01347143 0.045466095 0.67207229
-0.01347143 0.043782145 0.67207229
-0.01347143 0.042098254 0.67207229
-0.01347143 0.040414274 0.67207235
-0.01347143 0.038730353 0.67207229
-0.01347143 0.037046462 0.67207229
-0.01347143 0.035362512 0.67207229
-0.01347143 0.033678591 0.67207235
-0.01347143 0.031994671 0.67207229
-0.01347143 0.03031069 0.67207235
-0.01347143 0.028626829 0.67207229
-0.01347143 0.026942849 0.67207229
-0.01347143 0.025258929 0.67207229
-0.01347143 0.023575038 0.67207229
-0.01347143 0.021891087 0.67207229
-0.01347143 0.020207137 0.67207229
-0.01347143 0.018523216 0.67207229
-0.01347143 0.016839296 0.67207229
-0.01347143 0.015155375 0.67207229
-0.01347143 0.013471454 0.67207229
-0.01347143 0.011787504 0.67207229
-0.013471383 0.010103554 0.67207158
-0.013471383 0.0084196329 0.67207158
-0.013471383 0.0067357123 0.67207158
-0.013471383 0.0050517619 0.67207158
-0.013471383 0.003367871 0.67207158
-0.013471383 0.0016839206 0.67207158
-0.013471383 -0 0.67207158
-0.013471383 -0.0016839206 0.67207158
-0.013471383 -0.0033678412 0.67207158
-0.013471383 -0.0050517619 0.67207158
-0.013471383 -0.0067356825 0.67207164
-0.013471383 -0.0084195733 0.67207158
-0.013471383 -0.010103524 0.67207158
-0.013471383 -0.011787474 0.67207158
-0.013471383 -0.013471335 0.67207158
-0.013471383 -0.015155286 0.67207158
-0.013471383 -0.016839236 0.67207158
-0.013471383 -0.018523127 0.67207158
-0.013471383 -0.020207107 0.67207164
-0.013471383 -0.021890968 0.67207158
-0.013471383 -0.023574919 0.67207158
-0.013471383 -0.025258869 0.67207158
-0.013471383 -0.02694273 0.67207158
-0.013471383 -0.02862671 0.67207158
-0.013471383 -0.030310631 0.67207158
-0.013471383 -0.031994492 0.67207158
-0.013471383 -0.033678472 0.67207158
-0.013471383 -0.035362393 0.67207158
-0.013471383 -0.037046283 0.67207158
-0.013471383 -0.038730234 0.67207158
-0.013471383 -0.040414125 0.67207158
-0.013471383 -0.042098016 0.67207158
-0.013471383 -0.043782026 0.67207164
-0.013471383 -0.045465887 0.67207158
-0.013471383 -0.047149867 0.67207158
-0.013471383 -0.048833787 0.67207164
-0.013471383 -0.050517648 0.67207158
-0.013471383 -0.052201629 0.67207158
-0.013471383 -0.05388552 0.67207158
-0.013471383 -0.05556944 0.67207158
-0.013471383 -0.057253391 0.67207158
-0.013471383 -0.058937281 0.67207158
-0.013471383 -0.060621202 0.67207158
-0.013471383 -0.062305152 0.67207158
-0.013471383 -0.063989073 0.67207158
-0.013471383 -0.065672994 0.67207158
-0.011726452 0.067008317 0.67101955
-0.011726452 0.065333098 0.67101955
-0.011726452 0.06365788 0.67101955
-0.011726452 0.061982691 0.67101949
-0.011726452 0.060307473 0.67101955
-0.011726452 0.058632284 0.67101955
-0.011726452 0.056957066 0.67101955
-0.011726452 0.055281848 0.67101955
-0.011726452 0.053606629 0.67101955
-0.011726452 0.051931411 0.67101955
-0.011726452 0.050256222 0.67101955
-0.011726452 0.048581064 0.67101955
-0.011726452 0.046905816 0.67101955
-0.011726452 0.045230597 0.67101955
-0.011726452 0.043555379 0.67101955
-0.011726452 0.04188019 0.67101955
-0.011726452 0.040205032 0.67101955
-0.011726452 0.038529783 0.67101955
-0.011726452 0.036854565 0.67101955
-0.011726452 0.035179347 0.67101955
-0.011726452 0.033504158 0.67101955
-0.011726452 0.03182897 0.67101955
-0.011726452 0.030153722 0.67101955
-0.011726452 0.028478533 0.67101955
-0.011726452 0.026803315 0.67101955
-0.011726452 0.025128126 0.67101955
-0.011726452 0.023452908 0.67101955
-0.011726452 0.021777689 0.67101955
-0.011726452 0.020102531 0.67101955
-0.011726452 0.018427283 0.67101949
-0.011726452 0.016752094 0.67101955
-0.011726452 0.015076876 0.67101955
-0.011726452 0.013401657 0.67101955
-0.011726452 0.011726469 0.67101955
-0.011726452 0.010051221 0.67101955
-0.011726452 0.0083760023 0.67101955
-0.011726452 0.0067008436 0.67101955
-0.011726452 0.005025655 0.67101955
-0.011726452 0.0033504367 0.67101955
-0.011726452 0.0016751885 0.67101955
-0.011726452 -2.9802322e-08 0.67101955
-0.011726452 -0.0016751587 0.67101955
-0.01172641 -0.0033503771 0.67101884
-0.01172641 -0.0050255954 0.67101884
-0.01172641 -0.006700784 0.67101884
-0.01172641 -0.0083760321 0.6710189
-0.01172641 -0.010051221 0.67101884
-0.01172641 -0.011726379 0.67101884
-0.01172641 -0.013401598 0.67101878
-0.01172641 -0.015076786 0.67101884
-0.01172641 -0.016752005 0.67101884
-0.01172641 -0.018427223 0.67101884
-0.01172641 -0.020102412 0.67101884
-0.01172641 -0.02177763 0.67101884
-0.01172641 -0.023452789 0.67101884
-0.01172641 -0.025128007 0.67101884
-0.01172641 -0.026803225 0.67101884
-0.01172641 -0.028478414 0.67101884
-0.01172641 -0.030153602 0.67101884
-0.01172641 -0.031828821 0.67101884
-0.01172641 -0.033504009 0.67101884
-0.01172641 -0.035179228 0.67101884
-0.01172641 -0.036854416 0.67101884
-0.01172641 -0.038529664 0.67101884
-0.01172641 -0.040204823 0.67101884
-0.01172641 -0.041880012 0.67101884
-0.01172641 -0.04355526 0.67101884
-0.01172641 -0.045230448 0.67101884
-0.01172641 -0.046905637 0.67101884
-0.01172641 -0.048580825 0.67101884
-0.01172641 -0.050256044 0.67101884
-0.01172641 -0.051931262 0.67101884
-0.01172641 -0.053606451 0.67101884
-0.01172641 -0.055281609 0.67101884
-0.01172641 -0.056956857 0.67101884
-0.01172641 -0.058632046 0.67101884
-0.01172641 -0.060307264 0.67101884
-0.01172641 -0.061982423 0.67101884
-0.01172641 -0.063657612 0.67101884
-0.01172641 -0.06533286 0.67101878
-0.0099994559 0.068329632 0.66997766
-0.0099994559 0.066663027 0.66997755
-0.0099994559 0.064996511 0.66997761
-0.0099994559 0.063329875 0.66997766
-0.0099994559 0.0616633 0.66997766
-0.0099994559 0.059996754 0.66997761
-0.0099994559 0.058330148 0.66997761
-0.0099994559 0.056663573 0.66997761
-0.0099994559 0.054997027 0.66997761
-0.0099994559 0.053330451 0.66997761
-0.0099994559 0.051663876 0.66997766
-0.0099994559 0.0499973 0.66997766
-0.0099994559 0.048330724 0.66997761
-0.0099994559 0.046664149 0.66997766
-0.0099994559 0.044997543 0.66997766
-0.0099994559 0.043330997 0.66997761
-0.0099994559 0.041664422 0.66997766
-0.0099994559 0.039997816 0.66997766
-0.0099994559 0.03833124 0.66997766
-0.0099994559 0.036664695 0.66997761
-0.0099994559 0.034998089 0.66997761
-0.0099994559 0.033331543 0.66997766
-0.0099994559 0.031664938 0.66997761
-0.0099994559 0.029998392 0.66997761
-0.0099994559 0.028331786 0.66997766
-0.0099994559 0.026665211 0.66997766
-0.0099994559 0.024998665 0.66997766
-0.0099994559 0.023332059 0.66997766
-0.0099994559 0.021665484 0.66997766
-0.0099994559 0.019998938 0.66997761
-0.0099994559 0.018332332 0.66997766
-0.0099994559 0.016665757 0.66997766
-0.0099994559 0.014999151 0.66997766
-0.0099994559 0.013332605 0.66997761
-0.0099994559 0.011666059 0.66997766
-0.0099994559 0.0099994838 0.66997761
-0.0099994559 0.0083328784 0.66997761
-0.0099994559 0.0066663325 0.66997766
-0.0099994559 0.004999727 0.66997766
-0.0099994559 0.0033331513 0.66997766
-0.0099994559 0.0016666055 0.66997766
-0.0099994559 -0 0.66997766
-0.0099994559 -0.0016665757 0.66997766
-0.0099994559 -0.0033331513 0.66997766
-0.0099994559 -0.0049996972 0.66997766
-0.0099994559 -0.0066663027 0.66997766
-0.0099994559 -0.0083328485 0.66997761
-0.0099994559 -0.009999454 0.66997761
-0.0099994559 -0.01166603 0.66997766
-0.0099994559 -0.013332635 0.66997766
-0.0099994559 -0.014999181 0.66997761
-0.0099994559 -0.016665757 0.66997766
-0.0099994559 -0.018332362 0.66997766
-0.0099994559 -0.019998908 0.66997766
-0.0099994559 -0.021665484 0.66997766
-0.0099994559 -0.023332089 0.66997766
-0.0099994559 -0.024998605 0.66997766
-0.0099994559 -0.026665211 0.66997761
-0.0099994559 -0.028331786 0.66997766
-0.0099994559 -0.029998362 0.66997766
-0.0099994559 -0.031664938 0.66997761
-0.0099994559 -0.033331484 0.66997761
-0.0099994559 -0.034998089 0.66997761
-0.0099994559 -0.036664635 0.66997766
-0.0099994559 -0.03833124 0.66997761
-0.0099994559 -0.039997816 0.66997766
-0.0099994559 -0.041664422 0.66997766
-0.0099994559 -0.043330967 0.66997761
-0.0099994559 -0.044997543 0.66997766
-0.0099994559 -0.046664089 0.66997761
-0.0099994559 -0.048330694 0.66997761
-0.0099994559 -0.04999727 0.66997761
-0.0099994559 -0.051663846 0.66997766
-0.0099994559 -0.053330451 0.66997766
-0.0099994559 -0.054997027 0.66997761
-0.0099994559 -0.056663573 0.66997766
-0.0099994559 -0.058330148 0.66997766
-0.0099994559 -0.059996724 0.66997761
-0.0099994559 -0.06166333 0.66997766
-0.0099994559 -0.063329875 0.66997766
-0.0099994559 -0.064996451 0.66997766
-0.0082901651 0.067979336 0.66894639
-0.0082901651 0.066321343 0.66894644
-0.0082901651 0.064663291 0.66894644
-0.0082901651 0.063005239 0.66894639
-0.0082901651 0.061347246 0.66894639
-0.0082901651 0.059689194 0.66894639
-0.0082901651 0.058031172 0.66894639
-0.0082901651 0.056373119 0.66894644
-0.0082901651 0.054715097 0.66894639
-0.0082901651 0.053057075 0.66894639
-0.0082901651 0.051399022 0.66894639
-0.0082901651 0.049741 0.66894639
-0.0082901651 0.048082978 0.66894639
-0.0082901651 0.046424896 0.66894644
-0.0082901651 0.044766903 0.66894639
-0.0082901651 0.043108881 0.66894639
-0.0082901651 0.041450828 0.66894639
-0.0082901651 0.039792776 0.66894639
-0.0082901651 0.038134754 0.66894644
-0.0082901651 0.036476731 0.66894639
-0.0082901651 0.034818679 0.66894639
-0.0082901651 0.033160686 0.66894639
-0.0082901651 0.031502634 0.66894639
-0.0082901651 0.029844582 0.66894639
-0.0082901651 0.02818653 0.66894644
-0.0082901651 0.026528537 0.66894639
-0.0082901651 0.024870515 0.66894639
-0.0082901651 0.023212433 0.66894639
-0.0082901651 0.02155441 0.66894639
-0.0082901651 0.019896418 0.66894639
-0.0082901651 0.018238336 0.66894639
-0.0082901651 0.016580343 0.66894639
-0.0082901651 0.014922321 0.66894639
-0.0082901651 0.013264239 0.66894639
-0.0082901651 0.011606246 0.66894639
-0.0082901651 0.009948194 0.66894639
-0.0082901651 0.0082901716 0.66894639
-0.0082901651 0.0066321194 0.66894639
-0.0082901651 0.004974097 0.66894639
-0.0082901651 0.0033160746 0.66894644
-0.0082901651 0.0016580224 0.66894639
-0.0082901651 -0 0.66894644
-0.0082901651 -0.0016580224 0.66894639
-0.0082901651 -0.0033160746 0.66894639
-0.0082901651 -0.0049740672 0.66894639
-0.0082901651 -0.0066321492 0.66894639
-0.0082901651 -0.0082901418 0.66894639
-0.0082901651 -0.0099482238 0.66894639
-0.0082901651 -0.011606246 0.66894639
-0.0082901651 -0.013264239 0.66894639
-0.0082901651 -0.014922321 0.66894639
-0.0082901651 -0.016580313 0.66894639
-0.0082901651 -0.018238366 0.66894644
-0.0082901651 -0.019896418 0.66894639
-0.0082901651 -0.02155444 0.66894639
-0.0082901651 -0.023212463 0.66894639
-0.0082901651 -0.024870485 0.66894639
-0.0082901651 -0.026528537 0.66894639
-0.0082901651 -0.028186589 0.66894639
-0.0082901651 -0.029844582 0.66894639
-0.0082901651 -0.031502634 0.66894639
-0.0082901651 -0.033160627 0.66894639
-0.0082901651 -0.034818679 0.66894639
-0.0082901651 -0.036476761 0.66894644
-0.0082901651 -0.038134754 0.66894639
-0.0082901651 -0.039792776 0.66894639
-0.0082901651 -0.041450799 0.66894639
-0.0082901651 -0.043108851 0.66894639
-0.0082901651 -0.044766873 0.66894639
-0.0082901651 -0.046424925 0.66894644
-0.0082901651 -0.048082948 0.66894639
-0.0082901651 -0.04974097 0.66894639
-0.0082901651 -0.051398993 0.66894639
-0.0082901651 -0.053057045 0.66894644
-0.0082901651 -0.054715097 0.66894639
-0.0082901651 -0.056373119 0.66894639
-0.0082901651 -0.058031112 0.66894639
-0.0082901651 -0.059689164 0.66894639
-0.0082901651 -0.061347216 0.66894639
-0.0082901651 -0.063005239 0.66894639
-0.0082901651 -0.064663261 0.66894639
-0.0082901651 -0.066321284 0.66894644
-0.0065983082 0.067632675 0.66792572
-0.0065983082 0.065983087 0.66792572
-0.0065983082 0.064333528 0.66792566
-0.0065983082 0.06268394 0.66792572
-0.0065983082 0.061034352 0.66792572
-0.0065983082 0.059384763 0.66792572
-0.0065983082 0.057735234 0.66792566
-0.0065983082 0.056085616 0.66792566
-0.0065983082 0.054436028 0.66792572
-0.0065983082 0.052786469 0.66792572
-0.0065983082 0.051136881 0.66792572
-0.0065983082 0.049487323 0.66792566
-0.0065983082 0.047837734 0.66792566
-0.0065983082 0.046188176 0.66792572
-0.0065983082 0.044538587 0.66792566
-0.0065983082 0.042888999 0.66792566
-0.0065983082 0.041239411 0.66792566
-0.0065983082 0.039589852 0.66792572
-0.0065983082 0.037940264 0.66792572
-0.0065983082 0.036290675 0.66792572
-0.0065983082 0.034641117 0.66792566
-0.0065983082 0.032991558 0.66792572
-0.0065983082 0.03134197 0.66792572
-0.0065983082 0.029692411 0.66792566
-0.0065983082 0.028042823 0.66792566
-0.0065983082 0.026393235 0.66792572
-0.0065983082 0.024743676 0.66792572
-0.0065983082 0.023094088 0.66792572
-0.0065983082 0.021444529 0.66792566
-0.0065983082 0.019794941 0.66792572
-0.0065983082 0.018145382 0.66792572
-0.0065983082 0.016495794 0.66792572
-0.0065983082 0.014846236 0.66792566
-0.0065983082 0.013196617 0.66792566
-0.0065983082 0.011547089 0.66792572
-0.0065983082 0.0098974705 0.66792572
-0.0065983082 0.0082478821 0.66792572
-0.0065983082 0.0065983236 0.66792566
-0.0065983082 0.004948765 0.66792566
-0.0065983082 0.0032991767 0.66792572
-0.0065983082 0.0016495585 0.66792572
-0.0065983082 -0 0.66792566
-0.0065983082 -0.0016495883 0.66792566
-0.0065983082 -0.0032991469 0.66792572
-0.0065983082 -0.0049487352 0.66792572
-0.0065983082 -0.0065983236 0.66792572
-0.0065983082 -0.0082478821 0.66792566
-0.0065983082 -0.0098974705 0.66792566
-0.0065983082 -0.011547029 0.66792572
-0.0065983082 -0.013196617 0.66792566
-0.0065983082 -0.014846206 0.66792566
-0.0065983082 -0.016495764 0.66792566
-0.0065983082 -0.018145353 0.66792566
-0.0065983082 -0.019794941 0.66792572
-0.0065983082 -0.021444499 0.66792566
-0.0065983082 -0.023094058 0.66792566
-0.0065983082 -0.024743646 0.66792566
-0.0065983082 -0.026393205 0.66792566
-0.0065983082 -0.028042793 0.66792566
-0.0065983082 -0.029692352 0.66792566
-0.0065983082 -0.03134194 0.66792566
-0.0065983082 -0.032991529 0.66792572
-0.0065983082 -0.034641117 0.66792572
-0.0065983082 -0.036290675 0.66792572
-0.0065983082 -0.037940234 0.66792572
-0.0065983082 -0.039589822 0.66792572
-0.0065983082 -0.041239411 0.66792566
-0.0065983082 -0.042888999 0.66792572
-0.0065983082 -0.044538558 0.66792572
-0.0065983082 -0.046188146 0.66792572
-0.0065983082 -0.047837734 0.66792572
-0.0065983082 -0.049487352 0.66792572
-0.0065983082 -0.051136881 0.66792566
-0.0065983082 -0.052786469 0.66792572
-0.0065983082 -0.054436058 0.66792572
-0.0065983082 -0.056085616 0.66792566
-0.0065983082 -0.057735175 0.66792566
-0.0065983082 -0.059384763 0.66792572
-0.0065983082 -0.061034352 0.66792572
-0.0065983082 -0.06268394 0.66792572
-0.0065983082 -0.064333528 0.66792572
-0.0065983082 -0.065983057 0.66792572
-0.0049236212 0.067289501 0.6669153
-0.0049236212 0.065648317 0.6669153
-0.0049236212 0.064007074 0.6669153
-0.0049236212 0.06236589 0.6669153
-0.0049236212 0.060724676 0.6669153
-0.0049236212 0.059083462 0.6669153
-0.0049236212 0.057442248 0.6669153
-0.0049236212 0.055801034 0.6669153
-0.0049236212 0.05415985 0.66691536
-0.0049236212 0.052518606 0.6669153
-0.0049236212 0.050877422 0.6669153
-0.0049236212 0.049236208 0.6669153
-0.0049236212 0.047595024 0.6669153
-0.0049236212 0.04595381 0.6669153
-0.0049236212 0.044312596 0.6669153
-0.0049236212 0.042671382 0.6669153
-0.0049236212 0.041030169 0.6669153
-0.0049236212 0.039388984 0.6669153
-0.0049236212 0.037747771 0.6669153
-0.0049236212 0.036106586 0.6669153
-0.0049236212 0.034465373 0.6669153
-0.0049236212 0.032824159 0.6669153
-0.0049236212 0.031182945 0.6669153
-0.0049236212 0.029541731 0.6669153
-0.0049236212 0.027900547 0.6669153
-0.0049236212 0.026259333 0.6669153
-0.0049236212 0.024618089 0.6669153
-0.0049236212 0.022976905 0.6669153
-0.0049236212 0.021335691 0.6669153
-0.0049236212 0.019694507 0.66691536
-0.0049236212 0.018053263 0.66691536
-0.0049236212 0.016412079 0.66691536
-0.0049236212 0.014770865 0.66691536
-0.0049236212 0.013129652 0.66691536
-0.0049236212 0.011488438 0.66691536
-0.0049236212 0.0098472536 0.6669153
-0.0049236212 0.0082060695 0.6669153
-0.0049236212 0.0065648258 0.6669153
-0.0049236212 0.0049236119 0.6669153
-0.0049236212 0.0032824278 0.6669153
-0.0049236212 0.0016411841 0.6669153
-0.0049236212 -0 0.6669153
-0.0049236212 -0.0016412139 0.6669153
-0.0049236212 -0.0032824278 0.6669153
-0.0049236212 -0.0049236417 0.6669153
-0.0049236212 -0.0065648556 0.6669153
-0.0049236212 -0.0082060397 0.66691536
-0.0049236212 -0.009847194 0.6669153
-0.0049236212 -0.011488438 0.66691536
-0.0049236212 -0.013129622 0.6669153
-0.0049236212 -0.014770836 0.6669153
-0.0049236212 -0.01641205 0.6669153
-0.0049236212 -0.018053263 0.6669153
-0.0049236212 -0.019694448 0.6669153
-0.0049236212 -0.021335661 0.6669153
-0.0049236212 -0.022976875 0.6669153
-0.0049236212 -0.024618089 0.6669153
-0.0049236212 -0.026259273 0.6669153
-0.0049236212 -0.027900517 0.6669153
-0.0049236212 -0.029541731 0.6669153
-0.0049236212 -0.031182915 0.6669153
-0.0049236212 -0.032824129 0.6669153
-0.0049236212 -0.034465343 0.66691536
-0.0049236212 -0.036106557 0.66691536
-0.0049236212 -0.037747771 0.66691536
-0.0049236212 -0.039388984 0.66691536
-0.0049236212 -0.041030198 0.66691536
-0.0049236212 -0.042671382 0.66691536
-0.0049236212 -0.044312596 0.66691536
-0.0049236212 -0.04595381 0.66691536
-0.0049236212 -0.047594994 0.6669153
-0.0049236212 -0.049236238 0.66691536
-0.0049236212 -0.050877422 0.6669153
-0.0049236212 -0.052518636 0.6669153
-0.0049236212 -0.05415979 0.6669153
-0.0049236212 -0.055801004 0.6669153
-0.0049236212 -0.057442218 0.6669153
-0.0049236212 -0.059083432 0.6669153
-0.0049236212 -0.060724646 0.6669153
-0.0049236212 -0.06236586 0.6669153
-0.0049236212 -0.064007074 0.6669153
-0.0049236212 -0.065648258 0.6669153
-0.0032658542 0.068582952 0.66591579
-0.0032658542 0.066950023 0.66591591
-0.0032658542 0.065317094 0.66591585
-0.0032658542 0.063684165 0.66591585
-0.0032658428 0.062051058 0.66591513
-0.0032658428 0.060418099 0.66591513
-0.0032658428 0.0587852 0.66591519
-0.0032658428 0.057152271 0.66591519
-0.0032658428 0.055519342 0.66591519
-0.0032658428 0.053886443 0.66591519
-0.0032658428 0.052253485 0.66591519
-0.0032658428 0.050620586 0.66591513
-0.0032658428 0.048987657 0.66591513
-0.0032658428 0.047354728 0.66591513
-0.0032658428 0.045721799 0.66591513
-0.0032658428 0.04408887 0.66591519
-0.0032658428 0.042455941 0.66591519
-0.0032658428 0.040823013 0.66591519
-0.0032658428 0.039190143 0.66591513
-0.0032658428 0.037557155 0.66591519
-0.0032658428 0.035924256 0.66591513
-0.0032658428 0.034291357 0.66591513
-0.0032658428 0.032658458 0.66591519
-0.0032658428 0.031025499 0.66591519
-0.0032658428 0.02939257 0.66591519
-0.0032658428 0.027759671 0.66591525
-0.0032658428 0.026126742 0.66591519
-0.0032658428 0.024493843 0.66591519
-0.0032658428 0.022860914 0.66591513
-0.0032658428 0.021227986 0.66591513
-0.0032658428 0.019595057 0.66591519
-0.0032658428 0.017962128 0.66591519
-0.0032658428 0.016329229 0.66591519
-0.0032658428 0.0146963 0.66591519
-0.0032658428 0.013063431 0.66591513
-0.0032658428 0.011430472 0.66591519
-0.0032658428 0.0097975433 0.66591519
-0.0032658428 0.0081646144 0.66591519
-0.0032658428 0.0065316856 0.66591519
-0.0032658428 0.0048987567 0.66591519
-0.0032658428 0.0032658279 0.66591519
-0.0032658428 0.0016329288 0.66591513
-0.0032658428 -0 0.66591513
-0.0032658428 -0.001632899 0.66591519
-0.0032658428 -0.0032658577 0.66591519
-0.0032658428 -0.0048987865 0.66591513
-0.0032658428 -0.0065316558 0.66591513
-0.0032658428 -0.0081646144 0.66591519
-0.0032658428 -0.0097975135 0.66591513
-0.0032658428 -0.011430442 0.66591513
-0.0032658428 -0.013063371 0.66591513
-0.0032658428 -0.0146963 0.66591519
-0.0032658428 -0.016329199 0.66591519
-0.0032658428 -0.017962128 0.66591519
-0.0032658428 -0.019595087 0.66591519
-0.0032658428 -0.021227986 0.66591519
-0.0032658428 -0.022860885 0.66591513
-0.0032658428 -0.024493814 0.66591513
-0.0032658428 -0.026126713 0.66591513
-0.0032658428 -0.027759671 0.66591519
-0.0032658428 -0.02939257 0.66591519
-0.0032658428 -0.031025499 0.66591519
-0.0032658428 -0.032658398 0.66591513
-0.0032658428 -0.034291327 0.66591519
-0.0032658428 -0.035924256 0.66591513
-0.0032658428 -0.037557185 0.66591513
-0.0032658428 -0.039190114 0.66591513
-0.0032658428 -0.040823042 0.66591519
-0.0032658428 -0.042455971 0.66591513
-0.0032658428 -0.0440889 0.66591519
-0.0032658428 -0.045721829 0.66591519
-0.0032658428 -0.047354698 0.66591513
-0.0032658428 -0.048987627 0.66591513
-0.0032658428 -0.050620556 0.66591513
-0.0032658428 -0.052253485 0.66591519
-0.0032658428 -0.053886414 0.66591519
-0.0032658428 -0.055519313 0.66591513
-0.0032658428 -0.057152241 0.66591519
-0.0032658428 -0.058785141 0.66591513
-0.0032658428 -0.060418099 0.66591513
-0.0032658428 -0.062050998 0.66591519
-0.0032658428 -0.063683927 0.66591519
-0.0032658428 -0.065316856 0.66591519
-0.0016247247 0.068238437 0.66492575
-0.0016247247 0.066613704 0.66492569
-0.0016247247 0.064989001 0.66492575
-0.0016247247 0.063364267 0.66492569
-0.0016247247 0.061739534 0.66492569
-0.0016247247 0.060114801 0.66492581
-0.0016247247 0.058490098 0.66492569
-0.0016247247 0.056865335 0.66492575
-0.0016247247 0.055240631 0.66492581
-0.0016247247 0.053615898 0.66492575
-0.0016247247 0.051991194 0.66492569
-0.0016247247 0.050366461 0.66492575
-0.001624719 0.048741579 0.66492504
-0.001624719 0.047116876 0.6649251
-0.001624719 0.045492142 0.66492504
-0.001624719 0.043867409 0.66492504
-0.001624719 0.042242676 0.6649251
-0.001624719 0.040618002 0.6649251
-0.001624719 0.038993299 0.66492504
-0.001624719 0.037368536 0.66492504
-0.001624719 0.035743833 0.6649251
-0.001624719 0.034119129 0.6649251
-0.001624719 0.032494396 0.66492504
-0.001624719 0.030869663 0.66492504
-0.001624719 0.029244959 0.6649251
-0.001624719 0.027620226 0.66492504
-0.001624719 0.025995493 0.66492504
-0.001624719 0.02437079 0.66492504
-0.001624719 0.022746086 0.6649251
-0.001624719 0.021121353 0.66492504
-0.001624719 0.01949665 0.6649251
-0.001624719 0.017871916 0.66492504
-0.001624719 0.016247183 0.6649251
-0.001624719 0.01462248 0.66492504
-0.001624719 0.012997746 0.6649251
-0.001624719 0.011373043 0.66492504
-0.001624719 0.0097483397 0.6649251
-0.001624719 0.0081236064 0.66492504
-0.001624719 0.0064988732 0.6649251
-0.001624719 0.00487414 0.6649251
-0.001624719 0.0032494366 0.6649251
-0.001624719 0.0016247332 0.66492504
-0.001624719 -0 0.6649251
-0.001624719 -0.0016247034 0.6649251
-0.001624719 -0.0032494366 0.6649251
-0.001624719 -0.0048741102 0.66492504
-0.001624719 -0.0064988732 0.6649251
-0.001624719 -0.0081235766 0.6649251
-0.001624719 -0.0097483099 0.6649251
-0.001624719 -0.011373013 0.66492504
-0.001624719 -0.012997746 0.6649251
-0.001624719 -0.01462245 0.6649251
-0.001624719 -0.016247183 0.6649251
-0.001624719 -0.017871886 0.66492504
-0.001624719 -0.01949662 0.6649251
-0.001624719 -0.021121353 0.6649251
-0.001624719 -0.022746056 0.6649251
-0.001624719 -0.02437079 0.6649251
-0.001624719 -0.025995493 0.6649251
-0.001624719 -0.027620226 0.6649251
-0.001624719 -0.02924493 0.6649251
-0.001624719 -0.030869663 0.6649251
-0.001624719 -0.032494396 0.6649251
-0.001624719 -0.034119099 0.6649251
-0.001624719 -0.035743803 0.66492504
-0.001624719 -0.037368536 0.6649251
-0.001624719 -0.03899321 0.6649251
-0.001624719 -0.040617973 0.6649251
-0.001624719 -0.042242676 0.66492504
-0.001624719 -0.043867409 0.66492504
-0.001624719 -0.045492083 0.66492504
-0.001624719 -0.047116846 0.6649251
-0.001624719 -0.048741549 0.66492504
-0.001624719 -0.050366282 0.6649251
-0.001624719 -0.051990986 0.66492504
-0.001624719 -0.053615719 0.6649251
-0.001624719 -0.055240422 0.66492504
-0.001624719 -0.056865156 0.6649251
-0.001624719 -0.058489889 0.6649251
-0.001624719 -0.060114592 0.6649251
-0.001624719 -0.061739296 0.66492504
-0.001624719 -0.063364029 0.6649251
-0.001624719 -0.064988762 0.6649251
0 0.067897379 0.6639455
0 0.066280782 0.66394556
0 0.064664155 0.66394556
0 0.063047618 0.6639455
0 0.061430961 0.66394556
0 0.059814394 0.6639455
0 0.058197767 0.66394556
0 0.056581169 0.6639455
0 0.054964602 0.6639455
0 0.053347945 0.6639455
0 0.051731378 0.6639455
0 0.050114721 0.6639455
0 0.048498124 0.66394556
0 0.046881527 0.6639455
0 0.04526493 0.66394556
0 0.043648332 0.66394556
0 0.042031705 0.66394556
0 0.040415108 0.66394556
0 0.038798511 0.66394556
0 0.037181914 0.66394556
0 0.035565197 0.66394484
0 0.03394857 0.66394484
0 0.032332003 0.66394484
0 0.030715376 0.66394484
0 0.029098779 0.66394484
0 0.027482182 0.6639449
0 0.025865585 0.6639449
0 0.024249017 0.66394484
0 0.02263239 0.66394484
0 0.021015763 0.66394484
0 0.019399196 0.66394484
0 0.017782599 0.66394484
0 0.016166002 0.66394484
0 0.014549404 0.6639449
0 0.012932807 0.66394484
0 0.01131618 0.6639449
0 0.0096996129 0.66394484
0 0.0080830157 0.66394484
0 0.0064664185 0.66394484
0 0.0048497915 0.66394484
0 0.0032332242 0.66394484
0 0.0016165972 0.66394484
0 -2.9802322e-08 0.66394484
0 -0.0016165972 0.66394484
0 -0.0032332242 0.6639449
0 -0.0048497617 0.66394484
0 -0.0064663887 0.6639449
0 -0.0080829859 0.66394484
0 -0.0096995831 0.66394484
0 -0.01131618 0.66394484
0 -0.012932777 0.66394484
0 -0.014549375 0.66394484
0 -0.016166002 0.66394484
0 -0.017782599 0.66394484
0 -0.019399196 0.6639449
0 -0.021015793 0.6639449
0 -0.02263236 0.66394484
0 -0.024248958 0.66394484
0 -0.025865585 0.66394484
0 -0.027482182 0.66394484
0 -0.029098779 0.66394484
0 -0.030715376 0.66394484
0 -0.032331973 0.6639449
0 -0.03394857 0.66394484
0 -0.035565197 0.6639449
0 -0.037181735 0.66394484
0 -0.038798362 0.66394484
0 -0.040414959 0.66394484
0 -0.042031586 0.66394484
0 -0.043648154 0.66394484
0 -0.045264751 0.66394484
0 -0.046881378 0.66394484
0 -0.048497945 0.66394484
0 -0.050114572 0.66394484
0 -0.05173111 0.66394484
0 -0.053347737 0.66394484
0 -0.054964364 0.66394484
0 -0.056580961 0.66394484
0 -0.058197558 0.6639449
0 -0.059814155 0.66394484
0 -0.061430752 0.66394484
0 -0.06304732 0.66394484
0 -0.064663947 0.66394484
0 -0.066280544 0.66394484
0.0016085648 0.067559719 0.66297507
0.0016085648 0.065951169 0.66297507
0.0016085648 0.064342588 0.66297507
0.0016085648 0.062734038 0.66297507
0.0016085648 0.061125457 0.66297507
0.0016085648 0.059516907 0.66297507
0.0016085648 0.057908356 0.66297507
0.0016085648 0.056299776 0.66297507
0.0016085648 0.054691225 0.66297507
0.0016085648 0.053082645 0.66297501
0.0016085648 0.051474065 0.66297501
0.0016085648 0.049865544 0.66297507
0.0016085648 0.048256963 0.66297507
0.0016085648 0.046648383 0.66297507
0.0016085648 0.045039833 0.66297507
0.0016085648 0.043431282 0.66297507
0.0016085648 0.041822702 0.66297507
0.0016085648 0.040214121 0.66297501
0.0016085648 0.038605571 0.66297501
0.0016085648 0.03699702 0.66297501
0.0016085648 0.03538844 0.66297501
0.0016085648 0.033779889 0.66297501
0.0016085648 0.032171309 0.66297507
0.0016085648 0.030562729 0.66297507
0.0016085648 0.028954148 0.66297507
0.0016085648 0.027345628 0.66297507
0.0016085648 0.025737047 0.66297507
0.0016085648 0.024128437 0.66297507
0.0016085593 0.022519857 0.66297436
0.0016085593 0.020911306 0.66297436
0.0016085593 0.019302696 0.66297436
0.0016085593 0.017694145 0.66297436
0.0016085593 0.016085595 0.66297436
0.0016085593 0.014477015 0.66297436
0.0016085593 0.012868464 0.66297436
0.0016085593 0.011259913 0.66297442
0.0016085593 0.0096513629 0.66297442
0.0016085593 0.0080428123 0.66297442
0.0016085593 0.006434232 0.66297442
0.0016085593 0.0048256814 0.66297442
0.0016085593 0.0032171309 0.66297442
0.0016085593 0.0016085505 0.66297442
0.0016085593 -0 0.66297442
0.0016085593 -0.0016085505 0.66297442
0.0016085593 -0.0032171309 0.66297442
0.0016085593 -0.0048256814 0.66297442
0.0016085593 -0.006434232 0.66297442
0.0016085593 -0.0080427825 0.66297442
0.0016085593 -0.0096513331 0.66297442
0.0016085593 -0.011259913 0.66297436
0.0016085593 -0.012868464 0.66297442
0.0016085593 -0.014477044 0.66297442
0.0016085593 -0.016085625 0.66297442
0.0016085593 -0.017694175 0.66297442
0.0016085593 -0.019302726 0.66297442
0.0016085593 -0.020911276 0.66297442
0.0016085593 -0.022519827 0.66297442
0.0016085593 -0.024128377 0.66297442
0.0016085593 -0.025736958 0.66297442
0.0016085593 -0.027345479 0.66297436
0.0016085593 -0.028954089 0.66297442
0.0016085593 -0.030562639 0.66297442
0.0016085593 -0.03217116 0.66297436
0.0016085593 -0.03377977 0.66297442
0.0016085593 -0.035388261 0.66297436
0.0016085593 -0.036996871 0.66297448
0.0016085593 -0.038605452 0.66297442
0.0016085593 -0.040213972 0.66297436
0.0016085593 -0.041822553 0.66297442
0.0016085593 -0.043431073 0.66297436
0.0016085593 -0.045039624 0.66297436
0.0016085593 -0.046648264 0.66297442
0.0016085593 -0.048256785 0.66297436
0.0016085593 -0.049865335 0.66297436
0.0016085593 -0.051473886 0.66297436
0.0016085593 -0.053082436 0.66297436
0.0016085593 -0.054690987 0.66297436
0.0016085593 -0.056299567 0.66297436
0.0016085593 -0.057908118 0.66297436
0.0016085593 -0.059516698 0.66297436
0.0016085593 -0.061125249 0.66297436
0.0016085593 -0.062733829 0.66297436
0.0016085593 -0.064342365 0.66297442
0.0016085593 -0.065950915 0.66297442
0.0032012092 0.067225397 0.66201419
0.0032012092 0.065624803 0.66201425
0.0032012092 0.06402418 0.66201425
0.0032012092 0.062423617 0.66201419
0.0032012092 0.060822964 0.66201419
0.0032012092 0.0592224 0.66201419
0.0032012092 0.057621777 0.66201419
0.0032012092 0.056021184 0.66201425
0.0032012092 0.054420561 0.66201413
0.0032012092 0.052819967 0.66201419
0.0032012092 0.051219374 0.66201419
0.0032012092 0.049618751 0.66201419
0.0032012092 0.048018157 0.66201425
0.0032012092 0.046417505 0.66201425
0.0032012092 0.044816911 0.66201425
0.0032012092 0.043216318 0.66201419
0.0032012092 0.041615725 0.66201419
0.0032012092 0.040015101 0.66201419
0.0032012092 0.038414508 0.66201419
0.0032012092 0.036813915 0.66201419
0.0032012092 0.035213321 0.66201419
0.0032012092 0.033612728 0.66201425
0.0032012092 0.032012135 0.66201425
0.0032012092 0.030411482 0.66201425
0.0032012092 0.028810829 0.66201425
0.0032012092 0.027210265 0.66201425
0.0032012092 0.025609672 0.66201419
0.0032012092 0.024009079 0.66201419
0.0032012092 0.022408456 0.66201425
0.0032012092 0.020807862 0.66201425
0.0032012092 0.019207269 0.66201419
0.0032012092 0.017606676 0.66201419
0.0032012092 0.016006052 0.66201419
0.0032012092 0.014405459 0.66201419
0.0032012092 0.012804806 0.66201419
0.0032012092 0.011204243 0.66201425
0.0032011985 0.0096036494 0.66201353
0.0032011985 0.0080030262 0.66201353
0.0032011985 0.0064024329 0.66201353
0.0032011985 0.00480178 0.66201353
0.0032011985 0.0032011867 0.66201353
0.0032011985 0.0016005933 0.66201353
0.0032011985 -0 0.66201353
0.0032011985 -0.0016005933 0.66201353
0.0032011985 -0.0032011867 0.66201353
0.0032011985 -0.00480178 0.66201353
0.0032011985 -0.0064024031 0.66201353
0.0032011985 -0.0080029964 0.66201353
0.0032011985 -0.0096035898 0.66201353
0.0032011985 -0.011204183 0.66201353
0.0032011985 -0.012804806 0.66201353
0.0032011985 -0.0144054 0.66201353
0.0032011985 -0.016006023 0.66201353
0.0032011985 -0.017606556 0.66201353
0.0032011985 -0.01920718 0.66201353
0.0032011985 -0.020807803 0.66201353
0.0032011985 -0.022408396 0.66201353
0.0032011985 -0.024009019 0.66201359
0.0032011985 -0.025609583 0.66201353
0.0032011985 -0.027210176 0.66201353
0.0032011985 -0.028810769 0.66201353
0.0032011985 -0.030411392 0.66201359
0.0032011985 -0.032011956 0.66201353
0.0032011985 -0.033612579 0.66201353
0.0032011985 -0.035213172 0.66201353
0.0032011985 -0.036813796 0.66201353
0.0032011985 -0.038414359 0.66201359
0.0032011985 -0.040014982 0.66201353
0.0032011985 -0.041615576 0.66201353
0.0032011985 -0.043216169 0.66201353
0.0032011985 -0.044816732 0.66201353
0.0032011985 -0.046417356 0.66201353
0.0032011985 -0.048017979 0.66201353
0.0032011985 -0.049618572 0.66201353
0.0032011985 -0.051219195 0.66201359
0.0032011985 -0.052819788 0.66201353
0.0032011985 -0.054420352 0.66201353
0.0032011985 -0.056020975 0.66201353
0.0032011985 -0.057621598 0.66201353
0.0032011985 -0.059222162 0.66201347
0.0032011985 -0.060822785 0.66201353
0.0032011985 -0.062423348 0.66201353
0.0032011985 -0.064023986 0.66201353
0.0032011985 -0.065624565 0.66201353
0.0047781691 0.068487108 0.66106284
0.0047781691 0.066894352 0.66106278
0.0047781691 0.065301657 0.66106278
0.0047781691 0.063708931 0.66106278
0.0047781691 0.062116206 0.66106278
0.0047781691 0.06052348 0.66106284
0.0047781691 0.058930755 0.66106278
0.0047781691 0.057337999 0.66106284
0.0047781691 0.055745304 0.66106284
0.0047781691 0.054152578 0.66106278
0.0047781691 0.052559882 0.66106278
0.0047781691 0.050967127 0.66106284
0.0047781691 0.049374402 0.66106278
0.0047781691 0.047781706 0.66106278
0.0047781691 0.046188951 0.66106284
0.0047781691 0.044596255 0.66106284
0.0047781691 0.043003529 0.66106284
0.0047781691 0.041410834 0.66106278
0.0047781691 0.039818078 0.66106284
0.0047781691 0.038225383 0.66106284
0.0047781691 0.036632627 0.66106284
0.0047781691 0.035039902 0.66106278
0.0047781691 0.033447206 0.66106278
0.0047781691 0.031854481 0.66106278
0.0047781691 0.030261785 0.66106278
0.0047781691 0.028669029 0.66106284
0.0047781691 0.027076304 0.66106284
0.0047781691 0.025483578 0.66106284
0.0047781691 0.023890853 0.66106284
0.0047781691 0.022298127 0.66106278
0.0047781691 0.020705432 0.66106278
0.0047781691 0.019112647 0.66106278
0.0047781691 0.017519981 0.66106284
0.0047781691 0.015927196 0.66106284
0.0047781691 0.01433447 0.66106284
0.0047781691 0.012741804 0.66106284
0.0047781691 0.011149049 0.66106278
0.0047781691 0.0095563531 0.66106278
0.0047781691 0.0079635978 0.66106284
0.0047781691 0.0063708723 0.66106278
0.0047781691 0.0047781765 0.66106284
0.0047781691 0.003185451 0.66106284
0.0047781691 0.0015927553 0.66106278
0.0047781691 2.9802322e-08 0.66106278
0.0047781691 -0.0015926957 0.66106278
0.0047781691 -0.0031854212 0.66106284
0.0047781691 -0.0047781467 0.66106278
0.0047781691 -0.0063709021 0.66106284
0.0047781691 -0.0079636276 0.66106284
0.0047781691 -0.0095563233 0.66106278
0.0047781691 -0.011149049 0.66106278
0.0047781691 -0.012741804 0.66106278
0.0047781691 -0.0143345 0.66106278
0.0047781533 -0.015927166 0.66106218
0.0047781533 -0.017519861 0.66106218
0.0047781533 -0.019112587 0.66106218
0.0047781533 -0.020705283 0.66106212
0.0047781533 -0.022298068 0.66106218
0.0047781533 -0.023890734 0.66106218
0.0047781533 -0.025483489 0.66106212
0.0047781533 -0.027076185 0.66106212
0.0047781533 -0.02866891 0.66106218
0.0047781533 -0.030261636 0.66106212
0.0047781533 -0.031854331 0.66106212
0.0047781533 -0.033447057 0.66106212
0.0047781533 -0.035039783 0.66106218
0.0047781533 -0.036632508 0.66106212
0.0047781533 -0.038225234 0.66106212
0.0047781533 -0.039817929 0.66106212
0.0047781533 -0.041410685 0.66106218
0.0047781533 -0.04300338 0.66106218
0.0047781533 -0.044596106 0.66106212
0.0047781533 -0.046188772 0.66106212
0.0047781533 -0.047781497 0.66106212
0.0047781533 -0.049374223 0.66106218
0.0047781533 -0.050966948 0.66106212
0.0047781533 -0.052559644 0.66106212
0.0047781533 -0.054152399 0.66106218
0.0047781533 -0.055745125 0.66106218
0.0047781533 -0.057337821 0.66106212
0.0047781533 -0.058930516 0.66106212
0.0047781533 -0.060523242 0.66106212
0.0047781533 -0.062115967 0.66106212
0.0047781533 -0.063708693 0.66106212
0.0047781533 -0.065301448 0.66106218
0.0063396743 0.068151504 0.66012073
0.0063396743 0.066566586 0.66012073
0.0063396743 0.064981639 0.66012073
0.0063396743 0.063396722 0.66012073
0.0063396743 0.061811864 0.66012073
0.0063396743 0.060226917 0.66012073
0.0063396743 0.058642 0.66012073
0.0063396743 0.057057053 0.66012073
0.0063396743 0.055472165 0.66012073
0.0063396743 0.053887248 0.66012073
0.0063396743 0.052302331 0.66012073
0.0063396743 0.050717413 0.66012073
0.0063396743 0.049132466 0.66012073
0.0063396743 0.047547549 0.66012073
0.0063396743 0.045962662 0.66012073
0.0063396743 0.044377714 0.66012067
0.0063396743 0.042792827 0.66012073
0.0063396743 0.04120791 0.66012073
0.0063396743 0.039622962 0.66012073
0.0063396743 0.038038075 0.66012067
0.0063396743 0.036453128 0.66012073
0.0063396743 0.03486824 0.66012073
0.0063396743 0.033283293 0.66012073
0.0063396743 0.031698376 0.66012073
0.0063396743 0.030113429 0.66012073
0.0063396743 0.028528541 0.66012073
0.0063396743 0.026943654 0.66012073
0.0063396743 0.025358707 0.66012073
0.0063396743 0.023773789 0.66012073
0.0063396743 0.022188872 0.66012073
0.0063396743 0.020603955 0.66012067
0.0063396743 0.019019037 0.66012073
0.0063396743 0.01743412 0.66012073
0.0063396743 0.015849203 0.66012073
0.0063396743 0.014264286 0.66012073
0.0063396743 0.012679368 0.66012073
0.0063396743 0.011094421 0.66012073
0.0063396743 0.0095095038 0.66012073
0.0063396743 0.0079246163 0.66012073
0.0063396743 0.0063396692 0.66012073
0.0063396743 0.0047547519 0.66012073
0.0063396743 0.0031698644 0.66012073
0.0063396743 0.0015849173 0.66012073
0.0063396743 -0 0.66012073
0.0063396743 -0.0015849173 0.66012073
0.0063396743 -0.0031698048 0.66012073
0.0063396743 -0.0047547817 0.66012073
0.0063396743 -0.0063396394 0.66012073
0.0063396743 -0.0079246163 0.66012073
0.0063396743 -0.0095095038 0.66012073
0.0063396743 -0.011094421 0.66012073
0.0063396743 -0.012679368 0.66012073
0.0063396743 -0.014264286 0.66012073
0.0063396743 -0.015849173 0.66012073
0.0063396743 -0.01743412 0.66012073
0.0063396743 -0.019019008 0.66012073
0.0063396743 -0.020603925 0.66012073
0.0063396743 -0.022188842 0.66012073
0.0063396743 -0.023773819 0.66012073
0.0063396743 -0.025358677 0.66012073
0.0063396743 -0.026943594 0.66012073
0.0063396743 -0.028528541 0.66012073
0.0063396743 -0.030113429 0.66012073
0.0063396743 -0.031698406 0.66012073
0.0063396743 -0.033283293 0.66012073
0.0063396743 -0.034868211 0.66012073
0.0063396743 -0.036453128 0.66012073
0.0063396743 -0.038038045 0.66012073
0.0063396743 -0.039622962 0.66012073
0.0063396743 -0.04120788 0.66012073
0.0063396743 -0.042792827 0.66012073
0.0063396743 -0.044377685 0.66012073
0.0063396743 -0.045962632 0.66012073
0.0063396743 -0.047547549 0.66012073
0.0063396743 -0.049132466 0.66012073
0.0063396743 -0.050717413 0.66012067
0.0063396743 -0.052302331 0.66012073
0.0063396743 -0.053887188 0.66012073
0.0063396743 -0.055472136 0.66012073
0.0063396743 -0.057057053 0.66012073
0.0063396743 -0.058642 0.66012073
0.0063396743 -0.060226887 0.66012073
0.0063396743 -0.061811864 0.66012073
0.0063396743 -0.063396737 0.66012073
0.0063396743 -0.064981669 0.66012079
0.0078859515 0.067819208 0.65918785
