# .PCD v0.7 - Point Cloud Data file format
VERSION 0.7
FIELDS x y z
SIZE 4 4 4
TYPE F F F
COUNT 1 1 1
WIDTH 1351
HEIGHT 1
VIEWPOINT 0 0 0 1 0 0 0
POINTS 1351
DATA ascii
0.031967152 0.035727978 0.69579101
0.031038847 0.03286463 0.68919945
0.030162936 0.030162901 0.68297994
0.029335214 0.027609587 0.67710257
0.0285515 0.025192529 0.6715377
0.027808672 0.022901237 0.66626316
0.027103513 0.020726234 0.66125613
0.026433233 0.018658757 0.65649664
0.025795307 0.016691059 0.65196705
0.025187442 0.014816105 0.64765084
0.024607571 0.013027519 0.64353335
0.024053797 0.011319458 0.63960123
0.023524398 0.0096865296 0.63584208
0.023120746 0.0081602931 0.63297594
0.023204025 0.006824702 0.63356721
0.023287836 0.0054794848 0.63416243
0.023372255 0.0041244924 0.63476181
0.023457358 0.0027596951 0.63536608
0.023543013 0.0013848841 0.63597429
0.023629297 2.9802322e-08 0.63658696
0.023716284 -0.0013950765 0.63720459
0.023803843 -0.0028004646 0.63782632
0.023892052 -0.004216224 0.63845271
0.023980986 -0.0056426227 0.63908422
0.024070518 -0.0070795715 0.6397199
0.024160789 -0.0085273385 0.64036095
0.02425167 -0.0099859834 0.64100623
0.024343234 -0.011455625 0.6416564
0.024435567 -0.012936473 0.64231199
0.024528529 -0.014428526 0.64297211
0.024622202 -0.015932024 0.64363724
0.024716668 -0.017447054 0.64430803
0.024811786 -0.018973708 0.64498335
0.024907714 -0.020512253 0.64566457
0.025004311 -0.022062629 0.64635044
0.025101662 -0.023625076 0.64704168
0.025199847 -0.02519986 0.64773887
0.02529873 -0.026786864 0.64844096
0.025398387 -0.028386444 0.64914864
0.025498915 -0.02999872 0.64986247
0.025600161 -0.031623721 0.6505813
0.025702214 -0.033261687 0.65130603
0.025805166 -0.034912854 0.65203696
0.025908865 -0.036577225 0.65277332
0.026013397 -0.038254976 0.65351558
0.026118863 -0.039946496 0.65426445
0.026225101 -0.041651636 0.65501881
0.026332207 -0.043370664 0.65577936
0.026440281 -0.045103997 0.65654671
0.026549155 -0.046851456 0.65731978
0.026658932 -0.04861334 0.65809929
0.026769709 -0.050390035 0.6588859
0.026881319 -0.052181393 0.6596784
0.026993863 -0.053987712 0.66047752
0.027107447 -0.055809438 0.66128403
0.027221896 -0.057646334 0.66209668
0.02733732 -0.059498876 0.66291624
0.042865276 0.0619165 0.75626504
0.041300967 0.057362437 0.74577451
0.039846811 0.053129107 0.73602283
0.038491573 0.049183697 0.72693431
0.037225489 0.045497805 0.71844381
0.036040042 0.042046726 0.71049404
0.034927905 0.038808793 0.70303583
0.033882223 0.035764575 0.69602334
0.032897327 0.032897323 0.68941849
0.031968076 0.030192077 0.68318677
0.031089876 0.027635455 0.67729747
0.030258641 0.025215536 0.67172307
0.029470695 0.022921681 0.666439
0.028722743 0.020744234 0.66142309
0.028011816 0.018674523 0.65665555
0.027335146 0.016704857 0.65211773
0.026690479 0.014828026 0.64779449
0.026075521 0.013037741 0.6436705
0.025488263 0.011328131 0.63973218
0.024926873 0.0096938014 0.63596743
0.024496654 0.0081655383 0.63308233
0.024584873 0.0068291426 0.63367397
0.024673801 0.0054830611 0.63427031
0.024763305 0.0041272342 0.63487053
0.024853459 0.0027614832 0.6354751
0.024944343 0.001385808 0.63608462
0.025035821 -0 0.63669807
0.02512805 -0.0013960004 0.63731658
0.025220884 -0.0028023124 0.63793916
0.025314404 -0.004219085 0.63856626
0.0254087 -0.0056463778 0.63919866
0.025503624 -0.0070843399 0.63983524
0.025599256 -0.0085330606 0.64047658
0.025695691 -0.0099927783 0.64112324
0.025792776 -0.011463434 0.6417743
0.025890594 -0.012945294 0.64243031
0.025989238 -0.014438421 0.6430918
0.026088556 -0.015943021 0.64375782
0.02618872 -0.017459124 0.64442956
0.026289571 -0.018986911 0.6451059
0.026391203 -0.020526528 0.64578748
0.026493706 -0.022078097 0.64647484
0.026596926 -0.023641735 0.64716709
0.026700955 -0.025217593 0.6478647
0.026805881 -0.026805848 0.64856833
0.026911555 -0.02840662 0.64927697
0.027018061 -0.030020028 0.64999127
0.0271255 -0.031646401 0.65071177
0.027233714 -0.033285648 0.65143746
0.02734288 -0.034938127 0.65216953
0.027452836 -0.036603779 0.65290695
0.027563678 -0.038282871 0.65365022
0.027675511 -0.039975762 0.65440023
0.027788166 -0.041682243 0.65515572
0.027901739 -0.043402702 0.65591735
0.028016247 -0.045137286 0.65668523
0.028131789 -0.046886355 0.65746009
0.028248196 -0.048649639 0.65824074
0.028365569 -0.050427705 0.65902781
0.028484017 -0.052220702 0.65982217
0.028603364 -0.054028541 0.66062254
0.028723713 -0.055851638 0.66142964
0.028845178 -0.057690322 0.6622442
0.028967576 -0.059544474 0.66306502
0.045305353 0.061996788 0.75663781
0.043649934 0.057434112 0.74612063
0.042111222 0.053193122 0.73634481
0.040677302 0.049240947 0.72723484
0.039337814 0.045549065 0.71872485
0.038083736 0.042092592 0.71075749
0.036907144 0.038849652 0.7032823
0.035801075 0.035801083 0.69625527
0.034759372 0.032929957 0.68963706
0.033776574 0.030221164 0.68339324
0.032847825 0.027661353 0.67749274
0.031968787 0.025238544 0.67190802
0.03113557 0.022942007 0.66661441
0.03034468 0.020762175 0.66158974
0.029592978 0.018690318 0.6568141
0.028877614 0.016718626 0.65226918
0.028196022 0.014839977 0.64793891
0.027545866 0.013048083 0.64380831
0.026925011 0.011336863 0.63986391
0.026331453 0.0097010732 0.6360929
0.025874345 0.0081708431 0.63318884
0.025967587 0.0068335533 0.63378125
0.026061501 0.0054866374 0.63437796
0.026156176 0.0041299462 0.63497937
0.026251461 0.0027633011 0.63558471
0.026347524 0.0013867021 0.63619506
0.026444213 -0 0.63680935
0.026541615 -0.0013968945 0.63742816
0.026639815 -0.0028041899 0.63805205
0.026738666 -0.0042218864 0.63868004
0.026838252 -0.0056501627 0.63931274
0.026938666 -0.0070891082 0.63995063
0.02703975 -0.0085388422 0.64059287
0.027141593 -0.0099995136 0.64123994
0.027244296 -0.011471272 0.64189237
0.027347689 -0.012954175 0.64254934
0.027451957 -0.014448375 0.64321172
0.027556939 -0.015954018 0.6438787
0.027662726 -0.017471224 0.6445508
0.027769415 -0.019000083 0.64522856
0.027876843 -0.020540804 0.6459111
0.027985103 -0.022093534 0.64659894
0.028094299 -0.023658395 0.64729261
0.02820426 -0.025235385 0.64799124
0.028315086 -0.026824802 0.64869529
0.028426874 -0.028426856 0.6494056
0.02853946 -0.030041516 0.65012085
0.028653035 -0.03166911 0.65084237
0.02876742 -0.033309639 0.65156913
0.028882723 -0.03496331 0.65230167
0.028999051 -0.036630392 0.65304071
0.029116224 -0.038310826 0.65378511
0.029234348 -0.040004879 0.65453559
0.029353529 -0.04171291 0.65529281
0.02947359 -0.043434769 0.65605557
0.029594636 -0.045170754 0.65682459
0.029716779 -0.046921223 0.65760052
0.029839834 -0.048686028 0.65838236
0.029963916 -0.050465554 0.65917069
0.030089134 -0.052260071 0.65996617
0.030215301 -0.054069459 0.66076773
0.030342527 -0.055894107 0.66157609
0.030470937 -0.0577344 0.6623919
0.030600332 -0.059590131 0.66321397
0.047751531 0.062076986 0.7570101
0.046004552 0.057505697 0.74646616
0.044380888 0.053257048 0.73666644
0.042867929 0.049298137 0.72753495
0.041454721 0.045600206 0.71900547
0.040131718 0.042138338 0.71102047
0.038890548 0.03889057 0.7035293
0.037723999 0.035837829 0.69648856
0.036625251 0.03296271 0.68985707
0.035588697 0.03025043 0.6836009
0.034609202 0.027687341 0.67768914
0.033682175 0.025261641 0.67209405
0.032803517 0.022962481 0.66679084
0.031969536 0.020780206 0.66175735
0.031176807 0.018706083 0.65697277
0.030422539 0.016732395 0.6524204
0.029703904 0.014851987 0.64808303
0.029018437 0.013058305 0.64394587
0.028363893 0.011345536 0.63999534
0.027738225 0.0097083747 0.63621914
0.027253747 0.0081761479 0.633295
0.0273521 0.0068379939 0.63388866
0.027451087 0.0054902434 0.63448608
0.027550876 0.0041325986 0.63508838
0.02765131 0.0027651489 0.6356945
0.027752478 0.0013876259 0.63630515
0.027854472 -0 0.63692075
0.027957138 -0.0013978481 0.63754034
0.028060559 -0.0028060675 0.63816464
0.028164836 -0.0042247176 0.63879389
0.028269805 -0.0056539476 0.63942748
0.028375559 -0.0070938468 0.64006573
0.028482193 -0.0085446239 0.6407094
0.028589545 -0.010006338 0.6413573
0.028697798 -0.01147911 0.64201063
0.028806783 -0.012963057 0.64266843
0.028916601 -0.014458299 0.64333123
0.02902735 -0.015965044 0.6439997
0.029138857 -0.017483324 0.64467269
0.029251229 -0.019013256 0.64535093
0.029364558 -0.020555168 0.6460349
0.029478678 -0.022109002 0.64672369
0.029593781 -0.023675025 0.64741838
0.029709695 -0.025253236 0.64811802
0.029826518 -0.026843876 0.64882308
0.02994436 -0.028447151 0.64953434
0.030063037 -0.030063033 0.65025061
0.030182661 -0.03169179 0.6509726
0.03030334 -0.033333689 0.65170097
0.030424889 -0.034988612 0.65243453
0.030547418 -0.036656916 0.65317404
0.030671034 -0.03833881 0.65392017
0.030795557 -0.040034205 0.65467173
0.030921094 -0.041743487 0.65542948
0.031047761 -0.043466896 0.65619391
0.031175369 -0.045204282 0.65696418
0.031304028 -0.046956062 0.65774065
0.031433858 -0.048722476 0.65852422
0.031564664 -0.050503463 0.65931368
0.031696565 -0.052299351 0.66010988
0.031829678 -0.054110467 0.66091317
0.031963807 -0.055936664 0.66172278
0.032099072 -0.057778329 0.66253912
0.032235596 -0.059635848 0.6633631
0.050204042 0.062157393 0.75738335
0.048365053 0.057577401 0.74681264
0.046656244 0.053321391 0.73699009
0.045063853 0.049355656 0.72783697
0.04357658 0.045651644 0.71928787
0.042184338 0.042184323 0.71128511
0.040878307 0.038931698 0.70377785
0.039650712 0.035874426 0.69672149
0.038494702 0.032995492 0.69007659
0.037404191 0.030279577 0.68380815
0.036373761 0.027713329 0.67788512
0.03539858 0.025284708 0.67227972
0.034474328 0.022982895 0.66696697
0.033597108 0.020798206 0.6619246
0.032763425 0.018721968 0.65713251
0.031970114 0.016746283 0.65257239
0.031214312 0.014863968 0.64822799
0.03049342 0.013068616 0.64408422
0.029805074 0.011354327 0.64012742
0.029147036 0.0097156763 0.63634503
0.02863501 0.0081814528 0.63340181
0.028738419 0.0068424642 0.63399625
0.028842492 0.0054938197 0.63459444
0.02894732 0.0041353405 0.63519698
0.029053001 0.0027669072 0.63580447
0.029159367 0.0013885498 0.63641584
0.029266516 2.9802322e-08 0.63703179
0.029374544 -0.001398772 0.63765275
0.029483285 -0.002807945 0.63827777
0.029592833 -0.004227519 0.63890749
0.029703286 -0.0056577623 0.6395424
0.029814478 -0.0070986748 0.64018154
0.029926594 -0.0085504651 0.64082605
0.030039469 -0.010013133 0.64147478
0.030153196 -0.011486918 0.64212853
0.030267881 -0.012971938 0.64278775
0.030383347 -0.014468253 0.64345145
0.0304997 -0.015976042 0.64412028
0.03061704 -0.017495453 0.64479482
0.030735191 -0.019026577 0.64547396
0.030854356 -0.020569563 0.64615887
0.030974349 -0.022124499 0.64684862
0.031095279 -0.023691624 0.64754373
0.031217258 -0.025271088 0.64824492
0.031340096 -0.026862919 0.64895099
0.031463906 -0.028467327 0.64966261
0.031588797 -0.03008458 0.65038055
0.031714585 -0.031714618 0.65110362
0.031841379 -0.03335762 0.65183246
0.03196929 -0.035013974 0.65256768
0.032098129 -0.036683559 0.65330833
0.03222812 -0.038366824 0.65405548
0.03235906 -0.04006359 0.65480816
0.032491066 -0.041774243 0.65556693
0.032624159 -0.043498874 0.65633196
0.032758452 -0.045237869 0.65710384
0.032893743 -0.04699105 0.6578815
0.03303016 -0.048758805 0.65866566
0.033167824 -0.050541431 0.65945697
0.033306524 -0.052338839 0.6602543
0.033446394 -0.054151297 0.66105819
0.033587556 -0.055979282 0.6618697
0.033729799 -0.057822526 0.6626873
0.033873256 -0.059681475 0.66351199
0.052663185 0.062238336 0.75775909
0.050731692 0.057649642 0.74716127
0.048936866 0.053385675 0.73731333
0.047264695 0.049413115 0.72813845
0.045703031 0.045703053 0.71956974
0.044241261 0.042230278 0.71154922
0.042870101 0.038972855 0.70402586
0.041581374 0.035911202 0.69695485
0.040368028 0.033028364 0.69029737
0.039223336 0.030308932 0.68401664
0.038141772 0.027739495 0.67808229
0.037118256 0.025307924 0.6724664
0.036148235 0.023003429 0.66714406
0.035227623 0.020816326 0.66209275
0.034352623 0.018737823 0.65729177
0.033520143 0.016760081 0.65272409
0.032727059 0.014875919 0.64837253
0.031970635 0.013078898 0.6442222
0.031248391 0.011363029 0.64025933
0.030558053 0.0097230375 0.63647151
0.030018073 0.0081867576 0.6335088
0.030126458 0.0068469048 0.63410348
0.030235715 0.0054974258 0.63470292
0.030345682 0.0041380823 0.6353063
0.030456539 0.002768755 0.6359145
0.030568119 0.0013894439 0.63652676
0.030680519 -0 0.63714349
0.03079384 -0.0013997257 0.63776523
0.030907912 -0.0028098226 0.63839114
0.031022828 -0.0042304099 0.63902169
0.0311387 -0.005661577 0.63965744
0.031255342 -0.0071035028 0.64029747
0.031372864 -0.0085562468 0.64094228
0.031491369 -0.010019988 0.6415925
0.031610675 -0.011494786 0.64224714
0.031730983 -0.012980878 0.64290726
0.031852115 -0.014478236 0.64357185
0.031974178 -0.015987098 0.64424163
0.032097276 -0.017507613 0.64491707
0.032221224 -0.01903981 0.6455971
0.032346137 -0.020583898 0.64628249
0.032472122 -0.022140056 0.64697379
0.032598991 -0.023708314 0.64766985
0.032726958 -0.025289029 0.64837205
0.032855827 -0.026882052 0.64907908
0.032985717 -0.028487653 0.64979172
0.033116747 -0.030106127 0.65051073
0.033248711 -0.031737387 0.65123481
0.03338173 -0.03338176 0.65196466
0.03351593 -0.035039365 0.65270096
0.033651102 -0.036710292 0.65344268
0.03378737 -0.038394719 0.6541903
0.033924855 -0.040093035 0.65494466
0.034063354 -0.041805059 0.65570462
0.034202989 -0.04353106 0.65647078
0.034343883 -0.045271486 0.65724385
0.034485832 -0.047026128 0.6580227
0.034628958 -0.048795342 0.65880793
0.034773391 -0.050579458 0.6596005
0.034918919 -0.052378386 0.66039896
0.03506567 -0.054192424 0.66120422
0.03521378 -0.056021929 0.66201681
0.035363026 -0.057866782 0.66283566
0.035513543 -0.059727311 0.66366154
0.055128455 0.06231913 0.75813425
0.053104017 0.057721764 0.74750942
0.051223233 0.053450346 0.73763853
0.049470894 0.049470901 0.72844172
0.047834482 0.045754761 0.7198534
0.046302866 0.042276531 0.71181506
0.044866286 0.039014161 0.70427543
0.043516167 0.035948157 0.69718957
0.04224493 0.033061296 0.69051778
0.041045859 0.030338228 0.68422472
0.039912976 0.027765542 0.67827904
0.03884095 0.02533111 0.67265266
0.037825003 0.023023903 0.66732073
0.036860853 0.020834386 0.66226053
0.035944629 0.018753737 0.65745199
0.035072852 0.016773969 0.65287662
0.034242358 0.014887989 0.64851791
0.033450283 0.01308924 0.64436096
0.032694027 0.011371821 0.64039183
0.031971116 0.0097303689 0.63659775
0.031402931 0.0081920624 0.63361585
0.031516392 0.0068514049 0.6342113
0.031630766 0.0055010021 0.63481158
0.031745877 0.0041407943 0.63541573
0.031861834 0.0027706027 0.63602424
0.031978734 0.0013904274 0.63663781
0.032096401 2.9802322e-08 0.63725537
0.032214936 -0.0014006495 0.63787746
0.032334443 -0.0028117001 0.63850468
0.032454748 -0.0042332113 0.63913608
0.03257595 -0.0056653619 0.63977218
0.032698158 -0.0071083009 0.64041352
0.032821186 -0.0085620284 0.64105922
0.032945246 -0.010026783 0.64171034
0.033070143 -0.011502683 0.64236587
0.033195999 -0.012989759 0.64302635
0.033322912 -0.01448822 0.64369243
0.033450693 -0.015998155 0.64436305
0.033579465 -0.017519712 0.6450389
0.033709332 -0.019053102 0.64572048
0.033840105 -0.020598292 0.64640677
0.033972003 -0.022155643 0.64709908
0.034104824 -0.023725092 0.64779615
0.034238689 -0.025306851 0.64849871
0.034373719 -0.026901156 0.64920741
0.034509707 -0.028508008 0.64992106
0.034646776 -0.030127615 0.65064049
0.034785047 -0.031760246 0.65136611
0.034924313 -0.03340587 0.65209705
0.035064705 -0.035064697 0.65283382
0.03520634 -0.036737025 0.65357721
0.035349008 -0.038422823 0.65432602
0.035492841 -0.04012233 0.65508085
0.03563796 -0.041835845 0.65584248
0.035784159 -0.043563306 0.65660977
0.035931557 -0.045304984 0.65738332
0.036080297 -0.047061265 0.65816402
0.036230154 -0.04883191 0.65895045
0.03638126 -0.050617367 0.65974355
0.036533754 -0.052417964 0.66054386
0.036687408 -0.054233551 0.66135037
0.036842361 -0.056064457 0.6621635
0.036998753 -0.057911068 0.66298431
0.037156351 -0.059773266 0.66381145
0.057600427 0.06240046 0.7585119
0.055482551 0.057794333 0.74785984
0.053514894 0.053514928 0.73796332
0.051682025 0.049528599 0.72874463
0.049970545 0.045806319 0.72013658
0.048368786 0.042322665 0.71208036
0.046866525 0.039055437 0.70452452
0.045454763 0.035985023 0.69742393
0.044125572 0.033094168 0.69073862
0.042871911 0.030367613 0.68443316
0.041687664 0.027791798 0.67847687
0.040566944 0.025354356 0.67284012
0.039504901 0.023044527 0.66749841
0.038497053 0.020852566 0.66242933
0.037539221 0.018769622 0.65761185
0.036628012 0.016787827 0.65302879
0.035759997 0.014899999 0.64866304
0.034932166 0.013099581 0.6444993
0.034141798 0.011380613 0.64052415
0.033386402 0.00973773 0.63672471
0.032789592 0.008197397 0.63372302
0.032908138 0.0068558455 0.63431931
0.033027545 0.0055045784 0.63491988
0.03314792 0.0041434765 0.63552529
0.033269074 0.0027724206 0.63613462
0.033391122 0.0013912916 0.63674849
0.033514164 -0 0.63736737
0.033638015 -0.0014015734 0.6379903
0.03376279 -0.0028135478 0.63861781
0.03388859 -0.0042360723 0.63925064
0.034015235 -0.0056692064 0.63988751
0.03414293 -0.0071131289 0.64052975
0.034271482 -0.0085678697 0.64117634
0.034401007 -0.010033637 0.64182782
0.034531619 -0.011510551 0.64248472
0.034663122 -0.01299867 0.64314616
0.034795631 -0.014498174 0.6438126
0.034929261 -0.016009212 0.64448476
0.035063818 -0.017531902 0.64516151
0.035199519 -0.019066364 0.64584398
0.03533617 -0.020612746 0.64653134
0.035473883 -0.02217114 0.64722395
0.035612788 -0.023741841 0.64792264
0.035752669 -0.025324792 0.64862609
0.035893656 -0.026920259 0.64933527
0.036035869 -0.028528392 0.65005058
0.036179103 -0.030149251 0.65077096
0.03632348 -0.031783074 0.65149713
0.036469128 -0.03343001 0.65222967
0.036615834 -0.035090148 0.65296751
0.036763843 -0.036763847 0.65371197
0.036912933 -0.038450986 0.65446186
0.037063237 -0.040151834 0.65521783
0.03721489 -0.041866779 0.65598059
0.037367672 -0.043595612 0.65674901
0.037521709 -0.04533875 0.65752375
0.037677146 -0.047096431 0.65830553
0.03783375 -0.048868597 0.6590932
0.037991665 -0.050655544 0.65988749
0.038150903 -0.052457482 0.66068828
0.038311608 -0.054274768 0.66149664
0.038473543 -0.056107253 0.66231108
0.038636856 -0.057955265 0.66313243
0.038801689 -0.059819281 0.66396153
0.060078558 0.062481731 0.75888908
0.057866797 0.057866782 0.74820977
0.055812098 0.053579658 0.73828876
0.05389832 0.049586475 0.72904825
0.052111428 0.045858055 0.72042036
0.050439436 0.042369097 0.71234727
0.048871193 0.039096981 0.70477509
0.047397532 0.036022156 0.69765967
0.04601014 0.033127308 0.69096076
0.044701662 0.030397147 0.68464285
0.043465555 0.027817965 0.67867434
0.042295963 0.025377572 0.6730271
0.041187666 0.02306512 0.66767573
0.040135968 0.020870715 0.66259772
0.039136648 0.018785596 0.6577726
0.038185876 0.016801804 0.65318185
0.037280206 0.014912069 0.6488089
0.036416501 0.013109952 0.64463854
0.0355918 0.011389345 0.64065653
0.03480373 0.0097450614 0.63685143
0.034177959 0.0082027316 0.63382989
0.034301706 0.0068603456 0.63442743
0.03442625 0.0055081844 0.63502872
0.034551702 0.0041461885 0.63563448
0.034678176 0.0027742684 0.63624513
0.034805473 0.0013922155 0.63685977
0.034933813 -0 0.63747948
0.035062999 -0.0014024973 0.63810325
0.035193145 -0.0028154254 0.63873166
0.035324365 -0.0042389333 0.6393652
0.03545646 -0.0056730211 0.64000309
0.03558955 -0.0071178973 0.64064562
0.03572375 -0.0085736811 0.64129364
0.035858855 -0.010040492 0.64194602
0.035994984 -0.011518359 0.64260328
0.036132265 -0.013007581 0.64326608
0.036270484 -0.014508188 0.64393353
0.036409877 -0.016020328 0.64460653
0.036550235 -0.017544091 0.64528424
0.036691677 -0.019079655 0.64596719
0.036834333 -0.020627201 0.64665598
0.036977984 -0.022186786 0.6473496
0.037122764 -0.023758531 0.64804864
0.037268799 -0.025342792 0.64875376
0.037415866 -0.026939422 0.64946389
0.037564103 -0.028548717 0.65017962
0.037713636 -0.030170918 0.65090168
0.037864245 -0.031805962 0.65162885
0.038016181 -0.033454239 0.65236253
0.03816922 -0.035115689 0.65310138
0.038323499 -0.03679055 0.65384632
0.038479149 -0.038479149 0.65459788
0.038635947 -0.040181398 0.65535498
0.038794026 -0.041897565 0.65611821
0.038953535 -0.043627948 0.65688837
0.039114229 -0.045372486 0.6576643
0.039276257 -0.047131479 0.65844667
0.03943976 -0.048905283 0.65923613
0.039604504 -0.05069375 0.66003156
0.039770626 -0.052497208 0.66083372
0.039938282 -0.054316044 0.66164327
0.04010722 -0.056150109 0.6624589
0.040277597 -0.05799976 0.66328156
0.040449563 -0.059865326 0.66411191
0.062563464 0.062563449 0.75926864
0.060257319 0.057939738 0.74856186
0.058115147 0.053644776 0.73861635
0.056120049 0.049644679 0.72935373
0.054257397 0.04591012 0.72070593
0.052514408 0.04241547 0.71261376
0.050879925 0.039138407 0.70502532
0.049344111 0.036059171 0.69789499
0.047898304 0.033160359 0.69118243
0.046534806 0.030426651 0.68485212
0.045246791 0.027844191 0.67887223
0.044028308 0.025400907 0.67321515
0.042873587 0.023085773 0.66785413
0.041777745 0.020888865 0.66276646
0.04073666 0.01880154 0.657933
0.039746199 0.016815722 0.6533345
0.038802758 0.014924169 0.64895439
0.03790307 0.013120294 0.64477742
0.037044153 0.011398226 0.64078969
0.036223304 0.0097524226 0.63697875
0.03556823 0.0082080662 0.63393736
0.035696991 0.006864816 0.63453513
0.035826791 0.0055117905 0.63513786
0.035957433 0.0041489303 0.63574433
0.036089137 0.0027760863 0.63635588
0.036221705 0.0013931394 0.63697129
0.036355246 -0 0.6375913
0.036489889 -0.001403451 0.63821644
0.036625419 -0.0028173029 0.63884562
0.036761962 -0.0042417645 0.63947958
0.036899637 -0.0056768656 0.64011872
0.037038237 -0.0071227252 0.64076221
0.037177879 -0.0085794926 0.64141059
0.037318695 -0.010047346 0.64206433
0.037460465 -0.011526316 0.64272255
0.03760343 -0.013016582 0.64338624
0.037747379 -0.014518231 0.64405459
0.037892431 -0.016031414 0.64472806
0.038038719 -0.01755631 0.6454072
0.038186025 -0.019093007 0.6460911
0.038334478 -0.020641625 0.64678025
0.038484205 -0.022202432 0.64747548
0.038634989 -0.023775369 0.64817548
0.038787082 -0.025360823 0.64888161
0.038940251 -0.026958644 0.64959276
0.039094634 -0.028569192 0.6503095
0.03925037 -0.030192584 0.65103257
0.039407231 -0.03182891 0.65176082
0.039565347 -0.033478349 0.65249491
0.039724868 -0.03514123 0.6532355
0.039885547 -0.036817402 0.65398145
0.040047534 -0.038507253 0.65473354
0.040210973 -0.040210962 0.65549231
0.04037562 -0.0419285 0.65625674
0.040541619 -0.043660164 0.65702748
0.040709123 -0.045406342 0.65780509
0.040877886 -0.047166795 0.65858865
0.041048046 -0.04894194 0.65937865
0.041219775 -0.050732017 0.66017592
0.041392799 -0.052536994 0.66097921
0.041567288 -0.054357201 0.6617893
0.041743394 -0.056192994 0.66260695
0.041920859 -0.058044255 0.66343081
0.042099833 -0.059911281 0.66426182
0.065054558 0.062645167 0.75964779
0.062653571 0.058012575 0.74891359
0.060423508 0.053709775 0.73894346
0.058346741 0.049702793 0.72965872
0.056407984 0.045962065 0.72099102
0.054593932 0.042461962 0.71288073
0.05289292 0.039179951 0.70527601
0.051294908 0.036096424 0.69813168
0.049790431 0.033193648 0.69140553
0.048371688 0.030456275 0.68506265
0.047031563 0.027870566 0.67907125
0.04576369 0.025424272 0.67340285
0.044562377 0.023106426 0.66803205
0.043422524 0.020907134 0.66293609
0.04233953 0.018817544 0.65809423
0.041309245 0.016829699 0.65348804
0.040327907 0.014936268 0.64910078
0.039391991 0.013130635 0.64491647
0.038498644 0.011406988 0.64092255
0.037644919 0.0097597837 0.63710576
0.036960315 0.0082134306 0.634045
0.037094202 0.0068693161 0.63464361
0.037229169 0.0055154264 0.63524699
0.037365016 0.0041516423 0.63585436
0.037501857 0.0027779043 0.63646615
0.037639812 0.0013940632 0.63708293
0.037778679 2.9802322e-08 0.63770372
0.037918571 -0.0014043748 0.63832915
0.038059618 -0.0028192401 0.63895977
0.0382016 -0.0042446554 0.63959455
0.038344651 -0.0056806803 0.64023411
0.038488891 -0.007127583 0.64087898
0.038634099 -0.0085853338 0.64152813
0.038780533 -0.010054231 0.64218283
0.038927957 -0.011534214 0.64284194
0.039076507 -0.013025492 0.64350605
0.039226316 -0.014528245 0.64417577
0.039377157 -0.016042531 0.64485019
0.039529163 -0.017568499 0.64552975
0.03968247 -0.019106388 0.6462152
0.039836846 -0.020656168 0.64690536
0.039992552 -0.022218078 0.64760143
0.040149357 -0.023792237 0.6483025
0.040307395 -0.025378704 0.64900899
0.040466808 -0.026977897 0.64972174
0.04062736 -0.028589606 0.6504395
0.040789191 -0.03021422 0.65116304
0.040952448 -0.031851918 0.65189296
0.041116882 -0.033502638 0.65262806
0.041282646 -0.035166681 0.65336919
0.041449882 -0.036844313 0.65411687
0.041618347 -0.038535476 0.65486997
0.041788183 -0.040240467 0.65562928
0.041959554 -0.041959524 0.65639544
0.042132191 -0.043692648 0.65716732
0.042306259 -0.045440078 0.65794551
0.04248191 -0.04720211 0.6587308
0.042658888 -0.048978716 0.659522
0.04283734 -0.050770193 0.66031981
0.043017443 -0.05257684 0.661125
0.043198913 -0.054398626 0.6619364
0.043381929 -0.05623582 0.66275454
0.043566644 -0.058088869 0.66358042
0.043752789 -0.059957534 0.66441262
0.067552157 0.062727034 0.76002789
0.065056175 0.058085859 0.74926758
0.06273777 0.053775191 0.73927265
0.060578924 0.049761295 0.72996569
0.058563709 0.046014309 0.72127789
0.056678254 0.042508692 0.71314949
0.054910418 0.039221734 0.7055282
0.053249523 0.036133617 0.69836789
0.051686153 0.033226818 0.6916281
0.050211966 0.030485868 0.68527269
0.048819542 0.027896881 0.67926985
0.047502261 0.025447637 0.6735909
0.046254195 0.023127109 0.66821039
0.045070037 0.020925403 0.66310531
0.043944992 0.018833548 0.65825522
0.04287475 0.016843647 0.65364128
0.041855399 0.014948368 0.64924675
0.040883388 0.013141066 0.64505631
0.039955504 0.011415869 0.64105612
0.039068803 0.0097672045 0.6372335
0.038354214 0.0082187653 0.63415283
0.038493238 0.0068737864 0.63475215
0.038633276 0.0055190325 0.63535583
0.038774453 0.0041544139 0.63596451
0.038916551 0.002779752 0.63657707
0.039059691 0.0013949871 0.63719416
0.039204005 2.9802322e-08 0.63781631
0.039349273 -0.0014052987 0.63844258
0.039495621 -0.0028210878 0.63907349
0.039643183 -0.0042474866 0.63970971
0.039791729 -0.0056845248 0.64035004
0.039941516 -0.007132411 0.6409958
0.040092308 -0.0085911751 0.64164591
0.040244248 -0.010061085 0.64230096
0.040397465 -0.011542141 0.64296144
0.04055173 -0.013034493 0.64362651
0.040707175 -0.014538288 0.64429665
0.040863946 -0.016053706 0.64497244
0.041021802 -0.017580777 0.64565307
0.041181009 -0.01911974 0.64633936
0.041341327 -0.020670652 0.64703059
0.041502897 -0.022233695 0.64772707
0.041665871 -0.023809075 0.64842963
0.041829992 -0.025396794 0.6491372
0.041995414 -0.02699706 0.64985037
0.042162284 -0.02861011 0.65056974
0.042330351 -0.030235946 0.65129429
0.042499758 -0.031874865 0.65202469
0.042670671 -0.033526957 0.65276146
0.042842824 -0.035192311 0.65350366
0.043016508 -0.036871314 0.65425241
0.043191466 -0.038563818 0.65500665
0.043367855 -0.04027012 0.65576708
0.043545831 -0.041990638 0.65653437
0.043725129 -0.043725133 0.65730733
0.043905914 -0.045473963 0.65808672
0.044088345 -0.047237486 0.6588732
0.044272151 -0.049015552 0.65966558
0.044457491 -0.050808549 0.66046458
0.044644546 -0.052616805 0.66127098
0.044833031 -0.054440111 0.66208357
0.045023106 -0.056278884 0.66290307
0.045214809 -0.058133274 0.66372943
0.045408297 -0.060003817 0.66456366
0.070056655 0.062809408 0.76041055
0.067464523 0.058159113 0.74962097
0.065057375 0.053840607 0.73960131
0.062816083 0.049819678 0.73027205
0.060724076 0.046066523 0.72156429
0.058766924 0.042555362 0.71341771
0.056931987 0.039263487 0.70577997
0.055208169 0.0361709 0.69860464
0.053585887 0.033260196 0.69185197
0.052056022 0.030515611 0.68548405
0.050611086 0.027923405 0.67946959
0.049244203 0.025471121 0.67378002
0.047949206 0.023147911 0.66838968
0.046720576 0.020943731 0.6632756
0.045553338 0.018849641 0.65841705
0.044443004 0.016857713 0.6537953
0.043385506 0.014960527 0.64939356
0.042377032 0.013151497 0.64519584
0.041414503 0.011424661 0.6411894
0.040494725 0.0097745955 0.63736087
0.039749816 0.0082240999 0.63426024
0.039894111 0.0068783164 0.63486087
0.040039342 0.0055226386 0.63546538
0.040185634 0.0041571259 0.6360743
0.040333115 0.0027815998 0.63668817
0.040481567 0.001395911 0.63730609
0.040631235 -0 0.63792908
0.040781893 -0.0014062822 0.63855618
0.040933672 -0.002823025 0.63918793
0.041086707 -0.0042503476 0.63982499
0.041240767 -0.0056883693 0.64046621
0.041395988 -0.007137239 0.64111233
0.041552506 -0.0085970759 0.64176381
0.041710086 -0.01006794 0.6424197
0.041868865 -0.011550009 0.64308065
0.04202899 -0.013043493 0.64374709
0.042190209 -0.014548331 0.64441824
0.042352803 -0.016064852 0.64509499
0.042516522 -0.017593056 0.64577651
0.042681515 -0.019133121 0.64646327
0.042847924 -0.020685196 0.64715588
0.043015502 -0.022249371 0.64785343
0.043184396 -0.023825854 0.64855647
0.043354757 -0.025414854 0.64926553
0.043526337 -0.027016312 0.64997971
0.043699272 -0.028630584 0.65069962
0.043873727 -0.030257732 0.65142572
0.044049442 -0.031897873 0.65215713
0.044226713 -0.033551276 0.65289503
0.044405274 -0.035217971 0.65363824
0.044585276 -0.036898136 0.65438753
0.044766899 -0.03859216 0.65514356
0.044949856 -0.040299863 0.65590501
0.045134313 -0.042021573 0.65667284
0.045320444 -0.043757647 0.65744764
0.04550796 -0.045507938 0.6582281
0.045697037 -0.047272772 0.65901518
0.045887843 -0.049052507 0.65980935
0.046080098 -0.050847024 0.6606096
0.046273969 -0.052656561 0.66141659
0.046469633 -0.054481626 0.66223103
0.046666801 -0.056321979 0.66305172
0.046865653 -0.058178067 0.66387951
0.047066368 -0.06005016 0.66471487
0.072567366 0.062891752 0.76079261
0.069878958 0.058232486 0.74997532
0.067382947 0.053906381 0.73993218
0.06505879 0.049878389 0.73058045
0.062889628 0.046119064 0.72185248
0.060860436 0.042602301 0.71368766
0.058958102 0.039305419 0.70603323
0.057171088 0.036208391 0.69884282
0.05548922 0.033293575 0.69207549
0.053903472 0.030545324 0.68569493
0.052405842 0.02794978 0.67966902
0.050989181 0.025494605 0.67396873
0.049647097 0.023168653 0.66856867
0.048373852 0.020962 0.66344547
0.04716428 0.018865734 0.65857852
0.046013724 0.016871721 0.65394902
0.044917963 0.014972687 0.64954001
0.043873176 0.013161927 0.64533615
0.042875886 0.011433601 0.64132333
0.041922934 0.0097820461 0.63748896
0.041147351 0.0082294643 0.6343683
0.041296817 0.0068828166 0.63496971
0.041447256 0.005526334 0.635575
0.041598789 0.0041598678 0.63618469
0.041751564 0.0027834177 0.63679945
0.041905336 0.0013968349 0.63741815
0.042060245 5.9604645e-08 0.63804144
0.042216431 -0.0014072061 0.63866991
0.042373654 -0.0028249025 0.63930255
0.042532049 -0.0042531788 0.6399399
0.042691767 -0.0056922138 0.6405825
0.042852562 -0.0071421266 0.64122951
0.043014694 -0.008602947 0.64188194
0.043177936 -0.010074854 0.64253873
0.043342415 -0.011557966 0.64320052
0.043508284 -0.013052464 0.64386797
0.043675296 -0.014558405 0.64453989
0.043843597 -0.016075969 0.64521712
0.044013333 -0.017605335 0.64590013
0.044184253 -0.019146502 0.64658785
0.044356506 -0.02069968 0.64728093
0.044530246 -0.022265136 0.64797997
0.044705208 -0.023842752 0.64868397
0.044881698 -0.025432974 0.64939415
0.045059443 -0.027035624 0.65010929
0.045238599 -0.028651118 0.65083021
0.045419332 -0.030279517 0.65155739
0.045601368 -0.031920969 0.65228987
0.045784868 -0.033575565 0.65302825
0.045970004 -0.03524363 0.65377313
0.046156488 -0.036925197 0.65452349
0.046344645 -0.038620532 0.65528059
0.046534188 -0.040329635 0.65604323
0.046725292 -0.042052776 0.65681219
0.046918124 -0.043790221 0.65758806
0.047112402 -0.045542002 0.65836978
0.047308289 -0.047308266 0.65915799
0.047505975 -0.049089521 0.65995336
0.047705159 -0.050885499 0.66075486
0.047906015 -0.052696615 0.66156304
0.048108574 -0.054523051 0.66237807
0.048313018 -0.056365192 0.66320068
0.048519045 -0.05822286 0.66402966
0.048726834 -0.060096413 0.66486573
0.075085059 0.062974572 0.7611773
0.072299838 0.058306366 0.750332
0.069713868 0.053972036 0.74026245
0.067306496 0.049937069 0.73088837
0.065059833 0.046171516 0.72214013
0.062958308 0.04264918 0.71395707
0.060988307 0.039347321 0.70628601
0.059137847 0.036245793 0.69908059
0.057396371 0.033326924 0.69229943
0.05575474 0.030575156 0.68590713
0.054204199 0.027976334 0.67986947
0.052737568 0.025518209 0.67415857
0.051348217 0.023189515 0.66874862
0.050030187 0.020980448 0.6636163
0.048778124 0.018881857 0.65874094
0.047587208 0.016885787 0.65410364
0.046453051 0.014984876 0.64968735
0.045371559 0.013172388 0.6454761
0.044339411 0.011442423 0.64145702
0.043353181 0.0097894073 0.63761681
0.042546712 0.0082348585 0.63447642
0.042701244 0.0068872869 0.63507819
0.042857017 0.0055299401 0.63568479
0.043013815 0.0041626394 0.63629532
0.04317176 0.0027852952 0.63691032
0.043330997 0.0013977587 0.63753039
0.043491285 2.9802322e-08 0.63815451
0.043652896 -0.0014081299 0.63878381
0.043815576 -0.0028268099 0.63941723
0.043979473 -0.0042560399 0.64005548
0.044144738 -0.0056960583 0.64069897
0.044311114 -0.0071469545 0.64134687
0.044478748 -0.0086087584 0.6419996
0.04464779 -0.010081738 0.64265782
0.044817992 -0.011565924 0.64332056
0.044989489 -0.013061464 0.64398837
0.045162447 -0.014568508 0.64466184
0.045336593 -0.016087174 0.64533997
0.045512095 -0.017617553 0.64602333
0.045689099 -0.019159973 0.64671254
0.045867343 -0.020714253 0.64740664
0.046047129 -0.022280842 0.64810669
0.046228182 -0.02385968 0.6488117
0.046410669 -0.025451005 0.6495223
0.046594746 -0.027054995 0.65023905
0.046780143 -0.028671712 0.65096098
0.046967015 -0.030301332 0.65168869
0.04715554 -0.031944066 0.65242273
0.047345433 -0.033599973 0.65316218
0.047537021 -0.035269409 0.65390819
0.047730003 -0.036952257 0.65465969
0.04792456 -0.038648844 0.65541726
0.048120871 -0.040359437 0.65618163
0.048318632 -0.042083949 0.65695167
0.048518032 -0.043822736 0.65772814
0.048719238 -0.045576066 0.65851164
0.048921965 -0.04734382 0.65930104
0.049126379 -0.049126387 0.66009694
0.049332678 -0.050924063 0.66090029
0.049540553 -0.0527367 0.66170973
0.049750183 -0.054564714 0.66252601
0.049961761 -0.056408435 0.66334987
0.050174981 -0.058267713 0.6641801
0.050390027 -0.060142934 0.66501749
0.074726507 0.058380097 0.75068808
0.072050475 0.054037839 0.74059355
0.069559485 0.049995899 0.73119706
0.067234978 0.046224087 0.7224285
0.065061085 0.042696357 0.71422809
0.063023105 0.039389431 0.70654047
0.061108921 0.036283433 0.69931972
0.059307583 0.033360511 0.69252473
0.057609409 0.030604988 0.68611884
0.056005772 0.028002888 0.68006963
0.054489002 0.025541723 0.674348
0.053052213 0.023210317 0.66892815
0.051689256 0.020998776 0.66378677
0.050394572 0.01889798 0.65890294
0.049163159 0.016899854 0.65425777
0.047990493 0.014997035 0.64983428
0.046872467 0.013182878 0.64561689
0.045805346 0.011451334 0.64159149
0.044785734 0.0097968578 0.63774526
0.043947909 0.0082402527 0.63458478
0.044107627 0.0068918169 0.63518733
0.044268515 0.005533576 0.63579416
0.044430714 0.0041653812 0.636406
0.044593967 0.002787143 0.6370219
0.044758558 0.0013987124 0.63764274
0.044924241 -0 0.6382677
0.045091148 -0.0014091134 0.63889736
0.045259438 -0.0028286874 0.63953221
0.045428853 -0.0042589605 0.64017129
0.045599546 -0.0056999624 0.64081514
0.045771655 -0.0071518421 0.64146441
0.045944937 -0.0086146891 0.64211798
0.04611953 -0.010088623 0.64277661
0.046295602 -0.011573881 0.64344078
0.046472874 -0.013070494 0.64410949
0.046651516 -0.014578581 0.64478338
0.046831679 -0.01609838 0.64546299
0.047013089 -0.017629892 0.64614731
0.04719606 -0.019173414 0.64683753
0.047380317 -0.020728886 0.64753258
0.047566012 -0.022296518 0.64823306
0.047753319 -0.023876637 0.64893961
0.04794196 -0.025469154 0.64965123
0.048132095 -0.027074248 0.65036839
0.048323896 -0.028692305 0.65109193
0.048517078 -0.030323178 0.65182066
0.048711967 -0.031967223 0.65255588
0.048908275 -0.03362447 0.65329635
0.049106162 -0.035295069 0.65404284
0.049305826 -0.036979347 0.654796
0.049506955 -0.038677305 0.65555465
0.049709734 -0.04038915 0.65631962
0.049914341 -0.042115211 0.65709144
0.050120477 -0.043855369 0.65786904
0.050328322 -0.045610011 0.65865308
0.050538063 -0.047379434 0.65944421
0.050749395 -0.049163461 0.66024143
0.0509625 -0.050962478 0.66104531
0.051177576 -0.052776843 0.66185659
0.051394295 -0.054606438 0.66267419
0.051612865 -0.056451529 0.66349864
0.051833477 -0.058312625 0.66433078
0.052055798 -0.060189486 0.66516948
0.077159703 0.058454365 0.75104654
0.074393146 0.05410409 0.74092674
0.071818121 0.050055057 0.7315076
0.06941539 0.046276957 0.7227186
0.067168228 0.042743444 0.71449876
0.065061986 0.039431542 0.70679432
0.063083835 0.036321014 0.69955838
0.061222415 0.033394009 0.69274956
0.059467696 0.03063488 0.68633097
0.057810761 0.028029472 0.68027008
0.056243863 0.025565416 0.67453849
0.054759469 0.023231268 0.66910875
0.053351413 0.021017224 0.66395819
0.052013949 0.018914193 0.6590659
0.050741903 0.01691395 0.65441287
0.049530439 0.015009224 0.6499815
0.048375621 0.013193369 0.64575726
0.04727342 0.011460245 0.64172554
0.046220329 0.0098043084 0.63787341
0.045350805 0.0082456172 0.63469279
0.045515861 0.0068963766 0.63529658
0.045681994 0.0055372417 0.63590425
0.04584948 0.004168123 0.63651693
0.046018064 0.0027889609 0.6371336
0.046187889 0.0013996363 0.63775474
0.046359111 -0 0.63838112
0.046531469 -0.0014100373 0.63901156
0.046705108 -0.0028305948 0.63964671
0.046880193 -0.0042618215 0.64028716
0.047056451 -0.0057037771 0.6409319
0.047234043 -0.0071566701 0.64158154
0.047413126 -0.0086205304 0.64223659
0.047593426 -0.010095567 0.64289606
0.047775246 -0.011581838 0.64356112
0.047958318 -0.013079524 0.64423078
0.048142795 -0.014588714 0.64490563
0.048328843 -0.016109586 0.64558613
0.048516188 -0.01764226 0.64627147
0.048704993 -0.019186765 0.64696205
0.048895422 -0.020743489 0.64765859
0.049087189 -0.022312373 0.64836013
0.049280472 -0.023893565 0.64906716
0.049475439 -0.025487363 0.64978033
0.049671795 -0.027093709 0.65049857
0.049869876 -0.028712988 0.65122312
0.050069381 -0.030345082 0.65195286
0.050270494 -0.031990319 0.65268856
0.050473385 -0.033648908 0.6534307
0.050677761 -0.035320878 0.65417826
0.0508838 -0.037006378 0.65493196
0.051091686 -0.038705826 0.65569234
0.051301103 -0.040419042 0.65645844
0.051512249 -0.042146385 0.65723073
0.051725317 -0.043888152 0.65801007
0.051939975 -0.045644194 0.65879536
0.052156426 -0.047414958 0.65958709
0.052374858 -0.049200624 0.66038609
0.05259496 -0.051001161 0.66119117
0.052816913 -0.052816898 0.66200304
0.053040929 -0.054648191 0.66282248
0.053266671 -0.056494921 0.66364825
0.053494345 -0.058357477 0.66448104
0.079598695 0.058528453 0.75140452
0.076741211 0.054170281 0.74125952
0.074081771 0.050114155 0.73181766
0.071600474 0.046329737 0.72300828
0.069280013 0.042790622 0.7147699
0.067105517 0.039473832 0.70704985
0.065063104 0.036358804 0.69979858
0.063141346 0.033427805 0.69297576
0.061329857 0.030664921 0.68654436
0.059619408 0.028056204 0.68047178
0.058001775 0.025589049 0.67472863
0.056469608 0.023252189 0.66928899
0.055016305 0.021035671 0.66412932
0.053635925 0.018930346 0.6592285
0.052323122 0.016928047 0.65456766
0.051073048 0.015021503 0.6501295
0.049881313 0.013203859 0.6458984
0.048743926 0.011469185 0.64186037
0.047657251 0.0098118186 0.63800228
0.046755664 0.0082510114 0.63480139
0.046925947 0.0069009066 0.63540596
0.047097344 0.0055408478 0.63601446
0.047269993 0.0041708946 0.63662744
0.047444053 0.0027908385 0.63724542
0.047619253 0.0014005899 0.63786745
0.047795758 -2.9802322e-08 0.63849407
0.047973718 -0.0014109612 0.63912588
0.048152868 -0.0028325021 0.63976192
0.048333351 -0.0042646825 0.64040273
0.048515346 -0.0057076812 0.64104891
0.048698567 -0.0071615577 0.64169931
0.04888333 -0.0086264312 0.64235532
0.049069345 -0.01010251 0.64301574
0.049256783 -0.011589855 0.64368117
0.049445812 -0.013088614 0.64435232
0.049636144 -0.014598876 0.64502805
0.049827944 -0.016120791 0.64570898
0.050021388 -0.017654598 0.6463958
0.050216187 -0.019200295 0.64708734
0.050412502 -0.020758092 0.64778435
0.050610524 -0.022328168 0.64848739
0.050809946 -0.023910552 0.64919537
0.051011108 -0.025505543 0.64990956
0.051213704 -0.02711314 0.65062886
0.051417921 -0.028733522 0.6513539
0.051623929 -0.030367017 0.6520853
0.051831432 -0.032013506 0.65282202
0.052040614 -0.033673316 0.65356463
0.052251656 -0.035346717 0.65431392
0.052464247 -0.037033558 0.65506864
0.052678749 -0.038734347 0.6558302
0.052894834 -0.040448993 0.65659744
0.053112704 -0.042177737 0.65737092
0.053332552 -0.043920875 0.65815139
0.053554047 -0.045678496 0.65893781
0.053777389 -0.047450602 0.65973073
0.054002788 -0.049237818 0.66053098
0.054229897 -0.051039904 0.66133726
0.054458927 -0.05285722 0.66215038
0.054690082 -0.054690063 0.66297114
0.054923024 -0.056538403 0.66379809
0.055157956 -0.058402508 0.6646322
0.079095393 0.054236829 0.74159437
0.076351121 0.050173581 0.73212969
0.073790886 0.046382844 0.72329974
0.071396783 0.042838067 0.71504283
0.069153145 0.039516062 0.70730484
0.067046233 0.036396533 0.70003831
0.065063901 0.033461422 0.69320142
0.06319543 0.030694932 0.68675733
0.061431274 0.028082877 0.680673
0.05976294 0.025612682 0.67491913
0.058182828 0.02327311 0.66946948
0.056684315 0.021054178 0.66430134
0.055260867 0.018946588 0.659392
0.053907156 0.016942263 0.65472323
0.052618016 0.015033722 0.65027714
0.051389255 0.013214409 0.64603931
0.05021657 0.011478096 0.64199483
0.049096212 0.0098192394 0.6381309
0.048162367 0.0082563758 0.63491017
0.04833775 0.0069054365 0.63551497
0.048514556 0.0055445433 0.63612485
0.048692517 0.0041736662 0.63673854
0.048871789 0.0027926564 0.63735688
0.049052533 0.0014015138 0.63798022
0.049234468 -0 0.63860774
0.049417909 -0.0014119148 0.63924038
0.049602576 -0.0028344095 0.6398772
0.049788624 -0.0042676032 0.6405189
0.049976222 -0.0057115555 0.64116591
0.050165091 -0.0071664453 0.64181733
0.05035539 -0.0086323321 0.64247364
0.050547294 -0.010109425 0.64313549
0.05074051 -0.011597842 0.64380187
0.050935213 -0.013097584 0.64447331
0.051131573 -0.014609009 0.64515054
0.051329289 -0.016132057 0.64583248
0.051528543 -0.017666936 0.64651972
0.051729508 -0.019213825 0.6472128
0.051931892 -0.020772755 0.64791077
0.052136019 -0.022344023 0.64861482
0.052341599 -0.023927599 0.64932382
0.052548803 -0.025523692 0.65003848
0.052757829 -0.027132601 0.65075934
0.052968349 -0.028754234 0.65148538
0.05318056 -0.030388892 0.65221727
0.053394645 -0.032036781 0.65295565
0.053610291 -0.033697844 0.65369934
0.053827856 -0.035372555 0.65444976
0.054047022 -0.037060827 0.65520561
0.05426798 -0.038762838 0.65596765
0.054490931 -0.040478975 0.65673661
0.05471554 -0.042209148 0.65751123
0.054942008 -0.043953627 0.65829235
0.055170543 -0.045712739 0.65908051
0.0554008 -0.047486395 0.65987468
0.055632986 -0.049274921 0.66067541
0.055867322 -0.051078707 0.66148365
0.056103442 -0.052897483 0.66229796
0.056341574 -0.054731816 0.66311926
0.056581922 -0.056581914 0.66394818
0.056824144 -0.058447659 0.66478354
0.078625493 0.050232947 0.73244125
0.075985983 0.046435893 0.72359079
0.073517933 0.042885453 0.71531522
0.071205169 0.03955844 0.7075603
0.069033474 0.036434352 0.70027852
0.066990599 0.033495307 0.69342864
0.0650649 0.030725121 0.68697155
0.063246824 0.02810967 0.68087548
0.061527591 0.025636494 0.6751107
0.059899349 0.023294181 0.66965109
0.058355067 0.021072656 0.664473
0.056888405 0.018962801 0.65955514
0.05549366 0.016956389 0.6548785
0.054165673 0.01504606 0.65042561
0.052899759 0.013224989 0.64618093
0.051691663 0.011487067 0.64213008
0.050537515 0.0098267198 0.63826019
0.049570911 0.0082618296 0.63501906
0.049751543 0.0069099367 0.63562477
0.049933497 0.0055481791 0.63623482
0.05011693 0.0041763783 0.63684994
0.05030157 0.002794534 0.63746905
0.050487723 0.0014024377 0.63809323
0.050675109 -0 0.63872153
0.050863896 -0.0014128983 0.63935453
0.051054239 -0.0028363466 0.63999277
0.051245864 -0.0042704642 0.64063525
0.051438931 -0.0057154 0.64128268
0.051633615 -0.0071713328 0.64193547
0.051829621 -0.0086382926 0.64259267
0.052027117 -0.010116369 0.64325494
0.052226294 -0.011605829 0.64392275
0.05242683 -0.013106704 0.64459521
0.052628916 -0.014619142 0.64527279
0.05283273 -0.016143322 0.64595622
0.053037964 -0.017679334 0.64664435
0.053244963 -0.019227356 0.64733851
0.053453419 -0.020787448 0.64803743
0.053663515 -0.022359788 0.64874184
0.053875435 -0.023944646 0.64945251
0.054088868 -0.025541961 0.65016812
0.054303996 -0.027152002 0.65088946
0.054521017 -0.028774947 0.65161711
0.054739598 -0.030410916 0.65235007
0.054960124 -0.032060057 0.65308952
0.055182256 -0.03372249 0.65383434
0.055406187 -0.035398424 0.65458524
0.055632126 -0.037088066 0.65534282
0.05585973 -0.038791478 0.65610594
0.056089208 -0.040508866 0.65687537
0.05632076 -0.04224056 0.65765178
0.056554049 -0.04398647 0.65843403
0.056789275 -0.045746893 0.65922278
0.057026662 -0.047522187 0.66001868
0.05726584 -0.049312234 0.66082072
0.057507042 -0.051117361 0.6616295
0.057750478 -0.052937925 0.66244572
0.057995781 -0.054773808 0.66326833
0.058243185 -0.056625307 0.66409791
0.058492906 -0.058492869 0.66493517
0.080905631 0.050292701 0.73275477
0.078186452 0.046489269 0.72388357
0.075644113 0.042933166 0.71558934
0.073261894 0.039600998 0.70781744
0.071025148 0.03647238 0.70052016
0.068920925 0.033529103 0.69365519
0.066937804 0.030755222 0.68718541
0.065065607 0.028136492 0.68107742
0.06329529 0.025660247 0.67530191
0.06161876 0.023315191 0.66983235
0.06002875 0.021091163 0.66464496
0.058518734 0.018979043 0.65971863
0.057082824 0.016970545 0.65503401
0.055715691 0.015058279 0.65057385
0.054412514 0.013235509 0.64632225
0.0531689 0.011495978 0.64226502
0.051980868 0.0098342299 0.63838911
0.050981157 0.0082672238 0.63512766
0.051167198 0.0069144666 0.63573462
0.051354453 0.0055518448 0.63634551
0.051543232 0.0041791797 0.63696134
0.051733252 0.0027963817 0.63758129
0.051924676 0.0014033616 0.63820583
0.052117679 -0 0.63883549
0.052311972 -0.001413852 0.63946933
0.05250771 -0.0028382242 0.64010793
0.052705083 -0.0042733848 0.64075184
0.052903783 -0.0057193041 0.6414001
0.053103983 -0.0071761906 0.64205325
0.053305872 -0.0086441934 0.64271188
0.053509139 -0.010123372 0.64337504
0.053714123 -0.011613876 0.6440438
0.053920522 -0.013115793 0.64471716
0.054128505 -0.014629334 0.6453957
0.054338276 -0.016154617 0.64608008
0.054549504 -0.017691731 0.64676917
0.054762382 -0.019240826 0.64746368
0.054977104 -0.02080214 0.64816427
0.055193342 -0.022375673 0.64886969
0.055411283 -0.023961633 0.64958072
0.055631135 -0.02556023 0.65029794
0.055852555 -0.027171493 0.65102035
0.056075923 -0.028795719 0.65174907
0.056300905 -0.03043291 0.65248311
0.056527704 -0.032083273 0.65322292
0.056756515 -0.033747107 0.65396947
0.056987006 -0.035424352 0.65472144
0.057219379 -0.037115276 0.65547955
0.057453834 -0.038820148 0.6562444
0.057690036 -0.040538937 0.65701503
0.057928186 -0.042271942 0.65779197
0.058168501 -0.044019401 0.65857595
0.05841063 -0.045781285 0.65936589
0.058654971 -0.047558099 0.66016304
0.058901172 -0.049349636 0.66096634
0.059149444 -0.051156282 0.6617763
0.059400026 -0.052978367 0.66259378
0.059652533 -0.054815829 0.66341758
0.059907194 -0.056668967 0.66424835
0.060164046 -0.05853802 0.66508639
0.080391631 0.046542555 0.72417593
0.077774681 0.042980731 0.71586293
0.07532274 0.039643586 0.70807409
0.073020674 0.036510348 0.70076132
0.070855156 0.033562988 0.69388235
0.068814635 0.030785531 0.68740046
0.066888109 0.028163403 0.68128067
0.065066516 0.025684178 0.67549419
0.063341506 0.023336351 0.67001456
0.061705593 0.021109819 0.66481793
0.060152061 0.018995404 0.65988296
0.058674831 0.01698482 0.65519041
0.057268418 0.015070647 0.6507228
0.05592785 0.013246059 0.64646441
0.054648608 0.011504948 0.64240074
0.053426579 0.0098417401 0.63851881
0.052393399 0.0082726479 0.6352368
0.052584719 0.0069190562 0.63584459
0.052777283 0.0055555403 0.63645625
0.05297127 0.0041819513 0.6370725
0.05316684 0.0027982593 0.63769376
0.053363703 0.0014043152 0.63831913
0.05356219 -0 0.63894963
0.053762 -0.0014148057 0.6395843
0.0539633 -0.0028401315 0.64022374
0.05416628 -0.0042762756 0.64086854
0.054370631 -0.0057232082 0.6415177
0.054576524 -0.007181108 0.64217174
0.054784153 -0.0086501241 0.64283127
0.054993197 -0.010130316 0.64349532
