# .PCD v0.7 - Point Cloud Data file format
VERSION 0.7
FIELDS x y z
SIZE 4 4 4
TYPE F F F
COUNT 1 1 1
WIDTH 1354
HEIGHT 1
VIEWPOINT 0 0 0 1 0 0 0
POINTS 1354
DATA ascii
0.039500777 0.036209047 0.66747767
0.039167378 0.034271449 0.66580075
0.038839694 0.032366425 0.66415268
0.038517315 0.030492872 0.66253126
0.038200375 0.028650314 0.66093719
0.037888482 0.026837677 0.65936846
0.03758176 0.025054514 0.65782583
0.037279848 0.023299903 0.65630728
0.036982868 0.021573365 0.65481359
0.036690462 0.019874036 0.65334284
0.036402758 0.018201381 0.65189588
0.03611942 0.016554713 0.65047079
0.035840567 0.014933586 0.6490683
0.035565883 0.013337225 0.64768666
0.035295479 0.011765182 0.64632672
0.03502905 0.010216832 0.64498663
0.034766722 0.0086916983 0.64366722
0.034508187 0.0071892142 0.64236689
0.034253575 0.0057089329 0.64108628
0.034002587 0.0042503178 0.63982397
0.033755351 0.0028129518 0.63858044
0.033511586 0.0013963282 0.63735443
0.033271417 -0 0.63614643
0.033034571 -0.0013763905 0.63495517
0.032801162 -0.0027334392 0.63378125
0.03257094 -0.0040713549 0.63262331
0.032344013 -0.0053906739 0.63148195
0.032120142 -0.0066916943 0.63035595
0.031899434 -0.0079748333 0.62924588
0.031681653 -0.0092404485 0.62815052
0.031466909 -0.010488957 0.62707043
0.031254973 -0.011720598 0.62600446
0.031045957 -0.012935817 0.62495315
0.030839635 -0.014134854 0.62391549
0.030636117 -0.015318066 0.6228919
0.03043519 -0.016485751 0.62188131
0.030236959 -0.017638236 0.6208843
0.030041294 -0.018775791 0.61990017
0.029848067 -0.019898713 0.61892825
0.029657388 -0.021007329 0.61796927
0.029469052 -0.02210176 0.61702198
0.029283172 -0.023182511 0.61608708
0.029099543 -0.024249613 0.61516356
0.028918279 -0.025303513 0.61425185
0.02897709 -0.026562303 0.61454761
0.029343631 -0.028120995 0.61639118
0.029719483 -0.029719502 0.6182816
0.03010517 -0.031359524 0.62022138
0.030500915 -0.033042639 0.62221193
0.030907288 -0.034770668 0.62425578
0.031324551 -0.036545306 0.62635446
0.03175332 -0.038368583 0.62851095
0.032193903 -0.040242374 0.63072693
0.032646973 -0.042169005 0.63300574
0.033112884 -0.044150472 0.63534904
0.033592384 -0.046189517 0.63776076
0.034085874 -0.048288316 0.64024282
0.034594078 -0.050449699 0.6427989
0.035117775 -0.052676678 0.64543295
0.035657462 -0.054971904 0.64814728
0.036214106 -0.057338998 0.65094703
0.036788289 -0.05978097 0.65383494
0.037381094 -0.0623018 0.65681648
0.037993193 -0.064905033 0.65989518
0.038625803 -0.067595139 0.66307688
0.039279696 -0.070376098 0.66636574
0.039956253 -0.073253155 0.66976857
0.047866493 0.074671775 0.69992399
0.047397345 0.072043955 0.69765878
0.046937112 0.069466949 0.6954366
0.04648592 0.066939741 0.69325799
0.046043139 0.064460397 0.69112003
0.045608886 0.06202808 0.68902332
0.045182582 0.059641033 0.68696493
0.044764336 0.057298362 0.68494546
0.044353597 0.054998487 0.68296224
0.043950491 0.052740604 0.68101591
0.043554485 0.050523221 0.67910373
0.043165714 0.048345596 0.6772266
0.042783663 0.046206385 0.6753819
0.04240847 0.044104815 0.67357028
0.042039648 0.042039663 0.67178947
0.041677333 0.040010214 0.67004007
0.041321065 0.038015395 0.66831988
0.040970981 0.036054462 0.66662955
0.040626638 0.034126371 0.66496688
0.040288173 0.032230526 0.66333258
0.039955165 0.030365944 0.66172469
0.039627749 0.028531998 0.66014379
0.039305527 0.026727766 0.65858799
0.038988627 0.02495268 0.65705788
0.038676675 0.023205996 0.65555167
0.038369801 0.021487087 0.6540699
0.038067628 0.01979515 0.6526109
0.037770305 0.018129766 0.65117526
0.037477467 0.016490072 0.64976138
0.037189256 0.01487571 0.64836973
0.036905326 0.013285935 0.64699882
0.036625814 0.01172027 0.64564919
0.036350392 0.010178119 0.6443193
0.036079187 0.0086590052 0.6430099
0.035811897 0.0071623921 0.64171928
0.035548642 0.0056878328 0.64044815
0.035289124 0.0042346716 0.63919508
0.035033468 0.00280267 0.63796067
0.034781493 0.0013912916 0.63674402
0.03453302 -0 0.6355443
0.034288164 -0.0013715327 0.63436198
0.034046661 -0.0027236938 0.63319594
0.033808537 -0.0040570199 0.63204616
0.033573817 -0.005371809 0.63091284
0.033342332 -0.0066684484 0.62979513
0.033113923 -0.0079473257 0.62869227
0.032888714 -0.0092088282 0.6276049
0.03266646 -0.010453284 0.62653178
0.032447278 -0.01168102 0.62547344
0.032230929 -0.012892365 0.62442881
0.032017533 -0.014087737 0.62339848
0.031806856 -0.015267283 0.62238121
0.031599022 -0.016431481 0.62137771
0.0313938 -0.017580509 0.62038678
0.03119131 -0.018714786 0.61940914
0.030991334 -0.019834459 0.61844349
0.030793989 -0.020939887 0.61749065
0.03059906 -0.022031337 0.61654943
0.030406659 -0.023109049 0.61562037
0.030216588 -0.02417329 0.61470276
0.030028952 -0.025224298 0.61379671
0.030044608 -0.02643925 0.61387229
0.03042279 -0.02798894 0.61569834
0.030810693 -0.029578239 0.61757129
0.031208532 -0.031208545 0.61949223
0.031616781 -0.032881439 0.62146342
0.032035939 -0.034598798 0.62348735
0.03246627 -0.036362261 0.62556517
0.032908414 -0.038173765 0.62770003
0.033362668 -0.040035218 0.6298933
0.033829741 -0.041948885 0.6321485
0.034309972 -0.043916792 0.63446736
0.034804143 -0.045941472 0.63685334
0.035312645 -0.048025191 0.63930869
0.035836339 -0.050170839 0.64183724
0.036375683 -0.052380949 0.64444149
0.03693163 -0.054658815 0.64712578
0.037504714 -0.057007164 0.64989287
0.038095865 -0.059429541 0.65274727
0.038706075 -0.061929718 0.65569353
0.039336018 -0.064511076 0.65873528
0.039986946 -0.067178071 0.66187823
0.040659636 -0.069934592 0.6651262
0.041355491 -0.072785676 0.66848612
0.049534097 0.074301153 0.69877702
0.049050987 0.071689934 0.69653404
0.048577018 0.069128871 0.69433355
0.048112314 0.066617072 0.69217604
0.047656227 0.064152658 0.69005853
0.04720889 0.061734706 0.68798172
0.04676969 0.059361547 0.68594265
0.046338767 0.057032347 0.68394196
0.04591554 0.054745436 0.68197703
0.045500141 0.052500159 0.68004847
0.045092024 0.050294966 0.67815369
0.044691328 0.048129112 0.67629337
0.044297531 0.046001315 0.67446506
0.043910768 0.043910801 0.67266947
0.04353055 0.041856319 0.67090416
0.043157004 0.039837241 0.66917002
0.042789824 0.037852526 0.66746521
0.042428687 0.035901189 0.66578853
0.042073596 0.033982575 0.66413999
0.04172454 0.03209582 0.6625194
0.041381091 0.030239999 0.66092491
0.041043386 0.028414637 0.65935695
0.040711146 0.026618838 0.6578145
0.04038411 0.024851769 0.65629613
0.04006242 0.023112983 0.65480268
0.039745685 0.021401525 0.65333217
0.039433919 0.019716948 0.65188468
0.03912713 0.018058687 0.65046036
0.038825076 0.016425967 0.64905798
0.03852753 0.014818281 0.64767653
0.038234629 0.013235062 0.64631677
0.03794603 0.011675686 0.64497685
0.037661873 0.010139704 0.64365762
0.037381824 0.0086265802 0.64235741
0.037106022 0.0071357787 0.64107692
0.036834151 0.0056667924 0.63981467
0.036566339 0.004219234 0.63857138
0.036302291 0.0027924776 0.63734543
0.036042131 0.0013862252 0.6361376
0.035785574 -0 0.63494647
0.035532743 -0.0013666749 0.63377267
0.035283357 -0.0027140677 0.63261479
0.035037551 -0.0040428042 0.63147354
0.034795046 -0.0053530931 0.63034773
0.034555968 -0.0066453815 0.62923777
0.034320064 -0.007919997 0.62814254
0.034087449 -0.0091773868 0.62706256
0.033857875 -0.010417789 0.62599671
0.033631463 -0.011641651 0.62494552
0.033407968 -0.012849212 0.62390792
0.033187516 -0.014040887 0.62288439
0.032969862 -0.015216857 0.62187392
0.032755133 -0.016377568 0.62087703
0.032543097 -0.017523199 0.61989254
0.032333877 -0.018654168 0.61892122
0.032127243 -0.019770592 0.61796188
0.031923316 -0.020872921 0.61701512
0.031721879 -0.021961302 0.61607993
0.031523049 -0.023036063 0.61515677
0.031326618 -0.024097383 0.61424482
0.031132698 -0.02514565 0.61334449
0.031102197 -0.026317269 0.61320287
0.031491861 -0.027858168 0.61501193
0.031891495 -0.029438347 0.61686736
0.032301318 -0.031058967 0.61877
0.032721899 -0.032721907 0.62072271
0.033153486 -0.034428626 0.62272644
0.033596702 -0.036181092 0.62478417
0.034051832 -0.037980884 0.62689722
0.034519561 -0.039830267 0.62906873
0.03500022 -0.04173103 0.63130033
0.035494559 -0.043685615 0.63359535
0.036002949 -0.04569608 0.63595569
0.036526117 -0.047764897 0.63838458
0.037064828 -0.049894929 0.64088565
0.037619554 -0.052088588 0.64346111
0.038191248 -0.054349065 0.6461153
0.038780469 -0.05667913 0.64885092
0.03938828 -0.059082419 0.65167284
0.040015317 -0.061562046 0.65458405
0.04066278 -0.064122096 0.65758997
0.041331396 -0.066766083 0.66069412
0.042022511 -0.069498762 0.66390282
0.042736985 -0.072324142 0.66721994
0.051692042 0.076580822 0.69990718
0.051185433 0.073934555 0.69764221
0.05068846 0.071339309 0.69542038
0.050201043 0.068794042 0.69324118
0.0497231 0.066297472 0.69110447
0.049253985 0.06384775 0.68900716
0.048793826 0.061444074 0.68694985
0.048342183 0.059084892 0.68493068
0.04789865 0.056768745 0.68294775
0.047463354 0.054494947 0.68100166
0.047035728 0.052261919 0.67908984
0.046615902 0.050068945 0.67721289
0.046203341 0.047914565 0.67536843
0.045798186 0.045798182 0.67355704
0.045399908 0.043718427 0.67177653
0.045008663 0.041674703 0.67002726
0.044623941 0.039665729 0.6683073
0.044245895 0.037690967 0.66661716
0.043874051 0.035749257 0.66495472
0.043508556 0.033840001 0.66332066
0.04314895 0.031962186 0.66171294
0.042795386 0.030115306 0.66013229
0.042447425 0.028298318 0.65857661
0.04210522 0.026510686 0.65704668
0.04176835 0.024751604 0.65554065
0.041436959 0.023020566 0.65405905
0.041110657 0.021316677 0.65260023
0.040789582 0.019639432 0.65116477
0.040473357 0.017988145 0.64975107
0.04016212 0.016362369 0.64835954
0.039855514 0.014761329 0.64698875
0.039553672 0.013184547 0.64563936
0.039256245 0.011631519 0.64430958
0.038963385 0.010101616 0.64300025
0.038674738 0.0085943937 0.6417098
0.038390454 0.007109344 0.64043885
0.038110204 0.0056459606 0.63918591
0.03783413 0.0042037964 0.63795167
0.037561916 0.0027823746 0.6367346
0.037293699 0.001381278 0.63553548
0.037029177 2.9802322e-08 0.63435286
0.036768489 -0.0013618171 0.63318741
0.036511339 -0.0027045608 0.63203776
0.036257867 -0.0040286183 0.63090456
0.036007788 -0.0053344667 0.62978649
0.035761233 -0.0066224635 0.62868422
0.035517935 -0.0078928769 0.6275965
0.035278022 -0.0091461539 0.62652385
0.035041232 -0.010382593 0.62546527
0.034807693 -0.011602581 0.62442124
0.034577154 -0.012806356 0.6233905
0.034349743 -0.013994336 0.62237376
0.034125209 -0.01516673 0.62136996
0.033903684 -0.016323984 0.62037957
0.033684928 -0.017466277 0.61940157
0.033469062 -0.018593937 0.61843646
0.03325586 -0.019707173 0.61748326
0.033045441 -0.020806402 0.61654258
0.032837585 -0.021891743 0.61561328
0.032632411 -0.022963554 0.61469603
0.032429703 -0.024022013 0.61378974
0.03222958 -0.025067449 0.61289501
0.032150071 -0.026196361 0.61253953
0.032551076 -0.027728707 0.61433232
0.032962121 -0.029299676 0.61617005
0.033383768 -0.030910879 0.61805516
0.033816252 -0.032563776 0.61998868
0.03426009 -0.034260064 0.62197298
0.034715828 -0.036001593 0.62401044
0.035183758 -0.037789941 0.62610245
0.035664573 -0.039627284 0.62825203
0.036158606 -0.04151544 0.6304608
0.036666628 -0.043456733 0.63273203
0.037189022 -0.04545325 0.63506752
0.037726622 -0.047507584 0.63747096
0.03827988 -0.049622059 0.63994449
0.038849726 -0.051799625 0.64249218
0.039436672 -0.054042816 0.64511621
0.040041625 -0.056354865 0.64782083
0.040665559 -0.058739126 0.65061033
0.041309107 -0.061198696 0.6534875
0.041973494 -0.063737512 0.65645778
0.042659454 -0.066359133 0.65952456
0.043368362 -0.069068134 0.66269392
0.044101067 -0.07186839 0.66596961
0.053340539 0.076200753 0.69876027
0.052820344 0.073571205 0.69651765
0.05230999 0.070992142 0.69431746
0.051809609 0.0684627 0.69216025
0.051318508 0.065980971 0.69004309
0.050836824 0.063546032 0.68796653
0.050363913 0.061156183 0.68592775
0.049899902 0.058810592 0.68392736
0.04944418 0.056507647 0.68196273
0.048996888 0.054246545 0.6800344
0.048557434 0.052025855 0.67813987
0.048125975 0.049844772 0.67627972
0.047701936 0.047701955 0.67445171
0.047285479 0.045596689 0.67265636
0.046876062 0.043527782 0.67089128
0.046473838 0.041494519 0.66915727
0.046078298 0.039495677 0.6674521
0.045689594 0.03753072 0.66577631
0.045307234 0.035598546 0.66412795
0.044931374 0.033698559 0.66250759
0.044561554 0.031829655 0.66091317
0.044197913 0.029991448 0.65934557
0.043840017 0.028182864 0.65780264
0.043488007 0.026403427 0.65628511
0.043141473 0.024652272 0.65479118
0.042800553 0.022928894 0.65332139
0.042464841 0.021232456 0.65187413
0.042134494 0.019562453 0.65044999
0.041809108 0.017918229 0.6490472
0.041488845 0.016299218 0.64766645
0.04117332 0.014704764 0.64630628
0.040862683 0.01313442 0.64496708
0.040556576 0.01158759 0.64364743
0.040255144 0.010063797 0.64234793
0.039958037 0.0085624754 0.64106703
0.039665405 0.007083118 0.63980544
0.039376911 0.0056252778 0.63856179
0.039092697 0.0041885376 0.63733649
0.03881244 0.0027723312 0.63612825
0.038536288 0.0013763309 0.63493776
0.038263928 -2.9802322e-08 0.63376355
0.037995499 -0.0013569891 0.63260639
0.037730701 -0.0026950538 0.63146484
0.037469678 -0.0040146112 0.6303395
0.037212133 -0.0053159893 0.62922919
0.036958206 -0.0065996945 0.62813449
0.036707625 -0.0078659356 0.62705421
0.036460515 -0.0091151595 0.6259889
0.036216613 -0.010347605 0.62493742
0.035976052 -0.011563718 0.62390029
0.035738569 -0.012763768 0.62287652
0.035504293 -0.013948113 0.62186652
0.035272975 -0.01511696 0.62086928
0.035044745 -0.016270787 0.61988539
0.034819357 -0.017409682 0.61891371
0.034596942 -0.018534064 0.61795485
0.034377258 -0.019644141 0.61700773
0.034160435 -0.020740271 0.61607301
0.033946246 -0.021822572 0.61514962
0.03373481 -0.022891462 0.61423808
0.033525907 -0.02394709 0.61333752
0.03331966 -0.024989754 0.61244833
0.033188365 -0.026076555 0.61188233
0.033600401 -0.027600348 0.61365867
0.034022707 -0.029162318 0.61547923
0.034455858 -0.030764133 0.61734664
0.034900084 -0.032407254 0.61926174
0.035356008 -0.034093291 0.62122726
0.035823908 -0.035823911 0.6232444
0.036304459 -0.037601024 0.62531608
0.036797971 -0.039426386 0.62744367
0.037305191 -0.041302204 0.62963039
0.037826486 -0.043230236 0.63187772
0.038362551 -0.045213014 0.63418877
0.038914144 -0.047252864 0.6365667
0.039481714 -0.049352169 0.63901359
0.040066209 -0.051513702 0.64153337
0.040668141 -0.053740025 0.64412838
0.041288566 -0.056034476 0.64680308
0.041928079 -0.058399841 0.64956009
0.04258785 -0.060839772 0.65240443
0.043268584 -0.063357577 0.65533912
0.043971572 -0.065957353 0.65836984
0.044697631 -0.06864278 0.66149992
0.045448069 -0.071418405 0.66473508
0.046224304 -0.074289054 0.66808146
0.054972757 0.075824499 0.6976248
0.054439265 0.073211432 0.69540417
0.053915821 0.070648313 0.69322532
0.053402547 0.068134308 0.69108886
0.05289875 0.065667421 0.68899184
0.052404575 0.063246936 0.68693489
0.051919352 0.060870975 0.68491513
0.051443219 0.058538824 0.68293327
0.050975554 0.056248903 0.68098664
0.050516501 0.054000378 0.67907584
0.050065454 0.051791847 0.67719841
0.049622577 0.049622595 0.67535502
0.049187288 0.047491163 0.67354316
0.048759744 0.045397043 0.67176348
0.048339397 0.043338805 0.67001384
0.047926404 0.041315854 0.66829473
0.047520239 0.039327085 0.6666041
0.047121063 0.037371904 0.66494262
0.046728384 0.035449117 0.66330808
0.046342351 0.03355822 0.6617012
0.045962486 0.031698257 0.66012007
0.045588952 0.029868633 0.65856522
0.045221288 0.028068423 0.65703487
0.044859659 0.026297033 0.65552968
0.044503618 0.024553716 0.65404761
0.044153329 0.022837937 0.65258956
0.043808371 0.02114889 0.65115368
0.043468896 0.01948607 0.6497407
0.043134511 0.01784879 0.64834881
0.042805366 0.016236544 0.64697874
0.042481069 0.014648646 0.64562887
0.042161781 0.01308468 0.64429986
0.041847128 0.011544049 0.64299017
0.041537266 0.010026217 0.64170039
0.041231833 0.008530736 0.64042908
0.040930983 0.0070570707 0.63917673
0.040634368 0.005604744 0.63794214
0.040342141 0.0041733384 0.63672578
0.040053971 0.0027623475 0.6355263
0.03977 0.0013713837 0.63434422
0.039489917 -0 0.63317841
0.039213862 -0.001352191 0.63202935
0.038941532 -0.0026856065 0.63089573
0.038673066 -0.0040006638 0.62977827
0.038408168 -0.0052977204 0.6286757
0.03814698 -0.0065770745 0.62758851
0.03788922 -0.0078391731 0.62651563
0.037635017 -0.0090843141 0.62545753
0.037384104 -0.010312825 0.62441313
0.037136614 -0.011525154 0.62338299
0.03689228 -0.012721479 0.62236589
0.036651239 -0.013902158 0.62136257
0.03641323 -0.015067518 0.62037188
0.036178388 -0.016217887 0.61939436
0.035946459 -0.017353445 0.61842901
0.03571758 -0.018474609 0.61747628
0.035491508 -0.019581497 0.61653525
0.035268366 -0.020674556 0.61560649
0.035047922 -0.021753907 0.61468893
0.034830309 -0.022819847 0.61378312
0.034615293 -0.023872614 0.6128881
0.034403004 -0.024912536 0.61200446
0.034217287 -0.025957942 0.61123145
0.034640055 -0.027473152 0.61299115
0.035073489 -0.02902633 0.61479527
0.035517816 -0.030618817 0.6166448
0.035973541 -0.032252133 0.61854172
0.036441214 -0.033928007 0.62048841
0.036921103 -0.035647959 0.62248594
0.037413906 -0.037413895 0.62453717
0.037919935 -0.039227515 0.62664348
0.038439948 -0.041090965 0.62880802
0.038974315 -0.043006122 0.63103223
0.039523859 -0.0449754 0.63331968
0.040089004 -0.047000915 0.63567209
0.040670663 -0.049085274 0.63809323
0.041269332 -0.051230893 0.64058512
0.041885886 -0.05344063 0.64315152
0.042521276 -0.055717513 0.64579624
0.043176096 -0.058064401 0.6485219
0.043851547 -0.060484856 0.65133339
0.044548318 -0.062982112 0.65423369
0.045267746 -0.065560177 0.65722823
0.046010632 -0.068222642 0.66032052
0.04677847 -0.070974261 0.66351658
0.047572203 -0.073818922 0.66682041
0.056588937 0.07545191 0.69650042
0.056042429 0.072855175 0.69430149
0.055506166 0.070307821 0.69214362
0.054980278 0.067809016 0.69002765
0.054464053 0.065356851 0.68795055
0.053957637 0.062950581 0.68591285
0.053460352 0.06058839 0.68391192
0.052972339 0.05826959 0.68194836
0.052492969 0.055992544 0.6800195
0.052022386 0.053756475 0.67812604
0.051559977 0.051560014 0.67626548
0.051105902 0.049402356 0.67443836
0.050659571 0.047282249 0.67264247
0.050221153 0.045199066 0.67087841
0.049790077 0.043151379 0.66914392
0.049366511 0.041138768 0.66743958
0.04894992 0.039159924 0.66576344
0.048540477 0.037214369 0.66411591
0.04813765 0.03530094 0.66249508
0.047741625 0.033419162 0.66090155
0.0473519 0.031567961 0.65933347
0.046968643 0.029746801 0.65779138
0.046591386 0.027954817 0.65627337
0.046220295 0.026191533 0.65478021
0.045855064 0.024456024 0.65331066
0.045495417 0.022747695 0.65186357
0.045141365 0.021065921 0.65043902
0.044792928 0.019410282 0.64903688
0.044449687 0.017779917 0.64765584
0.044111799 0.016174346 0.64629632
0.043779012 0.014593005 0.6449573
0.043451078 0.013035327 0.64363772
0.043128148 0.011500865 0.6423384
0.042809855 0.0099889636 0.64105767
0.042496227 0.0084992647 0.63979566
0.042187285 0.0070312619 0.63855267
0.041882802 0.005584389 0.63732755
0.041582562 0.0041582584 0.63611948
0.041286714 0.0027524233 0.63492906
0.040994931 0.0013665259 0.63375497
0.040707357 -0 0.63259792
0.040423676 -0.0013474524 0.63145638
0.040144037 -0.0026762486 0.63033128
0.039868124 -0.0039868057 0.62922108
0.039596088 -0.0052794814 0.6281265
0.039327633 -0.0065546036 0.62704635
0.039062902 -0.0078125596 0.62598109
0.038801603 -0.0090537071 0.62492973
0.038543884 -0.010278344 0.62389272
0.038289458 -0.011486828 0.62286901
0.038038474 -0.012679487 0.62185913
0.037790656 -0.01385659 0.62086201
0.03754615 -0.015018463 0.61987817
0.037304685 -0.016165376 0.61890656
0.037066408 -0.017297626 0.61794782
0.036831055 -0.018415511 0.61700082
0.036598768 -0.019519329 0.61606616
0.036369298 -0.02060926 0.61514288
0.036142778 -0.02168566 0.61423147
0.035918977 -0.022748709 0.61333096
0.035698015 -0.023798674 0.6124419
0.035479669 -0.024835765 0.61156327
0.035264067 -0.02586028 0.61069572
0.035670172 -0.027347118 0.61232984
0.036114424 -0.028891534 0.61411732
0.036569782 -0.030474812 0.61594957
0.03703687 -0.032098591 0.61782897
0.037515946 -0.033764333 0.61975664
0.038007677 -0.035473824 0.62173522
0.038512364 -0.037228614 0.62376595
0.039030746 -0.039030701 0.62585169
0.03956316 -0.040881932 0.627994
0.040110301 -0.042784303 0.6301955
0.040672906 -0.04474023 0.63245928
0.041251399 -0.046751559 0.63478696
0.041846704 -0.048821136 0.63718224
0.042459317 -0.050951168 0.63964725
0.043090265 -0.053144619 0.64218593
0.043740112 -0.055404112 0.64480078
0.044410001 -0.057733014 0.64749616
0.045100581 -0.060134128 0.65027487
0.045813128 -0.062611282 0.65314192
0.0465484 -0.06516774 0.65610045
0.047307659 -0.067807615 0.65915543
0.048092257 -0.070535287 0.66231245
0.048903152 -0.073354721 0.66557515
0.058189306 0.075082988 0.69538707
0.05763007 0.072502345 0.69320941
0.057081256 0.069970578 0.6910724
0.056543015 0.067486852 0.68897659
0.056014612 0.065049231 0.68691903
0.055496208 0.062657028 0.6849004
0.05498711 0.060308427 0.68291807
0.054487459 0.0580028 0.68097246
0.053996816 0.055738658 0.67906189
0.053514726 0.053514719 0.6771847
0.053041179 0.051330179 0.67534077
0.052576117 0.049184144 0.67352986
0.052118961 0.047075212 0.67174977
0.051669866 0.045002759 0.67000103
0.051228445 0.0429658 0.66828221
0.050794326 0.040963173 0.66659176
0.050367676 0.038994342 0.66493046
0.049947966 0.037058175 0.66329616
0.04953536 0.035154104 0.66168946
0.049129348 0.033281207 0.66010851
0.048730101 0.031438768 0.6585539
0.048337124 0.029626012 0.65702367
0.047950599 0.027842313 0.65551865
0.047570053 0.026086807 0.65403682
0.047195651 0.024359047 0.65257895
0.046826944 0.022658199 0.65114319
0.0464641 0.020983815 0.64973032
0.046106696 0.019335032 0.64833868
0.045754887 0.01771155 0.64696872
0.045408268 0.016112596 0.64561903
0.045066997 0.014537722 0.64429021
0.044730682 0.012986332 0.64298058
0.044399481 0.01145792 0.64169097
0.044073019 0.0099520087 0.64041972
0.043751456 0.0084680021 0.63916767
0.043434422 0.0070055723 0.63793308
0.043122072 0.0055641532 0.63671684
0.042814061 0.0041432977 0.63551748
0.042510539 0.0027426183 0.63433564
0.042211171 0.0013616979 0.63316989
0.04191611 -0 0.63202095
0.041625027 -0.0013427436 0.63088751
0.041338075 -0.00266698 0.62977016
0.041054934 -0.003973037 0.62866765
0.040775765 -0.0052613914 0.62758052
0.04050025 -0.0065322816 0.62650776
0.040228549 -0.0077861845 0.62544978
0.039960355 -0.0090233088 0.6244055
0.039695825 -0.010244071 0.62337536
0.039434664 -0.011448771 0.62235844
0.039177023 -0.012637734 0.6213553
0.038922623 -0.01381126 0.62036467
0.038671609 -0.014969647 0.61938721
0.03842371 -0.016113162 0.61842191
0.038179073 -0.017242134 0.61746937
0.037937429 -0.01835683 0.61652839
0.037698921 -0.019457489 0.61559963
0.037463296 -0.02054438 0.6146822
0.037230697 -0.02161783 0.6137765
0.037000872 -0.022677958 0.6128816
0.036773961 -0.023725122 0.61199796
0.036549725 -0.024759471 0.61112481
0.036328297 -0.025781363 0.61026263
0.036690976 -0.027222335 0.61167485
0.037145734 -0.028758019 0.61344564
0.037611905 -0.030332148 0.61526084
0.038090024 -0.03194648 0.61712259
0.038580358 -0.033602238 0.61903191
0.039083581 -0.035301328 0.62099147
0.0396 -0.037045151 0.62300229
0.040130358 -0.038835824 0.62506741
0.040675003 -0.040674984 0.62718821
0.04123475 -0.042564899 0.62936783
0.041809998 -0.044507414 0.63160777
0.042401645 -0.046505004 0.63391161
0.043010149 -0.048559844 0.63628107
0.043636378 -0.050674498 0.6387195
0.044281244 -0.052851796 0.64123052
0.044945322 -0.055094257 0.64381635
0.045629755 -0.057405189 0.64648151
0.046335217 -0.059787363 0.64922845
0.047062978 -0.062244594 0.65206236
0.047813818 -0.064780012 0.65498596
0.048589159 -0.067397863 0.65800512
0.049389899 -0.070101798 0.66112316
0.05021764 -0.07289657 0.66434622
0.059774339 0.074717939 0.69428539
0.059202403 0.072152913 0.69212794
0.058641534 0.069636822 0.69001228
0.05809097 0.067167699 0.68793535
0.057550866 0.064744741 0.68589801
0.0570205 0.062366188 0.68389732
0.056500029 0.060031295 0.681934
0.05598877 0.057738423 0.68000543
0.055486884 0.055486888 0.67811221
0.054993711 0.053275138 0.67625189
0.054509424 0.051102608 0.67442507
0.054033406 0.048967808 0.67262942
0.053565811 0.046870112 0.67086554
0.053106058 0.044808239 0.66913128
0.052654311 0.042781621 0.66742718
0.052210003 0.040789098 0.6657511
0.051773317 0.038830012 0.66410387
0.051343691 0.036903292 0.66248322
0.05092131 0.035008371 0.66088992
0.05050566 0.033144355 0.65932196
0.050096899 0.031310588 0.65778005
0.049694538 0.029506177 0.65626228
0.049298752 0.027730554 0.6547693
0.048909064 0.025982916 0.65329933
0.048525643 0.024262846 0.65185297
0.048148032 0.022569388 0.65042853
0.047776401 0.020902157 0.64902669
0.04741032 0.019260436 0.64764571
0.047049951 0.01764375 0.64628637
0.046694875 0.016051382 0.64494693
0.046345256 0.014482886 0.64362812
0.0460007 0.012937725 0.64232838
0.045661364 0.011415362 0.64104831
0.045326862 0.0099152923 0.63978648
0.044997364 0.0084370077 0.63854355
0.044672482 0.0069800615 0.63731807
0.04435239 0.0055440366 0.63611066
0.044036727 0.0041284263 0.63491988
0.043725651 0.0027329028 0.63374639
0.04341881 0.0013568699 0.63258892
0.043116372 2.9802322e-08 0.63144803
0.042818002 -0.0013380945 0.63032258
0.04252385 -0.0026577711 0.62921298
0.04223359 -0.0039593577 0.62811804
0.041947383 -0.0052433908 0.62703842
0.041664913 -0.0065101385 0.62597287
0.04138634 -0.0077598989 0.62492204
0.041111354 -0.008993119 0.62388474
0.040840104 -0.010210007 0.6228615
0.040572304 -0.011410952 0.62185133
0.040308099 -0.01259625 0.62085468
0.040047213 -0.013766259 0.61987054
0.039789781 -0.014921188 0.61889946
0.039535537 -0.016061306 0.61794037
0.03928462 -0.017187059 0.6169939
0.039036769 -0.018298477 0.61605895
0.038792126 -0.019396037 0.61513609
0.038550433 -0.020479918 0.61422443
0.038311828 -0.021550387 0.61332428
0.038076062 -0.022607654 0.61243498
0.037843276 -0.023652047 0.61155689
0.037613228 -0.024683684 0.61068904
0.037386049 -0.025702894 0.60983211
0.037702411 -0.027098596 0.61102545
0.038167555 -0.028625637 0.61278009
0.038644414 -0.030190915 0.61457884
0.039133243 -0.03179577 0.61642289
0.039634705 -0.033441782 0.61831445
0.04014907 -0.035130411 0.62025481
0.040677074 -0.036863595 0.6222465
0.041219041 -0.038642824 0.62429094
0.041775644 -0.040470153 0.62639058
0.042347603 -0.04234758 0.62854815
0.042935316 -0.044277042 0.63076508
0.043539699 -0.046260923 0.63304496
0.044161215 -0.048301309 0.63538945
0.044800859 -0.050400957 0.6378023
0.04545917 -0.052562147 0.64028561
0.046137262 -0.054788008 0.64284354
0.046835739 -0.057081059 0.64547837
0.047555842 -0.05944477 0.64819467
0.048298277 -0.061882168 0.65099525
0.04906426 -0.064396843 0.65388477
0.049855098 -0.06699276 0.65686798
0.050671682 -0.069673523 0.65994829
0.051515631 -0.072443858 0.66313189
0.061343793 0.074356169 0.69319355
0.060759656 0.071806878 0.69105679
0.06018677 0.069305986 0.68896127
0.059624355 0.066851526 0.68690401
0.059072584 0.064442813 0.68488568
0.058530707 0.062078029 0.68290359
0.057998899 0.059756488 0.68095827
0.057476457 0.057476461 0.67904723
0.056963544 0.055237383 0.67717105
0.056459509 0.053037763 0.6753273
0.055964511 0.050876856 0.67351663
0.055477921 0.048753321 0.67173684
0.054999918 0.046666622 0.66998827
0.054529887 0.044615388 0.66826892
0.05406801 0.042599022 0.66657943
0.053613704 0.040616453 0.66491771
0.053167153 0.038667053 0.66328418
0.0527278 0.036749691 0.66167712
0.052295823 0.034863889 0.66009694
0.051870696 0.033008635 0.65854192
0.051452592 0.031183392 0.65701258
0.051041014 0.029387265 0.65550703
0.050636128 0.02761972 0.65402597
0.050237454 0.02587992 0.65256763
0.04984517 0.024167359 0.65113276
0.049458805 0.022481263 0.64971948
0.049078543 0.020821214 0.64832842
0.048703924 0.019186407 0.64695823
0.048335135 0.017576426 0.6456092
0.047971744 0.015990585 0.6442799
0.047613911 0.014428467 0.64297104
0.047261246 0.012889445 0.64168096
0.046913899 0.011373073 0.64041042
0.046571486 0.0098788142 0.63915795
0.046234172 0.0084061921 0.63792413
0.045901574 0.0069547892 0.63670743
0.045573857 0.0055240989 0.63550872
0.045250658 0.0041136742 0.63432652
0.044932142 0.0027231872 0.63316131
0.044617951 0.0013520718 0.63201207
0.044308249 -0 0.63087922
0.044002689 -0.0013334453 0.62976158
0.043701436 -0.0026485622 0.62865955
0.043404166 -0.0039458275 0.62757218
0.043111026 -0.0052255988 0.62649995
0.042821702 -0.0064881444 0.62544161
0.042536356 -0.0077338517 0.62439781
0.042254668 -0.0089630783 0.62336743
0.041976802 -0.010176182 0.62235099
0.041702457 -0.011373371 0.62134749
0.041431781 -0.012555093 0.62035739
0.041164488 -0.013721496 0.61937964
0.04090073 -0.014872968 0.61841488
0.040640227 -0.016009778 0.61746198
0.040383123 -0.017132223 0.61652148
0.040129147 -0.018240541 0.61559254
0.03987845 -0.019335002 0.61467552
0.039630763 -0.020415843 0.61376947
0.039386235 -0.021483421 0.61287498
0.039144609 -0.022537798 0.61199117
0.038906023 -0.023579389 0.61111844
0.038670238 -0.024608344 0.61025596
0.038437381 -0.025624901 0.60940421
0.03870469 -0.026976019 0.61038196
0.039180014 -0.028494567 0.61212069
0.039667256 -0.030050904 0.61390293
0.040166669 -0.03164646 0.61572975
0.040678922 -0.033282757 0.61760354
0.041204296 -0.034961224 0.61952531
0.041743536 -0.036683738 0.62149781
0.042296961 -0.038451761 0.6235221
0.042865373 -0.040267497 0.62560135
0.043449149 -0.042132497 0.62773675
0.044049174 -0.044049174 0.62993157
0.044665873 -0.04601939 0.63218737
0.045300085 -0.048045531 0.6345073
0.045952704 -0.050130248 0.63689446
0.046624258 -0.052275687 0.63935095
0.047315877 -0.054484963 0.64188087
0.048028179 -0.05676055 0.64448637
0.048762403 -0.059105933 0.64717209
0.049519274 -0.061523944 0.64994067
0.050300166 -0.064018369 0.6527971
0.051105917 -0.066592515 0.65574443
0.051938072 -0.069250762 0.65878832
0.052797601 -0.071996704 0.66193241
0.063505463 0.076580137 0.69426847
0.062898122 0.073997825 0.69211221
0.062302042 0.071464092 0.68999594
0.061717387 0.06897828 0.68792021
0.061143376 0.066538393 0.68588227
0.060580172 0.064143687 0.68388277
0.060027022 0.061792523 0.68191886
0.059484102 0.059484124 0.67999136
0.0589507 0.057216853 0.67809761
0.058426991 0.054990113 0.6762383
0.057912298 0.052802414 0.67441094
0.057406798 0.05065307 0.6726163
0.056909844 0.048540771 0.67085195
0.056421619 0.04646486 0.66911864
0.055941507 0.044424146 0.66741407
0.055469684 0.042418003 0.66573888
0.055005569 0.040445268 0.66409117
0.05454934 0.038505405 0.66247141
0.054100435 0.036597401 0.66087765
0.053659033 0.03472057 0.65931058
0.053224605 0.032874018 0.65776819
0.052797325 0.031057268 0.65625119
0.052376684 0.029269338 0.6547578
0.051962856 0.027509749 0.6532886
0.05155535 0.025777668 0.65184182
0.051154349 0.024072647 0.6504181
0.050759383 0.022393823 0.6490159
0.050370626 0.020740867 0.6476357
0.049987622 0.019112915 0.64627588
0.049610548 0.017509639 0.64493716
0.049238969 0.015930265 0.64361793
0.048873071 0.014374465 0.64231884
0.048512418 0.012841493 0.64103848
0.048157193 0.011331111 0.6397773
0.047806993 0.0098426342 0.63853395
0.047461987 0.0083756447 0.63730907
0.047121789 0.0069296658 0.63610125
0.046786569 0.0055043101 0.63491112
0.046455953 0.004099071 0.63373739
0.046130102 0.0027135611 0.63258046
0.045808665 0.0013473034 0.63143927
0.045491807 2.9802322e-08 0.63031435
0.04517917 -0.0013287961 0.62920439
0.044870932 -0.0026394427 0.62811005
0.044566747 -0.003932327 0.62703007
0.044266775 -0.0052078366 0.62596506
0.0439707 -0.0064662695 0.62491393
0.043678671 -0.0077079833 0.62387711
0.043390382 -0.0089333057 0.62285358
0.043105993 -0.010142565 0.62184393
0.042825304 -0.011336088 0.6208474
0.042548131 -0.012514174 0.61986339
0.042274527 -0.013677031 0.61889195
0.042004529 -0.014825106 0.61793339
0.041737955 -0.015958637 0.61698699
0.04147464 -0.017077804 0.61605215
0.041214731 -0.018182963 0.61512935
0.040957954 -0.019274354 0.61421776
0.040704459 -0.020352215 0.61331773
0.040453982 -0.021416813 0.61242849
0.040206671 -0.022468418 0.61155039
0.039962262 -0.023507208 0.61068273
0.039720908 -0.02453351 0.60982585
0.039482355 -0.025547415 0.60897887
0.039697945 -0.026854485 0.60974425
0.040183339 -0.028364688 0.6114676
0.040680654 -0.029912263 0.61323321
0.041190535 -0.031498611 0.6150434
0.041713253 -0.033125252 0.61689925
0.042249516 -0.034793705 0.61880314
0.042799637 -0.03650558 0.62075627
0.043364272 -0.038262606 0.62276089
0.04394412 -0.040066719 0.62481958
0.044539563 -0.041919589 0.62693357
0.045151494 -0.043823525 0.62910616
0.045780346 -0.045780331 0.63133872
0.04642709 -0.047792584 0.63363481
0.047092237 -0.04986237 0.63599634
0.047776852 -0.051992476 0.63842696
0.048481528 -0.054185227 0.64092875
0.049207453 -0.056443825 0.64350605
0.049955294 -0.05877094 0.64616108
0.050726373 -0.061170027 0.64889872
0.051521461 -0.063644141 0.65172148
0.052341871 -0.066197097 0.65463424
0.053189013 -0.068832844 0.65764177
0.054063845 -0.071555108 0.66074777
0.054968119 -0.074368641 0.66395819
0.065056734 0.076209337 0.69317675
0.064437538 0.073642939 0.69104123
0.063829772 0.071124613 0.68894511
0.063233607 0.068653643 0.68688893
0.062648229 0.066228122 0.68487012
0.062073831 0.063847393 0.6828891
0.061509635 0.061509639 0.68094331
0.060955834 0.059214264 0.67903328
0.060411692 0.056959599 0.67715657
0.059877396 0.054745048 0.67531383
0.059352253 0.052569151 0.67350274
0.058836453 0.050431252 0.67172378
0.058329333 0.048330009 0.6699748
0.057831082 0.046264887 0.6682564
0.057341076 0.044234544 0.66656643
0.056859501 0.042238474 0.66490555
0.056385752 0.040275544 0.66327161
0.05592002 0.038345158 0.66166538
0.055461735 0.036446273 0.66008484
0.055011082 0.034578413 0.65853053
0.054567516 0.032740504 0.65700072
0.054131221 0.030932158 0.655496
0.053701673 0.029152334 0.65401459
0.053279061 0.027400643 0.65255702
0.052862879 0.02567628 0.65112162
0.052453313 0.02397868 0.64970917
0.052049886 0.022307098 0.64831769
0.05165277 0.020661116 0.64694816
0.051261518 0.019040018 0.64559877
0.050876301 0.017443329 0.64427018
0.050496675 0.015870392 0.64296091
0.050122827 0.014320821 0.6416716
0.049754474 0.012793988 0.64040118
0.049391348 0.011289477 0.63914877
0.049033627 0.0098067224 0.63791507
0.048680905 0.0083453059 0.6366986
0.048333231 0.0069047809 0.63549948
0.04799062 0.0054846704 0.63431787
0.047652833 0.0040845275 0.63315284
0.047319632 0.0027039647 0.63200372
0.046991192 0.0013425946 0.63087094
0.046667147 2.9802322e-08 0.62975335
0.046347674 -0.0013242066 0.6286515
0.046032414 -0.0026304126 0.62756419
0.045721538 -0.0039190054 0.62649202
0.045414712 -0.0051902831 0.62543386
0.045112103 -0.0064445734 0.62439013
0.044813372 -0.0076822937 0.62335992
0.044518694 -0.0089037418 0.6223436
0.044227749 -0.010109186 0.62134016
0.043940697 -0.011299014 0.62035012
0.043657232 -0.012473494 0.61937249
0.043377515 -0.013632953 0.61840779
0.043101244 -0.014777571 0.61745501
0.042828586 -0.015907764 0.61651462
0.042559247 -0.017023683 0.61558574
0.042293377 -0.018125713 0.61466873
0.042030707 -0.019214034 0.61376286
0.041771382 -0.020288974 0.61286843
0.041515134 -0.021350592 0.61198467
0.041262113 -0.022399455 0.61111212
0.041012056 -0.023435473 0.61024964
0.040765114 -0.024459064 0.60939789
0.040521022 -0.025470346 0.60855615
0.04068229 -0.026734054 0.60911232
0.041177467 -0.028235972 0.61082011
0.041684739 -0.029774785 0.61256957
0.042204775 -0.031352103 0.61436319
0.042737838 -0.032969177 0.61620164
0.043284655 -0.034627706 0.61808753
0.043845527 -0.03632915 0.62002194
0.044421248 -0.038075328 0.62200755
0.045012161 -0.039867938 0.62404555
0.045619141 -0.041708946 0.62613893
0.046242584 -0.043600142 0.62828904
0.0468833 -0.045543775 0.63049883
0.047542151 -0.047542155 0.63277113
0.048219651 -0.049597383 0.63510782
0.048916884 -0.05171217 0.63751245
0.049634427 -0.053888813 0.63998717
0.050373487 -0.056130469 0.64253604
0.051134732 -0.058439702 0.64516151
0.051919498 -0.060819969 0.6478681
0.05272856 -0.063274264 0.65065843
0.053563412 -0.065806478 0.65353775
0.054424945 -0.068419918 0.65650904
0.055314828 -0.071119085 0.65957814
0.05623411 -0.073907688 0.66274858
0.066593058 0.075842112 0.69209558
0.065962262 0.073291421 0.68998051
0.065343052 0.070788324 0.68790424
0.064735614 0.068332016 0.68586743
0.064139113 0.06592074 0.68386734
0.063553751 0.063553721 0.68190461
0.062978737 0.061229318 0.67997646
0.062414266 0.058946788 0.67808378
0.0618596 0.05670464 0.67622399
0.061314926 0.05450213 0.67439765
0.060779542 0.052337945 0.67260242
0.060253642 0.05021137 0.67083907
0.059736554 0.048121125 0.66910523
0.059228472 0.046066582 0.66740155
0.058728758 0.044046551 0.66572607
0.058237601 0.042060465 0.66407913
0.057754595 0.040107369 0.66245955
0.057279337 0.038186222 0.66086602
0.056812033 0.036296576 0.65929914
0.056352101 0.034437388 0.65775692
0.05589956 0.032608062 0.65623957
0.055454407 0.030808032 0.65474689
0.05501629 0.029036373 0.65327781
0.054584868 0.02729243 0.65183127
0.054160327 0.025575727 0.65040773
0.053742174 0.023885429 0.64900565
0.053330589 0.022221059 0.64762557
0.052925102 0.02058199 0.64626592
0.052525893 0.018967688 0.64492738
0.052132502 0.017377526 0.64360827
0.051745124 0.015810996 0.64230937
0.051363297 0.014267594 0.64102912
0.050987221 0.012746811 0.63976806
0.050616458 0.011248082 0.63852489
0.050251201 0.0097710788 0.63730013
0.049891025 0.0083151758 0.63609242
0.049536124 0.0068800151 0.63490248
0.049186096 0.0054651499 0.63372874
0.048841115 0.0040701032 0.632572
0.048500806 0.0026944876 0.63143098
0.04816534 0.0013379157 0.63030612
0.047834352 -0 0.62919623
0.047508009 -0.001319617 0.628102
0.047185961 -0.0026214421 0.62702221
0.046868376 -0.0039057136 0.62595731
0.046554916 -0.0051727593 0.62490618
0.046245743 -0.0064229965 0.62386954
0.04594053 -0.0076567829 0.62284613
0.045639433 -0.0088742971 0.62183654
0.04534214 -0.010076016 0.62083972
0.045048818 -0.011262208 0.61985618
0.044759147 -0.012433052 0.61888486
0.04447329 -0.013589025 0.61792636
0.044190951 -0.014730334 0.61697972
0.043912284 -0.01585719 0.6160453
0.043637 -0.016969919 0.6151222
0.043365255 -0.01806885 0.61421102
0.043096766 -0.019154102 0.61331081
0.042831685 -0.020226061 0.61242193
0.042569745 -0.021284878 0.61154366
0.042311091 -0.022330821 0.61067635
0.042055458 -0.023364156 0.60981923
0.041802995 -0.024385065 0.60897267
0.041553449 -0.025393754 0.60813594
0.041657947 -0.026614815 0.60848629
0.042162605 -0.028108388 0.61017847
0.042679746 -0.029638737 0.61191249
0.04320962 -0.031206936 0.61368918
0.043752931 -0.032814682 0.61551094
0.044309966 -0.034463316 0.61737871
0.044881362 -0.036154419 0.61929464
0.045467809 -0.037889838 0.62126106
0.046069659 -0.039671093 0.62327915
0.046687793 -0.041500241 0.62535173
0.047322601 -0.043379053 0.62748033
0.047975045 -0.045309752 0.629668
0.048645593 -0.047294304 0.6319164
0.049335297 -0.049335271 0.634229
0.050044689 -0.051434785 0.63660765
0.050774932 -0.053595781 0.63905627
0.051526643 -0.055820554 0.64157677
0.052301113 -0.058112323 0.64417362
0.053099051 -0.060473904 0.64684916
0.053921711 -0.062908649 0.64960766
0.054770444 -0.06542021 0.65245342
0.055646136 -0.068011969 0.65538979
0.056550477 -0.070688099 0.65842211
0.0574845 -0.073452413 0.66155386
0.068114907 0.075478673 0.69102567
0.067472495 0.07294327 0.6889298
0.066842347 0.070455432 0.68687403
0.066223614 0.068013459 0.68485534
0.065616228 0.06561625 0.68287379
0.065020122 0.06326282 0.68092906
0.064434752 0.060951769 0.67901927
0.063859589 0.058681786 0.67714286
0.063294835 0.056452155 0.67530042
0.06273976 0.054261446 0.67348945
0.062194552 0.052108943 0.67171085
0.061658528 0.049993396 0.66996205
0.061131869 0.047914147 0.66824389
0.060613927 0.045870006 0.66655409
0.060104895 0.043860376 0.66489339
0.059604134 0.041884005 0.66325969
0.059111852 0.039940417 0.66165364
0.058627442 0.038028628 0.66007328
0.058151092 0.036147982 0.65851921
0.057682231 0.034297556 0.65698957
0.057221059 0.032476872 0.65548503
0.056767024 0.030684888 0.65400374
0.05632031 0.028921217 0.65254641
0.055880401 0.027185053 0.65111119
0.055447482 0.02547586 0.64969879
0.055021048 0.023792893 0.64830756
0.054601293 0.022135675 0.64693815
0.054187723 0.020503461 0.64558887
0.053780541 0.018895864 0.64426053
0.053379267 0.017312199 0.64295137
0.0529841 0.015752017 0.64166212
0.05259458 0.014214784 0.64039135
0.052210901 0.012699991 0.63913965
0.051832628 0.011207044 0.63790548
0.051459949 0.0097356737 0.63668966
0.051092438 0.008285284 0.63549072
0.050730288 0.0068554282 0.63430917
0.050373092 0.0054457784 0.63314378
0.050021034 0.0040557981 0.63199526
0.049673721 0.0026850402 0.63086224
0.049331333 0.0013332963 0.62974513
0.048993502 -2.9802322e-08 0.62864304
0.048660398 -0.0013151467 0.62755626
0.048331659 -0.0026125014 0.6264838
0.048007466 -0.0038924813 0.62542605
0.047687463 -0.0051553547 0.62438208
0.047371827 -0.0064015985 0.62335241
0.04706021 -0.0076313615 0.62233573
0.046752799 -0.0088451207 0.62133276
0.046449251 -0.010043085 0.62034249
0.046149742 -0.011225581 0.61936533
0.045853943 -0.012392968 0.61840039
0.04556204 -0.013545483 0.61744803
0.045273706 -0.014683366 0.61650741
0.04498912 -0.015806973 0.61557895
0.044707973 -0.016916513 0.61466163
0.044430427 -0.018012315 0.61375618
0.044156201 -0.019094557 0.61286157
0.043885443 -0.020163596 0.61197817
0.043617882 -0.021219522 0.61110532
0.043353669 -0.022262692 0.61024332
0.04309253 -0.023293257 0.60939133
0.042834621 -0.024311543 0.60854995
0.042579681 -0.025317639 0.60771823
0.042624835 -0.0264965 0.60786551
0.043138884 -0.027981997 0.60954261
0.043665592 -0.029503793 0.61126095
0.044205207 -0.031063139 0.61302149
0.044758443 -0.032661557 0.61482632
0.045325581 -0.034300447 0.61667663
0.045907401 -0.035981476 0.61857474
0.046504226 -0.037706137 0.62052184
0.047116898 -0.039476335 0.62252069
0.047745802 -0.041293666 0.62457246
0.048391856 -0.04316029 0.6266802
0.049055494 -0.045078024 0.62884527
0.049737588 -0.047049075 0.63107061
0.050439067 -0.049075842 0.63335907
0.051160462 -0.05116044 0.63571256
0.051902946 -0.053305686 0.6381349
0.052667141 -0.055514038 0.6406281
0.053454336 -0.057788476 0.64319623
0.054265253 -0.060131758 0.64584184
0.055101324 -0.06254746 0.64856946
0.055963386 -0.065038532 0.65138191
0.056853037 -0.067609042 0.65428442
0.057771239 -0.070262313 0.65727997
0.058719583 -0.073002696 0.66037381
0.069621973 0.075118452 0.68996507
0.06896846 0.072598368 0.6878891
0.068327352 0.070125461 0.68585253
0.067697808 0.067697853 0.68385273
0.067079999 0.06531477 0.68189025
0.066473126 0.062974572 0.67996246
0.065877378 0.060676545 0.67806995
0.065291971 0.058419138 0.6762104
0.064717107 0.056201696 0.6743843
0.064152062 0.054022789 0.67258936
0.063597009 0.05188179 0.6708262
0.063051261 0.049777329 0.66909254
0.06251502 0.047708839 0.66738915
0.061987609 0.045675069 0.66571379
0.061469235 0.043675512 0.66406709
0.060959253 0.041708976 0.66244704
0.060457863 0.039774925 0.66085434
0.059964452 0.037872314 0.65928704
0.059479229 0.036000609 0.6577456
0.059001602 0.034158826 0.65622842
0.058531776 0.032346517 0.65473598
0.058069184 0.030562729 0.65326649
0.057614036 0.028807014 0.65182066
0.057165779 0.027078569 0.6503967
0.056724623 0.025376827 0.64899534
0.056290049 0.023701072 0.64761496
0.055862255 0.022050887 0.64625597
0.05544075 0.020425528 0.64491701
0.055025719 0.018824607 0.64359868
0.054616693 0.017247349 0.64229935
0.054213867 0.015693516 0.6410197
0.053816777 0.014162332 0.63975829
0.053425621 0.01265347 0.63851577
0.053039957 0.011166334 0.63729072
0.05265997 0.0097005367 0.6360836
0.052285239 0.0082555413 0.6348933
0.051915955 0.0068310499 0.63372016
0.051551696 0.0054264963 0.63256311
0.051192667 0.0040415227 0.63142258
0.050838459 0.0026757121 0.63029742
0.050489258 0.0013287067 0.62918818
0.050144684 2.9802322e-08 0.62809354
0.049804915 -0.0013106465 0.62701422
0.04946959 -0.0026036501 0.62594903
0.049138881 -0.0038793683 0.62489849
0.04881243 -0.0051380992 0.62386149
0.04849042 -0.0063803196 0.62283868
0.048172504 -0.0076062083 0.62182868
0.047858853 -0.0088160932 0.62083244
0.04754914 -0.010010332 0.61984849
0.047243528 -0.011189252 0.61887777
0.046941698 -0.012353092 0.61791897
0.04664382 -0.013502151 0.61697274
0.046349585 -0.014636725 0.61603808
0.046059154 -0.015757084 0.61511552
0.04577234 -0.016863495 0.61420441
0.045488957 -0.017956167 0.6133042
0.045209181 -0.019035459 0.61241543
0.044932704 -0.020101458 0.61153722
0.044659596 -0.021154583 0.61066967
0.044389896 -0.022194952 0.60981292
0.044123437 -0.023222893 0.60896653
0.043860044 -0.024238437 0.60812986
0.043599889 -0.025242031 0.60730338
0.04358317 -0.026379317 0.60725027
0.044106528 -0.027856767 0.60891283
0.044642497 -0.02937007 0.61061537
0.045191772 -0.030920684 0.61236018
0.045754611 -0.032509863 0.61414808
0.046331644 -0.034139127 0.6159811
0.046923544 -0.035810083 0.61786127
0.047530636 -0.037524164 0.61978978
0.048153773 -0.039283335 0.62176925
0.048793335 -0.041089103 0.62380087
0.049450245 -0.042943642 0.62588763
0.050124951 -0.044848636 0.6280309
0.050818458 -0.04680647 0.63023388
0.051531285 -0.04881911 0.6324982
0.052264545 -0.050889164 0.63482749
0.053018816 -0.053018838 0.63722348
0.053795334 -0.055210993 0.63969022
0.054594778 -0.057468176 0.64222974
0.055418335 -0.059793487 0.64484584
0.056267295 -0.06219016 0.64754266
0.057142496 -0.064661235 0.65032274
0.058045533 -0.067210615 0.65319139
0.05897738 -0.069841623 0.65615153
0.059939835 -0.072558731 0.65920877
0.071114719 0.074761629 0.68891454
0.070450336 0.072256774 0.68685818
0.069798514 0.069798559 0.68484068
0.069158375 0.067385107 0.68285936
0.068530135 0.065015793 0.68091488
0.067912951 0.062688857 0.67900461
0.067307033 0.060403764 0.67712915
0.06671159 0.058158815 0.67528617
0.066126823 0.055953473 0.67347622
0.065551989 0.053786278 0.67169708
0.064987294 0.051656574 0.66994923
0.064432018 0.04956311 0.66823059
0.063886374 0.04750526 0.6665417
0.063349672 0.045481831 0.66488051
0.062822126 0.043492258 0.66324776
0.062303085 0.041535378 0.66164124
0.061792761 0.039610803 0.66006172
0.061290517 0.037717253 0.65850717
0.060796581 0.035854399 0.65697843
0.060310345 0.034021199 0.65547341
0.05983201 0.032217234 0.65399289
0.059361018 0.030441552 0.65253514
0.058897574 0.028693736 0.65110064
0.058441125 0.02697286 0.64968789
0.05799187 0.025278509 0.64829743
0.057549294 0.023609966 0.6469276
0.057113606 0.021966755 0.64557904
0.056684285 0.020348191 0.64425027
0.056261539 0.018753856 0.64294183
0.055844888 0.017183036 0.64165217
0.055434525 0.015635401 0.64038205
0.055029992 0.014110267 0.63912994
0.054631479 0.012607276 0.63789648
0.054238532 0.011125892 0.63668025
0.053851359 0.0096656382 0.63548189
0.05346952 0.0082260668 0.63430005
0.05309321 0.0068068504 0.63313532
0.052722011 0.005407393 0.63198638
0.052356109 0.0040273964 0.63085389
0.051995255 0.0026664138 0.62973702
0.051639196 0.0013240874 0.62863499
0.051288124 -0 0.62754834
0.050941646 -0.0013061762 0.62647593
0.050599825 -0.0025948584 0.62541795
0.050262697 -0.0038663447 0.62437451
0.049930032 -0.0051210225 0.62334484
0.049601607 -0.0063591599 0.62232834
0.049277607 -0.0075812042 0.62132549
0.048957679 -0.0087872744 0.62033528
0.048642006 -0.0099778771 0.61935818
0.048330255 -0.011153102 0.6183933
0.048022598 -0.012313485 0.61744106
0.047718711 -0.013459086 0.6165005
0.047418766 -0.014590383 0.61557209
0.047122449 -0.015707463 0.61465496
0.046829928 -0.016810745 0.61374956
0.046540905 -0.017900378 0.61285502
0.04625554 -0.018976599 0.61197174
0.045973539 -0.020039737 0.61109889
0.045695066 -0.021090031 0.610237
0.045419838 -0.022127599 0.60938513
0.045148019 -0.023152828 0.60854381
0.044879321 -0.02416575 0.60771215
0.044613909 -0.02516681 0.60689068
0.044533059 -0.026263058 0.60664046
0.04506544 -0.027732551 0.60828823
0.045610595 -0.029237568 0.60997558
0.04616921 -0.030779481 0.61170459
0.046741568 -0.03235954 0.6134761
0.047328413 -0.033979356 0.61529243
0.047930054 -0.035640299 0.6171546
0.04854732 -0.037344083 0.61906517
0.04918056 -0.039092243 0.62102509
0.049830668 -0.040886685 0.62303728
0.050498061 -0.042729139 0.625103
0.051183574 -0.044621542 0.62722468
0.051888097 -0.046566263 0.62940538
0.052612133 -0.048565045 0.63164634
