# .PCD v0.7 - Point Cloud Data file format
VERSION 0.7
FIELDS x y z
SIZE 4 4 4
TYPE F F F
COUNT 1 1 1
WIDTH 1356
HEIGHT 1
VIEWPOINT 0 0 0 1 0 0 0
POINTS 1356
DATA ascii
-0.0040804017 -0.0013600886 0.63298678
-0.0040658209 -0.002710551 0.63240016
-0.0040513435 -0.0040513277 0.63181758
-0.0040369574 -0.0053825974 0.63123876
-0.0040352223 -0.0067253709 0.6311689
-0.0041234358 -0.0082468688 0.63471836
-0.0042155925 -0.0098363459 0.63842642
-0.0043119625 -0.011498541 0.64230406
-0.0044128415 -0.013238519 0.64636314
-0.0045185541 -0.015061826 0.65061671
-0.0046294555 -0.016974658 0.65507901
-0.0047459374 -0.018983752 0.6597659
-0.0048684329 -0.021096557 0.66469473
-0.0049974192 -0.023321271 0.66988474
-0.0051334258 -0.025667131 0.67535722
-0.0052770623 -0.02814433 0.68113673
-0.005428948 -0.030764043 0.68724811
-0.0055898358 -0.033538967 0.69372177
-0.0057605505 -0.036483496 0.70059085
-0.005942021 -0.039613456 0.70789254
-0.006135297 -0.042947084 0.71566939
-0.0063415691 -0.046504825 0.7239691
-0.0065621934 -0.050310135 0.73284638
-0.0067987228 -0.054389805 0.74236363
-0.0070529403 -0.058774471 0.75259244
-0.0031783867 0.061978519 0.66063672
-0.0031651238 0.060137361 0.65983623
-0.0031519718 0.058311492 0.65904248
-0.0031389175 0.056500494 0.65825456
-0.0031259819 0.054704696 0.6574738
-0.003113152 0.05292359 0.65669948
-0.0031004171 0.051156908 0.65593082
-0.0030877958 0.04940477 0.65516907
-0.003075277 0.047666818 0.65441352
-0.0030628494 0.045942724 0.6536634
-0.0030505317 0.044232726 0.65292001
-0.0030383125 0.042536408 0.65218246
-0.0030261814 0.040853441 0.65145034
-0.0030141559 0.039184064 0.65072453
-0.0030022261 0.037527859 0.65000451
-0.0029903806 0.035884589 0.64928955
-0.0029786378 0.034254313 0.64858085
-0.002966987 0.032636881 0.64787757
-0.0029554174 0.031031907 0.64717937
-0.0029439467 0.029439509 0.646487
-0.0029325653 0.02785936 0.64580011
-0.0029212711 0.02629143 0.64511842
-0.002910055 0.024735481 0.64444149
-0.0028989331 0.023191482 0.64377022
-0.002887896 0.021659255 0.64310408
-0.0028769344 0.020138532 0.64244246
-0.0028660637 0.018629402 0.6417864
-0.0028552667 0.017131597 0.64113474
-0.002844559 0.015645087 0.64048845
-0.0028339312 0.014169633 0.63984704
-0.0028233828 0.012705237 0.63921034
-0.0028129043 0.011251599 0.63857794
-0.0028025114 0.0098087788 0.63795066
-0.0027921868 0.0083765686 0.63732749
-0.0027819464 0.0069548786 0.63670945
-0.0027717806 0.0055435598 0.63609588
-0.0027616809 0.0041425228 0.63548636
-0.0027516622 0.0027516782 0.63488162
-0.0027417163 0.0013708472 0.63428134
-0.0027318343 -0 0.63368487
-0.0027220307 -0.0013610423 0.63309324
-0.0027122973 -0.0027123094 0.63250577
-0.0027026257 -0.0040539205 0.63192201
-0.0026930305 -0.0053860843 0.63134289
-0.0026921099 -0.0067302585 0.63128734
-0.0027510056 -0.0082530081 0.63484204
-0.002812536 -0.0098438859 0.63855565
-0.0028768817 -0.011507541 0.64243931
-0.0029442403 -0.01324904 0.64650476
-0.0030148292 -0.015074164 0.65076518
-0.0030888957 -0.016988933 0.65523547
-0.003166683 -0.019000113 0.65993035
-0.0032484888 -0.021115154 0.66486776
-0.0033346335 -0.023342431 0.67006701
-0.0034254715 -0.025691032 0.67554963
-0.0035213975 -0.028171182 0.6813392
-0.0036228504 -0.030794203 0.68746251
-0.0037303225 -0.033572912 0.69394904
-0.0038443659 -0.036521465 0.70083213
-0.0039656023 -0.039655983 0.70814937
-0.0040947343 -0.042994678 0.71594322
-0.0042325598 -0.046558172 0.7242617
-0.0043800063 -0.050370097 0.73316097
-0.0045380746 -0.05445689 0.74270117
-0.0047079795 -0.058849722 0.75295585
-0.0015903966 0.062025487 0.66078198
-0.0015837554 0.060182661 0.6599803
-0.0015771639 0.058355063 0.65918463
-0.0015706324 0.056542784 0.65839624
-0.0015641549 0.054745406 0.65761429
-0.0015577254 0.052962691 0.65683818
-0.0015513535 0.051194668 0.6560691
-0.0015450337 0.049441069 0.65530616
-0.0015387652 0.047701716 0.65454948
-0.0015325422 0.045976281 0.65379828
-0.0015263743 0.044264853 0.65305376
-0.0015202509 0.042567044 0.6523146
-0.0015141816 0.040882885 0.651582
-0.0015081603 0.039212197 0.65085518
-0.0015021868 0.037554711 0.65013409
-0.0014962555 0.035910159 0.64941818
-0.0014903758 0.034278631 0.6487084
-0.001484542 0.032659918 0.64800417
-0.0014787491 0.031053752 0.64730495
-0.0014730059 0.029460132 0.64661163
-0.001467307 0.027878851 0.64592373
-0.0014616477 0.026309639 0.6452406
-0.0014560361 0.024752647 0.6445632
-0.0014504675 0.023207486 0.6438911
-0.0014449371 0.021674067 0.64322352
-0.0014394529 0.02015233 0.6425615
-0.0014340103 0.018642157 0.64190447
-0.0014286042 0.01714325 0.64125192
-0.0014232432 0.015655667 0.64060479
-0.0014179223 0.01417923 0.63996249
-0.0014126367 0.012713701 0.63932449
-0.0014073947 0.011259168 0.63869166
-0.0014021912 0.0098153651 0.63806361
-0.0013970222 0.0083821118 0.63743961
-0.0013918949 0.0069594383 0.63682073
-0.0013868054 0.0055471957 0.63620633
-0.0013817488 0.0041452348 0.63559598
-0.0013767331 0.0027534664 0.63499051
-0.0013717535 0.0013717711 0.6343894
-0.001366806 2.9802322e-08 0.63379216
-0.0013618979 -0.0013619065 0.63319975
-0.001357021 -0.0027140379 0.63261104
-0.0013521828 -0.0040565431 0.63202703
-0.0013473791 -0.0053895116 0.63144714
-0.001347041 -0.0067352355 0.63140637
-0.0013765325 -0.0082591772 0.63496625
-0.0014073442 -0.0098514259 0.63868564
-0.0014395671 -0.011516511 0.6425752
-0.0014732997 -0.013259709 0.6466471
-0.0015086514 -0.015086502 0.65091443
-0.0015457412 -0.017003149 0.65539157
-0.0015847007 -0.019016415 0.66009444
-0.0016256749 -0.02113378 0.66504043
-0.0016688242 -0.023363531 0.67024904
-0.0017143264 -0.025714904 0.67574167
-0.0017623863 -0.028198183 0.68154299
-0.0018132115 -0.030824572 0.6876781
-0.0018670552 -0.033606976 0.69417757
-0.0019241944 -0.036559701 0.70107496
-0.0019849415 -0.03969878 0.70840776
-0.0020496494 -0.04304266 0.71621871
-0.0021187181 -0.046611786 0.72455603
-0.0021926044 -0.05042991 0.73347485
-0.0022718299 -0.054523915 0.7430383
-0.0023569956 -0.058924884 0.75331867
0 0.062072486 0.66092753
0 0.060227901 0.66012394
0 0.058398932 0.65932775
0 0.056585073 0.6585381
0 0.054786235 0.65775502
0 0.05300197 0.65697777
0 0.051232547 0.65620744
0 0.049477458 0.65544349
0 0.047736555 0.65468514
0 0.046009839 0.65393341
0 0.044297069 0.65318775
0 0.04259786 0.65244758
0 0.04091242 0.65171391
0 0.03924036 0.65098596
0 0.037581444 0.65026331
0 0.03593576 0.64954686
0 0.03430301 0.64883614
0 0.032682925 0.64813042
0 0.031075597 0.64743072
0 0.029480785 0.6467365
0 0.027898222 0.646047
0 0.026327997 0.64536345
0 0.024769783 0.64468515
0 0.02322346 0.6440115
0 0.021688968 0.64334357
0 0.020166159 0.64268064
0 0.018654853 0.64202219
0 0.017154932 0.64136934
0 0.015666306 0.64072126
0 0.014188766 0.64007759
0 0.012722284 0.63943923
0 0.011266708 0.63880563
0 0.0098218918 0.63817614
0 0.0083877444 0.63755184
0 0.0069640875 0.63693213
0 0.0055508912 0.63631642
0 0.0041479766 0.63570577
0 0.0027552545 0.63509953
0 0.0013726652 0.63449717
0 2.9802322e-08 0.63389963
0 -0.0013627708 0.63330644
0 -0.0027157962 0.63271689
0 -0.0040591359 0.63213217
0 -0.0053929687 0.63155156
0 -0.0067401528 0.6315251
0 -0.0082653761 0.63509035
0 -0.0098589361 0.63881522
0 -0.011525482 0.64271086
0 -0.013270289 0.64678919
0 -0.01509884 0.65106344
0 -0.017017454 0.65554857
0 -0.019032806 0.66025943
0 -0.021152496 0.66521406
0 -0.02338475 0.67043197
0 -0.025738865 0.67593479
0 -0.028225124 0.6817463
0 -0.030854881 0.68789327
0 -0.033641011 0.69440579
0 -0.036597818 0.70131737
0 -0.039741546 0.70866573
0 -0.043090492 0.71649373
0 -0.046665341 0.72484988
0 -0.050489902 0.73378968
0 -0.054591388 0.74337757
0 -0.059000492 0.75368375
0.0015928089 0.062119544 0.66107321
0.0015861421 0.060273409 0.66026843
0.0015795364 0.058442861 0.65947104
0.0015729852 0.056627452 0.6586802
0.0015664829 0.054826915 0.65789533
0.0015600394 0.053041339 0.65711755
0.0015536487 0.051270425 0.65634608
0.0015473051 0.049513757 0.65558034
0.0015410181 0.047771573 0.65482146
0.001534782 0.046043456 0.65406871
0.0015285912 0.044329166 0.65332139
0.001522455 0.042628765 0.65258068
0.0015163679 0.040941924 0.65184593
0.0015103244 0.039268434 0.65111637
0.0015043339 0.037608355 0.65039331
0.0014983906 0.03596136 0.64967585
0.0014924894 0.034327239 0.64896351
0.0014866389 0.032706052 0.64825732
0.0014808344 0.031097531 0.64755666
0.0014750703 0.029501408 0.64686084
0.0014693555 0.027917773 0.64617103
0.0014636848 0.026346326 0.64548647
0.0014580531 0.024786919 0.64480674
0.0014524694 0.023239523 0.64413267
0.001446928 0.021703929 0.64346379
0.0014414244 0.020179957 0.64279938
0.0014359668 0.018667579 0.64214063
0.0014305505 0.017166615 0.64148682
0.0014251706 0.015676886 0.64083743
0.0014198351 0.014198333 0.6401934
0.0014145395 0.012730867 0.63955414
0.0014092792 0.011274219 0.63891917
0.0014040619 0.0098284483 0.63828933
0.0013988831 0.0083933175 0.63766426
0.0013937382 0.006968677 0.63704324
0.0013886351 0.0055544972 0.63642722
0.0013835692 0.0041507185 0.63581574
0.0013785362 0.0027571023 0.63520813
0.0013735439 0.0013735592 0.63460553
0.0013685873 2.9802322e-08 0.63400722
0.0013636624 -0.0013636649 0.63341272
0.0013587768 -0.0027175248 0.63282299
0.0013539263 -0.0040617287 0.63223743
0.0013491062 -0.0053964257 0.63165557
0.0013490138 -0.0067450702 0.63164449
0.0013785927 -0.008271575 0.63521498
0.0014094977 -0.0098664761 0.63894552
0.0014418202 -0.011534572 0.64284718
0.0014756599 -0.013280898 0.64693201
0.0015111262 -0.015111268 0.65121317
0.0015483394 -0.017031699 0.65570521
0.0015874316 -0.019049168 0.66042405
0.001628549 -0.021171093 0.66538733
0.001671853 -0.023405939 0.6706146
0.0017175229 -0.025762856 0.67612743
0.001765758 -0.028252125 0.68194997
0.0018167875 -0.030885369 0.68810976
0.0018708471 -0.033675224 0.69463527
0.0019282222 -0.036636233 0.70156109
0.001989228 -0.039784551 0.70892519
0.0020542201 -0.043138593 0.71677041
0.0021236027 -0.046719253 0.72514564
0.0021978358 -0.050550222 0.73410636
0.0022774467 -0.054658711 0.74371624
0.0023630417 -0.059076071 0.75404853
0.0031880247 0.062166512 0.6612184
0.0031746819 0.060318947 0.66041315
0.0031614499 0.058486789 0.65961456
0.0031483176 0.056669742 0.65882188
0.0031353042 0.054867864 0.65803647
0.0031223982 0.053080767 0.6572575
0.0031095876 0.051308244 0.65648431
0.0030968918 0.049550295 0.65571809
0.0030842994 0.04780665 0.65495807
0.0030717985 0.046076953 0.65420359
0.0030594091 0.044361442 0.65345579
0.0030471189 0.04265967 0.65271401
0.0030349174 0.040971428 0.6519776
0.0030228228 0.039296687 0.65124762
0.0030108241 0.037635297 0.65052342
0.0029989204 0.035987079 0.64980501
0.0029871012 0.034351647 0.6490916
0.0029753838 0.032729208 0.64838445
0.0029637583 0.031119466 0.64768279
0.0029522139 0.029522181 0.64698601
0.0029407684 0.027937323 0.64629519
0.0029294111 0.026364714 0.64560974
0.0029181323 0.024804145 0.64492899
0.0029069488 0.023255587 0.64425403
0.0028958509 0.021718889 0.64358413
0.0028848287 0.020193815 0.64291894
0.0028738985 0.018680334 0.64225924
0.0028630423 0.017178237 0.64160401
0.0028522764 0.015687525 0.64095426
0.0028415911 0.014207929 0.64030933
0.0028309859 0.01273945 0.63966924
0.0028204506 0.011281818 0.63903338
0.0028100021 0.0098350048 0.6384027
0.0027996222 0.0083988905 0.63777632
0.0027893274 0.0069733262 0.63715494
0.0027791078 0.0055582225 0.63653815
0.0027689545 0.0041534305 0.63592529
0.0027588834 0.0027589202 0.63531744
0.0027488852 0.0013744235 0.63471407
0.0027389512 -0 0.6341145
0.0027290969 -0.0013645291 0.63351965
0.0027193131 -0.0027192831 0.63292921
0.0027095913 -0.0040643811 0.6323424
0.0026999468 -0.0053998828 0.6317603
0.0027000005 -0.0067500174 0.63176358
0.0027592459 -0.0082777143 0.63533938
0.0028211495 -0.009874016 0.63907552
0.0028858946 -0.011543572 0.64298326
0.0029536809 -0.013291568 0.64707458
0.0030247285 -0.015123636 0.65136266
0.0030992783 -0.017046005 0.65586215
0.0031776065 -0.019065619 0.66058964
0.003259985 -0.021189898 0.66556162
0.0033467489 -0.023427218 0.6707983
0.0034382571 -0.025786936 0.67632139
0.0035349105 -0.028279275 0.68215483
0.0036371548 -0.030915827 0.68832582
0.00374549 -0.033709407 0.69486451
0.0038604769 -0.036674529 0.70180446
0.0039827479 -0.039827466 0.70918417
0.0041130176 -0.043186665 0.71704668
0.0042520971 -0.046773046 0.72544086
0.0044009113 -0.050610453 0.73442256
0.0045605199 -0.054726243 0.74405581
0.004732165 -0.059152067 0.75441551
0.0047856695 0.062213719 0.66136461
0.0047656246 0.060364604 0.66055804
0.0047457311 0.058530658 0.65975761
0.0047260188 0.05671224 0.6589644
0.0047064698 0.054908812 0.65817785
0.0046870816 0.053120255 0.65739769
0.0046678367 0.051346213 0.65662336
0.0046487651 0.049586833 0.65585595
0.0046298485 0.047841817 0.6550948
0.0046110703 0.046110719 0.65433919
0.0045924583 0.044393778 0.65359038
0.0045739962 0.042690635 0.65284753
0.0045556673 0.041001022 0.65210998
0.0045374995 0.039324999 0.65137899
0.0045194756 0.037662327 0.65065372
0.0045015807 0.03601262 0.6499337
0.0044838404 0.034376115 0.64921993
0.0044662394 0.032752424 0.64851165
0.0044487622 0.031141341 0.64780849
0.0044314358 0.029542893 0.64711136
0.0044142427 0.027956873 0.64641953
0.0043971697 0.026383013 0.64573258
0.0043802415 0.024821371 0.64505142
0.0043634432 0.02327168 0.64437556
0.0043467595 0.02173382 0.64370424
0.0043302164 0.020207673 0.64303863
0.0043137991 0.018693149 0.64237797
0.0042974926 0.01718998 0.64172184
0.004281322 0.015698165 0.6410712
0.0042652721 0.014217556 0.64042544
0.0042493297 0.012748003 0.63978398
0.0042335186 0.011289388 0.63914776
0.0042178249 0.0098415911 0.63851631
0.0042022346 0.0084044635 0.63788897
0.0041867713 0.0069779456 0.63726681
0.0041714218 0.005561918 0.63664913
0.0041561718 0.0041561723 0.63603556
0.0041410453 0.0027607083 0.63542688
0.0041260282 0.0013753474 0.63482267
0.0041111079 2.9802322e-08 0.63422233
0.0040963064 -0.0013654232 0.63362676
0.0040815999 -0.0027210712 0.633035
0.0040670102 -0.0040670037 0.63244802
0.0040525249 -0.0054033697 0.63186514
0.004052965 -0.0067549348 0.63188285
0.0041419766 -0.0082839429 0.63546437
0.0042349733 -0.009881556 0.63920629
0.0043322411 -0.011552632 0.64312005
0.0044340827 -0.013302237 0.64721781
0.0045408276 -0.015136123 0.65151292
0.0046528387 -0.017060429 0.65601987
0.004770516 -0.019082069 0.66075486
0.0048942994 -0.021208614 0.66573554
0.0050246781 -0.023448497 0.67098165
0.0051621934 -0.025810957 0.67651474
0.0053074472 -0.028306395 0.68235934
0.0054611126 -0.030946314 0.68854237
0.0056239408 -0.03374365 0.69509399
0.0057968004 -0.036713064 0.70204937
0.0059805992 -0.03987062 0.70944482
0.0061764335 -0.043235004 0.71732461
0.0063855285 -0.046827227 0.72573793
0.0066092759 -0.05067113 0.73474085
0.0068492736 -0.054794192 0.74439758
0.007107358 -0.059227943 0.75478214
0.0063857432 0.062261045 0.66151094
0.006358976 0.060410291 0.66070318
0.006332411 0.058574766 0.6599015
0.0063060885 0.056754798 0.65910715
0.006279984 0.05494988 0.65831935
0.0062540737 0.053159654 0.65753752
0.0062283967 0.05138427 0.6567626
0.0062029297 0.04962346 0.65599412
0.0061776503 0.047876775 0.65523124
0.0061525963 0.046144485 0.65447515
0.0061277444 0.044426143 0.65372521
0.0061030723 0.04272154 0.65298063
0.0060786181 0.041030705 0.65224266
0.006054359 0.039353341 0.6515106
0.0060302741 0.037689239 0.65078378
0.0060063987 0.036038369 0.65006322
0.0059827114 0.034400582 0.64934838
0.0059591914 0.032775581 0.64863867
0.0059358743 0.031163335 0.64793497
0.0059127393 0.029563695 0.64723682
0.005889765 0.027976394 0.6465435
0.0058669872 0.02640146 0.64585614
0.0058443849 0.024838656 0.64517403
0.0058219382 0.023287773 0.64449662
0.0057996809 0.021748811 0.64382493
0.0057775932 0.020221591 0.64315844
0.005755655 0.018705904 0.64249635
0.0057339012 0.017201692 0.64183992
0.0057123108 0.015708864 0.64118832
0.0056908648 0.014227152 0.64054114
0.0056695966 0.012756586 0.63989937
0.0056484868 0.011297017 0.63926226
0.0056275171 0.0098481476 0.63862944
0.0056067188 0.0084100962 0.63800186
0.0055860733 0.0069826245 0.63737881
0.0055655632 0.0055655539 0.63675988
0.0055452199 0.0041589439 0.63614595
0.0055250246 0.0027624965 0.63553649
0.0055049597 0.0013762414 0.63493097
0.005485056 -0 0.63433027
0.0054652956 -0.0013662875 0.63373399
0.0054456615 -0.0027228594 0.63314146
0.0054261829 -0.0040696263 0.63255364
0.005406844 -0.0054068565 0.63197005
0.0054079271 -0.0067599118 0.63200277
0.0055267694 -0.008290112 0.63558912
0.0056509525 -0.0098891258 0.63933665
0.005780844 -0.011561692 0.64325655
0.0059168483 -0.013312936 0.6473608
0.0060594049 -0.01514852 0.65166283
0.0062090019 -0.017074764 0.65617734
0.0063661714 -0.01909849 0.66092038
0.0065315277 -0.021227479 0.66591042
0.006705679 -0.023469895 0.67116594
0.0068893717 -0.025835156 0.67670929
0.0070834113 -0.028333664 0.68256503
0.0072886986 -0.030976981 0.68876004
0.0075062402 -0.033778071 0.69532502
0.0077371662 -0.036751509 0.70229375
0.0079827532 -0.039913803 0.709705
0.0082444409 -0.043283314 0.71760213
0.0085238665 -0.046881229 0.72603452
0.0088228984 -0.050731629 0.73505861
0.0091436747 -0.054862022 0.74473894
0.0094887018 -0.059304357 0.75515103
0.0079882499 0.062308341 0.66165757
0.0079547139 0.060455829 0.6608479
0.0079214843 0.058619022 0.66004568
0.0078885322 0.056797445 0.65925014
0.0078558261 0.054990828 0.6584605
0.007823416 0.053199232 0.65767813
0.0077912724 0.051422387 0.65690207
0.0077593662 0.049659938 0.65613174
0.0077277455 0.047912002 0.65536839
0.0076963813 0.046178311 0.65461123
0.0076652463 0.044458419 0.65385956
0.0076343869 0.042752564 0.65311456
0.0076037748 0.041060358 0.65237546
0.0075733825 0.039381623 0.65164179
0.007543257 0.037716299 0.65091443
0.0075133699 0.036064208 0.65019292
0.0074837189 0.034425139 0.64947706
0.0074542766 0.032798856 0.64876628
0.0074250894 0.031185389 0.64806163
0.0073961061 0.029584438 0.64736193
0.0073673716 0.027996004 0.6466682
0.0073388591 0.026419908 0.64597988
0.0073105441 0.024855882 0.64529628
0.0072824694 0.023303926 0.64461851
0.0072546094 0.021763831 0.64394593
0.0072269393 0.020235449 0.64327788
0.0071995016 0.01871869 0.64261544
0.0071722716 0.017213464 0.64195806
0.0071452246 0.015719503 0.64130509
0.007118403 0.014236808 0.6406576
0.0070917821 0.012765199 0.64001489
0.0070653376 0.011304557 0.63937646
0.0070391111 0.0098547637 0.63874328
0.0070130788 0.008415699 0.63811481
0.0069872173 0.0069872439 0.63749045
0.0069615664 0.0055692494 0.63687122
0.0069361031 0.0041617155 0.63625646
0.0069108051 0.0027643442 0.63564575
0.0068857111 0.0013771653 0.63503987
0.0068607992 -0 0.63443846
0.0068360465 -0.0013671815 0.63384086
0.0068114917 -0.0027246177 0.63324809
0.0067871129 -0.0040722489 0.63265949
0.0067628878 -0.0054103434 0.63207471
0.0067648632 -0.0067648888 0.6321224
0.0069136368 -0.0082963705 0.63571405
0.0070691216 -0.0098967552 0.63946784
0.0072317389 -0.011570752 0.64339375
0.0074020145 -0.013323635 0.64750457
0.007580502 -0.015161008 0.65181363
0.00776781 -0.017089158 0.65633559
0.0079646083 -0.019115031 0.6610868
0.0081716385 -0.021246254 0.66608489
0.0083897179 -0.023491204 0.67134982
0.0086197574 -0.025859267 0.67690343
0.0088627664 -0.028360844 0.68277019
0.0091198757 -0.031007588 0.68897748
0.009392349 -0.033812433 0.69555545
0.009681643 -0.036790222 0.70253968
0.009989283 -0.039957166 0.70996678
0.010317115 -0.043331861 0.71788132
0.010667196 -0.046935648 0.72633296
0.011041868 -0.050792575 0.73537844
0.01144382 -0.054930329 0.74508238
0.01187614 -0.05938068 0.75551951
0.0095931655 0.062355578 0.66180372
0.0095528932 0.060501665 0.66099346
0.0095129572 0.058663249 0.66018999
0.0094733229 0.056839973 0.65939265
0.0094340481 0.055031955 0.65860254
0.0093950983 0.053238869 0.65781891
0.0093564689 0.051460564 0.65704179
0.0093181245 0.049696654 0.65627027
0.0092801237 0.047947317 0.65550584
0.0092424015 0.046212047 0.65474689
0.0092050144 0.044490904 0.65399468
0.0091679292 0.042783678 0.65324861
0.009131141 0.041090131 0.6525085
0.0090946183 0.039410025 0.65177369
0.009058415 0.037743419 0.65104538
0.0090224985 0.036090016 0.65032279
0.0089868382 0.034449577 0.64960533
0.0089514861 0.032822102 0.64889419
0.0089164115 0.031207472 0.64818841
0.0088815829 0.029605269 0.64748776
0.0088470522 0.028015703 0.64679307
0.0088127898 0.026438385 0.64610374
0.0087787649 0.024873167 0.64541924
0.0087450277 0.023320079 0.64474052
0.0087115495 0.021778882 0.64406693
0.0086782994 0.020249367 0.64339805
0.0086453287 0.018731534 0.64273471
0.0086126076 0.017225206 0.64207643
0.0085801082 0.015730202 0.64142251
0.0085478779 0.014246464 0.64077419
0.0085158888 0.012773812 0.64013058
0.008484113 0.011312157 0.63949132
0.0084525989 0.0098613799 0.63885725
0.0084213186 0.0084213316 0.63822794
0.0083902432 0.0069918633 0.63760275
0.008359421 0.0055729449 0.63698268
0.0083288252 0.0041644275 0.63636714
0.0082984278 0.0027661324 0.63575554
0.0082682753 0.0013780594 0.635149
0.0082383407 -0 0.63454676
0.0082085999 -0.0013681054 0.63394839
0.0081790956 -0.0027263761 0.63335484
0.0081497794 -0.0040749013 0.632765
0.0081206961 -0.0054138005 0.63217992
0.0081238132 -0.0067698359 0.63224262
0.0083026076 -0.0083025992 0.6358397
0.0084894486 -0.0099043846 0.63959861
0.0086848922 -0.011579841 0.64353061
0.0088895466 -0.013334334 0.64764798
0.0091040796 -0.015173465 0.65196407
0.0093292231 -0.017103583 0.65649366
0.0095657846 -0.019131571 0.66125286
0.0098146889 -0.021265149 0.66626048
0.010076857 -0.023512632 0.67153478
0.010353415 -0.025883526 0.67709875
0.010645582 -0.028388202 0.68297666
0.010954718 -0.031038344 0.68919599
0.011282344 -0.033847034 0.69578737
0.011630172 -0.036828846 0.70278513
0.012000128 -0.040000379 0.71022803
0.012394393 -0.04338038 0.71816009
0.012815448 -0.046989977 0.72663093
0.013266113 -0.050853431 0.73569775
0.013749631 -0.054998487 0.74542534
0.014269801 -0.059457481 0.75589037
0.011200553 0.062403113 0.66195071
0.011153498 0.06054756 0.66113925
0.011106835 0.058707565 0.66033465
0.011060525 0.056882739 0.659536
0.011014637 0.055073172 0.65874475
0.010969126 0.053278625 0.65795994
0.010923954 0.051498681 0.65718102
0.01087919 0.04973343 0.65640903
0.01083479 0.047982633 0.6556434
0.010790716 0.046245933 0.65488333
0.010747034 0.044523418 0.6541301
0.010703704 0.042814821 0.6533829
0.010660689 0.041119784 0.65264112
0.010618051 0.039438516 0.65190583
0.010575753 0.03777054 0.65117645
0.010533758 0.036115736 0.65045226
0.010492127 0.034474134 0.64973438
0.010450824 0.032845467 0.6490221
0.010409813 0.031229466 0.64831489
0.010369155 0.029626161 0.64761376
0.010328813 0.028035372 0.64691818
0.010288752 0.026456803 0.6462273
0.010249032 0.024890512 0.64554238
0.010209617 0.023336291 0.64486265
0.010170474 0.021793872 0.64418763
0.01013166 0.020263314 0.64351833
0.010093141 0.018744409 0.64285415
0.010054884 0.017236948 0.64219439
0.010016946 0.015740931 0.64154017
0.0099792928 0.01425615 0.64089084
0.0099418927 0.012782484 0.64024591
0.0099048009 0.011319757 0.6396063
0.0098679848 0.009867996 0.63897145
0.0098314118 0.0084269047 0.63834077
0.0097951386 0.0069965422 0.63771522
0.0097591328 0.0055766702 0.63709432
0.0097233607 0.0041671693 0.63647747
0.0096878782 0.0027679801 0.63586557
0.0096526546 0.0013789535 0.6352582
0.0096176574 -0 0.6346547
0.0095829414 -0.0013689995 0.63405603
0.009548475 -0.0027281046 0.63346165
0.0095142284 -0.0040774941 0.63287109
0.0094802538 -0.0054172873 0.63228524
0.009484739 -0.0067748129 0.6323626
0.0096936412 -0.0083088279 0.63596499
0.0099119833 -0.0099119842 0.63973016
0.010140357 -0.011588961 0.64366829
0.010379501 -0.013345063 0.64779222
0.010630198 -0.015185982 0.65211535
0.010893305 -0.017118037 0.65665245
0.011169767 -0.019148171 0.66141987
0.011460627 -0.021283984 0.66643554
0.011767039 -0.02353406 0.67171943
0.012090286 -0.025907755 0.67729366
0.012431796 -0.028415501 0.68318272
0.012793157 -0.0310691 0.68941426
0.013176156 -0.033881545 0.69601876
0.013582796 -0.036867589 0.70303106
0.014015393 -0.04004398 0.71049094
0.014476389 -0.043429166 0.71844053
0.014968742 -0.047044605 0.7269308
0.015495765 -0.050914615 0.73601896
0.016061254 -0.055067122 0.74577051
0.016669577 -0.059534192 0.75626069
0.012756531 0.060593516 0.66128534
0.01270308 0.058751732 0.66047883
0.012650116 0.056925535 0.65967965
0.012597593 0.055114508 0.65888715
0.012545463 0.053318202 0.65810049
0.012493803 0.051536947 0.65732104
0.012442566 0.049770266 0.65654796
0.012391709 0.048017859 0.65578055
0.012341305 0.046279937 0.65502006
0.012291309 0.044555992 0.65426564
0.012241677 0.042845905 0.65351677
0.012192484 0.041149616 0.65277457
0.012143686 0.039466977 0.65203816
0.012095236 0.0377976 0.65130717
0.012047212 0.036141634 0.65058249
0.011999566 0.034498751 0.6498636
0.011952258 0.032868713 0.64914978
0.011905359 0.03125158 0.64844209
0.011858827 0.029647082 0.64774001
0.01181262 0.028054953 0.64704281
0.011766808 0.02647534 0.64635158
0.01172135 0.024907887 0.64566565
0.011676206 0.023352414 0.64498448
0.011631444 0.021808982 0.64430904
0.011587025 0.020277292 0.64363885
0.011542908 0.018757224 0.64297318
0.011499161 0.01724875 0.64231306
0.011455744 0.01575166 0.64165789
0.01141262 0.014265805 0.64100724
0.011369851 0.012791067 0.64036196
0.011327404 0.011327386 0.63972145
0.011285237 0.0098745823 0.63908517
0.011243418 0.0084325671 0.6384542
0.011201908 0.0070011616 0.63782781
0.011160669 0.0055803359 0.6372056
0.011119766 0.0041699409 0.63658845
0.011079161 0.0027698278 0.63597578
0.01103882 0.0013798475 0.63536704
0.010998804 -0 0.63476324
0.010959077 -0.0013698936 0.6341638
0.010919604 -0.0027298927 0.63356817
0.010880445 -0.0040801466 0.63297737
0.010841567 -0.0054207742 0.63239074
0.010847696 -0.0067798197 0.63248324
0.011086797 -0.0083151162 0.63609099
0.011336677 -0.0099195838 0.6398614
0.011598081 -0.011598021 0.64380562
0.011871823 -0.013355792 0.64793611
0.012158801 -0.015198529 0.65226626
0.012459995 -0.017132491 0.656811
0.012776491 -0.019164741 0.66158646
0.013109487 -0.021302909 0.66661102
0.013460351 -0.023555636 0.6719051
0.013830462 -0.025932103 0.67748964
0.014221502 -0.028442979 0.68339002
0.014635298 -0.031100005 0.68963373
0.015073896 -0.033916295 0.69625163
0.015539594 -0.03690654 0.70327854
0.016034983 -0.040087432 0.71075332
0.016563 -0.043477863 0.7187205
0.017126974 -0.047099173 0.72723019
0.017730709 -0.05097577 0.73633981
0.018378563 -0.055135667 0.74611521
0.019075554 -0.059611142 0.75663203
0.014361952 0.060639352 0.6614309
0.014301778 0.058796197 0.66062379
0.014242103 0.056968451 0.65982342
0.014182879 0.055155635 0.65902913
0.014124192 0.053358078 0.65824199
0.014065987 0.051575273 0.65746129
0.014008261 0.049807131 0.65668714
0.013950962 0.048053294 0.6559186
0.013894173 0.046313882 0.65515691
0.013837801 0.044588476 0.65440083
0.013781929 0.042877108 0.65365148
0.013726506 0.041179538 0.65290809
0.013671528 0.039495528 0.65217072
0.013616943 0.037824839 0.65143859
0.013562838 0.036167562 0.65071297
0.013509159 0.034523398 0.64999294
0.013455862 0.032892138 0.6492781
0.013403026 0.031273723 0.64856952
0.013350603 0.029668003 0.64786637
0.013298547 0.028074741 0.64716816
0.013246936 0.026493877 0.64647597
0.013195724 0.024925232 0.64578909
0.013144867 0.023368657 0.64510703
0.013094441 0.021824062 0.64443064
0.013044359 0.020291239 0.64375895
0.012994698 0.018770128 0.64309293
0.012945415 0.017260551 0.64243186
0.012896504 0.015762419 0.64177591
0.012847923 0.014275461 0.64112431
0.012799745 0.01279974 0.64047813
0.012751926 0.011335045 0.63983673
0.012704425 0.0098812282 0.63919961
0.012657316 0.0084382296 0.63856781
0.012610517 0.0070058703 0.63794011
0.012564098 0.0055840611 0.63731754
0.012518022 0.004172653 0.63669956
0.012472244 0.002771616 0.63608557
0.012426838 0.0013807714 0.63547653
0.012381759 -0 0.63487196
0.012336973 -0.0013707876 0.63427126
0.012292543 -0.0027317107 0.6336754
0.012248432 -0.0040828288 0.63308376
0.012204603 -0.0054242909 0.63249588
0.012212628 -0.0067847669 0.63260353
0.012482017 -0.0083213449 0.63621664
0.01276356 -0.009927243 0.63999283
0.013058136 -0.01160723 0.64394373
0.013366588 -0.01336658 0.64808077
0.013689966 -0.015211076 0.65241802
0.014029378 -0.017147034 0.65697026
0.014386049 -0.019181401 0.66175413
0.014761328 -0.021321923 0.66678745
0.01515671 -0.023577094 0.67209041
0.015573855 -0.025956422 0.67768532
0.016014611 -0.028470397 0.68359685
0.016481044 -0.03113088 0.68985277
0.016975461 -0.033950925 0.69648403
0.017500458 -0.036945403 0.70352542
0.018059043 -0.040131211 0.71101743
0.01865438 -0.043526888 0.71900225
0.019290306 -0.047154069 0.72753143
0.019971119 -0.051037312 0.73666275
0.020701747 -0.05520466 0.74646211
0.015969859 0.060685456 0.66157734
0.015902897 0.058840722 0.66076905
0.015836492 0.057011366 0.65996748
0.015770588 0.05519706 0.65917194
0.01570528 0.053397954 0.65838361
0.015640514 0.051613718 0.65760183
0.015576227 0.049843907 0.65682584
0.015512517 0.048088819 0.65605676
0.015449326 0.046348006 0.655294
0.015386598 0.04462114 0.65453678
0.015324427 0.04290837 0.65378636
0.015262757 0.041209459 0.6530419
0.015201531 0.039523989 0.65230286
0.015140845 0.037852108 0.65157026
0.01508064 0.03619355 0.65084356
0.015020864 0.034548014 0.65012199
0.014961609 0.032915533 0.64940667
0.014902818 0.031295925 0.64869702
0.014844441 0.029688895 0.64799237
0.014786566 0.0280945 0.64729381
0.014729139 0.026512444 0.64660054
0.014672114 0.024942607 0.64591217
0.014615571 0.023384929 0.6452297
0.014559464 0.021839201 0.64455241
0.014503741 0.020305246 0.64387977
0.014448486 0.018783003 0.6432128
0.014393653 0.017272383 0.64255089
0.014339189 0.015773118 0.64189345
0.014285179 0.014285207 0.64124149
0.014231576 0.012808412 0.64059442
0.014178329 0.011342674 0.63995171
0.014125523 0.0098878741 0.63931423
0.014073107 0.0084438622 0.63868159
0.014021039 0.0070105195 0.638053
0.013969394 0.0055877566 0.63742965
0.01391813 0.0041754842 0.63681078
0.013867199 0.0027734637 0.63619602
0.013816681 0.0013816655 0.6355862
0.013766528 -0 0.63498086
0.0137167 -0.0013716519 0.63437933
0.013667269 -0.0027334392 0.63378263
0.013618155 -0.0040854514 0.6331898
0.013569431 -0.0054277778 0.63260162
0.013579609 -0.0067898035 0.63272452
0.013879377 -0.0083276331 0.636343
0.014192679 -0.0099348724 0.64012492
0.014520453 -0.011616349 0.64408153
0.014863725 -0.013377368 0.64822519
0.015223619 -0.015223622 0.65256941
0.015601372 -0.017161518 0.65712935
0.015998352 -0.019198 0.66192132
0.01641606 -0.021340907 0.66696352
0.016856227 -0.023598701 0.67227679
0.017320585 -0.02598086 0.67788208
0.01781125 -0.028497994 0.68380493
0.018330527 -0.031161904 0.69007313
0.018880991 -0.033985794 0.69671786
0.01946554 -0.036984533 0.70377398
0.02008744 -0.040174901 0.71128094
0.020750389 -0.043575823 0.71928352
0.021458589 -0.047208875 0.7278322
0.02221684 -0.051098734 0.73698509
0.023030641 -0.055273503 0.74680853
0.017580213 0.060731649 0.66172403
0.017506441 0.058885306 0.66091454
0.017433228 0.057054192 0.66011107
0.017360682 0.055238545 0.65931499
0.017288737 0.053437918 0.65852547
0.017217331 0.051651955 0.6577419
0.017146567 0.049880952 0.65696532
0.017076381 0.048124373 0.65619516
0.017006714 0.04638195 0.65543067
0.016937668 0.044653863 0.65467298
0.016869178 0.042939723 0.65392137
0.016801188 0.041239321 0.65317523
0.016733797 0.039552629 0.65243578
0.016666945 0.037879407 0.65170217
0.016600572 0.036219448 0.6509738
0.016534775 0.03457275 0.65025175
0.016469501 0.032939017 0.64953542
0.016404688 0.031318069 0.64882421
0.016340435 0.029709876 0.64811909
0.016276682 0.028114259 0.64741951
0.016213374 0.026530981 0.64672482
0.016150607 0.024960011 0.64603603
0.016088324 0.023401201 0.64535254
0.016026471 0.021854281 0.64467376
0.015965139 0.020319283 0.64400077
0.015904278 0.018795997 0.64333284
0.015843827 0.017284185 0.64266956
0.015783884 0.015783906 0.6420117
0.015724393 0.014294922 0.64135885
0.0156653 0.012817055 0.64071041
0.015606698 0.011350334 0.64006734
0.015548532 0.0098945498 0.63942903
0.015490752 0.0084495246 0.63879496
0.015433446 0.0070152283 0.63816607
0.015376561 0.0055914819 0.63754189
0.01532005 0.0041781962 0.63692176
0.015263998 0.0027752817 0.63630658
0.015208353 0.0013825595 0.63569599
0.015153069 -0 0.63508934
0.01509823 -0.001372546 0.63448751
0.015043786 -0.0027352273 0.63389009
0.014989689 -0.0040881038 0.63329649
0.014936024 -0.0054312646 0.63270754
0.014948566 -0.0067948103 0.63284516
0.015278803 -0.0083338916 0.63646913
0.01562396 -0.0099425018 0.64025676
0.015985122 -0.011625499 0.64421999
0.016363325 -0.013388127 0.64837027
0.016759856 -0.015236229 0.6527217
0.017176084 -0.017176062 0.65728933
0.017613512 -0.01921472 0.66208947
0.018073803 -0.02135995 0.6671406
0.018558796 -0.023620248 0.6724627
0.019070536 -0.026005238 0.67807841
0.019611297 -0.028525531 0.68401259
0.020183621 -0.031192839 0.69029307
0.020790355 -0.034020573 0.69695121
0.021434696 -0.037023574 0.70402199
0.022120254 -0.040218651 0.71154511
0.022851214 -0.043625027 0.71956646
0.023632027 -0.047264069 0.72813487
0.024468089 -0.051160544 0.73730952
0.025365474 -0.055342853 0.74715722
0.01919302 0.060777903 0.66187096
0.019112354 0.058929741 0.66105956
0.019032428 0.057097316 0.66025555
0.018953169 0.055280089 0.65945828
0.018874502 0.053477734 0.65866697
0.018796548 0.051690519 0.65788281
0.018719237 0.049918026 0.65710509
0.018642498 0.048159808 0.65633315
0.018566446 0.046416104 0.65556812
0.018491011 0.044686615 0.65480936
0.018416127 0.042970985 0.65405607
0.018341908 0.041269332 0.65330946
0.018268283 0.039581269 0.65256888
0.018195247 0.037906796 0.65183413
0.018122735 0.036245495 0.65110481
0.018050857 0.034597516 0.65038168
0.01797949 0.032962412 0.64966387
0.017908739 0.031340271 0.64895219
0.017838545 0.029730886 0.64824605
0.017768843 0.028134018 0.64754486
0.017699737 0.026549637 0.64684975
0.017631169 0.024977505 0.64616001
0.017563075 0.023417413 0.64547503
0.01749556 0.021869451 0.64479589
0.01742856 0.02033332 0.64412189
0.017362019 0.018808872 0.64345253
0.017296037 0.017296046 0.64278883
0.017230554 0.015794665 0.64213014
0.017165514 0.014304578 0.64147592
0.017101014 0.012825757 0.64082706
0.017036999 0.011357993 0.64018309
0.016973406 0.009901166 0.63954341
0.016910341 0.0084551871 0.63890898
0.016847741 0.0070198774 0.63827932
0.016785553 0.0055951774 0.63765377
0.016723871 0.0041809976 0.63703322
0.016662642 0.0027770996 0.63641739
0.01660181 0.0013834834 0.63580543
0.01654147 2.9802322e-08 0.63519847
0.016481567 -0.0013734698 0.63459587
0.016422048 -0.0027370155 0.63399714
0.016363004 -0.0040907562 0.63340324
0.016304385 -0.0054347813 0.63281357
0.016319588 -0.0067998469 0.63296652
0.016680386 -0.0083401799 0.63659585
0.017057497 -0.0099501908 0.64038926
0.017452054 -0.011634707 0.64435828
0.017865296 -0.013398975 0.64851511
0.018298583 -0.015248805 0.65287369
0.018753409 -0.017190605 0.65744883
0.019231422 -0.019231409 0.66225731
0.019734442 -0.021378934 0.66731727
0.020264482 -0.023641884 0.67264909
0.020823855 -0.026029825 0.67827594
0.021414906 -0.028553188 0.68422145
0.02204049 -0.031224012 0.69051439
0.022703724 -0.034055561 0.69718587
0.023408113 -0.037062854 0.70427155
0.024157606 -0.040262699 0.71181089
0.024956685 -0.043674201 0.71984899
0.025810432 -0.047319114 0.72843701
0.026724663 -0.051222265 0.73763341
0.027706036 -0.055412024 0.74750531
0.020808212 0.060823977 0.66201746
0.020720763 0.058974475 0.66120547
0.020634046 0.05714047 0.66040027
0.020548051 0.055321693 0.65960175
0.020462701 0.053517818 0.65880924
0.020378128 0.051729083 0.65802395
0.020294247 0.0499551 0.65724504
0.020210989 0.048195451 0.65647197
0.020128477 0.046450317 0.65570581
0.020046636 0.044719398 0.65494591
0.019965393 0.043002427 0.65419149
0.019884871 0.041299373 0.65344381
0.019804996 0.039609998 0.65270215
0.019725695 0.037934035 0.65196586
0.019647092 0.036271542 0.65123594
0.01956911 0.034622282 0.65051186
0.019491686 0.032985926 0.64979291
0.01941493 0.031362593 0.64908028
0.019338779 0.029751956 0.64837313
0.019263159 0.028153867 0.64767098
0.019188194 0.026568234 0.64697486
0.019113805 0.024994999 0.64628416
0.019039935 0.023433745 0.64559823
0.01896669 0.02188465 0.64491814
0.018893948 0.020347327 0.6442427
0.018821821 0.018821806 0.64357293
0.018750241 0.017307907 0.64290828
0.018679205 0.015805453 0.64224869
0.018608648 0.014314353 0.64159358
0.018538678 0.01283446 0.64094388
0.018469233 0.011365682 0.64029902
0.01840025 0.0099078119 0.63965851
0.018331835 0.0084608495 0.63902318
0.018263873 0.0070245862 0.63839209
0.018196467 0.0055989325 0.63776624
0.018129557 0.0041837692 0.63714498
0.018063085 0.0027789474 0.63652778
0.017997151 0.0013843775 0.63591552
0.017931696 -2.9802322e-08 0.63530779
0.017866664 -0.0013743341 0.63470387
0.017802153 -0.0027387738 0.63410491
0.017738106 -0.0040934086 0.63351017
0.017674467 -0.005438298 0.63291925
0.017692588 -0.0068047941 0.63308752
0.018084036 -0.0083464682 0.63672233
0.018493194 -0.0099578798 0.64052153
0.018921299 -0.011643887 0.64449668
0.019369753 -0.013409793 0.64866072
0.019839918 -0.015261471 0.65302646
0.020333476 -0.017205238 0.65760934
0.020852216 -0.019248188 0.66242605
0.021398116 -0.021398127 0.66749501
0.021973368 -0.02366364 0.67283642
0.022580402 -0.026054293 0.678473
0.023221932 -0.028580815 0.68442988
0.023900978 -0.031255096 0.6907351
0.024620935 -0.034090519 0.6974203
0.025385613 -0.037102044 0.70452058
0.026199311 -0.040306628 0.71207619
0.027066901 -0.043723464 0.72013211
0.027994048 -0.047374517 0.72874105
0.028986827 -0.051284373 0.73795944
0.030052608 -0.055481762 0.74785572
0.022425937 0.060870379 0.66216487
0.022331618 0.059019268 0.66135162
0.022238087 0.057183653 0.66054517
0.022145262 0.055363178 0.65974486
0.022053285 0.053557992 0.65895176
0.021962067 0.051767707 0.65816528
0.021871528 0.049992055 0.65738463
0.021781804 0.048231155 0.65661103
0.021692812 0.04648459 0.65584373
0.021604478 0.044752151 0.65508205
0.021516928 0.043033868 0.65432721
0.021430084 0.041329443 0.6535784
0.02134387 0.039638609 0.65283501
0.021258416 0.037961453 0.65209824
0.021173643 0.036297679 0.65136731
0.021089476 0.034646988 0.65064162
0.02100604 0.033009499 0.64992219
0.020923264 0.031384915 0.64920849
0.020841073 0.029772967 0.64849985
0.020759588 0.028173745 0.64779729
0.02067874 0.02658695 0.64710015
0.020598453 0.025012374 0.64640796
0.020518852 0.023450106 0.64572155
0.020439863 0.021899879 0.64504051
0.020361418 0.020361423 0.64436418
0.020283636 0.0188348 0.64369351
0.020206444 0.017319828 0.6430279
0.020129777 0.015816271 0.64236689
0.02005375 0.014324099 0.64171141
0.019978294 0.012843221 0.64106083
0.019903347 0.011373311 0.6404146
0.019829016 0.0099145174 0.63977373
0.019755241 0.0084665418 0.63913757
0.019681953 0.007029295 0.6385057
0.019609265 0.005602628 0.63787895
0.019537112 0.004186511 0.63725686
0.019465432 0.0027807951 0.63663876
0.019394331 0.0013853312 0.63602579
0.019323748 -0 0.63541722
0.019253621 -0.001375258 0.63481247
0.019184057 -0.002740562 0.63421273
0.019114994 -0.0040960312 0.63361722
0.01904637 -0.0054418147 0.63302559
0.019067669 -0.0068098903 0.63320923
0.01948986 -0.0083527863 0.6368494
0.019931167 -0.0099655688 0.64065444
0.020392926 -0.011653095 0.64463586
0.020876585 -0.013420671 0.64880604
0.021383746 -0.015274078 0.65317881
0.021916158 -0.017219841 0.65776944
0.02247576 -0.019264936 0.66259444
0.023064692 -0.02141723 0.66767228
0.023685316 -0.023685306 0.67302346
0.024340352 -0.02607891 0.6786713
0.025032554 -0.02860862 0.68463957
0.025765277 -0.031286389 0.69095731
0.026542192 -0.034125656 0.69765598
0.027367417 -0.037141502 0.70477128
0.028245602 -0.040350884 0.7123431
0.029182013 -0.043773025 0.72041702
0.030182645 -0.04742986 0.72904468
0.031254333 -0.051346421 0.73828501
0.032404929 -0.055551291 0.7482056
0.024046129 0.060916871 0.66231239
0.023944916 0.05906415 0.66149795
0.023844473 0.057226747 0.66068971
0.023744952 0.055404931 0.65988868
0.023646252 0.053598195 0.65909445
0.023548298 0.051806271 0.65830612
0.023451224 0.050029278 0.657525
0.023354948 0.048266888 0.6567502
0.023259383 0.046518773 0.65598118
0.023164675 0.044785053 0.65521902
0.023070734 0.043065369 0.65446305
0.022977477 0.041359484 0.65371251
0.022885045 0.039667398 0.65296876
0.022793353 0.037988931 0.65223086
0.022702394 0.036323845 0.65149885
0.022612086 0.034671873 0.65077209
0.022522561 0.033033103 0.65005171
0.022433678 0.031407148 0.6493364
0.02234556 0.029794067 0.64862734
0.022258131 0.028193623 0.64792371
0.022171386 0.026605695 0.64722562
0.022085244 0.025029927 0.64653242
0.021999836 0.023466498 0.64584512
0.021915089 0.021915078 0.64516312
0.021830924 0.02037552 0.64448583
0.02174747 0.018847823 0.64381421
0.021664584 0.01733169 0.64314723
0.021582393 0.015827119 0.6424858
0.021500824 0.014333904 0.64182937
0.021419806 0.012851924 0.64117742
0.021339457 0.01138103 0.64053082
0.021259712 0.0099212229 0.63988906
0.021180497 0.0084722042 0.63925159
0.021101933 0.0070339739 0.63861936
0.021023948 0.0056063831 0.63799179
0.020946477 0.0041893125 0.63736832
0.020869635 0.002782613 0.63674998
0.020793354 0.0013862252 0.63613611
0.020717571 -0 0.63552624
0.020642396 -0.0013761818 0.63492131
0.020567765 -0.0027423799 0.63432074
0.020493614 -0.0040987134 0.63372397
0.020420052 -0.0054453313 0.63313198
0.02044473 -0.0068148971 0.63333058
0.020897754 -0.0083591044 0.63697624
0.021371305 -0.0099732578 0.64078712
0.021866819 -0.011662304 0.64477468
0.022385923 -0.013431519 0.64895213
0.022930201 -0.015286773 0.65333211
0.023501607 -0.017234504 0.65793043
0.024102218 -0.019281775 0.66276377
0.024734329 -0.021436423 0.66785061
0.025400495 -0.023707151 0.67321151
0.026103534 -0.026103556 0.67886913
0.026846599 -0.028636366 0.6848489
0.027633207 -0.031317592 0.69117904
0.028467299 -0.034160763 0.69789129
0.029353317 -0.037180841 0.70502138
0.030296257 -0.040394992 0.71260959
0.031301793 -0.043822497 0.72070146
0.032376509 -0.04748553 0.72935021
0.033527493 -0.051408798 0.73861253
0.034763325 -0.055621326 0.74855775
0.025668796 0.060963422 0.66246021
0.025560586 0.059108853 0.66164386
0.02545337 0.05727011 0.66083497
0.025347052 0.055446684 0.66003287
0.025241615 0.053638428 0.65923744
0.025136972 0.051845014 0.65844786
0.025033273 0.05006659 0.65766555
0.024930427 0.04830271 0.65688968
0.024828341 0.046553135 0.65611947
0.024727168 0.044817984 0.65535623
0.024626816 0.04309693 0.65459907
0.024527198 0.041389644 0.65384752
0.024428459 0.039696276 0.65310264
0.024330514 0.038016438 0.65236366
0.02423327 0.036349922 0.65163004
0.02413688 0.034696788 0.65090287
0.024041254 0.033056736 0.65018135
0.023946306 0.031429529 0.64946502
0.023852183 0.029815227 0.64875495
0.023758793 0.02821359 0.64805031
0.023666058 0.026624292 0.64735079
0.023574118 0.025047511 0.64665711
0.023482893 0.023482919 0.64596885
0.023392295 0.021930307 0.64528537
0.023302466 0.020389646 0.64460766
0.023213325 0.018860847 0.64393514
0.023124792 0.017343581 0.64326721
0.023037001 0.015837938 0.64260489
0.022949874 0.014343679 0.64194757
0.022863338 0.012860626 0.64129472
0.022777518 0.011388779 0.64064723
0.022692339 0.0099278986 0.64000463
0.022607729 0.0084778965 0.63936627
0.022523813 0.0070387125 0.63873315
0.022440454 0.0056101084 0.63810432
0.022357773 0.0041920543 0.6374805
0.022275699 0.0027844608 0.63686132
0.02219416 0.0013871491 0.63624614
0.022113284 -0 0.63563597
0.022032993 -0.0013770759 0.63503021
0.021953218 -0.0027441382 0.63442838
0.021874083 -0.0041013956 0.63383138
0.021795517 -0.0054488778 0.63323861
0.021823889 -0.0068199635 0.63345265
0.022307837 -0.0083654523 0.6371038
0.022813736 -0.0099809766 0.64092052
0.023343112 -0.011671543 0.64491427
0.02389764 -0.013442397 0.64909792
0.024479156 -0.015299439 0.65348506
0.025089677 -0.017249107 0.65809107
0.025731429 -0.019298583 0.66293275
0.026406877 -0.021455556 0.66802859
0.027118737 -0.023728907 0.67339921
0.027870042 -0.026128173 0.67906737
0.028664272 -0.028664291 0.68505937
0.029504979 -0.031349063 0.69140202
0.030396495 -0.034196049 0.69812799
0.031343561 -0.037220478 0.70527303
0.032351542 -0.040439427 0.71287763
0.033426512 -0.043872267 0.72098768
0.034575369 -0.047541142 0.72965515
0.035806015 -0.051471144 0.73893964
0.037127495 -0.055691242 0.74890947
0.027293943 0.061010003 0.66260827
0.027178796 0.059153885 0.66179067
0.027064707 0.057313502 0.66098052
0.026951572 0.055488527 0.66017723
0.026839288 0.053678572 0.65937996
0.026728025 0.051883847 0.65858984
0.026617682 0.050103873 0.6578064
0.026508158 0.048338413 0.65702868
0.026399618 0.046587586 0.65625799
0.026291963 0.044850975 0.65549362
0.026185097 0.043128401 0.65473473
0.026079182 0.041419894 0.65398264
0.025974119 0.039725125 0.65323669
0.025869818 0.038043857 0.6524961
0.025766432 0.036376148 0.65176195
0.025663869 0.034721702 0.65103376
0.025562039 0.03308031 0.65031064
0.025461094 0.031451941 0.64959383
0.025360944 0.029836416 0.64888275
0.025261499 0.028233439 0.64817661
0.025162909 0.026643068 0.64747661
0.025065085 0.025065064 0.64678192
0.024967941 0.02349925 0.64609218
0.024871627 0.021945536 0.64540827
0.024776049 0.020403802 0.64472961
0.02468113 0.018873841 0.64405566
0.024587009 0.017355531 0.64338732
0.024493605 0.015848786 0.64272416
0.024400834 0.014353395 0.64206541
0.024308834 0.012869418 0.64141214
0.024217527 0.011396497 0.64076376
0.024126831 0.0099345744 0.64011979
0.024036882 0.0084836185 0.63948107
0.023947604 0.0070434213 0.63884717
0.023858914 0.0056138933 0.63821739
0.023770949 0.0041948557 0.63759279
0.02368363 0.0027863383 0.63697278
0.023596881 0.001388073 0.63635677
0.023510836 -0 0.63574582
0.023425413 -0.00137797 0.63513935
0.023340544 -0.0027459562 0.63453662
0.023256354 -0.0041040182 0.63393885
0.023172699 -0.0054523945 0.63334489
0.023205029 -0.0068250299 0.63357443
0.023719994 -0.0083717406 0.63723099
0.024258332 -0.0099887252 0.6410535
0.024821674 -0.011680752 0.64505357
0.025411803 -0.013453275 0.64924389
0.026030676 -0.015312165 0.6536383
0.026680535 -0.017263889 0.65825266
0.027363576 -0.019315451 0.66310269
0.02808251 -0.021474838 0.66820759
0.028840242 -0.023750782 0.67358798
0.029639998 -0.026152939 0.67926675
0.030485375 -0.028692096 0.68526942
0.031380389 -0.031380385 0.69162458
0.032329548 -0.034231275 0.69836426
0.033337913 -0.037260026 0.70552427
0.034411207 -0.040483773 0.71314532
0.03555591 -0.043921977 0.72127342
0.036779556 -0.047597051 0.72996205
0.038090248 -0.051533878 0.73926878
0.039497808 -0.055761606 0.74926341
0.028921479 0.061056435 0.66275585
0.028799471 0.059198916 0.66193771
0.028678488 0.057356983 0.66112632
0.02855842 0.05553025 0.66032112
0.028439447 0.053718954 0.65952331
0.028321464 0.051922709 0.65873206
0.028204359 0.050141066 0.65794677
0.028088313 0.048374325 0.65716851
0.02797322 0.046622038 0.65639669
0.027858973 0.044883907 0.65563059
0.027745744 0.043160051 0.65487123
0.027633434 0.041450173 0.65411806
0.027521942 0.039753914 0.65337038
0.027411433 0.038071454 0.65262926
0.027301807 0.036402434 0.65189409
0.027192967 0.034746617 0.65116423
0.027085079 0.033104002 0.65044069
0.026978044 0.031474382 0.64972287
0.026871765 0.029857516 0.64901018
0.026766405 0.028253436 0.64830363
0.026661869 0.026661903 0.64760256
0.026558062 0.025082618 0.64690644
0.026455143 0.023515701 0.64621627
0.02635302 0.021960855 0.64553142
0.026251601 0.020417899 0.64485121
0.026151039 0.018886864 0.64417684
0.026051246 0.017367512 0.6435076
0.025952129 0.015859663 0.64284295
0.025853846 0.014363259 0.64218384
0.025756303 0.01287812 0.64152974
0.025659416 0.011404186 0.64087999
0.025563331 0.0099413097 0.6402356
0.025467964 0.0084893405 0.63959605
0.02537323 0.0070481002 0.63896078
0.02527927 0.0056175888 0.6383307
0.02518601 0.0041976571 0.63770521
0.025093358 0.0027881563 0.63708389
0.025001459 0.001388967 0.63646764
0.024910226 -0 0.63585579
0.024819592 -0.001378864 0.63524801
0.024729682 -0.0027477443 0.63464504
0.024640422 -0.0041067004 0.63404644
0.024551734 -0.0054559112 0.6334517
0.024588283 -0.0068300664 0.63369679
0.02513436 -0.0083781183 0.63735884
0.025705241 -0.009996444 0.64118731
0.02630266 -0.01169005 0.6451937
0.026928507 -0.013464242 0.6493907
0.027584864 -0.01532492 0.65379232
0.028274016 -0.017278552 0.65841389
