# .PCD v0.7 - Point Cloud Data file format
VERSION 0.7
FIELDS x y z
SIZE 4 4 4
TYPE F F F
COUNT 1 1 1
WIDTH 549
HEIGHT 1
VIEWPOINT 0 0 0 1 0 0 0
POINTS 549
DATA ascii
-0.016240543 0.0043307841 0.59949791
-0.013021253 0.015191466 0.59978783
-0.011995784 0.0021810532 0.60044223
-0.011995784 0.0032716095 0.60044217
-0.010960015 -0.0087679923 0.60110325
-0.010960015 0.0087680221 0.60110325
-0.010960015 0.017536014 0.60110319
-0.0099137938 0.018726051 0.60177088
-0.0088569587 -0.0044284761 0.6024453
-0.0088569587 -0 0.6024453
-0.0077893478 -0.018916965 0.60312659
-0.0067107957 -0.015658498 0.6038149
-0.0077893478 -0.0077893138 0.60312659
-0.0067107957 -0.0022369027 0.6038149
-0.0077893478 0.0011127889 0.60312659
-0.0056211334 -0.021360308 0.60451031
-0.0056211334 -0.0011242032 0.60451031
-0.018016646 2.9802322e-08 0.60472918
-0.018016646 2.9802322e-08 0.60472918
-0.0056211334 0.021360308 0.60451031
-0.0034077843 -0.034077823 0.60592276
-0.0067700017 -0.031593323 0.60500604
-0.0079343496 -0.029470444 0.60562706
-0.0045201881 -0.023730993 0.60521287
-0.0045201881 -0.016950727 0.60521287
-0.0034077843 -0.015902996 0.60592282
-0.0045201881 -0.013560593 0.60521293
-0.0034077843 -0.0090874135 0.60592276
-0.0045201881 -0.0056502223 0.60521287
-0.0045201881 0.013560563 0.60521287
-0.023763321 0.014710635 0.60539871
-0.005717393 -0.037734777 0.60683417
-0.015998209 -0.0091418326 0.60674375
-0.019344769 0.0011379421 0.6061641
-0.002283741 0.0091350079 0.60664004
-0.002283741 0.0091350079 0.60664004
-0.0046080905 -0.042624846 0.60786557
-0.0046080905 -0.042624846 0.60786557
-0.0011478756 -0.025253266 0.60736489
-0.0011478756 -0.011478752 0.60736495
-0.0011478756 -0.010330856 0.60736495
-0.0011478756 -0.0045914948 0.60736495
0.0011600769 -0.052203462 0.60883784
0 -0.050773516 0.60809749
0 -0.028848588 0.60809743
0.0011600769 -0.027841836 0.60883778
0 -0.024232835 0.60809749
0 -0.0080776215 0.60809749
0 -0.0080776215 0.60809749
0 0.0046158135 0.60809743
0 0.017309159 0.60809749
0.0011600769 0.020881385 0.60883778
-0.0035034437 -0.04904817 0.60977179
0.0023325509 -0.016327858 0.60958606
0.0023325509 -0.016327858 0.60958606
0.0023325509 -0.0081638992 0.609586
0.0023325509 -0.0081638992 0.609586
-0.01981871 -0.0034973919 0.60952938
0.0023325509 0.0081639588 0.609586
-0.0035250736 -0.050526023 0.61064208
0.0035176217 -0.048074156 0.61034232
0.0035176217 -0.044556528 0.61034226
-0.016391857 -0.014050156 0.61013788
0.0035176217 -0.012897938 0.61034232
-0.017645815 -0.011763871 0.61080664
-0.02350283 0.0047005713 0.61065626
0.0059263748 -0.033187687 0.61187947
0.0059263748 -0.033187687 0.61187947
0.0047154934 -0.0058943927 0.61110675
0.0047154934 0.0011788905 0.61110675
-0.025938191 0.010611057 0.61112309
0.0047154818 0.011788696 0.6111064
0.0047154818 0.015325308 0.6111064
0.0047154818 0.023577392 0.6111064
0.0047154818 0.023577392 0.6111064
0.0071504787 -0.046478137 0.61266065
0.0071504787 -0.020259678 0.61266065
0.0071504787 -0.0023835003 0.61266065
0.007150461 0.010725677 0.61266029
0.0083880229 -0.049129859 0.61345041
0.0083880229 -0.039543554 0.61345041
0.0083880229 -0.0095863342 0.61345041
0.0083880015 0.0023965538 0.61345005
0.0083880015 0.0059914291 0.61345005
0.0083880015 0.017974257 0.61345005
0.0096392296 -0.037352011 0.61424887
0.0096392296 -0.015663743 0.61424887
0.0096392054 -0 0.61424851
0.012183547 -0.046297491 0.6158725
0.012183547 -0.035332277 0.61587256
0.012183547 -0.02802214 0.6158725
-0.014539289 -0.027866989 0.61505806
0.012183547 -0.017056972 0.61587256
0.010904327 -0.012115926 0.61505622
0.010904299 -0.0060579181 0.6150558
0.010904299 -0.0012115836 0.61505586
0.012183517 -0 0.6158722
-0.025588881 0.0012185276 0.61589229
0.012183517 0.012183487 0.61587214
0.012183517 0.012183487 0.61587214
0.012183517 0.019493639 0.61587214
0.012183517 0.021930337 0.61587214
0.01347713 -0.023278654 0.61669809
0.013477094 -0.0073511302 0.61669767
-0.029300116 0.01098758 0.61617231
0.013477094 0.015927494 0.61669767
0.014785315 -0.048052296 0.61753291
0.014785315 -0.039427519 0.61753291
0.014785315 -0.027106434 0.61753291
-0.020974956 -0.014805853 0.61773956
0.014785277 -0.0036963224 0.61753249
-0.014919166 -0.033568114 0.61887932
0.016108353 -0.033455789 0.61837721
0.016108353 -0.033455789 0.61837721
0.016108312 -0.01115188 0.61837679
-0.027290629 0.0012405217 0.61854368
0.016108312 0.0049564242 0.61837685
0.016108312 0.0061955154 0.61837685
0.016108312 0.013630092 0.61837685
0.016108312 0.019825608 0.61837679
0.016108312 0.019825608 0.61837679
0.017446497 -0.027415931 0.61923116
-0.026261369 -0.0037516057 0.61975783
0.017446453 -0.0012461841 0.61923075
0.017446453 0.0074770749 0.61923075
0.017446453 0.024923474 0.61923081
-0.01131524 -0.046518207 0.6205675
0.020169104 -0.041598767 0.62096828
0.020169104 -0.041598767 0.62096828
0.018799961 -0.021306604 0.62009454
0.020169104 -0.0063028634 0.62096822
0.020169104 -0.0037817061 0.62096828
-0.010140682 -0.051970989 0.6218152
-0.013878476 -0.040373757 0.62110233
-0.01893303 -0.026506215 0.62116539
-0.01893303 -0.026506215 0.62116539
-0.022764446 -0.016440988 0.62146592
0.021554153 0.030429393 0.62185216
0.022955386 -0.021680087 0.62274635
0.022955386 -0.017854154 0.62274635
0.022955386 -0.017854154 0.62274635
0.022955386 -0.0051011741 0.62274635
-0.028021118 -0.003821075 0.62255174
0.022955386 0.022955388 0.62274635
-0.01154402 -0.051306739 0.62363595
0.024373088 -0.034635425 0.62365109
0.024373088 -0.033352673 0.62365115
0.024373088 -0.0064139664 0.62365109
-0.028209832 -0.0051290393 0.62358719
0.024373088 0.012827933 0.62365109
0.025807554 -0.043872833 0.6245665
0.025807554 -0.038711309 0.6245665
0.025807554 -0.001290381 0.6245665
0.025807554 0.018065304 0.6245665
0.025807554 0.020646065 0.6245665
0.025807554 0.028388321 0.6245665
-0.023386061 -0.022086829 0.62563449
0.027259082 -0.022066891 0.62549281
0.027259082 0.011682481 0.62549281
0.028727977 -0.041786149 0.62643021
-0.023546742 -0.023546785 0.62671208
0.028727977 0.015669793 0.62643021
-0.019717585 -0.035491616 0.62747896
-0.019717585 -0.035491616 0.62747896
0.030214552 -0.032841921 0.62737882
0.030214552 -0.0052546561 0.62737882
0.030214552 2.9802322e-08 0.62737882
0.030214552 0.01839149 0.62737888
0.030214552 0.026273519 0.62737888
0.030214552 0.031528234 0.62737888
-0.02387495 -0.026527703 0.62891304
0.03171913 -0.017181188 0.62833905
0.033242039 -0.038560748 0.62931085
0.033242039 -0.031912386 0.62931085
0.033242039 -0.021274894 0.62931085
0.033242039 -0.018615544 0.62931085
0.033242039 -0.0093077421 0.62931085
0.033242039 0.0093077719 0.62931091
0.033242039 0.026593655 0.62931085
0.034783617 0.020067483 0.63029468
0.036344208 -0.034998089 0.63129056
0.036344208 -0.024229467 0.63129056
0.037924167 -0.028443128 0.63229883
0.037924167 0.012189925 0.63229883
0.037924167 0.023025423 0.63229883
-0.028713889 -0.021877259 0.63385522
0.039523859 -0.0068144798 0.63331968
0.039523859 0.00272578 0.63331968
0.039523859 0.01362893 0.63331974
-0.019231066 -0.049451306 0.63461804
0.041143652 -0.024686188 0.6343534
0.041143652 0.0082286894 0.6343534
0.041143652 0.031543493 0.63435334
-0.028921675 -0.023412794 0.63504964
0.042783927 -0.022082001 0.63540012
-0.033124585 -0.012421727 0.63540792
0.042783927 -0.012421131 0.63540006
0.042783927 0.0041404068 0.63540012
0.044445075 -0.016666859 0.63646019
-0.033366464 -0.013902664 0.63662446
0.044445075 0.020833671 0.63646019
0.046127502 -0.027956039 0.6375339
-0.030691024 -0.022320747 0.63720113
0.046127502 -0.013978004 0.63753384
0.046127502 -0 0.6375339
-0.040563285 0.0041962266 0.6376462
0.047831617 -0.011254489 0.63862133
0.047831617 0.018288553 0.63862139
0.049557839 0.011327505 0.639723
0.049557839 0.012743473 0.639723
-0.028415058 -0.034098059 0.64030421
0.051306602 0.019952595 0.64083898
0.053078353 -0.030125558 0.64196968
0.053078353 -0.027256489 0.64196968
0.053078353 -0.011476427 0.64196968
0.053078353 0.0028691292 0.64196968
-0.042832494 0.0042832792 0.64114875
-0.042832494 0.0042832792 0.64114875
0.054873548 -0.014440417 0.64311528
0.054873548 -0 0.64311522
0.054873548 0.014440417 0.64311522
0.054873548 0.023104668 0.64311528
0.054873548 0.03321293 0.64311528
0.056692656 -0.013082922 0.64427614
-0.029289573 -0.041005403 0.64558232
0.060404539 -0.027992338 0.64664495
0.060404539 -0.019152641 0.64664495
0.060404539 -0.010312945 0.64664489
-0.04868507 0.010327131 0.64688921
0.060404539 0.014732838 0.64664495
0.060404539 0.017679423 0.64664489
0.060404539 0.017679423 0.64664489
0.060404539 0.038305342 0.64664489
-0.035437305 -0.02657795 0.64704001
-0.035437305 -0.02657795 0.64704001
0.062298317 0.044498801 0.64785349
0.064218007 0.025388509 0.64907849
0.066164151 -0.025563419 0.65032053
0.068137296 -0.021198273 0.65157962
0.068137296 -0.015141606 0.65157962
0.068137296 -0.00908494 0.65157962
0.068137296 0.012113303 0.65157962
0.068137296 0.045424879 0.65157962
-0.044130579 -0.012173951 0.65249491
0.070138007 -0 0.65285647
0.070138007 0.018296868 0.65285647
-0.030707108 -0.052202106 0.65413797
0.07216686 -0.026102901 0.6541512
0.07216686 -0.012283742 0.6541512
0.07216686 0.0030709505 0.65415114
0.07216686 0.013819188 0.65415114
0.07216686 0.024567455 0.65415114
0.07216686 0.032244772 0.6541512
0.07216686 0.039922088 0.6541512
0.074224465 0.015463471 0.65546423
0.074224465 0.023195148 0.65546423
0.074224465 0.03401953 0.65546429
0.074224465 0.044844002 0.65546423
0.074224465 0.044844002 0.65546423
0.076311439 -0.00778687 0.65679604
0.076311439 0.02647543 0.65679604
-0.036278043 -0.045741856 0.65920174
-0.048947465 -0.011052638 0.65940034
-0.038743235 -0.04681474 0.6636675
-0.040277597 -0.041888684 0.6632815
-0.06172023 0.01461798 0.66486442
-0.049092989 -0.022910029 0.66633904
-0.0556686 -0.0049119294 0.66644514
-0.047965486 -0.029771686 0.66845745
-0.063341722 0.010001332 0.67001522
-0.059224524 -0.0067685246 0.67306221
-0.053375125 -0.029270262 0.67664111
-0.053375125 -0.029270262 0.67664111
-0.048518263 -0.045052648 0.67797101
-0.067839958 0.0069579482 0.67877865
-0.048964068 -0.047215372 0.6798929
-0.071383834 0.0071384013 0.68422389
-0.05303489 -0.053034872 0.68955851
-0.071479589 -0.013167292 0.69586599
-0.070458159 -0.02094698 0.69867039
-0.072638266 -0.027484745 0.70578289
-0.084937923 0.0039505959 0.70724398
-0.08870142 -0.014783591 0.72373772
-0.082957156 -0.045844734 0.73232555
-0.096715115 -0.010990351 0.73413479
-0.097844712 -0.01334244 0.7372337
-0.093024276 -0.036302149 0.74268275
-0.093024276 -0.036302149 0.74268275
-0.014539242 0.004846856 0.59881908
-0.011025967 -0.014333755 0.60189933
-0.0099137938 -0.011015326 0.60177088
-0.0099137938 0.0027538091 0.60177088
-0.018948428 0.0050141215 0.60334992
-0.0072500715 0.012829587 0.6034708
-0.010733851 -0.020894006 0.60515499
-0.021306172 0.010092407 0.60416639
-0.0034077843 0.017038912 0.60592276
-0.0011478756 -0.035010189 0.60736495
-0.002283741 -0.029117696 0.6066401
-0.013793109 -0.016668394 0.60755205
-0.0011478756 0.0028696954 0.60736489
-0.0011478756 0.0028696954 0.60736489
-0.002283741 0.013131529 0.6066401
0.00058003847 -0.04107387 0.6084677
0.0023325509 -0.020992935 0.609586
-0.02095443 -2.9802322e-08 0.60932767
0.0023325509 0.0087470859 0.609586
0.0023325509 0.0087470859 0.609586
0.00058003847 0.01909066 0.60846764
0.0051191207 -0.045271214 0.61136431
0.0035176217 -0.039280146 0.61034226
0.0035176217 -0.028727248 0.61034226
0.0053209341 -0.014775932 0.61149311
0.0053209206 0.018913165 0.61149275
0.0071504787 -0.032773018 0.61266065
0.0071504787 -0.026814282 0.61266065
0.0071504787 -0.025026679 0.61266065
0.0083880229 -0.017375171 0.61345041
-0.019089721 -0.011336401 0.61282498
0.0083880229 -0.0029956996 0.61345041
0.007150461 0.017280281 0.61266029
-0.0048425687 -0.054478869 0.61494154
0.012183547 -0.026803792 0.6158725
0.012183517 0.00060917437 0.61587214
0.0096392054 0.0030122697 0.61424851
0.010904299 0.0090869218 0.6150558
0.012183517 0.024976209 0.61587214
0.014785315 -0.048052296 0.61753291
-0.0085725654 -0.047151066 0.6166327
0.01347713 -0.041043974 0.61669803
0.01347713 -0.031242415 0.61669803
0.01347713 -0.025116459 0.61669803
0.01347713 -0.025116459 0.61669803
-0.017129483 -0.023247153 0.61649781
0.014785277 -0.012937129 0.61753249
0.013477094 -0.0067385286 0.61669767
0.013477094 0.00061258674 0.61669767
0.013477094 0.015314892 0.61669767
-0.029875036 0.0074687898 0.61906397
0.016777381 0.022988819 0.6188038
0.018799961 -0.043239899 0.62009454
-0.025215348 -0.0088253915 0.62099218
0.020861629 -0.008849591 0.62141019
0.018799961 0.0050133467 0.62009448
-0.016569991 -0.035689205 0.62266374
-0.017816685 -0.031815529 0.62242299
-0.019187536 -0.029420882 0.62321347
-0.022916732 -0.017824113 0.62248713
-0.022916732 -0.017824113 0.62248713
0.024373088 0.010903761 0.62365103
-0.01425648 -0.046657562 0.62525046
0.027259082 -0.044133723 0.62549281
0.027259082 -0.033100307 0.62549281
0.027259082 -0.016874671 0.62549281
0.027259082 -0.016874671 0.62549281
-0.029746082 -0.0032354444 0.62492025
-0.033694059 0.0071254075 0.62523615
-0.033694059 0.0071254075 0.62523615
0.025807554 0.010968223 0.6245665
0.027259082 0.020768821 0.62549281
0.025807554 0.027097911 0.62456656
0.028727977 -0.041133232 0.62643015
-0.024986381 -0.021041185 0.62754744
-0.02899114 -0.010542214 0.62787414
0.028727977 -0.0013058186 0.62643021
0.030214552 0.0072252154 0.62737882
0.030214552 0.021018833 0.62737888
0.030214552 0.024959832 0.62737888
0.030214552 0.028900862 0.62737888
0.03171913 -0.040970534 0.62833905
0.03171913 0.013216257 0.62833905
0.033242039 0.021274924 0.62931085
0.034783617 -0.026756614 0.63029468
0.034783617 -0.024749875 0.63029468
-0.027004095 -0.02295348 0.63178825
0.034783617 -0.0066891313 0.63029468
0.036344208 0.00067305565 0.63129056
0.034783617 0.0026756823 0.63029468
-0.017696001 -0.051048562 0.63311923
-0.02588046 -0.028604686 0.63322771
0.037924167 -0.029120341 0.63229883
0.037924167 -0.029120341 0.63229883
0.037924167 -0.0067721605 0.63229883
-0.035506763 -0.0027312934 0.63365203
0.037924167 0.012867138 0.63229883
0.037924167 0.012867138 0.63229883
0.037924167 0.014898777 0.63229883
0.037924167 0.033183649 0.63229883
0.041143652 -0.023314714 0.63435334
-0.033124585 -0.012421727 0.63540792
-0.037345547 -0.0013831556 0.63576728
0.042783927 0.022772089 0.63540018
0.042783927 0.024842292 0.63540018
-0.021024322 -0.050458372 0.63799477
-0.023659151 -0.041058138 0.63679892
0.044445075 -0.011111259 0.63646019
0.047831617 -0.026729435 0.63862139
-0.032267153 -0.019640833 0.63815153
0.047831617 -0.016881704 0.63862133
0.047831617 0.023212403 0.63862139
0.053078353 -0.027256489 0.64196968
0.053078353 -0.017214596 0.64196962
-0.041322984 0.00070983171 0.6408084
0.051306602 0.0049881637 0.64083898
0.053078353 0.028690994 0.64196962
0.051306602 0.034916997 0.64083898
0.051306602 0.034916997 0.64083898
-0.037384439 -0.012940735 0.64236951
0.054873548 0.012996346 0.64311528
-0.027662128 -0.043677032 0.64454699
-0.032102827 -0.032102793 0.64494741
-0.03376022 -0.029356688 0.64598757
0.058536153 -0.0029267967 0.64545262
0.058536153 0.00073172152 0.64545262
0.058536153 0.023414463 0.64545262
0.058536153 0.040975302 0.64545262
0.062298317 -0.019282788 0.64785337
0.060404539 -0.0073664188 0.64664495
0.062298317 0.019282818 0.64785343
0.062298317 0.031149179 0.64785343
0.060404539 0.044935092 0.64664489
0.064218007 0.0052270591 0.64907849
-0.049065415 0.0089209974 0.6482805
-0.033118326 -0.039139837 0.65051937
0.066164151 -0.028570861 0.65032041
0.068137296 -0.010599136 0.65157968
-0.045206286 -0.0060275197 0.65070015
0.068137296 0.015141666 0.65157962
0.068137296 0.016655773 0.65157962
0.066164151 0.022556007 0.65032047
0.068137296 0.046939015 0.65157962
0.068137296 0.046939015 0.65157962
-0.053948656 0.010789722 0.65486634
0.07216686 0.024567455 0.65415114
-0.037472121 -0.039033473 0.65727437
-0.05001422 -0.004688859 0.6574682
-0.051478073 -0 0.65710568
0.076311439 0.02647543 0.65679604
0.076311439 0.028811455 0.6567961
-0.034481943 -0.048588187 0.65800136
-0.044469897 -0.025411367 0.66051805
-0.042524282 -0.040888727 0.66623247
-0.042524282 -0.040888727 0.66623247
-0.0556686 -0.0049119294 0.66644514
-0.047965486 -0.029771686 0.66845745
-0.058170613 -0.013687193 0.67532802
-0.058170613 -0.013687193 0.67532802
-0.053375125 -0.029270262 0.67664111
-0.053862404 -0.031274945 0.67853856
-0.053862404 -0.031274945 0.67853856
-0.049880527 -0.051661968 0.68384385
-0.049880527 -0.051661968 0.68384385
-0.067478523 -0.0017757714 0.68315619
-0.075328246 0.016141772 0.68530226
-0.063154645 -0.019848615 0.68661672
-0.05303489 -0.053034872 0.68955851
-0.073449746 0.0018362701 0.69045836
-0.073449746 0.0018362701 0.69045836
-0.065003298 -0.026001304 0.69299245
-0.066963434 -0.032525092 0.69975275
-0.073663488 -0.019385159 0.70280337
-0.07234215 -0.03818059 0.71137273
-0.088535644 0.00603652 0.71169496
-0.083116703 -0.012163401 0.7135132
-0.093082778 0.016188323 0.71306688
-0.086775921 -0.010330439 0.71820366
-0.094301812 0.0041912198 0.72176486
-0.07723444 -0.053635031 0.72777689
-0.082016371 -0.043166518 0.72933704
-0.10437763 0.015221775 0.73129356
-0.0072500715 -0.0097616278 0.6034708
-0.0059940917 -0.026431706 0.60457993
-0.0059940917 -0.026431706 0.60457993
-0.013625188 -0.014042087 0.60580271
-0.015024563 -0.0099215135 0.60566109
0.0053209341 -0.038121883 0.61149311
-0.022265065 0.0020515323 0.61021805
-0.024833551 0.0097851977 0.60986149
0.0053209206 0.021868333 0.61149275
0.0096438602 -0.0380551 0.61425185
-0.020949077 -0.0094664302 0.61467713
0.0071504787 -0.0062566549 0.61266065
0.0096438359 0.0059231101 0.61425149
-0.011113698 -0.042299286 0.61786437
0.014131222 -0.042081289 0.6171155
-0.028858369 0.0063892109 0.61808354
-0.029911157 0.010017883 0.61767769
0.014131186 0.010136351 0.61711514
0.014131186 0.02180852 0.61711508
0.024373088 -0.022128187 0.62365103
0.018799961 0.0097133294 0.62009454
0.024373088 0.013790041 0.62365103
0.021908507 0.029839471 0.6220783
0.021908507 0.029839471 0.6220783
-0.019201744 -0.034168892 0.62592286
-0.020854946 -0.029984921 0.6261425
0.026533317 0.010030158 0.62502968
0.026533317 0.032355383 0.62502968
-0.01585101 -0.047553003 0.62825298
0.034012828 -0.026007224 0.62980276
-0.029502105 -0.014082909 0.6306777
0.03171913 -0.010242634 0.62833905
0.036344208 -0.0020191073 0.63129056
0.03171913 0.014207505 0.62833905
0.034012828 0.022005972 0.62980276
0.03171913 0.033701584 0.62833905
-0.037274532 0.0017080829 0.63390648
-0.038823303 0.0054830909 0.6341942
0.04196379 0.029923465 0.63487673
0.046134733 -0.036808323 0.63753855
0.046134733 0.022016019 0.63753855
-0.025396939 -0.045993738 0.64231247
-0.033917271 -0.021492204 0.64178205
-0.033917271 -0.021492204 0.64178205
0.053975955 -0.02194925 0.64254248
0.051306602 0.03028515 0.64083898
0.061351426 -0.030119475 0.64724916
0.057614405 0.0061987601 0.64486438
0.068137296 0.0056781098 0.65157962
0.068137296 0.0098420531 0.65157962
0.068137296 0.029904708 0.65157962
0.065191083 0.033904865 0.64969951
-0.030831978 -0.053188294 0.65489161
-0.038177788 -0.029781729 0.65314281
0.073195666 -0.010015875 0.65480769
-0.054450065 0.013808385 0.6539427
0.070138007 0.046123371 0.65285647
-0.049530372 -0.0062527657 0.65759605
-0.049530372 -0.0062527657 0.65759605
-0.049389347 -0.030128494 0.67088819
-0.049389347 -0.030128494 0.67088819
-0.058189791 -0.0033251345 0.6694935
-0.057355043 -0.021729365 0.67860305
-0.060847297 -0.012169451 0.67865896
-0.06996718 0.013880968 0.67819047
-0.047317084 -0.052574515 0.68034768
-0.060679507 -0.03402175 0.69076371
-0.079185553 0.016573697 0.69109583
-0.065643892 -0.028133065 0.69520175
-0.070780307 -0.011175841 0.69364464
-0.062801585 -0.041867703 0.69852597
-0.06586729 -0.040682733 0.70265365
-0.083210982 0.007740587 0.70239609
-0.076196201 -0.015630007 0.70464242
-0.082308583 2.9802322e-08 0.70536423
-0.073902451 -0.043109775 0.71660459
-0.080318488 -0.026772827 0.71740156
-0.094301812 0.0041912198 0.72176486
-0.093911625 -0.026831895 0.73871213
