# .PCD v0.7 - Point Cloud Data file format
VERSION 0.7
FIELDS x y z
SIZE 4 4 4
TYPE F F F
COUNT 1 1 1
WIDTH 1350
HEIGHT 1
VIEWPOINT 0 0 0 1 0 0 0
POINTS 1350
DATA ascii
0.012962026 -0.010081589 0.64265466
0.012993707 -0.01154995 0.64307958
0.013025503 -0.013025492 0.64350605
0.013057454 -0.014508277 0.64393461
0.013089565 -0.015998363 0.64436525
0.013121871 -0.017495841 0.64479858
0.013154299 -0.019000649 0.64523351
0.013186887 -0.020512968 0.64567059
0.013219637 -0.022032738 0.64610982
0.013252591 -0.023560137 0.64655185
0.013285668 -0.025095135 0.64699543
0.013318911 -0.026637793 0.64744133
0.013352321 -0.028188229 0.64788944
0.013385941 -0.029746562 0.64834034
0.013419688 -0.031312615 0.64879298
0.013453607 -0.032886595 0.64924788
0.013487696 -0.034468561 0.64970511
0.013522001 -0.036058694 0.6501652
0.013556439 -0.037656784 0.65062708
0.013591053 -0.03926304 0.65109134
0.013625843 -0.040877521 0.65155798
0.013660857 -0.042500466 0.65202761
0.013696006 -0.044131577 0.65249902
0.013731337 -0.045771122 0.65297288
0.01376685 -0.047419161 0.65344918
0.013802593 -0.049075872 0.65392858
0.013838477 -0.050741047 0.65440989
0.013874548 -0.052414924 0.65489364
0.02343135 0.051548958 0.75164551
0.021603482 0.045367301 0.72958124
0.02004016 0.040080339 0.71071023
0.018687755 0.035506725 0.69438529
0.017506408 0.031511545 0.68012512
0.016465481 0.027991325 0.66756004
0.015541444 0.024866313 0.65640599
0.01471561 0.022073448 0.64643729
0.013973071 0.019562334 0.637474
0.013750706 0.01787594 0.63478982
0.01378275 0.016539305 0.63517666
0.013814944 0.015196413 0.63556528
0.013847329 0.013847351 0.63595617
0.013879825 0.012491852 0.63634843
0.013912475 0.011130005 0.63674259
0.013945279 0.0097617209 0.63713855
0.013978278 0.0083869696 0.63753688
0.014011393 0.0070057213 0.63793659
0.014044666 0.0056178868 0.63833821
0.014078138 0.0042234361 0.63874227
0.014111728 0.0028223395 0.63914776
0.01414548 0.0014145672 0.6395551
0.014179393 -2.9802322e-08 0.63996458
0.014213511 -0.0014213622 0.64037639
0.014247753 -0.0028495491 0.64078969
0.014282157 -0.0042846501 0.64120501
0.01431673 -0.0057266951 0.6416223
0.014351513 -0.0071757436 0.64204216
0.014386422 -0.0086318254 0.64246356
0.014421502 -0.01009506 0.64288712
0.014456796 -0.011565447 0.64331311
0.014492221 -0.013043016 0.64374065
0.014527819 -0.014527828 0.6441704
0.014563591 -0.01601994 0.64460218
0.014599587 -0.017519474 0.64503676
0.014635716 -0.019026428 0.64547282
0.014672022 -0.020540804 0.6459111
0.014708511 -0.022062749 0.64635158
0.014745225 -0.023592353 0.64679474
0.014782079 -0.025129527 0.64723957
0.014819117 -0.02667442 0.64768672
0.014856341 -0.028227031 0.64813602
0.0148938 -0.0297876 0.64858818
0.0149314 -0.031355977 0.64904207
0.014969192 -0.032932192 0.64949822
0.015007175 -0.034516484 0.64995676
0.015045398 -0.036108941 0.6504181
0.015083768 -0.037709415 0.65088135
0.015122336 -0.039318055 0.6513468
0.015161101 -0.04093495 0.65181482
0.015200114 -0.042560309 0.65228575
0.015239279 -0.044193894 0.65275854
0.015278647 -0.045835942 0.65323371
0.015318219 -0.047486484 0.65371132
0.015358045 -0.049145758 0.65419215
0.015398029 -0.050813496 0.65467477
0.015438222 -0.052489966 0.65515995
0.02586966 0.051739335 0.75268996
0.023844713 0.045521766 0.73046881
0.022113666 0.040206701 0.71147281
0.020617027 0.035611242 0.69504911
0.019310128 0.031598419 0.68070763
0.018158976 0.028063864 0.6680752
0.017137408 0.024927169 0.65686488
0.01622461 0.022124469 0.64684808
0.015404175 0.019605309 0.63784492
0.015145078 0.017898738 0.63500166
0.015180417 0.016560405 0.63538945
0.015215921 0.015215933 0.63577902
0.015251637 0.013865113 0.63617098
0.015287476 0.012507975 0.63656425
0.015323482 0.01114434 0.63695943
0.015359705 0.0097743273 0.63735688
0.015396053 0.0083978474 0.63775575
0.015432575 0.007014811 0.63815653
0.01546927 0.0056251884 0.63855922
0.015506186 0.0042289495 0.6389643
0.015543232 0.002826035 0.63937086
0.015580456 0.001416415 0.63977933
0.015617858 -0 0.64018977
0.015655488 -0.0014232099 0.64060271
0.015693251 -0.0028533041 0.64101708
0.015731199 -0.0042903125 0.64143354
0.015769375 -0.0057342947 0.6418525
0.015807692 -0.0071853101 0.64227295
0.015846195 -0.0086433589 0.64269543
0.015884884 -0.01010856 0.64312005
0.015923813 -0.011580974 0.64354724
0.015962886 -0.01306051 0.64397597
0.016002148 -0.014547437 0.64440686
0.016041605 -0.016041607 0.64483988
0.016081307 -0.017543226 0.64527553
0.016121157 -0.019052297 0.64571279
0.016161202 -0.020568818 0.64615226
0.016201448 -0.022092879 0.64659393
0.016241945 -0.023624659 0.64703834
0.016282596 -0.025164008 0.64748442
0.016323449 -0.026711106 0.64793277
0.016364509 -0.028265953 0.64838332
0.016405828 -0.029828787 0.64883673
0.016447302 -0.031399399 0.64929187
0.016488988 -0.032977968 0.64974928
0.016530884 -0.034564584 0.65020907
0.016573049 -0.036159396 0.65067178
0.016615374 -0.037762225 0.65113622
0.016657917 -0.039373279 0.6516031
0.016700679 -0.040992558 0.65207237
0.016743714 -0.042620361 0.65254462
0.016786918 -0.044256419 0.65301871
0.016830346 -0.045900911 0.65349525
0.016874053 -0.047554165 0.65397489
0.016917933 -0.049215794 0.65445638
0.01696204 -0.050886154 0.65494049
0.01700638 -0.052565157 0.65542698
0.028326049 0.051931083 0.75374222
0.026101256 0.045677215 0.73136246
0.024200389 0.040334016 0.71224123
0.022557687 0.035716325 0.69571698
0.021123819 0.03168574 0.68129337
0.019861273 0.02813682 0.66859311
0.0187412 0.024988264 0.65732604
0.017740659 0.022175848 0.64726138
0.016841587 0.019648522 0.63821739
0.016543016 0.017921597 0.63521397
0.016581666 0.016581684 0.63560277
0.016620496 0.015235454 0.63599336
0.01665956 0.013882965 0.63638633
0.016698757 0.012524068 0.63678062
0.016738137 0.011158764 0.63717675
0.016777756 0.0097870231 0.63757527
0.016817512 0.0084087849 0.63797522
0.016857458 0.0070239305 0.63837701
0.016897593 0.0056325495 0.63878071
0.016937969 0.0042345226 0.63918692
0.016978489 0.0028297305 0.63959455
0.017019203 0.0014182925 0.6400041
0.017060164 2.9802322e-08 0.64041615
0.017101273 -0.0014251173 0.64082968
0.017142577 -0.0028570592 0.64124513
0.017184084 -0.0042960048 0.6416626
0.017225843 -0.0057419538 0.64208269
0.017267754 -0.0071948767 0.64250433
0.017309871 -0.0086549222 0.64292794
0.017352192 -0.01012212 0.6433537
0.017394772 -0.011596501 0.64378208
0.01743751 -0.013078123 0.64421189
0.017480457 -0.014567077 0.64464396
0.017523618 -0.016063333 0.64507812
0.017567048 -0.017567068 0.64551497
0.017610636 -0.019078195 0.64595342
0.017654443 -0.020596832 0.64639413
0.017698523 -0.022123158 0.64683747
0.017742768 -0.023657054 0.6472826
0.017787237 -0.025198579 0.64772987
0.017831927 -0.026747882 0.64817947
0.017876841 -0.028304994 0.64863127
0.01792204 -0.029870033 0.64908594
0.017967412 -0.031443 0.64954233
0.018013014 -0.033023834 0.65000105
0.018058905 -0.034612864 0.65046263
0.018104972 -0.036209941 0.65092605
0.018151276 -0.037815154 0.65139186
0.018197816 -0.039428562 0.65186
0.018244656 -0.041050464 0.65233117
0.018291676 -0.042680591 0.6528042
0.018338943 -0.044319093 0.6532796
0.018386452 -0.045966148 0.65375757
0.018434267 -0.047621846 0.65423852
0.018482273 -0.049286038 0.65472138
0.018530529 -0.050958931 0.6552068
0.018579038 -0.052640617 0.65569484
0.030800711 0.052124292 0.75480223
0.028373262 0.045833737 0.73226225
0.026300371 0.040462106 0.71301448
0.024509838 0.035822064 0.69638866
0.022947477 0.031773448 0.68188149
0.021572441 0.028210133 0.6691137
0.020352876 0.025049686 0.65778947
0.019263765 0.022227407 0.64767659
0.018285347 0.019691914 0.63859153
0.017944528 0.017944545 0.63542688
0.017986506 0.016602963 0.63581669
0.018028734 0.015255094 0.63620877
0.018071109 0.013900876 0.63660222
0.018113682 0.012540251 0.63699758
0.018156456 0.011173189 0.63739479
0.018199487 0.0097997487 0.63779432
0.018242668 0.0084196627 0.63819528
0.018286055 0.0070331395 0.63859808
0.018329648 0.0056398809 0.63900292
0.018373504 0.004240036 0.63941014
0.018417515 0.002833426 0.63981885
0.01846174 0.0014201105 0.64022946
0.018506231 -0 0.64064258
0.018550882 -0.001426965 0.64105713
0.01859575 -0.0028608739 0.64147377
0.018640833 -0.0043017268 0.64189243
0.018686192 -0.005749613 0.6423136
0.018731717 -0.0072045028 0.64273632
0.018777464 -0.0086664855 0.64316106
0.018823436 -0.01013571 0.64358795
0.018869689 -0.011612087 0.64401746
0.018916113 -0.013095766 0.64444852
0.018962767 -0.014586717 0.64488167
0.01900965 -0.016085088 0.64531702
0.019056825 -0.01759088 0.64575505
0.019104175 -0.019104183 0.64619476
0.019151762 -0.020624965 0.64663661
0.019199647 -0.022153437 0.64708126
0.019247711 -0.023689479 0.64752752
0.019296015 -0.025233269 0.64797604
0.019344563 -0.026784778 0.64842689
0.019393418 -0.028344214 0.64888048
0.019442458 -0.029911458 0.6493358
0.019491745 -0.03148666 0.64979351
0.019541286 -0.033069849 0.65025353
0.01959114 -0.034661263 0.65071642
0.019641187 -0.036260664 0.65118116
0.01969149 -0.037868261 0.65164822
0.019742049 -0.039484084 0.65211767
0.019792935 -0.0411084 0.65259022
0.01984402 -0.042740941 0.65306449
0.019895367 -0.044382006 0.65354133
0.019946983 -0.046031505 0.65402055
0.01999893 -0.047689736 0.65450293
0.020051086 -0.04935652 0.65498722
0.020103512 -0.051032007 0.65547401
0.020156216 -0.052716255 0.65596342
0.033293858 0.052318931 0.7558701
0.030660897 0.045991361 0.73316818
0.028413735 0.040591061 0.7137928
0.02647358 0.035928398 0.6970644
0.024781354 0.031861752 0.68247372
0.023292551 0.028283805 0.66963696
0.021972496 0.025111437 0.65825522
0.020793974 0.022279292 0.64809376
0.019735498 0.019735515 0.63896739
0.019349633 0.017967522 0.63564038
0.019394957 0.016624272 0.63603115
0.01944055 0.015274733 0.63642418
0.019486301 0.013918817 0.63681877
0.019532267 0.012556463 0.63721502
0.019578451 0.011187702 0.63761324
0.019624913 0.0098124444 0.6380139
0.019671535 0.0084306598 0.63841581
0.019718383 0.0070423186 0.63881981
0.019765509 0.0056473017 0.63922608
0.019812806 0.004245609 0.63963395
0.019860327 0.0028371811 0.64004368
0.019908078 0.001421988 0.64045537
0.019956119 -0 0.64086962
0.02000433 -0.0014288425 0.6412853
0.020052778 -0.0028646588 0.64170295
0.020101458 -0.0043074787 0.64212275
0.020150438 -0.0057572424 0.64254504
0.020199597 -0.007214129 0.64296889
0.020248994 -0.0086781383 0.64339483
0.020298695 -0.01014933 0.64382339
0.020348581 -0.011627793 0.64425349
0.02039871 -0.013113439 0.64468569
0.020449089 -0.014606446 0.64512002
0.020499779 -0.016106963 0.64555717
0.020550657 -0.017614871 0.64599586
0.020601789 -0.01913023 0.64643675
0.020653177 -0.020653188 0.64687979
0.020704886 -0.022183806 0.64732558
0.020756789 -0.023722082 0.64777315
0.020808952 -0.025268018 0.64822286
0.020861378 -0.026821762 0.64867491
0.020914137 -0.028383464 0.64912981
0.020967096 -0.029953003 0.64958644
0.021020325 -0.031530499 0.65004539
0.021073822 -0.033115983 0.65050668
0.021127662 -0.034709722 0.65097082
0.021181708 -0.036311507 0.65143687
0.021236034 -0.037921488 0.65190524
0.021290638 -0.039539754 0.65237606
0.021345591 -0.041166484 0.65284985
0.021400761 -0.042801529 0.65332556
0.021456217 -0.044445038 0.65380371
0.021511961 -0.04609707 0.65428436
0.021568064 -0.047757834 0.65476811
0.021624392 -0.049427181 0.65525377
0.021681014 -0.051105261 0.65574199
0.021737931 -0.052792102 0.65623271
0.035805691 0.05251503 0.75694609
0.032964163 0.04614982 0.73407924
0.030540613 0.04072085 0.71457601
0.028449021 0.036035419 0.69774419
0.026625453 0.031950533 0.68306923
0.02502167 0.028357893 0.67016298
0.023600118 0.025173485 0.65872324
0.022331338 0.022331327 0.64851284
0.021192085 0.019779295 0.63934481
0.02075834 0.017990589 0.63585436
0.020807028 0.01664561 0.63624614
0.020856002 0.015294403 0.63664031
0.020905148 0.013936758 0.63703573
0.020954525 0.012572706 0.63743311
0.021004198 0.011202246 0.63783288
0.021054046 0.0098252594 0.63823396
0.021104131 0.0084416866 0.63863707
0.021154454 0.0070514679 0.63904208
0.021205081 0.0056546926 0.63944942
0.021255888 0.0042512119 0.63985825
0.021306936 0.0028409362 0.6402691
0.021358233 0.0014238954 0.64068186
0.021409843 -0 0.64109719
0.021461636 -0.0014307797 0.64151406
0.02151368 -0.0028684735 0.64193285
0.021565979 -0.0043131709 0.64235371
0.021618595 -0.0057649314 0.64277709
0.021671405 -0.0072238147 0.64320213
0.021724474 -0.008689791 0.64362919
0.02177787 -0.010163009 0.64405888
0.02183146 -0.01164344 0.64449018
0.021885317 -0.013131171 0.64492351
0.02193944 -0.014626265 0.6453591
0.0219939 -0.016128868 0.64579737
0.022048561 -0.017638832 0.64623719
0.022103492 -0.019156337 0.64667928
0.022158701 -0.020681441 0.64712358
0.022214256 -0.022214234 0.64757067
0.02227002 -0.023754686 0.64801937
0.022326065 -0.025302857 0.6484704
0.02238239 -0.026858866 0.6489237
0.022439074 -0.028422803 0.64937985
0.022495974 -0.029994637 0.64983773
0.022553161 -0.031574398 0.65029794
0.022610642 -0.033162296 0.65076053
0.022668486 -0.034758359 0.65122604
0.022726558 -0.036362469 0.65169334
0.022784928 -0.037974864 0.65216303
0.022843597 -0.039595574 0.65263516
0.022902643 -0.041224748 0.65311038
0.02296192 -0.042862266 0.6535874
0.023021506 -0.044508219 0.65406692
0.023081476 -0.046162933 0.65454948
0.023141686 -0.047826141 0.65503407
0.023202209 -0.049498051 0.65552109
0.023263048 -0.051178664 0.65601063
0.02332421 -0.052868187 0.65650284
0.038336422 0.05271256 0.75803018
0.035283525 0.04630965 0.73499775
0.032681134 0.040851414 0.71536422
0.030436261 0.036143064 0.69842798
0.028479859 0.032039851 0.68366814
0.026759872 0.028432399 0.67069173
0.025235718 0.025235713 0.65919292
0.023875907 0.02238366 0.64893395
0.022655146 0.019823253 0.63972402
0.022170668 0.018013686 0.63606888
0.022222733 0.016667038 0.63646168
0.022275109 0.015314162 0.63685679
0.022327665 0.013954818 0.63725334
0.022380473 0.012589037 0.63765174
0.022433596 0.011216819 0.63805246
0.022486905 0.0098380446 0.63845474
0.022540467 0.0084526837 0.6388588
0.022594284 0.0070607364 0.63926482
0.022648429 0.0056620836 0.63967335
0.022702763 0.0042567551 0.64008325
0.022757361 0.0028447211 0.64049512
0.022812223 0.0014257729 0.64090902
0.022867417 2.9802322e-08 0.64132547
0.02292281 -0.001432687 0.64174342
0.022978472 -0.0028722882 0.64216328
0.023034476 -0.0043189526 0.64258581
0.023090679 -0.0057727098 0.6430099
0.023147162 -0.0072335005 0.64343596
0.023203921 -0.0087014735 0.64386415
0.023261029 -0.010176718 0.64429504
0.023318348 -0.011659175 0.64472747
0.023375951 -0.013148993 0.64516205
0.023433836 -0.014646143 0.64559877
0.023492085 -0.016150802 0.64603817
0.02355055 -0.017662913 0.64647925
0.023609303 -0.019182563 0.64692259
0.023668354 -0.020709813 0.64736807
0.023727776 -0.022244781 0.64781636
0.02378742 -0.023787379 0.64826632
0.023847366 -0.025337815 0.6487186
0.023907615 -0.02689603 0.64917314
0.023968246 -0.028462261 0.64963055
0.024029106 -0.03003639 0.65008974
0.024090277 -0.031618476 0.6505512
0.024151839 -0.033208787 0.6510157
0.024213636 -0.034807086 0.65148187
0.024275752 -0.03641361 0.6519506
0.024338188 -0.038028389 0.65242159
0.024401024 -0.039651662 0.65289563
0.024464106 -0.041283131 0.65337151
0.024527514 -0.042923152 0.65384996
0.024591254 -0.044571638 0.65433085
0.024655405 -0.046228856 0.65481478
0.024719812 -0.047894627 0.65530074
0.024784556 -0.0495691 0.6557892
0.024849638 -0.051252365 0.65628016
0.024915148 -0.05294469 0.65677434
0.040886272 0.052911669 0.75912231
0.037619002 0.046470523 0.73592269
0.034835428 0.040982842 0.71615756
0.032435279 0.036251187 0.69911492
0.030344659 0.032129645 0.68427026
0.028507225 0.028507203 0.67122334
0.026879519 0.025298357 0.65966558
0.025427729 0.022436231 0.64935696
0.02412473 0.01986745 0.64010483
0.023586629 0.018036842 0.63628399
0.02364216 0.016688585 0.63667834
0.023697883 0.015333921 0.63707399
0.023753868 0.013972908 0.6374715
0.02381012 0.012605399 0.63787091
0.023866711 0.011231393 0.63827276
0.0239235 0.0098508596 0.63867599
0.02398056 0.0084637105 0.63908118
0.02403789 0.0070700049 0.63948822
0.024095569 0.0056695342 0.63989782
0.024153452 0.0042623878 0.6403088
0.024211615 0.0028484464 0.6407218
0.024270132 0.0014276505 0.6411373
0.024328858 2.9802322e-08 0.6415543
0.02438787 -0.0014345646 0.64197332
0.024447169 -0.0028761327 0.64239436
0.024506832 -0.0043247342 0.64281797
0.02456671 -0.0057804286 0.64324319
0.024626881 -0.0072431862 0.64367044
0.02468735 -0.008713156 0.64409983
0.024748191 -0.010190427 0.64453179
0.024809256 -0.011674911 0.64496541
0.024870627 -0.013166785 0.64540118
0.024932297 -0.014666051 0.6458391
0.024994355 -0.016172796 0.64627975
0.025056642 -0.017687023 0.64672202
0.025119241 -0.019208789 0.64716649
0.025182232 -0.020738304 0.64761376
0.025245463 -0.022275418 0.64806283
0.025309011 -0.023820221 0.64851397
0.025372878 -0.025372863 0.6489675
0.02543715 -0.026933461 0.64942384
0.025501668 -0.028501868 0.64988196
0.025566513 -0.030078232 0.6503424
0.02563169 -0.031662673 0.65080523
0.025697282 -0.033255309 0.65127099
0.025763128 -0.034855992 0.65173852
0.02582931 -0.03646487 0.65220845
0.025895836 -0.038082093 0.65268081
0.025962787 -0.03970778 0.65315622
0.026030002 -0.041341782 0.65363353
0.026097564 -0.042984188 0.65411323
0.026165482 -0.044635236 0.65459549
0.026233839 -0.046294987 0.6550808
0.026302464 -0.047963321 0.65556812
0.026371451 -0.049640387 0.65605807
0.026440803 -0.051326245 0.65655041
0.026510606 -0.053021222 0.65704608
0.043455448 0.053112209 0.76022279
0.039970767 0.046632588 0.73685408
0.037003633 0.041115165 0.71695596
0.034446429 0.036360115 0.69980699
0.032219943 0.032219946 0.68487585
0.030263808 0.028582513 0.6717577
0.028531501 0.025361329 0.66014063
0.02698686 0.022489071 0.64978206
0.0256008 0.019911766 0.64048684
0.025006235 0.018060088 0.63649964
0.025065184 0.016710132 0.636895
0.025124338 0.015353799 0.63729167
0.025183773 0.013990968 0.63769025
0.025243487 0.01262179 0.63809073
0.025303561 0.011246026 0.63849354
0.025363848 0.0098637342 0.6388979
0.025424421 0.0084748268 0.63930404
0.025485283 0.0070792437 0.63971227
0.025546515 0.0056770444 0.64012289
0.025607966 0.0042680204 0.64053494
0.025669713 0.0028522015 0.64094907
0.025731837 0.0014295578 0.64136565
0.025794182 -0 0.64178371
0.025856832 -0.0014365017 0.64220381
0.025919786 -0.0028799772 0.64262605
0.025983125 -0.0043305159 0.64305085
0.026046699 -0.0057881474 0.64347714
0.02611058 -0.0072529018 0.64390558
0.026174858 -0.0087249279 0.64433658
0.026239373 -0.010204166 0.64476925
0.026304206 -0.011690766 0.64520407
0.026369359 -0.013184696 0.64564097
0.026434919 -0.014686048 0.64608061
0.026500722 -0.01619488 0.64652193
0.026566856 -0.017711222 0.64696538
0.026633319 -0.019235164 0.64741111
0.026700201 -0.020766824 0.64785957
0.026767332 -0.022306085 0.64830983
0.026834805 -0.023853153 0.64876229
0.026902618 -0.025408 0.64921707
0.02697086 -0.026970893 0.64967471
0.027039362 -0.028541535 0.65013409
0.027108211 -0.030120254 0.65059578
0.027177416 -0.031706989 0.65105993
0.027247062 -0.03330195 0.65152693
0.027316974 -0.034905016 0.65199578
0.027387248 -0.036516339 0.65246713
0.027457887 -0.038135976 0.65294087
0.027528979 -0.039764076 0.65341753
0.027600348 -0.041400522 0.65389621
0.027672091 -0.043045491 0.65437728
0.027744206 -0.044698983 0.65486091
0.027816791 -0.046361297 0.65534765
0.027889663 -0.048032194 0.65583634
0.027962919 -0.049711853 0.65632761
0.028036561 -0.051400363 0.65682149
0.028110685 -0.053097934 0.65731853
0.046043944 0.05331406 0.76133025
0.04233899 0.046795696 0.73779196
0.039185874 0.041248292 0.71775961
0.036469705 0.036469728 0.70050317
0.034105796 0.032310784 0.68548489
0.032029573 0.028658062 0.6722942
0.030191729 0.0254246 0.66061801
0.028553348 0.022542119 0.65020907
0.027083548 0.019956291 0.64087117
0.026429502 0.018083334 0.63671583
0.026491888 0.016731739 0.6371122
0.026554488 0.015373647 0.63750994
0.026617387 0.014009148 0.63790953
0.026680583 0.012638152 0.63831103
0.026744161 0.011260688 0.63871491
0.026807962 0.0098766088 0.63912028
0.026872067 0.0084859431 0.63952756
0.026936563 0.0070885718 0.63993734
0.027001286 0.005684495 0.64034849
0.027066322 0.0042736232 0.64076173
0.027131671 0.0028559566 0.64117688
0.027197419 0.0014314651 0.64159459
0.027263403 -0 0.64201385
0.027329709 -0.0014384091 0.64243507
0.027396338 -0.0028838217 0.64285839
0.027463377 -0.0043363273 0.64328426
0.027530661 -0.0057959557 0.64371175
0.027598275 -0.0072627068 0.64414132
0.027666306 -0.0087367296 0.64457351
0.027734589 -0.010217994 0.64500737
0.027803211 -0.011706591 0.64544332
0.027872168 -0.013202578 0.64588141
0.02794156 -0.014706075 0.64632225
0.028011208 -0.016216993 0.64676476
0.028081208 -0.017735481 0.64720947
0.028151555 -0.019261569 0.64765638
0.028222345 -0.020795435 0.64810616
0.028293403 -0.0223369 0.6485576
0.02836482 -0.023886144 0.64901131
0.028436601 -0.025443256 0.64946729
0.028508833 -0.027008355 0.64992619
0.028581342 -0.028581351 0.65038693
0.028654221 -0.030162334 0.65084994
0.028727476 -0.031751424 0.65131533
0.028801193 -0.033348769 0.6517837
0.0288752 -0.03495422 0.65225387
0.02894959 -0.036567897 0.65272647
0.029024361 -0.038189948 0.65320146
0.029099617 -0.039820522 0.65367961
0.029175166 -0.041459441 0.65415961
0.02925111 -0.043106854 0.65464205
0.02932745 -0.044762969 0.65512711
0.029404284 -0.046427816 0.65561521
0.029481428 -0.048101276 0.6561054
0.029558977 -0.049783558 0.65659803
0.029637031 -0.051474839 0.65709394
0.029715402 -0.053174913 0.65759182
0.048652437 0.05351764 0.7624476
0.044723842 0.046960026 0.73873639
0.041382302 0.041382313 0.71856844
0.038505211 0.036579996 0.70120364
0.036002312 0.032402098 0.68609732
0.033804819 0.028734118 0.67283428
0.031860258 0.025488228 0.66109776
0.030127246 0.022595435 0.65063816
0.028572951 0.020001084 0.64125711
0.027856443 0.018106699 0.63693261
0.02792228 0.016753405 0.63732994
0.027988348 0.015393615 0.63772875
0.028054729 0.014027357 0.63812941
0.028121509 0.012654692 0.63853246
0.028188525 0.01127544 0.63893688
0.028255859 0.0098895431 0.63934332
0.028323516 0.0084970295 0.63975167
0.028391583 0.0070978999 0.64016247
0.028459894 0.0056919754 0.64057481
0.028528532 0.0042792857 0.64098901
0.028597504 0.0028597414 0.64140534
0.028666895 0.0014333725 0.64182413
0.028736539 -0 0.64224446
0.028806521 -0.0014403164 0.64266688
0.028876934 -0.0028876662 0.6430918
0.028947599 -0.0043421686 0.64351833
0.029018614 -0.0058037043 0.64394689
0.029089978 -0.0072724819 0.64437765
0.029161783 -0.0087485313 0.64481103
0.029233856 -0.010231823 0.64524603
0.029306283 -0.011722535 0.64568323
0.029379072 -0.013220549 0.64612246
0.029452313 -0.014726132 0.6465646
0.029525829 -0.016239166 0.6470083
0.029599713 -0.01775986 0.6474542
0.029673968 -0.019288063 0.64790237
0.029748688 -0.020824045 0.64835334
0.029823693 -0.022367746 0.64880604
0.029899079 -0.023919255 0.64926106
0.029974844 -0.025478601 0.64971828
0.03005109 -0.027045965 0.65017849
0.030127628 -0.028621256 0.65064049
0.030204559 -0.030204535 0.65110475
0.030281883 -0.031795979 0.65157145
0.030359702 -0.033395648 0.65204114
0.030437823 -0.035003483 0.65251267
0.030516347 -0.036619604 0.65298659
0.030595379 -0.038244218 0.65346354
0.030674718 -0.039877146 0.65394241
0.030754471 -0.041518539 0.65442383
0.030834641 -0.043168485 0.65490764
0.030915227 -0.044827104 0.65539402
0.030996341 -0.046494484 0.65588355
0.031077778 -0.048170596 0.65637511
0.031159643 -0.049855411 0.65686917
0.031242045 -0.051549375 0.65736651
0.031324781 -0.053252101 0.65786588
0.051280934 0.053722918 0.76357341
0.047125503 0.047125489 0.7396875
0.043592852 0.041517019 0.71938133
0.040553063 0.036690861 0.70190823
0.037909582 0.032493919 0.68671328
0.035589512 0.028810591 0.67337722
0.033537157 0.025552124 0.66157997
0.031708505 0.022648901 0.65106869
0.030069048 0.020046026 0.64164484
0.029287074 0.018130124 0.63714993
0.029356385 0.016775072 0.63754839
0.029425932 0.015413582 0.63794816
0.029495813 0.014045656 0.63834983
0.029566117 0.012671202 0.63875389
0.029636666 0.011290163 0.63915944
0.029707553 0.0099025071 0.63956696
0.029778779 0.0085082054 0.63997638
0.029850438 0.0071072578 0.64038825
0.029922353 0.0056994557 0.64080167
0.029994616 0.0042849183 0.64121699
0.030067319 0.0028635561 0.64163482
0.030140283 0.0014352798 0.64205432
0.030213602 2.9802322e-08 0.64247572
0.030287281 -0.0014422834 0.64289927
0.03036141 -0.0028915703 0.64332539
0.03043581 -0.00434798 0.64375305
0.030510576 -0.0058115125 0.6441828
0.030585712 -0.0072822869 0.6446147
0.030661313 -0.0087603927 0.64504921
0.030737191 -0.010245711 0.6454854
0.030813446 -0.01173842 0.64592373
0.030890083 -0.013238609 0.64636427
0.030967196 -0.014746279 0.64680755
0.031044601 -0.016261458 0.64725244
0.03112239 -0.017784208 0.64769959
0.031200573 -0.019314617 0.64814901
0.031279247 -0.020852804 0.64860117
0.03135822 -0.02239871 0.64905512
0.031437594 -0.023952454 0.6495114
0.031517468 -0.025514156 0.64997053
0.031597648 -0.027083695 0.65043145
0.031678241 -0.028661251 0.65089464
0.031759243 -0.030246913 0.65136033
0.03184066 -0.031840652 0.65182829
0.031922601 -0.033442706 0.65229928
0.032004859 -0.035052955 0.65277219
0.032087542 -0.03667146 0.65324742
0.032170761 -0.038298517 0.65372574
0.032254305 -0.03993389 0.65420598
0.032338288 -0.041577816 0.65468872
0.032422703 -0.043230295 0.65517396
0.032507673 -0.044891566 0.65566236
0.032592978 -0.04656139 0.65615273
0.032678731 -0.048240006 0.6566456
0.032764938 -0.049927503 0.65714115
0.032851711 -0.051624089 0.65763992
0.05392966 0.053929657 0.76470804
0.049544144 0.047292143 0.74064541
0.045818042 0.041652799 0.72020078
0.042613372 0.036802471 0.70261729
0.03982769 0.032586306 0.68733269
0.037383731 0.028887421 0.67392302
0.035222489 0.025616318 0.66206461
0.033297375 0.022702783 0.65150177
0.031571891 0.020091206 0.64203435
0.030721499 0.018153608 0.63736832
0.030794207 0.016796827 0.63776726
0.030867256 0.015433609 0.6381681
0.030940657 0.014063954 0.63857085
0.031014498 0.012687713 0.63897604
0.031088602 0.011304975 0.6393826
0.031163061 0.0099155307 0.63979107
0.031237874 0.0085194111 0.64020157
0.031313144 0.0071166456 0.64061463
0.031388681 0.0057070553 0.64102906
0.031464584 0.0042906404 0.64144552
0.031540953 0.002867341 0.64186454
0.031617593 0.0014371574 0.64228511
0.03169461 2.9802322e-08 0.64270765
0.031772003 -0.0014441609 0.64313227
0.031849872 -0.0028954148 0.64355952
0.031928025 -0.0043537915 0.64398837
0.032006562 -0.0058193505 0.64441931
0.032085486 -0.0072921813 0.64485234
0.032164901 -0.0087721944 0.64528811
0.032244612 -0.010259658 0.64572549
0.032324716 -0.011754453 0.64616495
0.032405321 -0.013256729 0.64660722
0.032486226 -0.014766455 0.6470511
0.032567538 -0.01628378 0.6474973
0.032649256 -0.017808676 0.64794564
0.032731488 -0.01934132 0.64839685
0.032814037 -0.020881653 0.64884979
0.032896999 -0.022429794 0.64930499
0.032980382 -0.023985714 0.64976251
0.033064295 -0.02554965 0.6502229
0.033148527 -0.027121484 0.65068507
0.033233196 -0.028701395 0.65114963
0.033318292 -0.030289322 0.65161657
0.033403933 -0.031885564 0.65208644
0.033489913 -0.033489913 0.65255821
0.033576332 -0.035102516 0.65303242
0.033663198 -0.036723465 0.65350902
0.033750623 -0.038352996 0.65398872
0.033838399 -0.039990813 0.65447026
0.033926629 -0.041637212 0.65495443
0.03401532 -0.043292224 0.65544105
0.034104586 -0.044956028 0.65593082
0.034194212 -0.046628475 0.65642262
0.034284312 -0.048309714 0.65691698
0.034374885 -0.049999833 0.65741396
0.034466054 -0.051699102 0.65791416
0.056598861 0.054138035 0.76585138
0.051979955 0.04745996 0.74161005
0.048057836 0.041789412 0.72102559
0.04468625 0.036914736 0.70333058
0.041756734 0.0326792 0.68795562
0.039187547 0.028964728 0.67447174
0.036916316 0.025680929 0.66255164
0.034893818 0.022756845 0.65193701
0.03308152 0.020136565 0.64242554
0.032159556 0.018177122 0.63758683
0.032235764 0.016818672 0.63798678
0.032312334 0.015453726 0.63838863
0.032389272 0.014082283 0.63879246
0.032466672 0.012704372 0.6391986
0.032544345 0.011319757 0.6396063
0.032622393 0.0099285543 0.6400159
0.032700911 0.0085307062 0.64042795
0.032779712 0.0071260631 0.64084154
0.032858893 0.0057146251 0.64125711
0.032938458 0.0042963326 0.6416747
0.033018507 0.0028711557 0.64209485
0.03309885 0.0014390945 0.64251643
0.033179577 2.9802322e-08 0.64294016
0.033260707 -0.0014460981 0.64336598
0.033342332 -0.0028993189 0.64379436
0.033424258 -0.0043596625 0.64422429
0.033506587 -0.0058272183 0.64465642
0.033589426 -0.0073020458 0.64509118
0.033672571 -0.0087841153 0.64552754
0.033756133 -0.010273576 0.64596611
0.033840105 -0.011770457 0.64640683
0.033924606 -0.013274848 0.64685029
0.034009419 -0.01478672 0.64729548
0.034094661 -0.016306102 0.64774275
0.034180328 -0.017833173 0.64819241
0.034266539 -0.019367993 0.64864486
0.034353074 -0.020910531 0.64909899
0.034440052 -0.022460878 0.6495555
0.034527466 -0.024019092 0.65001428
0.034615435 -0.025585294 0.65047598
0.034703746 -0.027159452 0.65093946
0.034792505 -0.028741628 0.65140533
0.034881722 -0.03033191 0.65187353
0.034971509 -0.031930506 0.65234476
0.03506165 -0.033537239 0.65281779
0.035152253 -0.035152256 0.65329337
0.035243329 -0.036775649 0.65377128
0.035334989 -0.038407594 0.65425241
0.035427012 -0.040047884 0.65473539
0.035519518 -0.041696787 0.65522087
0.035612505 -0.043354332 0.65570885
0.035706099 -0.0450207 0.65620005
0.03580007 -0.046695739 0.65669328
0.035894535 -0.04837957 0.65718907
0.035989501 -0.050072342 0.65768743
0.036085088 -0.051774293 0.65818918
0.059288766 0.054348052 0.7670036
0.054433115 0.047628969 0.74258155
0.05031237 0.04192701 0.72185576
0.046771817 0.037027717 0.70404816
0.043696642 0.032772511 0.68858123
0.041001044 0.029042393 0.6750235
0.038618699 0.025745809 0.66304117
0.036497883 0.022811204 0.65237427
0.034597985 0.020182163 0.64281857
0.03360134 0.018200755 0.63780582
0.033681072 0.016840547 0.63820684
0.033761181 0.015473872 0.63860977
0.033841774 0.01410076 0.63901508
0.03392265 0.012721002 0.63942188
0.034003913 0.011334628 0.63983059
0.034085568 0.0099416375 0.64024127
0.034167714 0.0085419416 0.64065444
0.034250163 0.0071354508 0.64106917
0.034333002 0.0057221651 0.64148581
0.034416247 0.0043020248 0.64190447
0.034499999 0.0028750002 0.64232576
0.034584057 0.0014410317 0.64274848
0.034668524 -2.9802322e-08 0.64317334
0.034753513 -0.001448065 0.64360082
0.034838811 -0.0029031932 0.6440298
0.034924529 -0.0043655634 0.64446098
0.035010669 -0.0058351159 0.64489424
0.035097346 -0.0073119402 0.64533013
0.035184342 -0.0087960958 0.64576769
0.035271771 -0.010287613 0.64620745
0.035359632 -0.01178655 0.64664936
0.035448048 -0.013293028 0.64709401
0.035536796 -0.014807016 0.64754039
0.035625987 -0.016328573 0.64798903
0.035715628 -0.01785776 0.64843982
0.035805833 -0.019394785 0.64889348
0.03589638 -0.020939559 0.64934897
0.035987388 -0.022492141 0.64980674
0.036078859 -0.02405256 0.65026677
0.036170911 -0.025621027 0.65072978
0.036263321 -0.02719751 0.65119457
0.0363562 -0.02878201 0.65166169
0.036449559 -0.030374646 0.65213126
0.036543511 -0.031975597 0.65260381
0.036637835 -0.033584684 0.6530782
0.036732648 -0.035202146 0.6535551
0.036827952 -0.036827952 0.65403438
0.036923867 -0.038462341 0.65451682
0.037020169 -0.040105224 0.65500116
0.037116971 -0.0417566 0.65548807
0.037214283 -0.043416649 0.65597755
0.037312228 -0.045085609 0.65647018
0.037410565 -0.046763182 0.65696472
0.037509423 -0.048449665 0.65746188
0.037608929 -0.050145268 0.65796244
0.037708841 -0.051849663 0.65846497
0.061999623 0.054559678 0.76816475
0.056903534 0.047798991 0.74355865
0.052581798 0.042065471 0.72269154
0.048870187 0.037141323 0.70477027
0.045647833 0.032866478 0.68921137
0.042824294 0.029120535 0.67557806
0.040329706 0.025810987 0.66353321
0.038109627 0.022865742 0.65281367
0.036121327 0.020227939 0.64321333
0.035046879 0.018224418 0.6380254
0.035130147 0.016862482 0.6384275
0.035213809 0.015494078 0.6388315
0.035297982 0.014119208 0.63923788
0.035382446 0.012737691 0.6396457
0.035467319 0.011349559 0.64005548
0.035552599 0.0099547505 0.64046723
0.035638396 0.0085532367 0.64088154
0.035724506 0.0071448684 0.64129728
0.035811026 0.0057297647 0.64171505
0.03589797 0.0043077767 0.6421349
0.035985447 0.0028788447 0.64255726
0.036073241 0.001442939 0.64298117
0.03616146 -0 0.64340711
0.03625023 -0.0014500022 0.64383578
0.03633932 -0.0029071271 0.64426589
0.03642885 -0.0043714941 0.6446982
0.036518823 -0.0058430135 0.64513266
0.036609355 -0.0073218644 0.64556968
0.036700226 -0.0088080764 0.64600849
0.036791544 -0.01030162 0.64644939
0.036883321 -0.011802644 0.64689255
0.036975671 -0.013311267 0.64733845
0.037068367 -0.014827371 0.64778602
0.037161529 -0.016351104 0.64823592
0.037255164 -0.017882496 0.64868796
0.037349388 -0.019421697 0.64914292
0.037443973 -0.020968616 0.64959955
0.037539035 -0.022523433 0.65005863
0.037634704 -0.024086237 0.65052056
0.037730739 -0.025656909 0.65098429
0.037827268 -0.027235627 0.65145034
0.03792429 -0.028822452 0.65191877
0.03802181 -0.030417413 0.65238965
0.038119957 -0.032020748 0.6528635
0.038218491 -0.033632278 0.65333927
0.038317528 -0.035252124 0.65381753
0.038417213 -0.036880523 0.65429878
0.038517289 -0.038517267 0.654782
0.038617887 -0.040162623 0.65526778
0.038719013 -0.041816533 0.65575612
0.038820796 -0.043479294 0.6562475
0.038922992 -0.045150697 0.65674096
0.039025724 -0.046830863 0.65723693
0.039129 -0.048519999 0.65773571
0.039232954 -0.050218195 0.65823758
0.03933733 -0.051925242 0.65874153
0.064731672 0.054772973 0.76933503
0.059391938 0.047970414 0.74454415
0.054866266 0.042204827 0.72353274
0.050981473 0.037255704 0.70549673
0.047610246 0.032960981 0.68984509
0.044657379 0.029199064 0.67613572
0.042049263 0.025876462 0.66402698
0.039729107 0.022920638 0.65325516
0.037651598 0.020273924 0.64360988
0.036496174 0.018248081 0.63824558
0.036582999 0.016884476 0.63864869
0.036670238 0.015514344 0.6390537
0.036758002 0.014137685 0.63946116
0.036846079 0.012754411 0.63987011
0.036934577 0.01136449 0.64028096
0.037023503 0.0099678636 0.64069384
0.03711297 0.0085645318 0.64110923
0.037202757 0.0071544051 0.6415261
0.037292983 0.0057373941 0.64194489
0.037383758 0.0043134987 0.64236641
0.03747486 0.0028826594 0.64278936
0.037566412 0.0014448464 0.6432144
0.037658408 -0 0.64364153
0.037750974 -0.0014519691 0.64407134
0.037843879 -0.002911061 0.64450258
0.037937243 -0.0043773651 0.64493603
0.038031068 -0.0058509409 0.64537162
0.038125478 -0.0073318183 0.64581001
0.038220238 -0.0088200569 0.64624989
0.038315471 -0.010315686 0.64669204
0.038411297 -0.011818856 0.64713693
0.038507488 -0.013329506 0.64758348
0.038604155 -0.014847726 0.64803231
0.038701314 -0.016373664 0.64848346
0.038798962 -0.017907202 0.64893675
0.038897227 -0.019448608 0.64939296
0.038995866 -0.020997763 0.6498509
0.039095007 -0.022554815 0.65031123
0.039194778 -0.024119824 0.65077448
0.039294936 -0.025692821 0.6512394
0.039395604 -0.027273893 0.65170681
0.039496794 -0.028863043 0.65217662
0.039598629 -0.030460507 0.6526494
0.039700862 -0.032066077 0.65312409
0.039803628 -0.033679992 0.65360117
0.039906923 -0.035302281 0.65408075
0.040010888 -0.036933124 0.65456343
0.040115267 -0.038572341 0.65504801
0.04022019 -0.040220171 0.6555351
0.04032566 -0.041876644 0.65602481
0.040431824 -0.043541938 0.65651768
0.040538408 -0.045215905 0.65701252
0.040645562 -0.046898723 0.65751004
0.040753279 -0.048590422 0.65801007
0.040861707 -0.05029133 0.65851355
0.040970575 -0.052001089 0.65901899
0.067485161 0.054987937 0.77051449
0.061898254 0.048143089 0.74553674
0.057165921 0.042345166 0.7243796
0.053105582 0.037370592 0.70622677
0.049583975 0.033055961 0.6904825
0.046500381 0.02927801 0.67669648
0.043777708 0.025942326 0.66452402
0.041356374 0.022975773 0.65369874
0.039188847 0.020320147 0.64400828
0.037949245 0.018271863 0.6384663
0.038039647 0.01690653 0.63887048
0.038130477 0.015534669 0.6392765
0.038221855 0.014156252 0.63968509
0.03831356 0.012771189 0.64009511
0.038405709 0.01137948 0.64050698
0.038498413 0.0099810958 0.64092153
0.038591448 0.0085758865 0.64133745
0.038684938 0.0071639121 0.6417554
0.038778879 0.0057450235 0.64217544
0.038873401 0.0043192804 0.64259803
0.038968261 0.0028865635 0.64302206
0.039063588 0.0014468133 0.64344823
0.03915938 -0 0.64387655
0.039255764 -0.0014539063 0.64430749
0.039352503 -0.002914995 0.64473999
0.039449718 -0.0043833256 0.64517456
0.03954754 -0.005858928 0.64561194
0.039645724 -0.0073418021 0.64605087
0.039744399 -0.0088320673 0.646492
0.039843563 -0.010329783 0.64693534
0.039943352 -0.011835068 0.64738148
0.04004351 -0.013347834 0.64782929
0.040144179 -0.01486817 0.64827931
0.04024535 -0.016396224 0.64873165
0.040347163 -0.017932087 0.64918685
0.040449362 -0.019475609 0.64964378
0.04055208 -0.021026969 0.65010297
0.040655322 -0.022586286 0.65056455
0.040759221 -0.02415362 0.65102911
0.040863521 -0.025728881 0.65149534
0.040968359 -0.027312249 0.65196407
0.041073732 -0.028903753 0.65243518
0.041179784 -0.030503541 0.65290928
0.041286252 -0.032111526 0.65338528
0.041393269 -0.033727825 0.65386373
0.041500848 -0.035352558 0.65434468
0.04160912 -0.036985904 0.65482879
0.04171782 -0.038627595 0.65531474
0.04182709 -0.040277928 0.6558032
0.041936934 -0.041936964 0.65629435
0.042047497 -0.043604791 0.65678865
0.042158503 -0.045281351 0.65728498
0.042270098 -0.046966791 0.65778387
0.042382285 -0.048661143 0.65828538
0.042495213 -0.050364673 0.65879029
0.0426086 -0.052077174 0.65929717
0.070260361 0.05520457 0.77170324
0.064422682 0.048317015 0.74653649
0.05948092 0.04248637 0.72523212
0.055243064 0.037486374 0.70696229
0.051569115 0.033151597 0.69112355
0.048353374 0.029357404 0.67726016
0.045514982 0.026008576 0.66502357
0.042991485 0.023031175 0.65414453
0.040732991 0.02036649 0.64440799
0.03940611 0.018295735 0.63868761
0.039500102 0.016928583 0.63909286
0.039594546 0.015554994 0.63950002
0.039689556 0.014174849 0.63990963
0.039784908 0.012787998 0.64032066
0.039880719 0.011394471 0.64073372
0.039977115 0.0099942684 0.64114928
0.040073853 0.0085873008 0.64156628
0.040171061 0.007173419 0.64198542
0.040268742 0.0057526827 0.64240652
0.040367022 0.004325062 0.64283025
0.04046566 0.0028903782 0.64325547
0.040564783 0.0014487505 0.64368278
0.040664516 -0 0.64411277
0.040764615 -0.0014558434 0.64454424
0.040865209 -0.0029189289 0.64497793
0.040966298 -0.0043892562 0.64541376
0.041068021 -0.0058668554 0.64585227
0.041170117 -0.0073517859 0.64629245
0.041272726 -0.008844167 0.64673483
0.041375842 -0.010343969 0.64717937
0.04147961 -0.011851311 0.64762664
0.041583765 -0.013366193 0.6480757
0.041688446 -0.014888734 0.64852703
0.041793659 -0.016418904 0.64898056
0.041899532 -0.017956942 0.64943701
0.042005815 -0.01950267 0.64989519
0.042112634 -0.021056324 0.6503557
0.04222 -0.022617877 0.65081859
0.042328048 -0.024187475 0.6512844
0.042436518 -0.025765032 0.651752
0.042545538 -0.027350694 0.65222204
0.042655122 -0.028944522 0.6526944
0.04276542 -0.030546725 0.65316993
0.042876139 -0.032157063 0.65364718
0.04298744 -0.033775836 0.65412706
0.043099314 -0.035403013 0.65460944
0.043211918 -0.037038803 0.65509486
0.043324966 -0.038683027 0.65558219
0.04343861 -0.040335864 0.65607208
0.043552853 -0.041997373 0.65656465
0.043667842 -0.043667823 0.65706038
0.043783292 -0.045347005 0.65755808
0.043899357 -0.047035038 0.65805846
0.044016037 -0.048732013 0.65856147
0.044133488 -0.050438285 0.65906781
0.044251423 -0.052153468 0.65957624
0.073057115 0.055422664 0.77289981
0.066965416 0.048492223 0.74754351
0.061811417 0.042628556 0.72609025
0.057393827 0.037602901 0.70770234
0.053565778 0.033247739 0.69176829
0.050216258 0.029437125 0.67782617
0.047261145 0.026075125 0.66552567
0.04463451 0.023086816 0.65459245
0.042284325 0.020413101 0.64481002
0.040866781 0.018319607 0.63890952
0.040964384 0.016950786 0.63931584
0.041062579 0.015575439 0.63972455
0.04116112 0.014193505 0.64013469
0.041260138 0.012804866 0.64054686
0.041359629 0.011409551 0.64096093
0.041459732 0.01000753 0.64137763
0.041560192 0.0085986257 0.64179581
0.04166114 0.0071829259 0.64221603
0.041762583 0.0057603419 0.64263821
0.041864645 0.0043308139 0.64306307
0.041967079 0.0028942823 0.64348948
0.042070016 0.0014506876 0.64391792
0.042173591 -0 0.64434904
0.042277541 -0.00145787 0.64478171
0.042382013 -0.0029228926 0.64521658
0.042486999 -0.0043952167 0.64565361
0.042592634 -0.0058748424 0.64609325
0.04269867 -0.0073618591 0.64653468
0.042805232 -0.0088562369 0.6469782
0.042912323 -0.010358125 0.64742398
0.043020096 -0.011867613 0.64787257
0.043128271 -0.01338464 0.64832282
0.04323699 -0.014909267 0.64877534
0.043346256 -0.016441673 0.64923018
0.043456215 -0.017981857 0.64968789
0.043566599 -0.019529819 0.65014732
0.043677542 -0.021085709 0.65060914
0.043789055 -0.022649497 0.65107328
0.043901276 -0.02422139 0.6515404
0.044013936 -0.025801271 0.65200937
0.04412717 -0.027389288 0.65248072
0.044240993 -0.028985441 0.65295446
0.044355541 -0.030590057 0.6534313
0.044470549 -0.03220281 0.65390998
0.044586148 -0.033823997 0.65439117
0.044702351 -0.035453558 0.65487486
0.04481931 -0.037091851 0.65536171
0.044936735 -0.038738549 0.65585047
0.045054775 -0.040393919 0.65634179
0.04517344 -0.042058021 0.65683573
0.04529288 -0.043731064 0.6573329
0.045412801 -0.045412809 0.65783209
0.045533363 -0.047103465 0.65833384
0.045654714 -0.0488033 0.65883899
0.045776561 -0.050512075 0.65934616
0.04589906 -0.052229971 0.65985608
0.06952665 0.048668653 0.74855775
0.064157553 0.042771697 0.72695422
0.059558004 0.037720084 0.70844698
0.055574052 0.033344448 0.69241685
0.052089479 0.029517382 0.67839599
0.049016267 0.026142001 0.66603029
0.046285484 0.023142755 0.65504253
0.043842781 0.02046001 0.64521384
0.042331271 0.018343538 0.63913202
0.042432502 0.016972989 0.6395393
0.042534351 0.015595943 0.63994914
0.042636558 0.014212191 0.64036041
0.042739261 0.012821823 0.64077359
0.042842459 0.011424661 0.64118886
0.042946283 0.010020822 0.64160663
0.043050483 0.0086100698 0.64202595
0.043155197 0.0071925223 0.64244723
0.043260541 0.0057681203 0.64287108
0.043366279 0.0043366253 0.64329654
0.043472532 0.0028981864 0.64372408
0.043579306 0.0014526844 0.64415371
0.043686736 2.9802322e-08 0.64458597
0.043794565 -0.0014598072 0.64501977
0.04390293 -0.0029268265 0.64545584
0.044011831 -0.0044011474 0.64589399
0.044121411 -0.0058828592 0.64633501
0.0442314 -0.0073719025 0.64677751
0.04434194 -0.0088683963 0.64722228
0.044453166 -0.0103724 0.64766985
0.044564821 -0.011883944 0.64811909
0.044677034 -0.013403088 0.64857066
0.044789813 -0.01492992 0.64902437
0.044903163 -0.016464472 0.64948046
0.045017235 -0.018006891 0.64993954
0.045131739 -0.019557059 0.65040022
0.045246828 -0.021115184 0.65086329
0.045362655 -0.022681326 0.65132934
0.045478925 -0.024255425 0.65179718
0.045595795 -0.0258376 0.6522674
0.045713272 -0.027427971 0.65274012
0.045831494 -0.029026628 0.65321577
0.045950186 -0.030633479 0.65369338
0.046069492 -0.032248646 0.65417349
0.046189424 -0.033872247 0.65465599
0.046310127 -0.035504431 0.65514171
0.046431314 -0.037145048 0.65562934
0.046553135 -0.038794279 0.65611947
0.0466756 -0.040452152 0.65661222
0.046798866 -0.042118937 0.65710819
0.046922628 -0.043794453 0.65760624
0.047047045 -0.045478821 0.6581068
0.047172122 -0.047172129 0.65861011
0.047298029 -0.048874646 0.65911669
0.047424451 -0.050586075 0.65962529
0.047551546 -0.052306682 0.6601367
0.072106607 0.048846424 0.74957955
0.066519506 0.042915821 0.72782397
0.061735712 0.037838042 0.70919633
0.057594042 0.033441722 0.6930691
0.053972945 0.029598057 0.67896897
0.050780419 0.026209235 0.66653764
0.047944479 0.023198962 0.65549475
0.045408405 0.020507008 0.64561963
0.04379959 0.018367559 0.63935506
0.043904476 0.016995281 0.63976347
0.044009995 0.015616447 0.64017433
0.04411589 0.014230937 0.64058667
0.044222295 0.012838721 0.64100099
0.044329349 0.01143983 0.64141786
0.044436786 0.010034144 0.64183623
0.044544753 0.0086215734 0.64225662
0.044653237 0.0072021782 0.64267904
0.044762388 0.0057758093 0.64310408
0.044871941 0.0043424368 0.64353067
0.044982027 0.0029020905 0.64395934
0.045092657 0.0014546216 0.64439011
0.045203976 2.9802322e-08 0.64482355
0.045315702 -0.0014617741 0.64525855
0.045427982 -0.00293082 0.64569581
0.045540813 -0.0044071674 0.64613521
0.045654356 -0.0058908761 0.6465773
0.045768321 -0.0073819458 0.64702106
0.045882858 -0.0088805258 0.64746702
0.045998111 -0.010386646 0.6479159
0.046113804 -0.011900336 0.64836633
0.046230078 -0.013421625 0.64881915
0.046346944 -0.014950603 0.64927417
0.046464544 -0.01648739 0.64973205
0.046582598 -0.018031955 0.65019178
0.046701249 -0.019584417 0.65065378
0.04682051 -0.021144748 0.65111816
0.046940528 -0.022713184 0.65158552
0.047061019 -0.024289578 0.65205467
0.04718212 -0.025874078 0.65252626
0.047303855 -0.027466714 0.65300024
0.047426365 -0.029067755 0.65347731
0.047549363 -0.030677021 0.65395623
0.047672998 -0.032294601 0.65443766
0.047797281 -0.033920646 0.65492159
0.047922365 -0.035555333 0.65540868
0.048047952 -0.037198424 0.65589774
0.048174199 -0.038850129 0.6563893
0.048301108 -0.040510595 0.65688348
0.048428852 -0.042179972 0.65738088
0.04855711 -0.043858021 0.65788031
0.04868605 -0.045544982 0.65838236
0.048815671 -0.047240973 0.65888715
0.048946157 -0.048946142 0.65939522
0.049077176 -0.050660342 0.65990537
0.049208891 -0.052383691 0.66041827
0.074705467 0.049025476 0.75060874
0.068897121 0.04306069 0.72869849
0.063927084 0.037956685 0.70995045
0.059625853 0.033539534 0.69372529
0.055866729 0.029679209 0.6795451
0.052553669 0.026276857 0.6670475
0.04961139 0.023255348 0.65594864
0.046981245 0.020554304 0.64602721
0.045271769 0.018391669 0.6395787
0.04538032 0.017017633 0.63998818
0.045489535 0.01563704 0.64040005
0.045599129 0.014249742 0.64081353
0.045709256 0.012855709 0.64122903
0.045820061 0.011455029 0.64164692
0.045931257 0.010047466 0.64206648
0.046043001 0.0086330771 0.64248794
0.046155281 0.0072117746 0.64291149
0.046268262 0.0057835579 0.64333761
0.046381649 0.004348278 0.64376539
0.046495598 0.0029059649 0.6441952
0.046610102 0.0014565885 0.64462721
0.046725318 2.9802322e-08 0.64506179
0.046840962 -0.0014637709 0.64549804
0.046957176 -0.0029348135 0.64593637
0.04707412 -0.0044131875 0.6463775
0.047191497 -0.0058989525 0.64682031
0.047309458 -0.0073921084 0.64726532
0.047428016 -0.0088927746 0.64771253
0.047547314 -0.010400981 0.64816248
0.047667071 -0.011916786 0.64861429
0.047787428 -0.013440192 0.64906824
0.047908392 -0.014971375 0.64952457
0.048030127 -0.016510367 0.64998376
0.048152324 -0.018057138 0.65044475
0.048275147 -0.019611776 0.65090799
0.048398603 -0.021174401 0.65137374
0.048522841 -0.022745103 0.65184242
0.048647564 -0.024323791 0.65231287
0.048772927 -0.025910616 0.65278578
0.048898943 -0.027505696 0.65326113
0.049025767 -0.029109061 0.65373957
0.049153093 -0.030720651 0.65421981
0.049281079 -0.032340705 0.65470266
0.049409736 -0.033969194 0.65518796
0.049539231 -0.035606295 0.65567642
0.04966924 -0.037251949 0.65616685
0.049799934 -0.038906217 0.65665984
0.049931318 -0.040569156 0.65715545
0.050063562 -0.042241126 0.65765435
0.050196342 -0.043921769 0.6581552
0.05032983 -0.045611382 0.65865874
0.05046403 -0.047309995 0.65916497
0.050599113 -0.049017876 0.65967453
0.050734751 -0.050734758 0.66018623
0.050871119 -0.052460849 0.66070068
0.077323452 0.04920584 0.75164557
0.071291171 0.043206781 0.72958004
0.066132247 0.038076133 0.71070927
0.061669592 0.033637971 0.69438529
0.05777093 0.029760808 0.68012434
0.054336086 0.026344776 0.66756004
0.051286597 0.023312092 0.65640533
0.048561361 0.020601779 0.64643669
0.046747811 0.018415809 0.63980293
0.046860192 0.017040074 0.64021397
0.046972968 0.015657634 0.64062655
0.047086295 0.014268577 0.64104104
0.047200166 0.012872756 0.64145756
0.047314733 0.011470228 0.64187664
0.047429711 0.010060847 0.64229727
0.047545247 0.0086445808 0.64271986
0.047661353 0.0072214305 0.64314455
0.047778174 0.0057913065 0.64357191
0.04789542 0.0043541193 0.64400077
0.04801324 0.0029098988 0.64443171
0.048131794 0.0014585257 0.64486539
0.048250783 -0 0.64530063
0.048370365 -0.0014657378 0.64573807
0.048490543 -0.002938807 0.64617765
0.048611466 -0.0044192374 0.64661998
0.048732843 -0.0059069991 0.64706397
