# .PCD v0.7 - Point Cloud Data file format
VERSION 0.7
FIELDS x y z
SIZE 4 4 4
TYPE F F F
COUNT 1 1 1
WIDTH 831
HEIGHT 1
VIEWPOINT 0 0 0 1 0 0 0
POINTS 831
DATA ascii
0.072853826 0.05735302 0.6559155
0.074191697 0.061826438 0.6553818
0.072679311 0.063401133 0.65546727
0.074548669 0.049699157 0.6562795
0.072985262 0.052797854 0.6562531
0.071897343 0.03907463 0.65747321
0.071897343 0.03907463 0.65747321
0.068835124 0.042239755 0.65764809
0.070281819 0.043730915 0.6573323
0.060969546 0.05784291 0.65751374
0.057931643 0.059497386 0.65780324
0.075593621 0.014173806 0.65890741
0.066127889 0.031489462 0.65885991
0.066007152 0.03614676 0.65851289
0.066007152 0.03614676 0.65851289
0.058213819 0.047200382 0.65872383
0.058107607 0.051825702 0.65837729
0.053503398 0.055077046 0.65875798
0.069636226 0.012661129 0.65984589
0.069550969 0.015807033 0.65961194
0.061490513 0.036263645 0.65912622
0.055388555 0.037980735 0.65983236
0.061452992 0.03781724 0.65901011
0.055320751 0.041095436 0.65959853
0.053699564 0.045802563 0.65945441
0.053601395 0.050448388 0.6591059
0.047441747 0.053767323 0.65969497
0.047325976 0.059946239 0.65922916
0.044266228 0.060075611 0.65964001
0.074736826 -0.0079507232 0.66075158
0.073046148 -0.0015879571 0.66048783
0.066737808 0.0079449415 0.66061282
0.058895219 0.017509401 0.66094691
0.055592787 0.02859059 0.66053677
0.050930917 0.031831831 0.66092616
0.050774615 0.039667666 0.66033655
0.046107695 0.042927861 0.66072452
0.047529068 0.049113363 0.66004634
0.038201019 0.054118097 0.66094047
0.03810719 0.060336411 0.66046846
0.031835362 0.065262496 0.6609475
0.078180179 -0.022337168 0.66139972
0.073361695 -0.012758523 0.66131586
0.07175646 -0.009567529 0.66128796
0.071712419 -0.0079680681 0.66116977
0.065583035 -0.00639835 0.66189122
0.063974135 -0.0031986833 0.66186315
0.059150245 0.0063945949 0.66177893
0.055971306 0.011194229 0.66184229
0.054263413 0.019151807 0.66145623
0.049576428 0.022389382 0.66184944
0.049576428 0.022389382 0.66184944
0.052627441 0.023921549 0.66131002
0.044786897 0.030391097 0.66188473
0.047822308 0.033475608 0.66122621
0.03671715 0.049488336 0.66150641
0.033473246 0.05897671 0.66121262
0.031854998 0.063710004 0.66106606
0.072336905 -0.030542254 0.6628449
0.070763119 -0.028948516 0.66293734
0.065950476 -0.020911157 0.66297311
0.065786563 -0.014440954 0.66249049
0.06248178 -0.0048062801 0.66219437
0.053086072 0.0016086698 0.66298765
0.056179866 0.0016051531 0.66256154
0.056179866 0.0016051531 0.66256154
0.052987043 0.0064226687 0.66262537
0.049854137 0.0080409944 0.66293085
0.054465387 0.0096115768 0.66217333
0.048178878 0.014453679 0.66266096
0.049637914 0.01921469 0.66208881
0.041704856 0.028872609 0.66242802
0.038509469 0.033695787 0.6624918
0.03529004 0.040102333 0.66243529
0.028946579 0.045028001 0.66292417
0.028946579 0.045028001 0.66292417
0.025627121 0.060864419 0.66214579
0.020877656 0.062632948 0.66266227
0.06441275 -0.020934165 0.66318679
0.059629954 -0.014504552 0.66334391
0.05649573 -0.012913287 0.66365093
0.054770995 -0.0048327148 0.66325831
0.054736849 -0.0032198131 0.66313708
0.045263216 0.0032331049 0.66393816
0.048389539 0.0032259822 0.66350865
0.043612957 0.008076489 0.66378742
0.03877423 0.016155899 0.66382343
0.032313075 0.027466118 0.66383076
0.033870246 0.029031664 0.66349465
0.030578239 0.040234536 0.6630736
0.027385592 0.043494761 0.66325903
0.024201956 0.045176983 0.66356641
0.019377245 0.051672667 0.66372412
0.02255699 0.051558852 0.66329479
0.017737685 0.058050573 0.66345215
0.012934783 0.059823394 0.66397488
0.012926687 0.061401784 0.66385281
0.071385056 -0.051916391 0.66464365
0.061596166 -0.032418996 0.66447031
0.053586438 -0.022733629 0.66481787
0.058264129 -0.022658259 0.66416806
0.055080052 -0.019440025 0.66435564
0.048723985 -0.014617205 0.66485429
0.050292287 -0.014600992 0.66463691
0.047092889 -0.011367232 0.66482532
0.045490887 -0.0097480416 0.66491967
0.042229049 -0.0032483637 0.66486168
0.03899366 0.0016247332 0.66492712
0.035733622 0.0081212819 0.66486913
0.038871508 0.0097178817 0.66431272
0.038822807 0.012940973 0.66406775
0.0355771 0.019405693 0.66401029
0.021060888 0.040501744 0.66436362
0.016244398 0.042235464 0.66489136
0.012999854 0.047124475 0.66495675
0.0081111304 0.060022384 0.66462409
0.070193067 -0.065295875 0.66585183
0.070148721 -0.063623279 0.66572738
0.06850718 -0.06035158 0.66569811
0.06350553 -0.047222048 0.66536301
0.061829031 -0.042304069 0.66521001
0.055462409 -0.03751868 0.66571313
0.052217398 -0.032635868 0.66577905
0.055287972 -0.029270083 0.66509378
0.04887769 -0.022809565 0.66547275
0.050450765 -0.022784233 0.665254
0.047241431 -0.019548178 0.6654436
0.034276664 -0.0016322136 0.66583073
0.037410472 0.0016265512 0.66514516
0.034190338 0.0048843324 0.66533458
0.016295653 0.034220904 0.66551006
0.016275113 0.03743276 0.6652621
0.011401886 0.043978721 0.66542262
0.0081417905 0.050479114 0.66536438
0.0097592864 0.050422996 0.66514581
0.0016315065 0.05710274 0.6657443
0.0048805508 0.0585666 0.66518229
0 0.061948895 0.66559082
-0.0016320529 0.062018037 0.66581035
0.058965899 -0.054052085 0.66652119
0.055708751 -0.049154758 0.66658771
0.054062199 -0.04587096 0.66655815
0.031121003 -0.0049138367 0.66652185
0.032722313 -0.0049083233 0.66630077
0.029441318 0.0016356409 0.66624194
0.021341844 0.0065667331 0.66697246
0.019697219 0.0098485947 0.66694283
0.019684775 0.011482775 0.66681767
0.019659799 0.014744818 0.66656643
0.017995963 0.021267951 0.66628635
0.011459674 0.031104833 0.66641909
0.011452413 0.032721192 0.66629392
-0.0016392997 0.050818294 0.66668504
-0.0098472079 0.062365621 0.66691458
-0.0049040006 0.063752025 0.66612589
0.0591533 -0.06243962 0.66714954
0.049501825 -0.056102067 0.66798413
0.055850305 -0.055850297 0.66709024
0.050996792 -0.05099678 0.66738015
0.050996792 -0.05099678 0.66738015
0.046070278 -0.042779535 0.66741747
0.041141912 -0.03455922 0.66745484
0.036165588 -0.023014456 0.66723919
0.03614258 -0.02135697 0.66711295
0.029610008 -0.013159961 0.66737324
0.031219905 -0.013145208 0.66715026
0.01977263 -0 0.66770142
0.01977263 -0 0.66770142
0.021382622 0.00164482 0.66735113
0.013190677 0.0098930299 0.66783607
0.013182259 0.011534482 0.66770905
0.011525394 0.016464859 0.66755241
0.0065871789 0.024701923 0.66758984
0.0065746005 0.029585719 0.66721022
0.0032842387 0.037768751 0.66702545
-0.0049415035 0.044473559 0.66763484
-0.0098911785 0.051104426 0.66779929
-0.0049258107 0.052542001 0.66700339
-0.014849044 0.057746321 0.66796392
-0.016475411 0.064254105 0.66767991
0.05281781 -0.062721193 0.66804397
0.046217356 -0.051169246 0.6680516
0.038081713 -0.044704616 0.66866803
0.033078372 -0.033078372 0.66844976
0.026463715 -0.02150178 0.66845751
0.023163615 -0.016545445 0.66852528
0.019823156 -0.0066077411 0.66820973
0.014908331 -0.0049694479 0.66875905
0.016503835 0.001650393 0.66802305
0.0082880417 0.0049728453 0.66889513
0.0049554254 0.019821733 0.66819507
-0.0033117202 0.028149664 0.66868412
-0.0049572969 0.036353499 0.66827035
-0.011604602 0.039787203 0.66891831
-0.0099101588 0.046247393 0.66818112
-0.009903824 0.04786849 0.66805369
-0.016549265 0.052957654 0.66857147
0.041565452 -0.061516851 0.66949987
0.031622119 -0.046601027 0.66970551
0.02993397 -0.041574955 0.66954583
0.024998022 -0.038330317 0.66997266
0.023327949 -0.03499192 0.6699422
0.018297167 -0.021623909 0.66959167
0.021574868 -0.021574855 0.66913617
0.014975523 -0.016639471 0.66966027
0.018250208 -0.014931977 0.66907638
0.0099984678 -0.011664867 0.66995776
0.011644103 -0.009980619 0.66959947
0.01162912 -0.0066452324 0.66934115
0.0033201079 0.0099603534 0.66919035
0.0033201079 0.0099603534 0.66919035
0.0016587371 0.014928609 0.66903144
-0.0016593022 0.019911617 0.66909963
-0.0066470113 0.024926305 0.66939539
-0.008312827 0.026601076 0.6694935
-0.0099803079 0.028277546 0.66959244
-0.01663449 0.039922774 0.66960019
-0.023304204 0.049937576 0.6697374
-0.021587301 0.053137988 0.66925162
-0.024932954 0.05651471 0.66944903
-0.029983034 0.059966087 0.66987479
0.035119724 -0.065222353 0.67067677
0.03170374 -0.053395778 0.67022413
0.02670298 -0.04506126 0.67026252
0.021756563 -0.043513119 0.67082328
0.018415727 -0.038505584 0.67089272
0.021672366 -0.033342093 0.6700415
0.016695729 -0.028382719 0.67033935
0.013343949 -0.020015925 0.67014879
0.0066938298 -0.01673457 0.67080832
0.0066679264 -0.006667912 0.6700266
-0.0033460262 0.001673013 0.67075467
-0.0083450638 0.016690135 0.67027181
-0.016742282 0.023439169 0.6709013
-0.011671999 0.02501142 0.67008054
-0.011671999 0.02501142 0.67008054
-0.026797906 0.040196866 0.67097867
-0.023364445 0.043391109 0.67025685
-0.025029533 0.046721786 0.67022628
-0.030060597 0.053441077 0.6703949
-0.035145465 0.05690223 0.67082477
-0.036765937 0.063504815 0.6705333
-0.035054713 0.063432366 0.67030311
0.030245405 -0.06889233 0.67163438
0.021841418 -0.053763479 0.67161119
0.015141277 -0.045423836 0.67188346
0.0067243101 -0.028578281 0.67172807
0.0016770385 -0.01341632 0.67124057
-0.0050443984 -0.0084073246 0.67177504
-0.015148882 0.0067328215 0.67198545
-0.011755456 0.0067174137 0.6715197
-0.018509628 0.01346156 0.67192316
-0.016753143 0.02177906 0.67103249
-0.025241392 0.025241405 0.67193115
-0.026867609 0.033584505 0.67150456
-0.026850149 0.035240859 0.67137283
-0.033585824 0.045340866 0.67151248
-0.036957148 0.050396115 0.67158234
0.023571055 -0.06229493 0.67203826
0.020223938 -0.058986455 0.67224121
0.016859112 -0.053949147 0.6723116
0.011826823 -0.050686389 0.67275041
0.015160978 -0.048852026 0.67214763
0 -0.025299519 0.67239881
-0.0050741169 -0.023679197 0.67297083
-0.013494126 -0.001686722 0.67241478
-0.015168656 0.0033708215 0.67225069
-0.021982804 0.0067639351 0.67292404
-0.025373671 0.011841029 0.67299563
-0.033805545 0.028734714 0.67283863
-0.033805545 0.028734714 0.67283863
-0.028616797 0.03030014 0.67200136
-0.037126075 0.038813621 0.67250931
-0.035397697 0.038768917 0.67227453
-0.042224459 0.045602441 0.67268187
-0.043877993 0.050628453 0.6725173
-0.050729908 0.057493895 0.67292553
0.01019571 -0.062873572 0.673926
0.003394237 -0.047519296 0.67366439
0.006772785 -0.047409505 0.67319101
0.0016935241 -0.038951039 0.67323053
-0.01359169 -0.02038753 0.6738869
-0.013573828 -0.016967297 0.67361736
-0.022098493 -0.0067995489 0.6739983
-0.022055015 -0.001696527 0.67359459
-0.022055015 -0.001696527 0.67359459
-0.04407949 0.038993359 0.67345273
-0.042335067 0.038948298 0.67321587
-0.042335067 0.038948298 0.67321587
-0.047580492 0.039083958 0.67392814
-0.049239781 0.044146001 0.67376161
-0.049175113 0.047479421 0.67349243
-0.047424451 0.047424465 0.67325544
0.0051224264 -0.066591531 0.67491472
-0.0068090148 -0.037449598 0.67428434
-0.010230548 -0.035806924 0.67462683
-0.011933788 -0.032391727 0.674595
-0.015338738 -0.025564551 0.67453188
-0.02049615 -0.022204161 0.67497945
-0.020442139 -0.015331626 0.67443621
-0.020428663 -0.013619095 0.67430061
-0.022113048 -0.0085050166 0.67413342
-0.032417085 0.001706183 0.67475617
-0.035841964 0.0068270564 0.67482829
-0.035841964 0.0068270564 0.67482829
-0.039191507 0.017039806 0.67449248
-0.042502295 0.028901577 0.67402339
-0.04773739 0.030688316 0.67460454
-0.04773739 0.030688316 0.67460454
-0.047705892 0.032371849 0.67446876
-0.0493371 0.039129436 0.67416668
-0.052827522 0.04089874 0.67450881
-0.056329798 0.042674094 0.67485291
-0.057951152 0.04942894 0.67454892
-0.059685733 0.051159173 0.67465287
-0.057874959 0.05276835 0.67427838
-0.061220046 0.06122005 0.67407948
-0.0068541481 -0.054833204 0.67564631
-0.012013054 -0.049768358 0.67596185
-0.0085606696 -0.049651891 0.67547703
-0.0068360283 -0.047852188 0.67509949
-0.011981247 -0.042790174 0.67541331
-0.020550521 -0.029113233 0.67552638
-0.027347377 -0.01196444 0.67512417
-0.044429358 0.01879704 0.67507714
-0.053178269 0.024016023 0.67587459
-0.053142965 0.025714308 0.67573714
-0.063243784 0.05127874 0.67513382
-0.018941285 -0.046492219 0.67666006
-0.018928731 -0.044740647 0.67652231
-0.02239315 -0.041341186 0.67673433
-0.027547847 -0.030991346 0.67663664
-0.029226035 -0.024068445 0.67632735
-0.029226035 -0.024068445 0.67632735
-0.032675926 -0.01891765 0.6764006
-0.036128249 -0.01376313 0.67647392
-0.03776738 -0.0051500797 0.67602801
-0.04304022 -0.0034432113 0.67662072
-0.039504033 -0.0034351349 0.67613274
-0.048150316 0.008598268 0.67638475
-0.056855556 0.018951863 0.67677599
-0.056817643 0.020660967 0.67663729
-0.068886437 0.041331887 0.67668736
-0.068886437 0.041331887 0.67668736
-0.07587906 0.050011158 0.67697257
-0.080960743 0.062012494 0.67673659
-0.012085296 -0.065605879 0.67720759
-0.012085296 -0.065605879 0.67720759
-0.024241088 -0.05194518 0.67781544
-0.025951199 -0.04671216 0.67764318
-0.025916472 -0.043194115 0.67736375
-0.031168483 -0.039826393 0.67782462
-0.031168483 -0.039826393 0.67782462
-0.04157443 -0.022519469 0.67790735
-0.043155301 -0.010357261 0.67717636
-0.044904318 -0.0086354315 0.67728221
-0.053713102 -0.0017326474 0.67795718
-0.053533696 0.0069076121 0.67725855
-0.060605604 0.012121141 0.67782539
-0.064048596 0.019041479 0.67775953
-0.064048596 0.019041479 0.67775953
-0.069209278 0.029413968 0.6776616
-0.074166171 0.046569437 0.67700523
-0.081340261 0.050188661 0.67771131
-0.020840539 -0.065995038 0.67844373
-0.020840539 -0.065995038 0.67844373
-0.026108438 -0.062660247 0.67890859
-0.038301684 -0.041783661 0.67895961
-0.038250107 -0.038250089 0.67867661
-0.036419146 -0.034684896 0.678146
-0.036394835 -0.032928675 0.67800629
-0.050466642 -0.019142509 0.67886835
-0.053857453 -0.0086866617 0.67851931
-0.06266325 0.0017406642 0.6789186
-0.062578887 0.0052148998 0.67863578
-0.067716315 0.017363161 0.67839605
-0.071214333 0.022580206 0.67847073
-0.074765146 0.026080847 0.67868674
-0.079997219 0.034781396 0.67872846
-0.034877665 -0.052316517 0.67930949
-0.041911505 -0.043657839 0.67960274
-0.04548195 -0.041983336 0.67996407
-0.057546236 -0.012206793 0.67930245
-0.062874928 -0.0069861114 0.67962837
-0.064611427 -0.0034924746 0.67959565
-0.069722652 0.01045838 0.67921084
-0.082165658 0.024474859 0.67983121
-0.080321476 0.024445653 0.67957938
-0.033296343 -0.068345129 0.6803422
-0.03327376 -0.066547513 0.68019879
-0.036814462 -0.06311053 0.68041831
-0.042167999 -0.05973798 0.68089277
-0.043858305 -0.052629948 0.68057072
-0.049198013 -0.047440916 0.68090141
-0.049097788 -0.042083859 0.68046939
-0.059723787 -0.028105319 0.68084228
-0.057780135 -0.022761911 0.68015808
-0.063045487 -0.014010102 0.68020034
-0.070100941 -0.0035050511 0.68035245
-0.073532633 0.0052523315 0.68014157
-0.08261279 0.010546327 0.68097955
-0.080593668 0.015768349 0.68029362
-0.04943328 -0.060026079 0.6819157
-0.04943328 -0.060026079 0.6819157
-0.045729604 -0.05628258 0.68111384
-0.051120639 -0.052883416 0.68159062
-0.051016353 -0.047497988 0.68115652
-0.075630017 -0.0035176873 0.68111461
-0.082668751 0.0087945461 0.68112326
-0.054890886 -0.058432221 0.68254334
-0.062103659 -0.051457316 0.68299198
-0.06558644 -0.042542577 0.68277663
-0.06558644 -0.042542577 0.68277663
-0.069014646 -0.031852871 0.68241447
-0.081477553 -0.01239875 0.68261302
-0.083178349 -0.0070789754 0.68243206
-0.081310235 -0.007070452 0.68217397
-0.083064489 -0.0035346746 0.68213969
-0.086689927 2.9802322e-08 0.68236333
-0.086689927 2.9802322e-08 0.68236333
-0.056886222 -0.065774709 0.68339086
-0.06748689 -0.044399291 0.68318284
-0.07106474 -0.039085567 0.68326092
-0.076621011 -0.037419558 0.68389654
-0.074593857 -0.031968802 0.68319166
-0.078174442 -0.026650369 0.6832698
-0.081701413 -0.01953727 0.68320048
-0.081701413 -0.01953727 0.68320048
-0.071408376 -0.051771075 0.68429792
-0.080491625 -0.041140169 0.68471962
-0.086353578 -0.046774834 0.68596661
-0.086353578 -0.046774834 0.68596661
-0.081222408 -0.064977914 0.68667996
-0.088322759 -0.04866761 0.68638575
0.071165554 0.064977229 0.65555286
0.071153462 0.039095521 0.65757406
0.061117552 0.051714867 0.65797186
0.070767984 0.052881882 0.65655136
0.065469682 0.056896031 0.65696812
0.066896632 0.059117943 0.65659803
0.069678932 0.011085302 0.65996301
0.069636226 0.012661129 0.65984589
0.066939928 0.029138513 0.65893155
0.058570482 0.031659722 0.65988743
0.070623301 0.031388134 0.65824825
0.061471753 0.037040442 0.65906817
0.062980101 0.037000582 0.65886343
0.053831264 0.039581805 0.659922
0.053831264 0.039581805 0.659922
0.056753382 0.044929534 0.65910244
0.055051364 0.053478479 0.65866947
0.056563452 0.05342105 0.65846556
0.067192398 -0.009598881 0.66191936
0.074713826 -0.0071536899 0.66069257
0.074713826 -0.0071536899 0.66069257
0.063149892 -0.00079963356 0.66178942
0.070779026 -0.001590535 0.66080046
0.069135889 0.0031787157 0.66065454
0.071403958 0.0031735003 0.66034234
0.071360111 0.0047573745 0.66022474
0.05913195 0.0071914494 0.6617192
0.068127282 0.012674868 0.66005272
0.051214837 0.017605126 0.6619972
0.051214837 0.017605126 0.6619972
0.054997183 0.02072373 0.66123307
0.057242244 0.023055658 0.66074163
0.060236 0.025362581 0.66014957
0.052986603 0.031261973 0.66068739
0.044731479 0.033548623 0.66164583
0.033524983 0.055076525 0.66150999
0.074997351 -0.043547094 0.66349304
0.070983924 -0.037105232 0.66354316
0.07087335 -0.033020765 0.66323984
0.073100068 -0.030525476 0.66273844
0.076858439 -0.028821886 0.66208816
0.067484833 -0.02088818 0.66275984
0.072067976 -0.020819634 0.66212356
0.062773667 -0.016900852 0.66309774
0.065080218 -0.016873017 0.66277772
0.058856033 -0.014512539 0.66345084
0.053251758 -0.0064547658 0.66359365
0.059407491 -0.0048168302 0.66261816
0.049107179 0.0064403564 0.66315871
0.045093995 0.012884021 0.66320866
0.033954963 0.022636652 0.66398156
0.044926032 0.022463024 0.66248453
0.044926032 0.022463024 0.66248453
0.024955511 0.049106628 0.66315579
0.022528877 0.054712981 0.66305244
0.024901213 0.054623023 0.66273284
0.019316848 0.059560269 0.66311663
0.019292794 0.062701613 0.66287464
0.07317917 -0.060982913 0.66510427
0.065266788 -0.055476755 0.66576409
0.068979099 -0.048691452 0.6647234
0.053891249 -0.037560552 0.66593289
0.060876306 -0.03490293 0.66476345
0.053003389 -0.032617748 0.66566968
0.05692251 -0.032527179 0.66512287
0.063147373 -0.032383263 0.66425443
0.063107796 -0.030744821 0.66413188
0.048954744 -0.02692537 0.66578281
0.056761645 -0.025137544 0.66456807
0.047196776 -0.017088726 0.66525769
0.047122523 -0.012999326 0.6649487
0.040739771 -0.0089629889 0.66551316
0.037422262 0.00081327558 0.66520703
0.045305766 0.00080877542 0.66412163
0.040522542 0.0048627257 0.66446424
0.030954219 0.0089601725 0.66546232
0.038822807 0.012940973 0.66406775
0.032475512 0.014613986 0.66481119
0.029219327 0.021102816 0.66475332
0.019548247 0.029322356 0.66544431
0.021140391 0.030897498 0.66510189
0.025135648 0.03081201 0.66455865
0.013032659 0.040727079 0.66545171
0.021060888 0.040501744 0.66436362
0.013008039 0.045528144 0.66508031
0.012967258 0.053489983 0.66446489
0.016173236 0.053371698 0.66403234
0.0086445492 0.061055325 0.66446996
0.011323358 0.061469674 0.6640684
0.0032511819 0.063398063 0.6650303
0.063203916 -0.067308538 0.66697145
0.067014277 -0.062928289 0.66610503
0.060689669 -0.060689688 0.66680121
0.058984511 -0.054888621 0.6665836
0.060459457 -0.050655216 0.66605014
0.052549288 -0.049264967 0.66703105
0.050883345 -0.045138702 0.66693842
0.04441826 -0.039482862 0.66738772
0.045100167 -0.032800466 0.66677237
0.032993846 -0.026395082 0.6679396
0.040959332 -0.022937238 0.66657329
0.024742704 -0.011546612 0.66791803
0.023060268 -0.0049415231 0.66763419
0.01895294 0.0008237958 0.66775006
0.016493294 0.0032986403 0.66789579
0.024546795 0.0090002269 0.66634148
0.013173853 0.013173848 0.66758215
0.014738258 0.02456376 0.66647798
0.0090330383 0.02710025 0.66706586
0.013102877 0.027024433 0.66651124
0.0065662642 0.032831311 0.66695869
-0.0032948295 0.041185349 0.66766465
-0.0065625943 0.057422698 0.66684794
0.046424922 -0.063005239 0.66894639
0.036608122 -0.05491218 0.66966736
0.043068361 -0.054663658 0.66875833
0.024933657 -0.031582624 0.66945469
0.019129837 -0.023289084 0.66960698
0.021574868 -0.021574855 0.66913617
0.024837814 -0.021526098 0.66868341
0.013318141 -0.014982879 0.66975933
0.014956248 -0.013294458 0.66940176
0.0091522858 -0.0066565573 0.66968334
0.0066636247 -0.0049977005 0.66989678
0.014908331 -0.0049694479 0.66875905
0.013258355 -0.0033145547 0.66885722
0.0033211699 0.0091329664 0.66925442
-0.0033202362 0.021581531 0.6691981
-0.0033202362 0.021581531 0.6691981
0.00082565891 0.026435986 0.66824806
-0.0016508218 0.033016413 0.66807592
-0.016666699 0.035000086 0.66998899
-0.014944477 0.04151243 0.66924387
-0.026642475 0.054950118 0.66980606
-0.021573426 0.054763347 0.66912282
-0.019033946 0.057100184 0.66859055
0.031047054 -0.067129821 0.67138624
0.016804317 -0.045371652 0.67165017
0.02668573 -0.043364286 0.6701324
0.015101921 -0.038593799 0.67135561
0.0050457451 -0.026910663 0.67182922
0.010888198 -0.026802912 0.67101645
0.0050342781 -0.020976409 0.67136782
0.010853019 -0.018367454 0.67036301
-0.001680886 -0.013447076 0.67170501
-0.0050476855 -0.010095328 0.67190731
-0.008410234 -0.0033640862 0.67184508
-0.0083504608 0.015030831 0.67040211
-0.018485604 0.016805112 0.67165953
-0.018485604 0.016805112 0.67165953
-0.013397908 0.016747355 0.67096293
-0.0066684438 0.016671121 0.67004222
-0.011671999 0.02501142 0.67008054
-0.026893845 0.031095728 0.6717025
-0.023409834 0.038459033 0.67064816
-0.031064402 0.041138425 0.67149317
-0.025045717 0.045082271 0.67035645
-0.036885161 0.055327773 0.6711874
-0.036861226 0.056967348 0.67105609
0.016892198 -0.059122682 0.67271096
0.01852368 -0.053887069 0.67207742
0.0084672561 -0.050803542 0.67322177
0.006777205 -0.049134761 0.67332441
0.0067617018 -0.043106124 0.67285657
-0.0033988389 -0.03908664 0.67394221
0.0067462446 -0.037104368 0.6723901
-0.0016935576 -0.033024654 0.67323464
-0.0033810504 -0.025357842 0.67286855
-0.011035422 -0.022918962 0.6737324
-0.0016874706 -0.023624599 0.6724999
-0.018630968 -0.0033874214 0.67325473
-0.030514162 0.01525709 0.67343664
-0.03301736 0.022857562 0.67318815
-0.03301736 0.022857562 0.67318815
-0.026955156 0.025270462 0.6721651
-0.040528461 0.043061212 0.67264652
-0.049110614 0.050804079 0.67322397
-0.001714339 -0.065144867 0.67574316
-0.0051312149 -0.053022563 0.67526829
-0.010291671 -0.051458329 0.67585653
-0.0068269917 -0.044375449 0.6748268
-0.017108073 -0.032505363 0.67531681
-0.013627553 -0.027255088 0.67442799
-0.020523299 -0.025654107 0.67525256
-0.018753907 -0.020458788 0.67460382
-0.02565914 -0.017106086 0.67529291
-0.020442139 -0.015331626 0.67443621
-0.030776596 -0.0068392158 0.67519653
-0.023810366 -0.0051022172 0.67410165
-0.023810366 -0.0051022172 0.67410165
-0.037717234 -0.0017144084 0.67575288
-0.032427803 0.00085309148 0.67482424
-0.032352958 0.0068111718 0.67434871
-0.044606309 0.0085781515 0.67589867
-0.042797849 0.011127174 0.67545038
-0.039282233 0.011101231 0.67496872
-0.048054487 0.013729841 0.67597163
-0.044429358 0.01879704 0.67507714
-0.037419386 0.018709689 0.67411864
-0.040889144 0.020444572 0.67446065
-0.054776181 0.032523394 0.67543125
-0.054721773 0.035055861 0.67522609
-0.045918506 0.034013689 0.67409503
-0.051131338 0.037496328 0.67454076
-0.063495725 0.041186452 0.67595583
-0.052740708 0.045084536 0.67417079
-0.054451525 0.047645092 0.67420661
-0.064985976 0.053014904 0.67523837
-0.068475679 0.056492448 0.67544782
-0.073747754 0.060884476 0.67583066
-0.068294585 0.063172489 0.67490125
-0.015574939 -0.065760851 0.67769986
-0.015533356 -0.058681548 0.67714208
-0.0085891439 -0.058406174 0.67616445
-0.020756856 -0.055351585 0.67760193
-0.022475529 -0.051002443 0.67749923
-0.020701388 -0.048303217 0.67704397
-0.027695475 -0.045005143 0.67775035
-0.024954978 -0.034419939 0.67654693
-0.027547847 -0.030991346 0.67663664
-0.045024771 -0.015585482 0.67784142
-0.03439033 -0.015475631 0.67636812
-0.046717804 -0.010381728 0.67766845
-0.043068931 -0.0051682889 0.67675936
-0.053659104 0.00086519122 0.67774695
-0.041215304 -0 0.67610109
-0.048246704 0.0034462214 0.67680025
-0.060362965 0.022420496 0.6769886
-0.053213619 0.022315383 0.67601228
-0.065703481 0.025070801 0.67751753
-0.058413606 0.029206812 0.67619079
-0.069162935 0.03112334 0.67752177
-0.061017491 0.032656983 0.6762802
-0.068932407 0.039636165 0.67682612
-0.077747144 0.048375964 0.67735767
-0.077747144 0.048375964 0.67735767
-0.073017672 0.054977641 0.67619121
-0.082946666 0.05702585 0.67739886
-0.077488206 0.056824684 0.6766631
-0.077359244 0.061027586 0.67631716
-0.027031766 -0.066270143 0.67931771
-0.031463627 -0.064675242 0.67980391
-0.020812543 -0.062437654 0.67816222
-0.031399865 -0.059310853 0.6793763
-0.029580301 -0.055680543 0.67884278
-0.036566492 -0.045272827 0.67899299
-0.036517244 -0.04173398 0.67870986
-0.036419146 -0.034684896 0.678146
-0.047127973 -0.033164114 0.67950231
-0.041742288 -0.033045948 0.67875159
-0.050568882 -0.024412543 0.67929393
-0.043328933 -0.020797879 0.6780147
-0.057701886 -0.019233972 0.6798718
-0.050432656 -0.017390519 0.67872691
-0.050432656 -0.017390519 0.67872691
-0.059160821 -0.003480047 0.67884362
-0.068220399 -0.0017491877 0.6799562
-0.066988878 0.010439739 0.67883557
-0.069582 0.015655965 0.6787864
-0.078694291 0.017487615 0.67989838
-0.065901794 0.017342567 0.67814755
-0.078948393 0.039039873 0.67825145
-0.085317582 0.040917337 0.6789825
-0.081613444 0.041674972 0.67841291
-0.038640063 -0.064985543 0.68081629
-0.047675464 -0.063567281 0.68194991
-0.051190529 -0.0564861 0.68188149
-0.040321428 -0.056976214 0.68042266
-0.040321428 -0.056976214 0.68042266
-0.052983429 -0.054749548 0.68199295
-0.049265057 -0.051024526 0.68119055
-0.052839074 -0.047555178 0.6814121
-0.054517265 -0.040448308 0.68108851
-0.054443114 -0.036880851 0.68079978
-0.065317422 -0.031776041 0.68189907
-0.063259758 -0.022843838 0.68091881
-0.072258517 -0.014980733 0.68154502
-0.066730276 -0.014926791 0.68077928
-0.06831295 -0.0052548349 0.68024266
-0.082838021 0.0035250187 0.68155807
-0.075373605 0.00525859 0.68039483
-0.085055828 0.021044612 0.68049657
-0.085809052 0.026268095 0.68019331
-0.060567729 -0.065021545 0.68383861
-0.056827545 -0.063043386 0.68316948
-0.073030531 -0.042749554 0.68381786
-0.074799642 -0.039180756 0.68378305
-0.067348182 -0.038991064 0.68274218
-0.065406851 -0.035355061 0.68219072
-0.074645199 -0.033768088 0.68333924
-0.072580218 -0.02655375 0.68249214
-0.070676006 -0.024736583 0.68208778
-0.076975405 -0.017695367 0.68240619
-0.088324197 0.007065922 0.68203759
-0.088324197 0.007065922 0.68203759
-0.06697312 -0.06072177 0.68438554
-0.071556777 -0.057245433 0.68474585
-0.080939844 -0.055758566 0.68592197
-0.07338459 -0.055485874 0.68486035
-0.076939262 -0.048310667 0.68478996
-0.084391981 -0.044889361 0.68554908
-0.082323954 -0.039372325 0.68483412
-0.082323954 -0.039372325 0.68483412
-0.086837225 -0.061509699 0.6871829
-0.079209313 -0.061207205 0.68610889
-0.086474068 -0.050443202 0.68626964
0.070697844 0.01055194 0.65986425
0.066002242 0.021736996 0.65963805
0.066002242 0.021736996 0.65963805
0.057861377 0.046053197 0.65886199
0.065899611 0.04602069 0.65775746
0.046094492 0.064612739 0.65903449
0.069920816 -0.026120692 0.66283268
0.051289134 -0.0056539774 0.66380167
0.053944338 -0.0024156719 0.66318357
0.042612344 0.010585844 0.66372967
0.053845592 0.029803714 0.66068292
0.054327767 0.034104083 0.66028106
0.03813177 0.03797194 0.66220993
0.03813177 0.03797194 0.66220993
0.037264355 0.065015137 0.66021931
0.066107988 -0.057947151 0.66584104
0.066107988 -0.057947151 0.66584104
0.077069715 -0.05776915 0.66431749
0.047399856 -0.050285302 0.66781962
0.053872962 -0.034195997 0.66567302
0.049805388 -0.030210353 0.66592211
0.038153555 -0.022154674 0.66689849
0.038153555 -0.022154674 0.66689849
0.049970008 -0.018282853 0.66496879
0.019791577 -0.0024742037 0.66789198
0.025783949 0.0057297945 0.6664263
0.03019405 0.0057122186 0.6658203
0.03019405 0.0057122186 0.6658203
0.017666154 0.010271039 0.66718984
0.010275011 0.022196516 0.66727722
0.022017062 0.02201727 0.66567439
0.029952833 0.026309609 0.66424632
0.01387622 0.033874705 0.66587037
0.0020527826 0.038204625 0.66716075
0.024270115 0.03802295 0.66411495
0.002043366 0.049888544 0.66625035
0.002043366 0.049888544 0.66625035
-0.0057477276 0.053777285 0.66702026
0.0096245259 0.061892491 0.66426957
0.050210707 -0.061990101 0.66834605
0.034202948 -0.05756212 0.670205
0.017559763 -0.034284532 0.67068112
0.025737287 -0.030304864 0.66924429
0.02569193 -0.025692642 0.66889107
0.022327052 -0.014058322 0.66844636
0.022327052 -0.014058322 0.66844636
-0.005883256 -0.0058830306 0.67169374
0.0058354037 -0.0058361366 0.67007637
0.0086691873 0.014036134 0.66813552
-0.0024928374 0.017861225 0.66937435
-0.0024928374 0.017861225 0.66937435
-0.025677716 0.049852923 0.67007113
-0.03764176 0.0623165 0.67074656
0.014396896 -0.061824337 0.6732651
0.014331147 -0.049739465 0.67233127
0.0016026384 -0.046377122 0.67382216
-0.014550588 -0.038515218 0.67543364
-0.0059469449 -0.033981111 0.6738947
-0.038312484 -0.0022873185 0.67587966
-0.017710524 0.0059030801 0.67240328
-0.054018766 0.026365664 0.67580694
-0.050466739 0.026515886 0.67530632
-0.050233919 0.038313352 0.67435366
-0.062291421 0.053757638 0.6748091
-0.0060203145 -0.066218197 0.67641997
-0.021685828 -0.061586589 0.67821604
-0.041950561 -0.046027686 0.67979312
-0.026348807 -0.042328916 0.67735583
-0.037349623 -0.037566762 0.67849922
-0.04624382 -0.034028374 0.67944789
-0.042451989 -0.021659203 0.67796111
-0.053976867 -0.014364863 0.6789791
-0.053976867 -0.014364863 0.6789791
-0.054630663 -0.0026017129 0.67815149
-0.054375224 0.0094937161 0.67717266
-0.074189179 0.014400527 0.67951858
-0.05785777 0.014247637 0.67728138
-0.086356238 0.037507758 0.67939115
-0.062989913 0.037507206 0.67617339
-0.066164844 0.042104304 0.67625201
-0.037752606 -0.065846935 0.68076128
-0.041307401 -0.062400043 0.68098199
-0.066183418 -0.054014333 0.68375361
-0.050226733 -0.053751148 0.6815353
-0.073485181 -0.025675669 0.68254822
-0.08583501 -0.0024341643 0.68243563
-0.070086345 -0.0029201261 0.68030477
-0.074541636 0.0021915808 0.68051958
-0.088476822 -0.053266957 0.68676525
-0.085373178 -0.038540892 0.68518913
-0.083809853 -0.026747793 0.68405396
