# .PCD v0.7 - Point Cloud Data file format
VERSION 0.7
FIELDS x y z
SIZE 4 4 4
TYPE F F F
COUNT 1 1 1
WIDTH 1337
HEIGHT 1
VIEWPOINT 0 0 0 1 0 0 0
POINTS 1337
DATA ascii
-0.01431339 -0.0028626621 0.64158201
-0.014296416 -0.0042889118 0.64137715
-0.014279439 -0.0057117641 0.64117217
-0.014262502 -0.0071312487 0.64096773
-0.014245647 -0.0085473955 0.6407643
-0.01422879 -0.0099601746 0.64056081
-0.014211972 -0.011369556 0.64035785
-0.014195194 -0.012775689 0.64015526
-0.0141785 -0.014178514 0.63995373
-0.014161801 -0.015577972 0.63975215
-0.014145141 -0.016974181 0.6395511
-0.014128521 -0.018367082 0.63935047
-0.014111982 -0.019756764 0.6391508
-0.014095439 -0.021143198 0.63895112
-0.014078935 -0.022526294 0.63875192
-0.014062513 -0.023906291 0.63855368
-0.014046086 -0.025282979 0.63835537
-0.014029698 -0.026656389 0.63815749
-0.013381182 0.046090752 0.64827651
-0.013364657 0.044548899 0.64805484
-0.013348172 0.043010771 0.64783376
-0.013331771 0.041476607 0.64761376
-0.013315368 0.039946109 0.64739382
-0.013299004 0.038419366 0.64717436
-0.013282682 0.036896318 0.64695537
-0.01326644 0.035377175 0.64673758
-0.013250197 0.033861637 0.64651972
-0.013233993 0.032349735 0.6463024
-0.013217829 0.030841589 0.64608562
-0.013201746 0.029337257 0.64586985
-0.013185661 0.027836412 0.64565414
-0.013169615 0.026339233 0.64543891
-0.013153648 0.024845779 0.64522481
-0.01313768 0.023355901 0.64501059
-0.01312175 0.0218696 0.64479697
-0.013105859 0.020386875 0.64458382
-0.013090008 0.018907785 0.64437121
-0.013074233 0.017432302 0.64415967
-0.013058457 0.015960336 0.64394802
-0.013042719 0.014491946 0.64373696
-0.013027059 0.013027072 0.64352691
-0.013011396 0.011565685 0.64331681
-0.012995771 0.010107845 0.6431073
-0.012980184 0.0086534619 0.6428982
-0.012964672 0.0072026253 0.64269018
-0.012949159 0.0057552457 0.64248204
-0.012933685 0.0043112636 0.6422745
-0.012918245 0.0028707385 0.64206749
-0.012902882 0.0014336407 0.64186144
-0.012887517 -0 0.64165533
-0.012872186 -0.0014302135 0.64144969
-0.012856895 -0.0028570592 0.64124465
-0.012841677 -0.0042805374 0.6410405
-0.012826458 -0.0057006776 0.64083642
-0.012811272 -0.0071173906 0.64063275
-0.012796164 -0.0085307658 0.64043009
-0.01278105 -0.0099408329 0.64022744
-0.012765974 -0.011347502 0.64002514
-0.012750932 -0.012750894 0.63982344
-0.012735964 -0.014151067 0.63962263
-0.012720993 -0.015547872 0.63942188
-0.012706057 -0.016941398 0.63922155
-0.012691157 -0.018331647 0.63902164
-0.012676329 -0.019718707 0.63882279
-0.012661498 -0.021102488 0.63862395
-0.012646702 -0.022482991 0.63842547
-0.012631978 -0.023860395 0.63822794
-0.01261725 -0.025234491 0.63803047
-0.012602557 -0.026605368 0.63783336
-0.011870258 0.045997262 0.64791244
-0.011855628 0.044458598 0.64769173
-0.011841035 0.042923719 0.64747155
-0.011826514 0.041392803 0.64725244
-0.011811992 0.039865494 0.64703327
-0.011797505 0.03834191 0.6468147
-0.011783092 0.03682217 0.64659727
-0.011768676 0.035306036 0.64637971
-0.011754296 0.033793598 0.64616275
-0.011739951 0.032284886 0.64594632
-0.01172564 0.030779809 0.64573038
-0.011711401 0.029278517 0.6455155
-0.011697161 0.027780741 0.64530063
-0.011682955 0.026286662 0.64508629
-0.011668818 0.024796277 0.64487296
-0.011654682 0.02330935 0.6446597
-0.011640578 0.021826088 0.64444691
-0.011626509 0.020346403 0.64423454
-0.011612508 0.018870354 0.64402336
-0.011598508 0.017397761 0.64381206
-0.01158454 0.015928715 0.6436013
-0.011570606 0.014463276 0.64339107
-0.011556741 0.013001353 0.64318186
-0.011542873 0.011542857 0.64297259
-0.011529039 0.010087907 0.64276391
-0.011515238 0.0086364448 0.64255559
-0.011501504 0.0071884394 0.64234841
-0.011487769 0.005743891 0.64214122
-0.011474067 0.0043027699 0.64193439
-0.011460396 0.0028651059 0.64172816
-0.011446794 0.0014308393 0.64152294
-0.01143319 -0 0.64131761
-0.011419618 -0.0014274418 0.64111286
-0.011406076 -0.002851516 0.64090854
-0.011392602 -0.0042721927 0.64070523
-0.011379126 -0.0056895614 0.64050186
-0.011365682 -0.0071035326 0.64029896
-0.011352303 -0.0085142255 0.64009714
-0.011338921 -0.0099215508 0.63989526
-0.011325571 -0.011325568 0.63969374
-0.011312253 -0.012726277 0.63949281
-0.011298999 -0.014123708 0.63929284
-0.011285743 -0.01551789 0.63909286
-0.011272518 -0.016908765 0.63889331
-0.011259324 -0.018296421 0.63869423
-0.011246194 -0.019680858 0.63849616
-0.011233062 -0.021061987 0.63829798
-0.01121996 -0.022439897 0.63810027
-0.011206922 -0.023814678 0.63790351
-0.011193882 -0.025186211 0.6377067
-0.011180869 -0.026554555 0.63751042
-0.010365451 0.04590416 0.64754993
-0.010352702 0.044368744 0.64733005
-0.010339984 0.042837083 0.64711076
-0.01032733 0.041309357 0.64689255
-0.010314674 0.039785177 0.64667434
-0.010302049 0.038264781 0.6464566
-0.010289487 0.036748171 0.64624
-0.010276925 0.035235167 0.64602333
-0.010264393 0.033725858 0.64580721
-0.010251891 0.032220244 0.64559162
-0.010239419 0.030718267 0.64537656
-0.01022701 0.029220045 0.64516258
-0.010214599 0.027725369 0.64494854
-0.010202218 0.026234299 0.64473504
-0.010189898 0.024746895 0.64452261
-0.010177577 0.023263037 0.64431018
-0.010165285 0.021782786 0.64409816
-0.010153024 0.020306051 0.64388674
-0.010140822 0.018832982 0.64367634
-0.01012862 0.01736334 0.64346594
-0.010116446 0.015897274 0.64325601
-0.010104302 0.014434755 0.64304656
-0.010092218 0.012975693 0.64283818
-0.010080132 0.011520147 0.64262974
-0.010068074 0.010068059 0.6424219
-0.010056046 0.0086194873 0.64221442
-0.010044076 0.0071743429 0.64200801
-0.010032105 0.0057326257 0.6418016
-0.010020163 0.0042943656 0.6415956
-0.010008249 0.002859503 0.6413902
-0.0099963918 0.0014280379 0.64118576
-0.0099845342 -2.9802322e-08 0.64098126
-0.0099727046 -0.0014246702 0.64077723
-0.0099609029 -0.0028459728 0.64057374
-0.0099491589 -0.0042639077 0.6403712
-0.0099374121 -0.0056785047 0.64016867
-0.0099256942 -0.0070897639 0.63996661
-0.0099140331 -0.0084977746 0.6397655
-0.0099023692 -0.0099023581 0.63956439
-0.0098907342 -0.011303693 0.63936377
-0.0098791253 -0.01270172 0.63916355
-0.0098675732 -0.014096528 0.6389643
-0.0098560182 -0.015487999 0.6387651
-0.0098444913 -0.016876251 0.63856626
-0.0098329904 -0.018261254 0.63836801
-0.0098215463 -0.019643098 0.63817066
-0.0098100994 -0.021021664 0.63797325
-0.0097986786 -0.022396982 0.63777626
-0.0097873146 -0.02376917 0.63758028
-0.0097759468 -0.02513814 0.6373843
-0.0097646052 -0.026503921 0.63718873
-0.0088776341 0.047347397 0.64740837
-0.0088667236 0.045811445 0.64718878
-0.0088558402 0.044279218 0.64696985
-0.0088449828 0.042750806 0.6467514
-0.0088341795 0.041226178 0.64653409
-0.0088233752 0.039705217 0.64631671
-0.008812598 0.038187891 0.64609993
-0.0088018747 0.03667447 0.64588416
-0.0087911487 0.035164624 0.64566839
-0.0087804496 0.033658385 0.6454531
-0.0087697767 0.032155901 0.6452384
-0.0087591568 0.030657053 0.64502478
-0.0087485351 0.029161811 0.64481103
-0.0087379394 0.027670115 0.64459789
-0.0087273698 0.026182115 0.64438528
-0.0087168524 0.024697751 0.64417362
-0.0087063331 0.023216903 0.64396203
-0.008695839 0.021739572 0.64375091
-0.0086853709 0.020265847 0.64354026
-0.0086749541 0.018795758 0.64333069
-0.0086645354 0.017329097 0.64312112
-0.0086541418 0.015865952 0.64291203
-0.0086437734 0.014406294 0.64270341
-0.0086334562 0.012950182 0.64249587
-0.0086231381 0.011497498 0.64228827
-0.0086128432 0.01004833 0.6420812
-0.0086025735 0.0086025596 0.64187455
-0.0085923541 0.007160306 0.64166892
-0.0085821338 0.00572142 0.64146334
-0.0085719367 0.0042859912 0.64125818
-0.0085617648 0.0028539598 0.6410535
-0.0085516423 0.0014252961 0.64084989
-0.008541517 -0 0.64064622
-0.0085314168 -0.0014218986 0.64044297
-0.0085213408 -0.0028404593 0.64024025
-0.0085113132 -0.0042556524 0.64003855
-0.0085012838 -0.0056675375 0.63983679
-0.0084912786 -0.0070760548 0.63963544
-0.0084813219 -0.0084813237 0.63943511
-0.0084713632 -0.0098832548 0.63923478
-0.0084614279 -0.011281878 0.63903493
-0.0084515158 -0.012677282 0.63883555
-0.0084416522 -0.014069438 0.63863707
-0.0084317867 -0.015458286 0.63843858
-0.0084219435 -0.016843885 0.63824058
-0.0084121246 -0.018226266 0.63804299
-0.0084023522 -0.019605458 0.63784635
-0.008392578 -0.020981401 0.63764971
-0.0083828261 -0.022354215 0.63745356
-0.0083731227 -0.023723841 0.63725835
-0.0083634155 -0.025090247 0.63706303
-0.0083537325 -0.026453465 0.63686824
-0.0073830951 0.047251821 0.64704782
-0.0073740394 0.045719028 0.64682919
-0.007365006 0.044190049 0.64661109
-0.007355995 0.042664766 0.64639354
-0.0073470287 0.041143388 0.64617705
-0.0073380619 0.039625555 0.64596057
-0.0073291166 0.038111418 0.64574462
-0.0073202155 0.036601126 0.64552975
-0.0073113129 0.035094291 0.64531481
-0.0073024333 0.033591211 0.64510041
-0.0072935745 0.032091707 0.64488661
-0.0072847595 0.030595988 0.64467382
-0.0072759432 0.029103786 0.64446092
-0.0072671487 0.02761519 0.6442486
-0.0072583756 0.02613014 0.64403677
-0.0072496454 0.024648815 0.64382601
-0.0072409143 0.023170918 0.64361525
-0.0072322041 0.021696627 0.64340496
-0.0072235144 0.020225823 0.64319521
-0.007214868 0.018758684 0.64298648
-0.0072062202 0.017294914 0.64277768
-0.0071975933 0.015834719 0.64256942
-0.007188987 0.014377952 0.64236164
-0.0071804235 0.01292479 0.64215481
-0.0071718581 0.011474997 0.6419481
-0.0071633132 0.01002866 0.64174181
-0.0071547884 0.0085857213 0.641536
-0.0071463059 0.0071463287 0.6413312
-0.0071378215 0.005710274 0.64112633
-0.0071293572 0.0042776465 0.64092201
-0.0071209129 0.002848357 0.64071822
-0.0071125105 0.0014224946 0.64051533
-0.0071041062 2.9802322e-08 0.64031243
-0.0070957216 -0.001419127 0.64011002
-0.0070873783 -0.0028349459 0.63990855
-0.0070790336 -0.0042473972 0.63970715
-0.0070707081 -0.0056566 0.6395061
-0.0070624026 -0.0070624352 0.63930559
-0.0070541371 -0.0084649622 0.63910604
-0.0070458702 -0.0098642111 0.63890648
-0.0070376229 -0.011260211 0.63870734
-0.0070293942 -0.012652904 0.63850868
-0.0070212064 -0.014042407 0.63831103
-0.0070130164 -0.015428632 0.63811332
-0.0070048459 -0.016811639 0.63791603
-0.006996714 -0.018191457 0.63771975
-0.0069885813 -0.019567996 0.63752341
-0.0069804676 -0.020941377 0.63732749
-0.0069723721 -0.022311598 0.63713211
-0.0069643157 -0.02367866 0.63693756
-0.0069562583 -0.025042534 0.63674301
-0.0069482191 -0.026403219 0.63654894
-0.0058945776 0.047156632 0.6466887
-0.0058873622 0.045627058 0.64647102
-0.0058801644 0.044101268 0.64625376
-0.005873003 0.042579293 0.64603764
-0.0058658402 0.041060895 0.64582151
-0.0058586956 0.039546192 0.64560592
-0.0058515677 0.038035154 0.64539081
-0.0058444752 0.036527991 0.64517677
-0.0058373823 0.035024285 0.64496267
-0.0058303061 0.033524245 0.64474916
-0.0058232471 0.03202787 0.64453614
-0.0058162231 0.030535191 0.64432418
-0.0058091986 0.029046029 0.64411223
-0.0058021913 0.027560413 0.64390075
-0.0057952004 0.026078433 0.64368975
-0.0057882434 0.024600059 0.64347982
-0.0057812859 0.023125142 0.6432699
-0.0057743457 0.021653801 0.64306045
-0.0057674213 0.020186007 0.64285147
-0.0057605314 0.01872173 0.64264357
-0.0057536406 0.017260939 0.64243555
-0.005746766 0.015803605 0.64222813
-0.0057399082 0.014349759 0.64202112
-0.0057330835 0.012899458 0.64181519
-0.0057262578 0.011452556 0.64160925
-0.0057194489 0.010009021 0.64140379
-0.0057126558 0.0085689723 0.64119875
-0.0057058963 0.0071323514 0.64099479
-0.0056991349 0.0056991577 0.6407907
-0.0056923903 0.0042693019 0.64058721
-0.0056856782 0.0028428733 0.64038467
-0.0056789652 0.0014197528 0.64018202
-0.0056722681 2.9802322e-08 0.63997996
-0.0056655859 -0.0014163554 0.63977826
-0.0056589376 -0.0028294623 0.63957769
-0.0056522875 -0.0042392313 0.639377
-0.0056456528 -0.0056456625 0.63917679
-0.0056390339 -0.0070487857 0.63897699
-0.0056324466 -0.0084486902 0.63877827
-0.0056258584 -0.009845227 0.63857943
-0.0056192861 -0.011238545 0.63838106
-0.0056127282 -0.012628645 0.63818318
-0.0056062033 -0.014015526 0.6379863
-0.0055996762 -0.015399098 0.63778931
-0.0055931644 -0.016779453 0.63759279
-0.0055866847 -0.018156737 0.63739723
-0.0055802027 -0.019530714 0.63720167
-0.005573736 -0.020901501 0.63700652
-0.0055672848 -0.02226916 0.63681185
-0.0055608642 -0.023633659 0.63661808
-0.0055544428 -0.024994999 0.6364243
-0.0055480353 -0.02635318 0.63623095
-0.0044120448 0.047061801 0.64633113
-0.0044066552 0.045535445 0.64611423
-0.0044012787 0.044012755 0.64589792
-0.0043959292 0.042493969 0.64568263
-0.0043905787 0.04097873 0.64546734
-0.0043852413 0.039467186 0.64525265
-0.0043799169 0.037959278 0.64503831
-0.0043746186 0.036455154 0.64482516
-0.0043693199 0.034954578 0.64461201
-0.0043640342 0.033457607 0.64439929
-0.004358761 0.031964242 0.64418709
-0.0043535139 0.030474633 0.64397603
-0.0043482664 0.028988421 0.64376485
-0.004343031 0.027505875 0.64355421
-0.0043378086 0.026026845 0.6433441
-0.0043326123 0.024551451 0.64313495
-0.0043274146 0.023079544 0.6429258
-0.0043222294 0.021611154 0.64271724
-0.0043170569 0.020146281 0.6425091
-0.0043119099 0.018684983 0.64230198
-0.0043067615 0.017227054 0.64209485
-0.0043016262 0.015772641 0.64188826
-0.0042965026 0.014321715 0.64168203
-0.0042914045 0.012874186 0.64147693
-0.004286305 0.011430144 0.64127177
-0.0042812182 0.0099895 0.64106709
-0.0042761434 0.008552283 0.64086282
-0.0042710933 0.0071185231 0.64065963
-0.0042660423 0.0056880713 0.64045644
-0.0042610033 0.0042610168 0.64025366
-0.0042559891 0.0028373301 0.64005184
-0.0042509735 0.0014169812 0.63985014
-0.0042459699 -0 0.6396488
-0.004240978 -0.0014136434 0.63944793
-0.0042360108 -0.0028239787 0.63924801
-0.0042310422 -0.0042310357 0.6390481
-0.0042260853 -0.0056347847 0.63884866
-0.0042211404 -0.0070352554 0.6386497
-0.0042162193 -0.0084324181 0.6384517
-0.0042112968 -0.0098263919 0.63825363
-0.0042063864 -0.011217058 0.63805604
-0.0042014997 -0.012604505 0.6378594
-0.0041966117 -0.013988703 0.63766277
-0.0041917353 -0.015369684 0.63746649
-0.0041868701 -0.016747475 0.63727075
-0.0041820286 -0.018122137 0.63707596
-0.0041771857 -0.01949352 0.63688111
-0.0041723545 -0.020861804 0.63668668
-0.0041675339 -0.02222684 0.63649273
-0.0041627372 -0.023588836 0.63629973
-0.0041579395 -0.024947643 0.63610673
-0.004153152 -0.026303291 0.63591403
-0.0029354615 0.046967387 0.64597487
-0.0029318829 0.04544422 0.64575887
-0.0029283129 0.043924719 0.64554346
-0.0029247608 0.042409033 0.64532906
-0.0029212078 0.040896893 0.64511466
-0.0029176639 0.039388508 0.64490068
-0.0029141284 0.037883669 0.64468735
-0.0029106103 0.036382645 0.64447498
-0.002907092 0.034885108 0.64426267
-0.0029035823 0.033391207 0.64405078
-0.0029000808 0.031900883 0.64383948
-0.0028965967 0.030414313 0.64362913
-0.0028931119 0.028931111 0.64341891
-0.0028896357 0.027451545 0.6432091
-0.0028861677 0.025975525 0.64299977
-0.0028827169 0.024503052 0.64279151
-0.0028792655 0.023034126 0.64258313
-0.0028758226 0.021568686 0.64237535
-0.0028723874 0.020106673 0.64216805
-0.0028689697 0.018648326 0.64196175
-0.002865551 0.017193317 0.64175546
-0.0028621408 0.015741795 0.64154959
-0.0028587384 0.0142937 0.64134419
-0.0028553526 0.012849063 0.64113986
-0.0028519665 0.011407882 0.64093554
-0.0028485884 0.0099700689 0.64073163
-0.0028452184 0.0085356832 0.64052826
-0.0028418647 0.0071046948 0.64032578
-0.0028385103 0.0056770146 0.64012337
-0.0028351641 0.0042527616 0.63992143
-0.0028318339 0.0028318465 0.63972044
-0.0028285033 0.0014142692 0.63951933
-0.0028251803 -0 0.63931882
-0.0028218655 -0.0014109313 0.63911879
-0.0028185665 -0.0028185844 0.63891965
-0.0028152671 -0.0042229295 0.63872051
-0.0028119751 -0.0056239665 0.63852185
-0.0028086912 -0.0070217252 0.63832366
-0.002805423 -0.0084162652 0.63812637
-0.0028021543 -0.0098075569 0.63792908
-0.0027988928 -0.01119557 0.63773227
-0.0027956474 -0.012580425 0.63753641
-0.0027924015 -0.013962001 0.63734043
-0.0027891628 -0.015340388 0.63714498
-0.0027859316 -0.016715586 0.63695002
-0.0027827162 -0.018087655 0.63675594
-0.0027795003 -0.019456476 0.63656181
-0.0027762912 -0.020822197 0.6363681
-0.00277309 -0.02218473 0.63617492
-0.0027699042 -0.023544163 0.63598263
-0.0027667175 -0.024900466 0.63579029
-0.0027635382 -0.026253581 0.63559836
-0.0014647918 0.046873361 0.64562011
-0.0014630097 0.045353293 0.64540499
-0.0014612317 0.043836981 0.64519042
-0.0014594628 0.042324394 0.64497685
-0.0014576935 0.040815443 0.64476323
-0.0014559284 0.039310068 0.64455026
-0.0014541678 0.037808359 0.64433765
-0.0014524157 0.036310405 0.64412618
-0.0014506635 0.034815937 0.6439147
-0.0014489155 0.033325076 0.6437037
-0.0014471717 0.031837791 0.64349318
-0.0014454364 0.030354202 0.64328372
-0.001443701 0.02887404 0.64307427
-0.0014419698 0.027397454 0.6428653
-0.0014402426 0.025924355 0.64265674
-0.001438524 0.024454921 0.64244938
-0.001436805 0.022988886 0.64224184
-0.0014350902 0.021526366 0.64203489
-0.0014333795 0.020067304 0.64182836
-0.0014316774 0.018611819 0.64162284
-0.0014299748 0.017159671 0.64141738
-0.0014282762 0.01571101 0.64121234
-0.0014265816 0.014265805 0.64100778
-0.0014248955 0.012824029 0.64080423
-0.0014232089 0.011385679 0.64060062
-0.0014215264 0.0099506974 0.64039755
-0.0014198479 0.0085191131 0.64019489
-0.0014181776 0.0070909262 0.63999331
-0.0014165071 0.0056660175 0.63979161
-0.0014148401 0.004244566 0.63959038
-0.0014131817 0.0028263927 0.63939023
-0.0014115227 0.0014115274 0.63919002
-0.0014098678 2.9802322e-08 0.63899022
-0.0014082167 -0.0014082193 0.63879091
-0.0014065736 -0.0028131306 0.6385926
-0.0014049301 -0.0042147934 0.63839418
-0.0014032905 -0.0056131482 0.63819623
-0.0014016547 -0.0070082247 0.63799876
-0.0014000268 -0.0084001422 0.6378023
-0.0013983988 -0.0097887814 0.63760579
-0.0013967743 -0.011174202 0.63740969
-0.0013951579 -0.012556404 0.63721454
-0.0013935409 -0.013935387 0.6370194
-0.0013919277 -0.015311211 0.63682467
-0.0013903184 -0.016683787 0.63663036
-0.0013887167 -0.018053293 0.63643706
-0.0013871148 -0.019419611 0.6362437
-0.0013855165 -0.020782739 0.63605076
-0.0013839218 -0.022142738 0.63585824
-0.001382335 -0.023499668 0.63566673
-0.0013807476 -0.024853438 0.6354751
-0.0013791638 -0.026204109 0.63528395
0 0.046779662 0.64526677
0 0.045262784 0.64505249
0 0.043749571 0.64483875
0 0.042240143 0.64462608
0 0.040734291 0.64441335
0 0.039232016 0.6442011
0 0.037733346 0.64398944
0 0.036238462 0.6437788
0 0.034747034 0.64356816
0 0.033259243 0.64335793
0 0.031774908 0.6431483
0 0.030294329 0.64293969
0 0.028817147 0.64273095
0 0.027343541 0.64252281
0 0.025873452 0.64231515
0 0.02440694 0.64210856
0 0.022943825 0.64190185
0 0.021484226 0.64169568
0 0.020028085 0.64148998
0 0.01857543 0.6412853
0 0.017126232 0.64108056
0 0.015680432 0.64087629
0 0.01423806 0.64067256
0 0.012799174 0.64046979
0 0.011363596 0.64026701
0 0.0099314153 0.64006478
0 0.0085026324 0.63986337
0 0.0070771873 0.63966203
0 0.0056550801 0.63946116
0 0.0042363107 0.63926077
0 0.002820909 0.63906133
0 0.0014088452 0.63886184
0 2.9802322e-08 0.63866282
0 -0.0014055371 0.63846433
0 -0.0028077364 0.63826674
0 -0.0042066872 0.63806909
0 -0.0056024194 0.63787198
0 -0.0069948435 0.63767523
0 -0.0083840787 0.63747948
0 -0.0097701252 0.63728368
0 -0.011152893 0.63708842
0 -0.012532473 0.63689399
0 -0.013908893 0.63669956
0 -0.015282124 0.6365056
0 -0.016652197 0.63631207
0 -0.01801911 0.63611943
0 -0.019382834 0.63592678
0 -0.020743459 0.63573456
0 -0.022100925 0.63554281
0 -0.023455352 0.63535196
0 -0.024806648 0.6351611
0 -0.026154786 0.63497066
0.0014589489 0.046686381 0.64491487
0.0014571809 0.045172632 0.64470142
0.0014554173 0.043662548 0.64448851
0.0014536622 0.04215619 0.64427668
0.001451907 0.040653408 0.64406478
0.001450156 0.039154202 0.64385343
0.0014484092 0.037658632 0.64364254
0.0014466711 0.036166817 0.64343274
0.0014449327 0.03467837 0.64322293
0.0014431983 0.033193618 0.64301354
0.0014414684 0.031712323 0.64280474
0.0014397467 0.030234694 0.64259696
0.0014380249 0.028760523 0.64238906
0.0014363072 0.027289838 0.64218175
0.0014345937 0.025822699 0.64197487
0.0014328884 0.024359107 0.64176905
0.001431183 0.022898942 0.64156318
0.0014294815 0.021442264 0.64135778
0.0014277842 0.019989014 0.64115286
0.0014260951 0.01853925 0.64094901
0.0014244058 0.017092884 0.6407451
0.0014227205 0.015649945 0.64054167
0.0014210392 0.014210403 0.64033872
0.001419366 0.012774289 0.64013678
0.0014176925 0.011341542 0.63993472
0.001416023 0.009912163 0.6397332
0.0014143618 0.0084861517 0.63953269
0.0014127 0.007063508 0.63933206
0.0014110423 0.0056442022 0.63913196
0.0014093884 0.0042281449 0.63893235
0.0014077426 0.002815485 0.63873369
0.0014060964 0.0014061034 0.63853496
0.001404454 2.9802322e-08 0.63833672
0.0014028156 -0.0014027953 0.63813889
0.0014011852 -0.0028023422 0.63794214
0.0013995542 -0.0041986406 0.63774526
0.0013979271 -0.0055917203 0.6375488
0.001396308 -0.0069815516 0.63735342
0.0013946884 -0.0083681345 0.63715792
0.0013930725 -0.0097514987 0.63696289
0.0013914605 -0.011131674 0.63676822
0.0013898563 -0.01250872 0.63657463
0.0013882517 -0.013882518 0.63638091
0.0013866507 -0.015253156 0.63618767
0.0013850535 -0.016620636 0.63599485
0.001383464 -0.017985046 0.63580298
0.0013818741 -0.019346207 0.63561106
0.0013802878 -0.020704299 0.63541955
0.0013787093 -0.022059351 0.63522905
0.0013771302 -0.023411185 0.63503844
0.0013755548 -0.024759978 0.6348483
0.001373983 -0.026105702 0.63465858
0.0029120904 0.046593457 0.64456433
0.0029085681 0.045082837 0.64435178
0.0029050547 0.043575823 0.64413965
0.0029015585 0.042072594 0.64392871
0.0028980621 0.040572882 0.64371765
0.0028945738 0.039076775 0.64350706
0.0028910942 0.037584245 0.64329708
0.0028876313 0.036095411 0.6430881
0.0028841684 0.034610003 0.64287913
0.0028807134 0.033128202 0.64267057
0.0028772671 0.031649947 0.64246255
0.0028738375 0.030175298 0.64225549
0.0028704072 0.028704107 0.64204848
0.002866985 0.027236372 0.64184201
0.0028635713 0.025772154 0.64163595
0.0028601743 0.024311483 0.64143091
0.002856777 0.022854239 0.64122587
0.0028533873 0.021400392 0.64102125
0.0028500056 0.019950062 0.64081717
0.0028466408 0.018503189 0.64061409
0.0028432754 0.017059684 0.64041096
0.0028399175 0.015619576 0.6402083
0.0028365767 0.014182895 0.64000666
0.0028332346 0.012749583 0.63980496
0.0028299007 0.011319607 0.63960373
0.0028265747 0.0098930001 0.63940299
0.0028232646 0.00846982 0.63920325
0.0028199542 0.0070498884 0.6390034
0.0028166515 0.0056333244 0.63880408
0.0028133565 0.0042200089 0.63860524
0.0028100775 0.0028100908 0.63840723
0.0028067976 0.0014033914 0.63820934
0.0028035257 -0 0.63801187
0.0028002695 -0.0014001131 0.6378153
0.0027970125 -0.0027970076 0.63761878
0.0027937633 -0.0041906536 0.63742268
0.0027905216 -0.0055810511 0.637227
0.0027872955 -0.00696823 0.63703233
0.0027840689 -0.0083521903 0.63683754
0.0027808493 -0.0097329617 0.63664323
0.0027776377 -0.011110544 0.63644934
0.0027744414 -0.012484998 0.63625646
0.0027712442 -0.013856232 0.63606352
0.0027680546 -0.015224278 0.63587099
0.002764872 -0.016589224 0.63567889
0.0027617051 -0.017951101 0.63548774
0.002758537 -0.019309729 0.63529658
0.0027553765 -0.020665318 0.63510579
0.0027522312 -0.022017837 0.63491595
0.002749085 -0.023367226 0.63472611
0.0027459462 -0.024713516 0.63453662
0.0027428144 -0.026056737 0.63434762
0.0043594581 0.046500891 0.64421511
0.0043541957 0.044993371 0.64400345
0.0043489463 0.043489456 0.64379221
0.0043437234 0.041989356 0.64358205
0.0043384992 0.040492684 0.64337182
0.0043332875 0.038999587 0.64316213
0.0043280884 0.037510127 0.64295292
0.0043229149 0.036024302 0.64274478
0.0043177404 0.034541935 0.64253658
0.0043125791 0.033063114 0.64232892
0.0043074293 0.031587839 0.64212167
0.0043023047 0.030116141 0.6419155
0.0042971801 0.02864787 0.64170933
0.0042920671 0.027183115 0.64150351
0.0042869663 0.025721788 0.64129835
0.004281891 0.024264038 0.64109415
0.0042768144 0.022809684 0.64088982
0.0042717494 0.021358728 0.64068604
0.004266697 0.019911259 0.64048278
0.0042616692 0.018467247 0.64028043
0.0042566406 0.017026573 0.64007813
0.0042516235 0.015589267 0.63987625
0.0042466312 0.014155447 0.63967532
0.0042416379 0.012724906 0.63947451
0.0042366562 0.011297762 0.639274
0.0042316862 0.0098739266 0.63907403
0.0042267404 0.0084534883 0.63887501
0.0042217937 0.0070363283 0.63867599
0.0042168591 0.0056224465 0.63847744
0.0042119352 0.0042119324 0.63827932
0.0042070355 0.0028046966 0.63808215
0.0042021349 0.0014007092 0.63788497
0.0041972455 -0 0.63768822
0.0041923798 -0.0013974905 0.63749242
0.0041875136 -0.0027916729 0.63729668
0.0041826577 -0.0041826069 0.63710129
0.0041778139 -0.0055704117 0.63690633
0.0041729929 -0.0069549978 0.63671243
0.0041681714 -0.0083363354 0.63651836
0.0041633607 -0.009714514 0.63632482
0.0041585611 -0.011089504 0.6361317
0.0041537848 -0.012461334 0.63593954
0.0041490071 -0.013830036 0.63574731
0.0041442406 -0.015195549 0.63555551
0.0041394853 -0.016557962 0.63536417
0.0041347528 -0.017917275 0.63517374
0.0041300189 -0.01927343 0.63498324
0.0041252957 -0.020626456 0.63479316
0.0041205953 -0.021976501 0.6346041
0.004115894 -0.023323417 0.63441491
0.0041112029 -0.024667203 0.63422614
0.004106523 -0.02600795 0.63403785
0.0058010868 0.046408713 0.64386737
0.0057940991 0.044904262 0.64365649
0.0057871267 0.043403417 0.64344615
0.0057801902 0.041906416 0.64323676
0.0057732519 0.040412813 0.64302742
0.0057663308 0.038922757 0.64281851
0.0057594259 0.037436247 0.64261019
0.0057525551 0.035953492 0.64240283
0.0057456833 0.034474105 0.64219546
0.0057388279 0.032998264 0.64198858
0.0057319887 0.03152594 0.64178222
0.0057251826 0.030057222 0.64157683
0.005718376 0.028591901 0.64137137
0.0057115857 0.027130008 0.64116645
0.0057048113 0.025671631 0.64096206
0.0056980699 0.024216801 0.64075857
0.0056913276 0.022765309 0.64055514
0.0056846007 0.021317273 0.64035213
0.0056778905 0.019872636 0.64014959
0.0056712129 0.018431425 0.63994813
0.0056645335 0.016993612 0.63974655
0.0056578703 0.015559107 0.63954544
0.0056512393 0.014128119 0.63934529
0.0056446074 0.012700379 0.6391452
0.0056379908 0.011276007 0.63894552
0.0056313896 0.0098549426 0.63874632
0.0056248205 0.0084372461 0.63854814
0.0056182505 0.0070228279 0.63834983
0.0056116953 0.0056116879 0.638152
0.0056051561 0.0042038858 0.63795465
0.005598648 0.0027993321 0.63775831
0.0055921385 0.0013980269 0.6375618
0.0055856444 2.9802322e-08 0.63736582
0.0055791819 -0.0013947785 0.63717079
0.0055727176 -0.0027863383 0.63697577
0.0055662682 -0.0041747093 0.6367811
0.0055598337 -0.0055598319 0.63658702
0.0055534313 -0.0069417655 0.63639373
0.0055470262 -0.0083205402 0.63620043
0.0055406368 -0.0096960962 0.63600755
0.005534261 -0.011068523 0.6358152
0.0055279168 -0.012437791 0.63562375
0.0055215703 -0.013803929 0.63543224
0.0055152397 -0.015166879 0.63524115
0.0055089225 -0.016526759 0.63505054
0.0055026361 -0.017883569 0.63486081
0.0054963483 -0.01923722 0.63467109
0.0054900739 -0.020587772 0.63448179
0.0054838303 -0.021935314 0.63429332
0.0054775854 -0.023279727 0.63410485
0.0054713544 -0.024621099 0.63391685
0.0054651373 -0.025959402 0.63372922
0.0072370106 0.046316892 0.64352101
0.0072283098 0.044815511 0.64331096
0.0072196298 0.043317825 0.64310139
0.0072109927 0.041823804 0.6428929
0.0072023547 0.040333182 0.64268434
0.0071937367 0.038846195 0.64247632
0.0071851397 0.037362725 0.64226872
0.007176585 0.03588295 0.64206219
0.0071680285 0.034406573 0.6418556
0.0071594929 0.032933712 0.64164954
0.0071509769 0.031464309 0.64144397
0.0071425033 0.029998541 0.6412394
0.0071340278 0.028536111 0.64103478
0.0071255732 0.027077168 0.6408307
0.0071171378 0.025621712 0.64062703
0.0071087442 0.024169713 0.64042437
0.0071003493 0.022721142 0.64022171
0.007091973 0.021275908 0.64001954
0.0070836172 0.019834131 0.63981777
0.0070753028 0.018395782 0.63961703
0.0070669861 0.01696077 0.63941628
0.0070586889 0.015529126 0.63921595
0.0070504323 0.014100879 0.63901663
0.0070421742 0.012675941 0.63881719
0.0070339357 0.011254281 0.63861835
0.0070257154 0.0098360181 0.63841987
0.0070175366 0.0084210336 0.63822246
0.0070093549 0.0070093572 0.63802493
0.0070011923 0.0056009591 0.63782787
0.0069930493 0.0041958392 0.63763124
0.0069849449 0.0027939975 0.63743562
0.0069768392 0.0013953745 0.63723993
0.0069687525 -0 0.63704467
0.0069607054 -0.0013921559 0.63685042
0.0069526555 -0.0027810335 0.63665605
0.0069446247 -0.0041667819 0.63646221
0.0069366121 -0.005549252 0.63626873
0.006928639 -0.0069286227 0.63607627
0.0069206632 -0.0083047748 0.63588369
0.0069127055 -0.0096777678 0.63569158
0.0069047674 -0.011047602 0.63549995
0.006896866 -0.012414366 0.63530922
0.0068889637 -0.013777912 0.63511842
0.0068810792 -0.015138358 0.63492805
0.0068732123 -0.016495705 0.63473815
0.0068653841 -0.017850012 0.63454914
0.0068575535 -0.019201159 0.63436013
0.0068497406 -0.020549208 0.63417149
0.0068419655 -0.021894276 0.63398379
0.006834188 -0.023236275 0.63379604
0.0068264282 -0.024575174 0.6336087
0.0068186861 -0.025911003 0.63342178
0.0086672632 0.046225399 0.64317602
0.0086568641 0.044727147 0.64296675
0.0086464891 0.043232411 0.64275807
0.0086361654 0.04174149 0.64255035
0.0086258398 0.040253937 0.64234263
0.0086155394 0.038769931 0.64213538
0.0086052632 0.0372895 0.64192867
0.0085950373 0.035812676 0.64172292
0.0085848095 0.034339249 0.64151716
0.0085746069 0.032869309 0.64131188
0.0085644284 0.031402946 0.64110708
0.0085542994 0.029940069 0.64090335
0.0085441684 0.02848053 0.64069951
0.0085340627 0.027024537 0.64049613
0.0085240044 0.025572062 0.64029384
0.0085139452 0.024122894 0.64009148
0.0085039102 0.022677124 0.6398896
0.0084938984 0.021234781 0.63968813
0.0084839361 0.019795865 0.63948774
0.0084739709 0.018360317 0.63928723
0.0084640291 0.016928047 0.6390872
0.0084541114 0.015499204 0.6388877
0.0084442422 0.014073759 0.63868916
0.0084343702 0.012651563 0.6384905
0.0084245214 0.011232704 0.63829243
0.008414695 0.0098171532 0.63809472
0.0084049171 0.0084049106 0.63789803
0.0083951373 0.006995976 0.63770121
0.0083853798 0.0055902898 0.63750494
0.0083756698 0.0041878521 0.63730955
0.0083659571 0.0027886331 0.63711417
0.0083562676 0.0013927221 0.63691926
0.0083466005 2.9802322e-08 0.63672477
0.0083369799 -0.0013894737 0.63653123
0.0083273575 -0.0027757883 0.63633764
0.0083177565 -0.0041588843 0.63614452
0.0083081778 -0.0055387616 0.63595176
0.0082986457 -0.0069155097 0.63575995
0.0082891118 -0.0082890987 0.63556814
0.0082795983 -0.0096594989 0.63537681
0.0082701081 -0.0110268 0.63518584
0.0082606627 -0.012390971 0.63499582
0.0082512153 -0.013752013 0.6348058
0.0082417894 -0.015109956 0.63461614
0.0082324091 -0.016464829 0.63442743
0.0082230261 -0.017816544 0.6342386
0.0082136644 -0.019165188 0.63405025
0.0082043242 -0.020510823 0.63386238
0.0081950286 -0.021853417 0.63367534
0.0081857303 -0.023192912 0.6334883
0.0081764543 -0.024529338 0.63330162
0.0081671979 -0.025862783 0.63311547
0.010091879 0.046134323 0.64283234
0.010079794 0.044639081 0.6426239
0.010067738 0.043147475 0.642416
0.01005574 0.041659504 0.64220917
0.010043741 0.040174991 0.64200222
0.010031771 0.038693964 0.64179581
0.010019859 0.037216604 0.64159036
0.010007946 0.03574267 0.64138496
0.0099960594 0.034272194 0.64118004
0.0099842027 0.032805234 0.64097559
0.009972374 0.031341761 0.64077157
0.009960603 0.029881805 0.64056855
0.0099488292 0.028425246 0.64036554
0.0099370843 0.026972055 0.640163
0.0099253962 0.025522441 0.63996148
0.0099137062 0.024076134 0.6397599
0.0099020433 0.022633255 0.63955873
0.0098904083 0.021193713 0.63935816
0.0098788301 0.019757628 0.63915843
0.0098672491 0.018324912 0.63895875
0.0098556951 0.016895473 0.63875949
0.009844169 0.015469402 0.63856077
0.0098326979 0.014046699 0.63836294
0.0098212259 0.012627274 0.63816512
0.009809779 0.011211187 0.63796771
0.0097983591 0.0097983778 0.63777077
0.0097869961 0.0083888471 0.63757479
0.0097756283 0.0069826245 0.63737881
0.0097642886 0.0055796504 0.63718325
0.0097530037 0.0041798651 0.63698864
0.0097417152 0.0027833283 0.63679397
0.0097304536 0.0013900697 0.63659978
0.0097192181 -0 0.63640606
0.0097080367 -0.0013868511 0.63621318
0.0096968524 -0.0027705431 0.63602036
0.0096856942 -0.0041510165 0.6358279
0.0096745612 -0.0055283308 0.63563597
0.0096634822 -0.0069025159 0.63544494
0.0096524013 -0.0082735121 0.63525379
0.0096413447 -0.0096413493 0.63506317
0.009630342 -0.011006087 0.63487339
0.0096193356 -0.012367725 0.63468361
0.0096083554 -0.013726234 0.6344943
0.0095973993 -0.015081614 0.6343053
0.0095864972 -0.016433984 0.63411736
0.0095755905 -0.017783195 0.63392925
0.0095647098 -0.019129425 0.63374162
0.0095538525 -0.020472556 0.6335544
0.0095430491 -0.021812707 0.63336813
0.0095322412 -0.023149699 0.63318175
0.0095214583 -0.02448374 0.63299578
0.0095106997 -0.025814772 0.63281029
0.01151089 0.046043575 0.64249003
0.011497132 0.044551402 0.64228249
0.011483409 0.043062806 0.64207536
0.011469751 0.041577846 0.64186931
0.01145609 0.040096343 0.64166319
0.011442464 0.038618326 0.64145756
0.011428904 0.037143946 0.64125293
0.011415341 0.035672963 0.64104831
0.011401812 0.034205437 0.64084423
0.011388313 0.032741398 0.6406405
0.011374847 0.031280845 0.6404373
0.011361446 0.02982381 0.64023513
0.011348043 0.028370112 0.64003289
0.011334672 0.026919842 0.63983113
0.011321366 0.025473058 0.63963038
0.011308056 0.024029642 0.63942951
0.01129478 0.022589564 0.63922918
0.011281534 0.021152884 0.63902932
0.011268352 0.01971963 0.63883042
0.011255167 0.018289655 0.63863146
0.011242014 0.016863018 0.63843298
0.011228892 0.015439749 0.63823497
0.011215833 0.014019787 0.63803804
0.01120277 0.012603134 0.63784087
0.01118974 0.011189759 0.63764423
0.011176771 0.0097796619 0.63744855
0.0111638 0.0083728731 0.63725281
0.011150859 0.0069693029 0.6370576
0.011137948 0.0055689812 0.63686275
0.0111251 0.0041719079 0.63666892
0.011112249 0.0027780533 0.63647497
0.011099427 0.0013874173 0.63628155
0.011086634 2.9802322e-08 0.63608849
0.011073904 -0.0013841987 0.63589644
0.011061171 -0.0027652979 0.63570428
0.011048467 -0.0041431785 0.63551265
0.011035791 -0.0055179 0.63532138
0.011023178 -0.0068894625 0.635131
0.01101056 -0.0082578957 0.63494062
0.010997972 -0.0096232593 0.63475072
0.010985445 -0.010985434 0.63456166
0.010972913 -0.012344509 0.63437259
0.01096041 -0.013700485 0.63418394
0.010947937 -0.015053391 0.63399577
0.010935524 -0.016403288 0.63380843
0.010923105 -0.017750055 0.6336211
0.010910717 -0.019093722 0.63343412
0.010898354 -0.020434409 0.63324761
0.010886054 -0.021772116 0.63306201
0.010873749 -0.023106724 0.63287634
0.01086147 -0.024438292 0.63269109
0.010849221 -0.025766909 0.63250625
0.01292433 0.045953184 0.64214909
0.012908913 0.044464022 0.64194232
0.012893533 0.042978495 0.64173603
0.012878229 0.041496545 0.64153075
0.012862922 0.040017962 0.64132547
0.012847652 0.038542956 0.64112061
0.012832456 0.037071526 0.64091682
0.012817257 0.035603523 0.64071298
0.012802094 0.034138948 0.64050961
0.012786969 0.032677829 0.64030671
0.012771916 0.031220227 0.64010489
0.012756861 0.029766023 0.63990295
0.01274184 0.028315216 0.63970149
0.012726856 0.026867807 0.6395005
0.012711944 0.025423884 0.63930047
0.01269703 0.0239833 0.63910049
0.01268215 0.022546023 0.63890094
0.012667306 0.021112204 0.6387018
0.012652533 0.019681722 0.63850367
0.012637759 0.018254548 0.63830549
0.012623017 0.016830713 0.63810778
0.01260831 0.015410185 0.63791049
0.012593675 0.013992965 0.63771427
0.012579037 0.012579054 0.63751787
0.012564433 0.011168391 0.63732201
0.0125499 0.0097610354 0.63712716
0.012535363 0.0083569288 0.63693213
0.012520859 0.0069560409 0.63673759
0.012506389 0.0055583715 0.63654351
0.01249199 0.0041640103 0.63635039
0.012477587 0.0027728081 0.63615721
0.012463218 0.0013848245 0.63596451
0.012448881 -0 0.63577217
0.012434613 -0.0013816357 0.6355809
0.012420341 -0.0027600229 0.63538945
0.012406102 -0.0041354001 0.63519847
0.012391898 -0.005507499 0.63500798
0.01237776 -0.0068765581 0.63481832
0.012363618 -0.0082423985 0.63462865
0.01234951 -0.0096051693 0.63443947
0.012335469 -0.010964841 0.63425112
0.012321426 -0.012321413 0.63406271
0.012307412 -0.013674885 0.63387477
0.012293431 -0.015025318 0.63368726
0.012279517 -0.016372681 0.6335007
0.0122656 -0.017716974 0.63331401
0.012251714 -0.019058198 0.63312775
0.012237859 -0.020396411 0.63294196
0.012224071 -0.021731704 0.63275701
0.012210279 -0.023063868 0.63257205
0.012196518 -0.024393022 0.63238752
0.012182787 -0.025719225 0.63220334
0.014332231 0.045863181 0.64180946
0.014315168 0.044377059 0.64160347
0.014298147 0.042894453 0.64139801
0.014281209 0.041415513 0.64119351
0.014264266 0.03993994 0.64098901
0.014247364 0.038467914 0.64078498
0.014230547 0.036999404 0.64058203
0.014213725 0.035534322 0.64037895
0.014196944 0.034072667 0.64017642
0.014180201 0.03261447 0.63997424
0.014163542 0.031159818 0.63977319
0.014146877 0.029708445 0.63957202
0.014130252 0.028260529 0.6393714
0.014113667 0.026815951 0.63917118
0.014097163 0.025374919 0.63897192
0.014080655 0.023937136 0.63877267
0.014064187 0.02250272 0.63857388
0.014047755 0.021071643 0.63837558
0.014031405 0.019643992 0.63817811
0.014015051 0.01821956 0.63798082
0.013998734 0.016798496 0.63778377
0.013982455 0.01538071 0.63758731
0.013966257 0.013966262 0.63739175
0.013950055 0.012555063 0.63719618
0.01393389 0.011147112 0.63700104
0.013917802 0.0097424686 0.63680685
0.013901711 0.0083410144 0.63661265
0.013885658 0.0069428384 0.63641882
0.013869641 0.0055478811 0.63622552
0.013853702 0.0041561127 0.63603312
0.013837759 0.0027675629 0.63584065
0.013821853 0.0013821721 0.63564867
0.013805985 2.9802322e-08 0.63545704
0.013790191 -0.0013790131 0.63526648
0.013774394 -0.0027548671 0.63507581
0.013758632 -0.004127562 0.63488549
0.013742908 -0.0054971576 0.63469571
0.013727259 -0.0068636239 0.63450676
0.013711605 -0.0082269311 0.63431782
0.013695988 -0.0095871985 0.63412935
0.013680445 -0.010944337 0.63394171
0.013664898 -0.012298405 0.63375407
0.013649387 -0.013649404 0.6335668
0.013633911 -0.014997274 0.63337994
0.013618508 -0.016342193 0.63319403
0.013603101 -0.017684013 0.63300806
0.01358773 -0.019022793 0.63282251
0.013572393 -0.020358562 0.63263738
0.01355713 -0.021691382 0.63245314
0.013541861 -0.023021162 0.63226885
0.013526629 -0.024347961 0.63208497
0.01351143 -0.025671721 0.6319015
0.013496302 -0.026992589 0.63171887
0.015753366 0.047260106 0.64167678
0.015734626 0.045773506 0.64147115
0.015715931 0.044290334 0.64126599
0.015697327 0.042810887 0.6410619
0.015678721 0.041334808 0.64085764
0.015660157 0.039862216 0.64065397
0.015641637 0.03839311 0.64045072
0.015623209 0.036927611 0.64024848
0.015604777 0.035465389 0.64004624
0.015586389 0.034006655 0.63984442
0.015568043 0.032551348 0.63964319
0.015549788 0.031099588 0.6394428
0.015531529 0.029651105 0.63924241
0.015513312 0.028206021 0.6390425
0.015495139 0.026764333 0.63884312
0.015477054 0.025326073 0.63864458
0.015458966 0.023891121 0.63844609
0.015440919 0.022459507 0.63824809
0.015422914 0.02103126 0.6380505
0.015404996 0.019606352 0.63785386
0.015387076 0.018184721 0.63765728
0.015369196 0.016766399 0.63746107
0.015351359 0.015351355 0.63726532
0.015333608 0.013939679 0.63707054
0.015315852 0.012531161 0.63687569
0.015298137 0.011125952 0.63668126
0.015280509 0.0097239614 0.63648784
0.015262877 0.0083252192 0.63629436
0.015245285 0.0069296658 0.63610125
0.015227734 0.0055373609 0.63590872
0.015210267 0.0041482449 0.63571703
0.015192796 0.0027623177 0.63552529
0.015175365 0.0013795793 0.63533401
0.015157974 -0 0.63514316
0.015140668 -0.0013764203 0.63495326
0.015123356 -0.0027497113 0.63476324
0.015106083 -0.0041198432 0.6345737
0.015088852 -0.005486846 0.63438463
0.015071701 -0.0068507493 0.6341964
0.015054548 -0.0082115829 0.63400817
0.015037432 -0.0095692575 0.63382035
0.015020399 -0.010923892 0.63363343
0.015003361 -0.012275487 0.63344646
0.014986361 -0.013623953 0.63325995
0.014969402 -0.014969409 0.63307381
0.014952522 -0.016311854 0.63288856
0.014935639 -0.01765123 0.6327033
0.014918791 -0.018987536 0.63251847
0.014901984 -0.020320892 0.63233399
0.014885255 -0.021651298 0.63215041
0.014868524 -0.022978634 0.63196683
0.014851827 -0.024302959 0.6317836
0.01483517 -0.025624394 0.6316008
0.014818592 -0.026942879 0.63141888
0.017151911 0.047167748 0.64133906
0.017131547 0.045684129 0.64113414
0.017111233 0.044203997 0.64092982
0.017091015 0.04272756 0.64072645
0.017070796 0.041254461 0.64052308
0.017050624 0.039784789 0.64032018
0.0170305 0.038318634 0.64011776
0.017010475 0.036856055 0.6399163
0.016990444 0.035396785 0.63971478
0.016970461 0.033940911 0.63951373
0.016950525 0.032488495 0.63931322
0.016930686 0.031039596 0.63911366
0.016910845 0.029594004 0.63891411
0.016891049 0.028151751 0.63871497
0.0168713 0.026712894 0.63851631
0.016851647 0.025277495 0.63831854
0.016831988 0.023845345 0.63812083
0.016812377 0.022416502 0.6379236
0.01679281 0.020991027 0.63772678
0.016773339 0.01956889 0.63753086
0.016753864 0.018150032 0.63733494
0.016734434 0.016734451 0.6371395
0.016715048 0.015322119 0.63694447
0.016695756 0.013913125 0.63675046
0.016676461 0.012507349 0.63655639
0.016657209 0.011104792 0.63636273
0.016638052 0.0097055435 0.63617003
0.016618889 0.0083094537 0.63597721
0.016599771 0.006916523 0.63578492
0.016580695 0.0055269301 0.635593
0.016561713 0.0041404366 0.63540208
0.016542725 0.0027571023 0.63521111
0.01652378 0.0013769865 0.63502049
0.01650488 -0 0.63483047
0.016486071 -0.0013738275 0.63464123
0.016467256 -0.0027445555 0.63445193
0.016448485 -0.0041120946 0.6342631
0.016429756 -0.005476594 0.63407469
0.016411118 -0.0068379641 0.63388723
0.016392473 -0.0081962347 0.63369966
0.016373873 -0.0095514357 0.63351256
0.01635536 -0.010903567 0.63332635
0.016336842 -0.012252629 0.63314009
0.016318366 -0.013598651 0.63295424
0.016299933 -0.014941573 0.63276875
0.016281588 -0.016281605 0.63258421
0.016263237 -0.017618507 0.63239962
0.016244926 -0.018952399 0.63221544
0.016226659 -0.020283312 0.63203174
0.016208477 -0.021611303 0.63184881
0.01619029 -0.022936225 0.63166589
0.016172145 -0.024258196 0.63148332
0.01615404 -0.025577217 0.63130116
0.016136022 -0.026893348 0.63111997
0.018545002 0.047075808 0.6410026
0.018523026 0.045595139 0.64079857
0.018501103 0.044118017 0.64059496
0.018479288 0.042644531 0.64039242
0.018457469 0.041174322 0.64018977
0.0184357 0.039707661 0.63998765
0.018413983 0.038244426 0.63978601
0.018392373 0.036784768 0.63958532
0.018370757 0.035328388 0.63938463
0.018349193 0.033875436 0.63918442
0.018327679 0.03242591 0.63898462
0.01830627 0.030979842 0.63878584
0.018284857 0.029537082 0.638587
0.018263493 0.028097659 0.63838863
0.01824218 0.026661634 0.63819075
0.01822097 0.025229037 0.63799381
0.018199757 0.023799688 0.63779676
0.018178592 0.022373676 0.63760024
0.018157475 0.020950913 0.6374042
0.018136462 0.019531637 0.63720906
0.018115444 0.018115461 0.63701391
0.018094474 0.016702622 0.63681924
0.018073555 0.015293002 0.63662499
0.018052734 0.01388672 0.63643163
0.01803191 0.012483656 0.63623828
0.018011134 0.011083812 0.63604534
0.017990457 0.0096871853 0.63585341
0.017969776 0.0082937479 0.63566136
0.017949143 0.0069034994 0.63546973
0.017928556 0.0055164993 0.63527858
0.017908068 0.0041325986 0.63508838
0.017887576 0.0027519464 0.63489807
0.017867131 0.0013744235 0.63470823
0.017846731 2.9802322e-08 0.6345188
0.017826432 -0.0013712645 0.63433039
0.017806126 -0.0027393997 0.6341418
0.017785866 -0.0041044354 0.63395363
0.017765652 -0.0054663718 0.63376594
0.017745536 -0.0068252087 0.63357919
0.017725414 -0.0081809461 0.63339233
0.017705336 -0.0095336437 0.63320589
0.017685356 -0.010883301 0.6330204
0.017665369 -0.01222986 0.63283479
0.017645428 -0.013573408 0.63264966
0.017625533 -0.014913887 0.63246489
0.017605733 -0.016251415 0.63228101
0.017585926 -0.017585903 0.63209707
0.017566163 -0.018917412 0.63191366
0.017546445 -0.02024588 0.6317305
0.017526822 -0.021571487 0.63154829
0.017507192 -0.022894025 0.63136601
0.017487606 -0.024213612 0.63118422
0.017468113 -0.025530308 0.63100314
0.017448615 -0.026844025 0.63082218
0.019932669 0.046984166 0.64066744
0.019909097 0.045506537 0.64046413
0.019885579 0.044032365 0.64026135
0.019862175 0.042561829 0.64005959
0.019838769 0.041094631 0.63985777
0.019815417 0.03963083 0.63965642
0.019792119 0.038170516 0.63945556
0.019768937 0.036713749 0.63925564
0.019745748 0.03526029 0.63905573
0.019722614 0.033810228 0.63885629
0.019699534 0.032363564 0.63865727
0.019676568 0.030920327 0.63845921
0.019653596 0.029480398 0.6382612
0.019630676 0.028043836 0.63806361
0.019607812 0.026610643 0.63786638
0.019585058 0.025180787 0.63767022
0.019562298 0.023754239 0.637474
0.019539593 0.02233094 0.6372782
0.019516997 0.020911068 0.63708341
0.019494398 0.019494414 0.63688856
0.019471848 0.01808098 0.63669413
0.019449349 0.016670883 0.63650012
0.019426962 0.015264034 0.63630712
0.01940457 0.013860404 0.636114
0.019382229 0.012460023 0.63592136
0.019359937 0.011062831 0.63572919
0.019337755 0.0096688569 0.63553798
0.019315567 0.0082780719 0.63534665
0.019293429 0.0068905354 0.63515574
0.019271344 0.0055060685 0.63496536
0.019249363 0.0041248798 0.63477588
0.019227378 0.0027467608 0.63458627
0.019205442 0.0013718307 0.63439715
0.019183611 -2.9802322e-08 0.63420892
0.019161776 -0.0013687015 0.63402063
0.01913999 -0.0027343035 0.63383281
0.019118253 -0.0040967762 0.63364536
0.01909662 -0.0054561794 0.63345885
0.019074982 -0.0068124533 0.63327223
0.019053392 -0.0081657469 0.63308609
0.019031851 -0.0095159113 0.63290036
0.019010413 -0.010863096 0.63271558
0.018988969 -0.01220721 0.63253069
0.018967574 -0.013548285 0.63234621
0.018946227 -0.01488629 0.63216209
0.018924981 -0.016221404 0.63197893
0.01890373 -0.017553449 0.6317957
0.018882528 -0.018882513 0.6316129
0.018861424 -0.020208657 0.63143092
0.018840315 -0.02153179 0.63124889
0.018819252 -0.022851944 0.63106734
0.01879824 -0.024169147 0.63088614
0.018777324 -0.025483489 0.63070577
0.018756403 -0.026794851 0.63052541
0.021314947 0.046892911 0.64033353
0.021289786 0.045418233 0.64013112
0.021264687 0.043946981 0.63992912
0.021239709 0.042479426 0.63972813
0.021214727 0.041015178 0.63952708
0.021189803 0.039554298 0.63932651
0.021164939 0.038096875 0.63912642
0.021140195 0.036642998 0.63892728
0.021115446 0.03519243 0.63872814
0.021090755 0.033745229 0.63852942
0.021066124 0.032301396 0.63833117
0.021041609 0.03086105 0.63813394
0.021017091 0.029423922 0.63793665
0.020992629 0.027990192 0.63773972
0.020968225 0.02655977 0.63754332
0.020943938 0.025132716 0.63734794
0.020919647 0.02370894 0.63715243
0.020895412 0.022288471 0.63695741
0.020871293 0.020871282 0.63676333
0.02084717 0.01945737 0.6365692
0.020823102 0.018046707 0.63637549
0.020799089 0.016639292 0.63618225
0.020775193 0.015235156 0.63599002
0.020751292 0.013834208 0.63579762
0.020727444 0.012436479 0.63560569
0.020703653 0.011041969 0.63541424
0.020679975 0.0096506774 0.63522375
0.020656291 0.0082625449 0.63503307
0.020632662 0.0068775713 0.63484293
0.020609088 0.0054957867 0.63465327
0.020585625 0.004117161 0.63446444
0.020562157 0.0027416348 0.63427556
0.020538744 0.0013692379 0.6340872
0.020515442 2.9802322e-08 0.63389963
0.020492133 -0.0013661385 0.63371205
0.020468878 -0.0027291775 0.63352489
0.020445675 -0.0040891171 0.63333821
0.020422583 -0.0054460466 0.63315237
0.020399485 -0.0067998469 0.63296652
0.02037644 -0.0081505775 0.63278103
0.020353446 -0.0094982684 0.63259602
0.020330563 -0.010842979 0.63241184
0.020307671 -0.01218459 0.63222766
0.020284833 -0.013523221 0.63204384
0.020262044 -0.014858812 0.63186044
0.020239366 -0.016191453 0.63167799
0.020216681 -0.017521113 0.63149536
0.020194046 -0.018847764 0.63131326
0.020171519 -0.020171523 0.63113201
0.020148985 -0.021492243 0.63095063
0.020126501 -0.022809982 0.63076973
0.020104067 -0.024124891 0.63058913
0.020081742 -0.025436848 0.63040948
0.020059407 -0.026745856 0.63022977
0.022691863 0.046801984 0.640001
0.02266513 0.045330256 0.6397993
0.022638461 0.043862045 0.63959813
0.02261192 0.04239738 0.63939792
0.022585375 0.040936023 0.63919759
0.022558894 0.039478093 0.63899779
0.022532472 0.038023561 0.63879848
0.022506179 0.036572546 0.63860011
0.022479882 0.035124838 0.63840175
0.022453649 0.033680469 0.6382038
0.022427473 0.032239497 0.63800639
