# .PCD v0.7 - Point Cloud Data file format
VERSION 0.7
FIELDS x y z
SIZE 4 4 4
TYPE F F F
COUNT 1 1 1
WIDTH 799
HEIGHT 1
VIEWPOINT 0 0 0 1 0 0 0
POINTS 799
DATA ascii
0.022484183 0.0074947476 0.59804606
0.022484183 0.0074947476 0.59804606
0.024726151 0.0096754432 0.59857416
0.020561131 0.0043286383 0.59943295
0.026209876 0.0087366402 0.60062963
0.022893962 0.010901928 0.60040152
0.017617745 0.0077078044 0.60171974
0.024441324 0.0011110008 0.60290998
0.027741365 0.0044386089 0.60275126
0.027741365 0.011096537 0.60275126
0.027741365 0.012206227 0.60275126
0.026522346 0.016576469 0.60220122
0.022336595 0.014518797 0.60361743
0.015788792 0.010149926 0.60493809
0.013665891 0.0034164786 0.6062724
0.010255152 0.006836772 0.60634929
0.027541721 -0.0022951365 0.6073283
0.0080712019 0.0069181919 0.60798705
0.012626047 0.010330439 0.60735857
0.030957144 0.010319024 0.60720628
0.030957144 0.021784663 0.60720628
0.032646611 -0.003497839 0.60954678
0.032646611 0.0034978688 0.60954678
0.032646611 0.004663825 0.60954678
0.010574327 0.0023498535 0.61063015
0.014142352 0.0164994 0.61106521
0.034394197 0.016604096 0.6119678
0.034394197 0.032022208 0.6119678
0.021354446 -0.0023727119 0.61201018
0.015636478 0.021650493 0.61399567
0.036203053 -0.0012067556 0.61447394
-0.0024201681 0.0060504079 0.61487418
0.0024087019 0.0096348226 0.61418217
0.0072404062 0.014480829 0.61446989
0.036203053 0.019308299 0.61447394
0.036203053 0.024135381 0.61447394
0.021703985 0.027732879 0.61435425
0.036203053 0.03258273 0.61447394
0.036203053 0.036203057 0.61447394
0.033701815 0.038516372 0.61409581
0.030295156 -0.007270813 0.61508209
0.022019859 -0.0048933029 0.61647254
0.031905077 0.040494949 0.61693043
0.038076267 -0.0036847889 0.61706907
0.038076267 0.0061413348 0.61706901
0.038076267 0.04176107 0.61706907
0.038076267 0.045445859 0.61706901
0.0024840245 0.0012420416 0.61872828
0.0024751513 0.014850914 0.61819273
0.0037146043 0.016096622 0.61826831
0.0037146043 0.016096622 0.61826831
0.013675722 0.026108205 0.61887735
0.023554465 0.034711838 0.61845016
0.034945153 -0.011232376 0.61945605
0.04001743 -0.011254907 0.61975825
0.04001743 0.0025010705 0.61975825
0.0049897665 0.018711627 0.61938363
0.04001743 0.020008713 0.61975825
0.04001743 0.020008713 0.61975825
0.04001743 0.027511984 0.61975825
0.04001743 0.027511984 0.61975825
0.026465524 -0.0088218153 0.62093133
-0.011376347 0.0050561428 0.62138712
0.015136397 0.030272782 0.62106454
0.017677391 0.032829434 0.62122196
0.028007679 -0.010184616 0.62247801
0.0076342421 -0.0025447309 0.62239325
0.042030316 0.0025472939 0.62254679
0.042030316 0.011462808 0.62254679
0.042030316 0.01273647 0.62254679
0.042030316 0.017831028 0.62254679
0.010213419 0.028086931 0.6229127
0.0089980494 -0.0038562715 0.62396991
0 0.019206405 0.62336534
0.021806138 0.039764136 0.62364137
0.037167434 0.053828686 0.62351125
0 0.020634115 0.62447637
0.044118967 -0.015571386 0.62544024
0.044118967 0.003892839 0.6254403
-0.014308438 0.0091053843 0.62582058
0.044118967 0.014273763 0.6254403
0.044118967 0.046714216 0.62544036
0.044118967 0.062285632 0.6254403
-0.015714707 0.0091669261 0.62688184
-0.0078254538 0.015650928 0.62624002
0.0065121525 0.028653443 0.62602139
0.037981208 0.058936357 0.62689853
0.022316862 -0.01050207 0.6272679
-0.019755779 0.0065852702 0.62778634
0.024932401 0.047240347 0.62720454
0.024932401 0.047240347 0.62720454
0.031712834 -0.01453504 0.62830734
0.046287749 -0.0052900016 0.62844485
0.046287749 0.007935077 0.62844485
0.046287749 0.021160126 0.62844485
0.046287749 0.050255239 0.62844485
0.046287749 0.060835361 0.62844479
0.041233007 -0.018621355 0.62936103
0.041233007 -0.018621355 0.62936103
0.041233007 -0.018621355 0.62936103
0.005326475 -0.0053264797 0.62954473
-0.011953613 0.0013282001 0.62912953
-0.01198018 0.015973568 0.62948585
-0.0053390828 0.022691101 0.62992519
-0.0093978904 0.020138323 0.63086498
0.0067068534 0.034875631 0.63072193
0.037471797 0.062899113 0.63034862
0.037471797 0.062899113 0.63034862
0.028281089 -0.0148139 0.63136739
-0.021535408 0.0094217658 0.63127619
-0.016187241 0.014838338 0.63163519
0.048541352 0.041799486 0.63156688
0 0.031232655 0.63272214
0.014915753 0.044747263 0.63248509
-0.013606705 0.019049376 0.63305163
0.015029345 0.04645434 0.63373166
0.050884865 -0.016503215 0.63481349
-0.0041069868 -0.0041069984 0.63405651
0.050884865 0.023379534 0.63481355
0.050884865 0.030255884 0.63481349
0.050884865 0.037132204 0.63481355
0.038628992 -0.020694107 0.63533741
0.038628992 -0.020694107 0.63533741
0.027583843 -0.016550273 0.63528734
-0.017930597 0.017930627 0.63529754
-0.0096877934 0.026295483 0.63586408
-0.0096877934 0.026295483 0.63586408
0.05162983 -0.026512623 0.63724387
0.032220282 -0.019612342 0.63790554
-0.0013995252 0.036387652 0.6377418
-0.016825696 -0.0014021397 0.63805753
0.053323772 0.0028065443 0.6381923
0.053323772 0.0042098165 0.63819224
-0.023945747 0.016902894 0.63883394
-0.0084387623 0.030942142 0.63857895
0.053323772 0.040694505 0.63819224
0.0084309839 0.046370417 0.63842243
0.053323772 0.054727018 0.63819224
0.022436125 0.058894843 0.6380716
0.049494807 -0.026868612 0.63950562
0.008497539 0.048152715 0.63976145
0.021388264 -0.017110586 0.64092362
0.021388264 -0.017110586 0.64092362
-0.035592016 0.0042710602 0.64065754
-0.015671581 0.027069122 0.64077932
0.014195493 0.053942919 0.64015889
0.055864014 -0.030080646 0.64171135
0.055864014 0.030080616 0.64171141
-0.0028644218 0.040101916 0.64168727
-0.0071891402 -0.0071891248 0.64236534
-0.0071891402 -0.0071891248 0.64236534
-0.035893936 0.010050297 0.64211535
-0.007205891 0.037470639 0.64276969
-0.027429314 -0 0.64306784
0.015875425 0.059172034 0.64301628
0.024622127 0.068072915 0.6436367
0.0014581927 -0.011665553 0.64482355
0.002917853 0.049603522 0.64491212
0.051344264 -0.030806571 0.64588416
0.058512054 -0.0073139966 0.64537984
0.058512054 0.0029256046 0.6453799
0.058512054 0.0058512092 0.64537984
0.058512054 0.026330441 0.64537984
0.058512054 0.042421222 0.64537984
0.058512054 0.043884039 0.6453799
0.007307718 0.054077148 0.64522803
0.007307718 0.054077148 0.64522803
-0.035326812 0.016191483 0.64648426
-0.019263159 0.032599181 0.64767098
0.020861248 -0.020861208 0.64867377
0.019509202 -0.021009892 0.64995557
0 -0.013467073 0.64942843
-0.011966862 -0.0089751482 0.64937013
-0.011966862 -0.0089751482 0.64937013
0.0089944219 0.061461866 0.64975792
0.051190209 -0.033123076 0.65054548
-0.042252082 0.0015090108 0.65095693
-0.031749692 0.025702149 0.65130538
-0.025765937 0.031828523 0.65175849
-0.015094561 0.040755302 0.65101159
0.0045650708 0.060867637 0.65248835
0.019889314 -0.022949219 0.65348512
0.064160153 -0.02291435 0.65320456
0.064160153 -0.021386713 0.6532045
-0.016812654 -0.0091705322 0.65330112
-0.041240077 2.9802322e-08 0.65317881
0.064160362 0.0091657639 0.6532051
-0.050366774 0.010683864 0.65304071
0.064160362 0.013748646 0.6532051
0.064160362 0.033607811 0.6532051
-0.035629902 0.027884275 0.65580016
-0.0015440291 0.058673114 0.65518492
-0.052757453 0.012413532 0.65610963
-0.048194323 0.017101198 0.65646768
0.067176171 -0.024995744 0.65738273
0.067176394 -0.004686743 0.65738338
0.067176394 -0.0031244457 0.65738338
-0.040550184 0.024953932 0.65706724
0.067176394 0.024995893 0.65738338
-0.061382174 0.0078695118 0.65879089
-0.058480762 0.0031611323 0.65959471
0.012700947 -0.023814231 0.66044658
0.070332035 -0.036764473 0.66175479
0.070332035 -0.036764473 0.66175479
0.070332035 -0.035166025 0.66175473
0.070332035 -0.035166025 0.66175473
0.070332035 -0.033567578 0.66175479
0.070332035 -0.01918146 0.66175473
-0.022318283 -0.011159122 0.66123664
0.070332274 0.01278767 0.66175544
0.070332274 0.014386147 0.66175538
0.070332274 0.015984595 0.66175544
0.070332274 0.031969249 0.66175538
-0.027141424 0.043106973 0.66152525
-0.0047909091 0.063878834 0.66157544
-0.0047909091 0.063878834 0.66157544
0.044946488 -0.036920339 0.66257274
-0.067558803 0.0048256516 0.66297245
-0.011249461 0.059461445 0.66279411
-0.0080764461 -0.017768145 0.66378677
-0.046765059 0.027413994 0.66346073
-0.025791202 0.046746552 0.66338372
0.051906958 -0.040552318 0.664608
-0.056725532 0.019448757 0.66444349
-0.026024943 0.048796773 0.66514719
0.073637955 -0.011454791 0.66633493
0.073637955 -0.0098184049 0.66633499
-0.0098248236 0.065498829 0.66646433
-0.074082009 0.0049388409 0.66752613
-0.074082009 0.0049388409 0.66752613
-0.062593684 0.018119216 0.66763902
-0.026443817 -0.01322192 0.6683073
-0.069633715 0.013263583 0.66893584
-0.064791948 0.018274665 0.66934466
-0.019933183 0.059799582 0.66931641
-0.06007703 -0.001668781 0.6702469
-0.028405018 0.053468287 0.6704976
0.077104367 -0.026818901 0.67113715
0.077104367 -0.025142729 0.67113721
0.077104367 -0.003352344 0.67113715
0.077104367 -0.003352344 0.67113715
0.077104367 0.0050285459 0.67113715
0.077104367 0.0083809197 0.67113721
0.077104367 0.0083809197 0.67113721
0.077104367 0.021790355 0.67113721
0.077104367 0.025142729 0.67113715
0.077104367 0.025142729 0.67113715
0 -0.025342762 0.67274672
0.067704812 -0.050778627 0.67312145
-0.032159206 -0.013540685 0.67311776
-0.016947813 0.067791253 0.67338234
-0.020483268 -0.018776298 0.67484987
-0.042532288 -0.010207742 0.67416823
-0.042532288 -0.010207742 0.67416823
-0.022195579 0.064879388 0.67489982
-0.022195579 0.064879388 0.67489982
0.015419316 -0.032551885 0.67561257
-0.067283444 0.025878251 0.67705619
-0.02606993 0.066043854 0.67859876
-0.085576281 0.012225211 0.67961985
-0.082200937 0.015740663 0.67992181
-0.040133897 0.05409351 0.67943847
0.043820236 -0.045573026 0.68038696
-0.047439352 0.049196362 0.68089437
-0.029792015 0.064841449 0.68034613
0.080935746 -0.059822083 0.68119133
0.084568679 -0.058140963 0.6814779
0.084568679 -0.054617286 0.6814779
0.084568679 -0.049331725 0.68147796
0.084568679 -0.047569901 0.68147796
0.084568679 -0.04228431 0.6814779
0.084568679 -0.036998779 0.6814779
0.084568679 -0.035236925 0.6814779
0.084568679 -0.029951394 0.6814779
0.084568679 -0.026427686 0.6814779
0.084568679 -0.024665862 0.6814779
0.084568679 -0.017618448 0.6814779
0.084568679 -0.015856624 0.6814779
0.084568679 -0.010571063 0.6814779
0.084568679 -0.0088092387 0.6814779
0.084568679 -0.0035236776 0.6814779
0.084568679 -0.0017618537 0.6814779
0.084568679 -0.0017618537 0.6814779
0.084568679 -0 0.6814779
0.084568679 0.0017618537 0.6814779
0.084568679 0.0017618537 0.6814779
0.084568679 0.0035236776 0.6814779
0.084568679 0.0035236776 0.6814779
0.084568679 0.0052855313 0.6814779
0.084568679 0.007047385 0.68147796
0.084568679 0.0088092387 0.6814779
0.084568679 0.0088092387 0.6814779
0.084568679 0.01409477 0.68147796
0.084568679 0.015856624 0.6814779
0.084568679 0.017618448 0.6814779
-0.024839787 -0.021291226 0.6829775
0.040997092 -0.046344548 0.68396878
-0.010649702 -0.026624233 0.68305951
-0.072856143 -0.0035539865 0.68330449
-0.087038271 0.0017763078 0.68322146
-0.07865648 0.025027066 0.68459225
-0.037780412 -0.017990679 0.68597072
0.063140184 -0.055924147 0.68656677
-0.084676728 0.021619588 0.68628037
0.088594444 -0.063281745 0.68705499
0.057885725 -0.054267883 0.68716121
0.0090587232 -0.036234885 0.68750101
-0.019913539 -0.025344491 0.68732929
-0.048874944 0.056115657 0.68731254
-0.089052722 2.9802322e-08 0.68818402
-0.074951351 0.034733564 0.68947309
-0.033050716 -0.022033811 0.69044715
-0.047720823 -0.016518772 0.69035852
-0.091720231 0.020178467 0.69023633
-0.060690369 0.049655765 0.69080341
0.035053853 -0.047968417 0.691508
0.053846542 -0.055703342 0.69293702
-0.068542674 0.044460118 0.6924212
-0.011153988 -0.031602979 0.693205
-0.016778043 -0.029827625 0.69383621
-0.074701391 0.04108578 0.6942355
-0.069257803 0.046795815 0.6947543
-0.086408913 0.031933755 0.69555366
-0.054618265 0.06215179 0.69614917
-0.049081556 0.06795907 0.69667602
-0.049081556 0.06795907 0.69667602
-0.049081556 0.06795907 0.69667602
-0.089152075 0.0322465 0.69777447
-0.089152075 0.0322465 0.69777447
-0.038285904 -0.024885803 0.69988
0.0019222455 -0.040367126 0.70083964
-0.061415426 0.061415434 0.70047593
-0.061415426 0.061415434 0.70047593
0.048116423 -0.057739705 0.70113075
-0.080836572 0.044267625 0.70113361
-0.073369145 0.052130699 0.70186836
-0.071495041 0.054104388 0.70205319
0.040910661 -0.056495667 0.70396382
-0.058467422 -0.01948911 0.70405889
-0.076058157 0.052655697 0.70421517
-0.076058157 0.052655697 0.70421517
-0.072273165 0.056646556 0.70459175
-0.067081422 -0.01775682 0.70696425
-0.098789386 0.035564214 0.70730281
-0.085603468 -0.011944681 0.70911241
-0.099889033 0.037957877 0.7099576
-0.099889033 0.037957877 0.7099576
-0.073881648 0.061900824 0.7098394
0.036067244 -0.05810836 0.71067637
-0.098138519 -0.0080113113 0.7105667
0.014062582 -0.05022347 0.71130466
-0.0020080609 -0.044177324 0.71119851
-0.014142242 -0.040406406 0.71267837
-0.014142242 -0.040406406 0.71267837
0.0223896 -0.054956287 0.7145009
-0.032623742 -0.034662724 0.71493125
-0.016319124 -0.04079783 0.71504068
0.014431799 -0.053603828 0.71767157
-0.09340217 0.05604127 0.71935165
-0.091404058 0.058166206 0.7195642
-0.0041622496 -0.047865897 0.72001815
-0.0041622496 -0.047865897 0.72001815
-0.08337865 0.066702902 0.72042149
-0.056673821 -0.029386401 0.72217953
0.031773794 -0.063547552 0.72449982
0.029956868 -0.064193308 0.72709799
-0.04499704 -0.036426157 0.72745281
-0.023745701 -0.0453327 0.72938228
0.019722549 -0.063550442 0.73332882
-0.057056427 -0.035111636 0.73370099
0.0022531985 -0.060836345 0.74078929
-0.047594484 -0.043061674 0.74238324
-0.050403338 -0.043530166 0.7453596
0.026384875 0.0010993779 0.60150981
0.024619171 0.013131037 0.60089231
0.027414104 0.0003698965 0.60296565
0.02213975 0.0022139847 0.60242933
0.027332202 0.018966317 0.60347688
0.015474785 0.010569453 0.60549104
0.018628446 0.012986407 0.60509813
0.021244403 -0 0.60743201
0.030957144 0.0085992068 0.60720628
0.030957144 0.016625121 0.60720628
0.026212478 0.021653771 0.6063748
0.0080729546 0.0046131313 0.60801727
0.0093487771 0.010517389 0.60986626
0.017045256 0.016659459 0.60909712
0.032646611 0.022736028 0.60954678
0.025265045 0.024877965 0.60956633
0.0070972131 0.010645866 0.61158901
0.016407507 0.017579496 0.61027282
0.0023767976 0.0071304142 0.61225653
0.011367216 0.016754419 0.61326385
0.011367216 0.016754419 0.61326385
0.017939534 0.022723407 0.61317033
0.023068026 0.027047109 0.61283767
0.023068026 0.027047109 0.61283767
0.025105778 0.029292077 0.61311537
0.036316782 -0.0090810955 0.61493158
0.016991911 -0.0024273992 0.61531162
0.016991911 -0.0024273992 0.61531162
0.00080521533 0.0088668074 0.61474055
0.032482129 0.037294328 0.6140241
0.036388997 0.042453825 0.6152221
0.028196048 -0.0073555112 0.61678517
-0.0024642062 0.0036962926 0.61753213
0.038076267 0.022722945 0.61706901
0.016630387 0.027104557 0.61752272
0.027127558 0.036992162 0.6176489
0.04001743 -0.012505472 0.61975825
0.026047481 -0.0074421465 0.61852837
0.011247491 -0.0024994314 0.61965883
0.011247491 -0.0024994314 0.61965883
-0.0012443474 0.0024887323 0.61901009
-0.0025046156 0.012523115 0.61997104
0.04001743 0.015006542 0.61975825
0.0095587652 0.022860926 0.61931854
0.016974254 0.028982848 0.61873627
0.033608709 0.044811606 0.61906075
0.039239042 -0.013923496 0.62159669
-0.010525051 0.006736557 0.62125027
0.01503076 0.028808951 0.62000191
0.040213987 0.052780896 0.62049967
0.037154134 -0.014092922 0.62345588
0.042030316 0.0050945878 0.62254679
0.042030316 0.0050945878 0.62254679
-0.01027362 0.010273635 0.62382108
0.0051324861 0.024379313 0.62369061
0.0089320596 0.026796192 0.622832
0.025201371 0.042716742 0.62349117
0.044118967 0.0032440424 0.6254403
0.044118967 0.020761847 0.6254403
0.044118967 0.022708297 0.62544036
0.044118967 0.036982089 0.6254403
0.02114445 0.0409972 0.62507772
0.035068195 0.054550558 0.62558585
0.035068195 0.054550558 0.62558585
0.044118967 0.062285632 0.6254403
0.044118967 0.062285632 0.6254403
-0.018956464 0.0052288175 0.6265974
-0.018956464 0.0052288175 0.6265974
-0.014412895 0.010482103 0.62696695
0.01993995 -0.010634631 0.62926841
0.046287749 -0.011241317 0.62844485
0.0026518046 -0.003977716 0.62885469
-0.011482839 0.015457571 0.62872595
-0.0075205765 0.019463807 0.62898672
0.046287749 0.031078935 0.62844491
0.046287749 0.04298149 0.62844479
0.02127251 0.046533614 0.62929285
0.023957662 0.049246311 0.62946779
0.032821115 -0.016076684 0.63052309
0.048541352 0.037080199 0.63156688
0.010748693 0.038964033 0.63098937
0.010748693 0.038964033 0.63098937
0.03488756 0.061055735 0.63077724
0.03488756 0.061055735 0.63077724
0.038831413 0.064272702 0.63043743
0.040192518 0.065647781 0.6305263
0.044845954 -0.021743476 0.63284612
0.015001412 -0.010910094 0.63342512
-0.010897508 0.021795034 0.6332348
-0.0067966105 0.025150016 0.63288879
-0.0067966105 0.025150016 0.63288879
-0.0013675299 0.031453162 0.63387954
0.050884865 0.0048134327 0.63481349
-0.029056828 0.0083019435 0.63582647
0.026870959 0.059259355 0.63515836
0.028853897 0.060455799 0.63466001
0.02515495 -0.016770005 0.63749695
0.015266553 -0.012490839 0.63633466
0.004162346 -0.0083246827 0.63628399
-0.02652413 0.012564063 0.63731706
-0.0013886963 0.034717411 0.63643461
-0.0013886963 0.034717411 0.63643461
0.0048731091 0.041071877 0.63686478
0.013974394 0.05030784 0.63748997
0.045349289 -0.02550897 0.63987112
-0.033669773 0.0070145428 0.63814998
0.053323772 0.0070163012 0.63819224
0.053323772 0.042799369 0.63819224
0.024754465 0.062946752 0.63955283
0.035823625 -0.022927105 0.64177585
0.035823625 -0.022927105 0.64177585
-0.025540074 0.017026722 0.64007968
-0.012837181 0.02995342 0.64098024
0.055864014 0.030796826 0.64171135
-0.0042941212 0.038647115 0.64158624
0.0014347374 0.044476897 0.64199221
0.024951153 0.064872682 0.64090955
-0.0014513407 -0.010159403 0.64399648
-0.031002533 0.0014418662 0.64285243
0.0028943168 0.047756225 0.64349163
0.058512054 -0.01097101 0.64537984
-0.040781703 0.008738935 0.64461792
-0.040781703 0.008738935 0.64461792
0.058512054 0.019016415 0.64537984
-0.024923943 0.024923921 0.64577979
0.058512054 0.032913044 0.6453799
-0.01315076 0.035068691 0.64518607
-0.0029346959 0.045487791 0.64592874
0 0.046629816 0.64470142
0.058512054 0.046809673 0.6453799
0.014659324 0.061569154 0.64575779
-0.0014786704 -0.011829346 0.64729542
-0.013258747 0.036829859 0.6466344
-0.0088551762 0.041324168 0.6469565
-0.002958887 0.047342211 0.64738876
0.0088466117 0.057502985 0.64678419
0.06127489 -0.035120979 0.64920735
-0.031321898 -0.0014915168 0.64884639
0.06127489 0.020923138 0.64920741
-0.020904819 0.032850415 0.64904946
0.06127489 0.037362754 0.64920735
-0.010497387 0.043489188 0.6498251
0.03913261 -0.028596938 0.65048581
0.018137747 -0.021160722 0.65125579
-0.04658008 0.010518104 0.65018195
-0.031749692 0.025702149 0.65130538
0.044397939 -0.032150209 0.65360773
0.036646239 -0.029011607 0.65312046
0.064160153 -0.0030552447 0.6532045
-0.051860545 0.0091518462 0.65292537
-0.050366774 0.010683864 0.65304071
-0.042506725 0.016699076 0.65205467
-0.041189238 0.019072324 0.65295154
-0.03352328 0.025904387 0.65274131
0.0030674818 0.06134966 0.65394306
0.030833233 -0.027749896 0.65489912
-0.04020308 -0.0015462637 0.65545571
-0.050638266 0.0030689836 0.65403378
-0.015352856 0.044523269 0.65412951
0.067176171 -0.039055884 0.65738273
0.045280758 -0.034350902 0.65728241
0.0046559409 -0.018623769 0.65614474
-0.057801988 0.0093733072 0.65738022
0.067176394 0.010935724 0.65738338
-0.035940114 0.02968967 0.65742826
-0.027973035 0.035743326 0.65639544
-0.050593358 0.018972546 0.65965283
-0.033145998 0.034724385 0.6593315
-0.02533601 0.042754531 0.65994954
-0.0047486401 0.061732322 0.65987468
0.0015730897 0.066069782 0.65869284
0.028734775 -0.030331135 0.66150379
-0.061925434 0.0095269978 0.66047239
0.070332274 0.011189222 0.66175538
-0.049480312 0.02234596 0.66147512
-0.044779621 0.027187616 0.66185337
-0.043208718 0.028805822 0.66198015
0.066020593 -0.045087218 0.66317952
0.066020593 -0.045087218 0.66317952
-0.0032227132 -0.019336283 0.66331208
-0.0064119748 -0.017632961 0.66230261
-0.057001926 0.016860083 0.66262871
-0.049135059 0.024970651 0.66326833
-0.035322893 0.036928505 0.66261554
-0.011249461 0.059461445 0.66279411
0.047156252 -0.039025843 0.66508907
-0.066808499 0.0032589734 0.66549921
-0.017067779 0.056881249 0.66498041
0.045884475 -0.039329529 0.66661644
0.0065479316 -0.024554729 0.66640544
0.073637955 -0.018818587 0.66633493
0.073637955 0.0032728016 0.66633493
-0.062593684 0.018119216 0.66763902
-0.055644311 0.022912353 0.66635889
0.073637955 0.027000591 0.66633499
-0.031480644 -0.01159811 0.66880679
-0.054932106 -0.0033292472 0.66974026
-0.054932106 -0.0033292472 0.66974026
-0.049684331 0.031466752 0.66871846
-0.011560032 0.066057354 0.66814971
0.077104367 -0.015085608 0.67113715
-0.038631249 0.045349747 0.67155212
-0.036977127 0.047061831 0.67169201
-0.028405018 0.053468287 0.6704976
0.067704812 -0.050778627 0.67312145
-0.010189078 -0.022076309 0.67379248
-0.075854644 0.011799604 0.67228115
-0.048965145 0.037146002 0.67261851
0.030601103 -0.037401319 0.67401969
-0.068303712 0.022198707 0.67492878
-0.041051205 0.047893077 0.67527574
-0.027260412 0.059632182 0.67446804
-0.027260412 0.059632182 0.67446804
-0.018807171 0.068389714 0.67518836
0.080743529 -0.036935866 0.67617869
-0.036125094 -0.013761908 0.67645574
0.080743529 -0.010307699 0.67617869
0.080743529 0.024910271 0.67617869
0.076978289 -0.057733715 0.67998827
0.050279818 -0.046812266 0.67809069
-0.071243927 -0.0017376542 0.67855781
-0.061143316 0.034939051 0.67967987
-0.031217212 0.060700148 0.67815143
0.084568679 -0.049331725 0.68147796
0.084568679 -0.049331725 0.68147796
0.043820236 -0.045573026 0.68038696
0.084568679 -0.029070467 0.6814779
-0.014118467 -0.024707347 0.68183535
0.084568679 -0.0052855313 0.6814779
0.084568679 -0.0052855313 0.6814779
0.084568679 0.010571063 0.6814779
-0.073720269 0.024573416 0.68068087
-0.054310907 0.042047143 0.68028498
-0.035318192 0.061806858 0.68196827
0.017763246 -0.037302822 0.68322545
0.017763246 -0.037302822 0.68322545
-0.0053106286 -0.028323352 0.68248731
-0.047908362 0.051457137 0.68299121
-0.033576626 0.063618898 0.68212295
0.030466182 -0.043011039 0.6851331
0.0017907362 -0.032233208 0.68496507
-0.01794892 -0.025128484 0.68546677
-0.060619943 0.041007608 0.68402392
0.048688997 -0.050492287 0.68648124
-0.057704378 -0.010819614 0.68647712
0.088594444 0.014464408 0.68705511
-0.084676728 0.021619588 0.68628037
-0.03602729 0.06665048 0.68624806
-0.0820181 0.027339339 0.6888144
-0.069623597 0.040308386 0.68997025
-0.047580007 0.060390025 0.68970466
-0.047580007 0.060390025 0.68970466
0.035053853 -0.047968417 0.691508
-0.06427177 0.045908421 0.6904695
0.053846542 -0.055703342 0.69293702
-0.070527889 -0.0092799664 0.69284278
-0.085341342 -0.0037105083 0.69275218
-0.055872142 0.057734579 0.69361621
0.057908226 -0.057908207 0.69429249
-0.013128882 -0.031884432 0.6952036
0.026364602 -0.047079653 0.69612479
0.0056633465 -0.039643407 0.69667959
-0.078162506 -0.0095319748 0.69892728
-0.093791343 0.030625731 0.69985753
-0.076289341 0.045773596 0.6990276
-0.034672208 -0.026967257 0.70132107
-0.061974198 -0.017430246 0.70258367
-0.061974198 -0.017430246 0.70258367
-0.076684766 -0.013763905 0.70615458
-0.096892186 0.037570417 0.70749646
-0.0059852698 -0.041896909 0.70963275
-0.015905924 -0.03777653 0.70880592
-0.099889033 0.037957877 0.7099576
0.014062582 -0.05022347 0.71130466
-0.043986507 -0.027991414 0.71015143
-0.043986507 -0.027991414 0.71015143
-0.014142242 -0.040406406 0.71267837
-0.076668926 0.062545687 0.71235037
-0.032623742 -0.034662724 0.71493125
-0.087830171 -0.014297903 0.7153632
-0.0854173 0.056944877 0.7142989
0.018679859 -0.056039572 0.71934396
0.018679859 -0.056039572 0.71934396
0.029162204 -0.06040743 0.72024626
0.029162204 -0.06040743 0.72024626
0.031773794 -0.063547552 0.72449982
-0.023745701 -0.0453327 0.72938228
0.0043356018 -0.056362808 0.73048079
-0.02196569 -0.048324525 0.73395348
-0.039519504 -0.041714996 0.73382783
-0.064596921 -0.039219558 0.74728763
-0.047561932 -0.04994002 0.75586575
-0.035170894 -0.062805176 0.77205431
-0.035170894 -0.062805176 0.77205431
0.022891384 0.0095550222 0.59935564
0.01444005 0.0030377805 0.60644913
0.025070148 0.018592566 0.60481656
0.026792152 0.02876389 0.61148894
0.036203053 0.0057321563 0.61447394
0.0036392731 0.012130886 0.61523718
0.036203053 0.038013205 0.61447394
-0.0061110947 0.0057992614 0.61788762
0.038076267 0.018116944 0.61706901
0.04001743 0.029700443 0.61975825
0.03049951 0.041552268 0.61876619
0.0088068107 0.023904204 0.62067211
0.016750602 0.030991208 0.62045997
0.042030316 0.029930696 0.62254679
0.042030316 0.029930696 0.62254679
0.01922052 0.037159711 0.62347889
0.042030316 0.046169668 0.62254679
0.044118967 -0.006163694 0.62544036
0.044118967 0.013949372 0.6254403
0.033952568 0.053866245 0.62585771
0.013262819 -0.0079576969 0.62890053
0.013262819 -0.0079576969 0.62890053
-0.0080896718 -0.0013482571 0.63155574
0.0016516024 0.027468175 0.62860286
0.021354325 0.046370834 0.62910724
0.022695191 0.049761739 0.63077885
0.039188594 -0.020626754 0.63479543
0.050884865 0.0099706799 0.63481349
-0.0013780298 0.03307271 0.63514709
0.050884865 0.038163655 0.63481349
0.0062206495 0.040778741 0.6356653
-0.017733898 -0.00093789899 0.63781095
-0.017733898 -0.00093789899 0.63781095
-0.014885685 0.023258578 0.63724816
0.053323772 0.022101298 0.6381923
-0.013526903 0.02599372 0.63839674
0.010602003 0.049719017 0.63946295
0.029815104 -0.019876719 0.64018512
0.010041319 -0.013387988 0.64192194
0.055864014 -0.0096687824 0.64171135
-0.033715375 0.013487101 0.64321864
0.049917635 -0.030343365 0.64601922
-0.02907226 -0 0.64427078
-0.035039444 0.01459977 0.6450389
-0.025548175 0.025548458 0.64671564
0.058512054 0.042055532 0.6453799
0.0060209366 0.054067411 0.6461482
0.013979732 0.061807379 0.64643317
0.038515493 -0.02869986 0.65113974
-0.0060419547 -0.012083888 0.65113622
-0.026453767 -0.0045344383 0.65125698
-0.045967992 0.0030141175 0.65072221
-0.047737561 0.0059646219 0.64888012
0.058068413 -0.037691832 0.65448022
0.026101433 -0.025590103 0.65412277
0.03278337 -0.027448863 0.65288025
0.018376503 -0.022460025 0.65363216
0.0053411499 0.06233339 0.6530695
0.047433812 -0.036365926 0.65966302
0.024906939 -0.026463628 0.65671253
-0.017995521 -0.010952011 0.65766501
-0.046312511 0.021195851 0.6582967
0.067176394 0.02226194 0.65738332
-0.025999783 0.038479399 0.65710187
-0.022651723 0.041916743 0.65736282
-0.0094788652 0.056873202 0.65950418
-0.0096623227 -0.016918495 0.66327953
-0.017610317 -0.013346463 0.662085
0.070332214 -0.013986506 0.6617552
0.070332214 -0.013986506 0.6617552
0.070332214 -0.013986506 0.6617552
-0.018582707 0.050436825 0.66105866
0.05663443 -0.042071253 0.66412926
0.073637702 -0.03354606 0.66633427
-0.050447457 -0.002715677 0.66525215
0.073637955 0.0380463 0.66633499
-0.0057182037 0.06857717 0.66589922
0.049635675 -0.042545155 0.6701839
0 -0.023155034 0.66845119
0 -0.023155034 0.66845119
-0.073996015 0.0099811703 0.66952646
-0.053796798 0.028840613 0.66963935
-0.042360712 0.039038837 0.66933054
0.044884391 -0.042346969 0.67327344
-0.073847577 0.001697585 0.67371857
-0.064979397 0.025649756 0.67521745
-0.029504793 0.054795444 0.67232287
-0.029504793 0.054795444 0.67232287
0.078073144 -0.057260614 0.6782577
0.03274576 -0.039639592 0.6768443
0.080743529 -0.014173068 0.67617869
0.080743529 0.0021474361 0.67617869
-0.069969222 0.024866533 0.67820519
-0.025580693 0.065897562 0.67813218
0.084568679 -0.050212651 0.6814779
0.0372172 -0.044306159 0.6827333
0.018569689 -0.037146822 0.6823287
-0.057535898 -0.0088511258 0.68248868
0.084568679 -0.0061664581 0.6814779
-0.041378725 0.057338893 0.68286073
0.088594444 -0.038421065 0.68705505
-0.038850464 -0.018068194 0.68690634
-0.052417606 0.052417576 0.68698913
-0.039571643 0.062954873 0.68592775
0.0612178 -0.056652963 0.68940473
-0.081487387 -0.003662169 0.68983603
0.01774936 -0.042982176 0.69438708
0.0074840398 -0.039291233 0.694655
-0.065999031 -0.011154056 0.69320673
-0.07034196 0.042575389 0.69225216
-0.056458 0.060221881 0.69597358
0.056541763 -0.05842647 0.69631064
-0.014481635 -0.034745306 0.70181131
-0.057745323 -0.018290907 0.70117754
-0.089847207 -0.0067707002 0.7020604
-0.075240582 0.050160408 0.70168465
0.034348398 -0.054964751 0.70576245
0.018636212 -0.049054682 0.70566112
0.018636212 -0.049054682 0.70566112
-0.034107324 -0.032101005 0.71098757
-0.058896992 -0.024371147 0.71395916
-0.070165917 -0.020336524 0.71428776
-0.091311432 -0.012174875 0.71374339
0.018679859 -0.056039572 0.71934396
-0.050217468 -0.031385899 0.72137845
-0.050217468 -0.031385899 0.72137845
0.0084962817 -0.055225819 0.72520208
-0.061011888 -0.032684952 0.73183221
-0.062753245 -0.035859019 0.73933935
-0.020711828 -0.055231541 0.74659735
-0.032090876 -0.05042851 0.74549782
-0.044495888 -0.056855857 0.76720011
