# .PCD v0.7 - Point Cloud Data file format
VERSION 0.7
FIELDS x y z
SIZE 4 4 4
TYPE F F F
COUNT 1 1 1
WIDTH 1331
HEIGHT 1
VIEWPOINT 0 0 0 1 0 0 0
POINTS 1331
DATA ascii
-0.017328594 -0.0057761967 0.64311635
-0.017328594 -0.0072202384 0.6431163
-0.017328594 -0.0086642802 0.64311635
-0.017328594 -0.010108352 0.6431163
-0.017328594 -0.011552364 0.64311635
-0.017328594 -0.012996435 0.64311635
-0.017328594 -0.014440477 0.64311635
-0.017328594 -0.015884548 0.64311635
-0.017328594 -0.01732859 0.64311635
-0.017328594 -0.018772662 0.64311635
-0.017328594 -0.020216674 0.64311635
-0.017328594 -0.021660715 0.6431163
-0.017328594 -0.023104787 0.64311635
-0.017328594 -0.024548858 0.6431163
-0.017328594 -0.0259929 0.64311635
-0.017328594 -0.027436942 0.6431163
-0.017328594 -0.028880984 0.64311635
-0.017328594 -0.030325025 0.6431163
-0.017328594 -0.031769067 0.6431163
-0.017328594 -0.033213139 0.6431163
-0.017328594 -0.03465718 0.64311635
-0.017328594 -0.036101222 0.6431163
-0.015864184 0.037497193 0.6428929
-0.015864184 0.036054969 0.6428929
-0.015864184 0.034612805 0.6428929
-0.015864184 0.033170581 0.6428929
-0.015864184 0.031728357 0.6428929
-0.015864184 0.030286193 0.6428929
-0.015864184 0.028843969 0.6428929
-0.015864184 0.027401745 0.6428929
-0.015864184 0.025959581 0.6428929
-0.015864184 0.024517357 0.6428929
-0.015864184 0.023075163 0.6428929
-0.015864184 0.021632999 0.6428929
-0.015864184 0.020190775 0.6428929
-0.015864184 0.018748611 0.6428929
-0.015864184 0.017306387 0.6428929
-0.015864184 0.015864164 0.6428929
-0.015864184 0.014422029 0.6428929
-0.015864184 0.012979776 0.6428929
-0.015864184 0.011537641 0.64289284
-0.015864184 0.010095417 0.6428929
-0.015864184 0.0086531937 0.6428929
-0.015864184 0.0072109997 0.6428929
-0.015864184 0.0057687759 0.6428929
-0.015864184 0.004326582 0.6428929
-0.015864184 0.0028844178 0.6428929
-0.015864184 0.001442194 0.6428929
-0.015864184 -2.9802322e-08 0.6428929
-0.015864184 -0.001442194 0.6428929
-0.015864184 -0.002884388 0.6428929
-0.015864184 -0.004326582 0.6428929
-0.015864184 -0.0057687759 0.6428929
-0.015864184 -0.0072109997 0.6428929
-0.015864184 -0.0086531639 0.6428929
-0.015864184 -0.010095358 0.6428929
-0.015864184 -0.011537582 0.64289284
-0.015864184 -0.012979776 0.6428929
-0.015864184 -0.014421999 0.6428929
-0.015864184 -0.015864164 0.64289284
-0.015864184 -0.017306387 0.6428929
-0.015864184 -0.018748611 0.6428929
-0.015864184 -0.020190746 0.6428929
-0.015864184 -0.021632969 0.6428929
-0.015864184 -0.023075193 0.6428929
-0.015864184 -0.024517357 0.6428929
-0.015864184 -0.025959581 0.6428929
-0.015864184 -0.027401775 0.6428929
-0.015864184 -0.028843939 0.6428929
-0.015864184 -0.030286163 0.6428929
-0.015864184 -0.031728357 0.6428929
-0.015864184 -0.033170551 0.6428929
-0.015864184 -0.034612775 0.6428929
-0.015864184 -0.036054969 0.6428929
-0.014403524 0.037449181 0.64267004
-0.014403524 0.036008835 0.64267004
-0.014403524 0.034568459 0.64267004
-0.014403524 0.033128113 0.64267004
-0.014403524 0.031687796 0.64267004
-0.014403524 0.03024739 0.64267004
-0.014403524 0.028807044 0.64267004
-0.014403524 0.027366698 0.64267004
-0.014403524 0.025926322 0.64267004
-0.014403524 0.024486005 0.64267004
-0.014403524 0.023045629 0.64267004
-0.014403524 0.021605283 0.64267004
-0.014403524 0.020164937 0.64267004
-0.014403524 0.018724591 0.64267004
-0.014403524 0.017284244 0.64267004
-0.014403524 0.015843898 0.64267004
-0.014403524 0.014403522 0.64267004
-0.014403524 0.012963176 0.64267004
-0.014403524 0.011522859 0.64267004
-0.014403524 0.010082483 0.64266998
-0.014403524 0.0086421072 0.64267004
-0.014403524 0.007201761 0.64267004
-0.014403524 0.005761385 0.64267004
-0.014403524 0.0043210685 0.64267004
-0.014403524 0.0028807223 0.64267004
-0.014403524 0.001440376 0.64266998
-0.014403524 -0 0.64267004
-0.014403524 -0.0014403462 0.64267004
-0.014403524 -0.0028806925 0.64267004
-0.014403524 -0.0043210387 0.64267004
-0.014403524 -0.005761385 0.64266998
-0.014403524 -0.007201761 0.64267004
-0.014403524 -0.0086421072 0.64267004
-0.014403524 -0.010082453 0.64267004
-0.014403524 -0.0115228 0.64267004
-0.014403524 -0.012963146 0.64267004
-0.014403524 -0.014403522 0.64267004
-0.014403524 -0.015843898 0.64267004
-0.014403524 -0.017284214 0.64267004
-0.014403524 -0.018724591 0.64267004
-0.014403524 -0.020164937 0.64267004
-0.014403524 -0.021605283 0.64267004
-0.014403524 -0.023045629 0.64267004
-0.014403524 -0.024485976 0.64267004
-0.014403524 -0.025926322 0.64267004
-0.014403524 -0.027366728 0.64267004
-0.014403524 -0.028807044 0.64267004
-0.014403524 -0.03024739 0.64267004
-0.014403524 -0.031687737 0.64267004
-0.014403524 -0.033128083 0.64267004
-0.014403524 -0.034568429 0.64267004
-0.014403524 -0.036008805 0.64267004
-0.012946637 0.037401408 0.64244825
-0.012946637 0.035962909 0.64244825
-0.012946637 0.034524351 0.64244831
-0.012946637 0.033085853 0.64244831
-0.012946637 0.031647325 0.64244825
-0.012946637 0.030208826 0.64244825
-0.012946637 0.028770298 0.64244831
-0.012946637 0.027331769 0.64244831
-0.012946637 0.025893241 0.64244831
-0.012946637 0.024454743 0.64244825
-0.012946637 0.023016244 0.64244825
-0.012946637 0.021577716 0.64244831
-0.012946637 0.020139217 0.64244831
-0.012946637 0.018700719 0.64244825
-0.012946637 0.01726222 0.64244825
-0.012946637 0.015823662 0.64244831
-0.012946637 0.014385164 0.64244831
-0.012946637 0.012946635 0.64244831
-0.012946637 0.011508167 0.64244831
-0.012946637 0.010069638 0.64244825
-0.012946637 0.0086311102 0.64244825
-0.012946637 0.0071925819 0.64244825
-0.012946637 0.0057540834 0.64244831
-0.012946637 0.0043155551 0.64244831
-0.012946637 0.0028770268 0.64244825
-0.012946637 0.0014385283 0.64244831
-0.012946637 -0 0.64244831
-0.012946637 -0.0014384985 0.64244825
-0.012946637 -0.0028770268 0.64244825
-0.012946637 -0.0043155253 0.64244825
-0.012946637 -0.0057540834 0.64244831
-0.012946637 -0.0071925819 0.64244831
-0.012946637 -0.0086310804 0.64244831
-0.012946637 -0.010069609 0.64244825
-0.012946637 -0.011508137 0.64244825
-0.012946637 -0.012946665 0.64244831
-0.012946637 -0.014385164 0.64244831
-0.012946637 -0.015823692 0.64244831
-0.012946637 -0.017262191 0.64244831
-0.012946637 -0.018700689 0.64244831
-0.012946637 -0.020139188 0.64244831
-0.012946637 -0.021577716 0.64244825
-0.012946637 -0.023016214 0.64244825
-0.012946637 -0.024454743 0.64244825
-0.012946637 -0.025893241 0.64244831
-0.012946637 -0.027331769 0.64244831
-0.012946637 -0.028770298 0.64244831
-0.012946637 -0.030208826 0.64244825
-0.012946637 -0.031647325 0.64244825
-0.012946637 -0.033085853 0.64244831
-0.012946637 -0.034524381 0.64244831
-0.012946637 -0.03596288 0.64244831
-0.011493427 0.037353635 0.64222652
-0.011493427 0.035916984 0.64222652
-0.011493427 0.034480304 0.64222652
-0.011493427 0.033043623 0.64222658
-0.011493427 0.031606942 0.64222658
-0.011493427 0.030170232 0.64222658
-0.011493427 0.028733581 0.64222658
-0.011493427 0.027296871 0.64222652
-0.011493427 0.02586019 0.64222652
-0.011493427 0.02442354 0.64222658
-0.011493427 0.022986859 0.64222658
-0.011493427 0.021550179 0.64222658
-0.011493427 0.020113498 0.64222658
-0.011493427 0.018676788 0.64222658
-0.011493427 0.017240167 0.64222652
-0.011493427 0.015803456 0.64222652
-0.011493427 0.014366806 0.64222652
-0.011493427 0.012930125 0.64222658
-0.011493427 0.011493444 0.64222652
-0.011493427 0.010056794 0.64222658
-0.011493427 0.0086200833 0.64222652
-0.011493427 0.0071834028 0.64222652
-0.011493427 0.0057467222 0.64222658
-0.011493427 0.0043100119 0.64222658
-0.011493427 0.0028733611 0.64222658
-0.011493427 0.0014366806 0.64222658
-0.011493427 -0 0.64222658
-0.011493427 -0.0014366806 0.64222658
-0.011493427 -0.0028733611 0.64222658
-0.011493427 -0.0043100417 0.64222658
-0.011493427 -0.0057467222 0.64222658
-0.011493427 -0.0071834028 0.64222658
-0.011493427 -0.0086200833 0.64222658
-0.011493427 -0.010056734 0.64222652
-0.011493427 -0.011493415 0.64222652
-0.011493427 -0.012930095 0.64222652
-0.011493427 -0.014366746 0.64222652
-0.011493427 -0.015803456 0.64222658
-0.011493427 -0.017240137 0.64222658
-0.011493427 -0.018676817 0.64222658
-0.011493427 -0.020113498 0.64222658
-0.011493427 -0.021550149 0.64222658
-0.011493427 -0.022986859 0.64222652
-0.011493427 -0.02442354 0.64222658
-0.011493427 -0.02586019 0.64222658
-0.011493427 -0.027296931 0.64222658
-0.011493427 -0.028733581 0.64222658
-0.011493427 -0.030170232 0.64222652
-0.011493427 -0.031606913 0.64222652
-0.011493427 -0.033043593 0.64222652
-0.011493427 -0.034480274 0.64222652
-0.011493427 -0.035916924 0.64222658
-0.010043924 0.037306011 0.64200532
-0.010043924 0.035871178 0.64200538
-0.010043924 0.034436285 0.64200538
-0.010043924 0.033001512 0.64200538
-0.010043924 0.03156662 0.64200532
-0.010043924 0.030131757 0.64200538
-0.010043924 0.028696924 0.64200544
-0.010043924 0.027262092 0.64200538
-0.010043924 0.025827229 0.64200538
-0.010043924 0.024392396 0.64200538
-0.010043924 0.022957534 0.64200538
-0.010043924 0.021522701 0.64200538
-0.010043924 0.020087868 0.64200532
-0.010043924 0.018653035 0.64200538
-0.010043924 0.017218173 0.64200538
-0.010043924 0.01578334 0.64200538
-0.010043924 0.014348447 0.64200538
-0.010043924 0.012913615 0.64200544
-0.010043924 0.011478812 0.64200538
-0.010043924 0.010043919 0.64200538
-0.010043924 0.0086090863 0.64200538
-0.010043924 0.0071742535 0.64200532
-0.010043924 0.0057393909 0.64200538
-0.010043924 0.004304558 0.64200538
-0.010043924 0.0028696954 0.64200538
-0.010043924 0.0014348626 0.64200544
-0.010043924 -2.9802322e-08 0.64200538
-0.010043924 -0.0014348328 0.64200532
-0.010043924 -0.0028696656 0.64200538
-0.010043924 -0.004304558 0.64200538
-0.010043924 -0.0057393909 0.64200538
-0.010043924 -0.0071742237 0.64200532
-0.010043924 -0.0086090565 0.64200538
-0.010043924 -0.010043949 0.64200538
-0.010043924 -0.011478752 0.64200538
-0.010043924 -0.012913615 0.64200538
-0.010043924 -0.014348477 0.64200544
-0.010043924 -0.01578331 0.64200538
-0.010043924 -0.017218143 0.64200538
-0.010043924 -0.018653035 0.64200538
-0.010043924 -0.020087808 0.64200538
-0.010043924 -0.021522701 0.64200538
-0.010043924 -0.022957504 0.64200538
-0.010043924 -0.024392396 0.64200538
-0.010043924 -0.025827229 0.64200544
-0.010043924 -0.027262092 0.64200544
-0.010043924 -0.028696924 0.64200538
-0.010043924 -0.030131757 0.64200538
-0.010043924 -0.03156662 0.64200544
-0.010043924 -0.033001423 0.64200538
-0.010043924 -0.034436315 0.64200538
-0.010043924 -0.035871148 0.64200538
-0.0085981125 0.037258506 0.64178479
-0.0085981125 0.035825461 0.64178479
-0.0085981125 0.034392416 0.64178479
-0.0085981125 0.032959431 0.64178479
-0.0085981125 0.031526446 0.64178485
-0.0085981125 0.030093402 0.64178479
-0.0085981125 0.028660387 0.64178479
-0.0085981125 0.027227342 0.64178479
-0.0085981125 0.025794327 0.64178485
-0.0085981125 0.024361342 0.64178479
-0.0085981125 0.022928298 0.64178479
-0.0085981125 0.021495283 0.64178479
-0.0085981125 0.020062268 0.64178479
-0.0085981125 0.018629223 0.64178479
-0.0085981125 0.017196238 0.64178485
-0.0085981125 0.015763223 0.64178479
-0.0085981125 0.014330178 0.64178479
-0.0085981125 0.012897164 0.64178479
-0.0085981125 0.011464149 0.64178479
-0.0085981125 0.010031134 0.64178479
-0.0085981125 0.0085981488 0.64178479
-0.0085981125 0.0071651042 0.64178479
-0.0085981125 0.0057320893 0.64178479
-0.0085981125 0.0042990744 0.64178479
-0.0085981125 0.0028660297 0.64178479
-0.0085981125 0.0014330149 0.64178479
-0.0085981125 -0 0.64178479
-0.0085981125 -0.0014330149 0.64178479
-0.0085981125 -0.0028660595 0.64178479
-0.0085981125 -0.0042990446 0.64178479
-0.0085981125 -0.0057320893 0.64178479
-0.0085981125 -0.0071651042 0.64178485
-0.0085981125 -0.0085980892 0.64178479
-0.0085981125 -0.010031134 0.64178479
-0.0085981125 -0.011464149 0.64178479
-0.0085981125 -0.012897164 0.64178479
-0.0085981125 -0.014330178 0.64178479
-0.0085981125 -0.015763223 0.64178479
-0.0085981125 -0.017196208 0.64178479
-0.0085981125 -0.018629253 0.64178479
-0.0085981125 -0.020062238 0.64178479
-0.0085981125 -0.021495283 0.64178479
-0.0085981125 -0.022928298 0.64178479
-0.0085981125 -0.024361342 0.64178479
-0.0085981125 -0.025794327 0.64178479
-0.0085981125 -0.027227372 0.64178479
-0.0085981125 -0.028660357 0.64178479
-0.0085981125 -0.030093372 0.64178479
-0.0085981125 -0.031526417 0.64178479
-0.0085981125 -0.032959431 0.64178485
-0.0085981125 -0.034392446 0.64178479
-0.0085981125 -0.035825461 0.64178479
-0.0071560014 0.037211239 0.64156526
-0.0071560014 0.035780013 0.64156526
-0.0071560014 0.034348816 0.64156532
-0.0071560014 0.032917619 0.64156526
-0.0071560014 0.031486422 0.64156526
-0.0071560014 0.030055225 0.64156526
-0.0071560014 0.028624028 0.64156532
-0.0071560014 0.027192801 0.64156532
-0.0071560014 0.025761634 0.64156526
-0.0071560014 0.024330378 0.64156526
-0.0071560014 0.02289924 0.64156526
-0.0071560014 0.021468014 0.64156532
-0.0071560014 0.020036787 0.64156532
-0.0071560014 0.01860559 0.64156532
-0.0071560014 0.017174393 0.64156532
-0.0071560014 0.015743226 0.6415652
-0.0071560014 0.014311999 0.64156526
-0.0071560014 0.012880802 0.64156532
-0.0071560014 0.011449605 0.64156532
-0.0071560014 0.010018408 0.64156526
-0.0071560014 0.0085872114 0.64156532
-0.0071560014 0.0071560442 0.64156526
-0.0071560014 0.0057248175 0.64156526
-0.0071560014 0.0042935908 0.64156532
-0.0071560014 0.0028624237 0.64156526
-0.0071560014 0.0014311969 0.64156526
-0.0071560014 2.9802322e-08 0.64156526
-0.0071560014 -0.0014311671 0.64156526
-0.0071560014 -0.0028623939 0.64156532
-0.0071560014 -0.0042935908 0.64156532
-0.0071560014 -0.0057247877 0.64156526
-0.0071560014 -0.0071560144 0.64156532
-0.0071560014 -0.0085871816 0.64156526
-0.0071560014 -0.010018408 0.64156526
-0.0071560014 -0.011449635 0.64156532
-0.0071560014 -0.012880802 0.64156526
-0.0071560014 -0.014312029 0.64156532
-0.0071560014 -0.015743166 0.64156526
-0.0071560014 -0.017174393 0.64156532
-0.0071560014 -0.01860562 0.64156532
-0.0071560014 -0.020036787 0.64156532
-0.0071560014 -0.021467984 0.64156532
-0.0071560014 -0.022899181 0.64156526
-0.0071560014 -0.024330378 0.64156532
-0.0071560014 -0.025761604 0.64156532
-0.0071560014 -0.027192801 0.64156526
-0.0071560014 -0.028623998 0.64156532
-0.0071560014 -0.030055225 0.64156532
-0.0071560014 -0.031486392 0.64156526
-0.0071560014 -0.032917589 0.64156532
-0.0071560014 -0.034348816 0.64156532
-0.0071560014 -0.035779983 0.64156526
-0.0057175285 0.037163943 0.6413458
-0.0057175285 0.035734594 0.64134574
-0.0057175285 0.034305185 0.6413458
-0.0057175285 0.032875776 0.6413458
-0.0057175285 0.031446397 0.64134586
-0.0057175285 0.030017048 0.6413458
-0.0057175285 0.028587639 0.6413458
-0.0057175285 0.02715826 0.6413458
-0.0057175285 0.025728881 0.64134586
-0.0057175285 0.024299502 0.64134586
-0.0057175285 0.022870123 0.6413458
-0.0057175285 0.021440774 0.64134574
-0.0057175285 0.020011365 0.6413458
-0.0057175285 0.018581957 0.6413458
-0.0057175285 0.017152578 0.6413458
-0.0057175285 0.015723228 0.64134586
-0.0057175285 0.014293849 0.6413458
-0.0057175285 0.012864441 0.6413458
-0.0057175285 0.011435062 0.64134586
-0.0057175285 0.010005683 0.6413458
-0.0057175285 0.0085763037 0.6413458
-0.0057175285 0.0071469247 0.6413458
-0.0057175285 0.0057175457 0.64134586
-0.0057175285 0.004288137 0.64134586
-0.0057175285 0.002858758 0.6413458
-0.0057175285 0.0014294088 0.64134586
-0.0057175285 2.9802322e-08 0.6413458
-0.0057175285 -0.001429379 0.6413458
-0.0057175285 -0.002858758 0.64134586
-0.0057175285 -0.004288137 0.6413458
-0.0057175285 -0.0057175159 0.6413458
-0.0057175285 -0.0071468949 0.6413458
-0.0057175285 -0.0085762739 0.64134586
-0.0057175285 -0.010005683 0.64134586
-0.0057175285 -0.011435062 0.6413458
-0.0057175285 -0.012864411 0.6413458
-0.0057175285 -0.01429379 0.6413458
-0.0057175285 -0.015723199 0.64134586
-0.0057175285 -0.017152548 0.6413458
-0.0057175285 -0.018581957 0.6413458
-0.0057175285 -0.020011336 0.6413458
-0.0057175285 -0.021440715 0.6413458
-0.0057175285 -0.022870094 0.6413458
-0.0057175285 -0.024299473 0.6413458
-0.0057175285 -0.025728881 0.64134586
-0.0057175285 -0.02715826 0.6413458
-0.0057175285 -0.028587639 0.6413458
-0.0057175285 -0.030017048 0.6413458
-0.0057175285 -0.031446368 0.6413458
-0.0057175285 -0.032875776 0.6413458
-0.0057175285 -0.034305155 0.6413458
-0.0057175285 -0.035734564 0.64134586
-0.0042827055 0.037116796 0.64112687
-0.0042827055 0.035689235 0.64112687
-0.0042827055 0.034261644 0.64112693
-0.0042827055 0.032834053 0.64112687
-0.0042827055 0.031406492 0.64112687
-0.0042827055 0.029978961 0.64112687
-0.0042827055 0.02855137 0.64112687
-0.0042827055 0.027123779 0.64112687
-0.0042827055 0.025696218 0.64112693
-0.0042827055 0.024268657 0.64112687
-0.0042827055 0.022841126 0.64112687
-0.0042827055 0.021413505 0.64112687
-0.0042827055 0.019985944 0.64112693
-0.0042827055 0.018558353 0.64112693
-0.0042827055 0.017130822 0.64112693
-0.0042827055 0.015703291 0.64112687
-0.0042827055 0.01427567 0.64112687
-0.0042827055 0.012848109 0.64112687
-0.0042827055 0.011420548 0.64112687
-0.0042827055 0.0099929571 0.64112687
-0.0042827055 0.0085654259 0.64112687
-0.0042827055 0.007137835 0.64112687
-0.0042827055 0.005710274 0.64112693
-0.0042827055 0.0042827129 0.64112687
-0.0042827055 0.0028551221 0.64112687
-0.0042827055 0.0014275908 0.64112687
-0.0042827055 -0 0.64112687
-0.0042827055 -0.0014275908 0.64112687
-0.0042827055 -0.0028550923 0.64112687
-0.0042827055 -0.0042826831 0.64112687
-0.0042827055 -0.0057102442 0.64112687
-0.0042827055 -0.0071378052 0.64112687
-0.0042827055 -0.0085654259 0.64112693
-0.0042827055 -0.0099929571 0.64112687
-0.0042827055 -0.011420548 0.64112693
-0.0042827055 -0.012848079 0.64112687
-0.0042827055 -0.01427567 0.64112693
-0.0042827055 -0.015703261 0.64112687
-0.0042827055 -0.017130792 0.64112687
-0.0042827055 -0.018558383 0.64112687
-0.0042827055 -0.019985944 0.64112687
-0.0042827055 -0.021413535 0.64112687
-0.0042827055 -0.022841066 0.64112687
-0.0042827055 -0.024268657 0.64112687
-0.0042827055 -0.025696188 0.64112687
-0.0042827055 -0.027123779 0.64112687
-0.0042827055 -0.02855137 0.64112693
-0.0042827055 -0.029978901 0.64112687
-0.0042827055 -0.031406522 0.64112687
-0.0042827055 -0.032834023 0.64112687
-0.0042827055 -0.034261644 0.64112687
-0.0042827055 -0.035689205 0.64112687
-0.0028515279 0.037069857 0.64090908
-0.0028515279 0.035644114 0.64090908
-0.0028515279 0.034218341 0.64090908
-0.0028515279 0.032792568 0.64090902
-0.0028515279 0.031366825 0.64090908
-0.0028515279 0.029941052 0.64090908
-0.0028515279 0.028515279 0.64090908
-0.0028515279 0.027089536 0.64090908
-0.0028515279 0.025663763 0.64090908
-0.0028515279 0.024237961 0.64090908
-0.0028515279 0.022812217 0.64090902
-0.0028515279 0.021386474 0.64090908
-0.0028515279 0.019960701 0.64090908
-0.0028515279 0.018534958 0.64090908
-0.0028515279 0.017109185 0.64090908
-0.0028515279 0.015683383 0.64090908
-0.0028515279 0.01425764 0.64090908
-0.0028515279 0.012831867 0.64090902
-0.0028515279 0.011406124 0.64090908
-0.0028515279 0.0099803805 0.64090908
-0.0028515279 0.0085546076 0.64090902
-0.0028515279 0.0071288049 0.64090908
-0.0028515279 0.0057030618 0.64090908
-0.0028515279 0.0042772889 0.64090902
-0.0028515279 0.002851516 0.64090908
-0.0028515279 0.0014257729 0.64090902
-0.0028515279 -0 0.64090908
-0.0028515279 -0.0014257729 0.64090908
-0.0028515279 -0.002851516 0.64090908
-0.0028515279 -0.0042772889 0.64090908
-0.0028515279 -0.0057030618 0.64090908
-0.0028515279 -0.0071288049 0.64090902
-0.0028515279 -0.0085546076 0.64090902
-0.0028515279 -0.0099803507 0.64090908
-0.0028515279 -0.011406094 0.64090902
-0.0028515279 -0.012831867 0.64090902
-0.0028515279 -0.01425764 0.64090908
-0.0028515279 -0.015683383 0.64090902
-0.0028515279 -0.017109185 0.64090902
-0.0028515279 -0.018534958 0.64090908
-0.0028515279 -0.019960672 0.64090908
-0.0028515279 -0.021386445 0.64090902
-0.0028515279 -0.022812217 0.64090908
-0.0028515279 -0.024237961 0.64090908
-0.0028515279 -0.025663763 0.64090902
-0.0028515279 -0.027089536 0.64090908
-0.0028515279 -0.028515279 0.64090902
-0.0028515279 -0.029941022 0.64090908
-0.0028515279 -0.031366795 0.64090908
-0.0028515279 -0.032792568 0.64090908
-0.0028515279 -0.034218311 0.64090908
-0.0028515279 -0.035644084 0.64090908
-0.0014239595 0.038446933 0.64069122
-0.0014239595 0.037022948 0.64069128
-0.0014239595 0.035598993 0.64069116
-0.0014239595 0.034175038 0.64069122
-0.0014239595 0.032751083 0.64069122
-0.0014239595 0.031327128 0.64069122
-0.0014239595 0.029903173 0.64069128
-0.0014239595 0.028479159 0.64069128
-0.0014239595 0.027055234 0.64069122
-0.0014239595 0.025631279 0.64069122
-0.0014239595 0.024207294 0.64069122
-0.0014239595 0.022783369 0.64069122
-0.0014239595 0.021359414 0.64069122
-0.0014239595 0.019935429 0.64069128
-0.0014239595 0.018511474 0.64069128
-0.0014239595 0.017087519 0.64069122
-0.0014239595 0.015663564 0.64069122
-0.0014239595 0.014239609 0.64069122
-0.0014239595 0.012815654 0.64069128
-0.0014239595 0.01139167 0.64069116
-0.0014239595 0.0099677145 0.64069122
-0.0014239595 0.0085437894 0.64069122
-0.0014239595 0.0071198046 0.64069128
-0.0014239595 0.0056958497 0.64069128
-0.0014239595 0.0042718947 0.64069122
-0.0014239595 0.0028479099 0.64069122
-0.0014239595 0.001423955 0.64069128
-0.0014239595 2.9802322e-08 0.64069122
-0.0014239595 -0.001423955 0.64069122
-0.0014239595 -0.0028479099 0.64069128
-0.0014239595 -0.0042718947 0.64069128
-0.0014239595 -0.0056958497 0.64069128
-0.0014239595 -0.0071197748 0.64069122
-0.0014239595 -0.0085437596 0.64069122
-0.0014239595 -0.0099677145 0.64069128
-0.0014239595 -0.01139164 0.64069122
-0.0014239595 -0.012815654 0.64069122
-0.0014239595 -0.014239609 0.64069122
-0.0014239595 -0.015663534 0.64069122
-0.0014239595 -0.017087519 0.64069128
-0.0014239595 -0.018511444 0.64069122
-0.0014239595 -0.019935399 0.64069128
-0.0014239595 -0.021359414 0.64069122
-0.0014239595 -0.022783339 0.64069122
-0.0014239595 -0.024207294 0.64069122
-0.0014239595 -0.025631279 0.64069122
-0.0014239595 -0.027055234 0.64069128
-0.0014239595 -0.028479218 0.64069128
-0.0014239595 -0.029903144 0.64069122
-0.0014239595 -0.031327069 0.64069122
-0.0014239595 -0.032751083 0.64069122
-0.0014239595 -0.034175009 0.64069122
-0.0014239595 -0.035598963 0.64069122
0 0.038398296 0.64047396
0 0.036976159 0.64047396
0 0.035553962 0.64047396
0 0.034131825 0.64047396
0 0.032709688 0.64047396
0 0.031287551 0.64047396
0 0.029865354 0.64047396
0 0.028443217 0.64047396
0 0.027021021 0.64047396
0 0.025598913 0.64047396
0 0.024176687 0.64047396
0 0.02275458 0.64047396
0 0.021332383 0.64047396
0 0.019910216 0.64047396
0 0.018488079 0.64047396
0 0.017065912 0.64047396
0 0.015643775 0.64047396
0 0.014221579 0.64047396
0 0.012799442 0.64047396
0 0.011377275 0.64047396
0 0.009955138 0.64047396
0 0.0085329711 0.64047396
0 0.0071108043 0.64047396
0 0.0056886375 0.64047396
0 0.0042665005 0.64047396
0 0.0028443336 0.64047396
0 0.0014221668 0.64047396
0 -0 0.64047396
0 -0.0014221668 0.64047396
0 -0.0028443336 0.64047396
0 -0.0042665005 0.64047396
0 -0.0056886077 0.64047396
0 -0.0071108043 0.64047396
0 -0.0085329413 0.64047396
0 -0.0099551082 0.64047396
0 -0.011377275 0.64047396
0 -0.012799442 0.64047396
0 -0.014221549 0.64047396
0 -0.015643716 0.64047396
0 -0.017065883 0.64047396
0 -0.01848805 0.64047396
0 -0.019910216 0.64047396
0 -0.021332383 0.64047396
0 -0.02275458 0.64047396
0 -0.024176687 0.64047402
0 -0.025598913 0.64047396
0 -0.027021021 0.64047402
0 -0.028443217 0.64047402
0 -0.029865324 0.64047396
0 -0.031287521 0.64047396
0 -0.032709658 0.64047396
0 -0.034131825 0.64047396
0 -0.035553962 0.64047396
0.0014203642 0.038349837 0.64025724
0.0014203642 0.036929488 0.64025724
0.0014203642 0.035509109 0.64025724
0.0014203642 0.034088731 0.64025724
0.0014203642 0.032668382 0.64025724
0.0014203642 0.031248003 0.64025724
0.0014203642 0.029827654 0.64025724
0.0014203642 0.028407305 0.64025724
0.0014203642 0.026986957 0.64025724
0.0014203642 0.025566578 0.64025724
0.0014203642 0.024146169 0.64025724
0.0014203642 0.02272585 0.64025724
0.0014203642 0.021305472 0.64025724
0.0014203642 0.019885123 0.64025724
0.0014203642 0.018464774 0.64025724
0.0014203642 0.017044395 0.64025724
0.0014203642 0.015624046 0.64025724
0.0014203642 0.014203638 0.64025724
0.0014203642 0.012783319 0.64025724
0.0014203642 0.01136291 0.64025724
0.0014203642 0.0099425316 0.64025724
0.0014203642 0.0085221827 0.64025724
0.0014203642 0.0071018338 0.64025724
0.0014203642 0.0056814551 0.64025724
0.0014203642 0.0042610765 0.64025724
0.0014203642 0.0028407276 0.64025724
0.0014203642 0.0014203787 0.64025724
0.0014203642 -0 0.64025724
0.0014203642 -0.0014203489 0.6402573
0.0014203642 -0.0028406978 0.64025724
0.0014203642 -0.0042610765 0.64025724
0.0014203642 -0.0056814849 0.64025724
0.0014203642 -0.007101804 0.64025724
0.0014203642 -0.0085221529 0.64025724
0.0014203642 -0.0099425316 0.64025724
0.0014203642 -0.01136291 0.64025724
0.0014203642 -0.012783259 0.64025724
0.0014203642 -0.014203668 0.64025724
0.0014203642 -0.015624017 0.6402573
0.0014203642 -0.017044365 0.6402573
0.0014203642 -0.018464744 0.64025724
0.0014203642 -0.019885123 0.64025724
0.0014203642 -0.021305472 0.6402573
0.0014203642 -0.022725821 0.64025724
0.0014203642 -0.024146199 0.6402573
0.0014203642 -0.025566578 0.64025724
0.0014203642 -0.026986957 0.64025724
0.0014203642 -0.028407276 0.6402573
0.0014203642 -0.029827654 0.64025724
0.0014203642 -0.031248003 0.64025724
0.0014203642 -0.032668352 0.64025724
0.0014203642 -0.034088731 0.64025724
0.0014203642 -0.035509109 0.64025724
0.0028371555 0.038301617 0.64004165
0.0028371555 0.036883026 0.64004159
0.0028371555 0.035464436 0.64004159
0.0028371555 0.034045875 0.64004159
0.0028371555 0.032627285 0.64004159
0.0028371555 0.031208724 0.64004159
0.0028371555 0.029790163 0.64004159
0.0028371555 0.028371543 0.64004165
0.0028371555 0.026952982 0.64004159
0.0028371555 0.025534421 0.64004159
0.0028371555 0.024115831 0.64004159
0.0028371555 0.02269721 0.64004159
0.0028371555 0.021278679 0.64004159
0.0028371555 0.019860089 0.64004159
0.0028371555 0.018441498 0.64004165
0.0028371555 0.017022908 0.64004159
0.0028371555 0.015604377 0.64004159
0.0028371555 0.014185816 0.64004159
0.0028371555 0.012767196 0.64004159
0.0028371555 0.011348635 0.64004159
0.0028371555 0.0099300444 0.64004159
0.0028371555 0.0085114539 0.64004159
0.0028371555 0.0070928931 0.64004159
0.0028371555 0.0056743026 0.64004159
0.0028371555 0.0042557418 0.64004159
0.0028371555 0.0028371513 0.64004165
0.0028371555 0.0014185905 0.64004159
0.0028371555 2.9802322e-08 0.64004159
0.0028371555 -0.0014185905 0.64004159
0.0028371555 -0.0028371215 0.64004159
0.0028371555 -0.004255712 0.64004159
0.0028371555 -0.0056743026 0.64004159
0.0028371555 -0.0070928931 0.64004159
0.0028371555 -0.0085114539 0.64004159
0.0028371555 -0.0099300444 0.64004159
0.0028371555 -0.011348635 0.64004165
0.0028371555 -0.012767226 0.64004159
0.0028371555 -0.014185786 0.64004159
0.0028371555 -0.015604317 0.64004159
0.0028371555 -0.017022908 0.64004159
0.0028371555 -0.018441498 0.64004159
0.0028371555 -0.019860089 0.64004159
0.0028371555 -0.02127865 0.64004165
0.0028371555 -0.02269724 0.64004159
0.0028371555 -0.024115831 0.64004159
0.0028371555 -0.025534391 0.64004159
0.0028371555 -0.026952982 0.64004159
0.0028371555 -0.028371572 0.64004159
0.0028371555 -0.029790133 0.64004159
0.0028371555 -0.031208724 0.64004159
0.0028371555 -0.032627255 0.64004159
0.0028371555 -0.034045845 0.64004159
0.0028371555 -0.035464436 0.64004159
0.0042503742 0.038253367 0.639826
0.0042503742 0.036836594 0.63982594
0.0042503742 0.035419792 0.639826
0.0042503742 0.03400299 0.63982594
0.0042503742 0.032586187 0.639826
0.0042503742 0.031169415 0.639826
0.0042503742 0.029752612 0.639826
0.0042503742 0.02833584 0.63982606
0.0042503742 0.026919037 0.63982594
0.0042503742 0.025502264 0.63982594
0.0042503742 0.024085492 0.639826
0.0042503742 0.02266863 0.639826
0.0042503742 0.021251857 0.639826
0.0042503742 0.019835085 0.63982594
0.0042503742 0.018418282 0.63982594
0.0042503742 0.01700148 0.639826
0.0042503742 0.015584707 0.639826
0.0042503742 0.014167905 0.639826
0.0042503742 0.012751162 0.63982594
0.0042503742 0.01133433 0.639826
0.0042503742 0.0099175572 0.63982594
0.0042503742 0.0085007548 0.639826
0.0042503742 0.0070839524 0.63982594
0.0042503742 0.0056671798 0.639826
0.0042503742 0.0042503774 0.63982594
0.0042503742 0.002833575 0.639826
0.0042503742 0.0014167726 0.639826
0.0042503742 -0 0.63982594
0.0042503742 -0.0014167428 0.63982594
0.0042503742 -0.002833575 0.639826
0.0042503742 -0.0042503774 0.639826
0.0042503742 -0.00566715 0.63982594
0.0042503742 -0.0070839822 0.639826
0.0042503742 -0.0085007548 0.63982594
0.0042503742 -0.0099175274 0.639826
0.0042503742 -0.01133433 0.63982594
0.0042503742 -0.012751132 0.639826
0.0042503742 -0.014167905 0.63982594
0.0042503742 -0.015584707 0.639826
0.0042503742 -0.01700145 0.63982594
0.0042503742 -0.018418282 0.639826
0.0042503742 -0.019835085 0.639826
0.0042503742 -0.021251857 0.639826
0.0042503742 -0.02266866 0.63982594
0.0042503742 -0.024085462 0.63982594
0.0042503742 -0.025502264 0.639826
0.0042503742 -0.026919037 0.63982594
0.0042503742 -0.02833581 0.63982594
0.0042503742 -0.029752612 0.639826
0.0042503742 -0.031169415 0.639826
0.0042503742 -0.032586187 0.63982594
0.0042503742 -0.03400299 0.639826
0.0042503742 -0.035419792 0.63982594
0.0056600389 0.038205296 0.63961089
0.0056600389 0.036790252 0.63961089
0.0056600389 0.035375237 0.63961089
0.0056600389 0.033960253 0.63961089
0.0056600389 0.032545209 0.63961089
0.0056600389 0.031130224 0.63961089
0.0056600389 0.02971521 0.63961089
0.0056600389 0.028300196 0.63961089
0.0056600389 0.026885182 0.63961089
0.0056600389 0.025470167 0.63961089
0.0056600389 0.024055183 0.63961089
0.0056600389 0.022640139 0.63961095
0.0056600389 0.021225125 0.63961089
0.0056600389 0.01981014 0.63961089
0.0056600389 0.018395126 0.63961089
0.0056600389 0.016980112 0.63961089
0.0056600389 0.015565097 0.63961095
0.0056600389 0.014150143 0.63961089
0.0056600389 0.012735128 0.63961089
0.0056600389 0.011320084 0.63961089
0.0056600389 0.0099050701 0.63961089
0.0056600389 0.0084900856 0.63961095
0.0056600389 0.0070750713 0.63961089
0.0056600389 0.0056600571 0.63961089
0.0056600389 0.0042450428 0.63961089
0.0056600389 0.0028299987 0.63961089
0.0056600389 0.0014150143 0.63961095
0.0056600389 2.9802322e-08 0.63961089
0.0056600389 -0.0014149845 0.63961089
0.0056600389 -0.0028299987 0.63961089
0.0056600389 -0.0042450428 0.63961089
0.0056600389 -0.0056600273 0.63961089
0.0056600389 -0.0070750415 0.63961089
0.0056600389 -0.0084900558 0.63961089
0.0056600389 -0.0099050403 0.63961089
0.0056600389 -0.011320055 0.63961089
0.0056600389 -0.012735099 0.63961089
0.0056600389 -0.014150083 0.63961089
0.0056600389 -0.015565127 0.63961095
0.0056600389 -0.016980112 0.63961089
0.0056600389 -0.018395126 0.63961089
0.0056600389 -0.01981014 0.63961089
0.0056600389 -0.021225125 0.63961095
0.0056600389 -0.022640198 0.63961089
0.0056600389 -0.024055153 0.63961089
0.0056600389 -0.025470167 0.63961089
0.0056600389 -0.026885211 0.63961089
0.0056600389 -0.028300196 0.63961089
0.0056600389 -0.02971521 0.63961095
0.0056600389 -0.031130195 0.63961089
0.0056600389 -0.032545209 0.63961089
0.0056600389 -0.033960223 0.63961089
0.0056600389 -0.035375208 0.63961089
0.0070661618 0.038157284 0.63939637
0.0070661618 0.036744028 0.63939637
0.0070661618 0.035330832 0.63939637
0.0070661618 0.033917576 0.63939631
0.0070661618 0.03250438 0.63939631
0.0070661618 0.031091094 0.63939637
0.0070661618 0.029677898 0.63939637
0.0070661618 0.028264642 0.63939637
0.0070661618 0.026851416 0.63939637
0.0070661618 0.02543819 0.63939631
0.0070661618 0.024024963 0.63939631
0.0070661618 0.022611737 0.63939637
0.0070661618 0.021198481 0.63939637
0.0070661618 0.019785285 0.63939631
0.0070661618 0.018372029 0.63939637
0.0070661618 0.016958803 0.63939637
0.0070661618 0.015545577 0.63939637
0.0070661618 0.014132321 0.63939631
0.0070661618 0.012719095 0.63939631
0.0070661618 0.011305839 0.63939637
0.0070661618 0.0098926425 0.63939643
0.0070661618 0.0084793568 0.63939637
0.0070661618 0.0070661604 0.63939637
0.0070661618 0.0056529045 0.63939637
0.0070661618 0.0042397082 0.63939637
0.0070661618 0.0028264523 0.63939631
0.0070661618 0.0014132261 0.63939637
0.0070661618 2.9802322e-08 0.63939631
0.0070661618 -0.0014132261 0.63939637
0.0070661618 -0.0028264523 0.63939637
0.0070661618 -0.0042397082 0.63939637
0.0070661618 -0.0056529045 0.63939631
0.0070661618 -0.0070661604 0.63939631
0.0070661618 -0.0084793866 0.63939643
0.0070661618 -0.0098926425 0.63939637
0.0070661618 -0.011305839 0.63939637
0.0070661618 -0.012719095 0.63939637
0.0070661618 -0.014132291 0.63939637
0.0070661618 -0.015545547 0.63939637
0.0070661618 -0.016958773 0.63939637
0.0070661618 -0.018372029 0.63939637
0.0070661618 -0.019785225 0.63939631
0.0070661618 -0.021198481 0.63939637
0.0070661618 -0.022611707 0.63939637
0.0070661618 -0.024024934 0.63939637
0.0070661618 -0.02543816 0.63939637
0.0070661618 -0.026851386 0.63939637
0.0070661618 -0.028264642 0.63939643
0.0070661618 -0.029677868 0.63939631
0.0070661618 -0.031091124 0.63939637
0.0070661618 -0.03250435 0.63939637
0.0070661618 -0.033917576 0.63939637
0.0070661618 -0.035330832 0.63939637
0.0084687825 0.038109541 0.63918281
0.0084687825 0.036698073 0.63918293
0.0084687825 0.035286605 0.63918287
0.0084687825 0.033875167 0.63918287
0.0084687825 0.0324637 0.63918287
0.0084687825 0.031052202 0.63918287
0.0084687825 0.029640734 0.63918293
0.0084687825 0.028229266 0.63918287
0.0084687825 0.026817828 0.63918281
0.0084687825 0.025406361 0.63918287
0.0084687825 0.023994863 0.63918287
0.0084687825 0.022583425 0.63918287
0.0084687825 0.021172017 0.63918287
0.0084687825 0.019760519 0.63918287
0.0084687825 0.018349022 0.63918287
0.0084687825 0.016937584 0.63918287
0.0084687825 0.015526116 0.63918293
0.0084687825 0.014114648 0.63918281
0.0084687825 0.012703151 0.63918287
0.0084687825 0.011291683 0.63918293
0.0084687825 0.0098802447 0.63918287
0.0084687825 0.0084687769 0.63918281
0.0084687825 0.007057339 0.63918287
0.0084687825 0.0056458414 0.63918287
0.0084687825 0.0042344034 0.63918287
0.0084687825 0.0028229356 0.63918287
0.0084687825 0.0014114976 0.63918287
0.0084687825 -0 0.63918293
0.0084687825 -0.001411438 0.63918281
0.0084687825 -0.0028229356 0.63918287
0.0084687825 -0.0042344034 0.63918287
0.0084687825 -0.0056458414 0.63918287
0.0084687825 -0.007057339 0.63918287
0.0084687825 -0.0084687769 0.63918287
0.0084687825 -0.0098802149 0.63918281
0.0084687825 -0.011291683 0.63918287
0.0084687825 -0.01270318 0.63918293
0.0084687825 -0.014114648 0.63918287
0.0084687825 -0.015526086 0.63918287
0.0084687825 -0.016937554 0.63918287
0.0084687825 -0.018349051 0.63918287
0.0084687825 -0.019760489 0.63918287
0.0084687825 -0.021171957 0.63918287
0.0084687825 -0.022583425 0.63918281
0.0084687825 -0.023994863 0.63918293
0.0084687825 -0.025406361 0.63918293
0.0084687825 -0.026817828 0.63918287
0.0084687825 -0.028229237 0.63918287
0.0084687825 -0.029640704 0.63918287
0.0084687825 -0.031052202 0.63918287
0.0084687825 -0.03246364 0.63918287
0.0084687825 -0.033875138 0.63918293
0.0084687825 -0.035286605 0.63918281
0.0098678675 0.038061798 0.63896942
0.0098678675 0.036652058 0.63896942
0.0098678675 0.035242409 0.63896942
0.0098678675 0.033832669 0.63896942
0.0098678675 0.03242299 0.63896936
0.0098678675 0.03101331 0.63896936
0.0098678675 0.02960363 0.63896936
0.0098678675 0.028193921 0.63896942
0.0098678675 0.026784241 0.63896942
0.0098678675 0.025374532 0.63896942
0.0098678675 0.023964852 0.63896942
0.0098678675 0.022555143 0.63896942
0.0098678675 0.021145403 0.63896942
0.0098678675 0.019735754 0.63896942
0.0098678675 0.018326014 0.63896942
0.0098678675 0.016916364 0.63896942
0.0098678675 0.015506655 0.63896942
0.0098678675 0.014096946 0.63896942
0.0098678675 0.012687266 0.63896942
0.0098678675 0.011277556 0.63896942
0.0098678675 0.009867847 0.63896942
0.0098678675 0.0084581673 0.63896942
0.0098678675 0.0070484579 0.63896942
0.0098678675 0.0056387782 0.63896942
0.0098678675 0.0042290986 0.63896942
0.0098678675 0.0028194189 0.63896942
0.0098678675 0.0014097095 0.63896936
0.0098678675 -0 0.63896942
0.0098678675 -0.0014096797 0.63896942
0.0098678675 -0.0028193891 0.63896942
0.0098678675 -0.0042290986 0.63896942
0.0098678675 -0.0056387782 0.63896942
0.0098678675 -0.0070484579 0.63896942
0.0098678675 -0.0084581673 0.63896942
0.0098678675 -0.009867847 0.63896942
0.0098678675 -0.011277556 0.63896942
0.0098678675 -0.012687266 0.63896942
0.0098678675 -0.014096946 0.63896942
0.0098678675 -0.015506655 0.63896936
0.0098678675 -0.016916305 0.63896936
0.0098678675 -0.018326014 0.63896936
0.0098678675 -0.019735724 0.63896936
0.0098678675 -0.021145403 0.63896936
0.0098678675 -0.022555113 0.63896942
0.0098678675 -0.023964822 0.63896942
0.0098678675 -0.025374502 0.63896942
0.0098678675 -0.026784211 0.63896942
0.0098678675 -0.028193891 0.63896942
0.0098678675 -0.029603571 0.63896942
0.0098678675 -0.03101331 0.63896942
0.0098678675 -0.03242299 0.63896942
0.0098678675 -0.033832699 0.63896942
0.0098678675 -0.035242409 0.63896942
0.011263451 0.038014174 0.63875645
0.011263451 0.036606222 0.63875645
0.011263451 0.035198271 0.63875645
0.011263451 0.03379035 0.63875645
0.011263451 0.032382399 0.63875651
0.011263451 0.030974478 0.63875645
0.011263451 0.029566586 0.63875645
0.011263451 0.028158605 0.63875645
0.011263451 0.026750714 0.63875645
0.011263451 0.025342762 0.63875651
0.011263451 0.023934841 0.63875645
0.011263451 0.02252692 0.63875645
0.011263451 0.021118999 0.63875645
0.011263451 0.019711047 0.63875645
0.011263451 0.018303096 0.63875651
0.011263451 0.016895175 0.63875651
0.011263451 0.015487254 0.63875645
0.011263451 0.014079332 0.63875645
0.011263451 0.012671381 0.63875651
0.011263451 0.01126346 0.63875645
0.011263451 0.0098555088 0.63875651
0.011263451 0.0084475875 0.63875645
0.011263451 0.007039696 0.63875645
0.011263451 0.0056317449 0.63875651
0.011263451 0.0042237937 0.63875645
0.011263451 0.0028158724 0.63875651
0.011263451 0.0014079511 0.63875651
0.011263451 -0 0.63875645
0.011263451 -0.0014079213 0.63875651
0.011263451 -0.0028158426 0.63875645
0.011263451 -0.0042237937 0.63875651
0.011263451 -0.0056317449 0.63875645
0.011263451 -0.0070396662 0.63875645
0.011263451 -0.0084475875 0.63875651
0.011263451 -0.0098555088 0.63875645
0.011263451 -0.01126343 0.63875645
0.011263451 -0.012671351 0.63875651
0.011263451 -0.014079303 0.63875645
0.011263451 -0.015487224 0.63875645
0.011263451 -0.016895175 0.63875645
0.011263451 -0.018303126 0.63875645
0.011263451 -0.019711047 0.63875645
0.011263451 -0.021118969 0.63875645
0.011263451 -0.02252689 0.63875645
0.011263451 -0.023934841 0.63875645
0.011263451 -0.025342762 0.63875645
0.011263451 -0.026750714 0.63875651
0.011263451 -0.028158605 0.63875645
0.011263451 -0.029566526 0.63875645
0.011263451 -0.030974478 0.63875651
0.011263451 -0.032382399 0.63875645
0.011263451 -0.03379035 0.63875651
0.011263451 -0.035198271 0.63875651
0.012655583 0.037966758 0.63854456
0.012655583 0.036560565 0.63854456
0.012655583 0.035154402 0.63854456
0.012655583 0.033748239 0.63854456
0.012655583 0.032342017 0.63854456
0.012655583 0.030935884 0.63854456
0.012655583 0.029529691 0.63854456
0.012655583 0.028123558 0.63854456
0.012655583 0.026717335 0.63854456
0.012655583 0.025311172 0.63854456
0.012655583 0.023905009 0.63854456
0.012655583 0.022498816 0.63854456
0.012655583 0.021092653 0.63854456
0.012655583 0.01968646 0.63854456
0.012655583 0.018280298 0.63854456
0.012655583 0.016874105 0.63854456
0.012655583 0.015467942 0.63854456
0.012655583 0.014061779 0.63854456
0.012655583 0.012655616 0.63854456
0.012655583 0.011249393 0.63854456
0.012655583 0.0098432302 0.63854456
0.012655583 0.0084370673 0.63854456
0.012655583 0.0070308745 0.63854456
0.012655583 0.0056247413 0.63854456
0.012655583 0.0042185187 0.63854462
0.012655583 0.0028123856 0.63854456
0.012655583 0.001406163 0.63854462
0.012655583 -0 0.63854456
0.012655583 -0.0014061332 0.63854456
0.012655583 -0.002812326 0.63854456
0.012655583 -0.0042185485 0.63854456
0.012655583 -0.0056246817 0.63854456
0.012655583 -0.0070308745 0.63854456
0.012655583 -0.0084370673 0.63854456
0.012655583 -0.0098432004 0.63854456
0.012655583 -0.011249423 0.63854462
0.012655583 -0.012655556 0.63854456
0.012655583 -0.014061749 0.63854456
0.012655583 -0.015467942 0.63854456
0.012655583 -0.016874105 0.63854456
0.012655583 -0.018280298 0.63854456
0.012655583 -0.01968646 0.63854456
0.012655583 -0.021092623 0.63854456
0.012655583 -0.022498816 0.63854456
0.012655583 -0.023905009 0.63854456
0.012655583 -0.025311142 0.63854456
0.012655583 -0.026717335 0.63854456
0.012655583 -0.028123498 0.63854456
0.012655583 -0.029529691 0.63854456
0.012655583 -0.030935884 0.63854456
0.012655583 -0.032342017 0.63854456
0.012655583 -0.033748239 0.63854456
0.012655583 -0.035154402 0.63854456
0.014044208 0.037919372 0.63833272
0.014044208 0.036514908 0.63833272
0.014044208 0.035110533 0.63833266
0.014044208 0.033706099 0.63833266
0.014044208 0.032301694 0.63833272
0.014044208 0.03089726 0.63833266
0.014044208 0.029492855 0.63833272
0.014044208 0.028088421 0.63833272
0.014044208 0.026683986 0.63833272
0.014044208 0.025279552 0.63833272
0.014044208 0.023875177 0.63833272
0.014044208 0.022470713 0.63833272
0.014044208 0.021066338 0.63833266
0.014044208 0.019661874 0.63833272
0.014044208 0.018257469 0.63833266
0.014044208 0.016853034 0.63833272
0.014044208 0.01544863 0.63833272
0.014044208 0.014044255 0.63833266
0.014044208 0.012639761 0.63833272
0.014044208 0.011235386 0.63833272
0.014044208 0.0098309517 0.63833266
0.014044208 0.0084265471 0.63833266
0.014044208 0.0070221126 0.63833266
0.014044208 0.0056176782 0.63833266
0.014044208 0.0042132735 0.63833266
0.014044208 0.0028088689 0.63833272
0.014044208 0.0014044344 0.63833272
0.014044208 2.9802322e-08 0.63833266
0.014044208 -0.0014044344 0.63833272
0.014044208 -0.0028088093 0.63833272
0.014044208 -0.0042132735 0.63833272
0.014044208 -0.0056176782 0.63833272
0.014044208 -0.0070221126 0.63833272
0.014044208 -0.0084264874 0.63833272
0.014044208 -0.0098309219 0.63833266
0.014044208 -0.011235356 0.63833272
0.014044208 -0.012639791 0.63833266
0.014044208 -0.014044225 0.63833272
0.014044208 -0.01544863 0.63833272
0.014044208 -0.016853064 0.63833272
0.014044208 -0.018257469 0.63833272
0.014044208 -0.019661874 0.63833272
0.014044208 -0.021066308 0.63833272
0.014044208 -0.022470713 0.63833266
0.014044208 -0.023875147 0.63833266
0.014044208 -0.025279582 0.63833272
0.014044208 -0.026683986 0.63833266
0.014044208 -0.028088421 0.63833272
0.014044208 -0.029492795 0.63833272
0.014044208 -0.03089726 0.63833272
0.014044208 -0.032301664 0.63833272
0.014044208 -0.033706069 0.63833266
0.014044208 -0.035110503 0.63833266
0.014044208 -0.036514908 0.63833266
0.015429368 0.037872076 0.63812137
0.015429368 0.03646943 0.63812137
0.015429368 0.035066754 0.63812137
0.015429368 0.033664078 0.63812137
0.015429368 0.032261401 0.63812137
0.015429368 0.030858725 0.63812137
0.015429368 0.029456049 0.63812137
0.015429368 0.028053403 0.63812137
0.015429368 0.026650727 0.63812137
0.015429368 0.025248051 0.63812137
0.015429368 0.023845404 0.63812137
0.015429368 0.022442698 0.63812137
0.015429368 0.021040022 0.63812137
0.015429368 0.019637406 0.63812131
0.015429368 0.01823473 0.63812137
0.015429368 0.016832054 0.63812131
0.015429368 0.015429407 0.63812131
0.015429368 0.014026731 0.63812137
0.015429368 0.012624025 0.63812131
0.015429368 0.011221379 0.63812137
0.015429368 0.0098187029 0.63812131
0.015429368 0.0084160566 0.63812137
0.015429368 0.0070133507 0.63812131
0.015429368 0.0056107044 0.63812131
0.015429368 0.0042080283 0.63812131
0.015429368 0.0028053522 0.63812137
0.015429368 0.0014027059 0.63812131
0.015429368 -0 0.63812137
0.015429368 -0.0014026463 0.63812137
0.015429368 -0.0028053224 0.63812137
0.015429368 -0.0042079985 0.63812137
0.015429368 -0.0056106746 0.63812137
0.015429368 -0.0070133507 0.63812137
0.015429368 -0.008415997 0.63812137
0.015429368 -0.0098187029 0.63812131
0.015429368 -0.011221349 0.63812137
0.015429368 -0.012624025 0.63812137
0.015429368 -0.014026701 0.63812137
0.015429368 -0.015429378 0.63812137
0.015429368 -0.016832024 0.63812137
0.015429368 -0.0182347 0.63812137
0.015429368 -0.019637376 0.63812137
0.015429368 -0.021040022 0.63812137
0.015429368 -0.022442698 0.63812137
0.015429368 -0.023845404 0.63812137
0.015429368 -0.02524808 0.63812137
0.015429368 -0.026650727 0.63812137
0.015429368 -0.028053403 0.63812137
0.015429368 -0.029456079 0.63812137
0.015429368 -0.030858725 0.63812137
0.015429368 -0.032261401 0.63812137
0.015429368 -0.033664107 0.63812137
0.015429368 -0.035066754 0.63812137
0.015429368 -0.03646943 0.63812137
0.01681108 0.037824929 0.63791054
0.01681108 0.036424011 0.63791054
0.01681108 0.035023093 0.63791054
0.01681108 0.033622146 0.63791054
0.01681108 0.032221258 0.63791049
0.01681108 0.03082031 0.63791054
0.01681108 0.029419392 0.63791054
0.01681108 0.028018504 0.63791054
0.01681108 0.026617557 0.63791054
0.01681108 0.025216639 0.63791054
0.01681108 0.023815721 0.63791054
0.01681108 0.022414804 0.63791049
0.01681108 0.021013856 0.63791054
0.01681108 0.019612908 0.63791054
0.01681108 0.018211991 0.63791049
0.01681108 0.016811073 0.63791054
0.01681108 0.015410185 0.63791049
0.01681108 0.014009237 0.63791054
0.01681108 0.012608349 0.63791054
0.01681108 0.011207402 0.63791054
0.01681108 0.0098064542 0.63791054
0.01681108 0.0084055662 0.63791054
0.01681108 0.0070046186 0.63791054
0.01681108 0.0056037009 0.63791049
0.01681108 0.0042027831 0.63791054
0.01681108 0.0028018951 0.63791049
0.01681108 0.0014009476 0.63791049
0.01681108 2.9802322e-08 0.63791054
0.01681108 -0.001400888 0.63791054
0.01681108 -0.0028018355 0.63791054
0.01681108 -0.0042027533 0.63791049
0.01681108 -0.0056037009 0.63791054
0.01681108 -0.0070045888 0.63791049
0.01681108 -0.0084055364 0.63791054
0.01681108 -0.009806484 0.63791054
0.01681108 -0.011207372 0.63791049
0.01681108 -0.01260832 0.63791054
0.01681108 -0.014009207 0.63791049
0.01681108 -0.015410155 0.63791054
0.01681108 -0.016811073 0.63791049
0.01681108 -0.01821202 0.63791054
0.01681108 -0.019612938 0.63791054
0.01681108 -0.021013856 0.63791049
0.01681108 -0.022414804 0.63791054
0.01681108 -0.023815662 0.63791054
0.01681108 -0.025216609 0.63791054
0.01681108 -0.026617527 0.63791049
0.01681108 -0.028018475 0.63791054
0.01681108 -0.029419392 0.6379106
0.01681108 -0.03082031 0.63791054
0.01681108 -0.032221258 0.63791054
0.01681108 -0.033622175 0.63791049
0.01681108 -0.035023093 0.63791054
0.01681108 -0.036424011 0.63791054
0.01818941 0.03777802 0.63770074
0.01818941 0.03637886 0.63770074
0.01818941 0.034979671 0.63770074
0.01818941 0.033580452 0.63770074
0.01818941 0.032181263 0.63770074
0.01818941 0.030782104 0.63770074
0.01818941 0.029382885 0.6377008
0.01818941 0.027983695 0.63770074
0.01818941 0.026584536 0.6377008
0.01818941 0.025185347 0.63770074
0.01818941 0.023786187 0.63770068
0.01818941 0.022386968 0.6377008
0.01818941 0.020987779 0.63770074
0.01818941 0.01958859 0.63770074
0.01818941 0.0181894 0.63770068
0.01818941 0.016790241 0.63770074
0.01818941 0.015391022 0.63770074
0.01818941 0.013991892 0.63770074
0.01818941 0.012592673 0.63770074
0.01818941 0.011193484 0.63770074
0.01818941 0.0097942948 0.63770074
0.01818941 0.0083951056 0.63770074
0.01818941 0.0069959462 0.63770068
0.01818941 0.0055967569 0.63770068
0.01818941 0.0041975677 0.6377008
0.01818941 0.0027983785 0.63770074
0.01818941 0.001399219 0.63770074
0.01818941 -2.9802322e-08 0.6377008
0.01818941 -0.0013991594 0.63770074
0.01818941 -0.0027983487 0.63770074
0.01818941 -0.0041975379 0.63770074
0.01818941 -0.0055967271 0.63770074
0.01818941 -0.0069959462 0.63770074
0.01818941 -0.0083951056 0.63770074
0.01818941 -0.0097942948 0.63770074
0.01818941 -0.011193484 0.6377008
0.01818941 -0.012592673 0.6377008
0.01818941 -0.013991833 0.6377008
0.01818941 -0.015391022 0.63770068
0.01818941 -0.016790211 0.63770068
0.01818941 -0.01818943 0.6377008
0.01818941 -0.019588619 0.63770074
0.01818941 -0.020987779 0.63770074
0.01818941 -0.022386938 0.63770074
