# .PCD v0.7 - Point Cloud Data file format
VERSION 0.7
FIELDS x y z
SIZE 4 4 4
TYPE F F F
COUNT 1 1 1
WIDTH 1352
HEIGHT 1
VIEWPOINT 0 0 0 1 0 0 0
POINTS 1352
DATA ascii
0.017625218 -0.056080222 0.66221792
0.017603967 -0.057612985 0.6619848
0.017582711 -0.059141845 0.66175151
0.021173904 0.072344184 0.68179715
0.021145796 0.070486009 0.68151438
0.021117684 0.068632454 0.68123162
0.021089645 0.066783905 0.68094957
0.021061683 0.064940184 0.68066829
0.02103387 0.063101619 0.68038851
0.021006055 0.061267674 0.68010873
0.020978313 0.059438556 0.6798296
0.020950722 0.057614475 0.67955208
0.020923125 0.055795014 0.67927444
0.0208956 0.053980291 0.67899764
0.020868149 0.052170396 0.67872143
0.020840846 0.050365329 0.67844689
0.020813536 0.048564911 0.67817211
0.0207863 0.046769172 0.67789817
0.020759135 0.044978142 0.67762488
0.020732116 0.043191969 0.67735308
0.020705093 0.041410208 0.67708123
0.020678138 0.039633125 0.67681015
0.020651331 0.037860811 0.67654049
0.020624517 0.036092877 0.67627072
0.020597771 0.034329623 0.67600167
0.020571098 0.032570899 0.67573339
0.020544566 0.030816853 0.67546654
0.020518027 0.029067189 0.67519951
0.020491559 0.027322084 0.67493325
0.020465158 0.025581449 0.67466772
0.020438898 0.023845404 0.67440355
0.020412633 0.022113681 0.67413938
0.020386435 0.020386457 0.67387581
0.020360377 0.018663675 0.67361367
0.020334313 0.016945273 0.67335153
0.020308314 0.015231222 0.67308998
0.020282384 0.013521612 0.67282915
0.02025659 0.011816353 0.67256969
0.020230791 0.010115415 0.67231017
0.020205058 0.0084187984 0.67205131
0.020179389 0.0067264438 0.6717931
0.020153858 0.0050384998 0.67153627
0.020128319 0.0033547282 0.67127937
0.020102846 0.0016752481 0.67102313
0.020077508 2.9802322e-08 0.67076826
0.020052161 -0.0016710162 0.67051327
0.020026879 -0.0033378303 0.670259
0.020001663 -0.0050004125 0.67000532
0.019976579 -0.0066588521 0.66975296
0.019951487 -0.0083131194 0.66950059
0.019926459 -0.0099632144 0.66924882
0.019901562 -0.011609226 0.66899836
0.019876659 -0.013251096 0.6687479
0.019851817 -0.014888853 0.66849792
0.019827038 -0.016522527 0.66824871
0.01980239 -0.018152177 0.66800082
0.019777734 -0.019777745 0.66775274
0.019753139 -0.02139923 0.66750532
0.019728607 -0.023016691 0.66725856
0.019704202 -0.024630219 0.66701305
0.019679789 -0.026239723 0.66676754
0.019655438 -0.027845234 0.66652256
0.019631214 -0.02944684 0.66627884
0.019606981 -0.031044394 0.66603512
0.01958281 -0.032638013 0.66579199
0.019558698 -0.034227699 0.6655494
0.019534711 -0.035813659 0.66530812
0.019510716 -0.037395507 0.66506678
0.019486781 -0.03897357 0.66482604
0.019462969 -0.040547818 0.66458648
0.019439152 -0.042118132 0.66434687
0.019415392 -0.043684602 0.66410786
0.019391689 -0.045247257 0.66386944
0.01936811 -0.046806246 0.66363227
0.019344524 -0.048361301 0.66339499
0.019320995 -0.049912572 0.66315836
0.019297522 -0.051460057 0.6629222
0.019274171 -0.053003967 0.66268736
0.019250812 -0.054543972 0.6624524
0.01922751 -0.056080222 0.66221792
0.01920433 -0.057612985 0.6619848
0.01918114 -0.059141845 0.66175151
0.022938397 0.072344184 0.68179715
0.022907944 0.070486009 0.68151438
0.02287749 0.068632454 0.68123162
0.022847116 0.066783905 0.68094957
0.022816824 0.064940184 0.68066829
0.022786694 0.063101619 0.68038851
0.022756558 0.061267674 0.68010873
0.022726504 0.059438556 0.6798296
0.022696612 0.057614475 0.67955208
0.022666717 0.055795014 0.67927444
0.0226369 0.053980291 0.67899764
0.022607161 0.052170396 0.67872143
0.022577584 0.050365329 0.67844689
0.022547998 0.048564911 0.67817211
0.022518491 0.046769172 0.67789817
0.022489063 0.044978142 0.67762488
0.022459792 0.043191969 0.67735308
0.022430515 0.041410208 0.67708123
0.022401318 0.039633125 0.67681015
0.022372276 0.037860811 0.67654049
0.022343228 0.036092877 0.67627072
0.022314252 0.034329623 0.67600167
0.022285355 0.032570899 0.67573339
0.022256611 0.030816853 0.67546654
0.022227863 0.029067189 0.67519951
0.022199189 0.027322084 0.67493325
0.022170587 0.025581449 0.67466772
0.022142138 0.023845404 0.67440355
0.022113686 0.022113681 0.67413938
0.022085303 0.020386457 0.67387581
0.022057075 0.018663675 0.67361367
0.022028839 0.016945273 0.67335153
0.022000676 0.015231222 0.67308998
0.021972582 0.013521612 0.67282915
0.02194464 0.011816353 0.67256969
0.021916689 0.010115415 0.67231017
0.021888811 0.0084187984 0.67205131
0.021861006 0.0067264438 0.6717931
0.021833345 0.0050384998 0.67153627
0.021805679 0.0033547282 0.67127937
0.021778082 0.0016752481 0.67102313
0.021750633 2.9802322e-08 0.67076826
0.021723175 -0.0016710162 0.67051327
0.021695787 -0.0033378303 0.670259
0.021668466 -0.0050004125 0.67000532
0.021641294 -0.0066588521 0.66975296
0.02161411 -0.0083131194 0.66950059
0.021586997 -0.0099632144 0.66924882
0.021560026 -0.011609226 0.66899836
0.021533048 -0.013251096 0.6687479
0.021506134 -0.014888853 0.66849792
0.021479292 -0.016522527 0.66824871
0.021452591 -0.018152177 0.66800082
0.021425877 -0.019777745 0.66775274
0.021399233 -0.02139923 0.66750532
0.021372655 -0.023016691 0.66725856
0.021346219 -0.024630219 0.66701305
0.021319771 -0.026239723 0.66676754
0.021293391 -0.027845234 0.66652256
0.021267148 -0.02944684 0.66627884
0.021240896 -0.031044394 0.66603512
0.021214711 -0.032638013 0.66579199
0.021188589 -0.034227699 0.6655494
0.021162603 -0.035813659 0.66530812
0.02113661 -0.037395507 0.66506678
0.02111068 -0.03897357 0.66482604
0.021084886 -0.040547818 0.66458648
0.021059083 -0.042118132 0.66434687
0.021033341 -0.043684602 0.66410786
0.021007663 -0.045247257 0.66386944
0.02098212 -0.046806246 0.66363227
0.020956567 -0.048361301 0.66339499
0.020931076 -0.049912572 0.66315836
0.020905649 -0.051460057 0.6629222
0.020880353 -0.053003967 0.66268736
0.020855047 -0.054543972 0.6624524
0.020829802 -0.056080222 0.66221792
0.02080469 -0.057612985 0.6619848
0.020779567 -0.059141845 0.66175151
0.024702888 0.072344184 0.68179715
0.024670096 0.070486009 0.68151438
0.024637299 0.068632454 0.68123162
0.024604587 0.066783905 0.68094957
0.024571963 0.064940184 0.68066829
0.024539517 0.063101619 0.68038851
0.024507064 0.061267674 0.68010873
0.024474697 0.059438556 0.6798296
0.024442507 0.057614475 0.67955208
0.024410311 0.055795014 0.67927444
0.024378201 0.053980291 0.67899764
0.024346173 0.052170396 0.67872143
0.02431432 0.050365329 0.67844689
0.024282461 0.048564911 0.67817211
0.024250684 0.046769172 0.67789817
0.024218991 0.044978142 0.67762488
0.024187468 0.043191969 0.67735308
0.024155939 0.041410208 0.67708123
0.024124496 0.039633125 0.67681015
0.024093218 0.037860811 0.67654049
0.024061935 0.036092877 0.67627072
0.024030734 0.034329623 0.67600167
0.023999615 0.032570899 0.67573339
0.023968657 0.030816853 0.67546654
0.023937697 0.029067189 0.67519951
0.023906818 0.027322084 0.67493325
0.023876017 0.025581449 0.67466772
0.02384538 0.023845404 0.67440355
0.023814738 0.022113681 0.67413938
0.023784174 0.020386457 0.67387581
0.023753772 0.018663675 0.67361367
0.023723364 0.016945273 0.67335153
0.023693034 0.015231222 0.67308998
0.023662779 0.013521612 0.67282915
0.02363269 0.011816353 0.67256969
0.02360259 0.010115415 0.67231017
0.023572568 0.0084187984 0.67205131
0.02354262 0.0067264438 0.6717931
0.023512835 0.0050384998 0.67153627
0.02348304 0.0033547282 0.67127937
0.023453319 0.0016752481 0.67102313
0.023423757 2.9802322e-08 0.67076826
0.02339419 -0.0016710162 0.67051327
0.023364693 -0.0033378303 0.670259
0.023335272 -0.0050004125 0.67000532
0.023306007 -0.0066588521 0.66975296
0.023276735 -0.0083131194 0.66950059
0.023247534 -0.0099632144 0.66924882
0.02321849 -0.011609226 0.66899836
0.023189435 -0.013251096 0.6687479
0.023160454 -0.014888853 0.66849792
0.023131546 -0.016522527 0.66824871
0.023102788 -0.018152177 0.66800082
0.023074023 -0.019777745 0.66775274
0.023045328 -0.02139923 0.66750532
0.023016706 -0.023016691 0.66725856
0.022988236 -0.024630219 0.66701305
0.022959754 -0.026239723 0.66676754
0.022931345 -0.027845234 0.66652256
0.022903081 -0.02944684 0.66627884
0.022874812 -0.031044394 0.66603512
0.022846611 -0.032638013 0.66579199
0.02281848 -0.034227699 0.6655494
0.022790495 -0.035813659 0.66530812
0.022762502 -0.037395507 0.66506678
0.022734579 -0.03897357 0.66482604
0.022706799 -0.040547818 0.66458648
0.02267901 -0.042118132 0.66434687
0.022651292 -0.043684602 0.66410786
0.022623636 -0.045247257 0.66386944
0.022596128 -0.046806246 0.66363227
0.022568611 -0.048361301 0.66339499
0.022541162 -0.049912572 0.66315836
0.022513775 -0.051460057 0.6629222
0.022486532 -0.053003967 0.66268736
0.02245928 -0.054543972 0.6624524
0.022432094 -0.056080222 0.66221792
0.022405049 -0.057612985 0.6619848
0.022377996 -0.059141845 0.66175151
0.026467381 0.072344184 0.68179715
0.026432246 0.070486009 0.68151438
0.026397105 0.068632454 0.68123162
0.026362056 0.066783905 0.68094957
0.026327103 0.064940184 0.68066829
0.026292337 0.063101619 0.68038851
0.026257569 0.061267674 0.68010873
0.02622289 0.059438556 0.6798296
0.0261884 0.057614475 0.67955208
0.026153905 0.055795014 0.67927444
0.0261195 0.053980291 0.67899764
0.026085185 0.052170396 0.67872143
0.026051056 0.050365329 0.67844689
0.026016921 0.048564911 0.67817211
0.025982877 0.046769172 0.67789817
0.025948919 0.044978142 0.67762488
0.025915146 0.043191969 0.67735308
0.025881367 0.041410208 0.67708123
0.025847673 0.039633125 0.67681015
0.025814163 0.037860811 0.67654049
0.025780646 0.036092877 0.67627072
0.025747215 0.034329623 0.67600167
0.025713872 0.032570899 0.67573339
0.025680708 0.030816853 0.67546654
0.025647534 0.029067189 0.67519951
0.025614448 0.027322084 0.67493325
0.025581446 0.025581449 0.67466772
0.025548624 0.023845404 0.67440355
0.025515791 0.022113681 0.67413938
0.025483044 0.020386457 0.67387581
0.02545047 0.018663675 0.67361367
0.02541789 0.016945273 0.67335153
0.025385395 0.015231222 0.67308998
0.025352979 0.013521612 0.67282915
0.02532074 0.011816353 0.67256969
0.025288489 0.010115415 0.67231017
0.025256323 0.0084187984 0.67205131
0.025224237 0.0067264438 0.6717931
0.025192322 0.0050384998 0.67153627
0.025160398 0.0033547282 0.67127937
0.025128556 0.0016752481 0.67102313
0.025096884 2.9802322e-08 0.67076826
0.025065204 -0.0016710162 0.67051327
0.025033599 -0.0033378303 0.670259
0.025002079 -0.0050004125 0.67000532
0.024970723 -0.0066588521 0.66975296
0.024939358 -0.0083131194 0.66950059
0.024908071 -0.0099632144 0.66924882
0.024876954 -0.011609226 0.66899836
0.024845824 -0.013251096 0.6687479
0.024814771 -0.014888853 0.66849792
0.024783798 -0.016522527 0.66824871
0.024752988 -0.018152177 0.66800082
0.024722168 -0.019777745 0.66775274
0.024691425 -0.02139923 0.66750532
0.024660759 -0.023016691 0.66725856
0.02463025 -0.024630219 0.66701305
0.024599737 -0.026239723 0.66676754
0.024569297 -0.027845234 0.66652256
0.024539018 -0.02944684 0.66627884
0.024508726 -0.031044394 0.66603512
0.024478512 -0.032638013 0.66579199
0.024448371 -0.034227699 0.6655494
0.024418389 -0.035813659 0.66530812
0.024388397 -0.037395507 0.66506678
0.024358477 -0.03897357 0.66482604
0.024328714 -0.040547818 0.66458648
0.024298938 -0.042118132 0.66434687
0.02426924 -0.043684602 0.66410786
0.024239611 -0.045247257 0.66386944
0.024210138 -0.046806246 0.66363227
0.024180654 -0.048361301 0.66339499
0.024151243 -0.049912572 0.66315836
0.024121901 -0.051460057 0.6629222
0.024092713 -0.053003967 0.66268736
0.024063516 -0.054543972 0.6624524
0.024034387 -0.056080222 0.66221792
0.024005413 -0.057612985 0.6619848
0.023976423 -0.059141845 0.66175151
0.028231872 0.072344184 0.68179715
0.028194394 0.070486009 0.68151438
0.02815691 0.068632454 0.68123162
0.028119527 0.066783905 0.68094957
0.028082242 0.064940184 0.68066829
0.028045161 0.063101619 0.68038851
0.028008072 0.061267674 0.68010873
0.027971081 0.059438556 0.6798296
0.027934292 0.057614475 0.67955208
0.027897498 0.055795014 0.67927444
0.0278608 0.053980291 0.67899764
0.027824197 0.052170396 0.67872143
0.027787793 0.050365329 0.67844689
0.027751382 0.048564911 0.67817211
0.027715066 0.046769172 0.67789817
0.027678847 0.044978142 0.67762488
0.027642824 0.043191969 0.67735308
0.027606791 0.041410208 0.67708123
0.027570853 0.039633125 0.67681015
0.027535107 0.037860811 0.67654049
0.027499355 0.036092877 0.67627072
0.027463695 0.034329623 0.67600167
0.02742813 0.032570899 0.67573339
0.027392752 0.030816853 0.67546654
0.02735737 0.029067189 0.67519951
0.027322076 0.027322084 0.67493325
0.027286876 0.025581449 0.67466772
0.027251864 0.023845404 0.67440355
0.027216842 0.022113681 0.67413938
0.027181912 0.020386457 0.67387581
0.02714717 0.018663675 0.67361367
0.027112417 0.016945273 0.67335153
0.027077753 0.015231222 0.67308998
0.027043177 0.013521612 0.67282915
0.027008789 0.011816353 0.67256969
0.026974387 0.010115415 0.67231017
0.026940076 0.0084187984 0.67205131
0.026905853 0.0067264438 0.6717931
0.026871812 0.0050384998 0.67153627
0.026837761 0.0033547282 0.67127937
0.026803795 0.0016752481 0.67102313
0.026770011 2.9802322e-08 0.67076826
0.026736215 -0.0016710162 0.67051327
0.026702508 -0.0033378303 0.670259
0.026668882 -0.0050004125 0.67000532
0.026635438 -0.0066588521 0.66975296
0.026601983 -0.0083131194 0.66950059
0.02656861 -0.0099632144 0.66924882
0.026535416 -0.011609226 0.66899836
0.026502213 -0.013251096 0.6687479
0.026469091 -0.014888853 0.66849792
0.026436051 -0.016522527 0.66824871
0.026403187 -0.018152177 0.66800082
0.026370311 -0.019777745 0.66775274
0.026337519 -0.02139923 0.66750532
0.026304808 -0.023016691 0.66725856
0.026272269 -0.024630219 0.66701305
0.026239717 -0.026239723 0.66676754
0.02620725 -0.027845234 0.66652256
0.026174951 -0.02944684 0.66627884
0.026142644 -0.031044394 0.66603512
0.026110413 -0.032638013 0.66579199
0.026078261 -0.034227699 0.6655494
0.02604628 -0.035813659 0.66530812
0.026014289 -0.037395507 0.66506678
0.025982376 -0.03897357 0.66482604
0.025950627 -0.040547818 0.66458648
0.025918871 -0.042118132 0.66434687
0.025887188 -0.043684602 0.66410786
0.025855586 -0.045247257 0.66386944
0.02582415 -0.046806246 0.66363227
0.025792699 -0.048361301 0.66339499
0.025761327 -0.049912572 0.66315836
0.025730029 -0.051460057 0.6629222
0.025698895 -0.053003967 0.66268736
0.025667749 -0.054543972 0.6624524
0.02563668 -0.056080222 0.66221792
0.025605772 -0.057612985 0.6619848
0.025574852 -0.059141845 0.66175151
0.029996363 0.072344184 0.68179715
0.029956544 0.070486009 0.68151438
0.029916717 0.068632454 0.68123162
0.029876996 0.066783905 0.68094957
0.029837383 0.064940184 0.68066829
0.029797984 0.063101619 0.68038851
0.029758576 0.061267674 0.68010873
0.029719274 0.059438556 0.6798296
0.029680187 0.057614475 0.67955208
0.029641092 0.055795014 0.67927444
0.029602099 0.053980291 0.67899764
0.029563209 0.052170396 0.67872143
0.029524529 0.050365329 0.67844689
0.029485842 0.048564911 0.67817211
0.029447259 0.046769172 0.67789817
0.029408775 0.044978142 0.67762488
0.0293705 0.043191969 0.67735308
0.029332215 0.041410208 0.67708123
0.029294029 0.039633125 0.67681015
0.029256051 0.037860811 0.67654049
0.029218065 0.036092877 0.67627072
0.029180177 0.034329623 0.67600167
0.029142387 0.032570899 0.67573339
0.029104799 0.030816853 0.67546654
0.029067203 0.029067189 0.67519951
0.029029708 0.027322084 0.67493325
0.028992305 0.025581449 0.67466772
0.028955106 0.023845404 0.67440355
0.028917896 0.022113681 0.67413938
0.028880781 0.020386457 0.67387581
0.028843867 0.018663675 0.67361367
0.028806943 0.016945273 0.67335153
0.028770113 0.015231222 0.67308998
0.028733376 0.013521612 0.67282915
0.028696839 0.011816353 0.67256969
0.028660286 0.010115415 0.67231017
0.028623831 0.0084187984 0.67205131
0.028587468 0.0067264438 0.6717931
0.028551299 0.0050384998 0.67153627
0.028515119 0.0033547282 0.67127937
0.028479032 0.0016752481 0.67102313
0.028443135 2.9802322e-08 0.67076826
0.028407227 -0.0016710162 0.67051327
0.028371414 -0.0033378303 0.670259
0.028335689 -0.0050004125 0.67000532
0.028300151 -0.0066588521 0.66975296
0.028264606 -0.0083131194 0.66950059
0.028229149 -0.0099632144 0.66924882
0.02819388 -0.011609226 0.66899836
0.0281586 -0.013251096 0.6687479
0.028123409 -0.014888853 0.66849792
0.028088303 -0.016522527 0.66824871
0.028053386 -0.018152177 0.66800082
0.028018456 -0.019777745 0.66775274
0.027983613 -0.02139923 0.66750532
0.027948858 -0.023016691 0.66725856
0.027914286 -0.024630219 0.66701305
0.027879702 -0.026239723 0.66676754
0.027845202 -0.027845234 0.66652256
0.027810885 -0.02944684 0.66627884
0.027776558 -0.031044394 0.66603512
0.027742315 -0.032638013 0.66579199
0.027708154 -0.034227699 0.6655494
0.027674174 -0.035813659 0.66530812
0.027640181 -0.037395507 0.66506678
0.027606273 -0.03897357 0.66482604
0.027572542 -0.040547818 0.66458648
0.027538799 -0.042118132 0.66434687
0.027505139 -0.043684602 0.66410786
0.027471561 -0.045247257 0.66386944
0.027438158 -0.046806246 0.66363227
0.027404742 -0.048361301 0.66339499
0.027371408 -0.049912572 0.66315836
0.027338155 -0.051460057 0.6629222
0.027305076 -0.053003967 0.66268736
0.027271986 -0.054543972 0.6624524
0.027238972 -0.056080222 0.66221792
0.027206132 -0.057612985 0.6619848
0.027173279 -0.059141845 0.66175151
0.031760857 0.072344184 0.68179715
0.031718694 0.070486009 0.68151438
0.031676523 0.068632454 0.68123162
0.031634469 0.066783905 0.68094957
0.031592522 0.064940184 0.68066829
0.031550806 0.063101619 0.68038851
0.031509083 0.061267674 0.68010873
0.031467468 0.059438556 0.6798296
0.03142608 0.057614475 0.67955208
0.031384684 0.055795014 0.67927444
0.0313434 0.053980291 0.67899764
0.031302221 0.052170396 0.67872143
0.031261269 0.050365329 0.67844689
0.031220306 0.048564911 0.67817211
0.03117945 0.046769172 0.67789817
0.031138703 0.044978142 0.67762488
0.031098176 0.043191969 0.67735308
0.031057639 0.041410208 0.67708123
0.031017208 0.039633125 0.67681015
0.030976994 0.037860811 0.67654049
0.030936776 0.036092877 0.67627072
0.030896656 0.034329623 0.67600167
0.030856645 0.032570899 0.67573339
0.030816847 0.030816853 0.67546654
0.030777041 0.029067189 0.67519951
0.030737337 0.027322084 0.67493325
0.030697735 0.025581449 0.67466772
0.030658346 0.023845404 0.67440355
0.030618951 0.022113681 0.67413938
0.030579653 0.020386457 0.67387581
0.030540565 0.018663675 0.67361367
0.030501468 0.016945273 0.67335153
0.030462472 0.015231222 0.67308998
0.030423574 0.013521612 0.67282915
0.030384885 0.011816353 0.67256969
0.030346189 0.010115415 0.67231017
0.030307587 0.0084187984 0.67205131
0.030269084 0.0067264438 0.6717931
0.030230789 0.0050384998 0.67153627
0.030192478 0.0033547282 0.67127937
0.030154267 0.0016752481 0.67102313
0.03011626 2.9802322e-08 0.67076826
0.030078242 -0.0016710162 0.67051327
0.03004032 -0.0033378303 0.670259
0.030002493 -0.0050004125 0.67000532
0.029964868 -0.0066588521 0.66975296
0.02992723 -0.0083131194 0.66950059
0.029889688 -0.0099632144 0.66924882
0.029852344 -0.011609226 0.66899836
0.029814988 -0.013251096 0.6687479
0.029777726 -0.014888853 0.66849792
0.029740559 -0.016522527 0.66824871
0.029703584 -0.018152177 0.66800082
0.029666603 -0.019777745 0.66775274
0.029629709 -0.02139923 0.66750532
0.029592909 -0.023016691 0.66725856
0.0295563 -0.024630219 0.66701305
0.029519685 -0.026239723 0.66676754
0.029483154 -0.027845234 0.66652256
0.02944682 -0.02944684 0.66627884
0.029410472 -0.031044394 0.66603512
0.029374216 -0.032638013 0.66579199
0.029338047 -0.034227699 0.6655494
0.029302068 -0.035813659 0.66530812
0.029266076 -0.037395507 0.66506678
0.02923017 -0.03897357 0.66482604
0.029194457 -0.040547818 0.66458648
0.029158728 -0.042118132 0.66434687
0.029123086 -0.043684602 0.66410786
0.029087532 -0.045247257 0.66386944
0.029052168 -0.046806246 0.66363227
0.029016785 -0.048361301 0.66339499
0.028981492 -0.049912572 0.66315836
0.028946282 -0.051460057 0.6629222
0.028911259 -0.053003967 0.66268736
0.028876219 -0.054543972 0.6624524
0.028841266 -0.056080222 0.66221792
0.028806493 -0.057612985 0.6619848
0.02877171 -0.059141845 0.66175151
0.033525348 0.072344184 0.68179715
0.033480842 0.070486009 0.68151438
0.033436332 0.068632454 0.68123162
0.033391941 0.066783905 0.68094957
0.033347663 0.064940184 0.68066829
0.033303626 0.063101619 0.68038851
0.033259585 0.061267674 0.68010873
0.033215661 0.059438556 0.6798296
0.033171974 0.057614475 0.67955208
0.03312828 0.055795014 0.67927444
0.033084702 0.053980291 0.67899764
0.033041235 0.052170396 0.67872143
0.032998003 0.050365329 0.67844689
0.032954767 0.048564911 0.67817211
0.032911643 0.046769172 0.67789817
0.032868631 0.044978142 0.67762488
0.03282585 0.043191969 0.67735308
0.032783061 0.041410208 0.67708123
0.032740384 0.039633125 0.67681015
0.032697938 0.037860811 0.67654049
0.032655485 0.036092877 0.67627072
0.03261314 0.034329623 0.67600167
0.032570902 0.032570899 0.67573339
0.032528896 0.030816853 0.67546654
0.032486875 0.029067189 0.67519951
0.032444969 0.027322084 0.67493325
0.032403167 0.025581449 0.67466772
0.032361589 0.023845404 0.67440355
0.03232 0.022113681 0.67413938
0.032278519 0.020386457 0.67387581
0.032237262 0.018663675 0.67361367
0.032195993 0.016945273 0.67335153
0.032154832 0.015231222 0.67308998
0.032113776 0.013521612 0.67282915
0.032072935 0.011816353 0.67256969
0.032032087 0.010115415 0.67231017
0.031991344 0.0084187984 0.67205131
0.031950701 0.0067264438 0.6717931
0.031910274 0.0050384998 0.67153627
0.03186984 0.0033547282 0.67127937
0.031829506 0.0016752481 0.67102313
0.031789385 2.9802322e-08 0.67076826
0.031749256 -0.0016710162 0.67051327
0.031709228 -0.0033378303 0.670259
0.0316693 -0.0050004125 0.67000532
0.031629581 -0.0066588521 0.66975296
0.031589855 -0.0083131194 0.66950059
0.031550225 -0.0099632144 0.66924882
0.031510808 -0.011609226 0.66899836
0.031471375 -0.013251096 0.6687479
0.031432044 -0.014888853 0.66849792
0.031392813 -0.016522527 0.66824871
0.031353787 -0.018152177 0.66800082
0.031314746 -0.019777745 0.66775274
0.031275801 -0.02139923 0.66750532
0.03123696 -0.023016691 0.66725856
0.031198317 -0.024630219 0.66701305
0.031159665 -0.026239723 0.66676754
0.031121109 -0.027845234 0.66652256
0.031082755 -0.02944684 0.66627884
0.031044388 -0.031044394 0.66603512
0.031006113 -0.032638013 0.66579199
0.030967936 -0.034227699 0.6655494
0.030929958 -0.035813659 0.66530812
0.030891968 -0.037395507 0.66506678
0.030854069 -0.03897357 0.66482604
0.030816369 -0.040547818 0.66458648
0.030778658 -0.042118132 0.66434687
0.030741038 -0.043684602 0.66410786
0.030703507 -0.045247257 0.66386944
0.030666176 -0.046806246 0.66363227
0.03062883 -0.048361301 0.66339499
0.030591574 -0.049912572 0.66315836
0.030554408 -0.051460057 0.6629222
0.030517437 -0.053003967 0.66268736
0.030480452 -0.054543972 0.6624524
0.030443557 -0.056080222 0.66221792
0.030406855 -0.057612985 0.6619848
0.030370137 -0.059141845 0.66175151
0.035289843 0.072344184 0.68179715
0.035242993 0.070486009 0.68151438
0.03519614 0.068632454 0.68123162
0.03514941 0.066783905 0.68094957
0.035102803 0.064940184 0.68066829
0.035056449 0.063101619 0.68038851
0.035010092 0.061267674 0.68010873
0.034963854 0.059438556 0.6798296
0.034917869 0.057614475 0.67955208
0.034871873 0.055795014 0.67927444
0.034825999 0.053980291 0.67899764
0.034780245 0.052170396 0.67872143
0.034734741 0.050365329 0.67844689
0.034689229 0.048564911 0.67817211
0.034643833 0.046769172 0.67789817
0.034598559 0.044978142 0.67762488
0.034553528 0.043191969 0.67735308
0.034508485 0.041410208 0.67708123
0.034463562 0.039633125 0.67681015
0.034418881 0.037860811 0.67654049
0.034374196 0.036092877 0.67627072
0.034329619 0.034329623 0.67600167
0.034285162 0.032570899 0.67573339
0.034240942 0.030816853 0.67546654
0.034196712 0.029067189 0.67519951
0.034152597 0.027322084 0.67493325
0.034108598 0.025581449 0.67466772
0.034064829 0.023845404 0.67440355
0.034021053 0.022113681 0.67413938
0.033977389 0.020386457 0.67387581
0.03393396 0.018663675 0.67361367
0.033890519 0.016945273 0.67335153
0.03384719 0.015231222 0.67308998
0.033803973 0.013521612 0.67282915
0.033760983 0.011816353 0.67256969
0.033717986 0.010115415 0.67231017
0.033675097 0.0084187984 0.67205131
0.033632316 0.0067264438 0.6717931
0.033589762 0.0050384998 0.67153627
0.0335472 0.0033547282 0.67127937
0.033504743 0.0016752481 0.67102313
0.033462513 2.9802322e-08 0.67076826
0.033420268 -0.0016710162 0.67051327
0.033378135 -0.0033378303 0.670259
0.033336103 -0.0050004125 0.67000532
0.033294298 -0.0066588521 0.66975296
0.033252478 -0.0083131194 0.66950059
0.033210762 -0.0099632144 0.66924882
0.03316927 -0.011609226 0.66899836
0.033127766 -0.013251096 0.6687479
0.033086363 -0.014888853 0.66849792
0.033045065 -0.016522527 0.66824871
0.033003982 -0.018152177 0.66800082
0.032962888 -0.019777745 0.66775274
0.032921899 -0.02139923 0.66750532
0.03288101 -0.023016691 0.66725856
0.032840338 -0.024630219 0.66701305
0.032799646 -0.026239723 0.66676754
0.032759059 -0.027845234 0.66652256
0.032718688 -0.02944684 0.66627884
0.032678302 -0.031044394 0.66603512
0.032638013 -0.032638013 0.66579199
0.032597829 -0.034227699 0.6655494
0.032557853 -0.035813659 0.66530812
0.032517862 -0.037395507 0.66506678
0.032477967 -0.03897357 0.66482604
0.032438286 -0.040547818 0.66458648
0.032398585 -0.042118132 0.66434687
0.032358985 -0.043684602 0.66410786
0.032319482 -0.045247257 0.66386944
0.032280184 -0.046806246 0.66363227
0.032240871 -0.048361301 0.66339499
0.032201655 -0.049912572 0.66315836
0.032162536 -0.051460057 0.6629222
0.032123618 -0.053003967 0.66268736
0.032084689 -0.054543972 0.6624524
0.032045849 -0.056080222 0.66221792
0.032007214 -0.057612985 0.6619848
0.031968564 -0.059141845 0.66175151
0.037054334 0.072344184 0.68179715
0.037005141 0.070486009 0.68151438
0.036955945 0.068632454 0.68123162
0.036906879 0.066783905 0.68094957
0.036857944 0.064940184 0.68066829
0.036809273 0.063101619 0.68038851
0.036760595 0.061267674 0.68010873
0.036712047 0.059438556 0.6798296
0.036663763 0.057614475 0.67955208
0.036615465 0.055795014 0.67927444
0.036567301 0.053980291 0.67899764
0.036519259 0.052170396 0.67872143
0.036471479 0.050365329 0.67844689
0.036423691 0.048564911 0.67817211
0.036376026 0.046769172 0.67789817
0.036328487 0.044978142 0.67762488
0.036281202 0.043191969 0.67735308
0.036233909 0.041410208 0.67708123
0.036186744 0.039633125 0.67681015
0.036139827 0.037860811 0.67654049
0.036092903 0.036092877 0.67627072
0.036046099 0.034329623 0.67600167
0.035999417 0.032570899 0.67573339
0.035952989 0.030816853 0.67546654
0.03590655 0.029067189 0.67519951
0.035860226 0.027322084 0.67493325
0.035814025 0.025581449 0.67466772
0.035768073 0.023845404 0.67440355
0.035722107 0.022113681 0.67413938
0.03567626 0.020386457 0.67387581
0.035630658 0.018663675 0.67361367
0.035585046 0.016945273 0.67335153
0.035539553 0.015231222 0.67308998
0.035494171 0.013521612 0.67282915
0.035449032 0.011816353 0.67256969
0.035403885 0.010115415 0.67231017
0.03535885 0.0084187984 0.67205131
0.035313934 0.0067264438 0.6717931
0.035269253 0.0050384998 0.67153627
0.035224557 0.0033547282 0.67127937
0.03517998 0.0016752481 0.67102313
0.035135638 2.9802322e-08 0.67076826
0.035091281 -0.0016710162 0.67051327
0.035047039 -0.0033378303 0.670259
0.03500291 -0.0050004125 0.67000532
0.034959011 -0.0066588521 0.66975296
0.034915101 -0.0083131194 0.66950059
0.034871303 -0.0099632144 0.66924882
0.034827732 -0.011609226 0.66899836
0.034784153 -0.013251096 0.6687479
0.034740679 -0.014888853 0.66849792
0.034697317 -0.016522527 0.66824871
0.034654181 -0.018152177 0.66800082
0.034611035 -0.019777745 0.66775274
0.034567993 -0.02139923 0.66750532
0.034525059 -0.023016691 0.66725856
0.034482352 -0.024630219 0.66701305
0.034439631 -0.026239723 0.66676754
0.034397013 -0.027845234 0.66652256
0.034354623 -0.02944684 0.66627884
0.034312218 -0.031044394 0.66603512
0.034269914 -0.032638013 0.66579199
0.034227721 -0.034227699 0.6655494
0.034185741 -0.035813659 0.66530812
0.034143753 -0.037395507 0.66506678
0.034101866 -0.03897357 0.66482604
0.034060199 -0.040547818 0.66458648
0.034018517 -0.042118132 0.66434687
0.033976935 -0.043684602 0.66410786
0.033935457 -0.045247257 0.66386944
0.033894192 -0.046806246 0.66363227
0.033852916 -0.048361301 0.66339499
0.033811737 -0.049912572 0.66315836
0.033770662 -0.051460057 0.6629222
0.033729799 -0.053003967 0.66268736
0.033688921 -0.054543972 0.6624524
0.033648141 -0.056080222 0.66221792
0.033607576 -0.057612985 0.6619848
0.033566993 -0.059141845 0.66175151
0.038818825 0.072344184 0.68179715
0.038767293 0.070486009 0.68151438
0.038715754 0.068632454 0.68123162
0.038664348 0.066783905 0.68094957
0.038613081 0.064940184 0.68066829
0.038562097 0.063101619 0.68038851
0.038511101 0.061267674 0.68010873
0.03846024 0.059438556 0.6798296
0.038409654 0.057614475 0.67955208
0.038359061 0.055795014 0.67927444
0.038308598 0.053980291 0.67899764
0.038258273 0.052170396 0.67872143
0.038208216 0.050365329 0.67844689
0.038158152 0.048564911 0.67817211
0.038108218 0.046769172 0.67789817
0.038058415 0.044978142 0.67762488
0.03800888 0.043191969 0.67735308
0.037959334 0.041410208 0.67708123
0.037909921 0.039633125 0.67681015
0.03786077 0.037860811 0.67654049
0.037811615 0.036092877 0.67627072
0.037762582 0.034329623 0.67600167
0.037713677 0.032570899 0.67573339
0.037665036 0.030816853 0.67546654
0.037616383 0.029067189 0.67519951
0.037567858 0.027322084 0.67493325
0.037519455 0.025581449 0.67466772
0.037471313 0.023845404 0.67440355
0.03742316 0.022113681 0.67413938
0.03737513 0.020386457 0.67387581
0.037327357 0.018663675 0.67361367
0.037279572 0.016945273 0.67335153
0.037231911 0.015231222 0.67308998
0.037184369 0.013521612 0.67282915
0.037137084 0.011816353 0.67256969
0.037089784 0.010115415 0.67231017
0.037042607 0.0084187984 0.67205131
0.036995549 0.0067264438 0.6717931
0.03694874 0.0050384998 0.67153627
0.036901917 0.0033547282 0.67127937
0.036855217 0.0016752481 0.67102313
0.036808763 2.9802322e-08 0.67076826
0.036762297 -0.0016710162 0.67051327
0.036715947 -0.0033378303 0.670259
0.036669716 -0.0050004125 0.67000532
0.036623728 -0.0066588521 0.66975296
0.036577724 -0.0083131194 0.66950059
0.03653184 -0.0099632144 0.66924882
0.036486197 -0.011609226 0.66899836
0.03644054 -0.013251096 0.6687479
0.036394998 -0.014888853 0.66849792
0.036349569 -0.016522527 0.66824871
0.036304381 -0.018152177 0.66800082
0.036259178 -0.019777745 0.66775274
0.036214087 -0.02139923 0.66750532
0.036169108 -0.023016691 0.66725856
0.036124367 -0.024630219 0.66701305
0.036079615 -0.026239723 0.66676754
0.036034968 -0.027845234 0.66652256
0.035990559 -0.02944684 0.66627884
0.035946131 -0.031044394 0.66603512
0.035901818 -0.032638013 0.66579199
0.03585761 -0.034227699 0.6655494
0.035813637 -0.035813659 0.66530812
0.035769649 -0.037395507 0.66506678
0.035725765 -0.03897357 0.66482604
0.035682112 -0.040547818 0.66458648
0.035638444 -0.042118132 0.66434687
0.035594884 -0.043684602 0.66410786
0.035551429 -0.045247257 0.66386944
0.035508204 -0.046806246 0.66363227
0.035464961 -0.048361301 0.66339499
0.035421822 -0.049912572 0.66315836
0.035378791 -0.051460057 0.6629222
0.03533598 -0.053003967 0.66268736
0.035293154 -0.054543972 0.6624524
0.035250437 -0.056080222 0.66221792
0.035207935 -0.057612985 0.6619848
0.035165422 -0.059141845 0.66175151
0.040583316 0.072344184 0.68179715
0.040529441 0.070486009 0.68151438
0.040475558 0.068632454 0.68123162
0.040421821 0.066783905 0.68094957
0.040368225 0.064940184 0.68066829
0.040314917 0.063101619 0.68038851
0.040261604 0.061267674 0.68010873
0.040208433 0.059438556 0.6798296
0.040155545 0.057614475 0.67955208
0.040102653 0.055795014 0.67927444
0.040049899 0.053980291 0.67899764
0.039997283 0.052170396 0.67872143
0.039944954 0.050365329 0.67844689
0.039892614 0.048564911 0.67817211
0.039840408 0.046769172 0.67789817
0.039788343 0.044978142 0.67762488
0.039736554 0.043191969 0.67735308
0.039684758 0.041410208 0.67708123
0.039633099 0.039633125 0.67681015
0.039581716 0.037860811 0.67654049
0.039530322 0.036092877 0.67627072
0.039479062 0.034329623 0.67600167
0.039427936 0.032570899 0.67573339
0.039377082 0.030816853 0.67546654
0.039326217 0.029067189 0.67519951
0.039275486 0.027322084 0.67493325
0.039224885 0.025581449 0.67466772
0.039174553 0.023845404 0.67440355
0.039124209 0.022113681 0.67413938
0.039073996 0.020386457 0.67387581
0.039024055 0.018663675 0.67361367
0.038974099 0.016945273 0.67335153
0.038924269 0.015231222 0.67308998
0.03887457 0.013521612 0.67282915
0.038825132 0.011816353 0.67256969
0.038775682 0.010115415 0.67231017
0.03872636 0.0084187984 0.67205131
0.038677163 0.0067264438 0.6717931
0.038628228 0.0050384998 0.67153627
0.038579281 0.0033547282 0.67127937
0.038530454 0.0016752481 0.67102313
0.038481887 2.9802322e-08 0.67076826
0.03843331 -0.0016710162 0.67051327
0.038384855 -0.0033378303 0.670259
0.038336519 -0.0050004125 0.67000532
0.038288441 -0.0066588521 0.66975296
0.038240351 -0.0083131194 0.66950059
0.03819238 -0.0099632144 0.66924882
0.038144663 -0.011609226 0.66899836
0.038096927 -0.013251096 0.6687479
0.038049318 -0.014888853 0.66849792
0.038001824 -0.016522527 0.66824871
0.03795458 -0.018152177 0.66800082
0.037907325 -0.019777745 0.66775274
0.037860185 -0.02139923 0.66750532
0.037813161 -0.023016691 0.66725856
0.037766386 -0.024630219 0.66701305
0.037719596 -0.026239723 0.66676754
0.037672922 -0.027845234 0.66652256
0.037626494 -0.02944684 0.66627884
0.037580047 -0.031044394 0.66603512
0.037533719 -0.032638013 0.66579199
0.037487503 -0.034227699 0.6655494
0.037441529 -0.035813659 0.66530812
0.037395541 -0.037395507 0.66506678
0.037349664 -0.03897357 0.66482604
0.037304029 -0.040547818 0.66458648
0.037258375 -0.042118132 0.66434687
0.037212834 -0.043684602 0.66410786
0.037167404 -0.045247257 0.66386944
0.037122212 -0.046806246 0.66363227
0.037077006 -0.048361301 0.66339499
0.037031908 -0.049912572 0.66315836
0.036986917 -0.051460057 0.6629222
0.036942162 -0.053003967 0.66268736
0.036897391 -0.054543972 0.6624524
0.036852729 -0.056080222 0.66221792
0.036808297 -0.057612985 0.6619848
0.036763847 -0.059141845 0.66175151
0.042347807 0.072344184 0.68179715
0.042291593 0.070486009 0.68151438
0.042235367 0.068632454 0.68123162
0.04217929 0.066783905 0.68094957
0.042123366 0.064940184 0.68066829
0.04206774 0.063101619 0.68038851
0.04201211 0.061267674 0.68010873
0.041956626 0.059438556 0.6798296
0.041901443 0.057614475 0.67955208
0.041846249 0.055795014 0.67927444
0.041791201 0.053980291 0.67899764
0.041736297 0.052170396 0.67872143
0.041681692 0.050365329 0.67844689
0.041627072 0.048564911 0.67817211
0.041572601 0.046769172 0.67789817
0.041518271 0.044978142 0.67762488
0.041464232 0.043191969 0.67735308
0.041410185 0.041410208 0.67708123
0.041356277 0.039633125 0.67681015
0.041302662 0.037860811 0.67654049
0.041249033 0.036092877 0.67627072
0.041195542 0.034329623 0.67600167
0.041142195 0.032570899 0.67573339
0.041089132 0.030816853 0.67546654
0.041036054 0.029067189 0.67519951
0.040983118 0.027322084 0.67493325
0.040930316 0.025581449 0.67466772
0.040877797 0.023845404 0.67440355
0.040825266 0.022113681 0.67413938
0.04077287 0.020386457 0.67387581
0.040720753 0.018663675 0.67361367
0.040668625 0.016945273 0.67335153
0.040616628 0.015231222 0.67308998
0.040564768 0.013521612 0.67282915
0.04051318 0.011816353 0.67256969
0.040461581 0.010115415 0.67231017
0.040410116 0.0084187984 0.67205131
0.040358778 0.0067264438 0.6717931
0.040307716 0.0050384998 0.67153627
0.040256638 0.0033547282 0.67127937
0.040205691 0.0016752481 0.67102313
0.040155016 2.9802322e-08 0.67076826
0.040104322 -0.0016710162 0.67051327
0.040053759 -0.0033378303 0.670259
0.040003326 -0.0050004125 0.67000532
0.039953157 -0.0066588521 0.66975296
0.039902974 -0.0083131194 0.66950059
0.039852917 -0.0099632144 0.66924882
0.039803125 -0.011609226 0.66899836
0.039753318 -0.013251096 0.6687479
0.039703634 -0.014888853 0.66849792
0.039654076 -0.016522527 0.66824871
0.039604779 -0.018152177 0.66800082
0.039555468 -0.019777745 0.66775274
0.039506279 -0.02139923 0.66750532
0.039457213 -0.023016691 0.66725856
0.039408404 -0.024630219 0.66701305
0.039359577 -0.026239723 0.66676754
0.039310876 -0.027845234 0.66652256
0.039262429 -0.02944684 0.66627884
0.039213963 -0.031044394 0.66603512
0.03916562 -0.032638013 0.66579199
0.039117396 -0.034227699 0.6655494
0.039069422 -0.035813659 0.66530812
0.039021432 -0.037395507 0.66506678
0.038973562 -0.03897357 0.66482604
0.038925938 -0.040547818 0.66458648
0.038878303 -0.042118132 0.66434687
0.038830783 -0.043684602 0.66410786
0.038783379 -0.045247257 0.66386944
0.03873622 -0.046806246 0.66363227
0.038689047 -0.048361301 0.66339499
0.038641989 -0.049912572 0.66315836
0.038595043 -0.051460057 0.6629222
0.038548343 -0.053003967 0.66268736
0.038501624 -0.054543972 0.6624524
0.038455021 -0.056080222 0.66221792
0.038408659 -0.057612985 0.6619848
0.03836228 -0.059141845 0.66175151
0.044112299 0.072344184 0.68179715
0.044053741 0.070486009 0.68151438
0.043995176 0.068632454 0.68123162
0.043936759 0.066783905 0.68094957
0.043878507 0.064940184 0.68066829
0.04382056 0.063101619 0.68038851
0.043762613 0.061267674 0.68010873
0.043704819 0.059438556 0.6798296
0.043647338 0.057614475 0.67955208
0.043589842 0.055795014 0.67927444
0.043532502 0.053980291 0.67899764
0.043475308 0.052170396 0.67872143
0.043418426 0.050365329 0.67844689
0.043361537 0.048564911 0.67817211
0.043304794 0.046769172 0.67789817
0.043248199 0.044978142 0.67762488
0.043191906 0.043191969 0.67735308
0.043135609 0.041410208 0.67708123
0.043079454 0.039633125 0.67681015
0.043023609 0.037860811 0.67654049
0.04296774 0.036092877 0.67627072
0.042912025 0.034329623 0.67600167
0.042856451 0.032570899 0.67573339
0.042801179 0.030816853 0.67546654
0.042745892 0.029067189 0.67519951
0.042690746 0.027322084 0.67493325
0.042635743 0.025581449 0.67466772
0.042581037 0.023845404 0.67440355
0.042526316 0.022113681 0.67413938
0.042471737 0.020386457 0.67387581
0.042417452 0.018663675 0.67361367
0.042363148 0.016945273 0.67335153
0.04230899 0.015231222 0.67308998
0.042254966 0.013521612 0.67282915
0.042201228 0.011816353 0.67256969
0.042147484 0.010115415 0.67231017
0.042093869 0.0084187984 0.67205131
0.042040396 0.0067264438 0.6717931
0.041987203 0.0050384998 0.67153627
0.041933998 0.0033547282 0.67127937
0.041880928 0.0016752481 0.67102313
0.041828141 2.9802322e-08 0.67076826
0.041775335 -0.0016710162 0.67051327
0.041722666 -0.0033378303 0.670259
0.041670129 -0.0050004125 0.67000532
0.04161787 -0.0066588521 0.66975296
0.041565597 -0.0083131194 0.66950059
0.041513454 -0.0099632144 0.66924882
0.041461587 -0.011609226 0.66899836
0.041409705 -0.013251096 0.6687479
0.041357953 -0.014888853 0.66849792
0.041306332 -0.016522527 0.66824871
0.041254979 -0.018152177 0.66800082
0.041203611 -0.019777745 0.66775274
0.041152373 -0.02139923 0.66750532
0.041101262 -0.023016691 0.66725856
0.041050419 -0.024630219 0.66701305
0.040999562 -0.026239723 0.66676754
0.040948827 -0.027845234 0.66652256
0.04089836 -0.02944684 0.66627884
0.040847875 -0.031044394 0.66603512
0.04079752 -0.032638013 0.66579199
0.040747285 -0.034227699 0.6655494
0.040697314 -0.035813659 0.66530812
0.040647328 -0.037395507 0.66506678
0.040597461 -0.03897357 0.66482604
0.040547855 -0.040547818 0.66458648
0.040498231 -0.042118132 0.66434687
0.040448733 -0.043684602 0.66410786
0.040399354 -0.045247257 0.66386944
0.040350229 -0.046806246 0.66363227
0.040301092 -0.048361301 0.66339499
0.040252071 -0.049912572 0.66315836
0.040203169 -0.051460057 0.6629222
0.040154524 -0.053003967 0.66268736
0.040105861 -0.054543972 0.6624524
0.040057313 -0.056080222 0.66221792
0.040009018 -0.057612985 0.6619848
0.039960705 -0.059141845 0.66175151
0.045876794 0.072344184 0.68179715
0.045815889 0.070486009 0.68151438
0.04575498 0.068632454 0.68123162
0.045694232 0.066783905 0.68094957
0.045633648 0.064940184 0.68066829
0.045573387 0.063101619 0.68038851
0.045513116 0.061267674 0.68010873
0.045453008 0.059438556 0.6798296
0.045393225 0.057614475 0.67955208
0.045333434 0.055795014 0.67927444
0.045273799 0.053980291 0.67899764
0.045214321 0.052170396 0.67872143
0.045155168 0.050365329 0.67844689
0.045095995 0.048564911 0.67817211
0.045036983 0.046769172 0.67789817
0.044978127 0.044978142 0.67762488
0.044919584 0.043191969 0.67735308
0.04486103 0.041410208 0.67708123
0.044802636 0.039633125 0.67681015
0.044744551 0.037860811 0.67654049
0.044686455 0.036092877 0.67627072
0.044628505 0.034329623 0.67600167
0.044570711 0.032570899 0.67573339
0.044513222 0.030816853 0.67546654
0.044455726 0.029067189 0.67519951
0.044398379 0.027322084 0.67493325
0.044341173 0.025581449 0.67466772
0.044284277 0.023845404 0.67440355
0.044227373 0.022113681 0.67413938
0.044170607 0.020386457 0.67387581
0.04411415 0.018663675 0.67361367
0.044057678 0.016945273 0.67335153
0.044001352 0.015231222 0.67308998
0.043945163 0.013521612 0.67282915
0.04388928 0.011816353 0.67256969
0.043833379 0.010115415 0.67231017
0.043777622 0.0084187984 0.67205131
0.043722011 0.0067264438 0.6717931
0.043666691 0.0050384998 0.67153627
0.043611359 0.0033547282 0.67127937
0.043556165 0.0016752481 0.67102313
0.043501265 2.9802322e-08 0.67076826
0.043446351 -0.0016710162 0.67051327
0.043391574 -0.0033378303 0.670259
0.043336932 -0.0050004125 0.67000532
0.043282587 -0.0066588521 0.66975296
0.04322822 -0.0083131194 0.66950059
0.043173995 -0.0099632144 0.66924882
0.043120053 -0.011609226 0.66899836
0.043066096 -0.013251096 0.6687479
0.043012269 -0.014888853 0.66849792
0.042958584 -0.016522527 0.66824871
0.042905182 -0.018152177 0.66800082
0.042851754 -0.019777745 0.66775274
0.042798467 -0.02139923 0.66750532
0.042745311 -0.023016691 0.66725856
0.042692438 -0.024630219 0.66701305
0.042639542 -0.026239723 0.66676754
0.042586781 -0.027845234 0.66652256
0.042534295 -0.02944684 0.66627884
0.042481791 -0.031044394 0.66603512
0.042429421 -0.032638013 0.66579199
0.042377178 -0.034227699 0.6655494
0.042325206 -0.035813659 0.66530812
0.04227322 -0.037395507 0.66506678
0.04222136 -0.03897357 0.66482604
0.042169772 -0.040547818 0.66458648
0.042118166 -0.042118132 0.66434687
0.042066682 -0.043684602 0.66410786
0.042015325 -0.045247257 0.66386944
0.04196424 -0.046806246 0.66363227
0.041913133 -0.048361301 0.66339499
0.041862153 -0.049912572 0.66315836
0.041811299 -0.051460057 0.6629222
0.041760705 -0.053003967 0.66268736
0.041710094 -0.054543972 0.6624524
0.041659605 -0.056080222 0.66221792
0.04160938 -0.057612985 0.6619848
0.041559134 -0.059141845 0.66175151
0.047641288 0.072344184 0.68179715
0.047578044 0.070486009 0.68151438
0.047514789 0.068632454 0.68123162
0.047451701 0.066783905 0.68094957
0.047388781 0.064940184 0.68066829
0.047326207 0.063101619 0.68038851
0.047263622 0.061267674 0.68010873
0.047201205 0.059438556 0.6798296
0.047139119 0.057614475 0.67955208
0.047077026 0.055795014 0.67927444
0.047015101 0.053980291 0.67899764
0.046953332 0.052170396 0.67872143
0.046891902 0.050365329 0.67844689
0.04683046 0.048564911 0.67817211
0.046769179 0.046769172 0.67789817
0.046708051 0.044978142 0.67762488
0.046647262 0.043191969 0.67735308
0.046586458 0.041410208 0.67708123
0.046525814 0.039633125 0.67681015
0.046465494 0.037860811 0.67654049
0.046405163 0.036092877 0.67627072
0.046344988 0.034329623 0.67600167
0.046284966 0.032570899 0.67573339
0.046225268 0.030816853 0.67546654
0.046165563 0.029067189 0.67519951
0.046106007 0.027322084 0.67493325
0.046046603 0.025581449 0.67466772
0.04598752 0.023845404 0.67440355
0.045928426 0.022113681 0.67413938
0.045869477 0.020386457 0.67387581
0.045810848 0.018663675 0.67361367
0.045752201 0.016945273 0.67335153
0.04569371 0.015231222 0.67308998
0.045635365 0.013521612 0.67282915
0.045577329 0.011816353 0.67256969
0.045519281 0.010115415 0.67231017
0.045461379 0.0084187984 0.67205131
0.045403626 0.0067264438 0.6717931
0.045346178 0.0050384998 0.67153627
0.045288716 0.0033547282 0.67127937
0.045231402 0.0016752481 0.67102313
0.045174394 2.9802322e-08 0.67076826
0.045117367 -0.0016710162 0.67051327
0.045060482 -0.0033378303 0.670259
0.045003742 -0.0050004125 0.67000532
0.044947304 -0.0066588521 0.66975296
0.044890847 -0.0083131194 0.66950059
0.044834528 -0.0099632144 0.66924882
0.044778515 -0.011609226 0.66899836
0.044722483 -0.013251096 0.6687479
0.044666588 -0.014888853 0.66849792
0.044610839 -0.016522527 0.66824871
0.044555377 -0.018152177 0.66800082
0.0444999 -0.019777745 0.66775274
0.044444565 -0.02139923 0.66750532
0.04438936 -0.023016691 0.66725856
0.044334453 -0.024630219 0.66701305
0.044279527 -0.026239723 0.66676754
0.044224732 -0.027845234 0.66652256
0.044170227 -0.02944684 0.66627884
0.044115711 -0.031044394 0.66603512
0.044061322 -0.032638013 0.66579199
0.044007067 -0.034227699 0.6655494
0.043953098 -0.035813659 0.66530812
0.043899111 -0.037395507 0.66506678
0.043845255 -0.03897357 0.66482604
0.043791682 -0.040547818 0.66458648
0.04373809 -0.042118132 0.66434687
0.043684632 -0.043684602 0.66410786
0.0436313 -0.045247257 0.66386944
0.043578252 -0.046806246 0.66363227
0.043525182 -0.048361301 0.66339499
0.043472238 -0.049912572 0.66315836
0.043419424 -0.051460057 0.6629222
0.043366887 -0.053003967 0.66268736
0.043314327 -0.054543972 0.6624524
0.043261897 -0.056080222 0.66221792
0.043209743 -0.057612985 0.6619848
0.043157563 -0.059141845 0.66175151
0.049405776 0.072344184 0.68179715
0.049340192 0.070486009 0.68151438
0.049274597 0.068632454 0.68123162
0.049209174 0.066783905 0.68094957
0.049143925 0.064940184 0.68066829
0.049079034 0.063101619 0.68038851
0.049014129 0.061267674 0.68010873
0.048949394 0.059438556 0.6798296
0.048885014 0.057614475 0.67955208
0.048820622 0.055795014 0.67927444
0.048756402 0.053980291 0.67899764
0.048692346 0.052170396 0.67872143
0.048628639 0.050365329 0.67844689
0.048564922 0.048564911 0.67817211
0.048501369 0.046769172 0.67789817
0.048437983 0.044978142 0.67762488
0.048374936 0.043191969 0.67735308
0.048311878 0.041410208 0.67708123
0.048248991 0.039633125 0.67681015
0.048186436 0.037860811 0.67654049
0.04812387 0.036092877 0.67627072
0.048061468 0.034329623 0.67600167
0.047999229 0.032570899 0.67573339
0.047937315 0.030816853 0.67546654
0.047875393 0.029067189 0.67519951
0.047813635 0.027322084 0.67493325
0.047752034 0.025581449 0.67466772
0.04769076 0.023845404 0.67440355
0.047629476 0.022113681 0.67413938
0.047568347 0.020386457 0.67387581
0.047507543 0.018663675 0.67361367
0.047446728 0.016945273 0.67335153
0.047386069 0.015231222 0.67308998
0.047325559 0.013521612 0.67282915
0.047265381 0.011816353 0.67256969
0.04720518 0.010115415 0.67231017
0.047145136 0.0084187984 0.67205131
0.04708524 0.0067264438 0.6717931
0.047025669 0.0050384998 0.67153627
0.04696608 0.0033547282 0.67127937
0.046906639 0.0016752481 0.67102313
0.046847515 2.9802322e-08 0.67076826
0.04678838 -0.0016710162 0.67051327
0.046729386 -0.0033378303 0.670259
0.046670545 -0.0050004125 0.67000532
0.046612013 -0.0066588521 0.66975296
0.04655347 -0.0083131194 0.66950059
0.046495069 -0.0099632144 0.66924882
0.04643698 -0.011609226 0.66899836
0.04637887 -0.013251096 0.6687479
0.046320908 -0.014888853 0.66849792
0.046263091 -0.016522527 0.66824871
0.046205577 -0.018152177 0.66800082
0.046148047 -0.019777745 0.66775274
0.046090655 -0.02139923 0.66750532
0.046033412 -0.023016691 0.66725856
0.045976471 -0.024630219 0.66701305
0.045919508 -0.026239723 0.66676754
0.04586269 -0.027845234 0.66652256
0.045806162 -0.02944684 0.66627884
0.045749623 -0.031044394 0.66603512
0.045693222 -0.032638013 0.66579199
0.045636959 -0.034227699 0.6655494
0.045580991 -0.035813659 0.66530812
0.045525003 -0.037395507 0.66506678
0.045469157 -0.03897357 0.66482604
0.045413598 -0.040547818 0.66458648
0.045358021 -0.042118132 0.66434687
0.045302585 -0.043684602 0.66410786
0.045247272 -0.045247257 0.66386944
0.045192257 -0.046806246 0.66363227
0.045137223 -0.048361301 0.66339499
0.045082323 -0.049912572 0.66315836
0.04502755 -0.051460057 0.6629222
0.044973064 -0.053003967 0.66268736
0.044918559 -0.054543972 0.6624524
0.044864189 -0.056080222 0.66221792
0.044810098 -0.057612985 0.6619848
0.044755992 -0.059141845 0.66175151
0.051170267 0.072344184 0.68179715
0.05110234 0.070486009 0.68151438
0.051034402 0.068632454 0.68123162
0.050966647 0.066783905 0.68094957
0.050899066 0.064940184 0.68066829
0.050831854 0.063101619 0.68038851
