# .PCD v0.7 - Point Cloud Data file format
VERSION 0.7
FIELDS x y z
SIZE 4 4 4
TYPE F F F
COUNT 1 1 1
WIDTH 790
HEIGHT 1
VIEWPOINT 0 0 0 1 0 0 0
POINTS 790
DATA ascii
-0.046779584 0.050677896 0.62565958
-0.046779584 0.050677896 0.62565958
-0.047050763 0.045743793 0.62656885
-0.043023724 0.058668703 0.62618059
-0.051396251 0.027674913 0.62788302
-0.05116155 0.032795846 0.62715656
-0.043399934 0.05129087 0.62755674
-0.04327384 0.053764462 0.62709546
-0.046264179 0.039655 0.62836355
-0.044927016 0.043605655 0.62830913
-0.04128309 0.047941685 0.62955606
-0.037249323 0.059864968 0.62938952
-0.049669769 0.018794 0.6308493
-0.046882499 0.028129518 0.63049608
-0.046882499 0.028129518 0.63049608
-0.052547634 0.0080842674 0.63144672
-0.051182307 0.012122124 0.63138968
-0.049743816 0.017477572 0.63109088
-0.054073699 0.037851602 0.63198596
-0.054073699 0.047314495 0.6319859
-0.054156583 -0 0.63223606
-0.04346399 0.027164996 0.63275939
-0.035560407 0.043766677 0.63390106
-0.034025874 0.051719338 0.63309556
-0.043926843 0.017845273 0.63450539
-0.030183924 0.056251884 0.63441873
-0.042734001 0.017920732 0.63520575
-0.035886854 0.035886824 0.63541669
-0.055574477 -0.023619145 0.6365149
-0.051509216 -0.01392141 0.63685042
-0.051271927 -0.0097000599 0.63607621
-0.044536833 0.0055671334 0.63680637
-0.029156284 0.04998219 0.6363982
-0.029156284 0.04998219 0.6363982
-0.047427803 -0.0041848123 0.63718772
-0.044743862 0.0013982654 0.63758731
-0.032154229 0.036348283 0.63755888
-0.028016474 0.046227187 0.63789845
-0.057169061 0.059957832 0.63711917
-0.035084449 0.025260806 0.63820684
-0.033773851 0.02673763 0.63867348
-0.023899302 0.054827839 0.63850421
-0.022520326 0.057708323 0.63870686
-0.053582329 -0.02961126 0.63901353
-0.050804347 -0.02257967 0.63915485
-0.045234662 -0.0084814727 0.63943869
-0.043804962 -0.0042391717 0.63937593
-0.042442795 -0.001414746 0.63958073
-0.040948715 0.0042360723 0.63925052
-0.036845196 0.012754112 0.63986599
-0.031033477 0.03244409 0.63908017
-0.055358764 -0.039744765 0.64014757
-0.038336582 0.0070993602 0.64019799
-0.03414673 0.017073393 0.64054894
-0.026982948 0.038344204 0.64023197
-0.057249572 -0.051524609 0.64156997
-0.055797715 -0.047213465 0.6415062
-0.048553906 -0.02570504 0.64118576
-0.04015046 -0.005735755 0.64189661
-0.04015046 -0.005735755 0.64189661
-0.035865497 0.0057384968 0.64197803
-0.028684646 0.025816202 0.6419313
-0.028593697 0.028593689 0.64138234
-0.028548438 0.029975891 0.64110923
-0.021507608 0.045882881 0.64188403
-0.058983613 -0.060422212 0.64246148
-0.06046531 -0.056146383 0.64258528
-0.06046531 0.0014396608 0.64258528
-0.031576589 0.017223597 0.6420601
-0.060465496 0.023034513 0.64258581
-0.023059977 0.037472486 0.64277822
-0.060465496 0.044629306 0.64258581
-0.02154186 0.044519842 0.64215964
-0.060465496 0.047508627 0.64258587
-0.017296722 0.053331614 0.64279568
-0.049097985 -0.036101431 0.64311737
-0.04053707 -0.014477521 0.64356333
-0.028960906 0.017376542 0.64359868
-0.026087036 0.024637759 0.64374769
-0.024588967 0.030374616 0.64340127
-0.024549594 0.031770051 0.64312166
-0.015951276 0.052204221 0.6438486
-0.058266398 -0.068463013 0.64463854
-0.056880046 -0.065630808 0.64485615
-0.050886948 -0.04652518 0.6443069
-0.050886948 -0.04652518 0.6443069
-0.046698045 -0.037942141 0.64495885
-0.040864956 -0.021891892 0.64497685
-0.039200403 -0.013066769 0.6440599
-0.036327701 -0.0058124363 0.64420974
-0.032087073 0.0029170215 0.64486104
-0.030518364 0.010172814 0.64422756
-0.026171073 0.02180922 0.64431131
-0.021784563 0.034855306 0.64411271
-0.057157353 -0.070347488 0.64571446
-0.055761129 -0.067500308 0.64593476
-0.05409719 -0.059945539 0.64529353
-0.052615084 -0.055538148 0.64522642
-0.038040254 -0.016093969 0.64541429
-0.035087354 -0.0073098838 0.64527988
-0.035087354 -0.0073098838 0.64527988
-0.030766159 0.0029301047 0.64565194
-0.048568618 -0.050040424 0.64646327
-0.0426859 -0.033854336 0.64648151
-0.017663572 0.035327137 0.64648592
-0.041468691 -0.035544574 0.64757955
-0.037043728 -0.023707956 0.64766705
-0.014804957 0.038492918 0.64751577
-0.032721911 -0.014873594 0.64834428
-0.026863789 -0.0014924109 0.64895666
-0.02079306 0.019307852 0.64808583
-0.017897209 0.023862928 0.64883614
-0.011913012 0.041695535 0.64855754
-0.010402677 0.047555059 0.64819187
-0.046499792 -0.059999734 0.64986932
-0.04498224 -0.055478126 0.64979869
-0.034507077 -0.027005523 0.64990729
-0.030020926 -0.015010446 0.64999646
-0.02544569 -0 0.64948452
-0.022471938 0.0074906647 0.64964432
-0.0059768469 0.055285841 0.64917141
-0.049538307 -0.069053367 0.65001023
-0.040707078 -0.0482454 0.65079594
-0.039053626 -0.040555656 0.65011907
-0.034564577 -0.028553337 0.65020907
-0.019525323 0.013517529 0.6501053
-0.018106764 0.013580084 0.65094405
-0.046889596 -0.068065539 0.65138716
-0.045511775 -0.066750556 0.65192932
-0.040912267 -0.053034425 0.65171325
-0.036262739 -0.037773669 0.65119165
-0.03032366 -0.024258941 0.65182364
-0.012133319 0.02578333 0.65188175
-0.0090775844 0.036310315 0.65143108
-0.0060673016 0.042471141 0.65190113
-0.004541046 0.048437834 0.65152168
-0.042659253 -0.062465325 0.65271223
-0.041188955 -0.059495181 0.65295029
-0.041188955 -0.059495181 0.65295029
-0.0060775043 0.041023165 0.65220904
-0.0030414804 0.048663706 0.65237367
-0.067745149 -0.053888202 0.65465784
-0.067745149 -0.044650227 0.65465784
-0.026095191 -0.023025155 0.65409642
-0.067745149 -0.01847595 0.65465784
-0.067745149 -0 0.65465784
-0.067745149 0.003079325 0.65465784
-0.067745149 0.03079322 0.65465784
-0.067745149 0.033872575 0.65465784
0 0.047667772 0.6544171
0.0015344381 0.053705335 0.65402722
-0.032397091 -0.044738829 0.65502673
-0.037389845 -0.066990122 0.65686047
-0.03267647 -0.052904785 0.65663272
-0.021760311 -0.021760315 0.65642571
-0.0062242746 0.020228863 0.65663826
-0.0015568632 0.032694101 0.65673417
0.0015529288 0.043482006 0.65625918
0.0015529288 0.043482006 0.65625918
0.0046630464 0.051293492 0.65643066
-0.034364887 -0.060919538 0.657359
-0.017195061 -0.014068663 0.65749753
-0.014106109 -0.0078367293 0.65799946
-0.0062458282 0.017176002 0.65728867
-0.0062458282 0.017176002 0.65728867
0.004679176 0.048351467 0.6570797
0.0093793729 0.059402674 0.65750253
-0.012599315 -0.0078745782 0.65891308
-0.007864926 0.0062919855 0.6586802
-0.033191673 -0.067963883 0.65959412
-0.030058611 -0.060117215 0.65977228
-0.028365379 -0.052003205 0.65902656
-0.023650119 -0.03941685 0.65912557
0.0031644988 0.031645 0.6597985
0.0031644988 0.031645 0.6597985
-0.014304952 -0.020662665 0.66066641
-0.0015842066 0.017426282 0.66003478
0.0031700605 0.030115604 0.6601342
0.0095279822 0.04605189 0.6604923
-0.02559511 -0.057588965 0.66190434
-0.071778014 -0.02392599 0.66134572
-0.071778014 -0.01595065 0.66134572
-0.0095923543 -0.012789816 0.66178739
-0.006378287 -0.0015945733 0.661286
-0.071778014 0.02073586 0.66134578
0.0079996092 0.035198301 0.66193175
-0.071778253 0.039876819 0.66134638
-0.022456689 -0.051329583 0.66243005
-0.0048243641 -0.0048243701 0.66292155
-0.017748585 -0.043564737 0.66357177
-0.016099567 -0.037028998 0.66314304
-0.0064581987 -0.012916386 0.66369748
0.0048294752 0.020927727 0.66312718
0.019383272 0.058149815 0.66378474
-0.025916826 -0.069651455 0.66433144
-0.0048590051 -0.011337698 0.6643154
0.011330688 0.033992082 0.66419482
0.012967169 0.037280619 0.66446364
0.021065148 0.059954643 0.6644032
0.0097687012 0.024421751 0.66533518
0.014634497 0.039025337 0.66508639
0.019523075 0.052061528 0.66519105
-0.013102534 -0.044221073 0.66650611
0.0081883743 0.014739096 0.66648901
0.01803386 0.040986061 0.66670227
-0.0082233706 -0.03453815 0.66733384
0 -0.013177276 0.66763419
0.0098936977 0.013191611 0.66784996
0.021372285 0.047676623 0.6672551
-0.018204445 -0.067852929 0.66857421
-0.016542371 -0.062860996 0.6684882
-0.013222556 -0.052890241 0.66831708
-0.076111957 -0.041365176 0.66853291
-0.0016569458 -0.023197263 0.6688152
-0.076111957 -0.018200666 0.66853291
-0.076111957 0.018200696 0.66853291
-0.076111957 0.026473731 0.66853297
-0.076112226 0.051293015 0.66853368
0.026414901 0.05778262 0.66808915
-0.013295612 -0.058168292 0.66941935
-0.006660854 -0.041630358 0.66981316
0.0016616184 -0.016616195 0.66937917
-0.013369526 -0.063505232 0.67053467
0.010021934 0.0016703308 0.67042983
0.016736114 0.018409729 0.67082691
0.02002879 0.030043185 0.67027819
0.0016833229 -0.028616518 0.67199922
-0.0067480272 -0.053984195 0.67244387
-0.0067354515 -0.052199751 0.6720643
-0.0067354515 -0.052199751 0.6720643
0.0084333476 -0.011806667 0.6724031
0.025331054 0.033774734 0.67265272
-0.011846771 -0.07108061 0.67309439
0 -0.038951457 0.67323273
0.025426278 0.030511498 0.673419
0.03047131 0.045706987 0.67314929
0 -0.044281393 0.67439026
0.0085289963 -0.022175401 0.6747123
0.020406315 0.013604194 0.67407584
-0.0051356019 -0.063339055 0.67544472
0.010269083 -0.020538151 0.67540216
0.01370596 -0.011992693 0.67561108
0.020561324 0.0068537593 0.6756351
0.032515936 0.041072786 0.67538416
-0.080781996 -0.03437531 0.67627752
-0.080781996 -0.03437531 0.67627752
-0.080781996 -0.03265655 0.67627752
-0.080781996 -0.013750106 0.67627752
-0.080781996 -0.012031347 0.67627752
0.017215209 -0.0068860948 0.67661011
0.017215209 -0.0068860948 0.67661011
0.01718241 -0.0051546991 0.67621416
-0.080781996 -0.0034375191 0.67627752
-0.080781996 -0.0034375191 0.67627752
-0.080781996 -0.0017187595 0.67627752
-0.080781996 -0.0017187595 0.67627752
0.018928248 -0.0017207563 0.67651707
-0.080781996 0.0068750679 0.67627752
-0.080781996 0.0068750679 0.67627752
-0.080781996 0.0085938275 0.67627752
-0.080781996 0.0085938275 0.67627752
0.02234973 0.0085960627 0.6763311
-0.080781996 0.027500242 0.67627758
0.032701988 0.036144346 0.67656618
0.034342345 0.042927951 0.6760785
-0.080781996 0.046406686 0.67627752
-0.080781996 0.048125446 0.67627752
0.037886988 0.049941957 0.67668426
-0.080782294 0.065313369 0.67627823
-0.080782294 0.067032099 0.67627823
-0.0051748748 -0.070723265 0.67702496
0.0051907152 -0.044986218 0.67766237
0.0086434064 -0.034573615 0.67747444
0.0052006738 -0.046806067 0.67806309
0.022564728 2.9802322e-08 0.6783275
0.026012817 0.010405123 0.67813909
0.041772265 0.050474852 0.67890239
0.043409493 0.057300508 0.67840368
0.0017418199 -0.06096372 0.67906034
0.020918956 -0.0087161958 0.67923254
0.029625351 0.015684038 0.67916268
0.031414475 0.019197792 0.67947423
0.031353798 0.020902544 0.67906731
0.040205158 0.041953236 0.67981249
0.015771599 -0.028038412 0.68033749
0.031536419 0.0157682 0.68029201
0.0070530437 -0.058187604 0.68164849
0.012325902 -0.04226023 0.68135673
0.012374177 -0.045961231 0.68218917
0.021205734 -0.021205693 0.68211734
0.022962404 -0.015897036 0.68202007
0.019562587 -0.032011509 0.68347806
0.023143634 -0.023143619 0.68370283
0.044435676 0.037325948 0.68335855
-0.085828826 -0.042914391 0.68464696
-0.085828826 -0.023245275 0.6846469
-0.085828826 -0.017881006 0.68464696
-0.085828826 0.012516737 0.6846469
-0.085828826 0.032185793 0.6846469
-0.085828826 0.041126311 0.6846469
0.021500567 -0.034042567 0.68508315
0.041326154 0.01796791 0.68569577
0.021629483 -0.039654046 0.68637991
0.028958604 -0.023528844 0.68727988
0.028958604 -0.023528844 0.68727988
0.028958604 -0.023528844 0.68727988
0.032678805 -0.016339391 0.68795305
0.052482642 0.041624159 0.68725979
0.041825991 0.0072740912 0.68831909
0.052800309 0.036414027 0.68858212
0.034828406 -0.020163804 0.69007576
0.022160729 -0.062788725 0.69172382
0.025882408 -0.053613573 0.69196719
0.033213578 -0.031368345 0.69153929
0.044247974 -0 0.69135422
0.062640637 0.051586419 0.69119811
0.024144178 -0.063146293 0.69299334
0.037096046 -0.02596724 0.6926986
0.031642422 -0.044671685 0.6934852
-0.091299929 -0.027948946 0.69371998
-0.091299929 -0.01863265 0.69371998
-0.091299929 -0.01676935 0.69371998
0.042862844 -0.01490882 0.69376081
0.044704758 -0.0093134642 0.69365168
-0.091299929 -0.0074530542 0.69371998
0.067083053 0.052175701 0.69373858
0.024294177 -0.069144934 0.69438618
0.024294177 -0.069144934 0.69438618
0.037403613 -0.033663273 0.69455492
0.052270316 0.0093339682 0.69414645
0.052270316 0.0093339682 0.69414645
0.063549176 0.03925097 0.69442368
0.065386459 0.044836402 0.69431394
0.067642115 0.045094758 0.69561315
0.030232295 -0.064243644 0.69688916
0.062356353 0.024564624 0.69689739
0.06593252 0.037675738 0.69619727
0.049195144 -0.013244867 0.69720334
0.051169422 -0.009475857 0.69757062
0.054905802 0.0018932819 0.69734609
0.062883131 0.017149985 0.69882429
0.064620085 0.024707705 0.69822574
0.076118842 0.055186152 0.69851303
0.072537817 0.041995585 0.69922745
0.034556422 -0.069112837 0.7005446
0.036458004 -0.063321799 0.7004289
0.053829666 -0.017302394 0.7008689
0.061527874 0.0038455129 0.70090008
0.078982346 0.050086349 0.70134103
0.060277618 -0.011666656 0.70351875
0.060277618 -0.011666656 0.70351875
0.046832077 -0.052686065 0.70435125
0.0841894 0.046989411 0.70514274
0.047344081 -0.063125461 0.70692647
0.053180397 -0.045301795 0.70656121
0.053064503 -0.043237716 0.70604306
0.065082625 -0.013805419 0.70686984
0.057311263 -0.03754878 0.70735866
0.073301822 0.0039622784 0.70794767
0.061605386 -0.031796336 0.70868891
0.061605386 -0.031796336 0.70868891
0.083359145 0.029771149 0.70838368
0.072150081 -0.012025028 0.7107287
0.090165809 0.038070023 0.71067023
0.052264445 -0.070355982 0.7114532
0.058203842 -0.052182734 0.71107399
0.062430553 -0.044305533 0.71190202
0.082690664 0.010084242 0.71225888
0.060719419 -0.054647475 0.71312022
0.064990617 -0.046711981 0.71396226
0.070971243 -0.02838847 0.71357512
0.061131008 -0.061131001 0.71477634
0.087414168 0.014230222 0.71419537
0.089400142 0.02031821 0.71406662
0.063421674 -0.059329927 0.7157613
0.077983074 -0.022574037 0.71652496
0.068528332 -0.062298477 0.71947384
0.074809141 -0.045716673 0.71964473
0.080912299 -0.026970744 0.71923947
0.07756009 -0.048213005 0.72184008
0.080737896 -0.055241734 0.72527593
-0.047513451 0.057144105 0.62381434
-0.05116155 0.036731362 0.62715656
-0.045129046 0.046882063 0.62747574
-0.043023724 0.058668703 0.62618059
-0.048977472 0.03110683 0.6285907
-0.042286165 0.050875068 0.6283164
-0.054073546 0.0027036965 0.63198543
-0.051335651 0.0094565749 0.63187683
-0.051335651 0.0094565749 0.63187683
-0.052158151 0.014711291 0.63024116
-0.046952106 0.026829779 0.63073611
-0.040941395 0.042956352 0.63084447
-0.044636335 0.027052343 0.63207936
-0.050997838 -0.0048246086 0.63518202
-0.049052633 -0.0013817996 0.63560283
-0.045663271 0.0069186985 0.63583577
-0.036997393 0.038367689 0.63421082
-0.035349078 0.039022308 0.63505852
-0.034284484 0.045255512 0.63434428
-0.028845593 0.059064776 0.63461226
-0.05508066 -0.025100693 0.63713336
-0.057168897 -0.013246462 0.6371187
-0.04717252 0.00069320202 0.63628137
-0.044365689 0.0090112537 0.63616073
-0.037742581 0.020968109 0.63754237
-0.037232697 0.023271292 0.63734853
-0.057169061 0.050894424 0.63711917
-0.025177002 0.055249006 0.63764489
-0.026340274 0.058918521 0.63614893
-0.053834684 -0.034000874 0.63981521
-0.040821008 0.0070381165 0.63871908
-0.040821008 0.0070381165 0.63871908
-0.024496675 0.048995405 0.63941205
-0.057340577 -0.053040013 0.64184463
-0.045736216 -0.018580317 0.64133066
-0.039330959 -0.0014302433 0.64145339
-0.030729601 0.022869721 0.6413427
-0.028391261 0.034778759 0.64016056
-0.019237611 0.057004943 0.64083171
-0.019237611 0.057004943 0.64083171
-0.06046531 -0.064784244 0.64258528
-0.052756235 -0.046976753 0.64328182
-0.049334824 -0.040628672 0.64395821
-0.044787023 -0.024560601 0.64319998
-0.039105996 -0.010863364 0.6436379
-0.06046531 -0.0071982443 0.64258528
-0.06046531 0.0071982741 0.64258528
-0.03099972 0.015139617 0.64285946
-0.027283618 0.028719604 0.64214224
-0.060465496 0.038870692 0.64258581
-0.060465496 0.038870692 0.64258581
-0.055625401 -0.065140873 0.64550358
-0.054881629 -0.062932789 0.64547068
-0.053311419 -0.056964636 0.64511794
-0.053311419 -0.056964636 0.64511794
-0.045442071 -0.0381127 0.64575064
-0.045185041 -0.032796174 0.64474982
-0.040831946 -0.021145687 0.64483452
-0.040831946 -0.021145687 0.64483452
-0.029100997 0.013095468 0.64444423
-0.024847949 0.021193236 0.64524019
-0.017591855 0.038848072 0.64576453
-0.016813098 0.043132886 0.64530134
-0.011700563 0.057040274 0.64535195
-0.047349043 -0.0510488 0.64741457
-0.047155734 -0.047155708 0.64668536
-0.031043455 -0.0051745027 0.64724588
-0.02519487 0.0088923275 0.64770353
-0.0088838926 0.05478403 0.64753425
-0.047100864 -0.059065748 0.64930522
-0.043466005 -0.050960124 0.6497286
-0.037257891 -0.029061764 0.64870119
-0.03416615 -0.017825812 0.64811802
-0.025487995 -0.0014992654 0.64978486
-0.020930877 0.01345554 0.64927417
-0.011229504 0.038934886 0.6495679
-0.011173866 0.043212205 0.64867216
-0.063983239 0.046871454 0.6484195
-0.063983239 0.052823395 0.6484195
-0.063983239 0.052823395 0.6484195
-0.046732832 -0.064822972 0.65077674
-0.027201334 -0.012845665 0.65122032
-0.022546778 0.0045093596 0.65024656
-0.010576903 0.033241689 0.6511963
-0.0030261716 0.052958012 0.65144968
-0.042587306 -0.060838997 0.6524021
-0.037305124 -0.047204658 0.652614
-0.037305124 -0.047204658 0.652614
-0.0190384 0.0030464381 0.65267229
-0.009108115 0.033396453 0.65204525
-0.043022525 -0.070679843 0.65427828
-0.038762715 -0.066671863 0.65596706
-0.037006397 -0.057051539 0.6549319
-0.067745149 -0.043110549 0.65465784
-0.026684813 -0.027199101 0.65464842
-0.026095191 -0.023025155 0.65409642
-0.067745149 -0.013087124 0.65465784
-0.020833662 -0.013119295 0.65510529
-0.018604638 -0.010852695 0.65595233
-0.016988982 -0.0030888915 0.65523612
-0.01547808 -0.00077457726 0.65564108
-0.0046502901 0.027901769 0.65591735
-0.0046502901 0.027901769 0.65591735
0.0015396775 0.050809354 0.65465963
-0.028880052 -0.045274332 0.65725577
-0.026432471 -0.034984797 0.65649128
-0.021873336 -0.026560485 0.65740019
-0.0070261434 0.014836252 0.65732771
-0.004686527 0.02108869 0.6573754
-0.004686527 0.02108869 0.6573754
0.006753278 0.055047832 0.65687108
-0.033249948 -0.069666535 0.65992904
-0.03137834 -0.056480974 0.65818912
-0.03137834 -0.056480974 0.65818912
-0.014929922 -0.012574151 0.65853357
-0.012588332 -0.0070816427 0.65874738
-0.0094914306 -0.0031637847 0.65975696
0.0015718706 0.033009291 0.65854573
0.0094531002 0.052779138 0.65898585
-0.015140928 -0.025503755 0.66121536
-0.012755155 -0.019132704 0.66126454
-0.0071561895 -0.0015906841 0.66081804
-0.0047607152 0.0071403831 0.66036046
0 0.012803286 0.66199064
0.014400906 0.052803338 0.66195339
-0.027351651 -0.067574665 0.66301811
-0.027278766 -0.064988352 0.6625005
-0.022496704 -0.053027898 0.66277498
-0.020993235 -0.053290486 0.66373545
-0.016891126 -0.038612798 0.66301161
-0.0096781058 -0.020969212 0.66351253
-0.0064581987 -0.012916386 0.66369748
-0.0016139664 0.00080625713 0.66362709
-0.003203477 0.0032034516 0.6621511
-0.0016039185 0.0064156651 0.66241419
0.014529755 0.045203686 0.66368157
-0.013031535 -0.039094597 0.66543484
-0.0086869169 -0.027151 0.66545081
0.0032617517 0.0048926175 0.66566825
0.0048817438 0.011390716 0.66523033
0.0065297899 0.013059586 0.66585797
0.0089505464 0.022778049 0.66520077
0.019418051 0.056635976 0.66413468
-0.021298189 -0.067171216 0.66656709
-0.014800367 -0.05262351 0.66731101
-0.0082084015 -0.032833606 0.66697246
-0.003267288 -0.014702767 0.66600239
0 -0.013177276 0.66763419
0.0098308269 0.018841654 0.66658509
-0.016542371 -0.062860996 0.6684882
-0.076111957 -0.043019831 0.66853297
-0.0082837706 -0.04141885 0.66879201
-0.0016661235 -0.028324068 0.66992295
0.0049532093 -0.0016510785 0.66810584
0.014903106 0.023182601 0.66868901
-0.076111957 0.033092141 0.66853297
-0.076111957 0.033092141 0.66853297
0.023154071 0.04713434 0.6684429
0.024957361 0.04658708 0.66964543
-0.011780491 -0.065634191 0.67195141
-0.011780491 -0.065634191 0.67195141
0.0033402552 -0.016701281 0.67040634
0.0033402552 -0.016701281 0.67040634
0.010077896 -0.0033593178 0.67155576
0.015069068 0.013394743 0.67091489
0.018453071 0.020968616 0.67130256
0.020103201 0.026804268 0.67102671
0.0050930199 -0.02716276 0.67373145
0.0050930199 -0.02716276 0.67373145
0.008425476 -0.010953903 0.67221308
0.028710298 0.043064669 0.67266524
0.032691382 0.052977186 0.67290348
-0.0017071116 -0.051213324 0.67487073
0 -0.049672216 0.67556167
0.0051219459 -0.032438993 0.67489535
0.011952631 -0.013660133 0.6749199
0.01702033 0.0034040809 0.6742577
0.018820517 0.0034219027 0.67533481
0.027418382 0.025704771 0.67565984
0.028899588 0.037399471 0.67400932
-0.080781996 -0.061016217 0.67627752
0.00086589588 -0.055270985 0.67729783
0.010318046 -0.02493611 0.67638719
0.012915864 -0.018939927 0.67664522
0.017248072 -0.0086240172 0.67700678
0.025009602 0.012934007 0.67698693
0.030935651 0.032654285 0.67626321
0.034342345 0.042927951 0.6760785
-0.0017366861 -0.067730755 0.67844069
-0.0017333481 -0.065867186 0.67803776
0.040049899 0.045273811 0.67899764
0.043409493 0.057300508 0.67840368
0.0052922112 -0.063506544 0.68174618
0.0070255706 -0.054448158 0.68081945
0.028958889 0.0070197731 0.68064427
0.019447535 -0.026519358 0.68221551
0.02652264 -0.007072717 0.68224186
0.03203417 0.0017796755 0.68362999
0.03563083 0.010689259 0.68385518
0.03563083 0.010689259 0.68385518
0.035351615 0.017675817 0.68217003
0.040918682 0.026686102 0.68355727
0.048040945 0.046261668 0.68358392
0.04960154 0.054915994 0.68264103
0.016993038 -0.044712067 0.6846931
0.017827511 -0.039220512 0.68400121
-0.085828826 -0.037550122 0.6846469
0.028756749 -0.017075211 0.68575704
-0.085828826 -0.010728598 0.6846469
0.032288924 -0.0053814948 0.68533844
-0.085828826 0.0035762191 0.6846469
0.033932049 0.0035718083 0.68438101
0.041326154 0.01796791 0.68569577
0.048519399 0.03773734 0.68572295
0.014417841 -0.059473604 0.68635261
0.027216133 -0.030844957 0.68782264
0.028842831 -0.019829452 0.68640649
0.039865565 0.0054362118 0.68754047
0.057714731 0.059518337 0.68651611
0.016442304 -0.067596138 0.68933326
0.031002793 -0.025531709 0.68894339
0.034687392 -0.016430885 0.6891799
0.051107012 0.029203981 0.68913132
0.02207043 -0.058854461 0.69081551
0.023849575 -0.051368326 0.69025779
0.031383455 -0.03692168 0.69164634
0.038772643 -0.016616821 0.69167423
0.044067793 0.0036723316 0.69044805
0.047791921 0.012867093 0.69068855
0.056846905 0.040342957 0.69015992
0.024244035 -0.067137331 0.69392061
0.024194004 -0.065137684 0.69345599
0.027946753 -0.05589354 0.69370222
0.0296121 -0.044418126 0.69221014
0.040766291 -0.014824092 0.69248259
0.053999096 0.016758353 0.69357198
0.057726987 0.027000383 0.69358683
0.057726987 0.027000383 0.69358683
0.064915985 0.051004499 0.69269133
0.064716399 0.053622186 0.69200301
0.030043572 -0.058209419 0.69546539
0.037637617 -0.039519489 0.6959672
0.037403613 -0.033663273 0.69455492
0.039500307 -0.033857375 0.69585693
0.046932451 -0.011263758 0.69541407
0.054223005 0.013088346 0.69450402
0.067501478 0.046876043 0.69514161
0.033907074 -0.050860614 0.69619
0.033907074 -0.050860614 0.69619
0.037795354 -0.043464661 0.69691932
0.037716322 -0.041487902 0.69644225
0.04732633 -0.018930525 0.69731587
0.050849054 -0.0037665665 0.69613832
0.058511902 0.015099883 0.69664317
0.06593252 0.037675738 0.69619727
0.036303665 -0.059232295 0.69944835
0.043674767 -0.032281339 0.69802195
0.047626056 -0.024765551 0.69876313
0.055370558 -0.0057279766 0.69928062
0.072384603 0.043811738 0.69874084
0.072232038 0.045620263 0.69825613
0.074567497 0.045887679 0.69960135
0.07660377 0.049792469 0.69997644
0.038521536 -0.061634481 0.70130217
0.042151548 -0.045983493 0.70008332
0.06952437 0.021243572 0.7019245
0.042695623 -0.05822131 0.70306861
-0.097251184 -0.038900495 0.70358926
0.050574154 -0.038903147 0.70360565
0.050249007 -0.032855123 0.7020961
0.056082752 -0.017404974 0.702245
0.057987452 -0.011597455 0.70212758
0.067772336 0.013554484 0.70254254
0.070125043 0.013635427 0.7039386
0.07775934 0.036935687 0.70346367
0.045000967 -0.060653448 0.70498228
0.054644868 -0.031225652 0.70438337
0.058742635 -0.023497045 0.70516622
0.078435317 0.029413253 0.70550358
0.086103424 0.05283621 0.70502234
0.049291443 -0.05717808 0.70680428
0.051461708 -0.055420309 0.70772636
0.08704748 0.043523759 0.70761234
0.091110222 0.053477705 0.70789057
0.049946416 -0.069924951 0.70996678
0.071831122 -0.0079812407 0.70965922
0.085487865 0.033797532 0.7087878
0.060179435 -0.046137542 0.71094745
0.065947674 -0.02597934 0.71003401
0.072310783 -0.014060438 0.71126759
0.082139581 0.016027242 0.71063644
0.088601671 0.028191447 0.71187603
0.088601671 0.028191447 0.71187603
0.064844869 -0.044580817 0.71341252
0.079093449 -0.0060841143 0.71360987
0.087022223 0.018213958 0.71309507
0.063278124 -0.057154417 0.71520233
0.07161504 -0.036830574 0.71579558
0.077629775 -0.018386006 0.7154026
0.077279985 -0.014235795 0.71429145
0.079271711 -0.0081304312 0.71416163
0.088009335 0.0081869364 0.71586615
0.084388472 -0.0082330108 0.7172575
0.064002164 -0.068131328 0.71802169
0.079062201 -0.035369962 0.71995294
0.085758179 -0.023008287 0.72129017
0.088006042 -0.018858433 0.72173905
0.088006042 -0.018858433 0.72173905
0.078471735 -0.059383988 0.7248143
0.079216562 -0.068511605 0.72724426
0.085496984 -0.049160779 0.72681409
-0.046289437 0.046072837 0.6269545
-0.047215551 0.02192013 0.63164473
-0.046587523 0.029982712 0.6302706
-0.036066111 0.060110211 0.63004726
-0.049493141 0.0058827922 0.63376004
-0.052717201 -0.014567122 0.6362654
-0.057168897 -0.010109119 0.6371187
-0.049206287 -0.0060212067 0.63651812
-0.029145112 0.050308555 0.63633394
-0.057942703 -0.058127329 0.64258808
-0.057942703 -0.058127329 0.64258808
-0.042583268 -0.017804345 0.64305663
-0.046848916 -0.049562648 0.64739239
-0.032781404 0.0018196665 0.64468241
-0.029875014 0.0096544847 0.64472663
-0.026377508 0.010167453 0.6467163
-0.011086913 0.049896996 0.64727223
-0.011086913 0.049896996 0.64727223
-0.049631611 -0.062536061 0.64853859
-0.049048748 -0.059453011 0.64821947
-0.040595304 -0.037988938 0.64863545
-0.063983046 -0.030131534 0.6484189
-0.026416827 -0.0098132491 0.65103292
-0.026416827 -0.0098132491 0.65103292
-0.019697525 0.0056802332 0.65170425
-0.019697525 0.0056802332 0.65170425
-0.018012328 0.01801385 0.65003753
-0.018012328 0.01801385 0.65003753
-0.013750694 0.030258743 0.64993787
-0.040981121 -0.054641485 0.65202111
-0.026244458 -0.025695603 0.65458643
-0.067745149 -0.014241874 0.65465784
-0.014625353 0.0060036345 0.65468121
-0.067745373 0.041955948 0.65465844
-0.0269196 -0.05225569 0.6599502
-0.02199888 -0.025906745 0.65718299
-0.0046622986 0.025641963 0.65640056
-0.0023460675 0.025826737 0.65775222
0.0031046029 0.048121363 0.65618348
0.010045134 0.057902724 0.65822858
-0.026073707 -0.061788216 0.66252911
-0.017568436 -0.034215417 0.66164947
-0.009561873 -0.010365024 0.66127872
-0.0062468736 -0.0059310435 0.66230708
-0.016643792 -0.046280749 0.6648258
-0.013847005 -0.04154785 0.66547787
0.0020430298 0.002035426 0.66555691
0.0082294904 0.010284796 0.6674816
0.011340875 0.033211842 0.66437048
-0.01408906 -0.058022104 0.66891098
-0.076111957 -0.053774744 0.66853297
-0.0055238097 -0.034256846 0.66889447
0.0016773688 -0.022293191 0.67062187
0.016814139 0.014291212 0.67176878
0.03363806 0.060548514 0.67182779
-0.0059680277 -0.062262058 0.67471093
0.010030326 -0.014272267 0.6738978
0.01221858 -0.03403832 0.67950594
0.012624366 -0.030469082 0.67897463
0.027549278 0.021522045 0.67664742
-0.080782294 0.057578877 0.67627829
0.045227751 0.041677386 0.6828897
0.045761332 0.045979623 0.68227541
0.049846373 0.050735623 0.68369663
0.01346865 -0.058354333 0.68553901
0.01346865 -0.058354333 0.68553901
-0.085828826 -0.025927439 0.68464696
-0.085828826 0.018328033 0.68464696
0.053420395 0.026247099 0.69116318
0.057856392 0.041551109 0.69050395
0.058179926 0.052725583 0.68827093
0.06458398 0.055357724 0.69154632
0.021668985 -0.069953345 0.69298524
0.027257156 -0.05512958 0.69312215
0.031447705 -0.038847178 0.69210255
-0.091299929 -0.025619872 0.69371998
0.05343128 -0.010496438 0.69915152
0.05343128 -0.010496438 0.69915152
0.061072335 0.010495797 0.69918168
0.076959461 0.054697365 0.69912434
0.049193028 -0.03375899 0.70165825
0.077927001 0.035067141 0.70396966
0.050268032 -0.054208472 0.7067464
0.069258846 -0.0059364438 0.70766932
0.069472156 0.0068480223 0.70502031
0.073630452 0.014724441 0.70580751
0.049946416 -0.069924951 0.70996678
0.056163728 -0.057167754 0.7109313
0.076248646 -0.0020065308 0.71101534
0.057701465 -0.069917396 0.71462429
0.061857827 -0.053743713 0.71360809
0.078104049 -0.0091297999 0.71367717
0.078104049 -0.0091297999 0.71367717
0.090770446 0.032273918 0.71229219
0.075971469 -0.028745949 0.71665728
0.088623397 -0.025320947 0.72351336
0.088313952 -0.022079706 0.72262406
0.081699938 -0.066649973 0.72833192
