# .PCD v0.7 - Point Cloud Data file format
VERSION 0.7
FIELDS x y z
SIZE 4 4 4
TYPE F F F
COUNT 1 1 1
WIDTH 722
HEIGHT 1
VIEWPOINT 0 0 0 1 0 0 0
POINTS 722
DATA ascii
-0.012359554 0.041573048 0.60443413
-0.013585612 0.039624721 0.60546482
-0.010206105 0.039690405 0.60569143
-0.0091143502 0.037596703 0.60632902
-0.0069000246 0.03335014 0.60762191
-0.0069000246 0.03910014 0.60762191
-0.0046436707 0.025540233 0.60893923
-0.005777183 0.028885901 0.60827768
-0.005777183 0.028885901 0.60827768
-0.01391044 0.037094474 0.60873234
-0.01391044 0.037094474 0.60873234
-0.0034993617 0.01982975 0.60960758
-0.0034993617 0.037326545 0.60960758
-0.0034993617 0.037326545 0.60960758
-0.0034993617 0.046658158 0.60960758
-0.010533603 0.030430436 0.61008394
0 0.033134669 0.61165088
0.0023898815 0.010754466 0.61304623
0.0036024123 0.019212842 0.61375403
0.0023898815 0.027483642 0.61304623
0.0023898815 0.028678596 0.61304629
0.0036024123 0.042028129 0.61375403
0.0048269131 0.047062427 0.61446911
0.0048269131 0.049475878 0.61446911
0.0073125046 -0 0.61592031
0.0073125046 0.010968775 0.61592036
0.0060635405 0.042444795 0.61519098
0.008573954 0.0048993826 0.61665666
0.008573954 0.0048993826 0.61665666
0.008573954 0.013473362 0.61665666
0.0085739763 0.029396474 0.61665708
0.0085739763 0.04164502 0.61665708
0.0085739763 0.04164502 0.61665708
0.0085739763 0.047769308 0.61665702
0.0085739763 0.048994154 0.61665702
0.0098481206 0.046778589 0.61740077
0.012435287 -0.004974097 0.61891127
0.0037144683 -0 0.61826283
0.011135177 0.0074234605 0.61815244
0.011135177 0.012372434 0.61815244
0.012435287 0.019896477 0.61891127
0.011135177 0.021033138 0.61815238
0.012435287 0.027357668 0.61891139
0.011135177 0.034642786 0.61815244
0.011135177 0.034642786 0.61815244
0.012435287 0.039792895 0.61891133
0.011135177 0.051964164 0.61815238
0.013748715 -0.011248976 0.61967838
0.0087116016 -0.0087115765 0.6190303
0.013748715 0.0037496686 0.61967838
0 0.0049865544 0.61928713
-0.016178561 0.031112581 0.6190291
-0.016178561 0.031112581 0.6190291
0.013748715 0.051245213 0.61967838
0.015075595 -0.017588198 0.62045288
0.012574261 -0.016346514 0.6205889
0.015075595 -0.007537812 0.62045288
0.0050123525 -0.0037592947 0.62006527
0 0.003772229 0.62058806
0.015075595 0.040201575 0.62045288
0.016416211 -0.010102272 0.62123585
-0.012683813 0.022830904 0.62191129
0.016416211 0.059350938 0.62123579
0.01016484 -0.013976634 0.62217969
0.017770695 -0.0063467026 0.62202644
0.019139353 0.0038278699 0.62282574
0.017770695 0.0076160133 0.6220265
0.017770743 0.026656121 0.62202686
0.017770743 0.038080156 0.62202686
0.020522311 -0.02821818 0.62363303
0.020522311 -0.02821818 0.62363303
0.020522311 -0.014109105 0.62363303
0.020522311 -0.0076958537 0.62363303
0.020522367 0.032066196 0.62363344
0.020522367 0.032066196 0.62363344
0.020522367 0.041044712 0.62363338
0.020522367 0.06284979 0.62363344
0.021919902 -0.032235146 0.62444919
0.021919902 -0.024498731 0.62444925
-0.0090523446 0.014225125 0.62490618
0.021919902 0.027077556 0.62444919
0.021919902 0.028366923 0.62444919
-0.019363387 0.030981421 0.6246286
0.021919902 0.048997432 0.62444919
0.021919902 0.048997432 0.62444919
0.021919902 0.061891496 0.62444919
0.023332307 -0.010369897 0.62527406
0.023332307 -0.002592504 0.62527406
-0.0012978127 0.0012978017 0.62546396
0.023332307 0.0012962222 0.62527406
0.023332307 0.0064811707 0.62527406
0.023332307 0.0064811707 0.62527406
0.023332307 0.028517276 0.625274
0.023332307 0.034998447 0.62527406
0.026202431 -0.041923881 0.62694979
0.026202431 -0.032753021 0.62694979
0.018333061 -0.031428099 0.62687528
0.026202431 -0.02358219 0.62694979
0.026202431 -0.02358219 0.62694979
0.024759691 -0.015637696 0.62610722
0.026202431 0.00786075 0.62694973
0.024759691 0.01042518 0.62610722
0.024759691 0.01042518 0.62610722
0.024759691 0.019547135 0.62610722
-0.015657473 0.023486197 0.62630618
0.026202431 0.02620244 0.62694979
0.026202431 0.035373271 0.62694979
-0.024835506 0.037906796 0.62658894
0.026202431 0.04585427 0.62694979
0.027660634 -0.022391915 0.62780094
0.027660634 -0.019757569 0.62780094
0.027660634 -0.0065858662 0.627801
0.027660634 0.013171732 0.627801
0.027660634 0.015806079 0.62780094
0.027660713 0.055321425 0.62780142
0.025106695 -0.043606356 0.62831181
0.029134698 -0.030458987 0.62866181
0.0013189965 -0.0052759945 0.62802112
-0.017209303 0.023828268 0.6286
0.029134698 0.026486099 0.62866181
0.029134698 0.051647872 0.62866181
0.030624729 -0.023967177 0.62953162
0.0053340355 -0.013335109 0.6297729
0.030624814 -0.011983573 0.62953198
0.030624814 -0.0013315082 0.62953204
-0.0053242547 0.0039932132 0.62947774
0.030624814 0.011983663 0.62953204
0.030624814 0.026630282 0.62953204
0.030624814 0.035950869 0.62953204
0.03213115 -0.045519114 0.63041139
0.03213115 -0.020081997 0.63041133
0.03213115 0.042841524 0.63041133
0.03213115 0.046857953 0.63041133
0.033654056 -0.055192649 0.63130027
0.033654056 -0.040384889 0.63130033
0.033654153 0.012115538 0.63130075
0.033654153 0.047115803 0.63130075
0.033654153 0.056538969 0.63130075
0.033654153 0.063269824 0.63130075
0.035193913 -0.055498093 0.63219953
0.012225794 -0.027168423 0.63278008
0.035193913 -0.023011386 0.63219953
-0.014942507 0.016300917 0.6327787
0.035193913 0.031133085 0.63219953
0.035193913 0.036547512 0.63219953
0.035193913 0.041961968 0.63219953
0.035193913 0.041961968 0.63219953
0.035193913 0.047376454 0.63219953
0.035193913 0.059558958 0.63219953
0.036750909 -0.042195499 0.63310885
0.036750909 -0.028584033 0.63310885
0.036750909 -0.014972568 0.63310879
0 -0.0081810653 0.63339418
-0.010887622 0.00952667 0.63308561
0.036750909 0.013611466 0.63310879
-0.023223074 0.028687328 0.63370252
-0.023223074 0.028687328 0.63370252
0.036750909 0.031306356 0.63310879
0.036750909 0.035389781 0.63310879
0.036750909 0.059890389 0.63310885
0.036750909 0.062612683 0.63310885
0.03991735 -0.064693645 0.63495755
0.03991735 -0.064693645 0.63495755
0.038325217 -0.058856577 0.63402784
0.03991735 -0.050929025 0.63495755
0.038325217 -0.030112684 0.63402778
0.03991735 -0.02890566 0.63495755
0.038325217 -0.019162625 0.63402778
0.0013686427 -0.010949135 0.63401395
0.038325217 -0.010950059 0.63402784
-0.0041214339 -0.0027476251 0.63463783
0.038325217 -0.0013687611 0.63402784
0.038325217 0.0041062832 0.63402778
0.038325217 0.0068438053 0.63402772
0.038325217 0.01231882 0.63402784
0.038325328 0.035587817 0.63402826
0.03991735 0.04679966 0.63495755
0.03991735 0.06056428 0.63495755
0.019379957 -0.041528463 0.63590181
0.041527383 -0.027684927 0.6358974
0.041527506 -0.022147983 0.63589787
0.041527506 -0.013842463 0.63589787
0.041527506 -0.0027684867 0.63589787
0.041527506 0.03322202 0.63589787
0.041527506 0.055370003 0.63589787
0.041527506 0.065059781 0.63589787
0.041527506 0.067828268 0.63589787
0.032021508 -0.062650755 0.63686228
0.04315586 -0.047332227 0.63684839
0.04315586 -0.043155849 0.63684845
0.04315586 -0.040371597 0.63684845
0.04315586 -0.029234618 0.63684845
0.04315586 -0.026450336 0.63684845
-0.0027844459 -0.0069611073 0.63686031
0.04315586 0.0055684745 0.63684845
0.04315586 0.0055684745 0.63684845
0.04315586 0.015313387 0.63684845
0.04315586 0.036195248 0.63684845
0.030806158 -0.061612308 0.63783282
0.030806158 -0.061612308 0.63783282
0.044802986 -0.04340291 0.63781029
0.044802986 -0.015401006 0.63781035
-0.0055795605 -0.0027897954 0.63718224
0.044802986 0.022401512 0.63781035
0.044802986 0.028001904 0.63781029
0.046468932 -0.064774856 0.6387828
0.046468932 -0.057734132 0.6387828
0.046468932 -0.036611855 0.6387828
0.046468932 -0.032387406 0.6387828
0.046468932 -0.022530407 0.6387828
0.046468932 -0.0014081299 0.63878274
0.046468932 0.012673348 0.63878286
-0.033801228 0.040843129 0.63881117
0.046468932 0.046468943 0.6387828
0.046468932 0.061958581 0.63878286
0.046468932 0.064774871 0.6387828
0.046468932 0.064774871 0.6387828
0.048154309 -0.046737999 0.63976705
0.048154309 -0.045321703 0.63976705
0.048154309 -0.031158686 0.63976705
0.0028277587 -0.018380433 0.63947439
0.048154309 -0.0070815086 0.63976705
-0.0084667839 -0 0.63914263
0.048154309 0.018411934 0.63976705
0.048154309 0.065149993 0.63976699
0.049859162 0.018519133 0.64076221
0.049859162 0.018519133 0.64076221
0.051584143 -0.057315707 0.64176953
0.051584143 -0.051584125 0.64176959
0.051584143 -0.017194688 0.64176959
0.051584143 0.025792092 0.64176959
0.051584143 0.025792092 0.64176959
0.051584143 0.030090779 0.64176953
0.053329289 -0.061977267 0.64278829
0.02734236 -0.060441017 0.64251542
0.020146942 -0.048928291 0.64251494
0.015798466 -0.041650534 0.64217174
0.015798466 -0.041650534 0.64217174
-0.030219952 0.031659007 0.64251226
-0.030219952 0.031659007 0.64251226
0.053329449 0.049005449 0.64278877
0.053329449 0.054770797 0.64278883
0.055095278 -0.057995021 0.64381963
0.055095278 -0.018848389 0.64381963
-0.013054809 0.0029010475 0.64389914
0.055095278 0.002899766 0.64381957
-0.014447693 0.0057790875 0.6432032
0.055095278 0.010149121 0.64381963
0.056882154 -0.055423647 0.64486271
0.056882329 -0.046672672 0.64486319
0.056882329 -0.03062892 0.64486325
0.056882329 -0 0.64486319
0.056882329 0.036463022 0.64486319
0.058690637 -0.042550713 0.64591879
0.0014651506 -0.021977276 0.64566344
0.058690637 0.010270864 0.64591879
0.058690637 0.01907444 0.64591885
0.058690637 0.01907444 0.64591885
0.058690637 0.036681622 0.64591885
0.060520954 -0.014761209 0.64698768
-0.0088086287 -0.0058724284 0.64602005
0.060520954 2.9802322e-08 0.64698768
-0.023489529 0.017617136 0.64601892
-0.0014830792 -0.019279987 0.64782763
-0.0059202206 -0.011840433 0.64746255
-0.038559571 0.040042669 0.64782536
0.062373299 -0.054947942 0.64806902
0.062373299 -0.053462803 0.64806896
0.062373299 -0.047522515 0.64806896
0.062373299 -0.047522515 0.64806896
0.062373493 0.016335934 0.6480695
0.062373493 0.023761332 0.6480695
0.062373493 0.0282166 0.6480695
0.062373493 0.0282166 0.6480695
-0.023973489 0.014983416 0.64967012
0.0075227944 -0.036109447 0.65042049
-0.0030153485 -0.019599736 0.65079647
0.066146679 -0 0.65027261
-0.019518748 0.0075072348 0.6500442
0.066146679 0.018040001 0.65027249
0.021195484 -0.059044585 0.65155566
0.068068154 2.9802322e-08 0.65139419
-0.019722339 0.0060684383 0.65193462
0.070013754 -0.054793388 0.65253037
0.070013754 -0.044139117 0.65253037
0.070013754 -0.042617053 0.65253037
0.070013754 -0.022830576 0.65253037
0.070013754 -0.021308511 0.65253037
0.070013754 -0.0076102018 0.65253043
0.070013754 -0.0015220344 0.65253037
0.070013754 0.0060881972 0.65253043
0.070013754 0.015220404 0.65253043
-0.030405313 0.022803992 0.65231645
-0.013739943 -0.0045799613 0.65308833
0.073978275 -0.040071577 0.65484512
0.073978275 -0.0046236217 0.65484512
0.075998113 -0.04497847 0.65602416
0.0077637257 -0.041924119 0.65623707
0.075998113 -0.0062039196 0.65602422
-0.012528874 -0.010962784 0.65785021
0.0047186883 -0.039322436 0.65866947
-0.0078474768 -0.018833935 0.65825891
-0.012665247 -0.012665242 0.65990794
-0.046212953 0.039838731 0.66116267
-0.041984316 0.030680865 0.66372544
0.0032367962 -0.042078346 0.6641621
-0.0048551778 -0.029131085 0.66416138
-0.011379372 -0.019507498 0.66503441
-0.030955873 0.011404812 0.66547281
-0.030955873 0.011404812 0.66547281
-0.045824248 0.034368187 0.66635686
-0.036167726 0.01808387 0.66725099
0.019862873 -0.072830528 0.66860926
-0.029793892 0.0066208839 0.6686064
-0.038069841 0.019862533 0.66860569
-0.035486426 0.01182881 0.67278469
-0.0084886719 -0.032256931 0.67373872
0.013613762 -0.068068832 0.67421991
-0.02042035 -0.013613582 0.67421699
-0.047983907 0.029133081 0.67566735
-0.053000107 0.037613004 0.67518085
-0.053000107 0.037613004 0.67518085
-0.048556007 0.02774629 0.67813373
-0.0017508742 -0.049024463 0.68015331
-0.0087967087 -0.038705528 0.68117547
-0.021163156 -0.019399554 0.68168908
0.0089044506 -0.06945473 0.68377656
-0.019981053 -0.027246863 0.68807012
-0.019981053 -0.027246863 0.68807012
0.0036882234 -0.068232149 0.6914081
-0.044597179 0.007432878 0.69311059
-0.053888258 0.022298604 0.69311059
-0.037451487 -0.0056177378 0.69484383
-0.051352713 0.013313681 0.69839007
-0.064835742 0.034324825 0.6989913
-0.040151242 -0.0057358742 0.69959861
-0.015336167 -0.046008468 0.70020896
-0.019220812 -0.040363729 0.70081985
-0.065697074 0.032848537 0.70204937
-0.065697074 0.032848537 0.70204937
-0.0097391475 -0.058434874 0.70392793
-0.048695136 0.0038956106 0.70392507
-0.068172634 0.035060197 0.70392311
-0.060870722 0.021599293 0.70582819
-0.035440303 -0.019689053 0.7064721
-0.054187022 0.0060207546 0.7110616
-0.056662966 0.008094728 0.71308357
-0.042975906 -0.016371757 0.71583509
-0.069384128 0.026529223 0.71513957
-0.069384128 0.026529223 0.71513957
-0.035086311 -0.030958474 0.71793896
-0.084319495 0.036754668 0.72978526
-0.034696274 -0.043370366 0.73056734
-0.02181541 -0.065446228 0.73213947
-0.066441856 0.0022147894 0.7361455
-0.083016306 0.018448085 0.74716395
-0.072638258 -0.0023431778 0.75164974
-0.055873506 -0.038868517 0.76204449
-0.055873506 -0.038868517 0.76204449
-0.010326036 0.032696858 0.60730004
-0.0085633583 0.034829751 0.60665071
-0.016126037 0.041466951 0.60784584
-0.0050403783 0.022870472 0.60917544
-0.0034993617 0.029161334 0.60960758
-0.0052104266 0.035324417 0.60860848
-0.0011797496 0.014745831 0.61121249
-0.0082458807 0.025915623 0.61099923
-0.0011776836 0.040630072 0.61096311
-0.00358035 0.016708285 0.61286628
0.0031982353 0.042758327 0.61351812
-0.0048373016 0.01693058 0.61478269
0.0066880225 0.023098886 0.61555564
0.0048269131 0.024737939 0.61446911
-0.015130717 0.033285767 0.61490464
-0.015130717 0.033285767 0.61490464
0.0068961829 0.0348791 0.61567724
0.0036831149 0.0012277365 0.61700118
0.0092110485 0.041135803 0.61702889
0.011135148 -0.0049489439 0.61815202
0.011135148 -0.0049489439 0.61815202
-0.0087042535 0.019271076 0.61890364
0.013092 0.023064062 0.61929488
0.013092 0.023064062 0.61929488
0.013092001 0.041141316 0.61929488
0.013092001 0.051114947 0.61929488
0.015134913 -0.020812988 0.62104958
0.016416211 -0.017047599 0.62123585
0.0075707245 -0.0088325143 0.62111533
0.0025105034 -0 0.6203264
0.015075595 0.052764595 0.62045288
0.015075595 0.057161629 0.62045288
0.017770695 -0.01078935 0.62202644
0.017770695 0.0031733513 0.62202644
0.017770743 0.0088854134 0.62202686
0.017770743 0.0088854134 0.62202686
-0.0063977153 0.011515915 0.62325859
0.017770743 0.019040078 0.62202692
0.017770743 0.020944074 0.62202686
0.017770743 0.031098813 0.62202686
0.017770743 0.031098813 0.62202686
0.017770743 0.036810815 0.62202686
0.019139353 0.037002772 0.62282574
0.019139353 0.04529649 0.62282574
0.020522367 0.050664634 0.62363338
0.019139353 0.062521905 0.62282574
0.022922296 -0.036763124 0.62543076
0.023332244 -0.027220935 0.62527359
0.021919902 -0.025143415 0.62444919
0.012909065 -0.02065447 0.62463033
0.023332307 -0.016851097 0.625274
0.021919902 0.0051576197 0.62444925
-0.0038658341 0.0064430535 0.62435329
0.021919902 0.0070917457 0.62444913
0.023332307 0.011018023 0.62527406
0.023332307 0.022684202 0.625274
-0.021984207 0.034916133 0.62490582
0.023332307 0.034998447 0.62527406
0.023332307 0.055090174 0.62527406
0.023332307 0.055090174 0.62527406
0.026972705 -0.044733986 0.62762386
0.024759691 -0.039094239 0.62610722
0.024759691 -0.033230111 0.62610722
0.024759691 -0.029320672 0.62610722
0.026931534 -0.022988819 0.62737536
0.024759691 -0.0091219842 0.62610722
0.00065357133 -0.0032749176 0.62701786
0.026931532 0.00065684319 0.62737536
0.026931532 0.017077416 0.62737536
-0.02677409 0.041139752 0.62644827
0.026931573 0.061084688 0.6273756
0.026931573 0.061084688 0.6273756
0.030624729 -0.047268577 0.62953156
0.0212972 -0.03860116 0.62947911
0.030624729 -0.035285026 0.62953162
0.029134698 -0.015229493 0.62866181
0.030624729 -0.015312359 0.62953162
0.030624729 -0.013315082 0.62953156
0.0039859153 -0.010629058 0.62918496
-0.018634839 0.025290132 0.62947726
0.030624814 0.035285115 0.62953204
0.029134698 0.054958627 0.62866187
0.033654056 -0.059231132 0.63130033
0.032892652 0.014767304 0.63085604
-0.014804242 0.01749593 0.63126141
0.032892652 0.053028047 0.63085604
0.035193913 -0.039254755 0.63219959
0.036750909 -0.029264614 0.63310885
0.036750909 -0.010889143 0.63310885
0.035193913 -0.002707243 0.63219959
0.035193913 -0.002707243 0.63219959
0.036750909 -0.0027222633 0.63310885
0.036750909 0.010889143 0.63310879
0.036750909 0.010889143 0.63310879
-0.014942507 0.016300917 0.6327787
0.036750909 0.03879264 0.63310885
0.041527383 -0.047064334 0.6358974
0.017927404 -0.038612872 0.63526785
0.015198171 -0.034541279 0.63558424
-0.0027580461 -0.0055161119 0.6352669
0.041527506 -0.0027684867 0.63589787
0.041527506 -0.0027684867 0.63589787
0.041527506 0.019379497 0.63589787
-0.026003987 0.032847166 0.63401246
0.039121337 0.068630576 0.63449293
0.023577699 -0.048542336 0.63622057
0.044802986 -0.026601791 0.63781029
0.0055903024 -0.020963609 0.63750643
-0.026502755 0.030687392 0.63718128
-0.02934883 0.03493908 0.63750494
0.044802986 0.046903133 0.63781035
0.044802986 0.056703791 0.63781035
0.031105623 -0.063625127 0.639476
0.028059643 -0.057522267 0.63815904
0.048154309 -0.043197259 0.63976705
0.046468932 -0.0070407689 0.6387828
0.046468932 -0.0070407689 0.6387828
0.046468932 0.011265159 0.6387828
0.046468932 0.011265159 0.6387828
0.048154309 0.02478531 0.63976705
0.046468932 0.030979276 0.63878286
0.046468932 0.030979276 0.63878286
0.048154309 0.048862472 0.63976705
0.046468932 0.054917842 0.6387828
0.048154309 0.060901046 0.63976705
0.048154309 0.060901046 0.63976705
0.051584143 -0.055166371 0.64176959
0.049859162 -0.042736411 0.64076221
0.049859162 -0.039175034 0.64076221
0.051584143 -0.037255198 0.64176953
0.011355235 -0.032646298 0.64014137
0.051584143 -0.01504539 0.64176959
0.051584143 0.0050151497 0.64176953
-0.018560747 0.014277518 0.64114875
-0.024914501 0.024914503 0.64064378
0.051584143 0.028657883 0.64176959
0.049859315 0.054845244 0.64076275
0.017303055 -0.044699579 0.64285946
0.055095278 -0.039146632 0.64381957
0.053329289 -0.017295957 0.64278829
-0.0058021373 -0.008703202 0.64389908
-0.012925901 0.0043086112 0.64217019
0.055095278 0.023198009 0.64381957
0.053329449 0.051167458 0.64278877
0.055095278 0.050745666 0.64381963
0.0051001897 -0.026967525 0.64477897
0.058690637 -0.011004493 0.64591885
0.058690637 -0.011004493 0.64591885
-0.013186315 0.0014651418 0.6456629
0.056882329 0.0029170215 0.64486319
0.056882329 0.016773015 0.64486325
0.056882329 0.032816738 0.64486325
-0.0014681093 -0.017617315 0.64602059
-0.036851108 0.038325131 0.64673704
0.029126216 -0.069458 0.64911813
0.064248465 -0.055283546 0.64916402
0.013485258 -0.044950843 0.64967239
0.062373299 -0.038612038 0.64806896
0.064248465 -0.019423962 0.64916402
0.062373299 -0.0170784 0.64806896
-0.0059811021 -0.013457477 0.64929986
0.064248465 -0.0052295178 0.64916402
-0.016481824 0.0029967129 0.64967072
0.064248465 0.014941484 0.64916402
0.064248465 0.014941484 0.64916402
0.022568528 -0.06018275 0.65042162
0.013625626 -0.046932697 0.65155506
0.066146471 -0.046603203 0.65027201
0.066146471 -0.042844862 0.65027195
0.066146471 -0.030818254 0.65027201
0.066146471 -0.030818254 0.65027201
0.066146679 -0.021046668 0.65027261
0.066146679 -0.018791661 0.65027255
0.068068154 -0.0045378804 0.65139425
0.066146679 0.0045100152 0.65027255
0.066146679 0.0045100152 0.65027255
0.066146679 0.012778357 0.65027255
0.068068154 0.016638905 0.65139419
0.070998624 -0.048857629 0.65310526
0.0045704134 -0.033516347 0.65270329
0.070998624 -0.012977794 0.65310532
0.070998624 -0.012977794 0.65310532
-0.012264753 -0.0076654851 0.65386498
-0.030405313 0.022803992 0.65231645
0.026340585 -0.071274519 0.65583885
-0.038408093 0.033799142 0.65425479
-0.020359419 0.001566112 0.65785021
-0.028189871 0.014094949 0.65784955
-0.043850619 0.039152324 0.65784836
0.014217584 -0.05529061 0.65949458
-0.0063051842 -0.022068113 0.65907985
-0.044327915 0.037995368 0.65990597
-0.0015970723 -0.031941444 0.66158783
-0.0015970723 -0.031941444 0.66158783
-0.011130567 -0.015900791 0.66074383
-0.030277556 0.01434198 0.66116333
-0.038245205 0.027090371 0.66116261
-0.038668867 0.025779247 0.66329348
-0.038668867 0.025779247 0.66329348
0.011328827 -0.055025727 0.6641627
-0.017962135 -0.0097975135 0.66591513
-0.030955873 0.011404812 0.66547281
0 -0.039367229 0.66680598
-0.046345729 0.033104122 0.66860497
-0.043430839 0.026726693 0.67044127
-0.0067436933 -0.033718437 0.67231309
-0.022019049 -0.010162652 0.67326063
0.01023424 -0.063111126 0.67470115
-0.03084702 0.0017137229 0.67566884
-0.040936224 0.01876241 0.6746974
-0.015533414 -0.024163097 0.67714292
-0.031214805 -0 0.67813528
0 -0.05278042 0.68117625
-0.0053954963 -0.048559487 0.68590212
-0.0482012 0.021422744 0.68430042
-0.0090147955 -0.043271005 0.68644059
-0.016307453 -0.032614887 0.68752456
-0.027044181 -0.014423549 0.68643886
-0.031112896 -0.010981023 0.68972528
-0.0073391851 -0.049539477 0.6902836
-0.02568705 -0.020182669 0.69028276
-0.046219308 0.011092663 0.69197071
-0.044597179 0.007432878 0.69311059
-0.0037548649 -0.060077816 0.69543022
-0.014942226 -0.041091114 0.69426489
-0.043517388 0.00189206 0.69719601
-0.011471876 -0.051623434 0.69960046
-0.050373025 0.0077497363 0.70267189
-0.065697074 0.032848537 0.70204937
-0.01367138 -0.052732468 0.70455867
-0.048299573 -0.0040249527 0.71173221
-0.020293521 -0.050733805 0.71376854
-0.026308142 -0.040474057 0.71308672
-0.073672026 0.032743126 0.71583188
-0.073672026 0.032743126 0.71583188
-0.014447369 -0.063981175 0.71794009
-0.051129367 -0.012782305 0.72596496
-0.017400196 -0.071775764 0.73135281
-0.05078429 -0.022080123 0.73533487
-0.0572345 -0.011006624 0.73452783
-0.022147598 -0.068657577 0.73614931
-0.044979688 -0.035983741 0.74028057
-0.027498195 -0.068745494 0.74541467
-0.027498195 -0.068745494 0.74541467
-0.076340795 0.0069400966 0.74805105
-0.068839394 -0.011868864 0.75534385
-0.043727316 -0.058303028 0.76204604
-0.056822561 -0.04199928 0.76702541
-0.056822561 -0.04199928 0.76702541
-0.005304886 0.042159602 0.60855335
-0.0024077946 0.013823207 0.61394745
-0.0069005196 0.021294326 0.61364436
0.0020926392 0.042069852 0.61287254
0.0020926392 0.042069852 0.61287254
0.0057574678 0.046025582 0.61501241
0.013754502 -0.016880795 0.61974192
0.013092001 0.014025457 0.61929488
0.0050123525 -0.0037592947 0.62006527
-0.0071828957 0.014150347 0.62178206
0.017775435 0.057966925 0.62202948
0.020522367 0.064132392 0.62363344
0.025845613 -0.038106333 0.62674129
0.025845613 -0.038106333 0.62674129
0.022626104 0.04201588 0.6248616
0.025845632 0.042031538 0.62674141
0.022626106 0.053975355 0.6248616
0.032892652 -0.029870227 0.63085604
0.013176057 -0.02602667 0.62992811
-0.014013078 0.017510619 0.62988955
0.029879756 0.030209936 0.62909693
0.029879756 0.030209936 0.62909693
-0.028751317 0.040785968 0.6302166
0.037936043 -0.062191367 0.63380051
0.022865986 -0.045738868 0.6344372
0.016724266 -0.03516259 0.63363379
0.0040791584 -0.014280215 0.63293678
0.035193913 0.021996185 0.63219953
0.037936125 0.022040199 0.63380092
0.04563589 -0.050021231 0.63829631
0.04563589 -0.050021231 0.63829631
0.019756008 -0.045156568 0.63914418
0.021402244 -0.046063773 0.63729435
0.04315586 -0.033759028 0.63684845
0.045635957 -0.017902531 0.63829654
0.045635957 -0.017902531 0.63829654
0.04315586 -0.014269255 0.63684845
0.04315586 0.014269292 0.63684845
0.04315586 0.042111777 0.63684845
0.048154309 0.046029866 0.63976705
0.011581275 -0.036191463 0.64355206
0.054212287 -0.037947088 0.64330393
0.054212287 -0.037947088 0.64330393
0.054212362 0.029996328 0.64330423
0.053329449 0.054050148 0.64278877
0.060520954 -0.053878397 0.64698768
0.060520954 -0.009963803 0.64698768
-0.0091917543 -0.0055198073 0.646299
-0.020720707 0.011840403 0.64746201
-0.027837602 0.024907351 0.64566183
-0.033754811 0.034118921 0.64593571
0.068068154 -0.054076366 0.65139425
0.062373299 -0.037869483 0.64806896
0.06519752 -0.026040044 0.64971817
-0.0074457498 -0.010424048 0.6485604
-0.033569932 0.029808477 0.65023685
0.071162768 -0.034115225 0.6532011
0.071162768 -0.034115225 0.6532011
0.07083448 -0.0020357296 0.65300947
0.070998624 0.0099242106 0.65310526
-0.041350752 0.039049476 0.65367365
0.011022537 -0.049605682 0.65888095
-0.012665247 -0.012665242 0.65990794
-0.012665247 -0.012665242 0.65990794
-0.019080907 -0.0031801462 0.66074318
0.013924288 -0.06144014 0.66658586
-0.0081557464 -0.025287375 0.66570127
-0.030212987 0.0097960979 0.66592294
0.017234867 -0.070055701 0.6701414
-0.030087886 0.0017004212 0.67438191
-0.038426336 0.014518499 0.6749422
-0.044451866 0.023935646 0.67518163
0.002607509 -0.05482015 0.6788916
-0.015042238 -0.026036572 0.67830819
-0.015042238 -0.026036572 0.67830819
-0.020909622 -0.017424673 0.67913866
-0.020909622 -0.017424673 0.67913866
-0.029446628 -0.0026033819 0.6778937
0.0061471728 -0.062379003 0.68092239
-0.045299143 0.017760888 0.68324935
-0.054606751 0.034344077 0.68143696
0.0053890673 -0.065572515 0.68564343
-0.0090147955 -0.043271005 0.68644059
-0.017068159 -0.029635578 0.68563652
-0.045073461 0.014423519 0.68643802
-0.060846988 0.04116118 0.68483007
-0.0055323131 -0.053479016 0.69140726
-0.036743399 -0.0027615428 0.69057012
-0.065539584 0.039323777 0.69484204
-0.015136664 -0.043517947 0.69719875
-0.035763141 -0.0094113648 0.69601434
-0.054034159 0.014467046 0.70175052
-0.008050032 -0.068425298 0.71173537
-0.034118045 -0.026090264 0.71106374
-0.060872894 0.017957836 0.70973325
-0.03877382 -0.022448003 0.71514171
-0.028976871 -0.041395545 0.71864831
-0.033210974 -0.035286695 0.7193616
-0.070717007 0.017143577 0.72747982
-0.047424462 -0.021556556 0.72901499
-0.065445326 0.0043630302 0.73213577
-0.079247035 0.024214387 0.73452532
-0.082431071 0.029678375 0.73412967
-0.027071686 -0.065423191 0.74112427
-0.033734925 -0.05397588 0.74028182
-0.033734925 -0.05397588 0.74028182
-0.059021045 -0.01589027 0.74282223
-0.067469202 2.9802322e-08 0.74027926
-0.078156769 0.011493683 0.74628508
-0.062860698 -0.016297191 0.74983954
-0.042313851 -0.051716924 0.75256711
-0.07571312 -2.9802322e-08 0.75440985
-0.066902168 -0.01672554 0.75722581
-0.056822561 -0.04199928 0.76702541
