# .PCD v0.7 - Point Cloud Data file format
VERSION 0.7
FIELDS x y z
SIZE 4 4 4
TYPE F F F
COUNT 1 1 1
WIDTH 1306
HEIGHT 1
VIEWPOINT 0 0 0 1 0 0 0
POINTS 1306
DATA ascii
-0.024636153 0.0061590374 0.61749643
-0.024636153 0.0049272478 0.61749643
-0.024636153 0.0036954582 0.61749649
-0.024636153 0.0024636388 0.61749643
-0.024636153 0.0012318194 0.61749643
-0.024636153 2.9802322e-08 0.61749643
-0.024636153 -0.0012317896 0.61749649
-0.024636153 -0.002463609 0.61749649
-0.024636153 -0.0036954284 0.61749649
-0.024636153 -0.0049272478 0.61749649
-0.024636153 -0.0061590374 0.61749649
-0.024636153 -0.0073908269 0.61749643
-0.024636153 -0.0086226761 0.61749649
-0.024636153 -0.0098544359 0.61749643
-0.024636153 -0.011086255 0.61749649
-0.024636153 -0.012318075 0.61749643
-0.024636153 -0.013549894 0.61749649
-0.024636153 -0.014781684 0.61749643
-0.024636153 -0.016013503 0.61749649
-0.024636153 -0.017245293 0.61749649
-0.024636153 -0.018477112 0.61749643
-0.024636153 -0.019708902 0.61749649
-0.024636153 -0.020940751 0.61749649
-0.024636153 -0.02217254 0.61749649
-0.024636153 -0.02340433 0.61749643
-0.024636153 -0.024636149 0.61749643
-0.024636153 -0.025867939 0.61749649
-0.024636153 -0.027099758 0.61749643
-0.024636153 -0.028331548 0.61749649
-0.024636153 -0.029563367 0.61749643
-0.024636153 -0.030795217 0.61749643
-0.024636153 -0.032027006 0.61749649
-0.024636153 -0.033258826 0.61749649
-0.024636153 -0.034490615 0.61749649
-0.024636153 -0.035722435 0.61749649
-0.022975594 0.037486523 0.61477256
-0.022975594 0.036277235 0.61477256
-0.022975655 0.035068125 0.61477292
-0.022975655 0.033858865 0.61477292
-0.022975655 0.032649636 0.61477292
-0.022975655 0.031440377 0.61477292
-0.022975655 0.030231118 0.61477292
-0.022975655 0.029021859 0.61477292
-0.022975655 0.02781263 0.61477292
-0.022975655 0.026603401 0.61477292
-0.022975655 0.025394142 0.61477292
-0.022975655 0.024184942 0.61477292
-0.022975655 0.022975683 0.61477292
-0.022975655 0.021766424 0.61477292
-0.022975655 0.020557165 0.61477292
-0.022975655 0.019347906 0.61477292
-0.022975655 0.018138677 0.61477292
-0.022975655 0.016929448 0.61477292
-0.022975655 0.015720189 0.61477292
-0.022975655 0.01451093 0.61477292
-0.022975655 0.0133017 0.61477292
-0.022975655 0.012092441 0.61477292
-0.022975655 0.010883212 0.61477292
-0.022975655 0.0096739531 0.61477292
-0.022975655 0.0084647238 0.61477292
-0.022975655 0.0072554648 0.61477292
-0.022975655 0.0060462654 0.61477292
-0.022975655 0.0048370063 0.61477292
-0.022975655 0.0036277473 0.61477292
-0.022975655 0.0024184883 0.61477292
-0.022975655 0.0012092292 0.61477292
-0.022975655 -0 0.61477292
-0.022975655 -0.001209259 0.61477292
-0.022975655 -0.0024184883 0.61477286
-0.022975655 -0.0036277175 0.61477292
-0.022975655 -0.0048369467 0.61477292
-0.022975655 -0.006046176 0.61477292
-0.022975655 -0.007255435 0.61477292
-0.022975655 -0.0084647238 0.61477292
-0.022975655 -0.0096739829 0.61477292
-0.022975655 -0.010883212 0.61477292
-0.022975655 -0.012092441 0.61477286
-0.022975655 -0.013301671 0.61477286
-0.022975655 -0.01451093 0.61477286
-0.022975655 -0.015720189 0.61477286
-0.022975655 -0.016929388 0.61477286
-0.022975655 -0.018138677 0.61477286
-0.022975655 -0.019347906 0.61477292
-0.022975655 -0.020557165 0.61477292
-0.022975655 -0.021766424 0.61477292
-0.022975655 -0.022975653 0.61477292
-0.022975655 -0.024184912 0.61477292
-0.022975655 -0.025394142 0.61477292
-0.022975655 -0.026603401 0.61477292
-0.022975655 -0.02781263 0.61477292
-0.022975655 -0.029021859 0.61477286
-0.022975655 -0.030231118 0.61477292
-0.022975655 -0.031440347 0.61477292
-0.022975655 -0.032649606 0.61477292
-0.022975655 -0.033858865 0.61477292
-0.022975655 -0.03506811 0.61477292
-0.022975655 -0.036277369 0.61477292
-0.021374837 0.037999719 0.61214691
-0.021374837 0.036812216 0.61214697
-0.021374837 0.035624743 0.61214697
-0.021374837 0.034437269 0.61214697
-0.021374837 0.033249766 0.61214691
-0.021374837 0.032062262 0.61214691
-0.021374837 0.030874759 0.61214697
-0.021374837 0.029687285 0.61214697
-0.021374837 0.028499752 0.61214697
-0.021374837 0.027312279 0.61214697
-0.021374837 0.026124805 0.61214697
-0.021374837 0.024937332 0.61214697
-0.021374837 0.023749828 0.61214697
-0.021374837 0.022562325 0.61214697
-0.021374837 0.021374822 0.61214697
-0.021374837 0.020187348 0.61214697
-0.021374837 0.018999845 0.61214697
-0.021374837 0.017812371 0.61214697
-0.021374837 0.016624898 0.61214697
-0.021374837 0.015437394 0.61214697
-0.021374837 0.014249891 0.61214697
-0.021374837 0.013062418 0.61214697
-0.021374837 0.011874914 0.61214697
-0.021374837 0.010687411 0.61214697
-0.021374837 0.0094999373 0.61214697
-0.021374837 0.0083124638 0.61214697
-0.021374837 0.0071249604 0.61214691
-0.021374837 0.0059374869 0.61214697
-0.021374837 0.0047499835 0.61214697
-0.021374837 0.0035624802 0.61214697
-0.021374837 0.0023750067 0.61214697
-0.021374837 0.0011875033 0.61214691
-0.021374837 2.9802322e-08 0.61214697
-0.021374837 -0.0011874437 0.61214691
-0.021374837 -0.0023749471 0.61214697
-0.021374837 -0.0035624504 0.61214691
-0.021374837 -0.0047499239 0.61214697
-0.021374837 -0.0059374571 0.61214697
-0.021374837 -0.0071249306 0.61214697
-0.021374837 -0.0083124042 0.61214697
-0.021374837 -0.0094999075 0.61214697
-0.021374837 -0.010687441 0.61214697
-0.021374837 -0.011874914 0.61214697
-0.021374837 -0.013062418 0.61214697
-0.021374837 -0.014249921 0.61214697
-0.021374837 -0.015437394 0.61214697
-0.021374837 -0.016624868 0.61214697
-0.021374837 -0.017812371 0.61214697
-0.021374837 -0.018999875 0.61214697
-0.021374837 -0.020187348 0.61214697
-0.021374837 -0.021374851 0.61214697
-0.021374837 -0.022562355 0.61214697
-0.021374837 -0.023749828 0.61214697
-0.021374837 -0.024937302 0.61214697
-0.021374837 -0.026124805 0.61214697
-0.021374837 -0.027312279 0.61214697
-0.021374837 -0.028499782 0.61214697
-0.021374837 -0.029687285 0.61214691
-0.021374837 -0.030874789 0.61214697
-0.021374837 -0.032062262 0.61214697
-0.021374837 -0.033249751 0.61214697
-0.021374837 -0.034437239 0.61214691
-0.021374837 -0.035624713 0.61214697
-0.019830598 0.037328184 0.60961378
-0.019830598 0.036161661 0.60961384
-0.019830598 0.034995168 0.60961384
-0.019830598 0.033828676 0.60961378
-0.019830598 0.032662183 0.60961378
-0.019830598 0.031495661 0.60961378
-0.019830598 0.030329168 0.60961378
-0.019830598 0.029162616 0.60961378
-0.019830598 0.027996153 0.60961378
-0.019830598 0.02682963 0.60961384
-0.019830598 0.025663137 0.60961384
-0.019830598 0.024496615 0.60961384
-0.019830598 0.023330122 0.60961384
-0.019830598 0.0221636 0.60961384
-0.019830598 0.020997107 0.60961384
-0.019830598 0.019830585 0.60961384
-0.019830598 0.018664092 0.6096139
-0.019830598 0.017497569 0.60961384
-0.019830598 0.016331106 0.60961378
-0.019830598 0.015164614 0.60961378
-0.019830598 0.013998091 0.60961384
-0.019830598 0.012831599 0.60961378
-0.019830598 0.011665076 0.60961378
-0.019830598 0.010498583 0.60961384
-0.019830598 0.0093320608 0.60961384
-0.019830598 0.0081655681 0.60961378
-0.019830598 0.0069990158 0.60961384
-0.019830598 0.0058325529 0.60961384
-0.019830598 0.0046660304 0.60961384
-0.019830598 0.0034995079 0.60961384
-0.019830598 0.0023330152 0.60961384
-0.019830598 0.0011665225 0.60961384
-0.019830598 -2.9802322e-08 0.60961384
-0.019830598 -0.0011664927 0.60961378
-0.019830598 -0.0023329854 0.60961378
-0.019830598 -0.0034994781 0.60961378
-0.019830598 -0.0046660006 0.60961378
-0.019830598 -0.0058324933 0.60961384
-0.019830598 -0.0069990158 0.60961384
-0.019830598 -0.0081655383 0.60961378
-0.019830598 -0.0093320608 0.60961378
-0.019830598 -0.010498524 0.60961384
-0.019830598 -0.011665076 0.60961378
-0.019830598 -0.012831539 0.60961384
-0.019830598 -0.013998061 0.60961384
-0.019830598 -0.015164584 0.60961384
-0.019830598 -0.016331106 0.60961384
-0.019830598 -0.017497569 0.60961384
-0.019830598 -0.018664122 0.6096139
-0.019830598 -0.019830614 0.60961384
-0.019830598 -0.020997077 0.60961378
-0.019830598 -0.02216363 0.6096139
-0.019830598 -0.023330122 0.60961384
-0.019830598 -0.024496585 0.60961378
-0.019830598 -0.025663137 0.60961384
-0.019830598 -0.02682963 0.60961384
-0.019830598 -0.027996123 0.60961384
-0.019830598 -0.029162616 0.60961384
-0.019830598 -0.030329168 0.60961384
-0.019830598 -0.031495661 0.60961378
-0.019830598 -0.032662168 0.60961384
-0.019830598 -0.033828661 0.60961384
-0.019830598 -0.034995198 0.60961384
-0.019830598 -0.036161676 0.60961384
-0.018339992 0.03782624 0.60716867
-0.018339992 0.036679983 0.60716867
-0.018339992 0.035533726 0.60716867
-0.018339992 0.034387469 0.60716867
-0.018339992 0.033241242 0.60716867
-0.018339992 0.032094955 0.60716867
-0.018339992 0.030948728 0.60716867
-0.018339992 0.029802531 0.60716867
-0.018339992 0.028656214 0.60716867
-0.018339992 0.027509987 0.60716867
-0.018339992 0.02636376 0.60716867
-0.018339992 0.025217474 0.60716867
-0.018339992 0.024071217 0.60716867
-0.018339992 0.022924989 0.60716867
-0.018339992 0.021778762 0.60716867
-0.018339992 0.020632476 0.60716867
-0.018339992 0.019486248 0.60716867
-0.018339992 0.018339992 0.60716867
-0.018339992 0.017193735 0.60716867
-0.018339992 0.016047478 0.60716867
-0.018339992 0.014901251 0.60716867
-0.018339992 0.013755023 0.60716867
-0.018339992 0.012608767 0.60716867
-0.018339992 0.01146251 0.60716867
-0.018339992 0.010316253 0.60716867
-0.018339992 0.0091699958 0.60716867
-0.018339992 0.0080237389 0.60716867
-0.018339992 0.0068775117 0.60716867
-0.018339992 0.0057312548 0.60716867
-0.018339992 0.0045849979 0.60716861
-0.018339992 0.003438741 0.60716867
-0.018339992 0.0022925138 0.60716867
-0.018339992 0.0011462569 0.60716867
-0.018339992 -0 0.60716867
-0.018339992 -0.0011462271 0.60716867
-0.018339992 -0.0022925138 0.60716867
-0.018339992 -0.003438741 0.60716867
-0.018339992 -0.0045849681 0.60716861
-0.018339992 -0.0057312846 0.60716867
-0.018339992 -0.0068775117 0.60716867
-0.018339992 -0.0080237091 0.60716867
-0.018339992 -0.0091699958 0.60716867
-0.018339992 -0.010316253 0.60716867
-0.018339992 -0.01146248 0.60716867
-0.018339992 -0.012608707 0.60716867
-0.018339992 -0.013755023 0.60716867
-0.018339992 -0.014901251 0.60716867
-0.018339992 -0.016047478 0.60716867
-0.018339992 -0.017193764 0.60716867
-0.018339992 -0.018339992 0.60716867
-0.018339992 -0.019486248 0.60716867
-0.018339992 -0.020632476 0.60716867
-0.018339992 -0.021778733 0.60716861
-0.018339992 -0.022924989 0.60716867
-0.018339992 -0.024071217 0.60716867
-0.018339992 -0.025217474 0.60716867
-0.018339992 -0.02636376 0.60716867
-0.018339992 -0.027509987 0.60716867
-0.018339992 -0.028656214 0.60716867
-0.018339992 -0.029802471 0.60716867
-0.018339992 -0.030948743 0.60716867
-0.018339992 -0.032094955 0.60716867
-0.018339992 -0.033241242 0.60716867
-0.018339992 -0.034387484 0.60716867
-0.018339992 -0.035533726 0.60716867
-0.018339992 -0.036679983 0.60716867
-0.016900269 0.037180603 0.60480702
-0.016900308 0.036054015 0.60480732
-0.016900308 0.034927338 0.60480732
-0.016900308 0.033800602 0.60480732
-0.016900308 0.032673925 0.60480732
-0.016900308 0.031547219 0.60480732
-0.016900308 0.030420542 0.60480726
-0.016900308 0.029293865 0.60480726
-0.016900308 0.028167188 0.60480726
-0.016900308 0.027040482 0.60480732
-0.016900308 0.025913805 0.60480732
-0.016900308 0.024787128 0.60480726
-0.016900308 0.023660421 0.60480732
-0.016900308 0.022533745 0.60480732
-0.016900308 0.021407068 0.60480726
-0.016900308 0.020280391 0.60480732
-0.016900308 0.019153684 0.60480732
-0.016900308 0.018027008 0.60480732
-0.016900308 0.016900361 0.60480732
-0.016900308 0.015773624 0.60480726
-0.016900308 0.014646947 0.60480732
-0.016900308 0.013520241 0.60480726
-0.016900308 0.012393564 0.60480726
-0.016900308 0.011266857 0.60480732
-0.016900308 0.010140181 0.60480732
-0.016900308 0.0090135336 0.60480726
-0.016900308 0.0078867972 0.60480732
-0.016900308 0.0067601204 0.60480732
-0.016900308 0.0056334138 0.60480732
-0.016900308 0.0045067668 0.60480726
-0.016900308 0.0033800602 0.60480732
-0.016900308 0.0022533834 0.60480738
-0.016900308 0.0011267364 0.60480726
-0.016900308 -0 0.60480732
-0.016900308 -0.0011266768 0.60480732
-0.016900308 -0.0022533834 0.60480732
-0.016900308 -0.0033800304 0.60480732
-0.016900308 -0.004506737 0.60480732
-0.016900308 -0.0056334436 0.60480732
-0.016900308 -0.0067601204 0.60480732
-0.016900308 -0.007886827 0.60480726
-0.016900308 -0.0090135038 0.60480732
-0.016900308 -0.01014021 0.60480732
-0.016900308 -0.011266857 0.60480726
-0.016900308 -0.012393534 0.60480732
-0.016900308 -0.013520271 0.60480732
-0.016900308 -0.014646947 0.60480732
-0.016900308 -0.015773624 0.60480732
-0.016900308 -0.016900301 0.60480732
-0.016900308 -0.018026978 0.60480732
-0.016900308 -0.019153655 0.60480732
-0.016900308 -0.020280331 0.60480732
-0.016900308 -0.021407068 0.60480732
-0.016900308 -0.022533745 0.60480732
-0.016900308 -0.023660451 0.60480738
-0.016900308 -0.024787128 0.60480732
-0.016900308 -0.025913805 0.60480732
-0.016900308 -0.027040482 0.60480726
-0.016900308 -0.028167158 0.60480726
-0.016900308 -0.02929388 0.60480732
-0.016900308 -0.030420572 0.60480732
-0.016900308 -0.031547248 0.60480732
-0.016900308 -0.032673925 0.60480732
-0.016900308 -0.033800602 0.60480732
-0.016900308 -0.034927309 0.60480732
-0.016900308 -0.036053956 0.60480732
-0.015508906 0.037664503 0.60252488
-0.015508906 0.036556721 0.60252488
-0.015508906 0.035448939 0.60252488
-0.015508906 0.034341156 0.60252488
-0.015508906 0.033233374 0.60252488
-0.015508906 0.032125592 0.60252488
-0.015508906 0.03101784 0.60252488
-0.015508906 0.029910028 0.60252488
-0.015508906 0.028802246 0.60252488
-0.015508906 0.027694494 0.60252488
-0.015508906 0.026586711 0.60252488
-0.015508906 0.025478899 0.60252488
-0.015508906 0.024371147 0.60252488
-0.015508906 0.023263365 0.60252488
-0.015508906 0.022155583 0.60252488
-0.015508906 0.021047801 0.60252482
-0.015508906 0.019940048 0.60252488
-0.015508906 0.018832266 0.60252488
-0.015508906 0.017724484 0.60252488
-0.015508906 0.016616702 0.60252488
-0.015508906 0.01550889 0.60252488
-0.015508906 0.014401138 0.60252488
-0.015508906 0.013293356 0.60252488
-0.015508906 0.012185574 0.60252488
-0.015508906 0.011077821 0.60252488
-0.015508906 0.0099700093 0.60252488
-0.015508906 0.0088621974 0.60252488
-0.015508906 0.0077544451 0.60252488
-0.015508906 0.0066466928 0.60252488
-0.015508906 0.0055388808 0.60252488
-0.015508906 0.0044311285 0.60252488
-0.015508906 0.0033233464 0.60252482
-0.015508906 0.0022155344 0.60252494
-0.015508906 0.0011077821 0.60252488
-0.015508906 2.9802322e-08 0.60252488
-0.015508906 -0.0011077523 0.60252488
-0.015508906 -0.0022155344 0.60252488
-0.015508906 -0.0033233166 0.60252488
-0.015508906 -0.0044311285 0.60252488
-0.015508906 -0.0055388808 0.60252488
-0.015508906 -0.006646663 0.60252488
-0.015508906 -0.0077544451 0.60252488
-0.015508906 -0.0088622272 0.60252488
-0.015508906 -0.0099700093 0.60252488
-0.015508906 -0.011077821 0.60252488
-0.015508906 -0.012185574 0.60252488
-0.015508906 -0.013293326 0.60252488
-0.015508906 -0.014401138 0.60252488
-0.015508906 -0.01550889 0.60252494
-0.015508906 -0.016616702 0.60252488
-0.015508906 -0.017724484 0.60252488
-0.015508906 -0.018832266 0.60252488
-0.015508906 -0.019939989 0.60252488
-0.015508906 -0.021047771 0.60252488
-0.015508906 -0.022155553 0.60252488
-0.015508906 -0.023263365 0.60252488
-0.015508906 -0.024371147 0.60252488
-0.015508906 -0.025478899 0.60252488
-0.015508906 -0.026586682 0.60252488
-0.015508906 -0.027694479 0.60252488
-0.015508906 -0.028802246 0.60252488
-0.015508906 -0.029910028 0.60252488
-0.015508906 -0.031017825 0.60252488
-0.015508906 -0.032125592 0.60252488
-0.015508906 -0.033233359 0.60252488
-0.015508906 -0.034341142 0.60252488
-0.015508906 -0.035448939 0.60252488
-0.015508906 -0.036556691 0.60252488
-0.014210515 0.03716597 0.60075492
-0.014210515 0.03607288 0.60075498
-0.014210515 0.034979701 0.60075498
-0.014210515 0.033886641 0.60075498
-0.014210515 0.032793492 0.60075498
-0.014210515 0.031700402 0.60075498
-0.014210515 0.030607253 0.60075498
-0.014210515 0.029514164 0.60075498
-0.014210515 0.028421044 0.60075492
-0.014210515 0.027327925 0.60075492
-0.014210515 0.026234806 0.60075498
-0.014210515 0.025141686 0.60075498
-0.014210515 0.024048567 0.60075492
-0.014210515 0.022955477 0.60075492
-0.014210515 0.021862328 0.60075498
-0.014210515 0.020769209 0.60075492
-0.014210515 0.019676089 0.60075498
-0.014210515 0.018583 0.60075498
-0.014210515 0.01748988 0.60075498
-0.014210515 0.016396731 0.60075498
-0.014210515 0.015303642 0.60075498
-0.014210515 0.014210492 0.60075498
-0.014210515 0.013117433 0.60075498
-0.014210515 0.012024283 0.60075498
-0.014210515 0.010931164 0.60075498
-0.014210515 0.0098380744 0.60075498
-0.014210515 0.0087449253 0.60075498
-0.014210515 0.0076518357 0.60075492
-0.014210515 0.0065587163 0.60075498
-0.014210515 0.0054655671 0.60075498
-0.014210515 0.0043724775 0.60075492
-0.014210515 0.0032793581 0.60075498
-0.014210515 0.0021862388 0.60075492
-0.014210515 0.0010931194 0.60075498
-0.014210515 -2.9802322e-08 0.60075498
-0.014210515 -0.0010930896 0.60075498
-0.014210515 -0.0021862388 0.60075498
-0.014210515 -0.0032792985 0.60075492
-0.014210515 -0.0043724477 0.60075492
-0.014210515 -0.0054655671 0.60075498
-0.014210515 -0.0065586865 0.60075492
-0.014210515 -0.0076518059 0.60075498
-0.014210515 -0.0087449253 0.60075498
-0.014210515 -0.0098380148 0.60075492
-0.014210515 -0.010931164 0.60075498
-0.014210515 -0.012024313 0.60075498
-0.014210515 -0.013117403 0.60075492
-0.014210515 -0.014210522 0.60075498
-0.014210515 -0.015303612 0.60075492
-0.014210515 -0.016396731 0.60075498
-0.014210515 -0.017489851 0.60075498
-0.014210515 -0.018583 0.60075492
-0.014210515 -0.019676089 0.60075498
-0.014210515 -0.020769209 0.60075492
-0.014210515 -0.021862298 0.60075498
-0.014210515 -0.022955418 0.60075498
-0.014210515 -0.024048537 0.60075492
-0.014210515 -0.025141686 0.60075498
-0.014210515 -0.026234806 0.60075498
-0.014210515 -0.027327895 0.60075492
-0.014210515 -0.028421015 0.60075498
-0.014210515 -0.029514149 0.60075498
-0.014210515 -0.030607268 0.60075492
-0.014210515 -0.031700388 0.60075498
-0.014210515 -0.032793492 0.60075498
-0.014210515 -0.033886611 0.60075498
-0.014210515 -0.034979731 0.60075498
-0.014210515 -0.036072835 0.60075498
-0.01317959 0.037342161 0.60138059
-0.01317959 0.036243886 0.60138053
-0.01317959 0.035145551 0.60138059
-0.01317959 0.034047276 0.60138059
-0.01317959 0.032948971 0.60138053
-0.01317959 0.031850696 0.60138059
-0.01317959 0.030752391 0.60138059
-0.01317959 0.029654086 0.60138059
-0.01317959 0.028555781 0.60138059
-0.01317959 0.027457476 0.60138059
-0.01317959 0.0263592 0.60138053
-0.01317959 0.025260895 0.60138059
-0.01317959 0.024162591 0.60138059
-0.01317959 0.023064286 0.60138059
-0.01317959 0.021965981 0.60138059
-0.01317959 0.020867676 0.60138059
-0.01317959 0.0197694 0.60138053
-0.01317959 0.018671066 0.60138059
-0.01317959 0.017572761 0.60138059
-0.01317959 0.016474515 0.60138059
-0.01317959 0.01537618 0.60138059
-0.01317959 0.014277905 0.60138059
-0.01317959 0.0131796 0.60138059
-0.01317959 0.012081295 0.60138059
-0.01317959 0.01098299 0.60138059
-0.01317959 0.0098847151 0.60138053
-0.01317959 0.0087863803 0.60138059
-0.01317959 0.0076880753 0.60138059
-0.01317959 0.0065898001 0.60138053
-0.01317959 0.0054914951 0.60138059
-0.01317959 0.0043931901 0.60138059
-0.01317959 0.003294915 0.60138059
-0.01317959 0.0021965802 0.60138059
-0.01317959 0.0010983348 0.60138059
-0.01317959 -0 0.60138059
-0.01317959 -0.001098305 0.60138059
-0.01317959 -0.0021965802 0.60138059
-0.01317959 -0.0032948852 0.60138059
-0.01317959 -0.0043931901 0.60138059
-0.01317959 -0.0054914951 0.60138059
-0.01317959 -0.0065898001 0.60138053
-0.01317959 -0.0076881051 0.60138053
-0.01317959 -0.0087863803 0.60138059
-0.01317959 -0.0098846853 0.60138053
-0.01317959 -0.01098299 0.60138059
-0.01317959 -0.012081295 0.60138059
-0.01317959 -0.01317957 0.60138059
-0.01317959 -0.014277905 0.60138059
-0.01317959 -0.01537618 0.60138059
-0.01317959 -0.016474456 0.60138059
-0.01317959 -0.01757279 0.60138059
-0.01317959 -0.018671066 0.60138059
-0.01317959 -0.019769371 0.60138059
-0.01317959 -0.020867705 0.60138059
-0.01317959 -0.02196601 0.60138059
-0.01317959 -0.023064286 0.60138053
-0.01317959 -0.02416262 0.60138059
-0.01317959 -0.025260895 0.60138059
-0.01317959 -0.026359171 0.60138059
-0.01317959 -0.027457476 0.60138059
-0.01317959 -0.028555781 0.60138059
-0.01317959 -0.029654056 0.60138059
-0.01317959 -0.030752391 0.60138059
-0.01317959 -0.031850666 0.60138059
-0.01317959 -0.032948971 0.60138053
-0.01317959 -0.034047291 0.60138059
-0.01317959 -0.035145566 0.60138059
-0.01317959 -0.036243871 0.60138053
-0.012138817 0.037519991 0.6020118
-0.012138817 0.036416441 0.6020118
-0.012138817 0.035312951 0.60201186
-0.012138817 0.034209371 0.6020118
-0.012138817 0.03310588 0.60201186
-0.012138817 0.03200233 0.6020118
-0.012138817 0.030898809 0.6020118
-0.012138817 0.029795289 0.60201186
-0.012138817 0.028691769 0.6020118
-0.012138817 0.027588218 0.60201186
-0.012138817 0.026484698 0.6020118
-0.012138817 0.025381207 0.6020118
-0.012138817 0.024277657 0.6020118
-0.012138817 0.023174077 0.6020118
-0.012138817 0.022070557 0.6020118
-0.012138817 0.020967066 0.60201186
-0.012138817 0.019863546 0.6020118
-0.012138817 0.018760026 0.6020118
-0.012138817 0.017656446 0.6020118
-0.012138817 0.016552955 0.6020118
-0.012138817 0.015449405 0.6020118
-0.012138817 0.014345884 0.6020118
-0.012138817 0.013242334 0.6020118
-0.012138817 0.012138814 0.6020118
-0.012138817 0.011035293 0.6020118
-0.012138817 0.0099318027 0.6020118
-0.012138817 0.0088282526 0.60201186
-0.012138817 0.0077247322 0.6020118
-0.012138817 0.006621182 0.6020118
-0.012138817 0.0055176616 0.60201186
-0.012138817 0.0044141412 0.6020118
-0.012138817 0.003310591 0.60201186
-0.012138817 0.0022070706 0.6020118
-0.012138817 0.0011035204 0.6020118
-0.012138817 -0 0.6020118
-0.012138817 -0.0011035502 0.6020118
-0.012138817 -0.0022070408 0.6020118
-0.012138817 -0.003310591 0.60201186
-0.012138817 -0.0044140816 0.6020118
-0.012138817 -0.005517602 0.6020118
-0.012138817 -0.0066211522 0.60201186
-0.012138817 -0.0077247024 0.6020118
-0.012138817 -0.0088282228 0.6020118
-0.012138817 -0.0099317431 0.6020118
-0.012138817 -0.011035293 0.6020118
-0.012138817 -0.012138814 0.6020118
-0.012138817 -0.013242364 0.6020118
-0.012138817 -0.014345855 0.6020118
-0.012138817 -0.015449405 0.6020118
-0.012138817 -0.016552925 0.6020118
-0.012138817 -0.017656475 0.60201186
-0.012138817 -0.018759996 0.6020118
-0.012138817 -0.019863516 0.60201186
-0.012138817 -0.020967036 0.60201186
-0.012138817 -0.022070557 0.6020118
-0.012138817 -0.023174107 0.60201186
-0.012138817 -0.024277627 0.6020118
-0.012138817 -0.025381148 0.6020118
-0.012138817 -0.026484668 0.6020118
-0.012138817 -0.027588218 0.6020118
-0.012138817 -0.028691724 0.6020118
-0.012138817 -0.029795244 0.6020118
-0.012138817 -0.030898809 0.6020118
-0.012138817 -0.03200236 0.60201186
-0.012138817 -0.033105865 0.6020118
-0.012138817 -0.034209386 0.6020118
-0.012138817 -0.035312921 0.6020118
-0.012138817 -0.036416471 0.60201186
-0.01108811 0.03769958 0.60264945
-0.01108811 0.036590785 0.60264945
-0.01108811 0.03548193 0.60264945
-0.01108811 0.034373134 0.60264945
-0.01108811 0.033264369 0.60264945
-0.01108811 0.032155514 0.60264945
-0.01108811 0.031046718 0.60264945
-0.01108811 0.029937893 0.60264945
-0.01108811 0.028829098 0.60264945
-0.01108811 0.027720273 0.60264945
-0.01108811 0.026611447 0.60264945
-0.01108811 0.025502652 0.60264945
-0.01108811 0.024393857 0.60264945
-0.01108811 0.023285031 0.60264945
-0.01108811 0.022176206 0.60264945
-0.01108811 0.021067441 0.60264945
-0.01108811 0.019958645 0.60264945
-0.01108811 0.01884979 0.60264945
-0.01108811 0.017740995 0.60264945
-0.01108811 0.016632199 0.60264945
-0.01108811 0.015523374 0.60264945
-0.01108811 0.014414549 0.60264939
-0.01108811 0.013305753 0.60264939
-0.01108811 0.012196928 0.60264945
-0.01108811 0.011088133 0.60264945
-0.01108811 0.0099792778 0.60264945
-0.01108811 0.0088704824 0.60264945
-0.01108811 0.007761687 0.60264945
-0.01108811 0.0066528618 0.60264945
-0.01108811 0.0055440664 0.60264945
-0.01108811 0.0044352412 0.60264945
-0.01108811 0.0033264458 0.60264945
-0.01108811 0.0022176206 0.60264945
-0.01108811 0.0011087954 0.60264945
-0.01108811 -0 0.60264945
-0.01108811 -0.0011087656 0.60264945
-0.01108811 -0.0022176504 0.60264945
-0.01108811 -0.003326416 0.60264945
-0.01108811 -0.0044352114 0.60264945
-0.01108811 -0.0055440068 0.60264945
-0.01108811 -0.0066528618 0.60264945
-0.01108811 -0.0077616572 0.60264945
-0.01108811 -0.0088704824 0.60264945
-0.01108811 -0.0099792778 0.60264939
-0.01108811 -0.011088133 0.60264945
-0.01108811 -0.012196928 0.60264945
-0.01108811 -0.013305753 0.60264945
-0.01108811 -0.014414549 0.60264945
-0.01108811 -0.015523344 0.60264945
-0.01108811 -0.01663214 0.60264945
-0.01108811 -0.017740965 0.60264945
-0.01108811 -0.01884979 0.60264945
-0.01108811 -0.019958586 0.60264945
-0.01108811 -0.021067411 0.60264945
-0.01108811 -0.022176206 0.60264945
-0.01108811 -0.023285031 0.60264945
-0.01108811 -0.024393857 0.60264945
-0.01108811 -0.025502622 0.60264945
-0.01108811 -0.026611418 0.60264945
-0.01108811 -0.027720228 0.60264945
-0.01108811 -0.028829068 0.60264945
-0.01108811 -0.029937863 0.60264945
-0.01108811 -0.031046674 0.60264945
-0.01108811 -0.032155499 0.60264945
-0.01108811 -0.033264309 0.60264939
-0.01108811 -0.034373105 0.60264939
-0.01108811 -0.035481974 0.60264945
-0.01108811 -0.03659077 0.60264945
-0.010027272 0.037880838 0.60329288
-0.010027272 0.036766648 0.60329288
-0.010027272 0.035652548 0.60329288
-0.010027272 0.034538388 0.60329288
-0.010027272 0.033424228 0.60329288
-0.010027272 0.032310069 0.60329288
-0.010027272 0.031195968 0.60329288
-0.010027272 0.030081809 0.60329288
-0.010027272 0.028967679 0.60329282
-0.010027272 0.027853549 0.60329288
-0.010027272 0.026739419 0.60329288
-0.010027272 0.025625259 0.60329282
-0.010027272 0.024511129 0.60329282
-0.010027272 0.023396969 0.60329288
-0.010027272 0.022282839 0.60329282
-0.010027272 0.021168679 0.60329288
-0.010027272 0.020054519 0.60329294
-0.010027272 0.018940419 0.60329288
-0.010027272 0.017826259 0.60329288
-0.010027272 0.016712129 0.60329288
-0.010027272 0.015597999 0.60329288
-0.010027272 0.014483839 0.60329288
-0.010027272 0.013369709 0.60329288
-0.010027272 0.012255549 0.60329282
-0.010027272 0.011141449 0.60329288
-0.010027272 0.010027289 0.60329288
-0.010027272 0.0089131296 0.60329282
-0.010027272 0.0077989995 0.60329282
-0.010027272 0.0066848397 0.60329294
-0.010027272 0.0055707097 0.60329288
-0.010027272 0.0044565499 0.60329288
-0.010027272 0.0033424199 0.60329288
-0.010027272 0.0022282898 0.60329288
-0.010027272 0.00111413 0.60329288
-0.010027272 -0 0.60329288
-0.010027272 -0.00111413 0.60329288
-0.010027272 -0.00222826 0.60329288
-0.010027272 -0.0033424199 0.60329288
-0.010027272 -0.0044565499 0.60329288
-0.010027272 -0.0055706799 0.60329288
-0.010027272 -0.0066848397 0.60329282
-0.010027272 -0.0077989697 0.60329288
-0.010027272 -0.0089131296 0.60329282
-0.010027272 -0.01002726 0.60329294
-0.010027272 -0.011141419 0.60329282
-0.010027272 -0.012255549 0.60329288
-0.010027272 -0.013369709 0.60329288
-0.010027272 -0.014483839 0.60329288
-0.010027272 -0.015597999 0.60329288
-0.010027272 -0.016712099 0.60329288
-0.010027272 -0.017826259 0.60329288
-0.010027272 -0.018940419 0.60329288
-0.010027272 -0.020054519 0.60329288
-0.010027272 -0.021168679 0.60329288
-0.010027272 -0.022282809 0.60329288
-0.010027272 -0.023396969 0.60329288
-0.010027272 -0.024511069 0.60329288
-0.010027272 -0.025625229 0.60329282
-0.010027272 -0.026739389 0.60329294
-0.010027272 -0.027853534 0.60329282
-0.010027272 -0.028967693 0.60329288
-0.010027272 -0.030081838 0.60329288
-0.010027272 -0.031195983 0.60329288
-0.010027272 -0.032310098 0.60329288
-0.010027272 -0.033424243 0.60329288
-0.010027272 -0.034538388 0.60329288
-0.010027272 -0.035652533 0.60329288
-0.008956207 0.038063884 0.60394281
-0.008956207 0.03694436 0.60394287
-0.008956207 0.035824805 0.60394281
-0.008956207 0.034705311 0.60394287
-0.008956207 0.033585787 0.60394281
-0.008956207 0.032466233 0.60394287
-0.008956207 0.031346738 0.60394287
-0.008956207 0.030227214 0.60394287
-0.008956207 0.02910769 0.60394287
-0.008956207 0.027988136 0.60394287
-0.008956207 0.026868612 0.60394281
-0.008956207 0.025749117 0.60394287
-0.008956207 0.024629563 0.60394287
-0.008956207 0.023510069 0.60394281
-0.008956207 0.022390515 0.60394287
-0.008956207 0.02127099 0.60394287
-0.008956207 0.020151466 0.60394287
-0.008956207 0.019031972 0.60394287
-0.008956207 0.017912418 0.60394281
-0.008956207 0.016792893 0.60394287
-0.008956207 0.015673339 0.60394281
-0.008956207 0.014553815 0.60394287
-0.008956207 0.013434321 0.60394281
-0.008956207 0.012314796 0.60394287
-0.008956207 0.011195272 0.60394281
-0.008956207 0.010075748 0.60394287
-0.008956207 0.0089561641 0.60394287
-0.008956207 0.0078366697 0.60394287
-0.008956207 0.0067171454 0.60394287
-0.008956207 0.0055976212 0.60394287
-0.008956207 0.0044781268 0.60394287
-0.008956207 0.0033586025 0.60394287
-0.008956207 0.0022390187 0.60394287
-0.008956207 0.001119554 0.60394287
-0.008956207 -0 0.60394287
-0.008956207 -0.0011194944 0.60394281
-0.008956207 -0.0022390485 0.60394287
-0.008956207 -0.0033585727 0.60394287
-0.008956207 -0.004478097 0.60394287
-0.008956207 -0.005597651 0.60394287
-0.008956207 -0.0067171454 0.60394281
-0.008956207 -0.0078366697 0.60394287
-0.008956207 -0.0089561641 0.60394281
-0.008956207 -0.010075718 0.60394287
-0.008956207 -0.011195302 0.60394287
-0.008956207 -0.012314796 0.60394281
-0.008956207 -0.013434321 0.60394287
-0.008956207 -0.014553815 0.60394281
-0.008956207 -0.015673369 0.60394287
-0.008956207 -0.016792864 0.60394281
-0.008956207 -0.017912418 0.60394287
-0.008956207 -0.019031942 0.60394281
-0.008956207 -0.020151466 0.60394287
-0.008956207 -0.02127099 0.60394281
-0.008956207 -0.022390485 0.60394287
-0.008956207 -0.023510039 0.60394287
-0.008956207 -0.024629593 0.60394287
-0.008956207 -0.025749087 0.60394287
-0.008956207 -0.026868612 0.60394287
-0.008956207 -0.027988151 0.60394287
-0.008956207 -0.02910766 0.60394281
-0.008956207 -0.030227169 0.60394287
-0.008956207 -0.031346738 0.60394287
-0.008956207 -0.032466248 0.60394281
-0.008956207 -0.033585802 0.60394287
-0.008956207 -0.034705281 0.60394287
-0.008956207 -0.03582482 0.60394287
-0.0078747198 0.038248628 0.60459882
-0.0078747198 0.03712371 0.60459876
-0.0078747198 0.035998732 0.60459882
-0.0078747198 0.034873754 0.60459882
-0.0078747198 0.033748806 0.60459882
-0.0078747198 0.032623827 0.60459882
-0.0078747198 0.031498879 0.60459882
-0.0078747198 0.030373901 0.60459876
-0.0078747198 0.029248953 0.60459876
-0.0078747198 0.028124005 0.60459876
-0.0078747198 0.026999056 0.60459882
-0.0078747198 0.025874108 0.60459882
-0.0078747198 0.0247491 0.60459882
-0.0078747198 0.023624182 0.60459876
-0.0078747198 0.022499204 0.60459882
-0.0078747198 0.021374226 0.60459882
-0.0078747198 0.020249307 0.60459882
-0.0078747198 0.019124329 0.60459882
-0.0078747198 0.017999351 0.60459882
-0.0078747198 0.016874403 0.60459876
-0.0078747198 0.015749454 0.60459876
-0.0078747198 0.014624506 0.60459882
-0.0078747198 0.013499498 0.60459882
-0.0078747198 0.01237455 0.60459876
-0.0078747198 0.011249602 0.60459882
-0.0078747198 0.010124654 0.60459876
-0.0078747198 0.0089996457 0.60459882
-0.0078747198 0.0078747272 0.60459882
-0.0078747198 0.006749779 0.60459876
-0.0078747198 0.0056248307 0.60459882
-0.0078747198 0.0044998527 0.60459882
-0.0078747198 0.0033748746 0.60459882
-0.0078747198 0.0022499561 0.60459876
-0.0078747198 0.0011249781 0.60459882
-0.0078747198 -2.9802322e-08 0.60459882
-0.0078747198 -0.0011249483 0.60459882
-0.0078747198 -0.0022499263 0.60459876
-0.0078747198 -0.0033748746 0.60459882
-0.0078747198 -0.0044998527 0.60459882
-0.0078747198 -0.0056248009 0.60459882
-0.0078747198 -0.0067497194 0.60459876
-0.0078747198 -0.0078747272 0.60459882
-0.0078747198 -0.0089996457 0.60459876
-0.0078747198 -0.010124624 0.60459882
-0.0078747198 -0.011249572 0.60459882
-0.0078747198 -0.01237458 0.60459882
-0.0078747198 -0.013499498 0.60459876
-0.0078747198 -0.014624476 0.60459882
-0.0078747198 -0.015749425 0.60459876
-0.0078747198 -0.016874403 0.60459882
-0.0078747198 -0.017999351 0.60459882
-0.0078747198 -0.019124299 0.60459882
-0.0078747198 -0.020249277 0.60459876
-0.0078747198 -0.021374255 0.60459882
-0.0078747198 -0.022499174 0.60459876
-0.0078747198 -0.023624182 0.60459882
-0.0078747198 -0.0247491 0.60459882
-0.0078747198 -0.025874078 0.60459882
-0.0078747198 -0.026999027 0.60459882
-0.0078747198 -0.028123975 0.60459882
-0.0078747198 -0.029248953 0.60459876
-0.0078747198 -0.030373916 0.60459876
-0.0078747198 -0.031498864 0.60459876
-0.0078747198 -0.032623827 0.60459882
-0.0078747198 -0.033748791 0.60459882
-0.0078747198 -0.034873754 0.60459882
-0.0078747198 -0.035998717 0.60459876
-0.0067826831 0.037304759 0.60526115
-0.0067826831 0.036174327 0.60526115
-0.0067826831 0.035043865 0.60526115
-0.0067826831 0.033913434 0.60526115
-0.0067826831 0.032782972 0.60526115
-0.0067826831 0.03165254 0.60526115
-0.0067826831 0.030522108 0.60526121
-0.0067826831 0.029391646 0.60526115
-0.0067826831 0.028261185 0.60526115
-0.0067826831 0.027130753 0.60526115
-0.0067826831 0.026000321 0.60526121
-0.0067826831 0.024869859 0.60526115
-0.0067826831 0.023739368 0.60526115
-0.0067826831 0.022608936 0.60526121
-0.0067826831 0.021478534 0.60526115
-0.0067826831 0.020348072 0.60526115
-0.0067826831 0.01921761 0.60526115
-0.0067826831 0.018087178 0.60526115
-0.0067826831 0.016956717 0.60526115
-0.0067826831 0.015826255 0.60526115
-0.0067826831 0.014695823 0.60526121
-0.0067826831 0.013565332 0.60526121
-0.0067826831 0.0124349 0.60526121
-0.0067826831 0.011304438 0.60526121
-0.0067826831 0.010174036 0.60526115
-0.0067826831 0.0090435743 0.60526115
-0.0067826831 0.0079131424 0.60526115
-0.0067826831 0.0067827106 0.60526121
-0.0067826831 0.0056522489 0.60526121
-0.0067826831 0.0045217574 0.60526115
-0.0067826831 0.0033913255 0.60526121
-0.0067826831 0.0022609234 0.60526115
-0.0067826831 0.0011304617 0.60526115
-0.0067826831 -0 0.60526115
-0.0067826831 -0.0011304319 0.60526115
-0.0067826831 -0.0022608638 0.60526121
-0.0067826831 -0.0033913255 0.60526115
-0.0067826831 -0.0045217872 0.60526121
-0.0067826831 -0.0056522489 0.60526121
-0.0067826831 -0.0067826807 0.60526121
-0.0067826831 -0.0079131424 0.60526121
-0.0067826831 -0.0090435743 0.60526121
-0.0067826831 -0.010174006 0.60526115
-0.0067826831 -0.011304438 0.60526115
-0.0067826831 -0.01243487 0.60526115
-0.0067826831 -0.013565361 0.60526121
-0.0067826831 -0.014695823 0.60526115
-0.0067826831 -0.015826255 0.60526121
-0.0067826831 -0.016956717 0.60526121
-0.0067826831 -0.018087119 0.60526115
-0.0067826831 -0.019217581 0.60526115
-0.0067826831 -0.020348042 0.60526115
-0.0067826831 -0.021478474 0.60526115
-0.0067826831 -0.022608966 0.60526115
-0.0067826831 -0.023739398 0.60526115
-0.0067826831 -0.024869859 0.60526121
-0.0067826831 -0.026000291 0.60526115
-0.0067826831 -0.027130753 0.60526121
-0.0067826831 -0.028261155 0.60526115
-0.0067826831 -0.029391631 0.60526121
-0.0067826831 -0.030522048 0.60526115
-0.0067826831 -0.03165251 0.60526115
-0.0067826831 -0.032782972 0.60526115
-0.0067826831 -0.033913434 0.60526121
-0.0067826831 -0.035043865 0.60526115
-0.0067826831 -0.036174297 0.60526121
-0.0056799543 0.037487715 0.60593033
-0.0056799543 0.036351711 0.60593033
-0.0056799543 0.035215706 0.60593033
-0.0056799543 0.034079731 0.60593033
-0.0056799543 0.032943726 0.60593033
-0.0056799543 0.03180775 0.60593033
-0.0056799543 0.030671746 0.60593033
-0.0056799543 0.02953577 0.60593033
-0.0056799543 0.028399765 0.60593033
-0.0056799543 0.02726379 0.60593033
-0.0056799543 0.026127785 0.60593039
-0.0056799543 0.02499184 0.60593033
-0.0056799543 0.023855805 0.60593033
-0.0056799543 0.02271983 0.60593033
-0.0056799543 0.021583855 0.60593033
-0.0056799543 0.02044785 0.60593033
-0.0056799543 0.019311845 0.60593033
-0.0056799543 0.01817587 0.60593033
-0.0056799543 0.017039865 0.60593033
-0.0056799543 0.01590386 0.60593033
-0.0056799543 0.014767885 0.60593033
-0.0056799543 0.01363191 0.60593033
-0.0056799543 0.012495875 0.60593033
-0.0056799543 0.0113599 0.60593033
-0.0056799543 0.010223955 0.60593033
-0.0056799543 0.00908795 0.60593033
-0.0056799543 0.0079519451 0.60593033
-0.0056799543 0.0068159401 0.60593033
-0.0056799543 0.005679965 0.60593033
-0.0056799543 0.0045439601 0.60593039
-0.0056799543 0.003407985 0.60593033
-0.0056799543 0.0022720098 0.60593033
-0.0056799543 0.0011359751 0.60593033
-0.0056799543 -2.9802322e-08 0.60593033
-0.0056799543 -0.0011359453 0.60593033
-0.0056799543 -0.00227198 0.60593033
-0.0056799543 -0.0034079552 0.60593033
-0.0056799543 -0.0045439899 0.60593033
-0.0056799543 -0.005679965 0.60593039
-0.0056799543 -0.0068159103 0.60593033
-0.0056799543 -0.0079519451 0.60593033
-0.0056799543 -0.0090879202 0.60593033
-0.0056799543 -0.010223925 0.60593033
-0.0056799543 -0.0113599 0.60593033
-0.0056799543 -0.012495875 0.60593033
-0.0056799543 -0.01363188 0.60593033
-0.0056799543 -0.014767885 0.60593033
-0.0056799543 -0.01590389 0.60593039
-0.0056799543 -0.017039835 0.60593033
-0.0056799543 -0.01817584 0.60593033
-0.0056799543 -0.019311816 0.60593033
-0.0056799543 -0.02044782 0.60593033
-0.0056799543 -0.021583825 0.60593033
-0.0056799543 -0.0227198 0.60593033
-0.0056799543 -0.023855805 0.60593033
-0.0056799543 -0.02499181 0.60593033
-0.0056799543 -0.026127785 0.60593033
-0.0056799543 -0.027263761 0.60593033
-0.0056799543 -0.028399765 0.60593033
-0.0056799543 -0.029535756 0.60593033
-0.0056799543 -0.03067176 0.60593033
-0.0056799543 -0.031807691 0.60593033
-0.0056799543 -0.032943711 0.60593033
-0.0056799543 -0.034079731 0.60593033
-0.0056799543 -0.035215691 0.60593033
-0.0056799543 -0.036351711 0.60593033
-0.0045663454 0.037672341 0.60660577
-0.0045663454 0.036530763 0.60660577
-0.0045663454 0.035389185 0.60660577
-0.0045663454 0.034247607 0.60660577
-0.0045663454 0.033106029 0.60660577
-0.0045663454 0.031964421 0.60660577
-0.0045663454 0.030822843 0.60660577
-0.0045663454 0.029681295 0.60660577
-0.0045663454 0.028539658 0.60660577
-0.0045663454 0.02739808 0.60660577
-0.0045663454 0.026256472 0.60660577
-0.0045663454 0.025114894 0.60660577
-0.0045663454 0.023973346 0.60660577
-0.0045663454 0.022831708 0.60660583
-0.0045663454 0.02169016 0.60660583
-0.0045663454 0.020548552 0.60660583
-0.0045663454 0.019406974 0.60660577
-0.0045663454 0.018265367 0.60660577
-0.0045663454 0.017123818 0.60660577
-0.0045663454 0.015982211 0.60660577
-0.0045663454 0.014840662 0.60660577
-0.0045663454 0.013699025 0.60660583
-0.0045663454 0.012557417 0.60660577
-0.0045663454 0.011415869 0.60660577
-0.0045663454 0.010274261 0.60660577
-0.0045663454 0.0091327131 0.60660577
-0.0045663454 0.0079911351 0.60660577
-0.0045663454 0.0068495274 0.60660577
-0.0045663454 0.0057079494 0.60660577
-0.0045663454 0.0045663416 0.60660583
-0.0045663454 0.0034247637 0.60660577
-0.0045663454 0.0022831857 0.60660577
-0.0045663454 0.0011416078 0.60660577
-0.0045663454 -0 0.60660577
-0.0045663454 -0.001141578 0.60660577
-0.0045663454 -0.0022831559 0.60660577
-0.0045663454 -0.0034247339 0.60660583
-0.0045663454 -0.0045663416 0.60660583
-0.0045663454 -0.0057079494 0.60660577
-0.0045663454 -0.0068495274 0.60660577
-0.0045663454 -0.0079910755 0.60660577
-0.0045663454 -0.0091326833 0.60660577
-0.0045663454 -0.010274231 0.60660577
-0.0045663454 -0.011415869 0.60660583
-0.0045663454 -0.012557477 0.60660577
-0.0045663454 -0.013699025 0.60660583
-0.0045663454 -0.014840633 0.60660577
-0.0045663454 -0.015982181 0.60660577
-0.0045663454 -0.017123789 0.60660577
-0.0045663454 -0.018265367 0.60660577
-0.0045663454 -0.019406974 0.60660583
-0.0045663454 -0.020548552 0.60660583
-0.0045663454 -0.02169013 0.60660577
-0.0045663454 -0.022831708 0.60660577
-0.0045663454 -0.023973286 0.60660577
-0.0045663454 -0.025114894 0.60660577
-0.0045663454 -0.026256472 0.60660577
-0.0045663454 -0.027398109 0.60660583
-0.0045663454 -0.028539658 0.60660577
-0.0045663454 -0.029681221 0.60660583
-0.0045663454 -0.030822843 0.60660577
-0.0045663454 -0.031964421 0.60660577
-0.0045663454 -0.033106014 0.60660577
-0.0045663454 -0.034247577 0.60660577
-0.0045663454 -0.03538917 0.60660577
-0.0045663454 -0.036530763 0.60660583
-0.0034417205 0.037858933 0.60728824
-0.0034417205 0.036711693 0.60728824
-0.0034417205 0.035564452 0.60728824
-0.0034417205 0.034417212 0.60728824
-0.0034417205 0.033269972 0.60728824
-0.0034417205 0.032122731 0.60728824
-0.0034417205 0.030975461 0.60728824
-0.0034417205 0.02982825 0.60728824
-0.0034417205 0.02868101 0.60728824
-0.0034417205 0.02753377 0.60728824
-0.0034417205 0.026386529 0.60728824
-0.0034417205 0.025239289 0.60728824
-0.0034417205 0.024092048 0.60728824
-0.0034417205 0.022944808 0.60728824
-0.0034417205 0.021797568 0.60728824
-0.0034417205 0.020650327 0.60728824
-0.0034417205 0.019503087 0.60728824
-0.0034417205 0.018355846 0.60728824
-0.0034417205 0.017208576 0.60728824
-0.0034417205 0.016061395 0.60728824
-0.0034417205 0.014914125 0.60728824
-0.0034417205 0.013766885 0.60728824
-0.0034417205 0.012619644 0.60728824
-0.0034417205 0.011472434 0.60728824
-0.0034417205 0.010325164 0.60728824
-0.0034417205 0.0091779232 0.60728824
-0.0034417205 0.0080306828 0.60728824
-0.0034417205 0.0068834424 0.60728824
-0.0034417205 0.0057362318 0.60728824
-0.0034417205 0.0045889616 0.60728824
-0.0034417205 0.0034417212 0.60728824
-0.0034417205 0.0022945106 0.60728824
-0.0034417205 0.0011472702 0.60728824
-0.0034417205 -0 0.60728824
-0.0034417205 -0.0011472404 0.60728824
-0.0034417205 -0.002294451 0.60728824
-0.0034417205 -0.0034417212 0.60728824
-0.0034417205 -0.0045889616 0.60728824
-0.0034417205 -0.005736202 0.60728824
-0.0034417205 -0.0068834126 0.60728824
-0.0034417205 -0.0080306828 0.60728824
-0.0034417205 -0.0091779232 0.60728824
-0.0034417205 -0.010325164 0.60728824
-0.0034417205 -0.011472374 0.60728824
-0.0034417205 -0.012619615 0.60728824
-0.0034417205 -0.013766885 0.60728824
-0.0034417205 -0.014914125 0.60728824
-0.0034417205 -0.016061336 0.60728824
-0.0034417205 -0.017208576 0.60728824
-0.0034417205 -0.018355846 0.60728824
-0.0034417205 -0.019503087 0.60728824
-0.0034417205 -0.020650297 0.60728824
-0.0034417205 -0.021797538 0.60728824
-0.0034417205 -0.022944778 0.60728824
-0.0034417205 -0.024092048 0.60728824
-0.0034417205 -0.025239259 0.60728824
-0.0034417205 -0.026386529 0.60728824
-0.0034417205 -0.02753374 0.60728824
-0.0034417205 -0.02868101 0.60728824
-0.0034417205 -0.029828221 0.60728824
-0.0034417205 -0.030975476 0.60728824
-0.0034417205 -0.032122701 0.60728824
-0.0034417205 -0.033269957 0.60728824
-0.0034417205 -0.034417182 0.60728824
-0.0034417205 -0.035564438 0.60728824
-0.0023058946 0.038047284 0.60797715
-0.0023058946 0.036894321 0.60797715
-0.0023058946 0.035741359 0.60797715
-0.0023058946 0.034588456 0.60797715
-0.0023058946 0.033435494 0.60797715
-0.0023058946 0.032282561 0.60797715
-0.0023058946 0.031129569 0.60797715
-0.0023058946 0.029976636 0.60797715
-0.0023058946 0.028823704 0.60797715
-0.0023058946 0.027670741 0.60797721
-0.0023058946 0.026517808 0.60797715
-0.0023058946 0.025364876 0.60797715
-0.0023058946 0.024211884 0.60797715
-0.0023058946 0.023058981 0.60797715
-0.0023058946 0.021906048 0.60797715
-0.0023058946 0.020753026 0.60797715
-0.0023058946 0.019600093 0.60797715
-0.0023058946 0.018447191 0.60797715
-0.0023058946 0.017294198 0.60797721
-0.0023058946 0.016141266 0.60797715
-0.0023058946 0.014988303 0.60797715
-0.0023058946 0.013835371 0.60797715
-0.0023058946 0.012682438 0.60797715
-0.0023058946 0.011529446 0.60797721
-0.0023058946 0.010376513 0.60797715
-0.0023058946 0.0092235804 0.60797715
-0.0023058946 0.0080706179 0.60797721
-0.0023058946 0.0069176853 0.60797715
-0.0023058946 0.0057647526 0.60797715
-0.0023058946 0.0046117902 0.60797721
-0.0023058946 0.0034588575 0.60797715
-0.0023058946 0.0023059249 0.60797715
-0.0023058946 0.0011529326 0.60797721
-0.0023058946 -0 0.60797715
-0.0023058946 -0.0011529326 0.60797715
-0.0023058946 -0.0023059249 0.60797715
-0.0023058946 -0.0034588575 0.60797715
-0.0023058946 -0.0046117604 0.60797715
-0.0023058946 -0.0057647526 0.60797715
-0.0023058946 -0.0069176853 0.60797715
-0.0023058946 -0.0080705881 0.60797715
-0.0023058946 -0.0092236102 0.60797721
-0.0023058946 -0.010376543 0.60797715
-0.0023058946 -0.011529475 0.60797721
-0.0023058946 -0.012682438 0.60797715
-0.0023058946 -0.013835371 0.60797715
-0.0023058946 -0.014988303 0.60797721
-0.0023058946 -0.016141266 0.60797715
-0.0023058946 -0.017294198 0.60797715
-0.0023058946 -0.018447161 0.60797721
-0.0023058946 -0.019600123 0.60797715
-0.0023058946 -0.020753056 0.60797715
-0.0023058946 -0.021906018 0.60797715
-0.0023058946 -0.023058951 0.60797715
-0.0023058946 -0.024211884 0.60797715
-0.0023058946 -0.025364816 0.60797721
-0.0023058946 -0.026517779 0.60797715
-0.0023058946 -0.027670711 0.60797715
-0.0023058946 -0.028823674 0.60797715
-0.0023058946 -0.029976636 0.60797715
-0.0023058946 -0.031129554 0.60797715
-0.0023058946 -0.032282531 0.60797715
-0.0023058946 -0.033435494 0.60797715
-0.0023058946 -0.034588397 0.60797715
-0.0023058946 -0.035741359 0.60797715
-0.0011587144 0.038237572 0.60867333
-0.0011587144 0.037078857 0.60867333
-0.0011587144 0.035920173 0.60867333
-0.0011587144 0.034761399 0.60867333
-0.0011587144 0.033602744 0.60867333
-0.0011587144 0.03244403 0.60867333
-0.0011587144 0.031285286 0.60867333
-0.0011587144 0.030126601 0.60867333
-0.0011587144 0.028967887 0.60867333
-0.0011587144 0.027809173 0.60867333
-0.0011587144 0.026650459 0.60867333
-0.0011587144 0.025491744 0.60867327
-0.0011587144 0.024333 0.60867333
-0.0011587144 0.023174316 0.60867333
-0.0011587144 0.022015572 0.60867333
-0.0011587144 0.020856887 0.60867333
-0.0011587144 0.019698143 0.60867333
-0.0011587144 0.018539429 0.60867333
-0.0011587144 0.017380714 0.60867333
-0.0011587144 0.01622203 0.60867333
-0.0011587144 0.015063286 0.60867327
-0.0011587144 0.013904572 0.60867333
-0.0011587144 0.012745857 0.60867333
-0.0011587144 0.011587143 0.60867333
-0.0011587144 0.010428429 0.60867327
-0.0011587144 0.0092696846 0.60867333
-0.0011587144 0.0081110001 0.60867333
-0.0011587144 0.0069522858 0.60867333
-0.0011587144 0.0057936013 0.60867333
-0.0011587144 0.0046348572 0.60867333
-0.0011587144 0.0034761727 0.60867327
-0.0011587144 0.0023174286 0.60867333
-0.0011587144 0.0011587441 0.60867333
-0.0011587144 -0 0.60867333
-0.0011587144 -0.0011587143 0.60867333
-0.0011587144 -0.0023174286 0.60867333
-0.0011587144 -0.0034761429 0.60867333
-0.0011587144 -0.0046348572 0.60867333
-0.0011587144 -0.0057935417 0.60867333
-0.0011587144 -0.006952256 0.60867333
-0.0011587144 -0.0081110001 0.60867333
-0.0011587144 -0.0092697144 0.60867333
-0.0011587144 -0.010428429 0.60867333
-0.0011587144 -0.011587143 0.60867333
-0.0011587144 -0.012745887 0.60867333
-0.0011587144 -0.013904572 0.60867333
-0.0011587144 -0.015063316 0.60867333
-0.0011587144 -0.01622197 0.60867333
-0.0011587144 -0.017380685 0.60867333
-0.0011587144 -0.018539399 0.60867327
-0.0011587144 -0.019698143 0.60867333
-0.0011587144 -0.020856827 0.60867333
-0.0011587144 -0.022015572 0.60867333
-0.0011587144 -0.023174286 0.60867333
-0.0011587144 -0.024333 0.60867333
-0.0011587144 -0.025491714 0.60867333
-0.0011587144 -0.026650429 0.60867333
-0.0011587144 -0.027809113 0.60867333
-0.0011587144 -0.028967828 0.60867333
-0.0011587144 -0.030126572 0.60867333
-0.0011587144 -0.031285286 0.60867333
-0.0011587144 -0.032443985 0.60867333
-0.0011587144 -0.033602744 0.60867333
-0.0011587144 -0.034761444 0.60867333
-0.0011587144 -0.035920143 0.60867333
0 0.037265182 0.60937613
0 0.036100626 0.60937613
0 0.03493613 0.60937613
0 0.033771545 0.60937613
0 0.032607019 0.60937613
0 0.031442523 0.60937613
0 0.030277938 0.60937613
0 0.029113412 0.60937613
0 0.027948886 0.60937613
0 0.02678436 0.60937613
0 0.025619805 0.60937613
0 0.024455279 0.60937607
0 0.023290753 0.60937613
0 0.022126198 0.60937613
0 0.020961642 0.60937613
0 0.019797117 0.60937613
