# .PCD v0.7 - Point Cloud Data file format
VERSION 0.7
FIELDS x y z
SIZE 4 4 4
TYPE F F F
COUNT 1 1 1
WIDTH 1340
HEIGHT 1
VIEWPOINT 0 0 0 1 0 0 0
POINTS 1340
DATA ascii
0.0049742069 -0.028601646 0.61891407
0.0049742069 -0.029845238 0.61891413
0.0049742069 -0.031088799 0.61891413
0.0049742069 -0.032332331 0.61891407
0.0049742069 -0.033575892 0.61891407
0.0049742069 -0.034819424 0.61891413
0.0049742069 -0.036063015 0.61891413
0.0049742069 -0.037306532 0.61891413
0.0049742069 -0.038550094 0.61891407
0.0049742069 -0.03979364 0.61891407
0.0049742069 -0.041037232 0.61891413
0.0049742069 -0.042280763 0.61891407
0.0049742069 -0.043524295 0.61891407
0.0049742069 -0.044767857 0.61891407
0.0049742069 -0.046011433 0.61891413
0.0049742069 -0.047254965 0.61891413
0.0049742069 -0.048498496 0.61891407
0.0049742069 -0.049742058 0.61891407
0.0049742069 -0.050985605 0.61891413
0.0049742069 -0.052229166 0.61891413
0.0049742069 -0.053472698 0.61891407
0.0049742069 -0.054716274 0.61891407
0.0049742069 -0.055959836 0.61891413
0.0049742069 -0.057203397 0.61891413
0.0049742069 -0.058446899 0.61891407
0.0049742069 -0.05969049 0.61891407
0.0049742069 -0.060934037 0.61891413
0.0062020742 0.062020779 0.61853546
0.0062020742 0.060780346 0.61853546
0.0062020742 0.059539914 0.61853546
0.0062020742 0.058299512 0.61853546
0.0062020742 0.057059079 0.61853546
0.0062020742 0.055818677 0.6185354
0.0062020742 0.054578245 0.61853546
0.0062020742 0.053337812 0.61853546
0.0062020742 0.05209741 0.61853546
0.0062020742 0.050857037 0.61853546
0.0062020742 0.049616575 0.61853546
0.0062020742 0.048376203 0.61853546
0.0062020742 0.04713577 0.61853546
0.0062020742 0.045895338 0.61853546
0.0062020742 0.044654936 0.61853546
0.0062020742 0.043414503 0.61853546
0.0062020742 0.042174131 0.6185354
0.0062020742 0.040933728 0.6185354
0.0062020742 0.039693296 0.6185354
0.0062020742 0.038452864 0.61853546
0.0062020742 0.037212461 0.61853546
0.0062020742 0.035972059 0.6185354
0.0062020742 0.034731627 0.6185354
0.0062020742 0.033491224 0.6185354
0.0062020742 0.032250792 0.6185354
0.0062020742 0.031010389 0.61853546
0.0062020742 0.029769957 0.61853546
0.0062020742 0.028529525 0.6185354
0.0062020742 0.027289152 0.6185354
0.0062020742 0.02604875 0.6185354
0.0062020742 0.024808288 0.61853546
0.0062020742 0.023567885 0.61853546
0.0062020742 0.022327453 0.61853546
0.0062020742 0.02108705 0.61853546
0.0062020742 0.019846618 0.61853546
0.0062020742 0.018606216 0.6185354
0.0062020742 0.017365813 0.61853546
0.0062020742 0.016125411 0.61853546
0.0062020742 0.014884979 0.6185354
0.0062020742 0.013644546 0.61853546
0.0062020742 0.012404174 0.6185354
0.0062020742 0.011163741 0.6185354
0.0062020742 0.0099233389 0.61853546
0.0062020742 0.0086829066 0.6185354
0.0062020742 0.0074425042 0.61853546
0.0062020742 0.0062020719 0.6185354
0.0062020742 0.0049616396 0.61853546
0.0062020742 0.003721267 0.6185354
0.0062020742 0.0024808645 0.6185354
0.0062020742 0.0012404323 0.6185354
0.0062020742 -0 0.6185354
0.0062020742 -0.0012404025 0.61853546
0.0062020742 -0.0024808049 0.6185354
0.0062020742 -0.0037212372 0.61853546
0.0062020742 -0.0049616396 0.6185354
0.0062020742 -0.0062021017 0.6185354
0.0062020742 -0.0074425042 0.6185354
0.0062020742 -0.0086829066 0.61853546
0.0062020742 -0.0099233389 0.61853546
0.0062020742 -0.011163741 0.6185354
0.0062020742 -0.012404144 0.6185354
0.0062020742 -0.013644546 0.6185354
0.0062020742 -0.014884979 0.61853546
0.0062020742 -0.016125411 0.61853546
0.0062020742 -0.017365783 0.6185354
0.0062020742 -0.018606216 0.61853546
0.0062020742 -0.019846618 0.6185354
0.0062020742 -0.02108705 0.6185354
0.0062020742 -0.022327453 0.61853546
0.0062020742 -0.023567885 0.61853546
0.0062020742 -0.024808317 0.61853546
0.0062020742 -0.02604869 0.6185354
0.0062020742 -0.027289122 0.6185354
0.0062020742 -0.028529525 0.6185354
0.0062020742 -0.029769957 0.61853546
0.0062020742 -0.03101036 0.61853546
0.0062020742 -0.032250792 0.61853546
0.0062020742 -0.033491164 0.6185354
0.0062020742 -0.034731597 0.6185354
0.0062020742 -0.035971999 0.6185354
0.0062020742 -0.037212461 0.6185354
0.0062020742 -0.038452879 0.61853546
0.0062020742 -0.039693281 0.61853546
0.0062020742 -0.040933684 0.6185354
0.0062020742 -0.042174101 0.6185354
0.0062020742 -0.043414518 0.6185354
0.0062020742 -0.04465495 0.6185354
0.0062020742 -0.045895353 0.61853546
0.0062020742 -0.04713577 0.61853546
0.0062020742 -0.048376188 0.61853546
0.0062020742 -0.04961659 0.6185354
0.0062020742 -0.050857008 0.6185354
0.0062020742 -0.05209741 0.61853546
0.0062020742 -0.053337842 0.61853546
0.0062020742 -0.05457826 0.61853546
0.0062020742 -0.055818647 0.6185354
0.0062020742 -0.05705905 0.6185354
0.0062020742 -0.058299482 0.6185354
0.0062020742 -0.059539899 0.61853546
0.0062020742 -0.060780317 0.61853546
0.0074237823 0.061864823 0.61815906
0.0074237823 0.06062758 0.61815906
0.0074237823 0.059390277 0.61815906
0.0074237823 0.058152944 0.61815906
0.0074237823 0.0569157 0.61815906
0.0074237823 0.055678397 0.61815912
0.0074237823 0.054441094 0.61815912
0.0074237823 0.053203791 0.61815906
0.0074237823 0.051966488 0.61815906
0.0074237823 0.050729185 0.61815906
0.0074237823 0.049491912 0.61815906
0.0074237823 0.048254579 0.61815912
0.0074237823 0.047017306 0.61815906
0.0074237823 0.045780003 0.61815906
0.0074237823 0.0445427 0.61815906
0.0074237823 0.043305397 0.61815912
0.0074237823 0.042068094 0.61815906
0.0074237823 0.040830821 0.61815912
0.0074237823 0.039593488 0.61815906
0.0074237823 0.038356215 0.61815906
0.0074237823 0.037118912 0.61815906
0.0074237823 0.035881609 0.61815906
0.0074237823 0.034644336 0.61815906
0.0074237823 0.033407032 0.61815912
0.0074237823 0.032169729 0.61815906
0.0074237823 0.030932456 0.61815906
0.0074237823 0.029695123 0.61815912
0.0074237823 0.02845782 0.61815906
0.0074237823 0.027220547 0.61815906
0.0074237823 0.025983214 0.61815906
0.0074237823 0.024745971 0.61815912
0.0074237823 0.023508638 0.61815906
0.0074237823 0.022271335 0.61815912
0.0074237823 0.021034062 0.61815906
0.0074237823 0.019796759 0.61815906
0.0074237823 0.018559426 0.61815912
0.0074237823 0.017322183 0.61815906
0.0074237823 0.01608488 0.61815906
0.0074237823 0.014847577 0.61815906
0.0074237823 0.013610274 0.61815906
0.0074237823 0.012372971 0.61815906
0.0074237823 0.011135668 0.61815912
0.0074237823 0.0098983645 0.61815906
0.0074237823 0.0086610913 0.61815906
0.0074237823 0.0074237883 0.61815906
0.0074237823 0.0061864853 0.61815906
0.0074237823 0.0049492121 0.61815906
0.0074237823 0.0037119091 0.61815912
0.0074237823 0.0024745762 0.61815906
0.0074237823 0.0012373328 0.61815906
0.0074237823 -0 0.61815912
0.0074237823 -0.001237303 0.61815906
0.0074237823 -0.0024745762 0.61815906
0.0074237823 -0.0037119091 0.61815906
0.0074237823 -0.0049491823 0.61815906
0.0074237823 -0.0061864853 0.61815906
0.0074237823 -0.0074237883 0.61815912
0.0074237823 -0.0086610615 0.61815906
0.0074237823 -0.0098983347 0.61815906
0.0074237823 -0.011135697 0.61815912
0.0074237823 -0.012372941 0.61815906
0.0074237823 -0.013610274 0.61815906
0.0074237823 -0.014847547 0.61815906
0.0074237823 -0.01608485 0.61815906
0.0074237823 -0.017322153 0.61815906
0.0074237823 -0.018559456 0.61815912
0.0074237823 -0.019796759 0.61815906
0.0074237823 -0.021034002 0.61815906
0.0074237823 -0.022271365 0.61815906
0.0074237823 -0.023508638 0.61815906
0.0074237823 -0.024745911 0.61815906
0.0074237823 -0.025983214 0.61815912
0.0074237823 -0.027220547 0.61815906
0.0074237823 -0.028457791 0.61815906
0.0074237823 -0.029695123 0.61815912
0.0074237823 -0.030932426 0.61815906
0.0074237823 -0.0321697 0.61815906
0.0074237823 -0.033407032 0.61815906
0.0074237823 -0.034644306 0.61815906
0.0074237823 -0.035881609 0.61815906
0.0074237823 -0.037118912 0.61815912
0.0074237823 -0.0383562 0.61815906
0.0074237823 -0.039593488 0.61815906
0.0074237823 -0.040830821 0.61815906
0.0074237823 -0.042068079 0.61815906
0.0074237823 -0.043305397 0.61815906
0.0074237823 -0.044542685 0.61815906
0.0074237823 -0.045779973 0.61815906
0.0074237823 -0.047017291 0.61815906
0.0074237823 -0.048254579 0.61815912
0.0074237823 -0.049491867 0.61815906
0.0074237823 -0.050729126 0.61815906
0.0074237823 -0.051966473 0.61815906
0.0074237823 -0.053203762 0.61815906
0.0074237823 -0.054441035 0.61815906
0.0074237823 -0.055678383 0.61815906
0.0074237823 -0.056915671 0.61815906
0.0074237823 -0.058152929 0.61815906
0.0074237823 -0.059390277 0.61815912
0.0074237823 -0.060627535 0.61815906
0.0086393403 0.061709613 0.6177842
0.0086393403 0.060475379 0.6177842
0.0086393403 0.059241176 0.6177842
0.0086393403 0.058007002 0.61778426
0.0086393403 0.056772828 0.6177842
0.0086393403 0.055538654 0.6177842
0.0086393403 0.054304451 0.6177842
0.0086393403 0.053070247 0.6177842
0.0086393403 0.051836014 0.6177842
0.0086393403 0.05060187 0.6177842
0.0086393403 0.049367696 0.6177842
0.0086393403 0.048133492 0.61778426
0.0086393403 0.046899289 0.6177842
0.0086393403 0.045665085 0.6177842
0.0086393403 0.044430912 0.61778426
0.0086393403 0.043196708 0.61778426
0.0086393403 0.041962504 0.61778426
0.0086393403 0.040728301 0.61778426
0.0086393403 0.039494127 0.61778426
0.0086393403 0.038259923 0.61778426
0.0086393403 0.03702575 0.61778426
0.0086393403 0.035791576 0.6177842
0.0086393403 0.034557372 0.6177842
0.0086393403 0.033323199 0.6177842
0.0086393403 0.032088995 0.6177842
0.0086393403 0.030854791 0.6177842
0.0086393403 0.029620618 0.61778426
0.0086393403 0.028386414 0.6177842
0.0086393403 0.02715224 0.6177842
0.0086393403 0.025918037 0.61778426
0.0086393403 0.024683833 0.6177842
0.0086393403 0.02344963 0.6177842
0.0086393403 0.022215456 0.61778426
0.0086393403 0.020981252 0.6177842
0.0086393403 0.019747078 0.61778426
0.0086393403 0.018512875 0.61778426
0.0086393403 0.017278671 0.61778426
0.0086393403 0.016044468 0.61778426
0.0086393403 0.014810324 0.6177842
0.0086393403 0.01357612 0.6177842
0.0086393403 0.012341946 0.6177842
0.0086393403 0.011107743 0.6177842
0.0086393403 0.0098735392 0.6177842
0.0086393403 0.0086393654 0.6177842
0.0086393403 0.0074051619 0.6177842
0.0086393403 0.0061709583 0.6177842
0.0086393403 0.0049367845 0.6177842
0.0086393403 0.0037025809 0.61778426
0.0086393403 0.0024683774 0.6177842
0.0086393403 0.0012342036 0.6177842
0.0086393403 -0 0.61778426
0.0086393403 -0.0012342036 0.6177842
0.0086393403 -0.0024683774 0.61778426
0.0086393403 -0.0037025809 0.61778426
0.0086393403 -0.0049367547 0.61778426
0.0086393403 -0.0061709583 0.61778426
0.0086393403 -0.0074051619 0.61778426
0.0086393403 -0.0086393356 0.61778426
0.0086393403 -0.0098735094 0.6177842
0.0086393403 -0.011107713 0.6177842
0.0086393403 -0.012341917 0.6177842
0.0086393403 -0.01357609 0.6177842
0.0086393403 -0.014810294 0.6177842
0.0086393403 -0.016044468 0.61778426
0.0086393403 -0.017278671 0.6177842
0.0086393403 -0.018512875 0.61778426
0.0086393403 -0.019747078 0.6177842
0.0086393403 -0.020981252 0.6177842
0.0086393403 -0.022215426 0.61778426
0.0086393403 -0.02344963 0.61778426
0.0086393403 -0.024683833 0.61778426
0.0086393403 -0.025918037 0.61778426
0.0086393403 -0.02715221 0.61778426
0.0086393403 -0.028386354 0.6177842
0.0086393403 -0.029620588 0.6177842
0.0086393403 -0.030854762 0.6177842
0.0086393403 -0.032088965 0.6177842
0.0086393403 -0.033323139 0.6177842
0.0086393403 -0.034557372 0.6177842
0.0086393403 -0.035791546 0.6177842
0.0086393403 -0.037025735 0.6177842
0.0086393403 -0.038259909 0.61778426
0.0086393403 -0.039494112 0.6177842
0.0086393403 -0.040728331 0.61778426
0.0086393403 -0.041962504 0.61778426
0.0086393403 -0.043196693 0.6177842
0.0086393403 -0.044430897 0.61778426
0.0086393403 -0.045665085 0.61778426
0.0086393403 -0.046899289 0.6177842
0.0086393403 -0.048133478 0.61778426
0.0086393403 -0.049367651 0.61778426
0.0086393403 -0.050601855 0.61778426
0.0086393403 -0.051836073 0.61778426
0.0086393403 -0.053070247 0.61778426
0.0086393403 -0.054304436 0.61778426
0.0086393403 -0.05553861 0.6177842
0.0086393403 -0.056772768 0.6177842
0.0086393403 -0.058007002 0.6177842
0.0086393403 -0.059241191 0.6177842
0.0086393403 -0.060475364 0.61778426
0.0098488135 0.061555088 0.6174112
0.0098488135 0.060323983 0.61741126
0.0098488135 0.059092909 0.61741126
0.0098488135 0.057861775 0.61741126
0.0098488135 0.056630671 0.6174112
0.0098488135 0.055399597 0.61741126
0.0098488135 0.054168493 0.61741126
0.0098488135 0.052937359 0.61741126
0.0098488135 0.051706254 0.61741126
0.0098488135 0.05047515 0.61741126
0.0098488135 0.049244076 0.61741126
0.0098488135 0.048012942 0.61741126
0.0098488135 0.046781838 0.61741126
0.0098488135 0.045550764 0.61741126
0.0098488135 0.044319689 0.61741126
0.0098488135 0.043088555 0.61741126
0.0098488135 0.041857481 0.61741126
0.0098488135 0.040626377 0.61741126
0.0098488135 0.039395243 0.61741126
0.0098488135 0.038164198 0.6174112
0.0098488135 0.036933064 0.61741126
0.0098488135 0.03570196 0.61741126
0.0098488135 0.034470856 0.6174112
0.0098488135 0.033239752 0.61741126
0.0098488135 0.032008648 0.61741126
0.0098488135 0.030777544 0.61741126
0.0098488135 0.02954644 0.6174112
0.0098488135 0.028315336 0.61741126
0.0098488135 0.027084231 0.61741126
0.0098488135 0.025853127 0.61741126
0.0098488135 0.024622053 0.61741126
0.0098488135 0.023390919 0.61741126
0.0098488135 0.022159845 0.6174112
0.0098488135 0.020928741 0.61741126
0.0098488135 0.019697607 0.61741126
0.0098488135 0.018466562 0.6174112
0.0098488135 0.017235458 0.61741126
0.0098488135 0.016004324 0.61741126
0.0098488135 0.01477322 0.61741126
0.0098488135 0.013542145 0.61741126
0.0098488135 0.012311012 0.61741126
0.0098488135 0.011079937 0.61741126
0.0098488135 0.0098488331 0.61741126
0.0098488135 0.0086177289 0.61741126
0.0098488135 0.007386595 0.61741126
0.0098488135 0.0061555207 0.61741126
0.0098488135 0.0049244165 0.61741126
0.0098488135 0.0036933124 0.61741126
0.0098488135 0.0024621785 0.61741126
0.0098488135 0.0012311041 0.61741126
0.0098488135 -0 0.61741126
0.0098488135 -0.0012311041 0.61741126
0.0098488135 -0.0024622083 0.61741126
0.0098488135 -0.0036933124 0.61741126
0.0098488135 -0.0049244165 0.61741126
0.0098488135 -0.0061554909 0.6174112
0.0098488135 -0.007386595 0.61741126
0.0098488135 -0.0086176991 0.61741126
0.0098488135 -0.0098487735 0.61741126
0.0098488135 -0.011079907 0.61741126
0.0098488135 -0.012311012 0.61741126
0.0098488135 -0.013542116 0.61741126
0.0098488135 -0.01477319 0.61741126
0.0098488135 -0.016004324 0.61741126
0.0098488135 -0.017235398 0.6174112
0.0098488135 -0.018466532 0.61741126
0.0098488135 -0.019697636 0.61741126
0.0098488135 -0.020928741 0.61741126
0.0098488135 -0.022159815 0.6174112
0.0098488135 -0.023390919 0.61741126
0.0098488135 -0.024622023 0.6174112
0.0098488135 -0.025853127 0.61741126
0.0098488135 -0.027084261 0.61741126
0.0098488135 -0.028315306 0.6174112
0.0098488135 -0.02954644 0.61741126
0.0098488135 -0.030777544 0.61741126
0.0098488135 -0.032008648 0.61741126
0.0098488135 -0.033239752 0.61741126
0.0098488135 -0.034470826 0.61741126
0.0098488135 -0.035701931 0.61741126
0.0098488135 -0.036933064 0.61741126
0.0098488135 -0.038164139 0.61741126
0.0098488135 -0.039395243 0.61741126
0.0098488135 -0.040626347 0.61741126
0.0098488135 -0.041857421 0.61741126
0.0098488135 -0.043088555 0.61741126
0.0098488135 -0.044319659 0.61741126
0.0098488135 -0.045550764 0.6174112
0.0098488135 -0.046781868 0.61741126
0.0098488135 -0.048012957 0.61741126
0.0098488135 -0.049244046 0.61741126
0.0098488135 -0.050475165 0.6174112
0.0098488135 -0.051706269 0.61741126
0.0098488135 -0.052937374 0.61741126
0.0098488135 -0.054168448 0.61741126
0.0098488135 -0.055399582 0.61741126
0.0098488135 -0.056630656 0.6174112
0.0098488135 -0.05786179 0.61741126
0.0098488135 -0.059092894 0.61741126
0.0098488135 -0.060323939 0.6174112
0.011401905 0.063343912 0.62172985
0.011401905 0.062077045 0.62172985
0.011401905 0.060810179 0.62172985
0.011401905 0.059543282 0.62172985
0.011401905 0.058276415 0.62172985
0.011401905 0.057009548 0.62172985
0.011401905 0.055742651 0.62172985
0.011401905 0.054475754 0.62172985
0.011401905 0.053208917 0.62172985
0.011401905 0.051942021 0.62172985
0.011401905 0.050675154 0.62172985
0.011401905 0.049408287 0.62172985
0.011401905 0.04814136 0.62172991
0.011401905 0.046874493 0.62172985
0.011401905 0.045607626 0.62172985
0.011401905 0.04434073 0.62172985
0.011401905 0.043073833 0.62172985
0.011401905 0.041806996 0.62172985
0.011401905 0.040540129 0.62172985
0.011401905 0.039273262 0.62172985
0.011401905 0.038006365 0.62172985
0.011401905 0.036739469 0.62172985
0.011401905 0.035472602 0.62172985
0.011401905 0.034205705 0.62172985
0.011401905 0.032938868 0.62172991
0.011401905 0.031671971 0.62172985
0.011401905 0.030405104 0.62172985
0.011401905 0.029138237 0.62172985
0.011401905 0.027871341 0.62172985
0.011401905 0.026604474 0.62172985
0.011401905 0.025337607 0.62172985
0.011401905 0.02407068 0.62172991
0.011401905 0.022803783 0.62172985
0.011401905 0.021536946 0.62172985
0.011401905 0.02027005 0.62172985
0.011401905 0.019003153 0.62172991
0.011401905 0.017736286 0.62172985
0.011401905 0.016469419 0.62172985
0.011401905 0.015202552 0.62172985
0.011401905 0.013935655 0.62172991
0.011401905 0.012668788 0.62172985
0.011401905 0.011401922 0.62172985
0.011401905 0.010135055 0.62172985
0.011401905 0.0088681281 0.62172991
0.011401905 0.0076012611 0.62172985
0.011401905 0.006334424 0.62172985
0.011401905 0.0050675273 0.62172985
0.011401905 0.0038006306 0.62172985
0.011401905 0.0025337636 0.62172985
0.011401905 0.0012668967 0.62172985
0.011401905 2.9802322e-08 0.62172985
0.011401905 -0.0012668967 0.62172985
0.011401905 -0.0025337636 0.62172985
0.011401905 -0.0038006306 0.62172985
0.011401905 -0.0050675273 0.62172991
0.011401905 -0.0063343942 0.62172991
0.011401905 -0.0076012611 0.62172985
0.011401905 -0.0088681579 0.62172985
0.011401905 -0.010134995 0.62172985
0.011401905 -0.011401922 0.62172985
0.011401905 -0.012668788 0.62172985
0.011401905 -0.013935626 0.62172985
0.011401905 -0.015202552 0.62172991
0.011401905 -0.016469419 0.62172985
0.011401905 -0.017736286 0.62172991
0.011401905 -0.019003153 0.62172985
0.011401905 -0.02027005 0.62172985
0.011401905 -0.021536916 0.62172985
0.011401905 -0.022803783 0.62172985
0.011401905 -0.02407068 0.62172985
0.011401905 -0.025337577 0.62172991
0.011401905 -0.026604474 0.62172985
0.011401905 -0.027871341 0.62172985
0.011401905 -0.029138207 0.62172985
0.011401905 -0.030405074 0.62172985
0.011401905 -0.031671971 0.62172991
0.011401905 -0.032938838 0.62172985
0.011401905 -0.034205705 0.62172985
0.011401905 -0.035472602 0.62172991
0.011401905 -0.036739469 0.62172991
0.011401905 -0.038006365 0.62172985
0.011401905 -0.039273202 0.62172985
0.011401905 -0.040540084 0.62172985
0.011401905 -0.041806996 0.62172985
0.011401905 -0.043073848 0.62172985
0.011401905 -0.04434073 0.62172985
0.011401905 -0.045607612 0.62172991
0.011401905 -0.046874493 0.62172991
0.011401905 -0.04814136 0.62172985
0.011401905 -0.049408227 0.62172985
0.011401905 -0.050675094 0.62172985
0.011401905 -0.051942036 0.62172985
0.011401905 -0.053208888 0.62172985
0.011401905 -0.054475769 0.62172985
0.011401905 -0.055742681 0.62172991
0.011401905 -0.057009533 0.62172991
0.011401905 -0.058276415 0.62172985
0.011401905 -0.059543282 0.62172985
0.011401905 -0.060810134 0.62172985
0.011401905 -0.062077045 0.62172985
0.013143266 0.065716296 0.62745738
0.013143266 0.064401984 0.62745738
0.013143266 0.063087702 0.62745738
0.013143266 0.06177336 0.62745738
0.013143266 0.060459048 0.62745738
0.013143266 0.059144646 0.62745738
0.013143266 0.057830393 0.62745738
0.013143266 0.056516021 0.62745738
0.013143266 0.055201739 0.62745738
0.013143266 0.053887367 0.62745738
0.013143266 0.052573115 0.62745738
0.013143266 0.051258713 0.62745738
0.013143266 0.049944401 0.62745738
0.013143266 0.048630118 0.62745738
0.013143266 0.047315776 0.62745738
0.013143266 0.046001464 0.62745738
0.013143266 0.044687122 0.62745738
0.013143266 0.04337275 0.62745738
0.013143266 0.042058468 0.62745738
0.013143266 0.040744126 0.62745738
0.013143266 0.039429814 0.62745738
0.013143266 0.038115472 0.62745738
0.013143266 0.03680113 0.62745738
0.013143266 0.035486817 0.62745738
0.013143266 0.034172475 0.62745738
0.013143266 0.032858163 0.62745738
0.013143266 0.031543821 0.62745738
0.013143266 0.030229539 0.62745738
0.013143266 0.028915197 0.62745738
0.013143266 0.027600855 0.62745738
0.013143266 0.026286513 0.62745738
0.013143266 0.02497223 0.62745738
0.013143266 0.023657918 0.62745738
0.013143266 0.022343576 0.62745738
0.013143266 0.021029234 0.62745732
0.013143266 0.019714922 0.62745738
0.013143266 0.01840058 0.62745738
0.013143266 0.017086267 0.62745738
0.013143266 0.015771925 0.62745738
0.013143266 0.014457643 0.62745732
0.013143266 0.013143271 0.62745738
0.013143266 0.011828929 0.62745738
0.013143266 0.010514617 0.62745738
0.013143266 0.0092003047 0.62745732
0.013143266 0.0078859925 0.62745738
0.013143266 0.0065716505 0.62745738
0.013143266 0.0052572787 0.62745738
0.013143266 0.0039429963 0.62745738
0.013143266 0.0026286542 0.62745738
0.013143266 0.001314342 0.62745738
0.013143266 -0 0.62745738
0.013143266 -0.001314342 0.62745738
0.013143266 -0.0026286542 0.62745738
0.013143266 -0.0039429963 0.62745738
0.013143266 -0.0052572787 0.62745738
0.013143266 -0.0065716207 0.62745738
0.013143266 -0.0078859329 0.62745738
0.013143266 -0.0092002749 0.62745738
0.013143266 -0.010514617 0.62745738
0.013143266 -0.011828929 0.62745738
0.013143266 -0.013143241 0.62745738
0.013143266 -0.014457554 0.62745738
0.013143266 -0.015771896 0.62745738
0.013143266 -0.017086267 0.62745738
0.013143266 -0.01840055 0.62745738
0.013143266 -0.019714892 0.62745738
0.013143266 -0.021029204 0.62745738
0.013143266 -0.022343546 0.62745738
0.013143266 -0.023657858 0.62745738
0.013143266 -0.0249722 0.62745738
0.013143266 -0.026286542 0.62745738
0.013143266 -0.027600855 0.62745738
0.013143266 -0.028915197 0.62745738
0.013143266 -0.030229509 0.62745738
0.013143266 -0.031543821 0.62745738
0.013143266 -0.032858193 0.62745738
0.013143266 -0.034172475 0.62745732
0.013143266 -0.035486817 0.62745738
0.013143266 -0.03680113 0.62745738
0.013143266 -0.038115472 0.62745738
0.013143266 -0.039429814 0.62745738
0.013143266 -0.040744126 0.62745732
0.013143266 -0.042058468 0.62745738
0.013143266 -0.04337275 0.62745738
0.013143266 -0.044687077 0.62745732
0.013143266 -0.046001419 0.62745738
0.013143266 -0.047315732 0.62745738
0.013143266 -0.048630089 0.62745738
0.013143266 -0.049944401 0.62745738
0.013143266 -0.051258713 0.62745738
0.013143266 -0.05257307 0.62745738
0.013143266 -0.053887382 0.62745738
0.013143266 -0.055201724 0.62745738
0.013143266 -0.056516051 0.62745738
0.013143266 -0.057830364 0.62745738
0.013143266 -0.059144676 0.62745738
0.013143266 -0.060459033 0.62745738
0.013143266 -0.061773345 0.62745738
0.013143266 -0.063087657 0.62745738
0.013143266 -0.064402014 0.62745738
0.015020182 0.068273574 0.63363105
0.015020182 0.066908121 0.63363105
0.015020182 0.065542608 0.63363105
0.015020182 0.064177155 0.63363105
0.015020182 0.062811673 0.63363111
0.015020182 0.06144619 0.63363105
0.015020182 0.060080737 0.63363111
0.015020182 0.058715254 0.63363099
0.015020182 0.057349831 0.63363105
0.015020182 0.055984348 0.63363105
0.015020182 0.054618835 0.63363105
0.015020182 0.053253382 0.63363105
0.015020182 0.05188787 0.63363105
0.015020182 0.050522417 0.63363105
0.015020182 0.049156964 0.63363111
0.015020182 0.047791511 0.63363099
0.015020182 0.046426028 0.63363105
0.015020182 0.045060545 0.63363105
0.015020182 0.043695062 0.63363105
0.015020182 0.042329609 0.63363105
0.015020182 0.040964127 0.63363105
0.015020182 0.039598674 0.63363111
0.015020182 0.038233221 0.63363105
0.015020182 0.036867708 0.63363105
0.015020182 0.035502285 0.63363105
0.015020182 0.034136772 0.63363105
0.015020182 0.032771319 0.63363105
0.015020182 0.031405836 0.63363111
0.015020182 0.030040354 0.63363105
0.015020182 0.028674901 0.63363105
0.015020182 0.027309388 0.63363111
0.015020182 0.025943965 0.63363105
0.015020182 0.024578482 0.63363105
0.015020182 0.023212999 0.63363105
0.015020182 0.021847576 0.63363105
0.015020182 0.020482093 0.63363111
0.015020182 0.01911658 0.63363111
0.015020182 0.017751127 0.63363105
0.015020182 0.016385645 0.63363099
0.015020182 0.015020221 0.63363105
0.015020182 0.013654739 0.63363105
0.015020182 0.012289256 0.63363105
0.015020182 0.010923773 0.63363105
0.015020182 0.0095582604 0.63363111
0.015020182 0.0081928372 0.63363111
0.015020182 0.0068273544 0.63363111
0.015020182 0.0054619014 0.63363099
0.015020182 0.0040964186 0.63363105
0.015020182 0.0027309656 0.63363105
0.015020182 0.0013654828 0.63363105
0.015020182 -0 0.63363105
0.015020182 -0.0013654828 0.63363111
0.015020182 -0.0027309358 0.63363105
0.015020182 -0.0040964186 0.63363099
0.015020182 -0.0054618418 0.63363105
0.015020182 -0.0068273246 0.63363105
0.015020182 -0.0081928074 0.63363105
0.015020182 -0.0095582902 0.63363105
0.015020182 -0.010923773 0.63363111
0.015020182 -0.012289226 0.63363111
0.015020182 -0.013654709 0.63363105
0.015020182 -0.015020192 0.63363111
0.015020182 -0.016385615 0.63363105
0.015020182 -0.017751127 0.63363105
0.015020182 -0.01911658 0.63363105
0.015020182 -0.020482063 0.63363105
0.015020182 -0.021847546 0.63363111
0.015020182 -0.023212999 0.63363111
0.015020182 -0.024578452 0.63363105
0.015020182 -0.025943905 0.63363105
0.015020182 -0.027309418 0.63363105
0.015020182 -0.028674901 0.63363105
0.015020182 -0.030040354 0.63363111
0.015020182 -0.031405836 0.63363105
0.015020182 -0.032771319 0.63363111
0.015020182 -0.034136772 0.63363105
0.015020182 -0.035502255 0.63363111
0.015020182 -0.036867738 0.63363111
0.015020182 -0.038233191 0.63363105
0.015020182 -0.039598674 0.63363105
0.015020182 -0.040964127 0.63363105
0.015020182 -0.04232958 0.63363105
0.015020182 -0.043695062 0.63363111
0.015020182 -0.045060545 0.63363105
0.015020182 -0.046426013 0.63363105
0.015020182 -0.047791451 0.63363105
0.015020182 -0.049156934 0.63363105
0.015020182 -0.050522417 0.63363111
0.015020182 -0.051887915 0.63363105
0.015020182 -0.053253397 0.63363111
0.015020182 -0.054618821 0.63363111
0.015020182 -0.055984318 0.63363111
0.015020182 -0.057349771 0.63363105
0.015020182 -0.058715284 0.63363111
0.015020182 -0.060080737 0.63363105
0.015020182 -0.061446175 0.63363111
0.015020182 -0.062811658 0.63363105
0.015020182 -0.064177141 0.63363111
0.015020182 -0.065542594 0.63363099
0.017049085 0.068196386 0.64030468
0.017049085 0.06677559 0.64030468
0.017049085 0.065354884 0.64030468
0.017049085 0.063934058 0.64030468
0.017049085 0.062513351 0.64030468
0.017049085 0.061092556 0.64030468
0.017049085 0.059671819 0.64030468
0.017049085 0.058251023 0.64030468
0.017049085 0.056830257 0.64030468
0.017049085 0.055409521 0.64030468
0.017049085 0.053988814 0.64030468
0.017049085 0.052568018 0.64030468
0.017049085 0.051147252 0.64030468
0.017049085 0.049726516 0.64030468
0.017049085 0.04830578 0.64030468
0.017049085 0.046884984 0.64030468
0.017049085 0.045464218 0.64030468
0.017049085 0.044043481 0.64030468
0.017049085 0.042622715 0.64030468
0.017049085 0.041201979 0.64030468
0.017049085 0.039781183 0.64030468
0.017049085 0.038360476 0.64030468
0.017049085 0.03693971 0.64030463
0.017049085 0.035518944 0.64030468
0.017049085 0.034098148 0.64030468
0.017049085 0.032677412 0.64030468
0.017049085 0.031256676 0.64030468
0.017049085 0.02983591 0.64030468
0.017049085 0.028415114 0.64030468
0.017049085 0.026994377 0.64030468
0.017049085 0.025573671 0.64030463
0.017049085 0.024152905 0.64030468
0.017049085 0.022732139 0.64030468
0.017049085 0.021311373 0.64030468
0.017049085 0.019890636 0.64030468
0.017049085 0.01846984 0.64030468
0.017049085 0.017049104 0.64030468
0.017049085 0.015628308 0.64030468
0.017049085 0.014207602 0.64030463
0.017049085 0.012786806 0.64030468
0.017049085 0.011366069 0.64030468
0.017049085 0.0099453032 0.64030468
0.017049085 0.0085245371 0.64030468
0.017049085 0.0071038008 0.64030468
0.017049085 0.0056830347 0.64030468
0.017049085 0.0042622685 0.64030468
0.017049085 0.0028415024 0.64030468
0.017049085 0.0014207661 0.64030468
0.017049085 -0 0.64030468
0.017049085 -0.0014207363 0.64030468
0.017049085 -0.0028415024 0.64030468
0.017049085 -0.0042622387 0.64030468
0.017049085 -0.0056830347 0.64030468
0.017049085 -0.0071037412 0.64030468
0.017049085 -0.0085245371 0.64030468
0.017049085 -0.0099452734 0.64030468
0.017049085 -0.011366069 0.64030468
0.017049085 -0.012786835 0.64030468
0.017049085 -0.014207572 0.64030468
0.017049085 -0.015628338 0.64030468
0.017049085 -0.017049074 0.64030468
0.017049085 -0.01846984 0.64030474
0.017049085 -0.019890606 0.64030468
0.017049085 -0.021311343 0.64030468
0.017049085 -0.022732109 0.64030468
0.017049085 -0.024152875 0.64030468
0.017049085 -0.025573611 0.64030468
0.017049085 -0.026994377 0.64030468
0.017049085 -0.028415143 0.64030468
0.017049085 -0.029835939 0.64030468
0.017049085 -0.031256616 0.64030468
0.017049085 -0.032677382 0.64030463
0.017049085 -0.034098148 0.64030468
0.017049085 -0.035518944 0.64030468
0.017049085 -0.036939681 0.64030468
0.017049085 -0.038360417 0.64030468
0.017049085 -0.039781183 0.64030468
0.017049085 -0.041201979 0.64030468
0.017049085 -0.042622715 0.64030468
0.017049085 -0.044043511 0.64030468
0.017049085 -0.045464218 0.64030468
0.017049085 -0.046884984 0.64030468
0.017049085 -0.04830572 0.64030468
0.017049085 -0.049726486 0.64030468
0.017049085 -0.051147252 0.64030468
0.017049085 -0.052568033 0.64030468
0.017049085 -0.053988785 0.64030468
0.017049085 -0.055409506 0.64030463
0.017049085 -0.056830287 0.64030468
0.017049085 -0.058251068 0.64030468
0.017049085 -0.059671775 0.64030468
0.017049085 -0.061092556 0.64030468
0.017049085 -0.062513292 0.64030468
0.017049085 -0.063934058 0.64030468
0.017049085 -0.065354809 0.64030468
0.019249158 0.068112463 0.64754093
0.019249158 0.066631734 0.64754099
0.019249158 0.065151036 0.64754099
0.019249158 0.063670307 0.64754093
0.019249158 0.062189579 0.64754099
0.019249158 0.06070888 0.64754093
0.019249158 0.059228182 0.64754093
0.019249158 0.057747483 0.64754093
0.019249158 0.056266755 0.64754099
0.019249158 0.054786056 0.64754093
0.019249158 0.053305358 0.64754093
0.019249158 0.051824659 0.64754099
0.019249158 0.050343931 0.64754099
0.019249158 0.048863262 0.64754099
0.019249158 0.047382563 0.64754093
0.019249158 0.045901835 0.64754093
0.019249158 0.044421136 0.64754093
0.019249158 0.042940438 0.64754093
0.019249158 0.041459769 0.64754093
0.019249158 0.039979041 0.64754099
0.019249158 0.038498312 0.64754093
0.019249158 0.037017614 0.64754093
0.019249158 0.035536915 0.64754093
0.019249158 0.034056187 0.64754099
0.019249158 0.032575488 0.64754099
0.019249158 0.031094819 0.64754093
0.019249158 0.029614091 0.64754099
0.019249158 0.028133392 0.64754093
0.019249158 0.026652694 0.64754093
0.019249158 0.025171995 0.64754093
0.019249158 0.023691267 0.64754093
0.019249158 0.022210538 0.64754093
0.019249158 0.02072984 0.64754093
0.019249158 0.019249171 0.64754093
0.019249158 0.017768443 0.64754099
0.019249158 0.016287744 0.64754099
0.019249158 0.014807045 0.64754093
0.019249158 0.013326377 0.64754093
0.019249158 0.011845678 0.64754093
0.019249158 0.01036492 0.64754099
0.019249158 0.0088842511 0.64754099
0.019249158 0.0074035525 0.64754093
0.019249158 0.0059228241 0.64754099
0.019249158 0.0044421256 0.64754093
0.019249158 0.002961427 0.64754093
0.019249158 0.0014807284 0.64754093
0.019249158 -0 0.64754099
0.019249158 -0.0014806986 0.64754093
0.019249158 -0.0029613972 0.64754093
0.019249158 -0.0044421256 0.64754099
0.019249158 -0.0059228241 0.64754099
0.019249158 -0.0074035227 0.64754093
0.019249158 -0.0088842213 0.64754093
0.019249158 -0.01036489 0.64754093
0.019249158 -0.011845648 0.64754093
0.019249158 -0.013326317 0.64754093
0.019249158 -0.014807016 0.64754093
0.019249158 -0.016287774 0.64754099
0.019249158 -0.017768472 0.64754093
0.019249158 -0.019249171 0.64754093
0.019249158 -0.02072987 0.64754093
0.019249158 -0.022210598 0.64754099
0.019249158 -0.023691267 0.64754099
0.019249158 -0.025171936 0.64754093
0.019249158 -0.026652664 0.64754099
0.019249158 -0.028133363 0.64754099
0.019249158 -0.029614061 0.64754099
0.019249158 -0.03109479 0.64754093
0.019249158 -0.032575488 0.64754093
0.019249158 -0.034056216 0.64754093
0.019249158 -0.035536915 0.64754093
0.019249158 -0.037017614 0.64754093
0.019249158 -0.038498342 0.64754099
0.019249158 -0.039979041 0.64754093
0.019249158 -0.041459709 0.64754093
0.019249158 -0.042940408 0.64754093
0.019249158 -0.044421107 0.64754093
0.019249158 -0.045901835 0.64754099
0.019249158 -0.047382534 0.64754093
0.019249158 -0.048863232 0.64754093
0.019249158 -0.050343961 0.64754093
0.019249158 -0.051824659 0.64754093
0.019249158 -0.053305358 0.64754093
0.019249158 -0.054786026 0.64754093
0.019249158 -0.056266755 0.64754099
0.019249158 -0.057747483 0.64754099
0.019249158 -0.059228167 0.64754093
0.019249158 -0.060708866 0.64754093
0.019249158 -0.062189594 0.64754099
0.019249158 -0.063670292 0.64754099
0.019249158 -0.065150991 0.64754093
0.021643138 0.068021268 0.65541542
0.021643138 0.066475362 0.65541542
0.021643138 0.064929426 0.65541542
0.021643138 0.06338346 0.65541542
0.021643138 0.061837554 0.65541536
0.021643138 0.060291618 0.65541542
0.021643138 0.058745712 0.65541536
0.021643138 0.057199746 0.65541542
0.021643138 0.055653781 0.65541542
0.021643138 0.054107845 0.65541542
0.021643138 0.052561939 0.65541542
0.021643138 0.051015973 0.65541542
0.021643138 0.049470037 0.65541542
0.021643138 0.047924101 0.65541542
0.021643138 0.046378136 0.65541542
0.021643138 0.04483223 0.65541536
0.021643138 0.043286294 0.65541542
0.021643138 0.041740328 0.65541542
0.021643138 0.040194422 0.65541542
0.021643138 0.038648456 0.65541542
0.021643138 0.03710252 0.65541542
0.021643138 0.035556585 0.65541542
0.021643138 0.034010649 0.65541542
0.021643138 0.032464772 0.65541536
0.021643138 0.030918807 0.65541542
0.021643138 0.029372841 0.65541542
0.021643138 0.027826875 0.65541542
0.021643138 0.026280969 0.65541542
0.021643138 0.024735034 0.65541542
0.021643138 0.023189098 0.65541542
0.021643138 0.021643132 0.65541536
0.021643138 0.020097196 0.65541542
0.021643138 0.01855123 0.65541542
0.021643138 0.017005324 0.65541542
0.021643138 0.015459418 0.65541536
0.021643138 0.013913482 0.65541542
0.021643138 0.012367517 0.65541542
0.021643138 0.010821551 0.65541542
0.021643138 0.009275645 0.65541542
0.021643138 0.0077297091 0.65541542
0.021643138 0.0061837733 0.65541536
0.021643138 0.0046378672 0.65541542
0.021643138 0.0030919015 0.65541542
0.021643138 0.0015459359 0.65541542
0.021643138 -0 0.65541542
0.021643138 -0.0015459359 0.65541542
0.021643138 -0.0030918419 0.65541536
0.021643138 -0.0046378076 0.65541536
0.021643138 -0.0061837733 0.65541542
0.021643138 -0.0077297091 0.65541542
0.021643138 -0.009275645 0.65541542
0.021643138 -0.010821611 0.65541542
0.021643138 -0.012367487 0.65541536
0.021643138 -0.013913423 0.65541542
0.021643138 -0.015459388 0.65541542
0.021643138 -0.017005324 0.65541542
0.021643138 -0.01855126 0.65541542
0.021643138 -0.020097196 0.65541536
0.021643138 -0.021643132 0.65541542
0.021643138 -0.023189038 0.65541542
0.021643138 -0.024735004 0.65541542
0.021643138 -0.02628094 0.65541542
0.021643138 -0.027826905 0.65541542
0.021643138 -0.029372811 0.65541536
0.021643138 -0.030918777 0.65541542
0.021643138 -0.032464713 0.65541542
0.021643138 -0.034010679 0.65541542
0.021643138 -0.035556585 0.65541542
0.021643138 -0.037102491 0.65541536
0.021643138 -0.038648456 0.65541542
0.021643138 -0.040194392 0.65541542
0.021643138 -0.041740328 0.65541542
0.021643138 -0.043286264 0.65541542
0.021643138 -0.04483223 0.65541542
0.021643138 -0.046378136 0.65541536
0.021643138 -0.047924101 0.65541542
0.021643138 -0.049470037 0.65541542
0.021643138 -0.051015943 0.65541542
0.021643138 -0.052561879 0.65541542
0.021643138 -0.054107845 0.65541542
0.021643138 -0.055653781 0.65541536
0.021643138 -0.057199717 0.65541542
0.021643138 -0.058745682 0.65541542
0.021643138 -0.060291603 0.65541536
0.021643138 -0.061837524 0.65541542
0.021643138 -0.06338349 0.65541542
0.021643138 -0.064929396 0.65541542
0.024257777 0.067921788 0.66401565
0.024257777 0.066304564 0.66401565
0.024257777 0.064687401 0.66401565
0.024257777 0.063070208 0.66401571
0.024257777 0.061453015 0.66401565
0.024257777 0.059835821 0.66401565
0.024257777 0.058218658 0.66401565
0.024257777 0.056601495 0.66401565
0.024257777 0.054984301 0.66401565
0.024257777 0.053367108 0.66401565
0.024257777 0.051749945 0.66401565
0.024257777 0.050132781 0.66401565
0.024257777 0.048515558 0.66401565
0.024257777 0.046898365 0.66401565
0.024257777 0.045281202 0.66401565
0.024257777 0.043664038 0.66401565
0.024257777 0.042046845 0.66401559
0.024257777 0.040429622 0.66401565
0.024257777 0.038812459 0.66401565
0.024257777 0.037195295 0.66401559
0.024257777 0.035578072 0.66401565
0.024257777 0.033960849 0.66401565
0.024257777 0.032343686 0.66401565
0.024257777 0.030726522 0.66401565
0.024257777 0.029109329 0.66401565
0.024257777 0.027492136 0.66401565
0.024257777 0.025874972 0.66401565
0.024257777 0.024257809 0.66401565
0.024257777 0.022640616 0.66401565
0.024257777 0.021023422 0.66401565
0.024257777 0.019406229 0.66401565
0.024257777 0.017789066 0.66401565
0.024257777 0.016171843 0.66401565
0.024257777 0.01455465 0.66401565
0.024257777 0.012937486 0.66401565
0.024257777 0.011320293 0.66401565
0.024257777 0.0097030997 0.66401565
0.024257777 0.0080859065 0.66401565
0.024257777 0.0064687431 0.66401565
0.024257777 0.0048515499 0.66401565
0.024257777 0.0032343566 0.66401565
0.024257777 0.0016171932 0.66401565
0.024257777 2.9802322e-08 0.66401565
0.024257777 -0.0016171634 0.66401565
0.024257777 -0.0032343566 0.66401565
0.024257777 -0.0048515201 0.66401565
0.024257777 -0.0064687133 0.66401565
0.024257777 -0.0080859065 0.66401565
0.024257777 -0.0097030997 0.66401565
0.024257777 -0.011320263 0.66401565
0.024257777 -0.012937456 0.66401559
0.024257777 -0.01455465 0.66401565
0.024257777 -0.016171873 0.66401565
0.024257777 -0.017789036 0.66401565
0.024257777 -0.019406229 0.66401565
0.024257777 -0.021023422 0.66401565
0.024257777 -0.022640616 0.66401565
0.024257777 -0.024257779 0.66401565
0.024257777 -0.025874943 0.66401565
0.024257777 -0.027492136 0.66401565
0.024257777 -0.029109299 0.66401565
0.024257777 -0.030726492 0.66401565
0.024257777 -0.032343715 0.66401565
0.024257777 -0.033960909 0.66401565
0.024257777 -0.035578072 0.66401565
0.024257777 -0.037195265 0.66401565
0.024257777 -0.038812429 0.66401565
0.024257777 -0.040429652 0.66401565
0.024257777 -0.042046815 0.66401565
0.024257777 -0.043664008 0.66401565
0.024257777 -0.045281202 0.66401565
0.024257777 -0.046898395 0.66401565
0.024257777 -0.048515558 0.66401565
0.024257777 -0.050132751 0.66401565
0.024257777 -0.051749915 0.66401565
0.024257777 -0.053367108 0.66401565
0.024257777 -0.054984272 0.66401565
0.024257777 -0.056601465 0.66401559
0.024257777 -0.058218628 0.66401565
0.024257777 -0.059835821 0.66401565
0.024257777 -0.061453015 0.66401559
0.024257777 -0.063070178 0.66401565
0.024257777 -0.064687371 0.66401565
0.024257777 -0.066304564 0.66401559
0.027125061 0.067812651 0.67344689
0.027125061 0.066117316 0.67344689
0.027125061 0.064422011 0.67344689
0.027125061 0.062726736 0.67344689
0.027125061 0.061031371 0.67344695
0.027125061 0.059336096 0.67344683
0.027125061 0.057640731 0.67344689
0.027125061 0.055945456 0.67344689
0.027125061 0.054250151 0.67344689
0.027125061 0.052554786 0.67344695
0.027125061 0.050859511 0.67344689
0.027125061 0.049164146 0.67344689
0.027125061 0.047468871 0.67344689
0.027125061 0.045773566 0.67344689
0.027125061 0.044078231 0.67344695
0.027125061 0.042382926 0.67344689
0.027125061 0.040687591 0.67344689
0.027125061 0.038992256 0.67344689
0.027125061 0.037296981 0.67344689
0.027125061 0.035601616 0.67344689
0.027125061 0.033906341 0.67344689
0.027125061 0.032211006 0.67344689
0.027125061 0.03051573 0.67344689
0.027125061 0.028820395 0.67344689
0.027125061 0.027125061 0.67344695
0.027125061 0.025429755 0.67344689
0.027125061 0.023734421 0.67344689
0.027125061 0.022039115 0.67344689
0.027125061 0.02034384 0.67344689
0.027125061 0.018648475 0.67344689
0.027125061 0.01695317 0.67344689
0.027125061 0.015257865 0.67344689
0.027125061 0.01356253 0.67344689
0.027125061 0.011867255 0.67344689
0.027125061 0.01017189 0.67344695
0.027125061 0.0084765851 0.67344689
0.027125061 0.0067812502 0.67344689
0.027125061 0.0050859749 0.67344689
0.027125061 0.00339064 0.67344689
0.027125061 0.0016953051 0.67344689
0.027125061 2.9802322e-08 0.67344689
0.027125061 -0.0016953051 0.67344689
0.027125061 -0.00339064 0.67344689
0.027125061 -0.0050859153 0.67344689
0.027125061 -0.00678128 0.67344689
0.027125061 -0.0084765553 0.67344689
0.027125061 -0.01017189 0.67344689
0.027125061 -0.011867195 0.67344689
0.027125061 -0.0135625 0.67344689
0.027125061 -0.015257865 0.67344689
0.027125061 -0.01695317 0.67344689
0.027125061 -0.018648475 0.67344689
0.027125061 -0.020343781 0.67344689
0.027125061 -0.022039115 0.67344689
0.027125061 -0.02373445 0.67344689
0.027125061 -0.025429755 0.67344689
0.027125061 -0.027125061 0.67344689
0.027125061 -0.028820366 0.67344689
0.027125061 -0.030515671 0.67344689
0.027125061 -0.032211035 0.67344695
0.027125061 -0.033906311 0.67344689
0.027125061 -0.035601646 0.67344689
0.027125061 -0.037296921 0.67344689
0.027125061 -0.038992256 0.67344689
0.027125061 -0.040687591 0.67344689
0.027125061 -0.042382896 0.67344689
0.027124964 -0.044078052 0.67344618
0.027124964 -0.045773387 0.67344618
0.027124964 -0.047468692 0.67344618
0.027124964 -0.049163997 0.67344618
0.027124964 -0.050859302 0.67344618
0.027124964 -0.052554578 0.67344618
0.027124964 -0.054249913 0.67344612
0.027124964 -0.055945218 0.67344618
0.027124964 -0.057640582 0.67344618
0.027124964 -0.059335887 0.67344624
0.027124964 -0.061031193 0.67344618
0.027124964 -0.062726498 0.67344618
0.027124964 -0.064421773 0.67344618
0.027124964 -0.066117108 0.67344618
0.030283464 0.067692429 0.68383574
0.030283464 0.065911055 0.68383574
0.030283464 0.06412968 0.68383574
0.030283464 0.062348336 0.68383569
0.030283464 0.060566932 0.68383574
0.030283464 0.058785558 0.68383574
0.030283464 0.057004154 0.68383574
0.030283464 0.05522278 0.68383574
0.030283464 0.053441405 0.68383574
0.030283464 0.051660061 0.68383574
0.030283464 0.049878687 0.68383569
0.030283464 0.048097253 0.68383574
0.030283464 0.046315908 0.68383574
0.030283464 0.044534475 0.68383574
0.030283464 0.0427531 0.68383574
0.030283464 0.040971756 0.68383569
0.030283464 0.039190382 0.68383569
0.030283464 0.037408978 0.68383574
0.030283464 0.035627604 0.68383574
0.030283464 0.0338462 0.68383574
0.030283464 0.032064855 0.68383574
0.030283464 0.030283481 0.68383574
0.030283464 0.028502107 0.68383574
0.030283464 0.026720703 0.68383574
0.030283464 0.024939328 0.68383574
0.030283464 0.023157954 0.68383574
0.030283464 0.02137655 0.68383574
0.030283464 0.019595206 0.68383574
0.030283464 0.017813802 0.68383574
0.030283464 0.016032398 0.68383574
0.030283464 0.014251024 0.68383574
0.030283464 0.012469649 0.68383569
0.030283464 0.010688275 0.68383574
0.030283464 0.0089069009 0.68383574
0.030283464 0.0071255267 0.68383574
0.030283464 0.0053441525 0.68383569
0.030283464 0.0035627484 0.68383574
0.030283464 0.001781404 0.68383574
0.030283464 -0 0.68383574
0.030283464 -0.0017813742 0.68383574
0.030283464 -0.0035627484 0.68383574
0.030283464 -0.0053441226 0.68383574
0.030283464 -0.0071255267 0.68383574
0.030283464 -0.0089069009 0.68383574
0.030283464 -0.010688245 0.68383574
0.030283349 -0.01246962 0.68383497
0.030283349 -0.014250994 0.68383491
0.030283349 -0.016032338 0.68383491
0.030283349 -0.017813712 0.68383491
0.030283349 -0.019595116 0.68383491
0.030283349 -0.021376491 0.68383491
0.030283349 -0.023157865 0.68383491
0.030283349 -0.024939209 0.68383485
0.030283349 -0.026720613 0.68383491
0.030283349 -0.028501987 0.68383491
0.030283349 -0.030283362 0.68383491
0.030283349 -0.032064706 0.68383491
0.030283349 -0.03384608 0.68383491
0.030283349 -0.035627455 0.68383491
0.030283349 -0.037408829 0.68383491
0.030283349 -0.039190233 0.68383491
0.030283349 -0.040971607 0.68383491
0.030283349 -0.042752951 0.68383491
0.030283349 -0.044534326 0.68383491
0.030283349 -0.04631567 0.68383491
0.030283349 -0.048097104 0.68383491
0.030283349 -0.049878478 0.68383491
0.030283349 -0.051659793 0.68383491
0.030283349 -0.053441197 0.68383497
0.030283349 -0.055222571 0.68383491
0.030283349 -0.057003945 0.68383491
0.030283349 -0.058785319 0.68383491
0.030283349 -0.060566664 0.68383491
0.030283349 -0.062348068 0.68383497
0.030283349 -0.064129442 0.68383491
0.030283349 -0.065910816 0.68383491
0.033779558 0.067559123 0.69533485
0.033779558 0.065682501 0.69533485
0.033779558 0.063805848 0.69533485
0.033779558 0.061929166 0.69533485
0.033779558 0.060052574 0.69533485
0.033779558 0.058175921 0.69533479
0.033779558 0.056299299 0.69533485
0.033779558 0.054422617 0.69533485
0.033779558 0.052545965 0.69533479
0.033779558 0.050669342 0.69533485
0.033779558 0.04879266 0.69533491
0.033779558 0.046916038 0.69533485
0.033779558 0.045039445 0.69533479
0.033779558 0.043162793 0.69533485
0.033779558 0.041286141 0.69533491
0.033779558 0.039409488 0.69533485
0.033779558 0.037532836 0.69533485
0.033779558 0.035656244 0.69533485
0.033779558 0.033779562 0.69533485
0.033779558 0.031902939 0.69533485
0.033779558 0.030026257 0.69533485
0.033779558 0.028149605 0.69533485
0.033779558 0.026272982 0.69533485
0.033779558 0.02439633 0.69533491
0.033779558 0.022519737 0.69533485
0.033779558 0.020643055 0.69533485
0.033779558 0.018766433 0.69533479
0.033779558 0.016889781 0.69533485
0.033779558 0.015013129 0.69533491
0.033779558 0.013136536 0.69533491
0.033779558 0.011259884 0.69533479
0.033779558 0.0093832314 0.69533485
0.033779558 0.0075065494 0.69533491
0.033779558 0.0056299269 0.69533485
0.033779558 0.0037532747 0.69533491
0.033779558 0.0018766224 0.69533491
0.033779558 -0 0.69533485
0.033779558 -0.0018766224 0.69533479
0.033779558 -0.0037532747 0.69533485
0.033779558 -0.0056298971 0.69533479
0.033779558 -0.0075065494 0.69533485
0.033779558 -0.0093831718 0.69533485
0.033779558 -0.011259854 0.69533485
0.033779558 -0.013136506 0.69533491
0.033779558 -0.015013129 0.69533485
0.033779558 -0.016889811 0.69533479
0.033779558 -0.018766433 0.69533479
0.033779558 -0.020643055 0.69533485
0.033779558 -0.022519678 0.69533479
0.033779558 -0.02439633 0.69533485
0.033779558 -0.026272982 0.69533491
0.033779558 -0.028149605 0.69533485
0.033779558 -0.030026257 0.69533479
0.033779558 -0.031902879 0.69533485
0.033779558 -0.033779562 0.69533491
0.033779558 -0.035656214 0.69533479
0.033779558 -0.037532836 0.69533485
0.033779558 -0.039409518 0.69533485
0.033779558 -0.041286141 0.69533485
0.033779558 -0.043162733 0.69533479
0.033779558 -0.045039386 0.69533485
0.033779558 -0.046916038 0.69533491
0.033779558 -0.04879269 0.69533485
0.033779558 -0.050669342 0.69533491
0.033779558 -0.052545965 0.69533479
0.033779558 -0.054422587 0.69533485
0.033779558 -0.056299239 0.69533479
0.033779558 -0.058175921 0.69533485
0.033779558 -0.060052574 0.69533491
0.033779558 -0.061929196 0.69533485
0.033779558 -0.063805848 0.69533491
0.033779558 -0.065682441 0.69533485
0.037670851 0.067411005 0.70813435
0.037670851 0.065428376 0.70813429
0.037670851 0.063445687 0.70813429
0.037670851 0.061462998 0.70813429
0.037670851 0.059480309 0.70813435
0.037670851 0.057497591 0.70813435
0.037670851 0.055514902 0.70813435
0.037670851 0.053532243 0.70813435
0.037670851 0.051549584 0.70813429
0.037670851 0.049566925 0.70813435
0.037670851 0.047584236 0.70813435
0.037670851 0.045601547 0.70813435
0.037670851 0.043618888 0.70813429
0.037670851 0.041636199 0.70813429
0.037670851 0.03965351 0.70813429
0.037670851 0.037670851 0.70813435
0.037670851 0.035688192 0.70813435
0.037670851 0.033705503 0.70813435
0.037670851 0.031722844 0.70813435
0.037670851 0.029740155 0.70813429
0.037670851 0.027757466 0.70813429
0.037670851 0.025774777 0.70813429
0.037670851 0.023792148 0.70813429
0.037670851 0.021809459 0.70813429
0.037670851 0.0198268 0.70813435
0.037670851 0.017844111 0.70813429
0.037670851 0.015861422 0.70813429
0.037670851 0.013878733 0.70813441
0.037670851 0.011896074 0.70813429
