# .PCD v0.7 - Point Cloud Data file format
VERSION 0.7
FIELDS x y z
SIZE 4 4 4
TYPE F F F
COUNT 1 1 1
WIDTH 1349
HEIGHT 1
VIEWPOINT 0 0 0 1 0 0 0
POINTS 1349
DATA ascii
0 -0.02565366 0.67524886
0 -0.027617812 0.6771642
0 -0.02961868 0.67911541
0 -0.031657428 0.68110353
0 -0.033735096 0.68312961
0 -0.03585273 0.68519473
0 -0.03801164 0.68729997
0 -0.040212959 0.68944663
0 -0.042457968 0.69163591
0 -0.044747949 0.69386905
0 -0.047084302 0.69614738
0 -0.049468488 0.69847238
0 -0.051901907 0.70084536
0 -0.054386079 0.70326787
0 -0.056922764 0.70574158
0 -0.059513479 0.70826793
0 -0.062160105 0.71084881
0 -0.064864337 0.7134859
0 -0.067628175 0.71618116
0 -0.070453554 0.71893632
0 -0.073342621 0.72175372
0.0018280323 0.076777369 0.68946719
0.0017827243 0.073091686 0.68399799
0.0017396077 0.06958434 0.67879337
0.0016985276 0.066242605 0.67383456
0.0016593428 0.063055009 0.66910452
0.0016219254 0.060011268 0.6645878
0.0015861581 0.057101727 0.66027033
0.0015519344 0.054317713 0.65613919
0.0015191563 0.051651329 0.65218246
0.0014877341 0.049095213 0.64838952
0.0014575855 0.046642751 0.64475024
0.0014286345 0.044287682 0.64125562
0.0014008114 0.042024344 0.63789701
0.001374051 0.039847463 0.63466674
0.001348294 0.037752271 0.63155758
0.0013234848 0.035734117 0.62856287
0.0012995723 0.03378889 0.62567639
0.0012765083 0.031912714 0.62289226
0.0012542523 0.030102044 0.62020576
0.0012614405 0.029013127 0.62107348
0.0012700517 0.027941138 0.62211293
0.0012787813 0.026854426 0.62316668
0.0012876318 0.025752634 0.62423503
0.0012966056 0.024635494 0.62531829
0.0013057053 0.023502678 0.62641668
0.0013149336 0.022353888 0.62753069
0.0013242934 0.021188706 0.62866044
0.0013337873 0.020006835 0.62980646
0.0013434184 0.018807858 0.63096905
0.0013531896 0.017591506 0.63214856
0.0013631039 0.016357243 0.63334531
0.0013731646 0.0151048 0.63455975
0.001383375 0.013833791 0.63579226
0.0013937382 0.012543648 0.63704324
0.0014042578 0.011234075 0.63831306
0.0014149377 0.0099045634 0.63960218
0.0014257811 0.008554697 0.64091116
0.0014367921 0.007183969 0.64224029
0.0014479742 0.0057919025 0.64359009
0.001459332 0.0043780208 0.64496106
0.0014708693 0.0029417574 0.64635372
0.0014825906 0.0014825761 0.64776862
0.0014945001 -0 0.64920622
0.0015066024 -0.001506567 0.65066707
0.0015189024 -0.0030378103 0.65215188
0.0015314048 -0.0045942366 0.65366101
0.0015441149 -0.0061764419 0.6551953
0.0015570376 -0.0077851713 0.65675521
0.0015701785 -0.0094210804 0.65834141
0.001583543 -0.011084795 0.65995467
0.0015971371 -0.01277706 0.66159558
0.0016109665 -0.014498711 0.66326499
0.0016250376 -0.016250372 0.66496348
0.0016393566 -0.018032908 0.66669196
0.0016539302 -0.019847184 0.66845119
0.0016687652 -0.021693945 0.67024195
0.0016838687 -0.023574144 0.67206508
0.0016992482 -0.025488734 0.67392159
0.0017149113 -0.027438581 0.67581224
0.0017308657 -0.029424727 0.67773813
0.0017471198 -0.031448156 0.67970008
0.001763682 -0.03350994 0.6816994
0.0017805614 -0.035611242 0.68373692
0.0017977667 -0.037753075 0.68581378
0.001815308 -0.039936751 0.68793118
0.0018331949 -0.042163491 0.69009036
0.0018514378 -0.044434518 0.69229245
0.0018700473 -0.046751201 0.69453883
0.0018890349 -0.049114913 0.69683087
0.001908412 -0.051527143 0.69916987
0.0019281986 -0.053989559 0.70155829
0.0019483919 -0.056503385 0.70399582
0.0019690124 -0.059070379 0.70648497
0.0019900743 -0.061692327 0.70902735
0.0020115913 -0.0643709 0.71162474
0.0020335789 -0.067108124 0.71427882
0.0020560524 -0.069905758 0.71699154
0.0020790282 -0.072765976 0.71976501
0.0036144126 0.0759027 0.68695319
0.0035258245 0.072279394 0.68160647
0.0034414746 0.068829507 0.67651546
0.0033610666 0.06554082 0.67166245
0.0032843305 0.062402308 0.66703093
0.0032110196 0.059403867 0.66260624
0.0031409103 0.056536406 0.65837479
0.0030737966 0.053791404 0.65432417
0.0030094914 0.051161349 0.65044302
0.0029478217 0.048639089 0.64672089
0.0028886287 0.046218097 0.6431483
0.0028317661 0.043892413 0.63971633
0.0027770991 0.041656494 0.63641685
0.0027245027 0.039505303 0.63324237
0.0026738611 0.037434071 0.63018596
0.0026250682 0.035438448 0.62724102
0.0025780241 0.033514351 0.62440163
0.0025326365 0.031657934 0.62166226
0.002494067 0.029928803 0.6193344
0.0025108969 0.028875321 0.62035018
0.0025279557 0.027807534 0.62137973
0.0025452476 0.026725084 0.62242341
0.0025627778 0.025627792 0.62348139
0.0025805512 0.024515241 0.62455416
0.0025985728 0.023387134 0.62564182
0.0026168479 0.022243232 0.62674487
0.0026353819 0.021083057 0.62786347
0.0026541802 0.019906342 0.6289981
0.0026732488 0.018712729 0.63014895
0.0026925933 0.017501861 0.63131654
0.0027122195 0.01627332 0.63250101
0.0027321342 0.015026778 0.63370299
0.0027523434 0.013761729 0.63492274
0.0027728539 0.012477845 0.63616067
0.0027936725 0.011174679 0.63741714
0.0028148061 0.0098518431 0.63869268
0.0028362616 0.0085087717 0.63998765
0.0028580467 0.0071451366 0.64130253
0.0028801691 0.0057603717 0.64263773
0.0029026368 0.0043539405 0.64399374
0.0029254577 0.0029254556 0.64537108
0.0029486401 0.0014743507 0.6467703
0.0029721933 -0 0.64819181
0.0029961257 -0.0014980435 0.64963633
0.0030204463 -0.0030204654 0.65110421
0.0030451652 -0.0045677125 0.65259606
0.0030702921 -0.0061405599 0.65411258
0.0030958469 -0.0077396035 0.65565497
0.0031218207 -0.0093654394 0.65722269
0.0031482338 -0.011018783 0.65881681
0.003175098 -0.012700379 0.66043824
0.0032024242 -0.014410883 0.6620875
0.0032302251 -0.0161511 0.66376543
0.0032585126 -0.017921776 0.66547275
0.0032873002 -0.019723773 0.66721028
0.003316601 -0.021557927 0.66897869
0.0033464287 -0.023425013 0.67077899
0.003376798 -0.025325954 0.67261189
0.0034077233 -0.027261794 0.67447847
0.0034392206 -0.029233366 0.67637944
0.0034713054 -0.031241745 0.678316
0.0035039943 -0.033287942 0.68028891
0.0035373049 -0.035373062 0.68229938
0.0035712549 -0.037498176 0.68434846
0.0036058631 -0.039664477 0.68643719
0.0036411483 -0.041873187 0.6885668
0.0036771311 -0.044125557 0.69073856
0.003713832 -0.046422869 0.69295371
0.003751273 -0.048766553 0.69521344
0.0037894766 -0.051157922 0.69751924
0.0038284662 -0.053598493 0.69987249
0.0038682665 -0.056089878 0.70227468
0.0039089033 -0.058633536 0.70472729
0.0039504026 -0.061231226 0.707232
0.0039927927 -0.063884676 0.70979047
0.0040361024 -0.066595703 0.71240449
0.0040803622 -0.069366157 0.71507573
0.0041256035 -0.072198063 0.71780628
0.0053605284 0.075047433 0.68449509
0.0052305879 0.071484715 0.67926675
0.0051067979 0.068090647 0.67428583
0.0049887318 0.064853519 0.66953522
0.0048760013 0.061762691 0.66499925
0.0047682533 0.058808476 0.66066384
0.0046651643 0.055981994 0.65651584
0.0045664385 0.053275138 0.65254343
0.0044718045 0.050680459 0.64873564
0.0043810131 0.04819116 0.64508247
0.0042938353 0.045800924 0.64157468
0.0042100591 0.04350394 0.6382038
0.0041294894 0.041294932 0.63496196
0.0040519456 0.039168805 0.63184184
0.0039772606 0.037121117 0.62883675
0.0039052789 0.035147488 0.62594044
0.0038358562 0.033244103 0.62314707
0.0037688585 0.031407177 0.62045127
0.0037235317 0.029788256 0.61862749
0.0037485391 0.028738827 0.61963373
0.0037738851 0.027675152 0.62065351
0.0037995758 0.026597053 0.62168723
0.0038256189 0.025504142 0.62273514
0.0038520319 0.024396211 0.62379789
0.0038788016 0.023272812 0.62487507
0.0039059457 0.022133708 0.6259672
0.0039334726 0.02097854 0.62707484
0.0039613904 0.019806951 0.62819821
0.0039897072 0.018618613 0.62933755
0.0040184315 0.017413199 0.63049334
0.0040475726 0.01619029 0.63166583
0.0040771393 0.014949501 0.63285553
0.0041071419 0.013690472 0.63406277
0.0041375887 0.012412757 0.63528782
0.0041684899 0.011115968 0.63653123
0.0041998569 0.0097996891 0.6377933
0.0042316988 0.0084633827 0.63907456
0.0042640278 0.0071067214 0.64037538
0.0042968546 0.0057291389 0.64169621
0.0043301904 0.0043302178 0.6430375
0.0043640477 0.0029093921 0.64439982
0.0043984386 0.0014661551 0.6457836
0.0044333758 -0 0.64718938
0.0044688722 -0.0014896095 0.64861768
0.0045049419 -0.0030032992 0.650069
0.0045415987 -0.0045416057 0.65154397
0.0045788568 -0.0061051548 0.65304309
0.0046167313 -0.0076945424 0.65456706
0.0046552378 -0.0093104839 0.65611637
0.0046943915 -0.010953605 0.65769184
0.0047342097 -0.012624532 0.65929401
0.0047747092 -0.014324129 0.66092354
0.0048159077 -0.016053021 0.66258126
0.0048578233 -0.017811984 0.66426778
0.0049004746 -0.019601882 0.66598397
0.0049438816 -0.021423519 0.66773057
0.0049880645 -0.023277611 0.66950834
0.0050330446 -0.02516523 0.67131823
0.0050788429 -0.027087152 0.67316097
0.0051254826 -0.02904442 0.67503762
0.0051729865 -0.031037897 0.67694902
0.0052213795 -0.033068717 0.67889619
0.0052706865 -0.035137922 0.68088019
0.0053209332 -0.037246525 0.68290198
0.0053721475 -0.039395779 0.68496263
0.005424357 -0.041586727 0.6870634
0.0054775919 -0.043820709 0.68920541
0.0055318815 -0.046099037 0.69138992
0.0055872584 -0.048422873 0.69361806
0.0056437547 -0.050793797 0.69589126
0.0057014055 -0.05321312 0.69821095
0.005760246 -0.055682361 0.70057857
0.0058203144 -0.058203131 0.70299548
0.005881648 -0.060777038 0.70546335
0.0059442883 -0.063405752 0.70798379
0.0060082767 -0.066091061 0.71055853
0.0060736588 -0.068834782 0.71318924
0.0061404789 -0.071638912 0.71587789
0.0062087858 -0.074505419 0.71862638
0.0070677325 0.07421118 0.68209183
0.0068982723 0.070707291 0.67697793
0.0067367475 0.067367494 0.67210346
0.006582614 0.064180464 0.6674521
0.0064353761 0.061136067 0.66300881
0.0062945806 0.058224887 0.65875989
0.0061598141 0.05543834 0.65469295
0.0060306969 0.052768618 0.65079653
0.0059068818 0.050208509 0.64706004
0.0057880483 0.047751397 0.64347392
0.0056739026 0.045391232 0.64002931
0.0055641714 0.043122292 0.6367178
0.0054586036 0.04093954 0.63353205
0.005356967 0.038838029 0.63046491
0.0052590468 0.036813289 0.62750989
0.0051646419 0.034861356 0.62466097
0.0050735665 0.032978207 0.62191254
0.0049856473 0.031160265 0.61925936
0.0049415156 0.029649079 0.61792755
0.0049745473 0.028603673 0.61892438
0.0050080232 0.027544141 0.61993462
0.0050419532 0.026470274 0.62095851
0.005076346 0.025381744 0.6219964
0.005111211 0.024278283 0.62304854
0.0051465584 0.023159504 0.62411529
0.005182398 0.022025198 0.62519681
0.0052187406 0.020874947 0.62629354
0.0052555958 0.019708514 0.62740576
0.0052929763 0.018525422 0.62853378
0.0053308909 0.017325401 0.62967801
0.005369354 0.016108036 0.63083869
0.0054083751 0.014873058 0.6320163
0.0054479684 0.01361993 0.63321114
0.0054881456 0.012348354 0.63442355
0.0055289194 0.011057824 0.63565403
0.0055703036 0.0097480714 0.63690287
0.0056123124 0.0084184706 0.6381706
0.0056549585 0.0070687234 0.63945758
0.005698259 0.0056982338 0.6407643
0.0057422272 0.004306674 0.64209116
0.0057868795 0.0028934479 0.64343864
0.0058322311 0.0014580488 0.64480722
0.005878299 -2.9802322e-08 0.64619756
0.0059251012 -0.0014812648 0.64760995
0.0059726546 -0.0029863119 0.64904493
0.0060209772 -0.0045157373 0.65050316
0.0060700881 -0.0060701072 0.65198517
0.0061200066 -0.0076499879 0.65349168
0.0061707529 -0.0092561245 0.65502304
0.0062223487 -0.010889083 0.65658009
0.0062748138 -0.012549609 0.65816331
0.0063281711 -0.014238358 0.65977359
0.0063824435 -0.015956104 0.6614114
0.0064376551 -0.017703533 0.66307759
0.0064938306 -0.01948148 0.66477281
0.0065509947 -0.02129072 0.66649789
0.0066091749 -0.023132145 0.6682536
0.0066683963 -0.025006473 0.67004079
0.0067286897 -0.026914746 0.67186028
0.0067900829 -0.028857857 0.67371309
0.0068526072 -0.030836701 0.67559981
0.0069162939 -0.032852381 0.67752177
0.0069811749 -0.034905881 0.67947972
0.0070472849 -0.036998242 0.68147475
0.0071146586 -0.039130598 0.68350792
0.0071833334 -0.041304201 0.68558037
0.0072533465 -0.043520063 0.68769324
0.007324738 -0.045779616 0.68984759
0.0073975488 -0.04808405 0.69204491
0.0074718222 -0.050434828 0.69428629
0.0075476016 -0.05283317 0.69657314
0.007624934 -0.055280745 0.69890684
0.0077038677 -0.057779014 0.70128894
0.0077844523 -0.060329527 0.70372075
0.0078667412 -0.062933952 0.706204
0.0079507874 -0.065593988 0.70874035
0.0080366489 -0.068311512 0.71133149
0.0081243869 -0.071088374 0.71397913
0.0082140602 -0.073926508 0.71668524
0.0089548687 0.077011883 0.68499374
0.0087373108 0.073393404 0.6797415
0.0085300729 0.069946587 0.67473835
0.0083324388 0.06665951 0.669967
0.0081437547 0.063521296 0.66541177
0.0079634273 0.06052205 0.66105825
0.0077909129 0.057652742 0.65689337
0.0076257139 0.054905117 0.65290517
0.0074673751 0.052271605 0.64908254
0.0073154783 0.049745291 0.64541543
0.0071696383 0.047319621 0.64189452
0.0070294989 0.044988781 0.63851124
0.0068947333 0.042747378 0.63525772
0.0067650373 0.040590256 0.63212657
0.0066401311 0.038512766 0.62911105
0.0065197535 0.036510617 0.62620491
0.00640368 0.034579873 0.6234026
0.0062916507 0.032716602 0.62069803
0.0061834734 0.030917346 0.6180864
0.0061481562 0.029511154 0.61723375
0.0061890618 0.028469682 0.61822128
0.0062305145 0.027414262 0.61922204
0.006272526 0.026344627 0.62023628
0.0063151084 0.025260419 0.62126434
0.0063582729 0.024161458 0.62230641
0.0064020315 0.023047328 0.62336284
0.0064463965 0.021917731 0.62443393
0.0064913812 0.020772457 0.62551993
0.0065369979 0.019611001 0.62662119
0.0065832594 0.018433154 0.62773812
0.0066301813 0.017238498 0.62887084
0.0066777761 0.016026676 0.6300199
0.0067260596 0.01479736 0.63118553
0.0067750467 0.013550103 0.63236821
0.0068247523 0.012284577 0.63356817
0.0068751927 0.011000335 0.63478595
0.0069263843 0.0096969306 0.63602185
0.0069783442 0.0083740056 0.63727623
0.0070310892 0.0070310831 0.63854963
0.0070846369 0.0056677163 0.63984239
0.0071390076 0.0042834282 0.641155
0.0071942187 0.0028776824 0.64248788
0.0072502904 0.001450032 0.64384162
0.0073072435 -0 0.64521658
0.0073650982 -0.0014730096 0.6466133
0.0074238763 -0.0029695332 0.64803237
0.0074835997 -0.0044901669 0.6494742
0.0075442926 -0.0060354173 0.65093946
0.0076059774 -0.0076059699 0.65242869
0.0076686796 -0.0092024207 0.65394241
0.0077324244 -0.010825396 0.65548134
0.0077972375 -0.01247558 0.65704608
0.0078631463 -0.014153659 0.65863729
0.0079301782 -0.015860349 0.66025555
0.007998364 -0.017596394 0.66190165
0.0080677317 -0.019362539 0.66357636
0.0081383139 -0.021159619 0.6652804
0.0082101412 -0.022988379 0.66701442
0.0082832482 -0.024849713 0.66877937
0.0083576683 -0.026744545 0.6705761
0.0084334379 -0.028673679 0.6724053
0.0085105943 -0.030638129 0.67426807
0.0085891755 -0.032638848 0.6761651
0.0086692208 -0.03467688 0.67809761
0.0087507721 -0.036753237 0.68006647
0.0088338731 -0.038869053 0.6820727
0.0089185666 -0.04102543 0.68411744
0.0090049002 -0.04322353 0.68620169
0.0090929214 -0.045464605 0.68832666
0.0091826813 -0.047749966 0.6904937
0.0092742303 -0.050080836 0.6927039
0.0093676224 -0.052458704 0.69495851
0.0094629163 -0.054884881 0.69725919
0.0095601678 -0.057361007 0.69960701
0.0096594393 -0.059888512 0.7020036
0.0097608343 -0.062469333 0.7044515
0.0098643387 -0.065104604 0.70695031
0.0099700205 -0.067796141 0.70950174
0.010078076 -0.070546538 0.7121104
0.010188458 -0.073356897 0.7147752
0.010625874 0.076152146 0.68258017
0.010370532 0.072593719 0.67744309
0.010127175 0.069202363 0.67254716
0.0098949755 0.065966487 0.66787565
0.0096731856 0.062875718 0.66341358
0.0094611216 0.05992043 0.65914714
0.0092581548 0.057091981 0.65506381
0.0090637142 0.054382294 0.65115196
0.0088772727 0.051784098 0.64740109
0.008698347 0.049290627 0.64380133
0.008526491 0.046895713 0.6403439
0.0083612949 0.044593573 0.63702041
0.0082023777 0.042378962 0.63382322
0.0080493893 0.040246964 0.63074535
0.0079020029 0.038193017 0.62778014
0.0077599171 0.036212951 0.62492156
0.0076228511 0.034302831 0.62216401
0.0074905427 0.032458991 0.61950219
0.0073627485 0.030678153 0.6169312
0.0073436215 0.02937451 0.61654639
0.0073922528 0.028336972 0.61752474
0.0074415323 0.027285606 0.61851621
0.0074914731 0.026220202 0.6195209
0.0075420882 0.025140285 0.62053919
0.0075933924 0.024045765 0.62157142
0.0076453993 0.022936225 0.6226176
0.0076981233 0.021811366 0.62367839
0.0077515799 0.020670891 0.62475389
0.0078057838 0.019514471 0.62584436
0.0078607509 0.01834175 0.6269502
0.007916498 0.017152399 0.62807178
0.0079730423 0.01594609 0.62920928
0.0080303987 0.014722407 0.63036323
0.0080885869 0.013480991 0.63153392
0.0081476253 0.012221426 0.63272166
0.0082075307 0.010943383 0.63392687
0.0082683237 0.0096463561 0.63514996
0.0083300238 0.0083300173 0.63639128
0.0083926525 0.0069938898 0.63765121
0.0084562302 0.0056374967 0.63893032
0.0085207764 0.0042604208 0.64022887
0.0085863173 0.0028621256 0.6415475
0.0086528752 0.0014421642 0.64288652
0.0087204976 -0 0.644247
0.0087891594 -0.0014648139 0.64562833
0.0088588838 -0.0029529333 0.64703107
0.0089297788 -0.0044648945 0.64845735
0.0090017887 -0.0060012043 0.64990616
0.0090749692 -0.0075624585 0.65137839
0.0091493502 -0.0091493726 0.65287483
0.0092249606 -0.010762453 0.654396
0.009301831 -0.012402415 0.6559425
0.0093799932 -0.014069974 0.65751499
0.0094594797 -0.015765786 0.65911418
0.009540325 -0.017490596 0.66074061
0.0096225645 -0.019245118 0.66239512
0.0097062336 -0.021030158 0.66407847
0.0097913714 -0.02284649 0.66579127
0.0098780142 -0.024695039 0.66753441
0.0099662058 -0.026576519 0.66930866
0.010055985 -0.028491974 0.67111498
0.010147398 -0.030442208 0.67295402
0.010240488 -0.032428205 0.6748268
0.0103353 -0.034451008 0.67673433
0.010431886 -0.03651157 0.67867744
0.010530293 -0.038611054 0.68065727
0.010630576 -0.040750533 0.68267477
0.010732785 -0.042931169 0.68473113
0.01083698 -0.045154065 0.6868273
0.010943218 -0.047420561 0.68896466
0.011051559 -0.049732029 0.69114435
0.011162067 -0.052089661 0.6933676
0.011274807 -0.054494888 0.69563574
0.011389849 -0.056949228 0.69795018
0.011507261 -0.059454173 0.70031232
0.011627119 -0.062011272 0.70272368
0.0117495 -0.064622253 0.70518583
0.011874486 -0.067288756 0.70770037
0.012002159 -0.070012599 0.71026891
0.012132607 -0.07279563 0.71289337
0.012259936 0.075311035 0.68021917
0.011968503 0.07181102 0.67519355
0.011690604 0.068473548 0.67040139
0.011425318 0.06528756 0.66582668
0.011171804 0.062242925 0.66145498
0.010929297 0.059330493 0.65727305
0.010697094 0.056541771 0.65326893
0.010474551 0.053869098 0.64943129
0.010261081 0.051305383 0.64575016
0.010056138 0.048844069 0.64221603
0.0098592201 0.046479166 0.63882029
0.0096698673 0.044205129 0.63555503
0.0094876504 0.042016715 0.63241279
0.0093121734 0.039909303 0.62938678
0.0091430694 0.037878454 0.62647069
0.0089799985 0.035919994 0.62365866
0.0088226413 0.034030199 0.6209451
0.0086707044 0.032205462 0.61832511
0.0085239122 0.030442566 0.6157937
0.0085280873 0.029239148 0.61586577
0.008584301 0.028205544 0.61683512
0.0086412365 0.027158171 0.61781693
0.0086989794 0.02609694 0.61881262
0.0087574748 0.025021344 0.61982131
0.0088167628 0.023931235 0.62084371
0.0088768592 0.022826195 0.62188005
0.0089377798 0.021706045 0.62293059
0.0089995433 0.020570427 0.62399566
0.0090621654 0.019418925 0.62507558
0.0091256658 0.018251359 0.62617064
0.0091900611 0.017067283 0.62728107
0.0092553739 0.015866339 0.6284073
0.0093216198 0.014648229 0.62954974
0.0093888221 0.013412625 0.63070858
0.0094569996 0.01215899 0.63188422
0.0095261754 0.010887057 0.63307714
0.0095963692 0.0095963478 0.6342876
0.0096676061 0.0082865655 0.63551599
0.0097399084 0.0069571137 0.6367628
0.0098133003 0.0056076348 0.63802838
0.0098878071 0.0042376518 0.63931322
0.0099634528 0.0028467476 0.64061773
0.010040266 0.0014343262 0.64194226
0.010118272 -0 0.64328748
0.010197501 -0.0014567673 0.64465368
0.010277979 -0.0029365718 0.64604151
0.010359737 -0.0044398904 0.6474514
0.010442807 -0.005967319 0.64888388
0.01052722 -0.007519424 0.65033948
0.010613009 -0.0090968609 0.65181893
0.010700207 -0.010700226 0.65332258
0.010788851 -0.012330085 0.65485114
0.010878975 -0.013987273 0.65640533
0.010970617 -0.015672296 0.65798563
0.011063817 -0.01738596 0.65959281
0.011158614 -0.019129038 0.66122752
0.011255049 -0.020902216 0.66289049
0.011353165 -0.02270633 0.66458249
0.011453008 -0.024542153 0.66630417
0.011554621 -0.02641058 0.66805643
0.011658056 -0.028312415 0.6698401
0.011763357 -0.030248642 0.67165589
0.011870578 -0.032220125 0.67350489
0.011979772 -0.034227908 0.67538786
0.012090994 -0.036272973 0.67730582
0.012204301 -0.038356364 0.67925978
0.01231975 -0.040479153 0.68125057
0.012437404 -0.042642504 0.68327951
0.012557328 -0.044847608 0.6853475
0.012679586 -0.047095627 0.68745577
0.01280425 -0.049387842 0.68960547
0.012931389 -0.051725537 0.69179797
0.013061077 -0.054110169 0.69403434
0.013193394 -0.056543082 0.69631606
0.013328418 -0.059025854 0.69864446
0.013466235 -0.061559945 0.70102102
0.013606933 -0.064146936 0.70344722
0.013750601 -0.066788644 0.70592475
0.013897335 -0.069486678 0.70845503
0.014047234 -0.072242916 0.71104002
0.013858296 0.074488342 0.67790967
0.013532382 0.071045041 0.67299199
0.013221446 0.067759901 0.66830033
0.012924478 0.064622402 0.66381943
0.012640557 0.061622739 0.65953541
0.012368843 0.05875203 0.65543556
0.012108563 0.05600211 0.65150821
0.011859013 0.053365558 0.64774281
0.01161954 0.05083552 0.6441294
0.011389548 0.048405617 0.64065909
0.011168484 0.046070009 0.6373235
0.010955837 0.043823361 0.63411492
0.010751137 0.041660637 0.63102627
0.010553947 0.039577305 0.62805086
0.010363858 0.037569016 0.62518269
0.010180497 0.035631746 0.62241596
0.010003511 0.033761859 0.61974543
0.0098325731 0.031955868 0.61716616
0.0096673789 0.030210584 0.61467361
0.0097016655 0.029105008 0.61519098
0.0097653186 0.028075308 0.61615139
0.0098298118 0.027031958 0.61712456
0.0098951636 0.02597481 0.6181106
0.009961389 0.024903476 0.61910987
0.010028508 0.023817718 0.62012261
0.010096537 0.022717237 0.62114906
0.010165495 0.021601707 0.62218958
0.010235403 0.020470798 0.6232444
0.010306277 0.019324243 0.62431383
0.010378141 0.018161744 0.62539816
0.010451013 0.016982913 0.62649775
0.010524916 0.015787363 0.62761283
0.010599872 0.014574826 0.62874383
0.010675903 0.013344854 0.6298911
0.010753033 0.01209718 0.63105488
0.010831286 0.010831267 0.63223559
0.010910685 0.0095468163 0.6334337
0.010991258 0.0082434714 0.6346494
0.011073029 0.0069206655 0.63588321
0.011156025 0.0055780113 0.63713557
0.011240276 0.0042151511 0.63840675
0.011325809 0.0028314888 0.63969737
0.011412653 0.0014266074 0.64100778
0.01150084 -0 0.6423384
0.011590401 -0.0014487803 0.64368975
0.011681366 -0.0029202998 0.64506233
0.011773771 -0.0044151545 0.6464566
0.011867649 -0.0059338212 0.6478731
0.011963038 -0.0074768662 0.64931238
0.012059971 -0.009044975 0.65077502
0.012158488 -0.010638654 0.65226156
0.012258627 -0.012258619 0.65377253
0.012360431 -0.013905495 0.6553086
0.012463939 -0.015579909 0.65687042
0.012569197 -0.017282665 0.65845859
0.012676246 -0.019014359 0.66007394
0.012785134 -0.020775825 0.66171688
0.012895909 -0.022567809 0.66338837
0.013008622 -0.024391145 0.66508907
0.01312332 -0.026246607 0.66681975
0.013240061 -0.028135121 0.66858125
0.013358897 -0.03005752 0.67037427
0.013479885 -0.032014728 0.67219985
0.013603084 -0.034007698 0.67405885
0.013728557 -0.036037415 0.67595208
0.013856365 -0.038104981 0.67788053
0.013986576 -0.04021138 0.67984527
0.014119257 -0.042357743 0.68184727
0.014254481 -0.044545263 0.6838876
0.014392318 -0.046775013 0.68596745
0.014532847 -0.049048364 0.68808788
0.014676149 -0.051366538 0.6902501
0.014822303 -0.053730845 0.69245541
0.0149714 -0.056142747 0.69470513
0.015123525 -0.058603615 0.69700044
0.015278772 -0.061115086 0.69934297
0.015437242 -0.063678652 0.70173413
0.015599033 -0.066295892 0.70417535
0.015764251 -0.068968624 0.70666832
0.015933007 -0.071698517 0.70921463
0.016105413 -0.074487537 0.71181607
0.01579855 0.077237368 0.68069899
0.015422168 0.073683649 0.67565084
0.015063304 0.070295393 0.67083764
0.01472076 0.067061275 0.66624331
0.014393449 0.063970864 0.66185331
0.014080376 0.06101495 0.65765435
0.013780635 0.058184952 0.65363407
0.013493386 0.055472821 0.64978147
0.013217871 0.052871466 0.64608616
0.01295338 0.050374269 0.64253867
0.012699267 0.047975004 0.63913047
0.012454932 0.045668095 0.63585335
0.012219821 0.04344824 0.63269997
0.011993423 0.041310698 0.62966353
0.011775262 0.03925088 0.62673742
0.011564894 0.037264675 0.62391591
0.011361912 0.035348177 0.62119341
0.011165932 0.033497781 0.6185649
0.010976598 0.031710178 0.61602551
0.010794482 0.029984653 0.61358291
0.010864521 0.028972089 0.61452234
0.010935476 0.027946234 0.61547399
0.011007365 0.026906878 0.61643821
0.011080205 0.025853813 0.61741513
0.011154013 0.024786681 0.61840504
0.011228813 0.023705304 0.61940831
0.011304623 0.022609204 0.62042511
0.011381462 0.021498293 0.62145567
0.011459354 0.020372182 0.62250036
0.011538319 0.019230545 0.62355947
0.01161838 0.018073082 0.62463331
0.011699561 0.016899347 0.62572211
0.011781883 0.015709162 0.62682623
0.011865373 0.014502108 0.62794602
0.011950052 0.013277858 0.62908179
0.01203595 0.012035966 0.63023388
0.012123092 0.010776103 0.63140267
0.012211506 0.0094978511 0.63258851
0.012301218 0.0082008243 0.63379174
0.012392258 0.0068845749 0.63501281
0.012484656 0.0055487156 0.63625205
0.012578443 0.0041928291 0.63750994
0.012673647 0.0028163493 0.63878685
0.012770305 0.0014189482 0.64008325
0.012868448 -2.9802322e-08 0.64139962
0.012968112 -0.0014409125 0.64273632
0.013069332 -0.0029042661 0.64409387
0.013172144 -0.0043907166 0.64547282
0.013276585 -0.0059007108 0.64687365
0.013382697 -0.0074348152 0.64829683
0.013490519 -0.0089936554 0.64974296
0.013600092 -0.010577828 0.65121263
0.013711461 -0.012187958 0.65270633
0.013824667 -0.013824642 0.65422463
0.013939759 -0.015488595 0.65576828
0.014056782 -0.017180502 0.65733784
0.014175788 -0.01890102 0.658934
0.014296825 -0.020650953 0.66055739
0.014419948 -0.022431046 0.6622088
0.01454521 -0.024242043 0.66388881
0.014672666 -0.026084721 0.66559827
0.014802377 -0.027960092 0.66733801
0.014934401 -0.029868782 0.66910869
0.015068801 -0.031811893 0.67091131
0.015205641 -0.03379032 0.67274672
0.015344991 -0.035804987 0.67461568
0.015486919 -0.037856907 0.67651927
0.015631495 -0.039947152 0.67845833
0.015778799 -0.042076796 0.68043405
0.015928902 -0.044246942 0.68244731
0.01608189 -0.046458781 0.68449926
0.016237846 -0.048713535 0.68659097
0.016396854 -0.051012427 0.68872356
0.016559009 -0.053356797 0.69089848
0.016724467 -0.055748224 0.69311762
0.016893199 -0.058187664 0.69538081
0.01706537 -0.060676873 0.69768995
0.017241089 -0.063217342 0.70004678
0.017420461 -0.065810621 0.70245254
0.017603606 -0.068458498 0.70490897
0.017790643 -0.071162581 0.70741755
0.017981699 -0.07392478 0.70998001
0.017361756 0.076391727 0.67837906
0.016952556 0.072895974 0.67343956
0.016562199 0.069561243 0.66872758
0.016189415 0.066376597 0.66422766
0.015833043 0.06333217 0.65992588
0.015492022 0.060418874 0.6558094
0.015165383 0.057628453 0.65186644
0.014852231 0.054953277 0.64808643
0.014551752 0.052386314 0.64445931
0.014263189 0.049921185 0.64097601
0.01398585 0.04755187 0.63762826
0.013719089 0.045272976 0.63440818
0.013462314 0.043079406 0.63130867
0.013214974 0.040966421 0.62832296
0.012976559 0.038929701 0.62544501
0.012746594 0.036965162 0.6226691
0.012524637 0.035068989 0.61998987
0.01231028 0.033237755 0.61740232
0.012103135 0.031468123 0.6149019
0.011939687 0.029849231 0.61292887
0.012016805 0.028840333 0.61385977
0.012094926 0.027818322 0.61480278
0.012174069 0.02678296 0.61575812
0.012254255 0.025733978 0.61672604
0.012335505 0.024671018 0.61770684
0.012417839 0.023593903 0.61870068
0.012501279 0.022502333 0.61970794
0.012585849 0.021395952 0.62072873
0.012671569 0.02027452 0.62176347
0.012758466 0.019137681 0.62281239
0.012846564 0.017985195 0.62387586
0.012935887 0.016816646 0.6249541
0.013026458 0.015631765 0.62604737
0.01311831 0.014430135 0.62715614
0.013211465 0.013211489 0.62828058
0.013305951 0.011975348 0.62942117
0.0134018 0.010721445 0.63057816
0.013499039 0.009449333 0.63175195
0.0135977 0.0081585944 0.63294291
0.013697814 0.0068489015 0.63415134
0.013799412 0.0055197477 0.63537776
0.013902529 0.0041707754 0.63662255
0.014007199 0.0028014183 0.63788599
0.014113458 0.0014113486 0.63916862
0.014221339 -0 0.64047092
0.014330883 -0.0014330745 0.64179319
0.014442128 -0.0028883815 0.64313602
0.014555114 -0.0043665469 0.6444999
0.014669882 -0.0058679283 0.64588523
0.014786473 -0.0073932409 0.64729267
0.014904933 -0.0089429617 0.64872259
0.015025354 -0.010517746 0.65017617
0.015147689 -0.012118131 0.65165293
0.015272031 -0.013744861 0.65315384
0.015398431 -0.015398443 0.6546796
0.015526941 -0.017079622 0.65623093
0.015657615 -0.018789142 0.6578083
0.015790507 -0.020527661 0.65941238
0.015925674 -0.022295952 0.661044
0.016063174 -0.02409476 0.66270375
0.01620307 -0.025924891 0.66439253
0.016345425 -0.027787238 0.66611087
0.016490303 -0.029682547 0.66785967
0.01663777 -0.031611741 0.66963977
0.016787902 -0.033575773 0.67145199
0.016940765 -0.035575598 0.67329723
0.017096438 -0.03761217 0.67517638
0.017254999 -0.039686501 0.67709041
0.017416529 -0.041799664 0.67904025
0.017581113 -0.043952763 0.68102694
0.017748835 -0.046146989 0.68305153
0.01791979 -0.048383415 0.68511516
0.018094068 -0.050663352 0.68721884
0.01827177 -0.052988112 0.6893639
0.018452998 -0.055359006 0.69155157
0.018637856 -0.057777345 0.69378299
0.018826457 -0.06024462 0.69605953
0.019018913 -0.062762409 0.69838274
0.019215342 -0.065332144 0.70075381
0.019415872 -0.067955554 0.70317447
0.019620635 -0.070634276 0.70564616
0.019829759 -0.073370099 0.70817047
0.018891104 0.075564444 0.67610937
0.018450566 0.072124958 0.67127508
0.018030107 0.068842232 0.66666108
0.017628385 0.065705806 0.66225272
0.017244173 0.062706083 0.65803653
0.016876353 0.059834361 0.65400016
0.016523896 0.057082564 0.65013242
0.016185859 0.05444333 0.64642286
0.015861377 0.051909983 0.64286208
0.015549649 0.049476147 0.63944125
0.015249936 0.047136188 0.63615233
0.014961559 0.044884712 0.63298774
0.014683886 0.042716771 0.62994063
0.014416333 0.040627867 0.62700462
0.014158356 0.038613707 0.62417364
0.013909448 0.036670387 0.6214422
0.013669141 0.034794152 0.61880517
0.013436996 0.032981694 0.61625767
0.013212605 0.031229794 0.61379528
0.013074589 0.029715002 0.61228073
0.013158656 0.028709799 0.61320323
0.013243811 0.027691603 0.61413771
0.013330075 0.026660174 0.61508435
0.013417469 0.025615156 0.61604339
0.013506019 0.024556428 0.61701506
0.013595743 0.023483574 0.61799967
0.013686668 0.022396386 0.61899745
0.013778855 0.021294564 0.62000912
0.013872254 0.020177871 0.62103403
0.013966928 0.01904583 0.62207299
0.014062904 0.017898232 0.62312615
0.014160207 0.016734779 0.62419397
0.014258865 0.015555114 0.62527663
0.014358911 0.014358908 0.62637448
0.014460367 0.013145775 0.62748784
0.014563268 0.011915386 0.62861705
0.014667645 0.010667384 0.62976241
0.014773529 0.0094013214 0.63092434
0.014880951 0.0081169009 0.6321032
0.014989949 0.0068136156 0.63329929
0.015100555 0.0054911077 0.63451308
0.015212804 0.0041489601 0.63574481
0.015326735 0.002786696 0.63699508
0.015442385 0.0014038682 0.63826418
0.015559795 -0 0.63955259
0.015679004 -0.0014253557 0.6408608
0.015800053 -0.0028727651 0.64218915
0.015922984 -0.0043426454 0.64353818
0.016047845 -0.0058355629 0.64490831
0.01617468 -0.0073520839 0.64630014
0.016303534 -0.0088928342 0.64771414
0.016434457 -0.010458291 0.64915091
0.016567502 -0.012049079 0.65061092
0.016702719 -0.013665855 0.65209472
0.01684016 -0.015309244 0.65360296
0.016979882 -0.016979873 0.65513617
0.017121941 -0.018678486 0.65669513
0.017266398 -0.02040574 0.65828037
0.017413313 -0.022162408 0.65989256
0.017562751 -0.023949176 0.6615324
0.017714774 -0.025766909 0.66320074
0.017869454 -0.027616411 0.6648981
0.018026857 -0.029498488 0.66662538
0.018187057 -0.031414002 0.66838342
0.018350132 -0.033363909 0.67017293
0.018516157 -0.035349041 0.67199486
0.018685214 -0.037370414 0.67385
0.018857386 -0.039429069 0.67573935
0.019032761 -0.04152602 0.67766392
0.019211428 -0.043662339 0.67962456
0.019393481 -0.045839131 0.68162233
0.019579018 -0.048057556 0.68365836
0.019768139 -0.050318897 0.68573374
0.019960949 -0.052624345 0.68784958
0.020157559 -0.054975152 0.69000709
0.02035808 -0.057372779 0.69220752
0.020562628 -0.059818566 0.69445223
0.02077133 -0.062313974 0.69674242
0.020984313 -0.064860612 0.69907963
0.021201707 -0.067460001 0.70146525
0.021423653 -0.070113778 0.70390081
0.021650296 -0.072823733 0.70638794
0.020387754 0.074755102 0.6738891
0.019917291 0.071370274 0.66915661
0.019468049 0.068138212 0.66463757
0.019038627 0.065048665 0.6603179
0.018627739 0.062092453 0.65618467
0.018234214 0.059261203 0.65222615
0.017856915 0.056546956 0.64843082
0.017494965 0.0539428 0.64478993
0.017147399 0.051442206 0.64129364
0.016813373 0.049039006 0.63793361
0.016492112 0.046727657 0.63470191
0.016182899 0.044502974 0.63159156
0.015885066 0.042360157 0.62859559
0.015597998 0.040294826 0.62570786
0.015321122 0.038302809 0.62292272
0.015053903 0.036380291 0.62023473
0.014795846 0.034523636 0.61763883
0.014546487 0.032729626 0.61513048
0.01430543 0.030995101 0.61270559
0.014199366 0.029582024 0.61163872
0.014290255 0.028580517 0.61255294
0.014382312 0.027566135 0.61347902
0.014475564 0.026538551 0.61441702
0.014570033 0.025497586 0.61536735
0.014665744 0.024442881 0.61633015
0.014762721 0.023374319 0.61730564
0.014860988 0.022291481 0.61829412
0.014960572 0.02119416 0.61929584
0.0150615 0.020082027 0.62031114
0.0151638 0.018954754 0.62134016
0.015267497 0.017812073 0.6223833
0.015372624 0.016653687 0.62344074
0.015479207 0.015479207 0.62451297
0.01558728 0.014288336 0.62560004
0.015696872 0.013080716 0.62670243
0.015808016 0.011856019 0.62782049
0.015920745 0.010613829 0.62895441
0.016035093 0.0093537867 0.63010466
0.016151095 0.0080755353 0.6312716
0.01626879 0.0067786872 0.63245553
0.01638821 0.0054627359 0.6336568
0.016509397 0.0041273534 0.63487583
0.016632391 0.002772063 0.63611305
0.016757229 0.0013964176 0.63736886
0.016883958 -2.9802322e-08 0.63864362
0.017012617 -0.0014177263 0.63993782
0.017143251 -0.0028572083 0.64125192
0.017275909 -0.0043190122 0.64258635
0.017410634 -0.0058035254 0.64394158
0.017547477 -0.0073114336 0.64531809
0.01768649 -0.0088432431 0.64671648
0.017827721 -0.01039952 0.64813715
0.017971227 -0.011980861 0.64958072
0.018117063 -0.013587773 0.65104771
0.018265283 -0.015221059 0.65253866
0.018415948 -0.016881317 0.65405428
0.018569121 -0.018569082 0.65559506
0.018724862 -0.020285279 0.65716171
0.018883239 -0.022030443 0.65875483
0.019044317 -0.02380541 0.66037518
0.019208167 -0.025610894 0.66202337
0.01937486 -0.027447701 0.66370016
0.019544473 -0.029316723 0.66540635
0.019717081 -0.031218737 0.66714263
0.019892767 -0.033154607 0.66890985
0.020071609 -0.035125315 0.67070889
0.020253697 -0.037131786 0.67254055
0.020439118 -0.039174944 0.67440569
0.020627968 -0.041255951 0.67630547
0.020820338 -0.043375671 0.67824054
0.021016331 -0.045535356 0.68021208
0.02121605 -0.047736108 0.68222111
0.021419598 -0.049979061 0.68426865
0.021627093 -0.052265465 0.68635583
0.021838645 -0.054596603 0.68848395
0.022054376 -0.056973815 0.69065404
0.022274416 -0.059398443 0.6928674
0.022498887 -0.061871916 0.69512546
0.022727929 -0.064395785 0.69742942
0.022961682 -0.06697157 0.69978082
0.023200294 -0.06960088 0.7021811
0.023443919 -0.072285414 0.70463175
0.021852607 0.073962688 0.67171508
0.021353563 0.070631057 0.66708124
0.020876804 0.067448109 0.6626544
0.02042087 0.064404309 0.65842086
0.019984424 0.061490566 0.65436822
0.019566244 0.058698714 0.65048528
0.019165205 0.056021363 0.64676142
0.018780278 0.053451568 0.64318722
0.018410506 0.050982952 0.6397537
0.018055016 0.048609674 0.63645279
0.017712994 0.04632628 0.633277
0.017383689 0.044127852 0.63021922
0.017066404 0.042009622 0.62727314
0.016760495 0.039967328 0.62443268
0.016465358 0.037997007 0.62169212
0.016180437 0.036094815 0.61904657
0.015905207 0.034257382 0.61649096
0.015639184 0.032481372 0.61402076
0.015381915 0.030763835 0.61163193
0.015314084 0.029450148 0.61100209
0.015411667 0.028452307 0.6119082
0.015510502 0.02744168 0.61282593
0.015610611 0.026417971 0.61375546
0.015712023 0.025380969 0.6146971
0.015814759 0.024330407 0.61565107
0.015918849 0.023266017 0.61661756
0.016024318 0.022187531 0.61759692
0.016131194 0.02109465 0.61858928
0.016239503 0.019987077 0.61959505
0.01634928 0.018864572 0.62061435
0.016460549 0.017726719 0.62164754
0.016573343 0.01657337 0.62269485
0.016687693 0.015404016 0.62375665
0.016803635 0.014218479 0.62483317
0.016921196 0.013016313 0.62592483
0.017040415 0.01179722 0.6270318
0.017161326 0.01056084 0.62815452
0.017283965 0.0093067288 0.62929326
0.017408369 0.0080346167 0.63044846
0.017534576 0.0067440867 0.63162035
0.017662626 0.0054346621 0.63280934
0.017792562 0.0041059852 0.6340158
0.017924424 0.0027576387 0.6352402
0.018058253 0.001389116 0.63648283
0.018194096 2.9802322e-08 0.63774419
0.018332001 -0.0014101565 0.63902473
0.018472008 -0.0028418303 0.64032483
0.018614173 -0.0042955577 0.64164484
0.018758543 -0.0057718456 0.64298534
0.01890517 -0.0072712302 0.64434689
0.019054107 -0.0087941885 0.64572978
0.019205408 -0.010341346 0.64713472
0.019359132 -0.0119133 0.64856207
0.019515337 -0.013510615 0.65001255
0.019674085 -0.015133917 0.65148658
0.019835433 -0.016783834 0.6529848
0.019999452 -0.018461019 0.65450782
0.020166205 -0.020166218 0.65605617
0.020335764 -0.021900028 0.65763056
0.020508196 -0.023663282 0.65923166
0.020683579 -0.025456727 0.66086018
0.020861987 -0.027281046 0.66251677
0.0210435 -0.029137135 0.66420221
0.021228198 -0.031025827 0.66591722
0.021416169 -0.032947928 0.66766256
0.021607498 -0.03490442 0.6694392
0.021802275 -0.036896139 0.67124772
0.022000594 -0.038924098 0.67308927
0.022202559 -0.040989339 0.67496455
0.022408262 -0.043092817 0.67687458
0.022617815 -0.045235604 0.67882037
0.022831323 -0.047418892 0.68080294
0.0230489 -0.049643785 0.68282324
0.023270663 -0.051911473 0.6848824
0.023496738 -0.054223239 0.68698162
0.023727247 -0.056580365 0.68912196
0.023962323 -0.05898416 0.69130468
0.024202105 -0.061436087 0.69353122
0.024446733 -0.063937604 0.69580269
0.024696358 -0.066490203 0.69812059
0.02495113 -0.069095433 0.7004863
0.025211321 -0.07175529 0.70290226
0.025476888 -0.074470878 0.7053681
0.023837991 0.076622128 0.67433983
0.023286728 0.073186904 0.66958678
0.022760389 0.06990689 0.66504854
0.022257313 0.066771954 0.66071093
0.021775996 0.063772559 0.6565609
0.021315059 0.060900152 0.65258658
0.020873226 0.058146834 0.64877707
0.02044934 0.055505365 0.64512229
0.020042328 0.052969009 0.64161295
0.019651202 0.050531656 0.63824058
0.019275049 0.048187613 0.63499731
0.018913025 0.045931637 0.63187587
0.018564351 0.043758839 0.62886953
0.0182283 0.04166469 0.62597197
0.017904198 0.039645016 0.62317753
0.017591421 0.037695915 0.62048072
0.017289383 0.035813749 0.61787653
0.016997544 0.033995122 0.6153602
0.016715392 0.032236814 0.61292744
0.016442453 0.030535966 0.61057413
0.01641891 0.029319495 0.61037111
0.016523063 0.028325289 0.61126912
0.01662855 0.027318329 0.61217868
0.016735392 0.026298493 0.61309981
0.016843615 0.025265455 0.61403298
0.016953247 0.024218917 0.61497825
0.017064314 0.023158699 0.61593592
0.017176848 0.022084504 0.61690617
0.017290875 0.020996094 0.61788929
0.017406425 0.01989308 0.61888564
0.017523533 0.018775225 0.6198954
0.017642224 0.01764223 0.62091875
0.017762536 0.016493767 0.62195611
0.017884498 0.01532957 0.62300771
0.01800815 0.014149249 0.62407386
0.018133521 0.012952536 0.62515479
0.01826065 0.011738986 0.62625098
0.018389575 0.010508329 0.62736255
0.018520333 0.0092601776 0.62848997
0.018652964 0.0079941154 0.62963361
0.018787509 0.0067098141 0.63079369
0.018924009 0.0054068863 0.63197052
0.019062506 0.0040848255 0.6331647
0.019203044 0.0027433038 0.63437641
0.019345671 0.0013818443 0.63560617
0.019490434 -0 0.63685435
0.019637378 -0.0014026463 0.63812137
0.019786555 -0.0028266609 0.63940763
0.019938016 -0.0042724013 0.64071345
0.020091875 -0.0057405233 0.64204013
0.020248063 -0.0072314441 0.64338684
0.020406701 -0.0087457299 0.64475459
0.020567844 -0.010283887 0.64614397
0.020731552 -0.011846572 0.64755553
0.020897886 -0.01343435 0.64898974
0.021066912 -0.015047789 0.65044701
0.021238692 -0.016687512 0.65192819
0.021413298 -0.018354237 0.65343368
0.021590799 -0.020048618 0.65496415
0.021771267 -0.021771252 0.65652013
0.021954779 -0.023522943 0.65810245
0.02214141 -0.025304437 0.6597116
0.02233124 -0.027116507 0.66134834
0.022524353 -0.0289599 0.66301346
0.022720836 -0.03083542 0.66470754
0.022920776 -0.032743961 0.66643143
0.023124268 -0.034686416 0.66818595
0.023331404 -0.036663651 0.66997194
0.023542285 -0.03867662 0.67179024
0.023757014 -0.040726304 0.67364156
0.023975695 -0.042813718 0.67552716
0.024198439 -0.044939935 0.67744768
0.024425361 -0.047106028 0.67940426
0.024656581 -0.049313128 0.68139786
0.024892217 -0.051562428 0.6834296
0.025132401 -0.053855151 0.6855005
0.025377268 -0.056192517 0.6876117
0.02562695 -0.058575898 0.68976462
0.025881598 -0.061006606 0.69196022
0.026141353 -0.063486129 0.69419986
0.026406378 -0.066015929 0.69648492
0.026676832 -0.068597585 0.6988169
0.026952881 -0.071232617 0.70119703
0.027234701 -0.073922753 0.70362699
0.025269376 0.075808138 0.67215633
0.024691081 0.072427213 0.66750252
0.024138659 0.069197506 0.66305703
0.023610415 0.06610918 0.65880603
0.0231048 0.063153118 0.65473717
0.022620382 0.060321033 0.65083891
0.022155862 0.057605237 0.64710069
0.021710034 0.054998785 0.64351302
0.021281797 0.052495092 0.6400668
0.020870125 0.050088316 0.63675392
0.02047408 0.047772825 0.6335668
0.020092785 0.045543611 0.63049835
0.019725433 0.043395966 0.62754214
0.019371271 0.04132539 0.62469208
0.019029602 0.03932786 0.62194252
0.018699778 0.03739959 0.61928833
0.018381191 0.035536945 0.61672455
0.018073279 0.033736825 0.61424661
0.017775513 0.031995952 0.61185038
0.017487399 0.030311495 0.60953188
0.017513972 0.029189974 0.60974568
0.017624581 0.028199345 0.61063582
0.017736595 0.027196139 0.61153722
0.017850043 0.026180059 0.61245012
0.01796495 0.025150925 0.61337489
0.018081348 0.024108469 0.61431158
0.018199308 0.023052454 0.61526084
0.018318772 0.021982551 0.6162222
0.018439816 0.020898461 0.61719626
0.018562468 0.019799978 0.61818337
0.018686764 0.018686771 0.6191836
0.018812735 0.017558545 0.62019736
0.018940415 0.01641503 0.62122482
0.019069841 0.015255868 0.62226629
0.01920105 0.014080763 0.62332225
0.019334074 0.012889385 0.62439275
0.019468954 0.011681408 0.62547815
0.019605732 0.010456443 0.62657887
0.019744443 0.0092141032 0.62769514
0.019885132 0.007954061 0.62882727
0.020027839 0.0066759586 0.62997574
0.020172609 0.0053794086 0.63114071
0.020319488 0.0040639043 0.63232273
0.020468522 0.0027291477 0.63352209
0.020619759 0.0013746321 0.6347391
0.020773247 2.9802322e-08 0.63597429
0.020929035 -0.0013952255 0.63722795
0.021087179 -0.0028116107 0.63850063
0.021247732 -0.0042495728 0.63979268
0.021410746 -0.0057095289 0.64110446
0.021576283 -0.0071920753 0.64243662
0.021744398 -0.0086977482 0.64378953
0.021915156 -0.010227054 0.64516366
0.022088615 -0.01178059 0.64655954
0.022264842 -0.013358921 0.64797777
0.022443904 -0.014962584 0.64941871
0.022625871 -0.016592294 0.65088308
0.022810809 -0.018248618 0.65237135
0.022998799 -0.0199323 0.65388417
0.02318991 -0.021643907 0.65542209
0.023384226 -0.023384213 0.65698588
0.023581827 -0.025153935 0.65857601
0.023782792 -0.026953816 0.66019326
0.023987213 -0.028784692 0.66183835
0.024195181 -0.030647218 0.66351193
0.024406785 -0.032542378 0.66521478
0.024622124 -0.034470946 0.66694766
0.024841297 -0.036433905 0.66871142
0.025064405 -0.038432032 0.67050683
0.025291556 -0.040466487 0.67233485
0.025522865 -0.042538106 0.67419624
0.025758443 -0.044647962 0.67609203
0.02599841 -0.046797127 0.67802316
0.026242889 -0.048986703 0.67999065
0.026492011 -0.051217914 0.68199533
0.026745908 -0.053491801 0.68403852
0.027004719 -0.055809736 0.68612128
0.027268587 -0.058172941 0.6882447
0.027537663 -0.060582876 0.69041014
0.027812101 -0.063040763 0.69261861
0.028092066 -0.065548122 0.6948716
0.028377723 -0.068106502 0.69717038
0.028669251 -0.070717484 0.69951642
0.028966829 -0.073382616 0.70191115
0.026670763 0.075011522 0.67001951
0.026066665 0.071683347 0.66546196
0.025489325 0.068502575 0.66110623
0.024937006 0.065459639 0.65693933
0.024408111 0.062545776 0.65294909
0.023901191 0.059752971 0.64912474
0.023414897 0.057073832 0.6454559
0.022947995 0.054501474 0.64193338
0.022499351 0.052029759 0.63854861
0.022067912 0.049652815 0.63529366
0.021652708 0.047365308 0.63216114
0.021252841 0.04516232 0.62914443
0.020867473 0.043039173 0.62623703
0.02049583 0.040991664 0.62343323
0.020137196 0.03901583 0.62072754
0.019790897 0.037107915 0.61811489
0.019456305 0.035264522 0.61559063
0.01913284 0.033482492 0.61315024
0.018819954 0.031758696 0.61078972
0.018517137 0.030090362 0.60850513
0.018599447 0.029061645 0.60912609
0.018716393 0.028074622 0.61000836
0.018834816 0.027075052 0.61090183
0.018954748 0.026062787 0.61180663
0.019076219 0.025037527 0.61272311
0.019199254 0.023999065 0.61365134
0.019323887 0.022947103 0.6145916
0.01945015 0.021881431 0.6155442
0.019578071 0.020801693 0.61650926
0.019707689 0.01970771 0.61748713
0.019839035 0.018599093 0.61847806
0.019972142 0.017475605 0.61948228
0.020107048 0.016336977 0.62050009
0.020243788 0.015182853 0.62153167
0.020382401 0.014012903 0.62257743
0.020522924 0.01282686 0.62363756
0.0206654 0.011624277 0.62471259
0.020809866 0.010404915 0.62580246
0.020956369 0.0091684163 0.62690771
0.021104947 0.0079143643 0.62802863
0.021255646 0.0066423714 0.62916559
0.021408515 0.0053521395 0.63031894
0.021563597 0.0040431619 0.63148892
0.021720944 0.0027151406 0.63267601
0.021880604 0.0013675392 0.63388056
0.022042628 2.9802322e-08 0.63510287
0.02220707 -0.001387924 0.63634354
0.022373982 -0.0027967691 0.63760281
0.022543423 -0.004226923 0.63888115
0.022715449 -0.0056788325 0.64017898
0.022890124 -0.0071531534 0.64149678
0.023067504 -0.0086503327 0.64283502
0.023247654 -0.010170847 0.64419413
0.023430642 -0.011715293 0.64557469
0.023616532 -0.013284296 0.64697707
0.023805397 -0.014878333 0.64840198
0.023997303 -0.016498148 0.64984977
0.024192331 -0.01814425 0.65132117
0.024390554 -0.019817322 0.65281665
0.024592055 -0.021518022 0.65433681
0.024796911 -0.023247093 0.65588236
0.025005206 -0.025005192 0.65745384
0.025217034 -0.026793122 0.65905195
0.025432482 -0.028611511 0.66067737
0.025651641 -0.030461311 0.66233081
0.025874611 -0.032343239 0.66401297
0.026101489 -0.034258187 0.66572464
0.026332382 -0.03620702 0.66746664
0.026567398 -0.038190633 0.66923964
0.026806645 -0.040209949 0.67104465
0.02705024 -0.042265981 0.67288244
0.027298305 -0.044359744 0.6747539
0.027550958 -0.046492219 0.67666006
0.027808337 -0.04866457 0.67860186
0.028070565 -0.050877869 0.6805802
0.028337788 -0.053133339 0.68259621
0.028610148 -0.055432171 0.68465102
0.028887793 -0.057775587 0.68674564
0.02917088 -0.060164928 0.6888814
0.029459571 -0.062601596 0.69105941
0.029754033 -0.065086931 0.69328094
0.030054439 -0.067622513 0.6955474
0.030360974 -0.070209742 0.69786
0.03067383 -0.072850347 0.70022029
0.028042909 0.074231207 0.66792637
0.027414186 0.070954382 0.6634621
0.026813041 0.067821205 0.65919358
0.026237695 0.064822555 0.65510821
0.025686517 0.061949849 0.65119451
0.025158022 0.05919534 0.64744186
0.024650836 0.056551933 0.64384055
0.024163697 0.054012954 0.64038157
0.023695437 0.051572412 0.63705659
0.023244979 0.049224675 0.63385808
0.022811331 0.046964496 0.63077891
0.022393564 0.044787139 0.6278125
0.021990826 0.042688072 0.62495279
0.021602318 0.040663183 0.62219417
0.021227298 0.038708627 0.61953127
0.020865075 0.03682074 0.61695921
0.02051501 0.034996212 0.61447358
0.020176496 0.033231914 0.61206985
0.019848973 0.031524837 0.60974431
0.019553734 0.029905707 0.6076479
0.019675374 0.02893436 0.60851163
0.019798538 0.027950883 0.60938621
0.019923253 0.026954979 0.61027169
0.020049552 0.025946468 0.6111685
0.020177457 0.024925143 0.61207676
0.02030701 0.023890615 0.61299664
0.020438235 0.022842735 0.61392844
0.020571167 0.021781236 0.61487228
0.02070584 0.020705819 0.61582857
0.020842286 0.019616246 0.61679745
