# .PCD v0.7 - Point Cloud Data file format
VERSION 0.7
FIELDS x y z
SIZE 4 4 4
TYPE F F F
COUNT 1 1 1
WIDTH 1314
HEIGHT 1
VIEWPOINT 0 0 0 1 0 0 0
POINTS 1314
DATA ascii
-0.034573574 0.018439233 0.60791743
-0.034573574 0.017286807 0.60791743
-0.034573574 0.016134351 0.60791743
-0.034573574 0.014981866 0.60791743
-0.034573574 0.01382941 0.60791743
-0.034573574 0.012676954 0.60791743
-0.034573574 0.011524498 0.60791743
-0.034573574 0.010372072 0.60791743
-0.034573574 0.0092196167 0.60791749
-0.034573574 0.0080671608 0.60791743
-0.034573574 0.006914705 0.60791743
-0.034573574 0.005762279 0.60791743
-0.034573574 0.0046097934 0.60791743
-0.034573574 0.0034573376 0.60791743
-0.034573574 0.0023048818 0.60791743
-0.034573574 0.0011524856 0.60791743
-0.034573574 -0 0.60791749
-0.034573574 -0.001152426 0.60791743
-0.034573574 -0.0023049116 0.60791743
-0.034573574 -0.0034573376 0.60791743
-0.034573574 -0.0046097934 0.60791749
-0.034573574 -0.0057622492 0.60791743
-0.03350471 0.027728081 0.60826534
-0.03350471 0.026572704 0.6082654
-0.03350471 0.025417387 0.60826534
-0.03350471 0.024262041 0.60826534
-0.03350471 0.023106724 0.6082654
-0.03350471 0.021951377 0.60826534
-0.03350471 0.020796031 0.6082654
-0.03350471 0.019640714 0.60826534
-0.03350471 0.018485337 0.6082654
-0.03350471 0.01733005 0.6082654
-0.03350471 0.016174674 0.60826534
-0.03350471 0.015019357 0.6082654
-0.03350471 0.01386404 0.6082654
-0.03350471 0.012708664 0.6082654
-0.03350471 0.011553347 0.60826534
-0.03350471 0.01039803 0.60826534
-0.03350471 0.0092427135 0.6082654
-0.03350471 0.008087337 0.60826534
-0.03350471 0.0069320202 0.6082654
-0.03350471 0.0057767034 0.6082654
-0.03350471 0.0046213269 0.6082654
-0.03350471 0.0034660101 0.6082654
-0.03350471 0.0023106635 0.60826534
-0.03350471 0.0011553466 0.6082654
-0.03350471 -0 0.6082654
-0.03350471 -0.0011553168 0.60826534
-0.03350471 -0.0023106635 0.6082654
-0.03350471 -0.0034660101 0.60826534
-0.03350471 -0.0046213567 0.6082654
-0.03350471 -0.0057767034 0.60826534
-0.032430485 0.028955787 0.60861504
-0.032430485 0.02779755 0.6086151
-0.032430485 0.026639342 0.60861504
-0.032430485 0.025481135 0.60861504
-0.032430485 0.024322897 0.60861504
-0.032430485 0.02316466 0.60861504
-0.032430485 0.022006422 0.60861504
-0.032430485 0.020848185 0.60861504
-0.032430485 0.019689947 0.60861504
-0.032430485 0.01853171 0.60861504
-0.032430485 0.017373502 0.60861504
-0.032430485 0.016215235 0.60861504
-0.032430485 0.015056998 0.60861504
-0.032430485 0.01389876 0.60861504
-0.032430485 0.012740552 0.60861504
-0.032430485 0.011582315 0.60861504
-0.032430485 0.010424078 0.60861504
-0.032430485 0.0092658699 0.60861504
-0.032430485 0.0081076324 0.60861504
-0.032430485 0.0069493651 0.60861504
-0.032430485 0.0057911575 0.60861504
-0.032430485 0.00463292 0.60861504
-0.032430485 0.0034747124 0.60861504
-0.032430485 0.0023164451 0.60861504
-0.032430485 0.0011582077 0.60861504
-0.032430485 2.9802322e-08 0.60861504
-0.032430485 -0.0011582077 0.60861504
-0.032430485 -0.0023164451 0.60861504
-0.032430485 -0.0034746826 0.60861504
-0.032430485 -0.00463292 0.60861504
-0.032430485 -0.0057911277 0.60861504
-0.032430485 -0.0069493949 0.60861504
-0.031350862 0.031350881 0.60896647
-0.031350862 0.030189753 0.60896647
-0.031350862 0.029028565 0.60896647
-0.031350862 0.027867436 0.60896653
-0.031350862 0.026706278 0.60896647
-0.031350862 0.02554515 0.60896647
-0.031350862 0.024384022 0.60896647
-0.031350862 0.023222893 0.60896647
-0.031350862 0.022061735 0.60896647
-0.031350862 0.020900577 0.60896653
-0.031350862 0.019739479 0.60896647
-0.031350862 0.018578291 0.60896647
-0.031350862 0.017417163 0.60896647
-0.031350862 0.016256005 0.60896647
-0.031350862 0.015094846 0.60896647
-0.031350862 0.013933688 0.60896653
-0.031350862 0.01277259 0.60896647
-0.031350862 0.011611432 0.60896647
-0.031350862 0.010450304 0.60896647
-0.031350862 0.0092891455 0.60896647
-0.031350862 0.0081279874 0.60896653
-0.031350937 0.0069668889 0.60896683
-0.031350937 0.0058057308 0.60896683
-0.031350937 0.0046446323 0.60896683
-0.031350937 0.0034834445 0.60896683
-0.031350937 0.0023222864 0.60896683
-0.031350937 0.0011611581 0.60896683
-0.031350937 -0 0.60896683
-0.031350937 -0.0011611581 0.60896683
-0.031350862 -0.0023222566 0.60896647
-0.031350862 -0.0034834445 0.60896647
-0.031350862 -0.0046446025 0.60896647
-0.031350862 -0.005805701 0.60896647
-0.031350862 -0.0069668591 0.60896647
-0.03026587 0.033758104 0.60932004
-0.03026587 0.032594025 0.60932004
-0.03026587 0.031429946 0.60932004
-0.03026587 0.030265868 0.60932004
-0.03026587 0.029101819 0.60932004
-0.03026587 0.02793771 0.60932004
-0.03026587 0.026773661 0.60932004
-0.03026587 0.025609612 0.60932004
-0.03026587 0.024445504 0.60932004
-0.03026587 0.023281455 0.60931998
-0.03026587 0.022117376 0.60932004
-0.03026587 0.020953327 0.60931998
-0.03026587 0.019789219 0.60932004
-0.03026587 0.01862517 0.60932004
-0.03026587 0.017461091 0.60932004
-0.03026587 0.016297013 0.60932004
-0.03026587 0.015132934 0.60932004
-0.03026587 0.013968885 0.60932004
-0.03026587 0.012804776 0.60932004
-0.03026587 0.011640728 0.60932004
-0.03026587 0.010476649 0.60932004
-0.03026587 0.0093125999 0.60932004
-0.03026587 0.0081485212 0.60932004
-0.03026587 0.0069844425 0.60932004
-0.03026587 0.0058203936 0.60932004
-0.03026587 0.0046562552 0.60932004
-0.03026587 0.0034922361 0.60931998
-0.03026587 0.0023281574 0.60932004
-0.03026587 0.0011640787 0.60932004
-0.03026587 -0 0.60932004
-0.03026587 -0.0011640489 0.60932004
-0.03026587 -0.0023281574 0.60932004
-0.03026587 -0.0034922063 0.60932004
-0.03026587 -0.004656285 0.60932004
-0.03026587 -0.0058203638 0.60932004
-0.03026587 -0.0069844425 0.60932004
-0.03026587 -0.0081484914 0.60932004
-0.029175319 0.035010397 0.60967505
-0.029175319 0.033843398 0.60967499
-0.029175319 0.032676339 0.60967505
-0.029175319 0.03150934 0.60967499
-0.029175319 0.03034234 0.60967499
-0.029175319 0.029175311 0.60967505
-0.029175319 0.028008312 0.60967499
-0.029175319 0.026841313 0.60967505
-0.029175319 0.025674313 0.60967505
-0.029175319 0.024507254 0.60967505
-0.029175319 0.023340255 0.60967505
-0.029175319 0.022173256 0.60967499
-0.029175319 0.021006227 0.60967505
-0.029175319 0.019839227 0.60967505
-0.029175319 0.018672198 0.60967505
-0.029175319 0.017505199 0.60967505
-0.029175319 0.01633817 0.60967499
-0.029175319 0.01517117 0.60967505
-0.029175319 0.014004171 0.60967505
-0.029175319 0.012837142 0.60967505
-0.029175319 0.011670142 0.60967505
-0.029175319 0.010503173 0.60967505
-0.029175319 0.0093360841 0.60967505
-0.029175319 0.0081690848 0.60967505
-0.029175319 0.0070021152 0.60967499
-0.029175319 0.0058350861 0.60967505
-0.029175319 0.004668057 0.60967499
-0.029175319 0.0035010278 0.60967505
-0.029175319 0.0023340583 0.60967505
-0.029175319 0.0011669993 0.60967505
-0.029175319 -0 0.60967505
-0.029175319 -0.0011669993 0.60967499
-0.029175319 -0.0023339987 0.60967505
-0.029175319 -0.003500998 0.60967505
-0.029175319 -0.004668057 0.60967505
-0.029175319 -0.0058350563 0.60967505
-0.029175319 -0.0070020854 0.60967505
-0.029175319 -0.0081690848 0.60967505
-0.028079245 0.037438989 0.61003184
-0.028079245 0.036269009 0.61003178
-0.028079245 0.035099059 0.61003184
-0.028079245 0.03392911 0.61003184
-0.028079245 0.03275913 0.61003184
-0.028079245 0.03158915 0.61003178
-0.028079245 0.030419201 0.61003184
-0.028079245 0.029249221 0.61003184
-0.028079245 0.028079242 0.61003184
-0.028079245 0.026909292 0.61003184
-0.028079245 0.025739342 0.61003184
-0.028079245 0.024569333 0.61003184
-0.028079245 0.023399323 0.61003184
-0.028079245 0.022229403 0.61003184
-0.028079245 0.021059453 0.61003184
-0.028079245 0.019889474 0.61003184
-0.028079245 0.018719494 0.61003178
-0.028079245 0.017549545 0.61003184
-0.028079245 0.016379595 0.61003178
-0.028079245 0.015209585 0.61003184
-0.028079245 0.014039636 0.61003178
-0.028079245 0.012869656 0.61003184
-0.028079245 0.011699706 0.61003184
-0.028079245 0.010529727 0.61003184
-0.028079245 0.009359777 0.61003184
-0.028079245 0.0081897974 0.61003184
-0.028079245 0.0070198476 0.61003184
-0.028079245 0.0058498085 0.61003184
-0.028079245 0.0046798587 0.61003184
-0.028079245 0.0035099387 0.61003178
-0.028079245 0.0023399293 0.61003184
-0.028079245 0.0011699498 0.61003184
-0.028079245 -0 0.61003184
-0.028079245 -0.00116992 0.61003178
-0.028079245 -0.0023399293 0.61003184
-0.028079245 -0.0035098791 0.61003178
-0.028079245 -0.0046798587 0.61003184
-0.028079245 -0.0058498383 0.61003178
-0.028079245 -0.0070198178 0.61003184
-0.028079245 -0.0081897676 0.61003184
-0.028079245 -0.0093597174 0.61003184
-0.026977606 0.039879948 0.61039042
-0.026977606 0.038707018 0.61039042
-0.026977606 0.037534058 0.61039042
-0.026977606 0.036361098 0.61039042
-0.026977606 0.035188198 0.61039042
-0.026977606 0.034015238 0.61039042
-0.026977606 0.032842278 0.61039042
-0.026977606 0.031669348 0.61039042
-0.026977606 0.030496418 0.61039042
-0.026977606 0.029323488 0.61039042
-0.026977606 0.028150588 0.61039042
-0.026977606 0.026977599 0.61039042
-0.026977606 0.025804669 0.61039042
-0.026977606 0.024631709 0.61039042
-0.026977606 0.023458779 0.61039042
-0.026977606 0.022285849 0.61039042
-0.026977606 0.021112889 0.61039042
-0.026977606 0.019939989 0.61039042
-0.026977606 0.018767029 0.61039042
-0.026977606 0.017594099 0.61039042
-0.026977606 0.016421169 0.61039042
-0.026977606 0.015248209 0.61039042
-0.026977606 0.014075279 0.61039042
-0.026977606 0.012902319 0.61039037
-0.026977606 0.011729389 0.61039042
-0.026977606 0.01055643 0.61039042
-0.026977606 0.0093835294 0.61039042
-0.026977606 0.0082105994 0.61039042
-0.026977606 0.0070376396 0.61039042
-0.026977606 0.0058647096 0.61039042
-0.026977606 0.0046917498 0.61039042
-0.026977606 0.0035188198 0.61039042
-0.026977606 0.00234586 0.61039042
-0.026977606 0.00117293 0.61039042
-0.026977606 -0 0.61039042
-0.026977606 -0.0011729598 0.61039042
-0.026977606 -0.00234586 0.61039042
-0.026977606 -0.00351879 0.61039042
-0.026977606 -0.0046917796 0.61039042
-0.026977606 -0.0058646798 0.61039042
-0.026977606 -0.0070376396 0.61039042
-0.026977606 -0.0082105696 0.61039037
-0.026977606 -0.0093835294 0.61039042
-0.026977606 -0.010556459 0.61039042
-0.025870355 0.041157395 0.61075085
-0.025870355 0.039981455 0.61075085
-0.025870355 0.038805515 0.61075085
-0.025870355 0.037629634 0.61075085
-0.025870355 0.036453724 0.61075085
-0.025870355 0.035277754 0.61075079
-0.025870355 0.034101844 0.61075079
-0.025870355 0.032925934 0.61075085
-0.025870355 0.031749994 0.61075085
-0.025870355 0.030574054 0.61075079
-0.025870355 0.029398143 0.61075085
-0.025870355 0.028222233 0.61075085
-0.025870355 0.027046323 0.61075085
-0.025870355 0.025870353 0.61075085
-0.025870355 0.024694443 0.61075085
-0.025870355 0.023518503 0.61075079
-0.025870355 0.022342592 0.61075079
-0.025870355 0.021166682 0.61075079
-0.025870355 0.019990772 0.61075079
-0.025870355 0.018814802 0.61075079
-0.025870355 0.017638892 0.61075079
-0.025870355 0.016462982 0.61075085
-0.025870355 0.015287071 0.61075085
-0.025870355 0.014111131 0.61075085
-0.025870355 0.012935191 0.61075085
-0.025870355 0.011759281 0.61075079
-0.025870355 0.010583311 0.61075085
-0.025870355 0.0094073713 0.61075085
-0.025870355 0.008231461 0.61075085
-0.025870355 0.0070555806 0.61075079
-0.025870355 0.0058796704 0.61075079
-0.025870355 0.0047037005 0.61075085
-0.025870355 0.0035277605 0.61075085
-0.025870355 0.0023518503 0.61075085
-0.025870355 0.0011759102 0.61075085
-0.025870355 -0 0.61075085
-0.025870355 -0.0011759102 0.61075085
-0.025870355 -0.0023518801 0.61075085
-0.025870355 -0.0035277903 0.61075085
-0.025870355 -0.0047037005 0.61075085
-0.025870355 -0.0058796406 0.61075085
-0.025870355 -0.0070555508 0.61075085
-0.025870355 -0.008231461 0.61075085
-0.025870355 -0.0094074011 0.61075085
-0.025870355 -0.010583341 0.61075085
-0.024757452 0.043620288 0.61111313
-0.024757452 0.042441368 0.61111307
-0.024757452 0.041262388 0.61111313
-0.024757452 0.040083498 0.61111307
-0.024757452 0.038904577 0.61111313
-0.024757452 0.037725657 0.61111307
-0.024757452 0.036546737 0.61111313
-0.024757452 0.035367787 0.61111307
-0.024757452 0.034188867 0.61111313
-0.024757452 0.033009976 0.61111307
-0.024757452 0.031830966 0.61111313
-0.024757452 0.030652076 0.61111307
-0.024757452 0.029473156 0.61111313
-0.024757452 0.028294235 0.61111307
-0.024757452 0.027115315 0.61111313
-0.024757452 0.025936395 0.61111313
-0.024757452 0.024757445 0.61111313
-0.024757452 0.023578554 0.61111307
-0.024757452 0.022399575 0.61111313
-0.024757452 0.021220654 0.61111307
-0.024757452 0.020041764 0.61111307
-0.024757452 0.018862814 0.61111313
-0.024757452 0.017683893 0.61111313
-0.024757452 0.016505003 0.61111313
-0.024757452 0.015326083 0.61111307
-0.024757452 0.014147162 0.61111313
-0.024757452 0.012968153 0.61111313
-0.024757452 0.011789262 0.61111313
-0.024757452 0.010610372 0.61111307
-0.024757452 0.009431392 0.61111313
-0.024757452 0.0082525015 0.61111307
-0.024757452 0.0070735812 0.61111313
-0.024757452 0.0058946609 0.61111307
-0.024757452 0.0047157109 0.61111313
-0.024757452 0.0035367906 0.61111307
-0.024757452 0.0023578405 0.61111313
-0.024757452 0.0011789501 0.61111307
-0.024757452 -0 0.61111313
-0.024757452 -0.0011789203 0.61111307
-0.024757452 -0.0023578405 0.61111313
-0.024757452 -0.0035367608 0.61111307
-0.024757452 -0.0047157109 0.61111313
-0.024757452 -0.0058946311 0.61111313
-0.024757452 -0.0070735812 0.61111313
-0.024757452 -0.0082524717 0.61111307
-0.024757452 -0.0094314218 0.61111313
-0.024757452 -0.010610312 0.61111313
-0.024757452 -0.011789262 0.61111313
-0.023638856 0.046095759 0.61147726
-0.023638856 0.044913799 0.61147726
-0.023638856 0.043731898 0.61147726
-0.023638856 0.042549938 0.61147726
-0.023638856 0.041368008 0.61147726
-0.023638856 0.040186048 0.61147726
-0.023638856 0.039004117 0.6114772
-0.023638856 0.037822157 0.6114772
-0.023638856 0.036640227 0.61147726
-0.023638913 0.035458356 0.61147761
-0.023638913 0.034276456 0.61147761
-0.023638913 0.033094496 0.61147761
-0.023638913 0.031912565 0.61147755
-0.023638913 0.030730605 0.61147755
-0.023638913 0.029548675 0.61147755
-0.023638913 0.028366685 0.61147761
-0.023638913 0.027184755 0.61147761
-0.023638913 0.026002795 0.61147761
-0.023638913 0.024820864 0.61147755
-0.023638913 0.023638904 0.61147761
-0.023638913 0.022457004 0.61147761
-0.023638913 0.021275043 0.61147761
-0.023638913 0.020093113 0.61147761
-0.023638913 0.018911153 0.61147755
-0.023638913 0.017729193 0.61147761
-0.023638913 0.016547233 0.61147761
-0.023638913 0.015365332 0.61147761
-0.023638913 0.014183342 0.61147761
-0.023638913 0.013001412 0.61147761
-0.023638913 0.011819452 0.61147761
-0.023638913 0.010637552 0.61147755
-0.023638913 0.0094555616 0.61147761
-0.023638913 0.0082736313 0.61147761
-0.023638913 0.0070916712 0.61147761
-0.023638913 0.0059097409 0.61147761
-0.023638913 0.0047277808 0.61147761
-0.023638913 0.0035458803 0.61147761
-0.023638913 0.0023638904 0.61147755
-0.023638913 0.0011819899 0.61147755
-0.023638913 -0 0.61147755
-0.023638913 -0.0011819303 0.61147761
-0.023638913 -0.0023638904 0.61147761
-0.023638913 -0.0035458207 0.61147761
-0.023638913 -0.0047277808 0.61147761
-0.023638913 -0.0059097111 0.61147755
-0.023638913 -0.0070916712 0.61147755
-0.023638913 -0.0082735717 0.61147761
-0.023638913 -0.0094555914 0.61147761
-0.023638913 -0.010637462 0.61147761
-0.023638913 -0.011819482 0.61147761
-0.022514578 0.047399133 0.61184359
-0.022514578 0.046214134 0.61184359
-0.022514578 0.045029163 0.61184359
-0.022514578 0.043844193 0.61184359
-0.022514578 0.042659193 0.61184359
-0.022514578 0.041474253 0.61184359
-0.022514578 0.040289253 0.61184359
-0.022514578 0.039104283 0.61184359
-0.022514578 0.037919313 0.61184359
-0.022514578 0.036734343 0.61184359
-0.022514578 0.035549343 0.61184359
-0.022514578 0.034364343 0.61184359
-0.022514578 0.033179373 0.61184359
-0.022514578 0.031994373 0.61184365
-0.022514578 0.030809432 0.61184359
-0.022514578 0.029624432 0.61184359
-0.022514578 0.028439492 0.61184359
-0.022514578 0.027254492 0.61184359
-0.022514578 0.026069522 0.61184359
-0.022514578 0.024884522 0.61184359
-0.022514578 0.023699582 0.61184359
-0.022514578 0.022514582 0.61184359
-0.022514578 0.021329612 0.61184359
-0.022514578 0.020144641 0.61184359
-0.022514578 0.018959641 0.61184359
-0.022514578 0.017774671 0.61184359
-0.022514578 0.016589701 0.61184359
-0.022514578 0.015404701 0.61184359
-0.022514578 0.014219731 0.61184359
-0.022514578 0.013034761 0.61184359
-0.022514578 0.011849791 0.61184359
-0.022514578 0.010664791 0.61184359
-0.022514578 0.0094797909 0.61184359
-0.022514578 0.0082948506 0.61184359
-0.022514578 0.0071098506 0.61184359
-0.022514578 0.0059249103 0.61184359
-0.022514578 0.0047399104 0.61184359
-0.022514578 0.00355497 0.61184359
-0.022514578 0.0023699403 0.61184359
-0.022514578 0.0011849701 0.61184359
-0.022514578 -2.9802322e-08 0.61184359
-0.022514578 -0.0011849701 0.61184359
-0.022514578 -0.0023699403 0.61184359
-0.022514578 -0.0035549104 0.61184359
-0.022514578 -0.0047398806 0.61184359
-0.022514578 -0.0059248805 0.61184359
-0.022514578 -0.0071098804 0.61184359
-0.022514578 -0.0082948506 0.61184359
-0.022514578 -0.0094798505 0.61184359
-0.022514578 -0.010664761 0.61184359
-0.022514578 -0.011849761 0.61184359
-0.022514578 -0.013034731 0.61184359
-0.021384455 0.049897075 0.61221147
-0.021384455 0.048709035 0.61221147
-0.021384455 0.047521025 0.61221147
-0.021384455 0.046332985 0.61221147
-0.021384455 0.045145005 0.61221147
-0.021384455 0.043956935 0.61221147
-0.021384455 0.042768955 0.61221147
-0.021384455 0.041580886 0.61221147
-0.021384455 0.040392876 0.61221147
-0.021384455 0.039204866 0.61221147
-0.021384455 0.038016826 0.61221147
-0.021384455 0.036828786 0.61221147
-0.021384455 0.035640746 0.61221147
-0.021384455 0.034452766 0.61221147
-0.021384455 0.033264726 0.61221147
-0.021384455 0.032076657 0.61221147
-0.021384455 0.030888677 0.61221147
-0.021384455 0.029700637 0.61221141
-0.021384455 0.028512627 0.61221147
-0.021384455 0.027324587 0.61221147
-0.021384455 0.026136547 0.61221147
-0.021384455 0.024948537 0.61221147
-0.021384455 0.023760498 0.61221147
-0.021384455 0.022572488 0.61221147
-0.021384455 0.021384448 0.61221147
-0.021384455 0.020196468 0.61221147
-0.021384455 0.019008398 0.61221147
-0.021384455 0.017820358 0.61221147
-0.021384455 0.016632348 0.61221147
-0.021384455 0.015444338 0.61221147
-0.021384455 0.014256328 0.61221147
-0.021384455 0.013068289 0.61221147
-0.021384455 0.011880279 0.61221147
-0.021384455 0.010692269 0.61221147
-0.021384455 0.009504199 0.61221147
-0.021384455 0.0083161891 0.61221147
-0.021384455 0.0071281493 0.61221153
-0.021384455 0.0059401691 0.61221147
-0.021384455 0.0047520995 0.61221147
-0.021384455 0.0035640597 0.61221147
-0.021384455 0.0023760796 0.61221147
-0.021384455 0.0011880398 0.61221147
-0.021384455 -0 0.61221147
-0.021384455 -0.0011880398 0.61221147
-0.021384455 -0.00237602 0.61221147
-0.021384455 -0.0035640597 0.61221147
-0.021384455 -0.0047521293 0.61221147
-0.021384455 -0.0059401393 0.61221147
-0.021384455 -0.0071281493 0.61221147
-0.021384455 -0.0083161592 0.61221147
-0.021384455 -0.009504199 0.61221147
-0.021384455 -0.010692239 0.61221147
-0.021384455 -0.011880219 0.61221147
-0.021384455 -0.013068289 0.61221147
-0.020248506 0.051216811 0.61258125
-0.020248506 0.050025731 0.61258125
-0.020248506 0.048834622 0.61258125
-0.020248506 0.047643542 0.61258125
-0.020248506 0.046452463 0.61258119
-0.020248506 0.045261353 0.61258125
-0.020248506 0.044070303 0.61258125
-0.020248506 0.042879194 0.61258119
-0.020248506 0.041688114 0.61258125
-0.020248506 0.040497035 0.61258125
-0.020248506 0.039305925 0.61258125
-0.020248506 0.038114816 0.61258125
-0.020248506 0.036923796 0.61258119
-0.020248506 0.035732657 0.61258119
-0.020248506 0.034541607 0.61258125
-0.020248506 0.033350497 0.61258125
-0.020248506 0.032159388 0.61258125
-0.020248506 0.030968308 0.61258119
-0.020248506 0.029777229 0.61258125
-0.020248506 0.028586119 0.61258125
-0.020248506 0.02739504 0.61258125
-0.020248506 0.02620396 0.61258125
-0.020248506 0.025012851 0.61258125
-0.020248506 0.023821771 0.61258125
-0.020248506 0.022630662 0.61258125
-0.020248506 0.021439612 0.61258125
-0.020248506 0.020248502 0.61258119
-0.020248506 0.019057423 0.61258125
-0.020248506 0.017866313 0.61258125
-0.020248506 0.016675264 0.61258119
-0.020248506 0.015484154 0.61258119
-0.020248506 0.014293104 0.61258125
-0.020248506 0.013101965 0.61258125
-0.020248506 0.011910886 0.61258125
-0.020248506 0.010719836 0.61258125
-0.020248506 0.0095287263 0.61258125
-0.020248506 0.0083376169 0.61258125
-0.020248506 0.0071465969 0.61258119
-0.020248506 0.0059554577 0.61258125
-0.020248506 0.0047643781 0.61258125
-0.020248506 0.0035732687 0.61258125
-0.020248506 0.002382189 0.61258125
-0.020248506 0.0011910796 0.61258125
-0.020248506 2.9802322e-08 0.61258125
-0.020248506 -0.0011910796 0.61258125
-0.020248506 -0.0023822188 0.61258125
-0.020248506 -0.0035732388 0.61258119
-0.020248506 -0.0047643483 0.61258125
-0.020248506 -0.0059554577 0.61258125
-0.020248506 -0.0071465373 0.61258125
-0.020248506 -0.0083376169 0.61258125
-0.020248506 -0.0095286965 0.61258119
-0.020248506 -0.010719776 0.61258125
-0.020248506 -0.011910886 0.61258125
-0.020248506 -0.013101935 0.61258119
-0.020248506 -0.014293045 0.61258125
-0.019106684 0.053737551 0.61295295
-0.019106684 0.052543402 0.61295289
-0.019106684 0.051349223 0.61295295
-0.019106684 0.050155073 0.61295295
-0.019106684 0.048960894 0.61295295
-0.019106684 0.047766715 0.61295289
-0.019106684 0.046572566 0.61295295
-0.019106684 0.045378387 0.61295289
-0.019106684 0.044184208 0.61295289
-0.019106684 0.042990059 0.61295295
-0.019106684 0.04179588 0.61295295
-0.019106684 0.040601701 0.61295289
-0.019106684 0.039407521 0.61295295
-0.019106684 0.038213372 0.61295289
-0.019106684 0.037019193 0.61295295
-0.019106684 0.035825044 0.61295295
-0.019106684 0.034630865 0.61295295
-0.019106684 0.033436686 0.61295295
-0.019106684 0.032242537 0.61295295
-0.019106684 0.031048357 0.61295295
-0.019106684 0.029854178 0.61295295
-0.019106684 0.028660029 0.61295295
-0.019106684 0.02746588 0.61295289
-0.019106684 0.026271731 0.61295295
-0.019106684 0.025077552 0.61295289
-0.019106684 0.023883373 0.61295289
-0.019106684 0.022689223 0.61295289
-0.019106684 0.021495014 0.61295289
-0.019106684 0.020300865 0.61295295
-0.019106684 0.019106686 0.61295295
-0.019106684 0.017912507 0.61295295
-0.019106684 0.016718358 0.61295295
-0.019106684 0.015524149 0.61295295
-0.019106684 0.01433 0.61295295
-0.019106684 0.01313585 0.61295295
-0.019106684 0.011941671 0.61295289
-0.019106684 0.010747522 0.61295289
-0.019106684 0.0095533431 0.61295289
-0.019106684 0.0083591938 0.61295289
-0.019106684 0.0071650445 0.61295295
-0.019106684 0.0059708357 0.61295295
-0.019106684 0.0047766864 0.61295295
-0.019106684 0.0035825074 0.61295295
-0.019106684 0.0023883283 0.61295295
-0.019106684 0.0011941791 0.61295295
-0.019106684 -0 0.61295295
-0.019106684 -0.0011941493 0.61295289
-0.019106684 -0.0023883283 0.61295295
-0.019106684 -0.0035824776 0.61295289
-0.019106684 -0.0047766268 0.61295289
-0.019106684 -0.0059708059 0.61295289
-0.019106684 -0.0071650147 0.61295289
-0.019106684 -0.0083591938 0.61295295
-0.019106684 -0.0095533431 0.61295295
-0.019106684 -0.010747522 0.61295295
-0.019106684 -0.011941671 0.61295295
-0.019106684 -0.01313585 0.61295295
-0.019106684 -0.014330029 0.61295295
-0.017958943 0.056271374 0.61332655
-0.017958943 0.055074096 0.61332655
-0.017958943 0.053876817 0.61332655
-0.017958943 0.052679569 0.61332655
-0.017958943 0.05148235 0.61332655
-0.017958943 0.050285041 0.61332655
-0.017958943 0.049087763 0.61332655
-0.017958943 0.047890484 0.61332655
-0.017958943 0.046693265 0.61332655
-0.017958943 0.045496017 0.61332655
-0.017958943 0.044298738 0.61332655
-0.017958943 0.04310146 0.61332655
-0.017958943 0.041904181 0.61332655
-0.017958943 0.040706962 0.61332655
-0.017958943 0.039509684 0.61332649
-0.017958943 0.038312435 0.61332649
-0.017958943 0.037115127 0.61332655
-0.017958943 0.035917878 0.61332655
-0.017958943 0.034720629 0.61332655
-0.017958943 0.033523381 0.61332649
-0.017958943 0.032326102 0.61332655
-0.017958943 0.031128824 0.61332655
-0.017958943 0.029931575 0.61332649
-0.017958943 0.028734326 0.61332649
-0.017958943 0.027537048 0.61332655
-0.017958943 0.026339769 0.61332655
-0.017958943 0.025142521 0.61332655
-0.017958943 0.023945242 0.61332649
-0.017958943 0.022747993 0.61332655
-0.017958943 0.021550715 0.61332655
-0.017958943 0.020353466 0.61332655
-0.017958943 0.019156218 0.61332655
-0.017958943 0.017958969 0.61332649
-0.017958943 0.01676172 0.61332649
-0.017958943 0.015564412 0.61332655
-0.017958943 0.014367163 0.61332655
-0.017958943 0.013169885 0.61332655
-0.017958943 0.011972666 0.61332655
-0.017958943 0.010775357 0.61332655
-0.017958943 0.0095781088 0.61332655
-0.017958943 0.0083808601 0.61332655
-0.017958943 0.0071835816 0.61332649
-0.017958943 0.0059863329 0.61332649
-0.017958943 0.0047890544 0.61332655
-0.017958943 0.0035918057 0.61332655
-0.017958943 0.0023945272 0.61332655
-0.017958943 0.0011972487 0.61332655
-0.017958943 -0 0.61332655
-0.017958943 -0.0011972487 0.61332655
-0.017958943 -0.0023945272 0.61332655
-0.017958943 -0.0035917759 0.61332655
-0.017958943 -0.0047890246 0.61332649
-0.017958943 -0.0059863031 0.61332655
-0.017958943 -0.0071835518 0.61332655
-0.017958943 -0.0083808303 0.61332649
-0.017958943 -0.009578079 0.61332649
-0.017958943 -0.010775387 0.61332655
-0.017958943 -0.011972636 0.61332655
-0.017958943 -0.013169885 0.61332655
-0.017958943 -0.014367133 0.61332655
-0.017958943 -0.015564412 0.61332649
-0.016805235 0.057617962 0.61370206
-0.016805235 0.056417584 0.61370206
-0.016805235 0.055217206 0.61370206
-0.016805235 0.054016858 0.61370206
-0.016805235 0.05281648 0.61370206
-0.016805235 0.051616102 0.61370212
-0.016805235 0.050415695 0.61370206
-0.016805235 0.049215347 0.61370206
-0.016805235 0.048014969 0.61370206
-0.016805235 0.046814591 0.61370206
-0.016805235 0.045614213 0.61370206
-0.016805235 0.044413805 0.61370212
-0.016805235 0.043213457 0.61370206
-0.016805235 0.042013109 0.61370206
-0.016805235 0.040812701 0.61370206
-0.016805235 0.039612353 0.61370206
-0.016805235 0.038411975 0.61370206
-0.016805235 0.037211597 0.61370206
-0.016805235 0.036011249 0.61370206
-0.016805235 0.034810871 0.61370206
-0.016805235 0.033610493 0.61370212
-0.016805235 0.032410115 0.61370206
-0.016805235 0.031209737 0.61370206
-0.016805235 0.030009359 0.61370206
-0.016805235 0.028808981 0.61370206
-0.016805235 0.027608603 0.61370206
-0.016805235 0.026408225 0.61370206
-0.016805235 0.025207877 0.61370206
-0.016805235 0.024007499 0.61370206
-0.016805235 0.022807091 0.61370206
-0.016805235 0.021606714 0.61370212
-0.016805235 0.020406365 0.61370206
-0.016805235 0.019205987 0.61370212
-0.016805235 0.018005639 0.61370206
-0.016805235 0.016805261 0.61370206
-0.016805235 0.015604883 0.61370206
-0.016805235 0.014404505 0.61370206
-0.016805235 0.013204128 0.61370206
-0.016805235 0.01200375 0.61370212
-0.016805235 0.010803372 0.61370206
-0.016805235 0.0096029937 0.61370206
-0.016805235 0.0084026158 0.61370206
-0.016805235 0.0072022676 0.61370206
-0.016805235 0.0060018897 0.61370206
-0.016805235 0.004801482 0.61370206
-0.016805235 0.0036011338 0.61370206
-0.016805235 0.0024007261 0.61370206
-0.016805235 0.0012003481 0.61370212
-0.016805235 2.9802322e-08 0.61370206
-0.016805235 -0.0012003481 0.61370206
-0.016805235 -0.0024007261 0.61370206
-0.016805235 -0.003601104 0.61370206
-0.016805235 -0.004801482 0.61370206
-0.016805235 -0.0060018599 0.61370212
-0.016805235 -0.0072022676 0.61370212
-0.016805235 -0.0084026158 0.61370206
-0.016805235 -0.0096029639 0.61370206
-0.016805235 -0.010803342 0.61370206
-0.016805235 -0.01200372 0.61370206
-0.016805235 -0.013204128 0.61370212
-0.016805235 -0.014404476 0.61370206
-0.016805235 -0.015604883 0.61370206
-0.015645517 0.060175061 0.61407959
-0.015645517 0.058971554 0.61407959
-0.015645517 0.057768077 0.61407959
-0.015645517 0.056564569 0.61407959
-0.015645558 0.055361211 0.61407995
-0.015645558 0.054157704 0.61407995
-0.015645558 0.052954227 0.61407995
-0.015645558 0.05175069 0.61407995
-0.015645558 0.050547183 0.61407995
-0.015645558 0.049343705 0.61407995
-0.015645558 0.048140198 0.61407995
-0.015645558 0.046936691 0.61407995
-0.015645558 0.045733184 0.61407995
-0.015645558 0.044529676 0.61407995
-0.015645558 0.043326139 0.61407995
-0.015645558 0.042122662 0.61407995
-0.015645558 0.040919155 0.61407995
-0.015645558 0.039715648 0.61407995
-0.015645558 0.038512141 0.61408001
-0.015645558 0.037308633 0.61407995
-0.015645558 0.036105156 0.61407995
-0.015645558 0.034901619 0.61407995
-0.015645558 0.033698171 0.61407995
-0.015645558 0.032494634 0.61407995
-0.015645558 0.031291097 0.61407995
-0.015645558 0.03008765 0.61407995
-0.015645558 0.028884113 0.61407995
-0.015645558 0.027680635 0.61407995
-0.015645558 0.026477098 0.61407995
-0.015645558 0.025273561 0.61408001
-0.015645558 0.024070084 0.61407995
-0.015645558 0.022866577 0.61407995
-0.015645558 0.0216631 0.61407995
-0.015645558 0.020459592 0.61407995
-0.015645558 0.019256085 0.61407995
-0.015645558 0.018052578 0.61407995
-0.015645558 0.016849071 0.61407995
-0.015645558 0.015645564 0.61407995
-0.015645558 0.014442056 0.61407995
-0.015645558 0.013238549 0.61407995
-0.015645558 0.012035072 0.61407995
-0.015645558 0.010831535 0.61407995
-0.015645558 0.0096280575 0.61407995
-0.015645558 0.0084245503 0.61407995
-0.015645558 0.0072210431 0.61407995
-0.015645558 0.0060175061 0.61407995
-0.015645558 0.0048139989 0.61407995
-0.015645558 0.0036105514 0.61407995
-0.015645558 0.0024070144 0.61407995
-0.015645558 0.0012035072 0.61407995
-0.015645558 2.9802322e-08 0.61407995
-0.015645558 -0.0012035072 0.61408001
-0.015645558 -0.0024070144 0.61407995
-0.015645558 -0.0036105216 0.61407995
-0.015645558 -0.0048140287 0.61407995
-0.015645558 -0.0060174763 0.61407995
-0.015645558 -0.0072210431 0.61407995
-0.015645558 -0.0084245205 0.61407995
-0.015645558 -0.0096279979 0.61407995
-0.015645558 -0.010831535 0.61407995
-0.015645558 -0.012035042 0.61407995
-0.015645558 -0.013238549 0.61407995
-0.015645558 -0.014442056 0.61407995
-0.015645558 -0.015645564 0.61407995
-0.015645558 -0.016849041 0.61407995
-0.014479778 0.060332417 0.61445946
-0.014479778 0.059125751 0.6144594
-0.014479778 0.057919085 0.61445946
-0.014479778 0.056712478 0.61445946
-0.014479778 0.055505812 0.61445946
-0.014479778 0.054299176 0.61445946
-0.014479778 0.053092539 0.61445946
-0.014479778 0.051885873 0.61445946
-0.014479778 0.050679207 0.61445946
-0.014479778 0.04947257 0.61445946
-0.014479778 0.048265964 0.61445946
-0.014479778 0.047059298 0.61445946
-0.014479778 0.045852631 0.61445946
-0.014479778 0.044645995 0.61445946
-0.014479778 0.043439358 0.61445946
-0.014479778 0.042232692 0.61445946
-0.014479778 0.041026026 0.6144594
-0.014479778 0.03981939 0.6144594
-0.014479778 0.038612753 0.61445946
-0.014479778 0.037406087 0.6144594
-0.014479778 0.03619945 0.6144594
-0.014479778 0.034992814 0.61445946
-0.014479778 0.033786148 0.61445946
-0.014479778 0.032579482 0.61445946
-0.014479778 0.031372845 0.6144594
-0.014479778 0.030166209 0.61445946
-0.014479778 0.028959572 0.61445946
-0.014479778 0.027752936 0.61445946
-0.014479778 0.02654627 0.61445946
-0.014479778 0.025339603 0.61445946
-0.014479778 0.024132997 0.61445946
-0.014479778 0.022926331 0.61445946
-0.014479778 0.021719694 0.61445946
-0.014479778 0.020512998 0.61445946
-0.014479778 0.019306391 0.61445946
-0.014479778 0.018099725 0.61445946
-0.014479778 0.016893089 0.61445946
-0.014479778 0.015686452 0.61445946
-0.014479778 0.014479786 0.6144594
-0.014479778 0.01327312 0.6144594
-0.014479778 0.012066483 0.6144594
-0.014479778 0.010859847 0.6144594
-0.014479778 0.0096532106 0.61445946
-0.014479778 0.0084465444 0.6144594
-0.014479778 0.007239908 0.61445946
-0.014479778 0.0060332417 0.6144594
-0.014479778 0.0048266053 0.61445946
-0.014479778 0.0036199391 0.6144594
-0.014479778 0.0024133027 0.61445946
-0.014479778 0.0012066364 0.6144594
-0.014479778 -0 0.61445946
-0.014479778 -0.0012066364 0.61445946
-0.014479778 -0.0024132729 0.61445946
-0.014479778 -0.0036199391 0.61445946
-0.014479778 -0.0048266053 0.61445946
-0.014479778 -0.0060332417 0.61445946
-0.014479778 -0.0072398782 0.61445946
-0.014479778 -0.0084465146 0.61445946
-0.014479778 -0.009653151 0.61445946
-0.014479778 -0.010859847 0.61445946
-0.014479778 -0.012066483 0.6144594
-0.014479778 -0.01327312 0.6144594
-0.014479778 -0.014479756 0.6144594
-0.014479778 -0.015686423 0.6144594
-0.014479778 -0.016893089 0.6144594
-0.014479778 -0.018099695 0.61445946
-0.013307892 0.060490429 0.61484092
-0.013307892 0.059280604 0.61484087
-0.013307892 0.058070809 0.61484092
-0.013307892 0.056860983 0.61484087
-0.013307892 0.055651188 0.61484092
-0.013307892 0.054441392 0.61484092
-0.013307892 0.053231597 0.61484092
-0.013307892 0.052021772 0.61484092
-0.013307892 0.050811946 0.61484092
-0.013307892 0.049602151 0.61484087
-0.013307892 0.048392355 0.61484092
-0.013307892 0.04718253 0.61484087
-0.013307892 0.045972735 0.61484092
-0.013307892 0.044762939 0.61484092
-0.013307892 0.043553084 0.61484092
-0.013307892 0.042343259 0.61484092
-0.013307892 0.041133493 0.61484087
-0.013307892 0.039923698 0.61484087
-0.013307892 0.038713872 0.61484092
-0.013307892 0.037504077 0.61484092
-0.013307892 0.036294252 0.61484092
-0.013307892 0.035084426 0.61484092
-0.013307892 0.033874601 0.61484092
-0.013307892 0.032664865 0.61484087
-0.013307892 0.03145504 0.61484087
-0.013307892 0.030245245 0.61484087
-0.013307892 0.029035419 0.61484092
-0.013307892 0.027825594 0.61484087
-0.013307892 0.026615769 0.61484092
-0.013307892 0.025405973 0.61484092
-0.013307892 0.024196178 0.61484092
-0.013307892 0.022986352 0.61484092
-0.013307892 0.021776587 0.61484092
-0.013307892 0.020566761 0.61484087
-0.013307892 0.019356936 0.61484092
-0.013307892 0.018147111 0.61484087
-0.013307892 0.016937315 0.61484092
-0.013307892 0.01572752 0.61484092
-0.013307892 0.014517725 0.61484092
-0.013307892 0.013307899 0.61484092
-0.013307892 0.012098074 0.61484092
-0.013307892 0.010888278 0.61484087
-0.013307892 0.009678483 0.61484092
-0.013307892 0.0084686577 0.61484087
-0.013307892 0.0072588325 0.61484092
-0.013307892 0.0060490668 0.61484092
-0.013307892 0.0048392415 0.61484092
-0.013307892 0.0036294162 0.61484092
-0.013307892 0.0024196208 0.61484092
-0.013307892 0.0012098253 0.61484087
-0.013307892 -0 0.61484087
-0.013307892 -0.0012097955 0.61484087
-0.013307892 -0.002419591 0.61484092
-0.013307892 -0.0036294162 0.61484092
-0.013307892 -0.0048392415 0.61484092
-0.013307892 -0.0060490668 0.61484092
-0.013307892 -0.0072588623 0.61484092
-0.013307892 -0.0084686279 0.61484087
-0.013307892 -0.0096784532 0.61484092
-0.013307892 -0.010888249 0.61484087
-0.013307892 -0.012098074 0.61484092
-0.013307892 -0.013307899 0.61484092
-0.013307892 -0.014517725 0.61484092
-0.013307892 -0.01572752 0.61484092
-0.013307892 -0.016937286 0.61484087
-0.013307892 -0.018147141 0.61484092
-0.012129853 0.060649276 0.61522436
-0.012129853 0.059436291 0.61522436
-0.012129853 0.058223307 0.61522442
-0.012129853 0.057010293 0.61522436
-0.012129853 0.055797338 0.61522442
-0.012129853 0.054584324 0.61522436
-0.012129853 0.05337137 0.61522436
-0.012129853 0.052158356 0.61522436
-0.012129853 0.050945371 0.61522436
-0.012129853 0.049732417 0.61522436
-0.012129853 0.048519403 0.61522436
-0.012129853 0.047306418 0.61522436
-0.012129853 0.046093464 0.61522436
-0.012129853 0.04488045 0.61522436
-0.012129853 0.043667465 0.61522442
-0.012129853 0.042454451 0.61522436
-0.012129853 0.041241497 0.61522436
-0.012129853 0.040028512 0.61522442
-0.012129853 0.038815528 0.61522436
-0.012129853 0.037602544 0.61522436
-0.012129853 0.03638956 0.61522436
-0.012129853 0.035176575 0.61522436
-0.012129853 0.033963591 0.61522436
-0.012129853 0.032750607 0.61522442
-0.012129853 0.031537622 0.61522442
-0.012129853 0.030324638 0.61522436
-0.012129853 0.029111654 0.61522442
-0.012129853 0.027898669 0.61522436
-0.012129853 0.026685685 0.61522436
-0.012129853 0.02547273 0.61522436
-0.012129853 0.024259686 0.61522436
-0.012129853 0.023046732 0.61522436
-0.012129853 0.021833718 0.61522436
-0.012129853 0.020620733 0.61522442
-0.012129853 0.019407779 0.61522442
-0.012129853 0.018194765 0.61522442
-0.012129853 0.01698181 0.61522436
-0.012129853 0.015768826 0.61522436
-0.012129853 0.014555842 0.61522436
-0.012129853 0.013342857 0.61522436
-0.012129853 0.012129873 0.61522436
-0.012129853 0.010916859 0.61522436
-0.012129853 0.0097038746 0.61522436
-0.012129853 0.0084908903 0.61522436
-0.012129853 0.0072779059 0.61522436
-0.012129853 0.0060649514 0.61522436
-0.012129853 0.0048519373 0.61522442
-0.012129853 0.003638953 0.61522436
-0.012129853 0.0024259984 0.61522436
-0.012129853 0.0012129843 0.61522436
-0.012129853 -0 0.61522436
-0.012129853 -0.0012129545 0.61522436
-0.012129853 -0.0024259984 0.61522436
-0.012129853 -0.003638953 0.61522442
-0.012129853 -0.0048519373 0.61522436
-0.012129853 -0.0060649514 0.61522442
-0.012129853 -0.0072778761 0.61522436
-0.012129853 -0.0084908903 0.61522436
-0.012129853 -0.0097038746 0.61522436
-0.012129853 -0.010916889 0.61522436
-0.012129853 -0.012129843 0.61522436
-0.012129853 -0.013342828 0.61522436
-0.012129853 -0.014555812 0.61522442
-0.012129853 -0.015768766 0.61522436
-0.012129853 -0.01698181 0.61522442
-0.012129853 -0.018194735 0.61522436
-0.012129853 -0.019407779 0.61522442
-0.010945608 0.060808927 0.61560988
-0.010945608 0.059592754 0.61560988
-0.010945608 0.05837658 0.61560988
-0.010945608 0.057160437 0.61560988
-0.010945608 0.055944234 0.61560988
-0.010945608 0.054728091 0.61560988
-0.010945608 0.053511858 0.61560988
-0.010945608 0.052295685 0.61560988
-0.010945608 0.051079512 0.61560988
-0.010945608 0.049863309 0.61560988
-0.010945608 0.048647165 0.61560988
-0.010945608 0.047430992 0.61560988
-0.010945608 0.046214819 0.61560988
-0.010945608 0.044998616 0.61560988
-0.010945608 0.043782473 0.61560988
-0.010945608 0.042566299 0.61560988
-0.010945608 0.041350096 0.61560988
-0.010945608 0.040133893 0.61560988
-0.010945608 0.03891775 0.61560988
-0.010945608 0.037701517 0.61560988
-0.010945608 0.036485344 0.61560988
-0.010945608 0.035269171 0.61560988
-0.010945608 0.034052998 0.61560988
-0.010945608 0.032836795 0.61560988
-0.010945608 0.031620651 0.61560988
-0.010945608 0.030404449 0.61560988
-0.010945608 0.029188275 0.61560988
-0.010945608 0.027972102 0.61560988
-0.010945608 0.026755959 0.61560988
-0.010945608 0.025539756 0.61560988
-0.010945608 0.024323583 0.61560988
-0.010945608 0.023107409 0.61560988
-0.010945608 0.021891207 0.61560988
-0.010945608 0.020675063 0.61560988
-0.010945608 0.01945886 0.61560988
-0.010945608 0.018242687 0.61560988
-0.010945608 0.017026514 0.61560988
-0.010945608 0.015810341 0.61560988
-0.010945608 0.014594138 0.61560988
-0.010945608 0.013377964 0.61560988
-0.010945608 0.012161791 0.61560988
-0.010945608 0.010945618 0.61560988
-0.010945608 0.009729445 0.61560988
-0.010945608 0.0085132718 0.61560988
-0.010945608 0.0072970986 0.61560988
-0.010945608 0.0060809255 0.61560988
-0.010945608 0.0048647225 0.61560982
-0.010945608 0.0036485195 0.61560988
-0.010945608 0.0024323463 0.61560982
-0.010945608 0.0012161732 0.61560988
-0.010945608 -2.9802322e-08 0.61560988
-0.010945608 -0.0012161732 0.61560988
-0.010945608 -0.0024323761 0.61560988
-0.010945608 -0.0036485493 0.61560988
-0.010945608 -0.0048647225 0.61560988
-0.010945608 -0.0060808957 0.61560988
-0.010945608 -0.0072970688 0.61560988
-0.010945608 -0.008513242 0.61560988
-0.010945608 -0.0097294152 0.61560988
-0.010945608 -0.010945588 0.61560988
-0.010945608 -0.012161762 0.61560988
-0.010945608 -0.013377935 0.61560988
-0.010945608 -0.014594138 0.61560988
-0.010945608 -0.015810311 0.61560988
-0.010945608 -0.017026514 0.61560988
-0.010945608 -0.018242657 0.61560988
-0.010945608 -0.01945886 0.61560988
-0.0097551132 0.060969442 0.61599737
-0.0097551132 0.05975005 0.61599743
-0.0097551132 0.058530658 0.61599743
-0.0097551132 0.057311296 0.61599737
-0.0097551132 0.056091934 0.61599743
-0.0097551132 0.054872513 0.61599737
-0.0097551132 0.053653121 0.61599743
-0.0097551132 0.052433729 0.61599743
-0.0097551132 0.051214367 0.61599743
-0.0097551132 0.049994975 0.61599743
-0.0097551132 0.048775584 0.61599743
-0.0097551132 0.047556192 0.61599743
-0.0097551132 0.0463368 0.61599743
-0.0097551132 0.045117408 0.61599737
-0.0097551132 0.043898046 0.61599737
-0.0097551132 0.042678624 0.61599743
-0.0097551132 0.041459262 0.61599743
-0.0097551132 0.040239811 0.61599743
-0.0097551132 0.039020479 0.61599743
-0.0097551132 0.037801087 0.61599737
-0.0097551132 0.036581695 0.61599743
-0.0097551132 0.035362303 0.61599743
-0.0097551132 0.034142941 0.61599737
-0.0097551132 0.03292352 0.61599743
-0.0097551132 0.031704128 0.61599737
-0.0097551132 0.030484706 0.61599743
-0.0097551132 0.029265344 0.61599737
-0.0097551132 0.028045923 0.61599743
-0.0097551132 0.02682659 0.61599743
-0.0097551132 0.025607198 0.61599743
-0.0097551132 0.024387807 0.61599743
-0.0097551132 0.023168385 0.61599737
-0.0097551132 0.021949023 0.61599737
-0.0097551132 0.020729601 0.61599743
-0.0097551132 0.019510239 0.61599743
-0.0097551132 0.018290818 0.61599743
-0.0097551132 0.017071456 0.61599737
-0.0097551132 0.015852094 0.61599743
-0.0097551132 0.014632672 0.61599743
-0.0097551132 0.01341328 0.61599743
-0.0097551132 0.012193918 0.61599737
-0.0097551132 0.010974497 0.61599743
-0.0097551132 0.0097551346 0.61599743
-0.0097551132 0.0085356832 0.61599743
-0.0097551132 0.0073163509 0.61599743
-0.0097551132 0.0060969591 0.61599737
-0.0097551132 0.0048775673 0.61599743
-0.0097551132 0.0036581755 0.61599743
-0.0097551132 0.0024388134 0.61599737
-0.0097551132 0.0012193918 0.61599743
-0.0097551132 -0 0.61599737
-0.0097551132 -0.0012193918 0.61599743
-0.0097551132 -0.0024387836 0.61599743
-0.0097551132 -0.0036581755 0.61599743
-0.0097551132 -0.0048775375 0.61599743
-0.0097551132 -0.0060969293 0.61599743
-0.0097551132 -0.0073163211 0.61599743
-0.0097551132 -0.0085357428 0.61599737
-0.0097551132 -0.0097551048 0.61599737
-0.0097551132 -0.010974526 0.61599743
-0.0097551132 -0.012193888 0.61599743
-0.0097551132 -0.01341328 0.61599737
-0.0097551132 -0.014632642 0.61599743
-0.0097551132 -0.015852034 0.61599743
-0.0097551132 -0.017071426 0.61599737
-0.0097551132 -0.018290848 0.61599743
-0.0097551132 -0.01951021 0.61599737
-0.0097551132 -0.020729631 0.61599743
-0.0085583152 0.061130822 0.61638701
-0.0085583152 0.059908241 0.61638701
-0.0085583152 0.058685601 0.61638701
-0.0085583152 0.05746299 0.61638701
-0.0085583152 0.05624038 0.61638701
-0.0085583152 0.05501774 0.61638701
-0.0085583152 0.053795129 0.61638701
-0.0085583152 0.052572519 0.61638701
-0.0085583152 0.051349878 0.61638701
-0.0085583152 0.050127268 0.61638701
-0.0085583152 0.048904687 0.61638701
-0.0085583152 0.047682047 0.61638701
-0.0085583152 0.046459407 0.61638701
-0.0085583152 0.045236796 0.61638701
-0.0085583152 0.044014186 0.61638701
-0.0085583152 0.042791605 0.61638695
-0.0085583152 0.041568965 0.61638695
-0.0085583152 0.040346354 0.61638701
-0.0085583152 0.039123744 0.61638701
-0.0085583152 0.037901103 0.61638701
-0.0085583152 0.036678463 0.61638701
-0.0085583152 0.035455853 0.61638701
-0.0085583152 0.034233272 0.61638695
-0.0085583152 0.033010662 0.61638695
-0.0085583152 0.031788051 0.61638701
-0.0085583152 0.030565441 0.61638701
-0.0085583152 0.02934283 0.61638701
-0.0085583152 0.02812019 0.61638701
-0.0085583152 0.026897579 0.61638695
-0.0085583152 0.025674969 0.61638701
-0.0085583152 0.024452329 0.61638695
-0.0085583152 0.023229718 0.61638701
-0.0085583152 0.022007108 0.61638701
-0.0085583152 0.020784497 0.61638701
-0.0085583152 0.019561887 0.61638701
-0.0085583152 0.018339276 0.61638695
-0.0085583152 0.017116636 0.61638701
-0.0085583152 0.015893996 0.61638701
-0.0085583152 0.014671385 0.61638701
-0.0085583152 0.013448775 0.61638701
-0.0085583152 0.012226164 0.61638701
-0.0085583152 0.011003524 0.61638701
-0.0085583152 0.0097809434 0.61638695
-0.0085583152 0.0085583329 0.61638701
-0.0085583152 0.0073356926 0.61638701
-0.0085583152 0.0061130524 0.61638701
-0.0085583152 0.0048904419 0.61638701
-0.0085583152 0.0036678314 0.61638701
-0.0085583152 0.0024452806 0.61638695
-0.0085583152 0.0012226403 0.61638695
-0.0085583152 2.9802322e-08 0.61638701
-0.0085583152 -0.0012225807 0.61638701
-0.0085583152 -0.0024452209 0.61638701
-0.0085583152 -0.0036678314 0.61638695
-0.0085583152 -0.0048904419 0.61638695
-0.0085583152 -0.0061130524 0.61638701
-0.0085583152 -0.0073356926 0.61638695
-0.0085583152 -0.0085583031 0.61638701
-0.0085583152 -0.0097809136 0.61638701
-0.0085583152 -0.011003524 0.61638701
-0.0085583152 -0.012226164 0.61638701
-0.0085583152 -0.013448805 0.61638701
-0.0085583152 -0.014671385 0.61638701
-0.0085583152 -0.015894026 0.61638701
-0.0085583152 -0.017116636 0.61638695
-0.0085583152 -0.018339247 0.61638701
-0.0085583152 -0.019561857 0.61638701
-0.0085583152 -0.020784467 0.61638695
-0.0073551848 0.061293215 0.61677903
-0.0073551848 0.060067356 0.61677903
-0.0073551848 0.058841497 0.61677903
-0.0073551848 0.057615608 0.61677903
-0.0073551848 0.056389749 0.61677903
-0.0073551848 0.05516389 0.61677903
-0.0073551848 0.053938031 0.61677903
-0.0073551848 0.052712142 0.61677903
-0.0073551848 0.051486343 0.61677903
-0.0073551848 0.050260425 0.61677903
-0.0073551848 0.049034566 0.61677897
-0.0073551848 0.047808737 0.61677903
-0.0073551848 0.046582848 0.61677897
-0.0073551848 0.045356989 0.61677903
-0.0073551848 0.04413113 0.61677903
-0.0073551848 0.042905271 0.61677903
-0.0073551848 0.041679382 0.61677903
-0.0073551848 0.040453523 0.61677903
-0.0073551848 0.039227694 0.61677897
-0.0073551848 0.038001806 0.61677903
-0.0073551848 0.036775947 0.61677903
-0.0073551848 0.035550058 0.61677903
-0.0073551848 0.034324229 0.61677903
-0.0073551848 0.03309831 0.61677903
-0.0073551848 0.031872481 0.61677897
-0.0073551848 0.030646622 0.61677903
-0.0073551848 0.029420763 0.61677903
-0.0073551848 0.028194875 0.61677903
-0.0073551848 0.026969016 0.61677903
-0.0073551848 0.025743157 0.61677903
-0.0073551848 0.024517298 0.61677897
-0.0073551848 0.023291409 0.61677903
-0.0073551848 0.02206555 0.61677903
-0.0073551848 0.020839691 0.61677903
-0.0073551848 0.019613832 0.61677903
-0.0073551848 0.018387944 0.61677903
-0.0073551848 0.017162114 0.61677897
-0.0073551848 0.015936226 0.61677903
-0.0073551848 0.014710367 0.61677903
-0.0073551848 0.013484508 0.61677897
-0.0073551848 0.012258649 0.61677903
-0.0073551848 0.01103279 0.61677903
-0.0073551848 0.0098069012 0.61677897
-0.0073551848 0.0085810423 0.61677903
-0.0073551848 0.0073551834 0.61677903
-0.0073551848 0.0061292946 0.61677903
-0.0073551848 0.0049034357 0.61677903
-0.0073551848 0.0036775768 0.61677903
-0.0073551848 0.0024517477 0.61677897
-0.0073551848 0.0012258291 0.61677903
-0.0073551848 2.9802322e-08 0.61677903
-0.0073551848 -0.0012258589 0.61677897
-0.0073551848 -0.0024517179 0.61677897
-0.0073551848 -0.0036776066 0.61677909
-0.0073551848 -0.0049034357 0.61677903
-0.0073551848 -0.0061292648 0.61677903
-0.0073551848 -0.0073551834 0.61677903
-0.0073551848 -0.0085810423 0.61677903
-0.0073551848 -0.0098069012 0.61677903
-0.0073551848 -0.01103276 0.61677897
-0.0073551848 -0.012258649 0.61677903
-0.0073551848 -0.013484508 0.61677903
-0.0073551848 -0.014710367 0.61677903
-0.0073551848 -0.015936226 0.61677897
-0.0073551848 -0.017162085 0.61677903
-0.0073551848 -0.018387973 0.61677909
-0.0073551848 -0.019613802 0.61677903
-0.0073551848 -0.020839691 0.61677897
-0.0073551848 -0.02206555 0.61677903
-0.00614563 0.061456293 0.61717278
-0.00614563 0.060227185 0.61717272
-0.00614563 0.058998048 0.61717272
-0.00614563 0.057768911 0.61717278
-0.00614563 0.056539834 0.61717278
-0.00614563 0.055310637 0.61717272
-0.00614563 0.054081559 0.61717272
-0.00614563 0.052852422 0.61717278
-0.00614563 0.051623285 0.61717272
-0.00614563 0.050394177 0.61717272
-0.00614563 0.04916504 0.61717278
-0.00614563 0.047935903 0.61717278
-0.00614563 0.046706796 0.61717272
-0.00614563 0.045477659 0.61717272
