# .PCD v0.7 - Point Cloud Data file format
VERSION 0.7
FIELDS x y z
SIZE 4 4 4
TYPE F F F
COUNT 1 1 1
WIDTH 696
HEIGHT 1
VIEWPOINT 0 0 0 1 0 0 0
POINTS 696
DATA ascii
0.038919702 0.0084608495 0.62487465
0.038919702 0.015229493 0.62487471
0.035386559 0.010357082 0.6269275
0.034662835 0.0017331541 0.62734807
0.033933319 0.016531646 0.62777227
0.033933319 0.016531646 0.62777227
0.033197712 0.0052417517 0.62819946
0.033197712 0.0065521896 0.62819946
0.032456245 0.021491334 0.62863064
0.030574746 -0.0053174794 0.62972367
0.031708546 -0.00088074803 0.6290648
0.031708546 0.0044039786 0.6290648
0.030574746 0.0088625252 0.62972367
0.028655734 0.023282826 0.63083911
0.027483582 -0.0072090179 0.63151997
0.027483581 0.00045058876 0.63151991
0.027614608 0.017409336 0.63144416
0.026298303 -0.01088202 0.63220876
0.025499182 -0.0018213391 0.63267308
0.025499182 0.0072855055 0.63267314
0.025499182 0.011838913 0.63267314
0.025499182 0.019124418 0.63267308
0.026298366 0.022671044 0.63220894
0.023880422 -0.017451048 0.63361377
0.023880422 -0.0045923293 0.63361377
0.023880422 0.0018369555 0.63361382
0.024693308 0.023778766 0.6331417
0.022233723 -0.01250644 0.63457072
0.022233723 0.005558461 0.63457072
0.023060609 0.0092242956 0.63409019
0.023060609 0.0092242956 0.63409019
0.023060609 0.015681207 0.63409019
0.023060666 0.027672827 0.63409042
0.021399666 -0.028842986 0.63505536
0.021399666 -0.022330046 0.63505536
0.020558348 -0.0084102154 0.6355443
0.021399666 -0.0046520829 0.63505536
0.021399666 -0.0046520829 0.63505536
0.021399666 0.00046524405 0.63505542
0.020558348 0.001868993 0.63554424
0.021399666 0.012095481 0.63505536
0.020558398 0.031772077 0.63554454
0.018853547 -0.033936352 0.63653493
0.018853547 -0.032522351 0.63653493
0.019709675 0.006569922 0.63603741
0.019709675 0.006569922 0.63603741
0.018853547 0.012254864 0.63653493
0.019709675 0.015486196 0.63603747
0.019709675 0.018771142 0.63603741
0.018853594 0.021681637 0.63653523
0.019709723 0.027218223 0.63603771
0.017554201 -0.029416904 0.63729
0.017554201 -0.023723289 0.63729
0.017554201 0.011387214 0.63729
0.017554201 0.018503144 0.63729
0.015352504 -0.038381249 0.63856941
0.015352504 -0.033583581 0.63856936
0.015352504 -0.028785914 0.63856936
0.015352504 -0.02110967 0.63856936
0.016239449 -0.010507852 0.63805401
0.016239449 0.013373673 0.63805395
0.01623949 0.02292636 0.63805431
0.01623949 0.02292636 0.63805431
0.015352543 0.032624155 0.63856971
0.01623949 0.032479018 0.63805425
0.01623949 0.032479018 0.63805425
0.014457595 -0.038553596 0.63908947
0.014457595 -0.016385257 0.63908941
0.013554612 -0.0077455044 0.63961422
0.0407492 -0.002910614 0.6398595
0.014457595 0.0019276738 0.63908947
0.013554612 0.0058091283 0.63961416
0.013554648 0.030497968 0.63961446
0.012643449 -0.043765754 0.64014363
0.011723991 -0.041033953 0.64067793
0.012643449 -0.040848047 0.64014363
0.011723991 -0.037125975 0.64067793
0.011723991 -0.036148936 0.64067799
0.012643449 -0.032094896 0.64014363
0.011723991 -0.019539982 0.64067799
0.031196909 -0.018523157 0.64042497
0.012643449 -0.017506272 0.64014363
0.011723991 -0.014654964 0.64067793
0.011723991 -0.0097699463 0.64067793
0.011723991 -0.0048849583 0.64067793
0.012643449 -0.00097256899 0.64014363
0.04499102 0.0029342473 0.64080667
0.012643449 0.0077806115 0.64014363
0.011723991 0.0097700357 0.64067793
0.012643449 0.0184789 0.64014363
0.011723991 0.024425 0.64067793
0.011723991 0.024425 0.64067793
0.012643481 0.034040183 0.64014393
0.011724021 0.037126064 0.64067829
0.0098597389 -0.043382823 0.6417613
0.0098597389 -0.043382823 0.6417613
0.010796127 -0.01374051 0.64121711
0.010796127 -0.00981462 0.64121711
0.0098597389 -0.0029578805 0.64176124
0.010796127 0.01177758 0.64121711
0.0098597389 0.027607292 0.6417613
0.0079609184 -0.01890716 0.6428647
0.0079609184 -0.01890716 0.6428647
0.0089147091 -0.018819898 0.64231038
0.0079609184 -0.013931602 0.6428647
0.0079609184 0.0029853582 0.6428647
0.0079609184 0.018907189 0.6428647
0.0089147091 0.020801008 0.64231044
0.0089147333 0.031696856 0.64231074
0.0089147333 0.031696856 0.64231074
0.0079609398 0.036819369 0.64286506
0.006512403 -0.040583357 0.64370644
0.006512403 -0.038579181 0.64370644
0.006512403 0.0075145066 0.64370644
0.0050457432 -0.026237845 0.64455873
0.0050457432 -0.026237845 0.64455873
0.0050457432 -0.0030274093 0.64455867
0.0050457432 -0.0030274093 0.64455867
0.0050457432 2.9802322e-08 0.64455867
0.0050457432 0.014128089 0.64455873
0.0030561793 -0.038711607 0.64571488
0.0040556598 -0.034473091 0.64513409
0.0040556598 -0.023320019 0.64513403
0.0040556598 -0.012166947 0.64513409
0.0030561793 0.0010187328 0.64571488
0.0030561793 0.0020374954 0.64571488
0.0030561793 0.015280902 0.64571488
0.0030561793 0.019355863 0.64571488
0.0040556598 0.026361793 0.64513403
0.0030561793 0.032599241 0.64571488
0.0020471679 -0.045037687 0.64630121
0.02054102 -0.041082025 0.64671969
0.0020471679 -0.039919764 0.64630121
0.0020471679 -0.037872583 0.64630121
0.0020471679 -0.01637733 0.64630115
0.0020471679 -0.0092122257 0.64630115
0.0020471679 0.007165134 0.64630115
0.0010284878 0.0092563927 0.6468932
0.0020471679 0.015353739 0.64630121
0.0010284878 0.022626758 0.64689314
0 -0.035136938 0.64749086
0 -0.014468163 0.64749086
0.042325404 -0.0072262585 0.64735657
0.042325404 -0.0072262585 0.64735657
0.047365829 0.0010297 0.64703858
0 0.0020668805 0.64749086
0 0.031003177 0.64749086
0 0.041337699 0.64749116
-0.0010384381 -0.007268995 0.64809424
-0.0020869714 0.002086997 0.64870358
-0.0020869714 0.0073044002 0.64870358
-0.0020869714 0.010434866 0.64870358
-0.0020869714 0.012521863 0.64870358
-0.0010384381 0.017653465 0.64809424
-0.0020869714 0.018782794 0.64870358
-0.0010384381 0.021807224 0.6480943
-0.0020869714 0.038608998 0.64870358
-0.0031457483 -0.034603208 0.64931887
0.036631506 -0.017792463 0.64908123
-0.0031457483 -0.014680147 0.64931881
-0.0042149192 -0.0042149127 0.64994019
-0.0042149192 0.021074653 0.64994013
-0.0042149192 0.035826862 0.64994013
0.015863711 -0.05182144 0.65040499
-0.0052946378 -0.034944594 0.65056759
-0.0052946378 -0.020119607 0.65056753
-0.0052946378 -0.012707114 0.65056759
-0.0052946378 -0.0063535273 0.65056753
-0.0052946378 0.0063535869 0.65056759
-0.0052946378 0.024355322 0.65056759
-0.0052946378 0.032826751 0.65056759
-0.0074863499 -0.052404433 0.65184116
-0.0074863499 -0.04491806 0.65184116
-0.0063850614 -0.024476051 0.65120125
-0.0063850614 -0.017026812 0.65120125
-0.0063850614 2.9802322e-08 0.65120125
-0.0063850614 0.009577632 0.65120125
-0.0063850614 0.012770116 0.65120125
-0.0074863499 0.016042203 0.65184116
-0.0074863499 0.016042203 0.65184116
-0.0074863499 0.027806461 0.65184116
-0.0074863499 0.038501263 0.65184116
-0.0063850791 0.042567223 0.65120161
-0.0063850791 0.042567223 0.65120161
-0.0074863709 0.048126668 0.65184152
-0.0085986657 -0.011823118 0.65248758
-0.0085986657 0.035469532 0.65248752
-0.0097221769 -0.047530591 0.65314043
-0.010857053 -0.046685278 0.65379989
-0.010857053 -0.026056916 0.65379995
-0.010857053 -0.026056916 0.65379995
-0.010857053 -0.020628363 0.65379989
-0.010857053 -0.017371267 0.65379995
0.042319581 -0.01302141 0.65372896
-0.010857053 -0.0086856484 0.65379989
-0.0097221769 -0.00216043 0.65314043
-0.0097221769 0.0010802746 0.65314043
-0.010857053 0.016285598 0.65379989
-0.0097221769 0.021604866 0.65314043
-0.0097221769 0.023765385 0.65314043
-0.0097221769 0.023765385 0.65314043
-0.0097221769 0.029166549 0.65314043
-0.0097221769 0.030246824 0.65314043
-0.0097221769 0.035647988 0.65314049
-0.012003465 -0.034919143 0.65446615
-0.012003465 -0.01636833 0.65446609
-0.012003465 0.013094693 0.65446609
-0.012003465 0.018550843 0.65446609
-0.014331615 -0.05071184 0.655819
-0.014331615 -0.049609423 0.65581906
-0.014331615 -0.0088194311 0.65581906
-0.014331615 0.0088194609 0.65581906
-0.014331615 0.0088194609 0.65581906
-0.014331615 0.0088194609 0.65581906
-0.013161593 0.023032814 0.65513909
-0.013161593 0.038387984 0.65513909
-0.015513716 -0.044324875 0.65650594
-0.015513716 -0 0.65650594
-0.017914914 -0.054864377 0.65790129
-0.017914914 -0.05262506 0.65790129
-0.017914914 -0.038069159 0.65790129
-0.016708085 -0.037871659 0.65720004
-0.017914914 -0.032470733 0.65790129
-0.017914914 -0.029111713 0.65790129
-0.016708085 -0.020049661 0.65719998
-0.016708085 -0.020049661 0.65719998
-0.017914914 -0.004478693 0.65790129
-0.017914914 0.0033590496 0.65790129
-0.017914914 0.022393644 0.65790129
-0.016708085 0.023391336 0.65719998
-0.016708085 0.034530073 0.65719998
-0.017914914 0.043667644 0.65790129
-0.019134395 -0.0033766329 0.65860993
-0.019134395 0.03714326 0.65860987
-0.019134395 0.043896586 0.65860993
-0.019134395 0.043896586 0.65860993
-0.019134453 0.054026693 0.65861034
-0.020366734 -0.042996407 0.65932608
-0.020366734 0.010183394 0.65932608
-0.022870796 -0.041167408 0.6607812
-0.022870796 -0.038880348 0.6607812
-0.02161213 -0.035261869 0.66004974
-0.022870796 -0.026301414 0.6607812
-0.02161213 -0.021612108 0.66004974
-0.022870796 -0.0091482997 0.66078115
-0.022870796 -0.0034306049 0.66078115
-0.022870796 2.9802322e-08 0.6607812
-0.02161213 0.013649821 0.66004974
-0.022870796 0.022870839 0.6607812
-0.02161213 0.03981185 0.66004974
-0.02161213 0.04663673 0.6600498
-0.02161213 0.050049156 0.66004974
-0.024142943 -0.032190561 0.66152042
-0.024142943 -0.018394619 0.66152042
-0.024142943 0.0034490228 0.66152042
-0.024142943 0.013795972 0.66152042
-0.024142943 0.027591944 0.66152042
-0.024142943 0.032190621 0.66152042
-0.024142943 0.039088577 0.66152042
-0.025428791 -0.050857544 0.66226763
-0.025428791 -0.050857544 0.66226763
-0.025428791 -0.046234131 0.66226763
-0.025428791 0.028896391 0.66226763
-0.025428791 0.045078307 0.66226768
-0.025428791 0.055481017 0.66226768
0.022083012 -0.053464115 0.66304135
-0.026728557 -0.05229497 0.66302294
0.024525352 -0.050218552 0.66371858
-0.028042477 -0.047905892 0.66378647
-0.028042477 -0.022200257 0.66378641
-0.026728557 -0.022080094 0.66302299
-0.028042477 -0.012852788 0.66378647
-0.028042477 -0.012852788 0.66378647
-0.028042477 0.0081790388 0.66378647
-0.026728557 0.011621147 0.66302294
-0.028042477 0.028042495 0.66378647
-0.026728557 0.034863383 0.66302294
-0.028042477 0.046737462 0.66378647
-0.029370774 -0.035244912 0.66455835
-0.029370774 -0.035244912 0.66455835
0.03527496 -0.034099102 0.66467917
-0.029370774 -0.030545563 0.66455829
-0.029370774 -0.0023496449 0.66455835
-0.029370774 0.024671495 0.66455835
0.037810493 -0.030720979 0.66537279
-0.03071369 0.041345328 0.66533875
-0.033444356 -0.054944277 0.66692555
-0.033444356 -0.038222104 0.66692555
-0.032071467 -0.026132315 0.66612774
-0.032071467 -0.019005269 0.66612768
-0.032071467 -0.014253944 0.66612774
0.04877856 -0.014276654 0.66635573
-0.033444356 0.0047777891 0.66692549
-0.032071467 0.029695809 0.6661278
-0.033444356 0.037027717 0.66692555
-0.033444356 0.054944336 0.66692555
-0.034832612 -0.049246073 0.66773224
-0.034832612 -0.022821367 0.66773224
-0.034832612 -0.014413476 0.66773224
-0.03623648 -0.049523175 0.66854805
0.033777006 -0.039808571 0.66835964
-0.03623648 -0.024157614 0.66854805
-0.03623648 -0.012078822 0.66854805
-0.03623648 -0.0060394108 0.66854805
-0.03623648 -0.0060394108 0.66854805
-0.03623648 0.0012079179 0.66854805
-0.03623648 0.010870993 0.66854805
-0.037656244 -0.044944555 0.6693731
-0.037656244 0.026723802 0.6693731
-0.037656244 0.040085703 0.66937304
-0.039092164 -0.054973334 0.6702075
-0.039092164 -0.045200288 0.6702075
-0.040544521 -0.050373495 0.6710515
-0.040544521 -0.038087279 0.6710515
-0.040544521 -0.030715525 0.67105144
-0.042013593 -0.02347815 0.67190516
-0.040544521 -0.017200679 0.6710515
-0.040544521 -0.0061430931 0.6710515
-0.040544521 -0.0036858022 0.67105144
-0.040544521 0.0073717535 0.67105144
-0.040544521 0.0073717535 0.67105144
-0.040544521 0.0098289847 0.6710515
-0.040544521 0.023343861 0.67105144
-0.040544521 0.034401447 0.6710515
-0.040544521 0.043001801 0.67105144
-0.040544521 0.052830786 0.6710515
-0.040544521 0.052830786 0.6710515
-0.043499682 -0.042256832 0.67276871
-0.045003075 -0.040002704 0.67364234
-0.045003075 -0.040002704 0.67364234
-0.045003075 0.0025002062 0.6736424
-0.045003075 0.017501235 0.6736424
-0.045003075 0.037502587 0.67364234
-0.045003075 0.048753321 0.6736424
0.0463925 -0.025077015 0.67409694
-0.046524081 -0.023890734 0.67452621
-0.046524081 -0.010059237 0.67452621
-0.046524081 -0.010059237 0.67452621
-0.046524081 0.042751878 0.67452621
-0.046524081 0.042751878 0.67452621
-0.04806301 -0.045533329 0.67542052
-0.04806301 -0.0050592422 0.67542052
-0.04806301 -0.0050592422 0.67542052
-0.04806301 0.012648195 0.67542052
-0.04806301 0.027825952 0.67542052
-0.04806301 0.059446365 0.67542052
-0.049620181 0.045803279 0.67632532
0.0360034 -0.045004219 0.67795777
-0.05119592 -0.037117004 0.67724109
-0.05119592 -0.037117004 0.67724109
-0.05119592 -0.031997383 0.67724103
-0.05119592 -0.021758258 0.67724109
-0.05119592 0.0089592934 0.67724109
-0.05119592 0.0089592934 0.67724109
-0.05119592 0.019198477 0.67724109
-0.05119592 0.061435133 0.67724109
-0.05279056 -0.021888763 0.67816776
0.054236386 -0.016787469 0.67862254
-0.05279056 -0.012875706 0.6781677
-0.054404449 -0.038860291 0.67910558
-0.054404449 -0.027202189 0.67910552
-0.054404449 -0.018134803 0.67910558
-0.054404449 -0.0090674162 0.67910558
-0.054404449 0.056995153 0.67910558
-0.056037925 -0.039096206 0.68005478
-0.056037925 0.014335304 0.68005478
-0.056037925 0.019548118 0.68005478
-0.056037925 0.045612305 0.68005478
-0.056037925 0.062553972 0.68005478
-0.059365116 -0.031661361 0.68198824
-0.059365116 -0.029022932 0.68198824
-0.059365116 -0.019788325 0.68198824
-0.057691362 0.030156881 0.68101561
-0.059365116 0.031661451 0.68198824
-0.057691362 0.039335042 0.68101561
-0.059365116 0.058045924 0.68198824
-0.061059572 -0.022565484 0.68297291
-0.061059572 2.9802322e-08 0.68297291
-0.061059572 0.0092917085 0.68297291
-0.061059572 0.026547641 0.68297291
-0.061059572 0.035839319 0.68297291
-0.061059572 0.037166685 0.68297291
-0.062775105 -0.01736331 0.6839698
-0.062775105 0.028048456 0.6839698
-0.062775105 0.042740524 0.6839698
-0.064512126 -0.038976043 0.6849792
-0.064512126 -0.037632048 0.68497914
-0.064512126 -0.030912042 0.68497914
-0.064512126 -0.029568076 0.6849792
-0.064512126 -0.02284804 0.6849792
-0.064512126 -0.021504045 0.6849792
-0.064512126 -0.017472029 0.6849792
-0.064512126 -0.010751963 0.68497914
-0.064512126 0.016128063 0.6849792
-0.064512126 0.017472059 0.6849792
-0.064512126 0.017472059 0.6849792
-0.064512126 0.033600122 0.68497914
-0.064512126 0.033600122 0.68497914
-0.064512126 0.04569611 0.6849792
-0.064512126 0.057792157 0.6849792
-0.064512126 0.063168138 0.6849792
-0.066271037 -0.032459259 0.6860013
-0.066271037 0.012172252 0.68600124
-0.066271037 0.032459319 0.6860013
-0.066271037 0.04598403 0.6860013
0.055000838 -0.024750352 0.68872344
0.061665982 -0.013703525 0.68816018
0.03176944 -0.062157601 0.68947899
0.030846084 -0.065898418 0.69199145
0.030846084 -0.065898418 0.69199145
0.057553694 -0.023863673 0.69219112
0.053842176 -0.031171769 0.69377863
0.066741772 -0.014509052 0.69788384
0.049900152 -0.053018898 0.71097744
0.037523318 0.014924079 0.62568605
0.037523318 0.016842887 0.62568605
0.033933319 0.018706828 0.62777227
0.031141646 -0.0030923113 0.62939423
0.035980165 -0.0026984811 0.63132346
0.029042033 -0.001340434 0.63061434
0.03652655 -0.00089085102 0.63028377
0.029042102 0.016978562 0.63061464
0.029042101 0.019213103 0.63061458
0.025171407 -0.020710137 0.6332314
0.023880422 -0.016991824 0.63361382
0.020979008 0.005128473 0.6352998
0.022647165 0.017101698 0.63433045
0.022647221 0.02507408 0.63433069
0.019281611 -0.028688788 0.63628614
0.019281611 -0.028688788 0.63628614
0.017554201 -0.02135095 0.63729
0.019281611 -0.014696859 0.6362862
0.019281611 -0.0014109164 0.6362862
0.019281611 0.0089358911 0.63628614
0.017554246 0.028942533 0.63729024
0.019281659 0.030922089 0.6362865
0.016239449 -0.031046003 0.63805401
0.016239449 -0.018627584 0.63805401
0.014905049 -0.014906101 0.63882947
0.014905049 -0.012982726 0.63882941
0.033903081 -0.013561219 0.63967127
0.014905049 -0.0052892342 0.63882941
0.0407492 -0.002910614 0.6398595
0.016239449 0.0011940971 0.63805401
0.045490894 0.0048394501 0.63957852
0.014905049 0.014906161 0.63882941
0.014905088 0.022719644 0.63882971
0.011260059 -0.045043558 0.64094752
0.011260059 -0.045043558 0.64094752
0.0098597389 -0.023170367 0.6417613
0.0098597389 -0.023170367 0.6417613
0.038082846 -0.0078118443 0.6406157
0.012643449 0.001215741 0.64014363
0.01126006 0.011261173 0.64094752
0.0098597389 0.027114302 0.6417613
0.009859764 0.033030227 0.6417616
0.0089147091 -0.039125651 0.64231044
0.0072366605 -0.015227184 0.64328551
0.0072366609 0.013230037 0.64328557
0.0089147091 0.029220447 0.64231044
0.0045507015 -0.032874763 0.64484644
0.0045507015 -0.02275943 0.64484638
0.0045507015 -0.0045518652 0.64484638
0.0045507015 0.00050579011 0.64484638
0.0030561793 0.0066217482 0.64571488
0.0030561793 0.016809002 0.64571488
0.0045507015 0.028828681 0.64484632
0.0045507131 0.040967166 0.64484668
0.018408725 -0.043976367 0.64619535
0.0005142439 -0.040723026 0.647192
0.0020471679 -0.039407969 0.64630127
0.0005142439 -0.025258593 0.647192
0.0005142439 -0.0087631568 0.647192
0.00068565854 0.031247001 0.6470924
-0.0027928229 -0.046760201 0.64911377
-0.0042149192 -0.042676032 0.64994013
0.024092792 -0.037710428 0.64918965
0.029254394 -0.029254377 0.64886218
-0.0026163599 -0.019351594 0.64901119
-0.0026163599 -0.013075411 0.64901119
-0.0042149192 -0.004741773 0.64994013
-0.0010384381 -0.0010384023 0.64809424
-0.0042149192 0.0047418028 0.64994013
-0.0042149192 0.011064216 0.64994013
-0.0026163599 0.019351654 0.64901119
-0.0026163599 0.019351654 0.64901119
-0.0026163671 0.044978343 0.64901155
-0.0069357054 -0.043206491 0.65152121
-0.0052946378 -0.040768668 0.65056753
-0.0052946378 -0.031238347 0.65056753
-0.0052946378 -0.02912049 0.65056759
0.035989724 -0.020111859 0.65051854
-0.0069357054 -0.0026670545 0.65152121
0.050988026 0.0031868219 0.65096867
-0.0091604218 -0.05118303 0.65281397
-0.010857053 -0.021171227 0.65379989
-0.0091604218 -0.0010775179 0.65281403
-0.0091604218 0.0048489347 0.65281397
-0.010857053 0.024971247 0.65379989
-0.010857084 0.045056924 0.65380025
-0.012389507 -0.045180112 0.65469044
-0.012582529 -0.028991289 0.65480262
0.049496528 -0.0032997429 0.65551615
-0.014331615 0.0027561039 0.65581906
-0.015513716 -0.024932727 0.65650594
-0.017311499 -0.022893898 0.65755063
-0.015513716 0.0049865544 0.65650594
-0.015513716 0.011081219 0.65650594
-0.015513716 0.034905881 0.65650594
-0.019134395 -0.04896155 0.65860999
0.031809933 -0.03521812 0.65987933
0.0454005 -0.013620138 0.65975189
-0.024142943 -0.040813044 0.66152042
-0.02161213 -0.036968082 0.6600498
-0.024142943 -0.032765388 0.66152042
-0.02161213 -0.023318335 0.6600498
0.039837521 -0.022764266 0.66013837
0.039837521 -0.022764266 0.66013837
-0.022870796 -0.0085765272 0.66078115
-0.02161213 -0.0028436631 0.66004974
-0.022870796 0.021155521 0.66078115
-0.024142943 0.027017117 0.66152036
-0.022870796 0.026873216 0.66078115
-0.022870796 0.032590896 0.66078115
-0.024142943 0.040813103 0.66152036
-0.022870796 0.04059568 0.66078115
-0.022870796 0.050887555 0.66078115
-0.02161213 0.052892879 0.66004974
-0.028042477 -0.053163841 0.66378653
-0.026728557 -0.047065496 0.66302299
-0.026728557 -0.041254953 0.66302299
-0.025428791 -0.027162552 0.66226768
-0.025428791 -0.0213833 0.66226768
-0.025428791 -0.0086688846 0.66226763
-0.028042477 -0.0029210597 0.66378647
-0.028042477 0.0070106089 0.66378647
-0.028042477 0.0087632686 0.66378653
-0.028042477 0.056669191 0.66378647
-0.03071369 -0.034848228 0.66533875
-0.03071369 -0.01299423 0.66533875
-0.03071369 0.011222318 0.6653387
-0.03071369 0.033076316 0.6653387
-0.029370774 0.039356843 0.66455835
-0.029370774 0.039356843 0.66455835
-0.03071369 0.046661198 0.66533875
-0.029370774 0.046993256 0.66455829
-0.032757912 -0.04704988 0.66652668
-0.034832612 -0.021019652 0.66773224
-0.032757912 -0.0071467757 0.66652668
-0.034832612 0.018617436 0.66773224
-0.034832612 0.027025327 0.66773224
-0.036709737 -0.057280164 0.668823
-0.036709737 -0.039127767 0.66882312
0.056754649 -0.0036225915 0.66850734
-0.036946364 0.0066621676 0.66896057
-0.037182994 0.046880245 0.66909808
-0.039092164 -0.032983959 0.6702075
-0.042013593 -0.019153252 0.67190516
-0.040544521 -0.019043609 0.67105144
-0.042013593 -0.012974769 0.67190516
0.056277487 -0.0061170757 0.67042398
-0.040544521 -0.0012285709 0.6710515
-0.039092164 0.056805834 0.6702075
-0.045003075 -0.053128615 0.6736424
-0.045003075 -0.048753321 0.6736424
-0.043499682 -0.045363948 0.67276871
-0.045003075 -0.043127939 0.6736424
-0.045003075 -0.040627763 0.6736424
0.055787604 -0.008678019 0.67239165
-0.045003075 0.013125896 0.6736424
-0.045003075 0.03500244 0.67364234
-0.045003075 0.043127954 0.6736424
-0.043499682 0.049092546 0.67276871
-0.045003075 0.05312866 0.67364234
-0.046524081 -0.047152758 0.67452621
0.040248342 -0.035217255 0.67456883
0.0463925 -0.025077015 0.67409694
-0.04806301 -0.017075002 0.67542052
-0.04806301 -0.0050592422 0.67542052
-0.046524081 0.013202816 0.67452621
-0.04806301 0.020869493 0.67542052
0.039524872 -0.03824985 0.67664933
-0.05119592 -0.037117004 0.67724109
-0.05119592 -0.031357467 0.67724109
-0.049620181 -0.024810076 0.67632544
-0.049620181 -0.024810076 0.67632544
-0.049620181 0.05534561 0.67632538
-0.054404449 -0.027202189 0.67910552
-0.054404449 -0.020725489 0.67910564
-0.054404449 0.01295346 0.67910552
-0.05279056 0.018669859 0.6781677
-0.054404449 0.0330313 0.67910552
-0.054404449 0.0330313 0.67910552
-0.054404449 0.044689387 0.67910552
-0.059365116 -0.040895939 0.68198824
-0.059365116 -0.038917094 0.68198824
-0.059365116 -0.023086429 0.68198824
-0.056864642 0.003267996 0.6805352
-0.059365116 0.042874828 0.68198824
-0.059365116 0.048811346 0.68198824
-0.059365116 0.048811346 0.68198824
0.03723041 -0.047867656 0.68324763
-0.061059572 -0.03119345 0.68297291
-0.061059572 -0.029202372 0.68297291
-0.062775105 -0.0066781938 0.6839698
-0.061059572 -0.0033184439 0.68297291
-0.061059572 0.019247085 0.68297291
-0.061059572 0.033184588 0.68297285
-0.064512126 -0.034944028 0.68497914
-0.064512126 -0.020832032 0.6849792
-0.064512126 0.051072121 0.6849792
-0.068052247 -0.012929901 0.6870364
-0.066271037 0.0006762743 0.6860013
-0.068052247 0.025179356 0.6870364
-0.066271037 0.056803793 0.6860013
-0.066271037 0.056803793 0.6860013
0.048290152 -0.035872638 0.68929052
0.055000838 -0.024750352 0.68872344
0.055000838 -0.024750352 0.68872344
0.059171624 -0.029585779 0.70130992
0.055274386 -0.037347555 0.70307368
0.068929076 -0.019912839 0.70764321
0.04226663 -0.065748036 0.71170789
0.049900152 -0.053018898 0.71097744
0.041397702 -0.070057601 0.71494162
0.052682221 -0.052682221 0.71544999
0.040973477 0.013901733 0.62368119
0.027483582 0.010137758 0.63151997
0.027483582 0.010137758 0.63151997
0.03009191 0.021908144 0.63000453
0.021290287 -0.02933735 0.63556784
0.01422983 -0.038114958 0.63922185
0.01422983 -0.013991551 0.63922179
0.017691754 -0.013769451 0.63721007
0.017691754 0.0099568656 0.63721007
0.010011503 -0.045976616 0.64167309
0.012643449 -0.029663466 0.64014363
0.031596668 -0.019260451 0.64193296
0.047377557 0.0068332702 0.64066714
0.010011516 0.03004998 0.64167327
0.029574852 -0.026006229 0.64584267
0.0018725306 -0.01792741 0.64640272
0.034736123 -0.018047741 0.64606279
0.017394487 -0.049005017 0.64996803
0.044915698 -0.0058079064 0.65030378
-0.010008737 -0.038261823 0.65330696
-0.010008737 -0.013925347 0.65330696
-0.010008737 0.0016224496 0.65330696
-0.013457072 0.045849733 0.65531081
0.018388271 -0.054032147 0.65723479
0.029399661 -0.038445681 0.65923804
0.04353027 -0.014510095 0.65747625
-0.020366734 0.0016972497 0.65932608
-0.018222947 0.017937569 0.65808028
0.037601091 -0.028336689 0.66238225
0.047895353 -0.010263294 0.66039801
-0.022241462 0.0061298907 0.66041547
-0.022241462 0.017820105 0.66041547
-0.025433429 0.029955458 0.66227037
-0.028042477 0.034176789 0.66378641
-0.033795264 -0.049937181 0.66712946
-0.030042231 -0.018112294 0.66494852
-0.03379526 0.017940719 0.6671294
-0.030042233 0.045943677 0.66494852
-0.033795264 0.049937233 0.66712946
0.050590903 -0.014637798 0.66990864
-0.038019262 -0.010035811 0.66958404
0.05946672 2.9802322e-08 0.66923898
-0.038019262 0.010035869 0.66958404
-0.04806301 -0.0420551 0.67542052
-0.043499682 -0.03386759 0.67276871
0.0463925 -0.025077015 0.67409694
-0.04806301 -0.021818042 0.67542052
-0.043499682 0.0018642917 0.67276871
-0.04806301 0.018023647 0.67542052
-0.04806301 0.018023647 0.67542052
-0.045763578 0.034164626 0.67408431
-0.04806301 0.038260713 0.67542052
-0.045763578 0.037925862 0.67408431
-0.045763578 0.053910214 0.67408431
-0.045763578 0.057985801 0.67408431
0.039524872 -0.03824985 0.67664933
-0.053597502 -0.026152026 0.67863667
-0.053597502 -0.013883155 0.67863667
-0.05040805 -0.0098897889 0.6767832
-0.05040805 0.062050175 0.6767832
0.05957355 -0.01191467 0.68254733
-0.061917335 0.06574288 0.68347132
0.064348757 -0.012589961 0.6916042
0.050711215 -0.035216063 0.69278216
0.067341447 -0.0099355727 0.69389069
0.038273785 -0.061826855 0.70043808
0.062512651 -0.025302708 0.70240903
0.049164753 -0.057094514 0.71418595
0.067229167 -0.034434408 0.72067732
0.073769622 -0.036884785 0.73476231
