# .PCD v0.7 - Point Cloud Data file format
VERSION 0.7
FIELDS x y z
SIZE 4 4 4
TYPE F F F
COUNT 1 1 1
WIDTH 721
HEIGHT 1
VIEWPOINT 0 0 0 1 0 0 0
POINTS 721
DATA ascii
-0.041153938 -0.010498405 0.62412572
-0.039093144 -0.0093483329 0.62532979
-0.039093144 -0.006798774 0.62532979
-0.038395256 -0.0055459589 0.62573743
-0.037691873 -0.019702554 0.62614852
-0.036625355 -0.0086178929 0.62677133
-0.034821067 -0.019151568 0.62782556
-0.034088776 -0.023599893 0.62825346
-0.034088776 -0.021851748 0.62825346
-0.033350497 -0.016675204 0.62868476
-0.034088776 -0.0043703318 0.62825346
-0.033350497 -0.0035105646 0.62868476
-0.033350497 -0.0035105646 0.62868476
-0.034088776 -0.00087404251 0.62825346
-0.032606155 -0.017624944 0.62911969
-0.03185568 -0.012388289 0.62955815
-0.032606155 0.0035249889 0.62911969
-0.031098988 -0.014216661 0.63000029
-0.029566661 -0.008511588 0.63089561
-0.031098988 -0.0017770529 0.63000023
-0.030336009 0.0017845035 0.63044602
-0.029566661 0.013439417 0.63089561
-0.028399698 -0.024343401 0.63157743
-0.028399698 -0.024343401 0.63157743
-0.026423955 -0.02186808 0.6327318
-0.027219595 -0.017239034 0.63226688
-0.026423955 -0.012756377 0.6327318
-0.026423955 -0.0018223226 0.6327318
-0.026423955 0.0027335286 0.6327318
-0.027219595 0.0072585642 0.63226688
-0.026423955 0.0091117322 0.63273174
-0.025621535 -0.015555888 0.63320059
-0.024812244 -0.0073517263 0.63367343
-0.025621535 0.015555948 0.63320059
-0.025621535 0.015555948 0.63320059
-0.024812244 0.019298434 0.63367349
-0.023584347 -0.0055494457 0.63439083
-0.023584347 0.020348147 0.63439089
-0.022342259 -0.027927816 0.63511664
-0.022342259 -0.02327314 0.63511658
-0.022342259 -0.02327314 0.63511658
-0.022342259 -0.0214113 0.63511658
-0.022342259 -0.0037237108 0.63511658
-0.022342259 0.010240227 0.63511658
-0.022342259 0.019549489 0.63511658
-0.021504587 0.022439599 0.63560605
-0.026993794 0.023270547 0.6351037
-0.021504587 0.026179522 0.63560599
-0.020659585 -0.017842352 0.63609976
-0.044225592 -0.002822876 0.63632882
-0.019807158 -0.0018863678 0.63659775
-0.019807158 0.0047160089 0.63659775
-0.019807158 0.0084887743 0.63659775
-0.034978893 0.012289882 0.63686061
-0.020659585 0.013146996 0.6360997
-0.020659585 0.013146996 0.6360997
-0.016321206 -0.029762179 0.63863456
-0.016321206 -0.028802127 0.6386345
-0.016321206 0.0048003793 0.6386345
-0.016321206 0.0096007288 0.63863456
-0.017204335 0.029629707 0.63811851
-0.016321206 0.029762208 0.6386345
-0.016321206 0.03552264 0.63863456
-0.017204335 0.036320269 0.63811851
-0.014531038 -0.035843194 0.6396805
-0.014531038 -0.026155859 0.6396805
-0.015430143 -0.024109572 0.63915515
-0.015430143 -0.017358899 0.63915515
-0.015430143 -0.010608226 0.63915515
-0.015430143 -0.010608226 0.63915515
-0.0474362 -0.0048404038 0.63960195
-0.045318585 -0.0019284189 0.63913596
-0.015430143 0.0019287467 0.63915515
-0.014531038 0.014531076 0.6396805
-0.014531038 0.016468525 0.6396805
-0.014531038 0.023249686 0.63968045
-0.014531038 0.038749486 0.63968045
-0.014531038 0.04165566 0.6396805
-0.012708262 -0.02150625 0.64074546
-0.013623781 -0.017516255 0.64021051
-0.013623781 0.011677533 0.64021057
-0.012708262 0.030304343 0.64074546
-0.013623781 0.0350326 0.64021051
-0.013623781 0.0350326 0.64021051
-0.019439097 0.039850175 0.64006901
-0.011784365 -0.030442923 0.64128524
-0.011784365 0.0088382959 0.6412853
-0.011784365 0.023568749 0.6412853
-0.011784365 0.031424969 0.64128524
-0.0089612557 -0.036840707 0.64293474
-0.0089612557 -0.017922521 0.64293474
-0.0099109812 -0.013875335 0.64237982
-0.0099109812 -0.012884229 0.64237982
-0.0089612557 -0.0029870868 0.64293474
-0.0089612557 0.015931159 0.64293474
-0.009910956 0.039643824 0.64237952
-0.009910956 0.04063493 0.64237952
-0.009910956 0.048563719 0.64237952
-0.0080026779 -0.033011019 0.64349478
-0.034003254 0.020001948 0.643466
-0.0080026574 0.027008981 0.64349449
-0.0080026574 0.045014918 0.64349449
-0.0070351264 -0.034170598 0.64406013
-0.0070351264 -0.019095302 0.64406013
-0.0060584717 -0.0060584545 0.64463073
-0.0070351264 -0.0010049939 0.64406013
-0.0060584717 -0.0010097325 0.64463079
-0.0060584559 0.005048722 0.64463043
-0.0060584559 0.012116909 0.64463043
-0.0070351078 0.035175562 0.64405978
-0.0050725862 -0.038551629 0.64520675
-0.0040773381 -0.024464011 0.64578831
-0.0050725862 -0.019275784 0.64520681
-0.0040773381 -0.019367337 0.64578825
-0.0040773381 -0.019367337 0.64578825
-0.0040773381 -0.018348008 0.64578825
-0.0050725862 -0.0071015656 0.64520675
-0.004077327 -0.0050966144 0.64578789
-0.0050725723 0.0040580928 0.64520645
-0.004077327 0.0081546605 0.64578795
-0.004077327 0.0091739893 0.64578795
-0.035532147 0.019288898 0.64528972
-0.0050725723 0.019275814 0.64520645
-0.004077327 0.019367307 0.64578795
-0.0050725723 0.023333848 0.64520645
-0.0050725723 0.023333848 0.64520645
-0.004077327 0.02548328 0.64578795
-0.0050725723 0.028406411 0.64520645
-0.004077327 0.037715316 0.64578795
-0.0050725723 0.043624163 0.64520645
-0.004077327 0.048927933 0.64578795
-0.0030725931 -0.035846919 0.6463753
-0.0030725931 -0.034822702 0.6463753
-0.0020582152 -0.024698555 0.64696801
-0.0030725931 -0.015362948 0.6463753
-0.0020582152 -0.014407486 0.64696801
-0.0030725931 -0.0092177093 0.6463753
-0.0020582096 0.0041164458 0.64696759
-0.003072585 0.010241985 0.64637494
-0.003072585 0.020483911 0.646375
-0.003072585 0.036871016 0.646375
-0.003072585 0.039943635 0.64637494
-0.0020582096 0.043222398 0.64696765
-0.003072585 0.047112972 0.646375
-0.0010340648 -0.029987872 0.64756632
-0.0010340619 0.0031022131 0.64756602
-0.0010340619 0.015510976 0.64756602
-0.0010340619 0.016545027 0.64756602
-0.0010340619 0.028953761 0.64756608
-0.0010340619 0.050669074 0.64756602
0.0010441209 -0.016705871 0.64878023
0 0.0072734952 0.64817017
0 0.011429787 0.64817023
0.0010441209 0.013573617 0.64878023
0 0.020781338 0.64817017
0 0.021820426 0.64817017
0 0.048836172 0.64817017
0.0020984481 -0.0073445737 0.64939624
0.0020984481 -0.0031476617 0.64939624
0.0020984481 0.017836839 0.64939624
0.0042383382 -0.042383373 0.65064687
0.0031631324 -0.032685667 0.65001833
0.0042383266 -0.021191567 0.65064651
0.0031631324 -0.016870022 0.65001833
0.0042383266 -0.014834106 0.65064651
0.0031631324 -0.012652516 0.65001833
0.0031631324 0.0021087825 0.65001827
0.0042383266 0.018012881 0.65064657
0.0031631324 0.031631351 0.65001833
0.0031631324 0.03479445 0.65001833
0.0031631324 0.036903232 0.65001833
0.0031631324 0.04322952 0.65001833
0.0064208745 -0.046016216 0.65192175
0.0064208745 -0.035314798 0.65192175
0.0064208745 -0.027823776 0.65192175
0.0064208745 -0.01819244 0.65192169
0.0064208745 -0.0064208508 0.65192175
0.0064208745 0.003210485 0.65192175
0.0053241872 0.0063890517 0.651281
0.0064208745 0.0096313059 0.65192175
0.0064208745 0.026753664 0.65192175
0.0064208745 0.028893948 0.65192175
0.0064208745 0.035314798 0.65192175
0.0053241872 0.042593539 0.65128094
0.0053241872 0.047917694 0.651281
0.00752855 -0.032265186 0.65256888
0.00752855 -0.027963191 0.65256888
0.00752855 0.012906075 0.65256894
0.00752855 0.02258566 0.65256894
0.00752855 0.039793789 0.65256894
0.00752855 0.050548851 0.65256888
0.0086473804 -0.049722403 0.65322256
0.0097775357 -0.041282892 0.65388292
0.0097775357 -0.03259176 0.65388292
0.0086473804 -0.031346738 0.65322256
0.0097775357 -0.031505346 0.65388292
0.0097775357 0.01629591 0.65388298
0.0097775357 0.03802377 0.65388292
0.0086473804 0.047560602 0.65322262
0.010919186 -0.038217127 0.65454996
0.010919186 -0.0076434016 0.65454996
0.010919186 0.0065515637 0.65454996
0.010919186 0.040400982 0.65454996
0.013237691 -0.02647537 0.65590459
0.012072512 -0.016462475 0.65522379
0.012072512 -0.003292501 0.65522385
0.012072512 -0.0021949708 0.65522379
0.013237691 2.9802322e-08 0.65590453
0.013237691 0.0022063255 0.65590459
0.012072512 0.0054875314 0.65522379
0.012072512 0.019755006 0.65522385
0.012072512 0.025242537 0.65522379
0.012072512 0.039510071 0.65522385
0.013237691 0.051847637 0.65590459
0.014414905 -0.052115411 0.65659237
0.014414905 -0.04768008 0.65659243
0.014414905 -0.04768008 0.65659243
0.014414905 -0.0066530108 0.65659237
0.014414905 -0.0066530108 0.65659237
0.014414905 0.0077618659 0.65659243
0.014414905 0.0077618659 0.65659243
0.014414905 0.013306111 0.65659237
0.014414905 0.018850267 0.65659243
0.014414905 0.023285657 0.65659237
0.014414905 0.032156348 0.65659237
0.014414905 0.053224295 0.65659237
0.015604345 -0.051271379 0.65728736
0.0168062 -0.048177749 0.65798956
0.015604345 -0.035667032 0.65728736
0.015604345 -0.031208664 0.65728736
0.0168062 -0.029130727 0.65798956
0.0168062 -0.023528665 0.6579895
0.015604345 -0.013375163 0.65728736
0.0168062 -0.002240777 0.65798956
0.015604345 0.0011146069 0.65728736
0.015604345 0.0055730045 0.65728736
0.0168062 0.012324572 0.65798956
0.0168062 0.021287888 0.65798956
0.015604345 0.026750356 0.65728736
0.015604345 0.027864933 0.65728736
0.015604345 0.036781698 0.65728736
0.015604345 0.041240066 0.65728736
0.015604345 0.046813041 0.65728736
0.015604345 0.053500623 0.65728736
0.0168062 0.05377987 0.65798956
0.018020667 -0.041672766 0.65869915
0.018020667 -0.041672766 0.65869915
0.018020667 -0.033788711 0.65869915
0.018020667 -0.015768051 0.6586991
0.018020667 0.032662511 0.65869915
0.019247944 -0.053214878 0.6594162
0.019247944 -0.050950408 0.6594162
0.019247944 -0.050950408 0.6594162
0.019247944 -0.046421468 0.6594162
0.019247944 -0.01019004 0.6594162
0.019247944 0.015851259 0.6594162
0.019247944 0.027173579 0.6594162
0.019247944 0.040760398 0.6594162
-0.023706954 0.050800622 0.65901428
0.021741752 -0.052637935 0.66087323
0.021741752 -0.052637935 0.66087323
0.021741752 -0.051493615 0.66087323
0.021741752 -0.035473347 0.66087329
0.020488236 -0.022764653 0.66014087
0.020488236 -0.015935242 0.66014087
0.021741752 0.0022886395 0.66087329
0.021741752 0.0045772493 0.66087329
0.021741752 0.009154439 0.66087323
0.021741752 0.009154439 0.66087323
0.021741752 0.013731658 0.66087329
0.021741752 0.020597458 0.66087323
0.020488236 0.022764742 0.66014087
0.021741752 0.035473436 0.66087329
0.021741752 0.044627815 0.66087323
0.020488236 0.047805905 0.66014087
0.0230087 -0.026459962 0.66161352
0.0230087 -0.026459962 0.66161352
0.0230087 -0.020707786 0.66161346
0.0230087 -0.017256498 0.66161346
0.0230087 -0.012654781 0.66161352
0.0230087 -0.0034512579 0.66161352
-0.055271808 0.0034545064 0.66174161
0.0230087 0.018406987 0.66161346
0.0230087 0.031061739 0.66161352
0.0230087 0.040265232 0.66161352
0.024289303 -0.013879567 0.66236174
0.024289303 0.0092530847 0.66236174
0.026892357 -0.045600086 0.66388261
0.025583779 0.03023541 0.663118
0.025583779 0.036049902 0.66311806
0.026892357 0.039753914 0.66388261
0.025583779 0.043027282 0.663118
0.026892357 0.04910779 0.66388261
0.026892357 0.052615464 0.66388261
0.028215267 -0.042322874 0.66465557
0.028215267 -0.017634541 0.66465557
0.028215267 2.9802322e-08 0.66465557
-0.045958199 0.021211535 0.66499102
0.029552745 -0.054377049 0.66543698
0.029552745 -0.050830692 0.66543698
0.029552745 -0.028370619 0.66543698
0.029552745 -0.023642153 0.66543698
0.029552745 0.0035463572 0.66543698
0.029552745 0.0035463572 0.66543698
0.029552745 0.0059105456 0.66543698
0.029552745 0.0082747936 0.66543698
0.029552745 0.02600646 0.66543698
0.029552745 0.031917006 0.66543698
0.030905036 -0.039225608 0.6662271
0.030905036 -0.032093674 0.6662271
0.030905036 -0.023773074 0.6662271
0.030905036 0.020207167 0.6662271
0.030905036 0.036848336 0.66622704
0.030905036 0.040414304 0.66622704
0.030905036 0.047546238 0.6662271
0.030905036 0.057055473 0.6662271
0.032272387 -0.051396757 0.66702598
0.032272387 -0.045420378 0.66702604
0.032272387 -0.040639281 0.66702598
0.033655047 -0.031251132 0.66783381
0.032272387 -0.016733825 0.66702598
0.033655047 0.024039328 0.66783381
-0.025163136 0.056317538 0.66738462
0.035053279 -0.058019221 0.66865081
0.035053279 -0.035053253 0.66865081
0.035053279 -0.032635778 0.66865075
0.035053279 -0.024174631 0.66865075
-0.050628144 0.016876042 0.66825223
0.035053279 0.025383443 0.66865081
0.035053279 0.03384456 0.66865075
-0.03025599 0.049619824 0.66883254
-0.03025599 0.049619824 0.66883254
0.035053279 0.049558103 0.66865081
0.036467351 -0.047407568 0.66947699
0.036467351 -0.027958274 0.66947699
0.036467351 -0.007293433 0.66947699
0.036467351 0.013371378 0.66947699
0.036467351 0.013371378 0.66947699
0.036467351 0.018233687 0.66947699
0.036467351 0.040114105 0.66947699
0.036467351 0.042545259 0.66947699
0.036467351 0.044976413 0.66947699
0.037897523 -0.055012524 0.67031258
0.037897523 -0.055012524 0.67031258
0.037897523 -0.034229964 0.67031258
0.037897523 -0.013447493 0.67031258
0.037897523 -0.0048899651 0.67031258
0.037897523 2.9802322e-08 0.67031258
0.037897523 0.022005051 0.67031258
0.037897523 0.023227543 0.67031258
0.037897523 0.041565061 0.67031258
0.037897523 0.05134505 0.67031252
0.039344076 -0.047950566 0.67115778
0.039344076 -0.041803032 0.67115778
0.039344076 -0.02581951 0.67115772
0.039344076 -0.017213017 0.67115778
0.039344076 -0.0098359883 0.67115778
0.039344076 0.0086065233 0.67115778
0.039344076 0.022131085 0.67115772
0.039344076 0.028278559 0.67115778
-0.038089242 0.039317966 0.67105913
0.042287473 -0.060943693 0.67287749
0.042287473 -0.04477492 0.67287749
0.042287473 -0.038556218 0.67287755
0.040807296 -0.032151192 0.67201269
0.040807296 -0.032151192 0.67201269
0.042287473 -0.023631185 0.67287749
0.040807296 0.0037097633 0.67201269
-0.052242238 0.018657923 0.67289126
0.042287473 0.024874985 0.67287755
0.042287473 0.036068738 0.67287749
0.040807296 0.038334191 0.67201269
0.043784894 -0.055043846 0.67375243
0.043784894 -0.055043846 0.67375243
0.043784894 -0.053792834 0.67375243
0.043784894 -0.041282862 0.67375237
0.043784894 -0.025019914 0.67375243
0.043784894 0.012510002 0.67375243
0.043784894 0.027521938 0.67375243
-0.037353829 0.042334348 0.67304397
0.045299876 -0.023908228 0.67463756
-0.057812307 0.011311114 0.67445159
0.045299876 0.031458259 0.67463756
0.045299876 0.037749916 0.67463756
0.046832725 -0.016454726 0.67553312
0.046832725 0.016454786 0.67553318
0.046832725 0.035441041 0.67553318
0.048383754 -0.053476721 0.67643934
0.048383754 -0.022918582 0.6764394
0.048383754 0.0089128315 0.67643934
0.048383754 0.040744215 0.6764394
-0.033088524 0.052178055 0.67636442
0.049953289 -0.03714475 0.67735648
0.049953289 -0.034583002 0.67735636
0.049953289 -0.014089346 0.67735642
0.049953289 -0.0076850653 0.67735636
0.049953289 -0.0064042211 0.67735642
0.049953289 0.025617093 0.67735642
0.051541671 -0.029636443 0.67828447
0.051541671 -0.02834788 0.67828447
0.051541671 -0.0012885332 0.67828453
0.051541671 0.0025770962 0.67828441
0.051541671 0.016751051 0.67828447
0.051541671 0.029636502 0.67828447
0.051541671 0.029636502 0.67828447
0.051541671 0.047676057 0.67828447
0.053149235 -0.0583345 0.67922372
0.053149235 -0.049260229 0.67922372
0.053149235 -0.047963917 0.67922366
0.053149235 -0.040185988 0.67922372
0.053149235 -0.035000712 0.67922372
0.053149235 -0.019444823 0.67922372
0.053149235 -0.014259517 0.67922372
0.053149235 -0.011666864 0.67922366
0.053149235 -0.0025925934 0.67922366
0.053149235 0.0090742707 0.67922372
0.053149235 0.0090742707 0.67922372
0.053149235 0.022037536 0.67922366
0.053149235 0.022037536 0.67922366
0.054776333 -0.040430099 0.68017435
0.054776333 -0.022171348 0.68017435
0.056423321 -0 0.68113667
0.056423321 0.013121724 0.68113667
0.056423321 0.040677309 0.68113661
0.058090564 -0.058090538 0.68211079
0.058090564 -0.056770295 0.68211079
0.058090564 -0.056770295 0.68211079
0.058090564 -0.019803584 0.68211079
0.058090564 -0.013202399 0.68211079
0.058090564 -0.0079214275 0.68211079
0.059778441 -0.058450013 0.68309695
0.059778441 -0.023911357 0.683097
0.059778441 -0.021254539 0.683097
0.059778441 0.0066420734 0.68309695
0.059778441 0.014612556 0.68309695
0.059778441 0.017269373 0.68309695
0.059778441 0.026568234 0.68309695
0.059778441 0.026568234 0.68309695
0.059778441 0.031881839 0.68309695
0.059778441 0.037195504 0.68309695
0.061487343 -0.05881393 0.68409538
0.061487343 -0.044110477 0.6840955
0.061487343 -0.03475371 0.68409538
0.061487343 -0.03475371 0.68409538
0.061487343 -0.026733577 0.68409538
0.061487343 0.020050287 0.68409538
0.063217655 -0.064562678 0.6851064
0.063217655 -0.053802252 0.6851064
0.063217655 -0.051112115 0.6851064
0.063217655 -0.049767047 0.6851064
0.063217655 -0.039006621 0.6851064
0.063217655 -0.018830776 0.6851064
0.063217655 -0.0026900768 0.6851064
0.063217655 0.0067253411 0.6851064
0.063217655 0.043041825 0.6851064
0.063217655 0.043041825 0.6851064
0.063217655 0.043041825 0.6851064
0.064969793 -0.063616216 0.68613011
0.064969793 -0.039252549 0.68613005
0.064969793 -0.0054140985 0.68613011
0.064969793 0.017595977 0.68613011
0.064969793 0.027070761 0.68613017
0.064969793 0.036545545 0.68613011
0.064969793 0.037899047 0.68613017
0.066744156 0.012259126 0.68716681
-0.061335586 0.017719179 0.68727392
-0.043578852 0.050607741 0.69243509
-0.043578852 0.050607741 0.69243509
-0.032751117 0.069774151 0.6946311
-0.06594307 0.021981031 0.69963336
-0.06594307 0.021981031 0.69963336
-0.039091311 -0.01706744 0.62533087
-0.039091311 -0.01706744 0.62533087
-0.040744655 -0.0089918673 0.6245023
-0.035184257 -0.0091220662 0.62761337
-0.035184257 -0.0091220662 0.62761337
-0.032978326 -0.015170418 0.6289022
-0.03185568 0.0030970871 0.62955821
-0.03185568 0.0030970871 0.62955821
-0.028983179 0.0067409016 0.63123649
-0.032030653 0.01067692 0.63014483
-0.043184076 -0.0036752224 0.63365394
-0.021504587 -0.017297134 0.63560605
-0.022997607 0.010746032 0.63473368
-0.020659585 -0.024885386 0.6360997
-0.019160289 -0.0014194697 0.63697577
-0.020659585 0.0051649064 0.6360997
-0.020659585 0.019251019 0.6360997
-0.020659585 0.023007289 0.6360997
-0.01498059 -0.024647258 0.63941777
-0.016762771 0.011016265 0.63837647
-0.01498059 0.011115476 0.63941777
-0.01498059 0.013048589 0.63941783
-0.01498059 0.039145686 0.63941777
-0.013166022 -0.030723289 0.64047801
-0.011318171 -0.02313073 0.64155769
-0.011318171 -0.0093507096 0.64155763
-0.013166022 0.019019201 0.64047801
-0.030424271 0.023554295 0.64121258
-0.013166022 0.026821971 0.64047801
-0.013165987 0.047304027 0.64047766
-0.0089583043 0.0091258092 0.64293647
-0.0089582913 0.031031381 0.64293623
-0.004574962 -0.0066099837 0.64549756
-0.021247748 0.0414837 0.64487845
-0.0045749499 0.050846204 0.6454972
-0.0025654042 -0.036958225 0.64667165
-0.0010340619 -0.010857627 0.64756608
-0.0025653974 0.008726567 0.6466713
-0.039928246 0.013309419 0.64632744
-0.0025653974 0.023099653 0.6466713
-0.02984162 0.029841661 0.64695764
-0.0025653974 0.041064799 0.6466713
0.00052206189 -0.032810278 0.64847559
0.0020984481 -0.02885364 0.6493963
0.0020984481 -0.015213728 0.6493963
0.00052206044 0.0088535622 0.64847523
0.00052206044 0.039059795 0.64847517
0.0046002804 -0.033254527 0.65085804
0.0031631324 -0.020560354 0.65001833
0.0064208745 -0.0069559216 0.65192175
0.0064208745 -0.0026753545 0.65192175
0.0031631324 0.013179734 0.65001833
0.0047812569 0.016995355 0.65096372
-0.03065001 0.031706929 0.65032244
0.0031631324 0.04481107 0.65001827
0.0031631324 0.052718908 0.65001833
0.00752855 -0.044633538 0.65256894
0.0092124585 -0.030884221 0.65355277
0.00752855 0.013443843 0.65256894
0.010919186 -0.028935805 0.65454996
0.010919186 0.0027298331 0.65454996
0.012655102 0.014854349 0.65556419
0.012655102 0.017055005 0.65556419
0.010919186 0.021292433 0.65454996
0.010919186 0.028935879 0.65454996
0.012655102 0.03906142 0.65556419
0.010919186 0.04531467 0.65454996
0.012460905 0.05313614 0.65545076
0.015009625 -0.025013626 0.65693986
0.015207864 -0.020769309 0.65705574
-0.045773055 0.014513433 0.657507
0.0168062 0.045376763 0.6579895
0.015009625 0.052806608 0.65693986
0.0168062 0.053219676 0.65798956
0.018634304 -0.035007089 0.65905768
0.018634304 -0.010727949 0.65905768
0.018634304 -0.010727949 0.65905768
0.018634304 0.023149885 0.65905762
-0.026892927 0.04482159 0.65800464
0.021114994 0.0028531998 0.66050708
0.021114994 0.0051357448 0.66050708
0.020906076 0.0072209835 0.66038501
0.020906076 0.0072209835 0.66038501
-0.050187957 0.010265738 0.66043061
0.0230087 0.016681314 0.66161352
0.021323916 0.040740661 0.66062915
0.021323916 0.040740661 0.66062915
0.026892357 -0.042676985 0.66388261
0.026892357 -0.019292325 0.66388261
0.026892357 -0.0052615106 0.66388261
-0.049110796 0.015200973 0.66389126
0.024936542 0.052769385 0.66273987
0.028884005 -0.033008412 0.66504622
0.028884005 -0.033008412 0.66504622
0.028884007 0.00058945268 0.66504627
-0.037635691 0.034107357 0.66471338
0.028884007 0.048923261 0.66504627
0.032733273 -0.053088598 0.66729534
0.030905036 -0.049329177 0.6662271
0.030905036 -0.043385923 0.6662271
0.032733276 -0.02315098 0.66729534
0.032963715 -0.014982723 0.66742992
0.030905036 -0.011292219 0.6662271
0.030905036 -0.0089149028 0.6662271
0.032963715 0.0029965863 0.66742992
0.033194162 0.012796462 0.66756457
0.030905036 0.055272505 0.6662271
0.035053279 -0.056810439 0.66865075
0.036467351 -0.051054269 0.66947699
0.035053279 -0.0048348904 0.66865075
0.035053279 -0.0030218214 0.66865075
0.036467351 0.0048623383 0.66947693
0.035053279 0.045327544 0.66865075
0.036467351 0.052877694 0.66947699
0.036467351 0.055308819 0.66947699
0.037897523 -0.056846246 0.67031258
0.037897523 -0.037286252 0.67031258
0.037897523 -0.037286252 0.67031258
0.039344076 -0.027049035 0.67115778
0.037897523 -0.017115027 0.67031264
0.037897523 0.015281305 0.67031258
0.037897523 0.044621304 0.67031252
0.043036185 -0.053013332 0.67331499
0.043036185 -0.044905394 0.67331493
0.042786613 -0.029076368 0.67316914
0.043036185 0.026818544 0.67331493
0.042786613 0.049015056 0.67316914
0.046832725 -0.051262841 0.67553318
0.046832725 -0.018986195 0.67553318
0.046832725 -0.017087609 0.67553318
0.045299876 0.020762458 0.67463756
0.049168523 -0.042781331 0.67689788
0.04916852 -0.0012770146 0.67689788
0.04916852 0.040865779 0.67689788
0.04916852 0.04916665 0.67689794
-0.029519005 0.059038043 0.67766798
0.051541671 -0.039300501 0.67828441
0.051541671 -0.028992161 0.67828447
0.051541671 -0.0070869476 0.67828447
-0.056834102 0.01679194 0.67866379
0.054776333 -0.059340984 0.68017435
0.056423321 -0.020994693 0.68113667
0.054776333 -0.013041973 0.68017435
0.054776333 -0.0013042092 0.68017441
0.056423321 0.045269892 0.68113661
0.058934502 -0.058932431 0.68260384
0.058934502 -0.011256739 0.68260384
-0.055800222 0.022585809 0.68311715
0.063217655 -0.061200052 0.6851064
0.063217655 -0.04707697 0.6851064
0.063217655 -0.036989033 0.6851064
0.063217655 -0.034971446 0.6851064
0.063217655 -0.032953858 0.6851064
0.063217655 -0.014795631 0.68510646
0.063217655 -0.0067252517 0.6851064
0.061487343 -0.0026733279 0.68409538
0.061487343 0.026733637 0.68409544
0.066744156 -0.053122848 0.68716681
0.066744156 -0.049036503 0.68716681
0.064969793 0.010828316 0.68613011
-0.058281023 0.021685988 0.68635166
0.064969793 0.035191983 0.68613017
-0.067165777 0.012593597 0.6916526
-0.054133411 0.031924844 0.6902945
-0.054133411 0.031924844 0.6902945
-0.053544153 0.035226464 0.69283193
-0.056130346 0.034541786 0.69647527
-0.07300517 0.010220766 0.6989938
-0.045207743 0.053957671 0.69877779
-0.067686632 0.03148222 0.71275526
-0.060050406 0.044247687 0.71349961
-0.07495904 0.022328228 0.71526194
-0.071299009 0.02693519 0.71400046
-0.071299009 0.02693519 0.71400046
-0.062585086 0.047762305 0.7215513
-0.04649476 0.074723721 0.72318709
-0.081415996 0.031858474 0.73639113
-0.059627857 0.07046935 0.74085635
-0.059627857 0.07046935 0.74085635
-0.067869507 0.060532272 0.74416471
-0.030518785 -0.013871295 0.63033926
-0.037535992 0.0021136478 0.63029349
-0.022233944 -0.018163286 0.63517988
-0.042177852 0.0023979545 0.63845289
-0.01796153 0.0022613313 0.63767612
-0.031020541 0.019561306 0.63794684
-0.024595339 0.030872881 0.63918376
-0.017970568 0.033966172 0.63767087
-0.013166022 -0.029747933 0.64047801
-0.013166022 -0.010241076 0.64047801
-0.013166022 -0.0063397028 0.64047801
-0.013166022 0.0063397549 0.64047801
-0.013166013 0.033649322 0.6404779
-0.010138212 0.041908111 0.64224678
-0.0094263609 0.049230948 0.6426627
-0.046768576 0.0016938548 0.64546758
0.0019278806 -0.029879352 0.6492967
0.0019568847 -0.025804801 0.64931363
0.0056010657 -0.01012866 0.65144277
-0.051251292 -0.0020918548 0.64900041
0.0019278803 0.0099598076 0.64929664
0.0019278803 0.0099598076 0.64929664
-0.041771382 0.013693532 0.64985764
0.0056010657 0.026121372 0.65144277
-0.025432082 0.040267467 0.65065718
0.00752855 -0.033878453 0.65256894
0.010065823 0.001631707 0.65405136
0.012558004 0.042251885 0.65550745
0.015009625 -0.050027259 0.65693986
0.017720252 -0.026011299 0.65852362
0.017720252 0.017996307 0.65852362
0.015108745 0.021779802 0.6569978
0.025968386 -0.046055958 0.66334277
0.025914449 -0.009898223 0.66331124
0.025914449 -0.0020378418 0.66331124
0.025860513 0.034150198 0.66327977
-0.033361103 0.037962675 0.66160721
0.025914449 0.05400309 0.66331124
0.029838793 -0.018146042 0.66560411
0.029894521 0.0017756615 0.66563666
0.032848492 0.034044072 0.66736263
0.037902981 -0.050020546 0.67031574
0.037902981 -0.014059037 0.67031586
0.035053279 0.046234086 0.66865075
0.046321776 -0.061268862 0.67523468
-0.050594635 0.021853581 0.67352426
0.041921742 0.026080228 0.67266381
-0.045846526 0.030156955 0.67437863
0.046066299 0.029973451 0.67508543
0.046066299 0.04196284 0.67508543
0.050355099 -0.022128262 0.67759126
0.053149235 -0.0061574951 0.67922366
0.050289702 0.029923599 0.67755294
-0.042085852 0.038259894 0.67668951
0.053149235 0.037917465 0.67922378
0.054776333 -0.038147777 0.68017435
0.057678912 0.001977386 0.68187028
-0.061335586 0.017719179 0.68727392
0.065856978 0.038018227 0.68664849
-0.035397798 0.05854252 0.68708575
-0.069293827 0.017692059 0.70071191
-0.046963133 0.057567745 0.70561314
-0.057126526 0.04477486 0.70911622
-0.057126526 0.04477486 0.70911622
-0.049596336 0.057345778 0.70983148
-0.048860349 0.061469495 0.71300066
-0.053876866 0.065662473 0.72597849
-0.077601872 0.032765269 0.73090756
-0.064821899 0.056062192 0.73422199
-0.068356216 0.055764288 0.73988378
