# .PCD v0.7 - Point Cloud Data file format
VERSION 0.7
FIELDS x y z
SIZE 4 4 4
TYPE F F F
COUNT 1 1 1
WIDTH 1340
HEIGHT 1
VIEWPOINT 0 0 0 1 0 0 0
POINTS 1340
DATA ascii
-0.00487768 -0.036582589 0.66994071
-0.0048902221 -0.037899196 0.6703192
-0.004902814 -0.039222479 0.67069918
-0.0049154861 -0.040552735 0.67108166
-0.0049282238 -0.041889876 0.67146599
-0.0049410285 -0.043233961 0.67185247
-0.0049538994 -0.044585079 0.67224085
-0.0049668206 -0.045943081 0.67263085
-0.004979827 -0.047308326 0.67302328
-0.0049929009 -0.048680753 0.67341781
-0.0050060437 -0.050060421 0.67381442
-0.0050192564 -0.051447362 0.67421317
-0.0050325217 -0.052841455 0.67461348
-0.005045874 -0.054243118 0.6750164
-0.0050592977 -0.055652261 0.6754216
-0.005072793 -0.057068914 0.67582875
-0.0050863605 -0.058493137 0.67623818
-0.0050999834 -0.059924752 0.67664933
-0.0051136971 -0.061364353 0.67706323
-0.0051274844 -0.062811643 0.67747921
-0.0030320578 0.050534308 0.64474428
-0.0030385167 0.049629122 0.64500415
-0.0030449957 0.048719943 0.64526486
-0.0030515103 0.047807008 0.64552701
-0.0030580526 0.046890169 0.64579022
-0.0030646233 0.045969367 0.64605463
-0.0030712138 0.045044512 0.64631981
-0.0030778411 0.044115752 0.64658642
-0.0030844971 0.043182969 0.64685428
-0.0030911819 0.042246163 0.64712328
-0.003097896 0.041305274 0.64739341
-0.003104639 0.040360332 0.64766473
-0.003111403 0.039411128 0.64793688
-0.0031182051 0.03845787 0.64821059
-0.0031250368 0.037500471 0.64848548
-0.0031318991 0.036538839 0.64876157
-0.0031387911 0.035573006 0.64903891
-0.003145705 0.034602791 0.64931709
-0.003152658 0.033628404 0.64959687
-0.003159642 0.032649666 0.64987785
-0.0031666567 0.031666577 0.65016019
-0.0031737029 0.030679137 0.65044367
-0.0031807716 0.029687196 0.65072811
-0.0031878806 0.028690964 0.65101409
-0.0031950218 0.027690232 0.65130144
-0.0032021946 0.026684999 0.65159005
-0.0032094 0.025675237 0.65188003
-0.0032166287 0.024660856 0.65217084
-0.0032238995 0.023641974 0.65246338
-0.0032312027 0.022618413 0.65275729
-0.0032385392 0.021590292 0.65305245
-0.0032459095 0.020557433 0.65334904
-0.0032533039 0.019519866 0.65364659
-0.0032607412 0.018477559 0.6539458
-0.0032682125 0.017430514 0.65424645
-0.0032757185 0.016378611 0.65454841
-0.003283259 0.015321881 0.65485185
-0.0032908246 0.014260262 0.65515625
-0.0032984349 0.013193786 0.6554625
-0.0033060801 0.012122303 0.65577012
-0.0033137612 0.011045903 0.65607917
-0.0033214779 0.0099644661 0.65638965
-0.0033292212 0.008877933 0.65670121
-0.00333701 0.0077863634 0.65701461
-0.0033448357 0.0066896975 0.65732944
-0.0033526979 0.005587846 0.65764588
-0.0033605974 0.0044808388 0.65796369
-0.0033685241 0.0033685565 0.65828264
-0.0033764984 0.002251029 0.65860355
-0.0033845105 0.0011281967 0.65892589
-0.0033925604 2.9802322e-08 0.65924984
-0.0034006492 -0.0011335015 0.65957528
-0.0034087661 -0.0022724867 0.65990186
-0.0034169324 -0.0034169257 0.66023046
-0.0034251376 -0.0045668185 0.66056061
-0.0034333826 -0.0057222843 0.66089237
-0.003441667 -0.0068832934 0.66122568
-0.0034499813 -0.0080499351 0.66156018
-0.0034583465 -0.0092222393 0.66189682
-0.0034667521 -0.010400206 0.66223502
-0.0034751988 -0.011583984 0.66257495
-0.0034836866 -0.012773514 0.66291642
-0.0034922054 -0.013968825 0.66325921
-0.0035007766 -0.015170008 0.66360408
-0.0035093904 -0.016377121 0.66395068
-0.0035180461 -0.017590195 0.66429889
-0.0035267451 -0.018809289 0.66464895
-0.0035354758 -0.020034343 0.66500026
-0.0035442612 -0.021265566 0.66535378
-0.0035530904 -0.022502899 0.66570902
-0.0035619633 -0.023746401 0.66606605
-0.003570881 -0.024996161 0.66642487
-0.0035798321 -0.026252091 0.66678506
-0.0035888397 -0.027514368 0.66714746
-0.0035978921 -0.028783143 0.6675117
-0.0036069909 -0.030058235 0.66787779
-0.0036161358 -0.031339824 0.66824579
-0.0036253154 -0.032627791 0.6686151
-0.0036345536 -0.033922493 0.66898686
-0.0036438387 -0.035223752 0.66936046
-0.0036531715 -0.036531687 0.66973603
-0.0036625522 -0.037846327 0.67011338
-0.0036719693 -0.039167613 0.67049229
-0.0036814471 -0.040495872 0.6708737
-0.0036909739 -0.041831017 0.67125702
-0.0037005497 -0.043173045 0.67164236
-0.0037101759 -0.044522107 0.67202967
-0.0037198397 -0.045878023 0.67241848
-0.0037295667 -0.047241151 0.6728099
-0.0037393442 -0.048611462 0.67320335
-0.0037491734 -0.049988955 0.67359877
-0.0037590542 -0.05137369 0.67399633
-0.0037689749 -0.052765608 0.67439556
-0.0037789606 -0.054165095 0.6747973
-0.0037889993 -0.055571973 0.6752013
-0.0037990916 -0.056986332 0.67560732
-0.0038092376 -0.05840829 0.67601562
-0.0038194254 -0.05983761 0.67642546
-0.0038296806 -0.061274856 0.67683816
-0.0038399908 -0.062719822 0.67725301
-0.002019041 0.050476044 0.64460361
-0.0020233372 0.049571812 0.64486289
-0.0020276464 0.048663557 0.645123
-0.0020319792 0.047751516 0.64538449
-0.0020363308 0.046835661 0.64564711
-0.002040701 0.045915812 0.64591092
-0.0020450898 0.044992 0.6461758
-0.0020494924 0.044064105 0.64644152
-0.0020539192 0.043132335 0.64670873
-0.0020583654 0.042196512 0.64697707
-0.0020628308 0.041256636 0.64724654
-0.0020673156 0.040312678 0.6475172
-0.0020718144 0.039364517 0.64778876
-0.0020763383 0.038412303 0.64806181
-0.0020808822 0.037455887 0.64833605
-0.0020854457 0.036495298 0.64861149
-0.0020900297 0.035530537 0.64888811
-0.0020946278 0.034561366 0.64916569
-0.0020992521 0.033588082 0.64944476
-0.0021038968 0.032610416 0.64972508
-0.0021085623 0.03162843 0.65000671
-0.0021132482 0.030642152 0.65028954
-0.0021179493 0.029651314 0.65057325
-0.0021226772 0.028656155 0.65085864
-0.0021274264 0.027656555 0.65114522
-0.0021321969 0.026652455 0.65143317
-0.0021369886 0.025643915 0.65172237
-0.0021417963 0.024630696 0.65201253
-0.002146631 0.023612946 0.65230429
-0.0021514883 0.022590667 0.65259749
-0.0021563673 0.021563709 0.65289199
-0.0021612686 0.020532072 0.65318781
-0.002166186 0.019495696 0.65348458
-0.002171132 0.018454671 0.65378308
-0.0021761006 0.017408818 0.65408301
-0.002181092 0.016358227 0.65438426
-0.0021861065 0.015302807 0.65468693
-0.0021911378 0.014242411 0.65499055
-0.0021961983 0.013177216 0.65529597
-0.0022012824 0.012107074 0.65560281
-0.0022063903 0.011031985 0.65591115
-0.0022115221 0.0099518597 0.65622085
-0.0022166709 0.0088667274 0.65653157
-0.0022218504 0.0077764988 0.65684426
-0.0022270542 0.0066812038 0.65715832
-0.0022322824 0.0055807531 0.65747386
-0.0022375353 0.0044750869 0.6577909
-0.0022428064 0.0033642054 0.65810901
-0.0022481089 0.0022481382 0.65842909
-0.0022534365 0.0011267364 0.65875065
-0.0022587895 2.9802322e-08 0.65907371
-0.0022641679 -0.001132071 0.65939832
-0.0022695651 -0.0022695363 0.65972412
-0.002274995 -0.0034124851 0.66005182
-0.0022804511 -0.0045608878 0.66038108
-0.0022859334 -0.0057148337 0.660712
-0.0022914421 -0.0068742931 0.66104448
-0.0022969702 -0.0080393553 0.66137809
-0.0023025325 -0.0092101097 0.66171384
-0.0023081214 -0.010386527 0.66205114
-0.0023137378 -0.011568666 0.66239017
-0.0023193813 -0.012756586 0.66273081
-0.0023250454 -0.013950258 0.66307259
-0.0023307444 -0.015149802 0.66341656
-0.0023364716 -0.016355306 0.66376221
-0.0023422267 -0.017566681 0.66410959
-0.0023480104 -0.018784076 0.66445869
-0.0023538156 -0.020007372 0.66480905
-0.0023596566 -0.021236867 0.66516155
-0.0023655265 -0.022472471 0.6655159
-0.0023714262 -0.023714244 0.66587192
-0.002377355 -0.024962217 0.66622984
-0.0023833062 -0.026216358 0.66658902
-0.0023892948 -0.027476877 0.6669504
-0.0023953135 -0.028743714 0.66731364
-0.0024013626 -0.030017048 0.66767877
-0.0024074425 -0.03129673 0.6680457
-0.0024135455 -0.032582849 0.66841406
-0.0024196873 -0.033875614 0.66878474
-0.0024258601 -0.035174966 0.66915739
-0.0024320649 -0.036480933 0.66953182
-0.0024383012 -0.037793666 0.66990823
-0.002444562 -0.039112955 0.67028606
-0.0024508627 -0.040439188 0.67066634
-0.0024571961 -0.041772306 0.67104858
-0.0024635619 -0.043112338 0.67143285
-0.0024699613 -0.044459313 0.67181909
-0.0024763858 -0.045813084 0.67220682
-0.002482852 -0.047174186 0.67259705
-0.0024893519 -0.04854238 0.67298937
-0.0024958861 -0.049917728 0.67338371
-0.0025024544 -0.051300287 0.6737802
-0.0025090494 -0.052690029 0.67417824
-0.0025156874 -0.054087251 0.67457891
-0.0025223608 -0.055491894 0.67498165
-0.0025290693 -0.056904018 0.67538649
-0.002535814 -0.058323711 0.67579359
-0.0025425858 -0.059750736 0.6762023
-0.0025494029 -0.061185658 0.67661375
-0.0025562565 -0.062628269 0.67702746
-0.0010083576 0.0504179 0.64446324
-0.0010105008 0.049514532 0.64472198
-0.0010126504 0.04860723 0.64498144
-0.0010148119 0.047696203 0.64524233
-0.0010169826 0.046781212 0.64550436
-0.0010191627 0.045862377 0.64576751
-0.0010213493 0.044939399 0.6460315
-0.0010235481 0.044012576 0.64629692
-0.0010257564 0.04308179 0.64656347
-0.0010279742 0.042146951 0.64683115
-0.0010302017 0.041208088 0.64710003
-0.0010324388 0.040265143 0.6473701
-0.0010346828 0.039317966 0.647641
-0.0010369394 0.038366795 0.6479134
-0.0010392061 0.037411451 0.64818698
-0.0010414824 0.036451906 0.64846176
-0.0010437688 0.035488158 0.64873773
-0.0010460626 0.03452009 0.64901459
-0.0010483691 0.033547848 0.64929307
-0.0010506859 0.032571316 0.64957273
-0.001053013 0.031590402 0.64985365
-0.0010553475 0.030605078 0.65013546
-0.0010576952 0.029615492 0.65041882
-0.0010600536 0.028621465 0.65070349
-0.0010624223 0.027622998 0.65098941
-0.0010648018 0.02662006 0.65127671
-0.0010671918 0.025612622 0.65156519
-0.0010695898 0.024600595 0.65185457
-0.0010720014 0.023584068 0.65214568
-0.0010744239 0.022562951 0.65243816
-0.0010768574 0.021537185 0.6527319
-0.001079302 0.020506769 0.653027
-0.0010817547 0.019471586 0.65332305
-0.0010842215 0.018431813 0.65362084
-0.0010866998 0.017387211 0.65391994
-0.0010891893 0.016337872 0.65422046
-0.001091687 0.015283674 0.65452194
-0.0010941996 0.014224589 0.65482527
-0.0010967236 0.013160735 0.65512991
-0.0010992594 0.012091875 0.65543604
-0.0011018068 0.011018097 0.6557436
-0.001104366 0.0099393129 0.65605247
-0.001106934 0.0088554919 0.65636247
-0.0011095173 0.0077666342 0.65667433
-0.0011121125 0.0066727102 0.65698755
-0.00111472 0.0055736005 0.65730226
-0.0011173397 0.0044693649 0.65761852
-0.0011199685 0.0033599138 0.65793586
-0.001122613 0.0022452474 0.6582551
-0.0011252699 0.0011253059 0.65857583
-0.0011279396 2.9802322e-08 0.65889806
-0.0011306219 -0.0011305809 0.65922183
-0.0011333135 -0.0022665858 0.65954673
-0.0011360216 -0.0034080148 0.6598736
-0.0011387424 -0.004554987 0.66020209
-0.0011414764 -0.0057073534 0.66053212
-0.0011442236 -0.0068652928 0.6608637
-0.0011469804 -0.0080288351 0.66119647
-0.0011497543 -0.0091980398 0.66153133
-0.0011525414 -0.010372847 0.66186774
-0.0011553422 -0.011553407 0.66220587
-0.0011581565 -0.012739688 0.66254556
-0.001160981 -0.013931781 0.6628865
-0.0011638231 -0.015129685 0.66322958
-0.0011666788 -0.016333491 0.66357434
-0.001169549 -0.017543167 0.66392076
-0.001172433 -0.018758923 0.66426891
-0.0011753277 -0.01998055 0.66461831
-0.0011782404 -0.021208316 0.66496986
-0.0011811677 -0.022442162 0.66532326
-0.0011841094 -0.023682147 0.66567832
-0.0011870658 -0.024928361 0.66603523
-0.0011900333 -0.026180685 0.6663934
-0.0011930194 -0.027439415 0.66675389
-0.0011960206 -0.028704494 0.66711617
-0.001199037 -0.029975891 0.66748023
-0.0012020685 -0.031253755 0.66784626
-0.0012051115 -0.032538027 0.66821355
-0.0012081739 -0.033828855 0.66858315
-0.0012112519 -0.035126269 0.66895473
-0.0012143457 -0.036430329 0.66932815
-0.0012174553 -0.037741095 0.66970354
-0.0012205768 -0.039058417 0.67008036
-0.0012237184 -0.040382683 0.67045957
-0.0012268763 -0.041713744 0.67084074
-0.0012300503 -0.043051749 0.67122388
-0.0012332411 -0.044396669 0.67160904
-0.0012364442 -0.045748413 0.6719957
-0.0012396681 -0.047107339 0.67238486
-0.0012429089 -0.048473448 0.6727761
-0.0012461666 -0.049846649 0.67316937
-0.0012494415 -0.051227123 0.67356467
-0.0012527294 -0.052614599 0.67396152
-0.001256039 -0.054009646 0.67436099
-0.0012593662 -0.055412084 0.67476261
-0.0012627108 -0.056821972 0.67516643
-0.0012660733 -0.058239341 0.67557228
-0.0012694495 -0.0596641 0.67597985
-0.0012728482 -0.061096698 0.67639005
-0.0012762649 -0.062536985 0.67680252
0 0.050359905 0.64432323
0 0.049457341 0.64458102
0 0.048551112 0.64484018
0 0.047640979 0.64510053
0 0.046726912 0.6453619
0 0.045809031 0.64562446
0 0.044887036 0.64588779
0 0.043961197 0.64615262
0 0.043031394 0.64641857
0 0.042097539 0.64668566
0 0.04115966 0.64695388
0 0.040217608 0.64722294
0 0.039271563 0.64749354
0 0.038321376 0.64776528
0 0.037367076 0.64803827
0 0.036408573 0.64831233
0 0.03544578 0.64858735
0 0.034478873 0.64886391
0 0.033507705 0.64914173
0 0.032532275 0.64942068
0 0.031552464 0.64970088
0 0.030568242 0.64998209
0 0.029579759 0.65026474
0 0.028586835 0.65054876
0 0.02758953 0.65083396
0 0.026587725 0.65112054
0 0.02558139 0.65140796
0 0.024570554 0.65169704
0 0.023555219 0.65198743
0 0.022535294 0.65227914
0 0.02151072 0.65257215
0 0.020481408 0.65286624
0 0.019447565 0.65316188
0 0.018408954 0.65345895
0 0.017365664 0.65375733
0 0.016317576 0.65405709
0 0.01526463 0.65435791
0 0.014206886 0.65466034
0 0.013144255 0.65496433
0 0.012076706 0.65526962
0 0.011004239 0.65557641
0 0.0099267662 0.65588415
0 0.0088442862 0.65619373
0 0.0077567995 0.65650475
0 0.0066642463 0.6568172
0 0.0055665374 0.6571312
0 0.0044636726 0.65744627
0 0.0033556223 0.65776312
0 0.0022423565 0.65808153
0 0.0011238456 0.65840143
0 -0 0.65872288
0 -0.0011291206 0.65904582
0 -0.0022636652 0.65936989
0 -0.003403604 0.65969592
0 -0.0045490265 0.66002351
0 -0.0056999326 0.66035271
0 -0.0068563521 0.66068298
0 -0.0080183148 0.66101533
0 -0.00918594 0.6613493
0 -0.010359198 0.66168481
0 -0.011538148 0.66202199
0 -0.01272282 0.66236043
0 -0.013913274 0.66270089
0 -0.015109569 0.66304302
0 -0.016311705 0.66338688
0 -0.017519802 0.66373241
0 -0.018733829 0.66407961
0 -0.019953728 0.66442806
0 -0.021179795 0.66477877
0 -0.022411913 0.66513109
0 -0.023650199 0.66548526
0 -0.024894506 0.66584074
0 -0.02614516 0.66619843
0 -0.027402073 0.66655791
0 -0.028665304 0.66691923
0 -0.029934913 0.66728234
0 -0.03121081 0.66764683
0 -0.032493263 0.66801357
0 -0.033782244 0.66838223
0 -0.035077751 0.66875267
0 -0.036379874 0.66912514
0 -0.037688673 0.66949946
0 -0.039004058 0.6698752
0 -0.040326327 0.6702534
0 -0.041655391 0.67063355
0 -0.04299134 0.67101562
0 -0.044334054 0.67139918
0 -0.04568392 0.67178524
0 -0.047040761 0.67217326
0 -0.048404694 0.67256343
0 -0.049775809 0.67295551
0 -0.051154077 0.67334968
0 -0.052539468 0.67374551
0 -0.053932279 0.67414385
0 -0.055332482 0.67454427
0 -0.056740105 0.67494678
0 -0.058155239 0.67535162
0 -0.059577674 0.67575794
0 -0.061008006 0.67616701
0 -0.062445939 0.67657828
0.0010060401 0.050302029 0.64418346
0.0010081708 0.049400389 0.64444071
0.0010103132 0.048495054 0.64469934
0.0010124648 0.047585875 0.64495897
0.0010146253 0.046672821 0.6452198
0.0010167953 0.045755833 0.64548171
0.0010189718 0.044834793 0.6457445
0.0010211604 0.043909878 0.64600867
0.0010233583 0.042981088 0.64627397
0.0010255658 0.042048216 0.64654046
0.0010277828 0.04111132 0.64680809
0.0010300067 0.040170312 0.64707649
0.0010322429 0.03922525 0.64734644
0.0010344889 0.038276106 0.64761758
0.0010367447 0.037322849 0.64788985
0.0010390104 0.03636536 0.64816338
0.0010412831 0.035403639 0.64843774
0.0010435687 0.034437776 0.64871359
0.0010458643 0.03346768 0.64899075
0.00104817 0.032493323 0.64926904
0.001050486 0.031514615 0.64954859
0.0010528092 0.030531496 0.64982903
0.0010551458 0.029544115 0.65011102
0.0010574927 0.028552324 0.65039438
0.00105985 0.027556121 0.65067893
0.0010622179 0.026555479 0.65096474
0.0010645934 0.025550246 0.65125149
0.0010669825 0.024540633 0.65153992
0.0010693824 0.02352646 0.6518296
0.0010717931 0.022507668 0.65212059
0.0010742148 0.021484315 0.65241289
0.0010766443 0.020456225 0.65270615
0.001079088 0.019423604 0.65300119
0.0010815427 0.018386245 0.65329742
0.0010840086 0.017344177 0.65359509
0.0010864858 0.016297311 0.65389413
0.0010889713 0.015245616 0.65419418
0.0010914712 0.014189154 0.65449589
0.0010939826 0.013127834 0.6547991
0.0010965057 0.012061566 0.65510362
0.0010990404 0.010990411 0.65540957
0.0011015836 0.009914279 0.6557166
0.0011041419 0.0088331699 0.65602541
0.001106712 0.0077470243 0.65633571
0.0011092942 0.0066558123 0.65664738
0.0011118886 0.0055594742 0.65696049
0.0011144917 0.0044580102 0.65727472
0.0011171104 0.0033513606 0.65759087
0.0011197412 0.0022394955 0.65790844
0.0011223847 0.0011223853 0.6582275
0.0011250407 2.9802322e-08 0.65854812
0.0011277058 -0.0011277199 0.6588698
0.001130387 -0.0022607744 0.65919346
0.0011330809 -0.0033992231 0.65951872
0.0011357878 -0.0045430958 0.65984541
0.0011385075 -0.0056925416 0.66017371
0.001141237 -0.0068473816 0.66050321
0.001143983 -0.0080078542 0.66083467
0.0011467423 -0.0091739595 0.66116774
0.0011495148 -0.010345608 0.66150242
0.0011523007 -0.011523008 0.66183871
0.0011550968 -0.012706071 0.66217625
0.0011579101 -0.013894886 0.66251576
0.001160737 -0.015089571 0.66285706
0.0011635777 -0.016290039 0.66319996
0.0011664324 -0.017496467 0.66354454
0.0011692975 -0.018708766 0.66389042
0.0011721804 -0.019927055 0.66423845
0.0011750774 -0.021151364 0.66458809
0.0011779889 -0.022381783 0.66493952
0.0011809149 -0.023618281 0.66529268
0.0011838516 -0.024860859 0.66564727
0.0011868068 -0.026109725 0.66600394
0.0011897767 -0.02736485 0.66636246
0.0011927616 -0.028626263 0.66672277
0.0011957615 -0.029893994 0.66708487
0.0011987727 -0.031168073 0.66744834
0.001201803 -0.032448679 0.66781414
0.0012048484 -0.033735752 0.66818178
0.0012079094 -0.035029322 0.66855127
0.0012109862 -0.036329538 0.66892266
0.0012140747 -0.03763628 0.66929549
0.0012171828 -0.038949847 0.6696707
0.001220307 -0.04027009 0.67004776
0.0012234472 -0.041597188 0.67042685
0.0012266036 -0.04293108 0.67080784
0.0012297723 -0.044271767 0.67119038
0.0012329615 -0.045619547 0.67157537
0.0012361673 -0.046974331 0.67196226
0.0012393896 -0.048336148 0.67235124
0.0012426291 -0.049705148 0.67274231
0.0012458813 -0.051081121 0.67313492
0.0012491546 -0.052464485 0.6735301
0.0012524452 -0.053855121 0.67392719
0.0012557532 -0.055253118 0.67432654
0.0012590787 -0.056658536 0.67472792
0.0012624179 -0.058071196 0.67513096
0.0012657787 -0.059491605 0.67553675
0.0012691577 -0.060919553 0.67594463
0.0012725547 -0.062355131 0.67635465
0.0020097708 0.050244272 0.6440441
0.0020140223 0.049343556 0.6443007
0.0020182973 0.048439145 0.64455873
0.0020225903 0.047530949 0.64481783
0.0020269016 0.04661873 0.64507806
0.0020312259 0.045702606 0.64533901
0.0020355743 0.044782668 0.64560151
0.0020399413 0.043858796 0.64586502
0.0020443269 0.042930901 0.64612973
0.0020487315 0.041999042 0.64639556
0.0020531553 0.04106313 0.64666259
0.0020575924 0.040123075 0.6469304
0.0020620546 0.039179057 0.64719969
0.0020665359 0.038230926 0.64747018
0.002071037 0.037278682 0.64774185
0.0020755574 0.036322266 0.64801466
0.0020800922 0.035361588 0.64828837
0.0020846524 0.034396768 0.64856362
0.0020892327 0.033427745 0.64884007
0.0020938332 0.032454431 0.64911771
0.0020984481 0.031476736 0.64939624
0.0021030894 0.030494809 0.64967638
0.0021077511 0.029508501 0.64995778
0.0021124335 0.028517902 0.65024036
0.002117137 0.027522802 0.6505242
0.0021218613 0.026523322 0.65080935
0.0021266008 0.025519252 0.65109539
0.0021313676 0.024510771 0.65138316
0.0021361557 0.023497701 0.65167212
0.0021409653 0.02248013 0.6519624
0.0021457968 0.02145797 0.65225399
0.0021506438 0.020431161 0.65254653
0.0021555191 0.019399703 0.65284079
0.0021604162 0.018363565 0.65313637
0.0021653359 0.017322689 0.65343332
0.002170278 0.016277075 0.65373158
0.0021752368 0.015226662 0.65403086
0.0021802241 0.014171481 0.65433186
0.0021852346 0.013111413 0.6546343
0.0021902681 0.012046516 0.65493804
0.0021953247 0.010976613 0.65524328
0.0022003986 0.0099018216 0.65554953
0.0022055022 0.0088220537 0.65585756
0.0022106296 0.0077372193 0.65616703
0.002215781 0.0066473782 0.65647793
0.0022209564 0.0055524111 0.65679026
0.0022261492 0.004452318 0.65710372
0.0022313735 0.0033470392 0.65741903
0.0022366219 0.0022366345 0.65773582
0.0022418953 0.0011209548 0.65805405
0.0022471934 5.9604645e-08 0.65837383
0.0022525101 -0.0011262298 0.65869474
0.0022578584 -0.0022578239 0.6590175
0.0022632326 -0.0033948421 0.65934193
0.0022686324 -0.0045372248 0.65966779
0.0022740578 -0.0056851208 0.65999526
0.0022795026 -0.0068385005 0.66032386
0.0022849801 -0.0079974234 0.66065443
0.002290484 -0.0091619194 0.66098666
0.0022960149 -0.010332018 0.66132045
0.0023015724 -0.011507809 0.66165584
0.0023071496 -0.012689292 0.66199249
0.0023127613 -0.013876557 0.66233122
0.0023184 -0.015069574 0.66267157
0.0023240664 -0.016268432 0.66301352
0.0023297607 -0.017473191 0.6633572
0.0023354758 -0.018683761 0.66370213
0.002341226 -0.019900382 0.66404915
0.0023470046 -0.021123022 0.66439795
0.0023528121 -0.022351712 0.66474849
0.0023586482 -0.023586452 0.66510075
0.0023645058 -0.024827302 0.66545427
0.0023704004 -0.02607435 0.66580999
0.002376324 -0.027327716 0.66616756
0.0023822775 -0.028587341 0.66652685
0.002388261 -0.029853255 0.666888
0.0023942671 -0.031125426 0.66725045
0.0024003107 -0.032404155 0.66761529
0.002406385 -0.03368938 0.66798186
0.0024124905 -0.034981102 0.6683504
0.0024186268 -0.036279351 0.66872072
0.0024247868 -0.037584186 0.66909254
0.0024309857 -0.038895756 0.66946667
0.0024372167 -0.040214032 0.66984272
0.0024434796 -0.041539103 0.67022073
0.0024497749 -0.042871028 0.67060065
0.0024560946 -0.044209659 0.67098212
0.0024624551 -0.045555413 0.67136598
0.0024688484 -0.046908081 0.67175192
0.0024752752 -0.048267841 0.67213976
0.0024817355 -0.049634695 0.6725297
0.0024882215 -0.051008523 0.67292112
0.0024947496 -0.052389711 0.67331517
0.0025013122 -0.053778231 0.6737113
0.0025079092 -0.055173963 0.6741094
0.0025145411 -0.056577146 0.6745097
0.0025212001 -0.057987571 0.67491156
0.0025279024 -0.059405714 0.67531615
0.0025346407 -0.060831368 0.67572284
0.0025414152 -0.062264651 0.67613167
0.003011192 0.050186574 0.64390469
0.0030175624 0.049286872 0.64416105
0.0030239602 0.048383385 0.64441848
0.0030303849 0.047476053 0.64467698
0.0030368369 0.046564877 0.64493656
0.0030433084 0.045649618 0.64519697
0.0030498158 0.044730663 0.64545882
0.0030563511 0.043807715 0.64572179
0.0030629144 0.042880833 0.64598584
0.0030695058 0.041949958 0.64625108
0.0030761175 0.04101494 0.64651716
0.003082766 0.040075988 0.6467846
0.0030894433 0.039133012 0.6470533
0.0030961495 0.038185894 0.64732313
0.0031028851 0.037234664 0.64759415
0.0031096416 0.036279202 0.64786601
0.0031164361 0.035319626 0.64813942
0.0031232601 0.034355879 0.64841402
0.0031301144 0.033387899 0.64868981
0.0031369983 0.032415658 0.64896679
0.0031439043 0.031439066 0.64924467
0.0031508494 0.030458242 0.64952409
0.0031578254 0.029473066 0.64980483
0.003164832 0.02848348 0.65008676
0.00317187 0.027489573 0.65036994
0.0031789306 0.026491106 0.65065396
0.0031860317 0.025488257 0.6509397
0.0031931642 0.024480939 0.65122676
0.0032003289 0.02346909 0.65151501
0.0032075259 0.022452682 0.65180457
0.0032147462 0.021431655 0.65209508
0.0032220082 0.020406067 0.65238732
0.0032293033 0.019375861 0.65268081
0.0032366309 0.018340945 0.65297568
0.0032439923 0.017301321 0.65327191
0.0032513873 0.016256958 0.65356946
0.0032588067 0.015207767 0.65386796
0.0032662691 0.014153868 0.65416825
0.0032737663 0.013095051 0.65446991
0.0032812976 0.012031436 0.65477288
0.0032888541 0.010962844 0.65507698
0.0032964551 0.009889394 0.65538287
0.0033040915 0.0088109374 0.65569007
0.0033117633 0.0077275038 0.65599877
0.0033194707 0.006638974 0.65630889
0.0033272044 0.0055453777 0.65662009
0.003334984 0.0044466555 0.65693307
0.0033427998 0.0033428073 0.6572476
0.0033506528 0.0022338033 0.65756357
0.0033585425 0.001119554 0.65788102
0.0033664694 2.9802322e-08 0.65819997
0.0033744238 -0.0011247694 0.65851998
0.0033824262 -0.0022549331 0.65884203
0.0033904666 -0.0033904314 0.6591655
0.0033985451 -0.0045314133 0.65949059
0.0034066522 -0.0056777 0.6598168
0.0034148081 -0.0068296194 0.66014498
0.0034230032 -0.0079869926 0.66047472
0.0034312378 -0.0091499686 0.66080606
0.0034395121 -0.010318518 0.66113901
0.0034478158 -0.01149267 0.6614731
0.0034561702 -0.012672603 0.66180927
0.0034645656 -0.013858229 0.66214705
0.0034730013 -0.015049636 0.66248649
0.0034814784 -0.016246855 0.66282761
0.0034899972 -0.017449945 0.66317034
0.003498547 -0.018658876 0.66351438
0.0035071494 -0.019873798 0.6638605
0.0035157944 -0.021094739 0.66420835
0.003524482 -0.022321671 0.66455793
0.0035332018 -0.023554653 0.66490883
0.0035419757 -0.024793833 0.66526181
0.0035507935 -0.026039094 0.66561663
0.003559655 -0.027290642 0.66597319
0.003568561 -0.028548449 0.66633153
0.0035775118 -0.029812604 0.66669166
0.003586496 -0.031082958 0.6670531
0.003595537 -0.032359838 0.66741699
0.003604624 -0.033643156 0.6677826
0.0036137567 -0.034932941 0.66815007
0.0036229359 -0.036229342 0.66851938
0.0036321499 -0.037532181 0.66889018
0.0036414231 -0.038841814 0.66926324
0.0036507433 -0.040158153 0.66963828
0.0036601117 -0.041481227 0.67001522
0.0036695164 -0.042811006 0.67039365
0.0036789812 -0.04414776 0.67077446
0.0036884951 -0.045491397 0.6711573
0.0036980584 -0.046842039 0.67154205
0.0037076715 -0.048199683 0.67192882
0.0037173345 -0.049564421 0.67231774
0.0037270356 -0.050936133 0.67270803
0.0037368003 -0.052315176 0.67310095
0.003746616 -0.053701431 0.67349589
0.0037564833 -0.055095106 0.67389297
0.0037664031 -0.056495994 0.67429209
0.0037763624 -0.057904184 0.67469275
0.0037863874 -0.059320033 0.67509615
0.0037964655 -0.060743421 0.67550164
0.0038065978 -0.06217441 0.67590934
0.0040103248 0.050129056 0.64376593
0.0040187994 0.049230337 0.64402169
0.0040273098 0.048327714 0.64427853
0.0040358566 0.047421306 0.64453644
0.0040444396 0.046511084 0.64479542
0.0040530483 0.045596808 0.64505523
0.0040617045 0.044678777 0.64531648
0.0040703979 0.043756813 0.64557886
0.0040791286 0.042830855 0.64584231
0.004087897 0.041900963 0.6461069
0.004096692 0.040966928 0.64637232
0.0041055358 0.040028989 0.64663923
0.0041144178 0.039086968 0.64690727
0.004123339 0.038140923 0.64717644
0.0041322983 0.037190706 0.64744681
0.0041412855 0.036236286 0.64771807
0.0041503236 0.035277754 0.64799082
0.0041594002 0.03431505 0.64826471
0.0041685174 0.033348143 0.6485399
0.0041776747 0.032377005 0.64881617
0.0041868608 0.031401485 0.64909339
0.0041960985 0.030421764 0.64937216
0.0042053773 0.029437661 0.64965218
0.0042146975 0.028449237 0.64993346
0.0042240587 0.027456433 0.65021598
0.0042334502 0.026459068 0.65049934
0.0042428952 0.025457382 0.65078443
0.0042523821 0.024451226 0.65107071
0.0042619118 0.02344054 0.65135825
0.0042714844 0.022425324 0.65164715
0.0042810882 0.021405429 0.65193695
0.004290747 0.020381063 0.65222842
0.0043004495 0.019352049 0.65252125
0.0043101967 0.018318355 0.6528154
0.0043199877 0.017279983 0.65311086
0.0043298104 0.016236812 0.65340734
0.0043396908 0.015188932 0.65370548
0.0043496164 0.014136285 0.65400493
0.0043595871 0.013078779 0.65430588
0.0043696039 0.012016445 0.65460813
0.0043796548 0.010949165 0.6549114
0.0043897643 0.0098770261 0.65521657
0.0043999203 0.0087998807 0.65552306
0.0044101235 0.0077177286 0.65583098
0.0044203741 0.0066305995 0.65614033
0.0044306596 0.0055383146 0.65645069
0.0044410061 0.0044410527 0.6567629
0.0044514015 0.0033386052 0.6570766
0.0044618449 0.0022309124 0.65739179
0.0044723377 0.0011181235 0.65770841
0.0044828667 2.9802322e-08 0.65802622
0.0044934591 -0.0011233687 0.65834582
0.0045041009 -0.0022520125 0.65866697
0.0045147939 -0.0033860803 0.65898967
0.0045255376 -0.0045255125 0.65931386
0.0045363191 -0.0056703985 0.65963918
0.0045471652 -0.0068207085 0.65996653
0.0045580636 -0.0079765916 0.66029543
0.0045690145 -0.0091379881 0.66062587
0.0045800176 -0.010305017 0.66095799
0.0045910608 -0.011477619 0.66129118
0.0046021705 -0.012655973 0.66162652
0.0046133348 -0.01383999 0.6619634
0.0046245535 -0.015029788 0.66230196
0.0046358262 -0.016225368 0.66264218
0.0046471404 -0.017426759 0.66298354
0.0046585235 -0.018634081 0.6633271
0.0046699634 -0.019847363 0.66367233
0.0046814592 -0.021066517 0.66401923
0.0046930118 -0.02229178 0.66436785
0.0047046067 -0.023522973 0.66471773
0.0047162739 -0.024760425 0.66506988
0.0047279992 -0.026003987 0.66542369
0.0047397828 -0.027253717 0.66577929
0.0047516255 -0.028509706 0.66613668
0.0047635124 -0.029771954 0.66649544
0.0047754738 -0.031040549 0.66685641
0.0047874954 -0.032315552 0.66721916
0.0047995779 -0.033597022 0.66758382
0.0048117214 -0.034884959 0.66795027
0.0048239115 -0.036179304 0.66831815
0.0048361789 -0.037480354 0.6686883
0.0048485086 -0.03878808 0.66906035
0.0048609013 -0.040102392 0.66943437
0.0048733572 -0.0414235 0.66981024
0.0048858621 -0.042751253 0.67018759
0.0048984466 -0.044086009 0.67056739
0.0049110968 -0.045427591 0.6709491
0.0049238116 -0.046776146 0.67133284
0.0049365931 -0.048131764 0.6717186
0.0049494244 -0.049494207 0.67210579
0.0049623391 -0.050863981 0.67249554
0.0049753212 -0.052240878 0.67288733
0.0049883719 -0.053624988 0.67328113
0.0050014909 -0.055016339 0.67367703
0.0050146622 -0.056414932 0.67407453
0.0050279205 -0.057821065 0.6744746
0.0050412486 -0.059234619 0.67487687
0.0050546476 -0.060655743 0.67528123
0.0050681182 -0.062084407 0.67568767
0.0050071715 0.050071746 0.64362752
0.0050177411 0.049173892 0.64388269
0.0050283545 0.048272222 0.64413893
0.0050390135 0.047366738 0.64439625
0.0050497041 0.046457291 0.64465433
0.0050604534 0.045544088 0.64491385
0.0050712484 0.044626981 0.6451745
0.0050820904 0.043706 0.64543623
0.0050929785 0.042781055 0.64569902
0.0051039131 0.041852146 0.64596307
0.0051148813 0.040919065 0.64622784
0.00512591 0.03998214 0.64649409
0.0051369872 0.039041132 0.6467616
0.0051481114 0.03809604 0.64703012
0.0051592845 0.037146866 0.64729983
0.005170492 0.03619349 0.64757043
0.0051817629 0.035236031 0.64784253
0.0051930822 0.034274399 0.64811575
0.0052044517 0.033308506 0.64839029
0.0052158711 0.032338411 0.64866596
0.0052273264 0.031363994 0.64894247
0.0052388459 0.030385345 0.64922059
0.0052504167 0.029402345 0.64949995
0.0052620387 0.028415054 0.64978051
0.0052737123 0.027423352 0.65006232
0.0052854232 0.02642715 0.65034509
0.0052972008 0.025426596 0.6506294
0.0053090309 0.024421543 0.65091509
0.0053209146 0.023412049 0.6512019
0.0053328509 0.022398025 0.65149009
0.0053448263 0.021379322 0.65177923
0.0053568701 0.020356119 0.65207005
0.0053689689 0.019328296 0.65236211
0.0053811222 0.018295854 0.65265548
0.0053933305 0.017258674 0.65295029
0.0054055792 0.016216785 0.65324593
0.0054178997 0.015170157 0.65354335
0.0054302756 0.014118731 0.65384215
0.0054427083 0.013062507 0.65414232
0.0054551987 0.012001485 0.65444386
0.0054677301 0.010935456 0.65474635
0.0054803351 0.0098646283 0.65505064
0.0054929988 0.0087888539 0.65535641
0.0055057206 0.0077080131 0.65566355
0.0055185016 0.0066222548 0.65597212
0.0055313259 0.0055313408 0.65628171
0.0055442266 0.0044354498 0.65659314
0.0055571874 0.0033343136 0.65690607
0.0055702087 0.002228111 0.65722042
0.0055832914 0.001116693 0.65753627
0.0055964189 2.9802322e-08 0.65785319
0.0056096255 -0.0011218786 0.65817201
0.005622894 -0.0022491217 0.65849233
0.0056362255 -0.0033817291 0.65881425
0.0056496207 -0.0045196712 0.65913761
0.0056630624 -0.0056630075 0.65946215
0.0056765857 -0.0068118274 0.65978861
0.0056901732 -0.0079662204 0.66011667
0.005703826 -0.009126097 0.66044629
0.0057175444 -0.010291576 0.66077745
0.0057313121 -0.011462629 0.66110981
0.0057451632 -0.012639344 0.66144425
0.0057590818 -0.013821781 0.66178024
0.0057730675 -0.01500991 0.66211784
0.0057871221 -0.01620394 0.66245723
0.0058012269 -0.017403662 0.66279769
0.0058154184 -0.018609315 0.6631403
0.0058296798 -0.019820899 0.66348463
0.0058440114 -0.021038413 0.66383064
0.0058584134 -0.022261947 0.66417831
0.0058728685 -0.023491472 0.6645273
0.0058874134 -0.024727106 0.66487843
0.00590203 -0.025968939 0.66523135
0.0059167198 -0.027216882 0.66558594
0.0059314831 -0.028471082 0.66594237
0.0059463019 -0.029731482 0.66630012
0.0059612128 -0.03099829 0.66666013
0.0059761992 -0.032271445 0.66702187
0.0059912605 -0.033551037 0.66738552
0.0060063987 -0.034837097 0.66775095
0.0060215942 -0.036129534 0.66811782
0.0060368865 -0.037428647 0.66848701
0.0060522561 -0.038734406 0.66885805
0.0060677035 -0.040046811 0.669231
0.006083231 -0.041365951 0.66960591
0.0060988185 -0.042691708 0.66998219
0.0061145052 -0.044024438 0.67036092
0.0061302735 -0.045363992 0.67074156
0.0061461227 -0.046710521 0.67112422
0.0061620544 -0.048063993 0.67150885
0.0061780484 -0.04942435 0.67189491
0.0061941464 -0.050792009 0.67228365
0.0062103281 -0.05216673 0.6726743
0.006226595 -0.053548694 0.67306697
0.0062429472 -0.054937929 0.67346179
0.006259365 -0.056334287 0.67385817
0.0062758895 -0.057738185 0.67425716
0.0062925019 -0.059149504 0.67465818
0.0063092029 -0.060568303 0.67506129
0.0063259923 -0.061994702 0.67546666
0.0060017412 0.050014555 0.64348936
0.0060143946 0.049117565 0.64374399
0.006027102 0.04821685 0.64399964
0.0060398635 0.047312289 0.64425635
0.0060526785 0.046403885 0.6445142
0.0060655321 0.045491487 0.64477277
0.0060784565 0.044575363 0.64503282
0.0060914364 0.043655336 0.64529395
0.0061044716 0.042731315 0.64555621
0.0061175628 0.04180336 0.64581954
0.0061306935 0.040871352 0.64608371
0.0061438978 0.03993538 0.64634937
0.0061571584 0.038995326 0.64661622
0.0061704768 0.038051277 0.64688414
0.0061838529 0.037103146 0.6471532
0.0061972705 0.036150753 0.64742315
0.006210763 0.035194337 0.64769459
0.0062243147 0.034233779 0.64796722
0.0062379255 0.033268988 0.64824104
0.0062515959 0.032299936 0.64851606
0.0062653092 0.031326562 0.64879197
0.0062791002 0.030349016 0.64906943
0.0062929522 0.029367119 0.64934814
0.0063068648 0.028380901 0.64962804
0.0063208397 0.027390331 0.6499092
0.0063348589 0.026395261 0.65019119
0.0063489578 0.02539584 0.65047485
0.0063631195 0.024391979 0.65075982
0.006377345 0.023383647 0.65104598
0.0063916342 0.022370756 0.65133345
0.0064059696 0.021353275 0.65162182
0.0064203874 0.020331264 0.65191191
0.00643487 0.019304603 0.65220332
0.0064494181 0.018273354 0.65249598
0.0064640325 0.017237455 0.65278995
0.0064786947 0.016196787 0.65308499
0.0064934422 0.015151381 0.65338171
0.0065082568 0.014101267 0.65367973
0.0065231393 0.013046294 0.65397912
0.0065380903 0.011986524 0.65427995
0.0065530906 0.010921836 0.65458167
0.0065681785 0.00985232 0.65488529
0.0065833372 0.0087777972 0.65519023
0.0065985653 0.0076983571 0.6554966
0.0066138641 0.0066138804 0.6558044
0.0066292146 0.0055243671 0.65611315
0.006644656 0.0044298172 0.65642381
0.0066601695 0.0033301115 0.65673596
0.0066757556 0.0022252798 0.65704954
0.0066914149 0.0011152625 0.65736455
0.0067071281 5.9604645e-08 0.65768069
0.006722935 -0.0011204779 0.65799868
0.0067388164 -0.0022462606 0.65831828
0.0067547732 -0.0033773482 0.65863925
0.0067708059 -0.0045138299 0.65896177
0.0067868945 -0.0056557059 0.65928543
0.00680308 -0.0068030655 0.65961111
0.0068193437 -0.007955879 0.65993828
0.0068356842 -0.0091142058 0.66026706
0.0068521039 -0.010278136 0.66059732
0.0068685813 -0.011447608 0.66092891
0.0068851598 -0.012622774 0.66126239
0.0069018179 -0.013803601 0.66159755
0.006918557 -0.014990181 0.66193432
0.0069353776 -0.016182512 0.66227275
0.0069522583 -0.017380625 0.66261232
0.0069692433 -0.018584639 0.66295409
0.0069863112 -0.019794554 0.66329741
0.0070034638 -0.021010369 0.66364253
0.0070206998 -0.022232175 0.66398925
0.0070379996 -0.023459971 0.66433728
0.0070554065 -0.024693877 0.66468751
0.0070729 -0.025933951 0.66503948
0.0070904801 -0.027180135 0.66539311
0.0071081482 -0.028432578 0.6657486
0.007125882 -0.02969116 0.66610539
0.0071437266 -0.030956119 0.66646439
0.0071616615 -0.032227457 0.66682523
0.0071796859 -0.033505172 0.66718787
0.007197802 -0.034789354 0.66755229
0.007215987 -0.036079913 0.66791821
0.0072342865 -0.037377149 0.66828632
0.0072526787 -0.038680941 0.66865635
0.007271166 -0.039991379 0.66902828
0.0072897468 -0.041308582 0.66940212
0.0073083993 -0.042632282 0.66977733
0.007327171 -0.043963015 0.67015505
0.0073460401 -0.045300573 0.67053461
0.007365006 -0.046645015 0.6709162
0.0073840707 -0.047996402 0.6712997
0.0074032098 -0.049354702 0.67168474
0.0074224728 -0.050720215 0.67207229
0.0074418359 -0.05209285 0.67246193
0.0074613006 -0.053472608 0.67285347
0.0074808677 -0.054859698 0.6732471
0.0075005125 -0.056253821 0.67364234
0.0075202854 -0.057655483 0.67404014
0.0075401631 -0.059064597 0.67444009
0.0075601465 -0.060481161 0.67484212
0.0075802356 -0.061905235 0.6752463
0.0069940398 0.049957484 0.64335155
0.0070087691 0.049061418 0.64360559
0.0070235603 0.048161596 0.64386064
0.007038414 0.04725796 0.64411676
0.0070533119 0.04635036 0.64437371
0.0070682918 0.045439035 0.64463204
0.0070833359 0.044523865 0.64489144
0.0070984438 0.043604761 0.64515197
0.0071136164 0.042681724 0.64541364
0.0071288538 0.041754752 0.64567637
0.0071441378 0.040823668 0.64593995
0.0071595069 0.03988871 0.64620501
0.0071749417 0.038949698 0.64647114
0.0071904431 0.038006634 0.64673847
0.007206012 0.037059546 0.64700693
0.0072216289 0.036108166 0.64727622
0.0072373333 0.035152823 0.64754701
0.0072531062 0.034193218 0.64781904
0.007268948 0.0332295 0.64809227
0.0072848583 0.03226155 0.64836657
0.0073008197 0.03128925 0.64864182
0.0073168706 0.030312777 0.64891863
0.0073329923 0.029331982 0.64919662
0.0073491852 0.028346896 0.64947587
0.0073654498 0.027357399 0.64975631
0.0073817661 0.026363492 0.65003765
0.0073981751 0.025365204 0.65032065
0.0074146581 0.024362445 0.6506049
0.0074312137 0.023355275 0.65089041
0.0074478439 0.022343546 0.65117717
0.0074645276 0.021327287 0.65146488
0.0074813077 0.020306438 0.65175426
0.0074981628 0.01928103 0.65204489
0.0075150942 0.018250972 0.6523369
0.0075321025 0.017216265 0.65263015
0.0075491662 0.01617682 0.65292442
0.0075663291 0.015132666 0.65322036
0.0075835702 0.014083773 0.65351772
0.00760089 0.013030112 0.65381634
0.0076182894 0.011971623 0.65411639
0.0076357466 0.010908246 0.65441746
0.0076533058 0.0098399818 0.65472019
0.007670946 0.0087668002 0.65502447
0.0076886672 0.0076887012 0.65533
0.0077064713 0.0066055655 0.65563703
0.007724335 0.0055174232 0.65594512
0.0077423048 0.0044241846 0.65625495
0.007760358 0.0033259094 0.65656626
0.007778496 0.0022224486 0.65687907
0.0077967187 0.001113832 0.6571933
0.0078150043 -0 0.65750861
0.0078333989 -0.0011190474 0.65782583
0.0078518791 -0.0022433698 0.65814447
0.0078704478 -0.0033730268 0.65846473
0.007889105 -0.0045080483 0.65878648
0.0079078265 -0.005648464 0.65910929
0.0079266615 -0.0067942739 0.65943408
0.0079455851 -0.0079455376 0.65976042
0.0079645999 -0.0091023743 0.66008836
0.0079837069 -0.010264754 0.6604178
0.00800288 -0.011432678 0.66074848
0.0080221705 -0.012606263 0.66108108
0.0080415541 -0.013785481 0.66141534
0.0080610327 -0.014970481 0.66175127
0.0080806045 -0.016161203 0.66208875
0.008100247 -0.017357618 0.66242748
0.0081200106 -0.018560022 0.66276824
0.0081398701 -0.019768238 0.66311079
0.0081598274 -0.020982355 0.66345489
0.0081798835 -0.022202492 0.66380072
0.0082000121 -0.023428589 0.66414785
0.0082202666 -0.024660766 0.66449714
0.0082406206 -0.025899053 0.66484809
0.0082610752 -0.027143508 0.66520083
0.0082816323 -0.028394133 0.66555536
0.0083022658 -0.029650897 0.66591114
0.0083230287 -0.030914098 0.66626924
0.0083438959 -0.032183558 0.66662908
0.0083648674 -0.033459455 0.66699064
0.0083859442 -0.034741759 0.66735411
0.008407102 -0.036030412 0.66771901
0.0084283929 -0.03732571 0.66808605
0.0084497919 -0.038627595 0.66845518
0.0084713008 -0.039936125 0.66882604
0.0084929178 -0.041251272 0.66919881
0.0085146194 -0.042573035 0.66957307
0.0085364589 -0.043901801 0.66994971
0.0085584112 -0.045237303 0.6703282
0.008580477 -0.046579719 0.67070872
0.0086026564 -0.047929049 0.6710912
0.0086249225 -0.049285263 0.67147517
0.008647332 -0.050648659 0.67186165
0.0086698588 -0.052019149 0.67225003
0.0086925039 -0.053396791 0.67264056
0.0087152673 -0.054781646 0.67303306
0.008738121 -0.056173593 0.67342722
0.0087611238 -0.05757308 0.67382389
0.0087842476 -0.058979928 0.67422265
0.0088074952 -0.060394228 0.67462349
0.0088308649 -0.061816037 0.67502648
0.0079840757 0.049900532 0.64321411
0.0080008712 0.049005389 0.64346755
0.0080177365 0.048106432 0.643722
0.0080346735 0.04720372 0.64397752
0.0080516608 0.046297044 0.64423388
0.0080687413 0.045386702 0.64449167
0.0080858953 0.044472456 0.64475042
0.0081031211 0.043554306 0.64501035
0.0081204213 0.042632252 0.64527136
0.0081377737 0.041706085 0.6455332
0.0081552221 0.040776134 0.64579654
0.0081727449 0.039842188 0.64606088
0.0081903441 0.03890419 0.64632642
0.0082080187 0.037962079 0.64659315
0.0082257474 0.037015885 0.64686066
0.0082435757 0.036065638 0.64712965
0.0082614813 0.035111308 0.64739978
0.0082794651 0.034152806 0.64767116
0.0082975272 0.033190101 0.64794374
0.0083156675 0.032223254 0.64821744
0.0083338656 0.031252027 0.64849204
0.0083521651 0.030276597 0.64876819
0.0083705466 0.029296935 0.64904547
0.0083890082 0.028312951 0.64932406
0.0084075285 0.027324498 0.64960349
0.008426155 0.026331753 0.64988458
0.0084448634 0.025334626 0.65016681
0.0084636537 0.02433303 0.65045041
0.0084825298 0.023326963 0.65073514
0.0085014664 0.022316396 0.65102088
0.00852051 0.021301329 0.6513083
0.0085396413 0.020281702 0.6515969
0.0085588573 0.019257456 0.65188688
0.0085781598 0.01822862 0.65217817
0.00859755 0.017195106 0.65247071
0.0086170034 0.016156912 0.6527642
0.0086365696 0.015114039 0.65305948
0.0086562261 0.014066368 0.65335608
0.0086759711 0.013013989 0.65365398
0.0086957812 0.011956722 0.6539529
0.0087157078 0.010894656 0.6542536
0.0087357257 0.0098277032 0.65455562
0.0087558348 0.0087558627 0.65485907
0.008776038 0.007679075 0.65516388
0.0087963091 0.0065972805 0.65546978
0.0088166986 0.0055104792 0.65577745
0.0088371839 0.0044186115 0.65608656
0.0088577643 0.0033216774 0.6563971
0.0088784397 0.0022196174 0.65670907
0.0088992137 0.0011124015 0.65702248
0.0089200577 2.9802322e-08 0.65733695
0.0089410255 -0.0011176169 0.65765339
0.0089620939 -0.0022405088 0.65797126
0.008983261 -0.0033686757 0.65829062
0.0090045007 -0.004502207 0.65861112
0.009025869 -0.0056411326 0.65893352
0.0090473387 -0.0067854524 0.65925753
0.009068911 -0.0079352558 0.65958303
0.0090905856 -0.0090905428 0.65991002
0.0091123646 -0.010251373 0.66023868
0.0091342209 -0.011417747 0.66056842
0.0091562094 -0.012589782 0.66090024
0.009178305 -0.013767421 0.6612336
0.0092005068 -0.014950812 0.66156864
0.0092228157 -0.016139865 0.66190523
0.0092452057 -0.017334729 0.66224301
0.0092677325 -0.018535435 0.66258299
0.0092903692 -0.019742012 0.66292453
0.0093131177 -0.02095449 0.66326779
0.0093359482 -0.022172838 0.66361231
0.0093589202 -0.023397326 0.66395891
0.0093820058 -0.024627745 0.66430724
0.009405205 -0.025864273 0.66465729
0.0094285188 -0.027106971 0.66500908
0.00945195 -0.028355807 0.6653626
0.0094754677 -0.029610813 0.66571748
0.0094991326 -0.030872166 0.66607457
0.0095229149 -0.032139808 0.66643339
0.0095468173 -0.033413827 0.66679406
0.0095708398 -0.034694284 0.66715658
0.0095949536 -0.035981059 0.6675204
0.0096192192 -0.03727445 0.6678865
0.0096436087 -0.038574427 0.66825449
0.0096681211 -0.039880931 0.6686244
0.0096927276 -0.041194081 0.66899568
0.0097174915 -0.042514026 0.66936934
0.009742382 -0.043840706 0.66974485
0.0097674001 -0.045174181 0.67012239
0.0097925486 -0.046514571 0.67050183
0.0098178247 -0.047861904 0.67088324
0.0098432004 -0.049215972 0.67126614
0.0098687401 -0.050577253 0.67165148
0.0098944129 -0.051945627 0.67203885
0.009920219 -0.053321183 0.67242825
0.00994616 -0.054703861 0.67281973
0.0099722045 -0.056093603 0.67321259
0.0099984193 -0.057490885 0.67360824
0.010024771 -0.058895528 0.67400587
0.010051263 -0.060307533 0.67440557
0.010077896 -0.061727107 0.67480743
0.0089718578 0.049843669 0.64307696
0.0089907087 0.04894942 0.6433298
0.0090096397 0.048051417 0.64358366
0.0090286508 0.047149658 0.64383864
0.0090477169 0.046243936 0.64409435
0.0090668891 0.045334458 0.64435154
0.0090861423 0.044421136 0.64460975
0.0091054766 0.04350397 0.64486903
0.0091248937 0.04258287 0.64512956
0.0091443704 0.041657686 0.64539075
0.0091639543 0.040728688 0.64565343
0.009183622 0.039795727 0.64591712
0.0092033735 0.038858712 0.64618206
0.0092232116 0.037917674 0.64644819
0.0092431111 0.036972493 0.64671504
0.0092631206 0.036023259 0.64698344
0.0092832167 0.035069972 0.64725298
0.0093034003 0.034112453 0.6475237
0.0093236724 0.033150852 0.64779556
0.009344006 0.032184929 0.64806831
0.009364455 0.031214893 0.64834255
0.0093849944 0.030240536 0.6486181
0.0094056232 0.029261947 0.64889473
0.0094263442 0.028279096 0.6491726
0.0094471294 0.027291745 0.64945138
0.009468033 0.026300132 0.64973176
0.0094890287 0.025304109 0.65001339
0.0095101185 0.024303675 0.65029621
0.0095313024 0.02329877 0.65058041
0.0095525542 0.022289306 0.65086538
0.0095739271 0.021275431 0.65115207
0.009595396 0.020256966 0.65144002
0.0096169626 0.019233942 0.65172923
0.0096386243 0.018206298 0.65201986
0.0096603576 0.017174006 0.65231127
0.0096822167 0.016137064 0.65260446
0.0097041745 0.015095413 0.65289897
0.0097262319 0.014048994 0.65319484
0.0097483918 0.012997866 0.65349209
0.0097706225 0.01194191 0.65379018
0.0097929845 0.010881126 0.65409017
0.009815448 0.0098154843 0.65439141
0.0098380158 0.0087449551 0.65469408
0.009860687 0.0076694191 0.65499818
0.0098834336 0.0065889955 0.6553033
0.0099063152 0.0055035055 0.6556102
0.0099293031 0.0044130683 0.65591842
0.0099523971 0.0033175051 0.65622824
0.0099756001 0.0022168159 0.65653944
0.0099988803 0.0011110008 0.65685171
0.0100223 2.9802322e-08 0.65716577
0.01004583 -0.0011162162 0.65748137
0.01006947 -0.0022376478 0.65779847
0.010093222 -0.0033643842 0.658117
0.010117057 -0.004496485 0.65843666
0.010141034 -0.0056338608 0.65875828
0.010165125 -0.0067767203 0.6590814
0.01018933 -0.0079250336 0.65940607
0.010213653 -0.0090787709 0.65973222
0.010238059 -0.010238051 0.66005957
0.010262613 -0.011402875 0.66038889
0.010287287 -0.012573332 0.66071987
0.010312079 -0.01374945 0.66105241
0.01033699 -0.014931202 0.66138649
0.010361991 -0.016118646 0.66172183
0.010387145 -0.017311871 0.66205919
0.010412421 -0.018510967 0.66239822
0.01043782 -0.019715875 0.66273886
0.010463343 -0.020926684 0.66308123
0.01048896 -0.022143334 0.66342473
0.010514734 -0.023366034 0.66377044
0.010540635 -0.024594784 0.66411781
0.010566666 -0.025829583 0.66446698
0.010592824 -0.027070522 0.66481781
0.01061908 -0.028317511 0.66516995
0.010645499 -0.029570818 0.6655243
0.010672049 -0.030830353 0.66588038
0.010698733 -0.032096148 0.66623825
0.010725549 -0.033368349 0.66659796
0.010752467 -0.034646809 0.66695899
0.010779555 -0.035931826 0.66732228
0.010806779 -0.037223339 0.66768748
0.010834142 -0.038521379 0.66805446
0.010861643 -0.039826035 0.6684233
0.01088925 -0.041137129 0.66879356
0.010917032 -0.042455077 0.66916615
0.010944956 -0.04377979 0.66954064
0.010973023 -0.045111299 0.66991717
0.011001235 -0.046449631 0.67029554
0.011029556 -0.0477947 0.6706754
0.01105806 -0.049146891 0.6710577
0.011086711 -0.050506115 0.67144191
0.011115511 -0.051872343 0.67182827
0.01114446 -0.053245753 0.67221653
0.011173526 -0.054626107 0.67260635
0.011202779 -0.056013882 0.67299867
0.011232186 -0.057408929 0.67339313
0.011261747 -0.058811367 0.67378962
0.011291466 -0.060221136 0.6741882
0.011321341 -0.061638385 0.67458892
0.0099573927 0.049786985 0.64294004
0.0099782916 0.04889366 0.64319235
0.0099992761 0.047996581 0.64344561
0.010020352 0.047095656 0.64370006
0.010041489 0.046190888 0.64395523
0.010062741 0.045282364 0.64421177
0.010084084 0.044369966 0.64446938
0.010105518 0.043453753 0.64472812
0.010127043 0.042533576 0.64498794
0.010148632 0.041609406 0.64524853
0.010170342 0.040681392 0.64551055
0.010192145 0.039749354 0.64577377
0.010214041 0.038813382 0.64603812
0.010236031 0.037873387 0.64630353
0.010258089 0.03692916 0.64656973
0.010280269 0.035980999 0.64683753
0.010302546 0.035028696 0.64710641
0.01032492 0.03407225 0.64737648
0.010347391 0.033111662 0.64764774
0.010369931 0.032146811 0.64791989
