# .PCD v0.7 - Point Cloud Data file format
VERSION 0.7
FIELDS x y z
SIZE 4 4 4
TYPE F F F
COUNT 1 1 1
WIDTH 1314
HEIGHT 1
VIEWPOINT 0 0 0 1 0 0 0
POINTS 1314
DATA ascii
-0.050178405 -0.03523159 0.65161753
-0.050693292 -0.036671698 0.65293992
-0.051218994 -0.038141757 0.65429008
-0.051755719 -0.039642662 0.6556685
-0.05230381 -0.041175306 0.65707624
-0.052863635 -0.042740792 0.65851402
-0.053435571 -0.044340134 0.65998298
-0.054019857 -0.045974344 0.66148359
-0.05461723 -0.047644824 0.66301781
-0.055227961 -0.049352616 0.66458637
-0.05643376 0.041711956 0.67083412
-0.055794429 0.040026456 0.66915637
-0.055169247 0.038378626 0.66751581
-0.054558087 0.036767423 0.66591203
-0.053960323 0.035191536 0.66434342
-0.053375352 0.033649713 0.66280842
-0.052803092 0.03214103 0.66130662
-0.052242808 0.030664265 0.65983641
-0.051694445 0.029218644 0.65839744
-0.051157478 0.027803004 0.65698838
-0.0506314 0.026416421 0.65560782
-0.050116178 0.02505812 0.65425587
-0.049611196 0.023727119 0.65293068
-0.049116425 0.022422731 0.65163237
-0.048631426 0.021144122 0.65035963
-0.048155781 0.019890487 0.64911145
-0.047689479 0.018661112 0.64788783
-0.047231991 0.01745531 0.64668733
-0.046783324 0.016272485 0.64550996
-0.046343099 0.015111864 0.6443547
-0.045910966 0.013972908 0.64322072
-0.045486934 0.012855023 0.64210802
-0.045070544 0.011757553 0.64101541
-0.044661824 0.01068005 0.63994277
-0.04426045 0.0096218586 0.63888955
-0.043866117 0.0085825026 0.63785475
-0.043478854 0.0075615644 0.6368385
-0.043098267 0.0065584481 0.63583982
-0.042724386 0.0055727661 0.63485873
-0.042356934 0.0046040416 0.63389444
-0.041995652 0.0036517978 0.63294643
-0.04164058 0.0027157366 0.63201463
-0.041291364 0.0017953217 0.63109821
-0.040948052 0.00089022517 0.63019729
-0.040610403 -0 0.62931132
-0.040278178 -0.00087559223 0.62843949
-0.039951444 -0.0017369986 0.62758213
-0.039629873 -0.002584517 0.62673825
-0.039313529 -0.0034185648 0.62590814
-0.039002191 -0.0042393208 0.62509114
-0.038695663 -0.0050472021 0.62428677
-0.03889801 -0.0059192181 0.62481773
-0.039213557 -0.006819725 0.62564576
-0.039534267 -0.0077349544 0.62648737
-0.039860263 -0.0086652339 0.62734282
-0.040191591 -0.0096110106 0.62821227
-0.040528566 -0.010572642 0.62909651
-0.04087124 -0.011550516 0.62999576
-0.041219756 -0.012545109 0.63091034
-0.04157427 -0.013556808 0.63184065
-0.041934934 -0.014586031 0.63278705
-0.042301808 -0.015633255 0.63374978
-0.04267526 -0.016698986 0.6347298
-0.043055367 -0.017783701 0.63572723
-0.043442301 -0.018887937 0.63674259
-0.043836258 -0.0200122 0.63777637
-0.044237316 -0.021156937 0.63882887
-0.044645887 -0.022322923 0.63990104
-0.04506208 -0.023510635 0.64099312
-0.045486104 -0.024720699 0.64210582
-0.045918185 -0.02595374 0.64323974
-0.046358556 -0.027210414 0.64439523
-0.046807323 -0.028491378 0.64557296
-0.047265001 -0.029797494 0.64677393
-0.047731709 -0.03112936 0.64799863
-0.04820773 -0.03248778 0.64924777
-0.04869334 -0.033873588 0.65052211
-0.049188692 -0.035287529 0.65182197
-0.049694367 -0.036730558 0.65314889
-0.05021055 -0.038203657 0.65450352
-0.050737571 -0.039707661 0.65588647
-0.051275771 -0.041243523 0.65729874
-0.051825508 -0.042812347 0.65874135
-0.052387007 -0.044415057 0.66021484
-0.05296097 -0.046053022 0.66172099
-0.053547643 -0.047727227 0.66326052
-0.05414746 -0.049438953 0.6648345
-0.05476087 -0.051189482 0.66644418
-0.055388156 -0.052979946 0.66809022
-0.056030169 -0.054812104 0.66977501
-0.057269555 0.047088355 0.67636693
-0.056596611 0.045277297 0.67456186
-0.055939481 0.04350853 0.67279905
-0.055297434 0.041780293 0.67107677
-0.054669783 0.040091187 0.66939324
-0.054056395 0.038440108 0.6677478
-0.053456619 0.036825687 0.66613895
-0.052869841 0.035246551 0.66456497
-0.052295964 0.033701837 0.6630255
-0.051734254 0.032190233 0.66151875
-0.051184636 0.030710816 0.66004443
-0.050646428 0.029262424 0.65860069
-0.050119564 0.02784425 0.6571874
-0.049603548 0.026455253 0.6558032
-0.049097911 0.025094509 0.6544469
-0.048602611 0.023761272 0.65311825
-0.048117075 0.022454619 0.65181583
-0.047641277 0.021173954 0.65053952
-0.047174793 0.019918293 0.64928818
-0.04671723 0.01868692 0.6480608
-0.046268582 0.017479241 0.64685732
-0.045828346 0.016294509 0.64567637
-0.045396529 0.015132219 0.64451808
-0.044972774 0.013991565 0.64338136
-0.044556741 0.012871981 0.64226532
-0.044148449 0.01177296 0.64117014
-0.043747462 0.010693878 0.64009452
-0.0433538 0.0096341968 0.6390385
-0.042967159 0.0085934699 0.63800138
-0.042587254 0.0075711012 0.63698232
-0.042214107 0.0065666437 0.63598132
-0.041847337 0.0055796504 0.63499749
-0.041486993 0.004609704 0.63403088
-0.041132793 0.0036562681 0.63308078
-0.040784501 0.0027189851 0.63214648
-0.04044215 0.0017974377 0.63122809
-0.040105406 0.00089126825 0.63032484
-0.039774314 2.9802322e-08 0.62943667
-0.039448645 -0.00087660551 0.62856311
-0.039128177 -0.0017389953 0.62770343
-0.038812958 -0.002587527 0.62685788
-0.038502693 -0.0034224391 0.62602562
-0.038197439 -0.0042441785 0.62520683
-0.03789698 -0.0050529242 0.62440085
-0.038100284 -0.0059266686 0.62494618
-0.038409755 -0.0068283975 0.62577629
-0.038724288 -0.0077448785 0.62662005
-0.039043933 -0.0086764097 0.62747747
-0.039368987 -0.0096234977 0.62834942
-0.039699495 -0.01058653 0.62923598
-0.040035605 -0.011565804 0.63013762
-0.040377449 -0.012561858 0.63105458
-0.040725183 -0.013575047 0.63198733
-0.041078862 -0.01460582 0.63293606
-0.041438837 -0.015654653 0.63390172
-0.041805178 -0.016722053 0.63488442
-0.042178053 -0.017808467 0.63588464
-0.042557638 -0.018914491 0.63690287
-0.042944014 -0.020040512 0.63793927
-0.043337576 -0.021187246 0.63899499
-0.043738417 -0.022355169 0.6400702
-0.044146743 -0.023544908 0.64116555
-0.044562768 -0.024757057 0.64228147
-0.044986587 -0.025992244 0.64341843
-0.045418665 -0.027251154 0.64457738
-0.045859128 -0.028534532 0.64575893
-0.046308216 -0.029843032 0.6469636
-0.046766184 -0.031177402 0.64819211
-0.047233302 -0.032538474 0.64944512
-0.047709715 -0.033926874 0.6507231
-0.048195969 -0.035343677 0.65202749
-0.048692238 -0.036789656 0.65335864
-0.049198832 -0.038265735 0.65471762
-0.049716081 -0.039772838 0.65610504
-0.050244171 -0.04131186 0.65752167
-0.050783753 -0.042884022 0.6589691
-0.051335048 -0.044490337 0.6604479
-0.051898446 -0.046131939 0.66195917
-0.05247435 -0.047809958 0.66350406
-0.053063177 -0.049525589 0.66508353
-0.053665198 -0.051280051 0.6666984
-0.054281209 -0.053074926 0.66835088
-0.054911524 -0.054911524 0.67004168
-0.055556655 -0.056791246 0.67177224
-0.056217119 -0.058715641 0.67354381
-0.056893479 -0.06068638 0.67535818
-0.058170222 0.052882016 0.6823293
-0.057460487 0.050930947 0.68038219
-0.05676806 0.049026996 0.67848259
-0.056091934 0.047168225 0.6766277
-0.055431906 0.045353383 0.67481697
-0.05478723 0.04358077 0.67304832
-0.054157201 0.041848749 0.67131984
-0.053541668 0.040156245 0.66963124
-0.052939806 0.03850171 0.66798007
-0.052351486 0.03688401 0.6663661
-0.05177594 0.035301805 0.66478705
-0.051213067 0.03375411 0.66324288
-0.050662298 0.032239676 0.66173196
-0.050123103 0.030757397 0.66025263
-0.049595412 0.029306412 0.65880495
-0.049078714 0.027885646 0.6573875
-0.048572529 0.026494116 0.65599877
-0.04807682 0.025131106 0.65463877
-0.047590986 0.023795515 0.65330601
-0.047115009 0.022486746 0.65200019
-0.046648327 0.021203816 0.65071988
-0.046190929 0.019946098 0.64946508
-0.045742415 0.018712819 0.64823461
-0.045302402 0.017503232 0.64702737
-0.044870894 0.016316712 0.64584363
-0.044447534 0.015152574 0.64468217
-0.044031963 0.014010221 0.64354205
-0.043624211 0.012889028 0.64242345
-0.043223828 0.011788338 0.641325
-0.04283084 0.010707706 0.64024687
-0.042444929 0.0096465945 0.63918817
-0.042065807 0.0086044073 0.63814807
-0.041693501 0.0075806379 0.63712668
-0.041327626 0.0065748692 0.63612288
-0.040968217 0.0055866241 0.6351369
-0.04061491 0.0046153665 0.63416767
-0.040267736 0.0036607385 0.63321519
-0.039926447 0.0027222931 0.63227892
-0.039590802 0.0017995834 0.63135809
-0.039260849 0.00089231133 0.63045287
-0.038936347 2.9802322e-08 0.62956262
-0.038617074 -0.00087764859 0.62868673
-0.038303088 -0.0017409921 0.62782532
-0.037994076 -0.0025904477 0.62697756
-0.037690096 -0.0034263432 0.62614357
-0.037390944 -0.0042489469 0.62532294
-0.037096418 -0.0050585866 0.62451494
-0.037300546 -0.0059341788 0.62507492
-0.037603907 -0.00683707 0.62590718
-0.037912153 -0.0077547729 0.62675285
-0.03822558 -0.0086875856 0.62761271
-0.038544238 -0.0096360445 0.62848693
-0.038868248 -0.010600418 0.62937582
-0.039197754 -0.011581123 0.63027978
-0.039532799 -0.012578607 0.631199
-0.039873715 -0.013593286 0.63213426
-0.04022057 -0.014625669 0.63308585
-0.040573504 -0.015676111 0.63405406
-0.040932689 -0.01674515 0.63503945
-0.041298293 -0.017833352 0.63604248
-0.041670378 -0.018941075 0.63706326
-0.042049341 -0.020068944 0.63810289
-0.042435259 -0.021217585 0.63916159
-0.042828321 -0.022387505 0.64023995
-0.043228734 -0.023579299 0.64133847
-0.043636594 -0.024793506 0.64245743
-0.04405234 -0.026030928 0.64359796
-0.044476081 -0.027292132 0.64476049
-0.044908058 -0.028577805 0.64594555
-0.045348503 -0.029888779 0.64715391
-0.045797676 -0.031225681 0.64838618
-0.046255704 -0.032589227 0.64964271
-0.046723124 -0.033980459 0.65092504
-0.04720008 -0.035400003 0.65223354
-0.047686879 -0.036848962 0.65356904
-0.048183817 -0.038327992 0.65493238
-0.04869109 -0.039838135 0.65632403
-0.049209293 -0.041380525 0.65774572
-0.049738653 -0.042956084 0.65919793
-0.05027952 -0.044565946 0.66068178
-0.050832279 -0.046211123 0.66219819
-0.051397327 -0.047892928 0.66374838
-0.051974919 -0.049612403 0.66533297
-0.052565806 -0.051371098 0.66695398
-0.053170279 -0.053170264 0.66861236
-0.053788822 -0.055011272 0.67030931
-0.054421924 -0.056895643 0.67204607
-0.05506992 -0.058824658 0.67382389
-0.055733722 -0.060800403 0.67564499
-0.056413721 -0.062824339 0.67751044
-0.059143409 0.059143424 0.68877256
-0.058393251 0.057035297 0.68666667
-0.057661675 0.054979742 0.68461299
-0.056948405 0.052975297 0.68261069
-0.056252562 0.051019818 0.68065727
-0.055573329 0.049111336 0.67875051
-0.054910492 0.047248572 0.67688984
-0.0542631 0.045429587 0.67507243
-0.053630967 0.043653131 0.67329788
-0.053013396 0.041917622 0.67156422
-0.052409716 0.040221453 0.6698696
-0.051819798 0.038563579 0.66821355
-0.051242847 0.036942512 0.66659391
-0.050678764 0.035357267 0.66501039
-0.050126962 0.033806592 0.66346133
-0.049586892 0.032289177 0.66194528
-0.04905849 0.030804187 0.6604619
-0.048541084 0.02935046 0.65900946
-0.048034616 0.02792713 0.65758765
-0.047538612 0.026533186 0.65619528
-0.047052607 0.025167704 0.65483099
-0.046576574 0.023829907 0.65349466
-0.046109945 0.022518843 0.65218472
-0.045652702 0.021233827 0.65090114
-0.045204438 0.019974113 0.64964271
-0.044764772 0.018738747 0.64840847
-0.044333693 0.017527312 0.64719832
-0.043910719 0.016338885 0.64601099
-0.043495856 0.015173018 0.64484632
-0.043088757 0.014028907 0.64370358
-0.0426891 0.012906015 0.64258164
-0.042296894 0.011803836 0.64148062
-0.041911725 0.010721654 0.64039934
-0.041533615 0.0096590221 0.6393379
-0.04116226 0.0086153746 0.63829547
-0.04079739 0.0075902343 0.63727117
-0.040439028 0.0065830946 0.63626516
-0.040086813 0.0055935085 0.63527638
-0.039740775 0.0046210289 0.634305
-0.03940066 0.0036652088 0.63335025
-0.039066222 0.0027255714 0.63241142
-0.038737509 0.001801759 0.63148862
-0.038414188 0.00089335442 0.63058102
-0.038096312 -0 0.62968862
-0.037783649 -0.00087869167 0.62881088
-0.037475992 -0.0017430484 0.62794721
-0.037173394 -0.0025934577 0.62709779
-0.036875557 -0.0034302473 0.62626165
-0.036582533 -0.0042538047 0.62543917
-0.036294132 -0.0050642788 0.6246295
-0.036498714 -0.0059416592 0.62520379
-0.036795925 -0.0068457425 0.62603819
-0.03709802 -0.0077646971 0.62688619
-0.037405115 -0.0086988509 0.62774825
-0.037717335 -0.0096485913 0.6286248
-0.038034815 -0.010614336 0.62951601
-0.038357589 -0.011596441 0.63042212
-0.038685989 -0.012595415 0.63134396
-0.03902005 -0.013611645 0.63228178
-0.039359938 -0.014645547 0.63323593
-0.039705798 -0.015697628 0.63420683
-0.040057689 -0.016768306 0.63519466
-0.040415972 -0.017858177 0.63620043
-0.040780727 -0.018967777 0.63722444
-0.041152123 -0.020097554 0.63826698
-0.041530348 -0.021248072 0.63932872
-0.041915588 -0.02241993 0.64041018
-0.042307932 -0.023613691 0.64151156
-0.042707805 -0.024830103 0.64263415
-0.043115303 -0.026069701 0.64377809
-0.043530658 -0.0273332 0.64494407
-0.043954089 -0.028621256 0.64613271
-0.044385843 -0.029934615 0.64734471
-0.044826038 -0.031273931 0.64858049
-0.045275178 -0.032640249 0.64984131
-0.045733411 -0.034034133 0.6511277
-0.046201009 -0.035456568 0.65244031
-0.046678271 -0.036908358 0.6537801
-0.047165364 -0.038390398 0.65514749
-0.047662862 -0.03990376 0.65654409
-0.048170969 -0.041449398 0.65797043
-0.048690028 -0.043028325 0.65942752
-0.049220394 -0.044641703 0.66091645
-0.049762443 -0.046290606 0.66243804
-0.050316408 -0.047976077 0.66399312
-0.050883003 -0.049699664 0.66558379
-0.051462505 -0.051462501 0.66721052
-0.052055355 -0.053265929 0.66887486
-0.05266203 -0.055111378 0.67057782
-0.053282835 -0.05700022 0.6723206
-0.05391863 -0.058934301 0.67410547
-0.054569777 -0.060915083 0.67593336
-0.05523685 -0.062944323 0.67780596
-0.060198721 0.065931976 0.69575864
-0.059403468 0.063646615 0.6934731
-0.058628738 0.061420619 0.69124639
-0.057874165 0.059252143 0.68907773
-0.057138566 0.057138622 0.68696356
-0.05642163 0.055078268 0.68490303
-0.055722464 0.053069025 0.68289363
-0.055040222 0.051108807 0.68093276
-0.054374672 0.049196184 0.67901993
-0.05372484 0.047329038 0.67715228
-0.053090535 0.045506209 0.67532933
-0.052471034 0.043725848 0.67354882
-0.051865656 0.041986495 0.6718089
-0.051274251 0.040286928 0.67010915
-0.050696023 0.038625568 0.66844732
-0.050130844 0.037001342 0.66682297
-0.049577978 0.035412878 0.66523397
-0.049037319 0.033859104 0.66368008
-0.048508331 0.032338917 0.66215968
-0.047990486 0.030851066 0.66067141
-0.04748372 0.029394716 0.65921491
-0.046987548 0.027968794 0.65778893
-0.046501502 0.026572317 0.65639198
-0.046025544 0.02520445 0.65502405
-0.045559093 0.023864329 0.65368348
-0.045102138 0.02255109 0.6523701
-0.044654127 0.021263927 0.65108252
-0.044215053 0.020002097 0.64982057
-0.043784533 0.018764824 0.64858323
-0.043362193 0.017551392 0.64736938
-0.042948045 0.016361147 0.64617914
-0.042541727 0.015193522 0.64501131
-0.042142916 0.014047682 0.64386511
-0.041751623 0.012923151 0.64274049
-0.041367419 0.011819273 0.64163625
-0.04099033 0.010735571 0.64055252
-0.040619947 0.0096714199 0.63948804
-0.040256303 0.0086263716 0.63844287
-0.039899107 0.0075998306 0.6374163
-0.039548103 0.0065913498 0.63640749
-0.039203312 0.005600512 0.63541651
-0.038864389 0.0046267509 0.63444239
-0.038531367 0.003669709 0.63348532
-0.038204007 0.0027288496 0.63254446
-0.037882067 0.0018039346 0.63161916
-0.0375656 0.0008944273 0.63070965
-0.037254378 2.9802322e-08 0.62981516
-0.036948182 -0.00087973475 0.6289351
-0.036647063 -0.001745075 0.6280697
-0.036350731 -0.0025964379 0.62721801
-0.036059234 -0.0034341812 0.62638026
-0.035772372 -0.0042585731 0.62555575
-0.035489965 -0.0050699711 0.62474412
-0.035694934 -0.0059491396 0.62533325
-0.035985973 -0.0068544745 0.62616968
-0.036281798 -0.0077746511 0.62701988
-0.036582526 -0.0087100863 0.62788421
-0.036888279 -0.0096611679 0.62876296
-0.037199099 -0.010628283 0.62965631
-0.03751529 -0.011611849 0.63056505
-0.037836902 -0.012612253 0.6314894
-0.038164079 -0.013630003 0.63242966
-0.03849696 -0.014665484 0.63338643
-0.038835704 -0.015719205 0.63435996
-0.039180364 -0.016791582 0.63535058
-0.039531291 -0.017883182 0.63635916
-0.039888561 -0.01899454 0.63738596
-0.04025235 -0.020126134 0.63843155
-0.040622838 -0.02127862 0.63949633
-0.041000098 -0.022452444 0.64058059
-0.041384544 -0.023648292 0.64168555
-0.041776266 -0.024866819 0.64281136
-0.042175476 -0.026108593 0.64395869
-0.042582385 -0.027374357 0.64512819
-0.042997226 -0.028664798 0.64632046
-0.04342011 -0.02998054 0.64753592
-0.043851517 -0.031322509 0.64877576
-0.044291578 -0.03269136 0.65004051
-0.044740561 -0.034088016 0.65133089
-0.045198746 -0.035513282 0.65264779
-0.045666277 -0.036967903 0.65399146
-0.046143714 -0.038453072 0.65536368
-0.046631243 -0.039969593 0.65676486
-0.047129184 -0.041518569 0.65819603
-0.047637872 -0.043100893 0.65965796
-0.048157662 -0.044717789 0.66115189
-0.048688769 -0.046370238 0.6626783
-0.049231879 -0.048059642 0.66423929
-0.049787238 -0.049787223 0.66583538
-0.050355271 -0.051554203 0.66746801
-0.050936412 -0.053361952 0.66913819
-0.051530957 -0.055211753 0.67084694
-0.052139722 -0.057105392 0.67259657
-0.052763037 -0.059044331 0.67438805
-0.053401437 -0.061030179 0.6762228
-0.054055471 -0.063064694 0.67810261
-0.061346736 0.073316842 0.70335853
-0.060500979 0.070830435 0.70086843
-0.05967845 0.068411916 0.69844675
-0.058877766 0.06605801 0.69608939
-0.058098495 0.063766658 0.69379508
-0.057339586 0.06153518 0.6915608
-0.056600042 0.059361041 0.68938351
-0.055879533 0.057242483 0.68726218
-0.05517694 0.055176944 0.6851936
-0.054491986 0.053162932 0.68317699
-0.053823829 0.051198304 0.6812098
-0.053171679 0.04928109 0.67928982
-0.052535322 0.047409952 0.67741621
-0.051913839 0.045582891 0.67558646
-0.05130706 0.043798745 0.67380005
-0.050714303 0.042055786 0.67205489
-0.05013492 0.040352523 0.67034906
-0.049568787 0.038687825 0.66868228
-0.049015138 0.037060261 0.66705227
-0.048473876 0.035468727 0.66545868
-0.047944438 0.033911943 0.6638999
-0.047426291 0.032388717 0.66237444
-0.046919368 0.030898124 0.660882
-0.046423033 0.029439002 0.65942067
-0.045937218 0.028010547 0.65799034
-0.045461468 0.026611596 0.65658963
-0.044995341 0.025241315 0.65521729
-0.044538803 0.0238989 0.65387321
-0.04409131 0.022583365 0.6525557
-0.043652844 0.021294087 0.65126479
-0.043223012 0.0200302 0.64999926
-0.042801447 0.018790901 0.64875811
-0.042388137 0.017575622 0.64754128
-0.041982621 0.016383499 0.64634734
-0.041584905 0.015213996 0.64517641
-0.041194651 0.014066488 0.64402747
-0.040811546 0.012940258 0.64289957
-0.040435608 0.0118348 0.64179271
-0.040066425 0.010749549 0.64070576
-0.039704029 0.0096839368 0.63963884
-0.039348125 0.0086374581 0.63859099
-0.038998451 0.0076094866 0.6375615
-0.038655035 0.0065996349 0.63655043
-0.038317516 0.005607456 0.63555676
-0.037985936 0.0046324432 0.63458049
-0.037660044 0.0036741793 0.63362098
-0.037339605 0.0027321875 0.63267756
-0.037024658 0.0018060803 0.63175035
-0.0367149 0.00089550018 0.63083839
-0.036410365 2.9802322e-08 0.6299417
-0.036110841 -0.00088074803 0.62905991
-0.035816122 -0.0017471313 0.62819219
-0.035526253 -0.0025994778 0.62733877
-0.035240959 -0.0034381449 0.62649882
-0.034960292 -0.0042634308 0.62567252
-0.034684058 -0.0050756931 0.62485921
-0.034889124 -0.0059566498 0.62546301
-0.03517396 -0.0068631768 0.62630153
-0.035463478 -0.0077846646 0.62715399
-0.035757799 -0.0087214112 0.62802052
-0.036056973 -0.009673804 0.6289013
-0.03636127 -0.01064229 0.62979722
-0.036670752 -0.011627287 0.6307084
-0.036985546 -0.012629181 0.63163519
-0.037305795 -0.01364845 0.63257802
-0.037631631 -0.014685482 0.63353735
-0.037963122 -0.015740782 0.63451338
-0.038300596 -0.016814858 0.63550687
-0.038644128 -0.017908216 0.63651824
-0.038993876 -0.019021362 0.63754797
-0.039350014 -0.020154864 0.63859653
-0.039712612 -0.021309197 0.63966411
-0.04008206 -0.022485048 0.64075184
-0.040458448 -0.023682982 0.64185995
-0.040841971 -0.024903595 0.6429891
-0.041232836 -0.026147634 0.64413989
-0.04163114 -0.027415603 0.64531255
-0.042037327 -0.028708398 0.64650846
-0.042451523 -0.030026674 0.64772791
-0.04287396 -0.031371176 0.64897162
-0.04330489 -0.032742709 0.65024036
-0.043744568 -0.034142077 0.65153486
-0.044193141 -0.035570055 0.65285552
-0.04465114 -0.037027746 0.65420395
-0.045118731 -0.038515955 0.65558058
-0.045596216 -0.040035695 0.65698642
-0.046083916 -0.041587889 0.65842223
-0.046582162 -0.043173671 0.65988916
-0.04709116 -0.044794023 0.6613878
-0.047611546 -0.046450287 0.66291988
-0.048143566 -0.048143536 0.66448617
-0.048687607 -0.049875081 0.66608793
-0.049244083 -0.051646203 0.66772628
-0.049813267 -0.053458095 0.66940212
-0.050395928 -0.055312574 0.67111754
-0.050992381 -0.057210892 0.67287356
-0.05160312 -0.059154749 0.67467171
-0.052228667 -0.061145723 0.67651337
-0.05286957 -0.063185573 0.67840034
-0.060821634 0.076027066 0.70628923
-0.059969936 0.073463202 0.70371902
-0.059141759 0.070970148 0.70121974
-0.058335923 0.068544716 0.69878793
-0.057551969 0.066184759 0.6964221
-0.056788594 0.063887209 0.69411844
-0.056045409 0.061649978 0.6918757
-0.055321425 0.059470534 0.68969083
-0.054615714 0.057346523 0.68756121
-0.053927969 0.055276185 0.68548572
-0.053257149 0.053257167 0.68346131
-0.052602988 0.051287919 0.68148726
-0.051964704 0.049366504 0.67956108
-0.051341552 0.047490984 0.67768055
-0.050733335 0.045660049 0.67584509
-0.050139196 0.04387185 0.67405212
-0.049558975 0.042125165 0.67230111
-0.04899203 0.040418446 0.67059022
-0.048437752 0.038750231 0.66891754
-0.047896031 0.037119418 0.66728276
-0.047366142 0.035524637 0.66568369
-0.046847995 0.033964813 0.66412002
-0.046341058 0.032438755 0.66259021
-0.045844842 0.030945271 0.66109276
-0.045359269 0.029483557 0.65962744
-0.044883747 0.02805236 0.6581924
-0.044418219 0.026650965 0.65678751
-0.043962248 0.0252783 0.65541154
-0.043515421 0.0239335 0.65406311
-0.043077707 0.02261579 0.65274221
-0.042648595 0.021324337 0.65144718
-0.042228058 0.020058364 0.65017819
-0.041815739 0.018817097 0.64893389
-0.041411277 0.017599791 0.6477133
-0.041014679 0.01640591 0.64651644
-0.040625498 0.01523459 0.64534199
-0.040243734 0.014085323 0.64418989
-0.039869081 0.012957454 0.64305931
-0.039501235 0.011850387 0.64194924
-0.039140221 0.010763586 0.64085978
-0.038785644 0.0096964538 0.6397897
-0.03843753 0.0086484849 0.63873923
-0.038095608 0.0076191127 0.63770735
-0.037759621 0.0066079497 0.63669348
-0.037429605 0.0056144893 0.63569748
-0.037105218 0.0046381652 0.63471866
-0.036786485 0.0036786497 0.63375676
-0.036473192 0.0027354956 0.63281131
-0.0361651 0.0018082559 0.63188154
-0.035862252 0.00089657307 0.63096762
-0.035564356 2.9802322e-08 0.6300686
-0.035271447 -0.00088176131 0.62918472
-0.034983322 -0.0017491579 0.62831521
-0.03469979 -0.002602458 0.62745959
-0.034420889 -0.0034420788 0.62661797
-0.034146365 -0.0042682588 0.62578952
-0.033876259 -0.0050814152 0.62497437
-0.034081277 -0.0059642196 0.62559307
-0.034359865 -0.0068719387 0.62643373
-0.034642972 -0.0077946484 0.6272881
-0.034930859 -0.0087327063 0.6281569
-0.03522357 -0.0096864402 0.62904024
-0.035521232 -0.010656327 0.62993848
-0.035823964 -0.011642754 0.6308521
-0.0361319 -0.012646139 0.6317814
-0.036445092 -0.013666898 0.63272649
-0.036763851 -0.014705509 0.63368845
-0.03708823 -0.015762478 0.63466734
-0.037418388 -0.016838253 0.63566363
-0.037754476 -0.017933339 0.63667792
-0.038096655 -0.019048333 0.63771051
-0.038444996 -0.020183593 0.63876176
-0.038799867 -0.021339893 0.63983268
-0.039161351 -0.022517741 0.6409235
-0.039529633 -0.023717731 0.64203495
-0.039904907 -0.02494055 0.64316744
-0.040287267 -0.026186705 0.64432132
-0.040677134 -0.027457029 0.6454978
-0.041074622 -0.028752238 0.64669734
-0.041479953 -0.030072927 0.64792055
-0.041893363 -0.031420022 0.64916813
-0.042315096 -0.032794207 0.65044081
-0.042745288 -0.034196228 0.651739
-0.043184441 -0.035627127 0.65306431
-0.043632712 -0.037087798 0.65441704
-0.044090383 -0.038579077 0.6557982
-0.044557758 -0.040101945 0.65720862
-0.04503502 -0.041657358 0.65864891
-0.045522746 -0.043246597 0.66012073
-0.046021156 -0.044870615 0.66162485
-0.046530597 -0.046530575 0.66316223
-0.047051441 -0.048227698 0.66473401
-0.047584083 -0.049963266 0.66634142
-0.048128769 -0.051738411 0.66798514
-0.048686225 -0.053554833 0.66966736
-0.049256746 -0.055413783 0.6713891
-0.049840793 -0.057316899 0.67315161
-0.050438859 -0.059265643 0.67495644
-0.051051281 -0.061261505 0.6768046
-0.051678937 -0.063306689 0.67869866
-0.059421618 0.076181561 0.70666224
-0.058587853 0.073610425 0.70408165
-0.057776943 0.071110129 0.7015717
-0.056988392 0.068678349 0.69913107
-0.056220859 0.066311777 0.69675547
-0.055473935 0.064008385 0.69444358
-0.054746397 0.061765224 0.69219178
-0.054037888 0.059580237 0.68999887
-0.053347487 0.057451159 0.68786192
-0.052674316 0.055375576 0.68577838
-0.052018102 0.053351909 0.68374735
-0.051378042 0.051378071 0.68176621
-0.050753366 0.049452037 0.67983276
-0.050143868 0.047572374 0.67794627
-0.049548671 0.045737237 0.67610407
-0.048967596 0.043945312 0.67430556
-0.048399832 0.042194754 0.67254829
-0.047845244 0.040484458 0.67083168
-0.047303218 0.038812935 0.66915405
-0.046773192 0.037178725 0.66751355
-0.046255052 0.035580814 0.66590977
-0.045748126 0.034017861 0.66434085
-0.045252327 0.032488883 0.66280621
-0.04476716 0.030992687 0.66130459
-0.044292156 0.029528141 0.65983438
-0.043827254 0.028094411 0.65839541
-0.043371882 0.026690423 0.656986
-0.042926002 0.025315374 0.65560591
-0.042489197 0.023968279 0.65425396
-0.042061072 0.022648275 0.65292883
-0.041641604 0.021354705 0.65163052
-0.041230306 0.020086586 0.65035754
-0.040827166 0.018843323 0.64910972
-0.040431835 0.01762414 0.6478861
-0.040043972 0.016428351 0.6466856
-0.039663594 0.015255243 0.64550835
-0.039290268 0.014104217 0.64435279
-0.038924005 0.012974709 0.64321917
-0.038564507 0.011866033 0.64210647
-0.038211491 0.010777622 0.64101386
-0.037864979 0.0097089708 0.63994133
-0.037524596 0.0086595416 0.63888782
-0.037190374 0.0076288283 0.63785332
-0.036862049 0.0066162646 0.63683712
-0.036539383 0.0056214631 0.63583839
-0.036222406 0.0046439171 0.63485736
-0.035910796 0.0036831796 0.63389283
-0.035604585 0.0027388334 0.63294506
-0.035303552 0.0018104911 0.63201332
-0.035007481 0.00089761615 0.63109696
-0.03471642 2.9802322e-08 0.63019603
-0.034430075 -0.00088277459 0.62930977
-0.034148499 -0.0017511845 0.62843829
-0.033871491 -0.002605468 0.62758088
-0.033598859 -0.0034460127 0.62673712
-0.03333066 -0.0042731464 0.62590694
-0.033066709 -0.005087167 0.62509
-0.033271376 -0.0059717596 0.62572348
-0.03354362 -0.0068807304 0.62656611
-0.033820428 -0.0078046918 0.62742287
-0.034101844 -0.0087440014 0.62829387
-0.034387987 -0.009699136 0.62917948
-0.03467897 -0.010670453 0.63008022
-0.034974921 -0.011658311 0.63099617
-0.03527588 -0.012663096 0.63192773
-0.035582148 -0.013685435 0.63287568
-0.035893787 -0.014725626 0.6338402
-0.036210924 -0.015784204 0.63482177
-0.036533721 -0.016861647 0.63582087
-0.036862321 -0.017958522 0.63683796
-0.0371968 -0.019075245 0.63787323
-0.037537497 -0.020212471 0.6389277
-0.037884485 -0.021370739 0.64000171
-0.038237955 -0.022550583 0.6410957
-0.038598083 -0.02375266 0.64221042
-0.038964953 -0.024977505 0.64334589
-0.039338969 -0.026225954 0.64450353
-0.039720234 -0.027498603 0.64568365
-0.040108968 -0.028796166 0.64688683
-0.040505379 -0.03011933 0.64811373
-0.040909708 -0.031468987 0.64936525
-0.041322075 -0.032845736 0.65064156
-0.041742958 -0.034250587 0.65194422
-0.042172503 -0.035684407 0.65327376
-0.042610973 -0.037147999 0.6546309
-0.043058664 -0.038642347 0.65601653
-0.043515734 -0.040168345 0.65743124
-0.04398274 -0.041727215 0.65887666
-0.044459879 -0.043319851 0.66035354
-0.044947483 -0.044947475 0.66186273
-0.045445904 -0.04661113 0.66340536
-0.045955498 -0.048312157 0.66498268
-0.046476509 -0.05005163 0.66659528
-0.047009617 -0.051831067 0.66824532
-0.047555093 -0.053651899 0.66993368
-0.04811338 -0.055515409 0.67166162
-0.048684932 -0.057423234 0.67343062
-0.049270064 -0.059376717 0.67524171
-0.049869593 -0.061377943 0.67709738
-0.050483897 -0.063428462 0.67899871
-0.058015667 0.076336414 0.70703608
-0.0572 0.073757887 0.704445
-0.056406952 0.071250916 0.70192587
-0.055635381 0.068812221 0.69947493
-0.05488484 0.066439569 0.69709074
-0.054154076 0.064129829 0.69476938
-0.053442713 0.061881036 0.69250965
-0.052749801 0.059690565 0.69030857
-0.052074432 0.057555944 0.68816316
-0.051416326 0.055475503 0.68607265
-0.050774466 0.0534468 0.68403375
-0.05014861 0.051468313 0.68204564
-0.049537826 0.049537838 0.68010539
-0.048941903 0.047653973 0.6782124
-0.048360147 0.045814902 0.67636436
-0.047791902 0.044018894 0.67455935
-0.047237009 0.04226473 0.67279667
-0.046694856 0.040550798 0.67107445
-0.046164859 0.038875699 0.66939086
-0.045646902 0.03723827 0.66774553
-0.045140296 0.03563711 0.66613621
-0.044644952 0.034071147 0.6645627
-0.044160359 0.032539248 0.66302335
-0.043686043 0.031040132 0.66151667
-0.043221939 0.029572964 0.66004241
-0.042767461 0.028136522 0.65859866
-0.042322569 0.026730061 0.65718544
-0.041886836 0.025352567 0.6558013
-0.041459866 0.024003088 0.65444499
-0.041041628 0.022680938 0.65311641
-0.04063163 0.021385074 0.65181404
-0.040229853 0.020114958 0.65053773
-0.039835945 0.018869668 0.64928645
-0.039449565 0.017648518 0.64805907
-0.039070722 0.016450852 0.64685559
-0.038698975 0.015275896 0.64567477
-0.03833434 0.014123231 0.64451641
-0.037976414 0.012991935 0.64337945
-0.037625205 0.011881649 0.64226377
-0.037280433 0.010791719 0.64116859
-0.03694183 0.0097215772 0.64009303
-0.036609415 0.0086706877 0.63903707
-0.036282923 0.0076385438 0.63799989
-0.03596212 0.0066245794 0.63698089
-0.035647027 0.0056284666 0.63597989
-0.035337321 0.0046496689 0.63499612
-0.035033032 0.0036877096 0.63402951
-0.034733944 0.0027421713 0.63307947
-0.034439832 0.0018126369 0.63214517
-0.034150746 0.00089871883 0.63122684
-0.033866391 -0 0.63032359
-0.033586808 -0.00088384748 0.62943542
-0.033311807 -0.0017532408 0.62856185
-0.033041194 -0.0026085079 0.62770224
-0.032775015 -0.0034499764 0.62685668
-0.032513022 -0.0042779744 0.62602448
-0.032255251 -0.0050928891 0.62520564
-0.032459348 -0.0059793293 0.62585396
-0.032725357 -0.0068895221 0.62669897
-0.032995764 -0.007814765 0.62755793
-0.033270679 -0.0087554157 0.62843126
-0.03355021 -0.0097118914 0.62931919
-0.03383448 -0.01068452 0.6302222
-0.034123529 -0.011673808 0.63114041
-0.03441764 -0.012680173 0.63207471
-0.034716863 -0.013704032 0.63302517
-0.035021335 -0.014745831 0.63399237
-0.035331197 -0.015806019 0.63497669
-0.035646498 -0.016885132 0.63597822
-0.035967574 -0.017983764 0.63699818
-0.036294483 -0.019102335 0.63803667
-0.036627389 -0.02024141 0.63909417
-0.036966458 -0.021401614 0.64017123
-0.037311863 -0.022583485 0.64126849
-0.037663691 -0.023787588 0.64238608
-0.038022313 -0.025014639 0.64352524
-0.038387828 -0.026265323 0.64468634
-0.038760439 -0.027540267 0.64586997
-0.039140359 -0.028840244 0.64707685
-0.039527688 -0.030165881 0.64830726
-0.039922871 -0.031518012 0.6495626
-0.040326037 -0.032897532 0.65084326
-0.040737428 -0.034305185 0.65215003
-0.041157302 -0.035741836 0.65348387
-0.041585919 -0.037208438 0.65484536
-0.042023432 -0.038705766 0.65623522
-0.042470373 -0.040235102 0.65765494
-0.042926926 -0.041797251 0.6591053
-0.043393403 -0.043393403 0.66058707
-0.043870129 -0.045024574 0.66210145
-0.044357441 -0.046691984 0.66364944
-0.044855572 -0.048396766 0.6652317
-0.045365151 -0.050140411 0.66685051
-0.045886446 -0.051924109 0.66850644
-0.046419859 -0.053749293 0.67020088
-0.046965819 -0.055617392 0.6719352
-0.04752462 -0.057529777 0.67371023
-0.048097037 -0.059488416 0.67552865
-0.048683409 -0.061494797 0.67739129
-0.049284257 -0.06355074 0.67929989
-0.056604218 0.07649219 0.70741224
-0.055806573 0.073906034 0.7048099
-0.055031311 0.07139197 0.70228064
-0.054277293 0.068946868 0.6998207
-0.05354346 0.06656757 0.69742662
-0.052829396 0.064251989 0.69509697
-0.05213394 0.061997145 0.69282812
-0.051456738 0.059801131 0.69061875
-0.050796911 0.057661384 0.68846619
-0.050153606 0.055575639 0.68636739
-0.049526572 0.053542286 0.6843217
-0.04891485 0.051558882 0.68232596
-0.048318222 0.049624145 0.68037951
-0.047735967 0.047736019 0.67847991
-0.047167424 0.045892656 0.67662513
-0.046612423 0.044092864 0.67481446
-0.046070173 0.042334765 0.6730454
-0.045540545 0.040617287 0.67131746
-0.045022957 0.038938791 0.66962886
-0.044516861 0.037297904 0.66797781
-0.044022154 0.035693645 0.66636378
-0.043538183 0.034124553 0.66478491
-0.043064874 0.032589674 0.66324073
-0.042601742 0.031087786 0.66172981
-0.042148344 0.029617786 0.6602506
-0.04170461 0.028178811 0.65880299
-0.04127001 0.026769757 0.65738511
-0.040844489 0.02538985 0.65599686
-0.040427655 0.024038076 0.65463692
-0.040019125 0.022713572 0.65330416
-0.03961888 0.021415651 0.65199834
-0.039226457 0.02014336 0.65071809
-0.038841836 0.018896073 0.6494633
-0.038464688 0.017672986 0.64823282
-0.038094688 0.016473383 0.64702576
-0.037731837 0.015296698 0.64584196
-0.037375737 0.014142185 0.6446802
-0.037026394 0.01300931 0.6435405
-0.036683518 0.011897385 0.64242184
-0.036346842 0.010805845 0.64132351
-0.036016382 0.0097341835 0.64024538
-0.035691787 0.0086818039 0.63918638
-0.035373077 0.0076482594 0.63814664
-0.035060007 0.0066329837 0.63712525
-0.034752347 0.0056355298 0.63612151
-0.034450125 0.0046554506 0.63513553
-0.034153029 0.0036922395 0.6341663
-0.033861097 0.0027455091 0.63321388
-0.033574115 0.001814872 0.63227761
-0.033291873 0.00089982152 0.63135684
-0.033014417 2.9802322e-08 0.63045162
-0.032741468 -0.00088489056 0.62956119
-0.032473076 -0.0017552674 0.62868547
-0.032209046 -0.0026115179 0.62782407
-0.0319492 -0.00345397 0.62697643
-0.031693589 -0.0042829216 0.6261425
-0.03144196 -0.0050986707 0.62532157
-0.031645328 -0.0059869587 0.62598503
-0.031904999 -0.0068983436 0.62683219
-0.03216897 -0.007824868 0.62769341
-0.032437343 -0.0087668598 0.62856895
-0.032710157 -0.009724617 0.62945902
-0.032987673 -0.010698676 0.63036442
-0.033269942 -0.011689425 0.63128525
-0.033557083 -0.01269725 0.63222206
-0.033849221 -0.013722628 0.63317513
-0.034146491 -0.014766037 0.63414496
-0.034448948 -0.015827894 0.63513172
-0.034756891 -0.016908735 0.63613641
-0.03507039 -0.018009096 0.63715917
-0.035389602 -0.019129455 0.63820052
-0.035714671 -0.020270497 0.63926107
-0.036045771 -0.021432608 0.64034128
-0.036382977 -0.022616416 0.64144135
-0.036726639 -0.023822635 0.64256251
-0.037076861 -0.025051892 0.64370513
-0.037433825 -0.026304871 0.64486974
-0.037797727 -0.027582109 0.64605695
-0.038168672 -0.028884381 0.6472671
-0.038547076 -0.030212551 0.64850163
-0.038933061 -0.031567305 0.6497609
-0.03932685 -0.032949477 0.65104562
-0.03972869 -0.034359902 0.65235662
-0.040138826 -0.035799503 0.65369463
-0.040557396 -0.037268966 0.65506023
-0.04098491 -0.038769484 0.65645492
-0.04142154 -0.040302038 0.65787941
-0.041867565 -0.041867524 0.65933454
-0.042323299 -0.043467164 0.66082144
-0.042788941 -0.045101851 0.66234052
-0.043265071 -0.046772987 0.66389382
-0.043751918 -0.048481822 0.66548216
-0.044249844 -0.05022952 0.66710663
-0.044759233 -0.052017421 0.66876847
-0.045280494 -0.053847045 0.67046911
-0.045813881 -0.055719584 0.67220926
-0.046360143 -0.057636917 0.67399138
-0.046919584 -0.059600532 0.67581654
-0.047492694 -0.061612129 0.67768621
-0.048079982 -0.063673496 0.67960227
-0.055186771 0.076648325 0.70778906
-0.054407753 0.074055046 0.70517695
-0.053650212 0.07153365 0.70263684
-0.052913681 0.069081783 0.70016724
-0.052197095 0.066696316 0.69776446
-0.051499471 0.064374357 0.69542527
-0.050820433 0.062113911 0.69314837
-0.050158884 0.059912026 0.69093019
-0.049514521 0.057766974 0.68876958
-0.048886497 0.055676311 0.68666375
-0.04827404 0.053637832 0.68461019
-0.047676906 0.051650017 0.68260789
-0.0470942 0.049710572 0.68065405
-0.046525721 0.047818124 0.67874789
-0.045970805 0.045970827 0.67688721
-0.045428816 0.044166923 0.67506993
-0.044899609 0.042405248 0.67329544
-0.044382446 0.040683955 0.67156136
-0.043877203 0.039001971 0.66986722
-0.04338333 0.037357897 0.66821122
-0.04290032 0.03575027 0.6665917
-0.042428076 0.034178197 0.66500819
-0.041965988 0.032640249 0.66345876
-0.041513979 0.031135529 0.6619432
-0.041071609 0.029662877 0.66045988
-0.040638443 0.02822116 0.65900743
-0.040214434 0.026809663 0.65758574
-0.039799072 0.025427222 0.6561929
-0.039392315 0.024073124 0.65482903
-0.038993787 0.022746384 0.65349275
-0.038603131 0.021446228 0.65218288
-0.038220335 0.020171851 0.65089935
-0.037844952 0.018922508 0.64964062
-0.037476968 0.017697483 0.64840674
-0.037116077 0.016496032 0.64719665
-0.036761969 0.0153175 0.64600933
-0.036414653 0.014161289 0.64484477
-0.036073741 0.013026625 0.64370167
-0.035739247 0.011913121 0.64258009
-0.0354109 0.010820031 0.64147907
-0.035088439 0.0097467899 0.64039785
-0.034771886 0.0086930096 0.63933641
-0.03446091 0.0076580048 0.63829368
-0.034155529 0.0066413581 0.63726974
-0.033855516 0.0056425929 0.63626379
-0.033560641 0.0046612024 0.63527507
-0.033270944 0.0036967993 0.63430369
-0.032986123 0.0027488768 0.63334864
-0.032706216 0.0018170178 0.63241005
-0.032431018 0.0009008944 0.63148731
-0.032160338 2.9802322e-08 0.63057971
-0.031894214 -0.00088593364 0.62968743
-0.031632386 -0.0017573237 0.62880945
-0.03137489 -0.0026145577 0.62794602
-0.031121556 -0.0034579337 0.62709659
-0.030872211 -0.0042878091 0.62626052
-0.030626897 -0.0051044822 0.62543797
-0.030829238 -0.0059945285 0.62611639
-0.031082537 -0.0069071949 0.62696576
-0.031340037 -0.007834971 0.62782919
-0.031601761 -0.0087782145 0.62870675
-0.03186797 -0.0097374022 0.62959945
-0.032138702 -0.010712892 0.63050717
-0.032414075 -0.011705071 0.63143051
-0.032694206 -0.012714416 0.63236982
-0.03297922 -0.013741314 0.63332546
-0.033269167 -0.014786273 0.63429767
-0.03356434 -0.015849799 0.6352874
-0.033864796 -0.016932338 0.63629484
-0.03417068 -0.018034488 0.63732052
-0.034482144 -0.019156694 0.63836491
-0.034799334 -0.020299584 0.63942844
-0.035122328 -0.021463633 0.64051151
-0.035451461 -0.022649527 0.64161509
-0.035786826 -0.023857862 0.64273959
-0.036128588 -0.025089294 0.64388555
-0.036476947 -0.026344448 0.64505363
-0.03683199 -0.027623981 0.64624417
-0.037194114 -0.028928757 0.64745831
-0.037563428 -0.030259401 0.64869672
-0.037940152 -0.031616777 0.64995992
-0.038324505 -0.033001631 0.65124857
-0.038716726 -0.034414858 0.65256381
-0.039116949 -0.035857171 0.65390575
-0.039525643 -0.037329763 0.65527618
-0.039942972 -0.038833439 0.65667546
-0.040369201 -0.040369213 0.65810466
-0.040804628 -0.041938037 0.65956467
-0.041249432 -0.043541014 0.6610561
-0.041704163 -0.045179486 0.66258085
-0.042169031 -0.046854466 0.66413963
-0.042644378 -0.048567176 0.66573346
-0.043130565 -0.050318956 0.66736364
-0.043627825 -0.05211094 0.66903102
-0.04413683 -0.053945005 0.6707378
-0.044657853 -0.055822313 0.67248482
-0.045191322 -0.057744443 0.67427355
-0.045737691 -0.059713066 0.67610562
-0.046297435 -0.061729878 0.67798239
-0.046870884 -0.063796461 0.67990524
-0.053763747 0.076805383 0.70816821
-0.053003073 0.074204326 0.70554471
-0.052263826 0.071676135 0.70299518
-0.05154492 0.069217503 0.70051575
-0.050845321 0.06682533 0.69810295
-0.050164655 0.064497441 0.69575542
-0.049501784 0.062230825 0.69346929
-0.048856385 0.060023576 0.69124335
-0.048227601 0.05787313 0.68907475
-0.047614623 0.055777133 0.6869607
-0.047017194 0.053733975 0.68490016
-0.046434414 0.051741242 0.6828903
-0.045866061 0.049797446 0.68093014
-0.045311302 0.047900558 0.67901677
-0.044769946 0.046049088 0.67714977
-0.044241376 0.044241369 0.67532676
-0.043725003 0.04247573 0.67354584
-0.04322068 0.040750921 0.67180651
-0.042727862 0.03906551 0.67010683
-0.042246014 0.037417948 0.66844499
-0.041775052 0.035807222 0.6668207
-0.041314341 0.034231901 0.66523176
-0.040863808 0.032691061 0.66367793
-0.040422872 0.031183392 0.66215718
-0.039991472 0.029707938 0.66066933
-0.03956918 0.028263748 0.65921295
-0.039155599 0.026849538 0.65778655
-0.038750689 0.025464743 0.65639007
-0.038353957 0.024108201 0.65502179
-0.037965372 0.022779286 0.65368158
-0.037584584 0.021476924 0.65236831
-0.037211254 0.020200402 0.65108073
-0.036845371 0.018949062 0.64981884
-0.03648651 0.01772207 0.64858115
-0.036134675 0.016518742 0.64736772
-0.035789557 0.015338391 0.64617741
-0.035450876 0.014180392 0.6450094
-0.035118636 0.013044059 0.6438635
-0.034792472 0.011928856 0.64273864
-0.034472402 0.010834217 0.64163476
-0.03415817 0.0097594559 0.64055103
-0.033849526 0.0087041855 0.63948655
-0.033546496 0.0076677799 0.63844144
-0.03324876 0.0066497624 0.63741457
-0.032956343 0.0056496561 0.63640606
-0.032669026 0.0046670139 0.63541514
-0.032386597 0.003701359 0.63444108
-0.032109085 0.0027522445 0.63348401
-0.031836215 0.0018192232 0.63254291
-0.031568017 0.00090196729 0.6316179
-0.0313043 2.9802322e-08 0.63070834
-0.03104488 -0.00088697672 0.62981367
-0.030789796 -0.0017593801 0.62893391
-0.030538801 -0.0026175976 0.62806827
-0.030291932 -0.0034619272 0.62721682
-0.030049022 -0.0042927265 0.62637907
-0.029809913 -0.005110234 0.62555438
-0.030011067 -0.0060021877 0.62624818
-0.030257961 -0.0069160759 0.62709969
-0.030508883 -0.0078451335 0.62796509
-0.030764071 -0.0087897182 0.62884521
-0.031023564 -0.009750247 0.62974018
-0.031287473 -0.010727108 0.63065034
-0.03155591 -0.011720747 0.63157618
-0.031828992 -0.012731612 0.63251799
-0.032106765 -0.01376003 0.63347596
-0.03238951 -0.014806598 0.63445109
-0.032677278 -0.015871793 0.63544363
-0.032970205 -0.016956061 0.63645387
-0.033268429 -0.018059969 0.6374824
-0.033572014 -0.019183993 0.63852942
-0.033881277 -0.02032876 0.63959605
-0.034196291 -0.021494776 0.64068246
-0.034517217 -0.022682697 0.64178932
-0.034844227 -0.023893148 0.6429171
-0.035177488 -0.025126755 0.64406657
-0.035517093 -0.026384085 0.64523774
-0.035863411 -0.027666032 0.64643216
-0.036216557 -0.028973252 0.64765012
-0.036576722 -0.030306369 0.64889228
-0.036944125 -0.031666368 0.65015948
-0.037318878 -0.033053845 0.65145189
-0.037701417 -0.034469843 0.65277123
-0.038091883 -0.035915196 0.65411794
-0.038490519 -0.037390769 0.65549272
-0.038897589 -0.038897574 0.65689671
-0.039313357 -0.040436566 0.65833062
-0.039737992 -0.042008698 0.65979511
-0.040172026 -0.043615311 0.66129208
-0.040615641 -0.045257419 0.66282207
-0.041069165 -0.046936184 0.66438627
-0.041532934 -0.048652858 0.66598564
-0.042007159 -0.050408542 0.6676212
-0.042492479 -0.052205026 0.66929501
-0.042989142 -0.054043472 0.67100793
-0.043497551 -0.055925369 0.67276138
-0.044018131 -0.057852387 0.67455679
-0.044551324 -0.059826046 0.67639571
-0.04509744 -0.061847866 0.67827916
-0.045657266 -0.06392014 0.68020999
-0.052334666 0.076962769 0.70854819
-0.05159292 0.074354529 0.70591474
-0.050871707 0.071818888 0.70335424
-0.050170571 0.069353431 0.70086503
-0.0494885 0.06695506 0.69844341
-0.048824545 0.064620733 0.69608623
-0.048178345 0.062348455 0.69379199
-0.047548853 0.060135335 0.69155705
-0.046935767 0.057979524 0.68938041
-0.046338294 0.05587855 0.6872592
-0.045755681 0.053830236 0.68519068
-0.045187689 0.051832974 0.68317419
-0.04463347 0.049884468 0.68120658
-0.044092838 0.047983408 0.67928714
-0.043565139 0.046127826 0.67741364
-0.043049786 0.044315964 0.67558396
-0.042546619 0.04254666 0.67379761
-0.042054944 0.040818065 0.67205197
-0.041574631 0.039129078 0.67034674
-0.04110517 0.037478268 0.66867995
-0.040646061 0.035864204 0.66705
-0.040197227 0.034285903 0.66545647
-0.039758068 0.032741964 0.6638974
-0.039328523 0.031231493 0.66237229
-0.038908157 0.029753298 0.66087991
-0.038496576 0.028306335 0.65941864
-0.03809372 0.026889712 0.65798837
-0.037699092 0.025502354 0.65658736
-0.037312672 0.024143487 0.65521538
-0.036934089 0.022812247 0.65387136
-0.036563009 0.021507651 0.65255392
-0.036199413 0.020229101 0.651263
-0.035842881 0.018975675 0.64999723
-0.035493392 0.017746717 0.64875644
-0.035150662 0.016541511 0.64753962
-0.034814388 0.015359312 0.64634573
-0.034484584 0.014199555 0.64517486
-0.034160875 0.013061494 0.64402556
-0.033843279 0.011944741 0.64289796
-0.033531532 0.010848463 0.64179122
-0.033225391 0.0097722113 0.64070427
-0.032924872 0.0087154508 0.63963735
-0.032629661 0.0076775849 0.63858926
-0.032339778 0.0066582263 0.63756001
-0.032054998 0.0056567788 0.636549
-0.031775109 0.0046728253 0.63555533
-0.03150015 0.0037059486 0.63457918
-0.031229828 0.0027555823 0.63361937
-0.030964179 0.0018214285 0.63267624
-0.030703014 0.00090306997 0.63174903
-0.030446146 2.9802322e-08 0.63083708
-0.030193608 -0.0008880496 0.62994051
-0.029945159 -0.0017614663 0.62905842
-0.029700832 -0.0026206672 0.62819099
-0.02946046 -0.0034659207 0.62733757
-0.029223882 -0.0042976141 0.62649763
-0.028991139 -0.0051161051 0.62567139
-0.029190807 -0.0060098469 0.62638021
-0.029431198 -0.0069249868 0.62723368
-0.029675646 -0.0078552663 0.62810159
-0.02992419 -0.0088012218 0.62898397
-0.030176932 -0.0097630918 0.62988126
-0.030433981 -0.010741353 0.63079387
-0.030695444 -0.011736453 0.63172215
-0.030961366 -0.012748748 0.63266629
-0.031232011 -0.013778806 0.63362712
-0.031507429 -0.014827043 0.63460493
-0.031787749 -0.015893847 0.63560021
-0.032073099 -0.016979843 0.63661325
-0.032363541 -0.01808551 0.63764441
-0.032659374 -0.019211382 0.63869476
-0.032960661 -0.020358026 0.63976437
-0.033267561 -0.021526039 0.640854
-0.033580229 -0.022716016 0.64196408
-0.033898834 -0.023928583 0.6430952
-0.034223448 -0.025164276 0.64424765
-0.034554433 -0.026423991 0.64542282
-0.034891881 -0.027708232 0.64662081
-0.035235986 -0.029017836 0.64784253
-0.035586946 -0.030353546 0.64908856
-0.035944968 -0.031716138 0.65035969
-0.036310166 -0.033106297 0.65165615
-0.03668296 -0.034525096 0.65297973
-0.037063491 -0.0359734 0.65433073
-0.037452001 -0.037451982 0.65571004
-0.037848745 -0.038961917 0.65711862
-0.038253866 -0.040504068 0.65855694
-0.038667873 -0.042079717 0.66002679
-0.039090935 -0.043689847 0.66152883
-0.039523359 -0.045335591 0.663064
-0.039965458 -0.047018141 0.66463363
-0.040417559 -0.048738807 0.66623873
-0.040879879 -0.050498664 0.66788018
-0.041353025 -0.05229938 0.66955996
-0.041837253 -0.054142296 0.67127907
-0.042332955 -0.056028873 0.67303902
-0.042840548 -0.057960749 0.67484117
-0.043360312 -0.059939206 0.67668641
-0.043892995 -0.061966568 0.67857766
-0.044438925 -0.064044327 0.68051583
-0.050899923 0.077121109 0.70893049
-0.050176848 0.074505061 0.70628554
-0.049474221 0.071962535 0.70371544
-0.048791006 0.069490254 0.70121628
-0.048126213 0.067085057 0.69878459
-0.047479473 0.064744741 0.69641888
-0.046849716 0.062466323 0.69411528
-0.046236616 0.060247749 0.6918726
-0.04563918 0.058086276 0.68968725
-0.045057155 0.055980116 0.68755829
-0.04448979 0.053927064 0.68548292
-0.043936379 0.051924855 0.68345857
-0.043396715 0.049971998 0.68148452
-0.042870004 0.048066378 0.67955792
-0.042356066 0.046206623 0.67767799
-0.041854307 0.044390917 0.67584252
-0.041364156 0.042617649 0.67404962
-0.040885493 0.040885508 0.67229873
-0.040417641 0.039192855 0.67058742
-0.039960511 0.037538707 0.66891527
-0.039513603 0.035921484 0.6672805
-0.039076459 0.034339964 0.66568148
-0.038649 0.032793105 0.66411793
-0.038230676 0.031279683 0.66258764
-0.037821423 0.029798716 0.66109061
-0.037420843 0.028349131 0.65962541
-0.037028547 0.026929885 0.65819037
-0.036644496 0.025540143 0.65678561
-0.036268231 0.024178863 0.65540922
-0.03589971 0.022845298 0.65406126
-0.035538606 0.021538556 0.65274036
-0.035184599 0.020257831 0.65144539
-0.034837663 0.019002408 0.65017641
-0.034497414 0.017771393 0.6489318
-0.03416384 0.01656431 0.64771163
-0.033836655 0.015380353 0.64651477
-0.033515587 0.014218748 0.64534032
-0.03320064 0.013079077 0.64418828
-0.032891475 0.011960566 0.64305741
-0.032588098 0.010862708 0.64194769
-0.032290265 0.0097849369 0.64085829
-0.031997748 0.0087266862 0.63978827
-0.031710561 0.0076874495 0.63873774
-0.031428404 0.0066666305 0.63770568
-0.031151302 0.0056639016 0.63669199
-0.030879045 0.0046786666 0.63569617
-0.030611429 0.0037105083 0.63471723
-0.030348485 0.0027589798 0.63375545
-0.030089952 0.0018236339 0.6328097
-0.029835854 0.00090414286 0.63188022
-0.029586012 2.9802322e-08 0.63096631
-0.02934025 -0.00088909268 0.63006735
-0.029098604 -0.0017635226 0.62918347
-0.02886091 -0.0026237071 0.62831402
-0.028626999 -0.0034699142 0.62745839
-0.028396914 -0.0043025613 0.62661678
-0.028170435 -0.0051218569 0.62578833
-0.028368389 -0.0060175061 0.62651241
-0.028602371 -0.0069338977 0.62736833
-0.028840244 -0.0078655183 0.62823844
