# .PCD v0.7 - Point Cloud Data file format
VERSION 0.7
FIELDS x y z
SIZE 4 4 4
TYPE F F F
COUNT 1 1 1
WIDTH 1311
HEIGHT 1
VIEWPOINT 0 0 0 1 0 0 0
POINTS 1311
DATA ascii
-0.043112516 -0.04703185 0.68044496
-0.043335363 -0.048588127 0.68126011
-0.043560371 -0.050160408 0.68208319
-0.043787882 -0.051749289 0.68291533
-0.044017628 -0.053354681 0.68375576
-0.044249956 -0.054977179 0.6846056
-0.044484593 -0.056616724 0.68546391
-0.04472173 -0.058273762 0.68633127
-0.044961568 -0.059948742 0.68720859
-0.045203827 -0.061641574 0.68809479
-0.045448881 -0.063352972 0.68899119
-0.045696437 -0.065082759 0.68989664
-0.04594687 -0.066831797 0.69081271
-0.046199895 -0.06859982 0.69173825
-0.04330565 0.043305665 0.68610168
-0.031320784 0.030342013 0.64089221
-0.031059671 0.029118448 0.63990724
-0.031178711 0.028255731 0.64035624
-0.031298745 0.027386457 0.64080912
-0.031419627 0.026510328 0.64126509
-0.031541526 0.025627524 0.64172488
-0.031664297 0.024737746 0.64218807
-0.031788107 0.023841113 0.64265507
-0.031912804 0.022937357 0.64312541
-0.032038484 0.022026479 0.64359957
-0.032165244 0.021108478 0.64407772
-0.032292929 0.020183086 0.64455938
-0.032421712 0.019250393 0.64504522
-0.032551441 0.018310249 0.64553452
-0.032682214 0.017362475 0.64602786
-0.032814126 0.016407102 0.64652544
-0.032947026 0.015443951 0.64702678
-0.033081088 0.014472991 0.64753252
-0.03321616 0.013494104 0.64804196
-0.033352431 0.01250717 0.64855599
-0.03348973 0.011512101 0.64907396
-0.033628166 0.010508835 0.64959621
-0.033767845 0.0094972253 0.65012306
-0.033908594 0.0084771216 0.65065402
-0.034050617 0.0074485838 0.65118974
-0.034193739 0.0064113736 0.65172958
-0.034338068 0.0053653419 0.65227407
-0.034483716 0.0043105185 0.65282351
-0.034630511 0.0032466352 0.65337718
-0.034778658 0.002173692 0.65393603
-0.034927979 0.0010915399 0.65449935
-0.035078689 2.9802322e-08 0.65506786
-0.035230599 -0.0011009276 0.6556409
-0.035383835 -0.0022115111 0.65621895
-0.035538513 -0.0033317208 0.65680242
-0.035694446 -0.0044618249 0.65739059
-0.035851855 -0.0056018233 0.65798438
-0.036010552 -0.0067519248 0.65858299
-0.036170769 -0.007912308 0.65918744
-0.036332317 -0.0090830624 0.65979677
-0.036495306 -0.010264248 0.6604116
-0.036659874 -0.011456192 0.66103244
-0.036825821 -0.012658864 0.66165841
-0.036993392 -0.013872504 0.66229057
-0.037162386 -0.015097201 0.66292799
-0.037333038 -0.016333193 0.66357172
-0.037505154 -0.017580509 0.66422099
-0.03767886 -0.018839389 0.66487622
-0.037854306 -0.020110071 0.66553801
-0.038031269 -0.021392584 0.66620559
-0.038210016 -0.022687167 0.66687989
-0.038390335 -0.023993939 0.66756004
-0.03857236 -0.025313079 0.66824669
-0.03875624 -0.026644886 0.66894031
-0.038941763 -0.027989358 0.66964018
-0.03912919 -0.029346853 0.67034715
-0.039318305 -0.030717403 0.67106056
-0.03950939 -0.032101333 0.6717813
-0.039702207 -0.033498704 0.67250872
-0.039896917 -0.034909785 0.67324317
-0.040093675 -0.036334872 0.67398548
-0.040292252 -0.037773937 0.67473447
-0.040492941 -0.039227515 0.67549157
-0.040695507 -0.040695459 0.67625558
-0.040900238 -0.042178363 0.67702794
-0.04110691 -0.043676078 0.67780751
-0.041315675 -0.045189023 0.67859507
-0.041526716 -0.046717525 0.67939115
-0.04173978 -0.048261553 0.6801948
-0.041955188 -0.049821734 0.68100739
-0.042172682 -0.051397949 0.6818279
-0.042392593 -0.052990705 0.68265742
-0.042614657 -0.054599971 0.6834951
-0.042839061 -0.056226224 0.68434155
-0.043065995 -0.057869911 0.68519759
-0.04329519 -0.059530884 0.68606216
-0.043526992 -0.061209798 0.68693662
-0.043761138 -0.062906593 0.68781984
-0.043997969 -0.064621985 0.68871319
-0.044237223 -0.066355824 0.68961579
-0.044479091 -0.068108559 0.69052809
-0.039095294 0.040356457 0.67497659
-0.029826036 0.029826045 0.63888311
-0.029939344 0.028973609 0.63932431
-0.030053593 0.028114676 0.6397692
-0.030168639 0.027249128 0.64021713
-0.030284647 0.026376992 0.64066887
-0.030401472 0.025498062 0.64112377
-0.030519282 0.024612367 0.64158249
-0.030637927 0.023719698 0.64204454
-0.0307575 0.022820085 0.64251012
-0.030878091 0.021913558 0.64297968
-0.030999551 0.0209997 0.64345264
-0.031122047 0.020078748 0.6439296
-0.031245438 0.019150466 0.64441013
-0.031369891 0.018214792 0.64489466
-0.031495258 0.017271578 0.64538288
-0.031621631 0.016320884 0.64587492
-0.031749103 0.015362501 0.6463713
-0.031877525 0.01439631 0.64687139
-0.032007076 0.01342234 0.64737582
-0.032137599 0.012440383 0.64788413
-0.032269187 0.01145041 0.64839649
-0.032401949 0.010452271 0.64891344
-0.032535717 0.0094458759 0.64943427
-0.032670684 0.0084311366 0.64995986
-0.032806687 0.0074080229 0.65048939
-0.032943916 0.0063762665 0.65102381
-0.033082206 0.0053358674 0.65156227
-0.033221662 0.0042866766 0.65210533
-0.033362392 0.0032286644 0.65265328
-0.033504225 0.002161622 0.65320557
-0.033647366 0.0010854304 0.65376294
-0.033791639 2.9802322e-08 0.65432471
-0.033937249 -0.0010946989 0.65489173
-0.034084022 -0.0021989346 0.65546322
-0.034232073 -0.0033127666 0.65603971
-0.034381513 -0.0044363141 0.65662163
-0.034532163 -0.0055696666 0.65720826
-0.034684241 -0.0067130029 0.65780044
-0.034837563 -0.0078665316 0.65839744
-0.034992345 -0.0090302527 0.65900016
-0.035148412 -0.010204375 0.65960789
-0.035305873 -0.011388958 0.66022098
-0.035464857 -0.012584269 0.66084009
-0.035625175 -0.013790369 0.66146433
-0.035787053 -0.015007436 0.66209465
-0.035950299 -0.01623562 0.66273034
-0.036115047 -0.017475009 0.66337186
-0.036281418 -0.018725872 0.6640197
-0.03644922 -0.019988239 0.66467309
-0.036618695 -0.021262437 0.66533297
-0.036789633 -0.022548437 0.66599858
-0.036962297 -0.023846596 0.66667092
-0.037136469 -0.025156915 0.6673491
-0.037312292 -0.026479661 0.66803378
-0.037489906 -0.027815074 0.66872537
-0.0376691 -0.029163122 0.6694231
-0.037850138 -0.030524313 0.67012811
-0.038032793 -0.031898469 0.67083937
-0.038217355 -0.033286035 0.67155802
-0.038403586 -0.034687102 0.67228311
-0.038591638 -0.036101848 0.67301542
-0.038781673 -0.037530631 0.67375541
-0.038973458 -0.038973451 0.67450219
-0.039167281 -0.040430725 0.67525697
-0.039362911 -0.041902453 0.67601871
-0.039560635 -0.043389052 0.67678857
-0.039760221 -0.044890523 0.67756575
-0.039961834 -0.046407253 0.67835081
-0.040165637 -0.047939628 0.67914438
-0.040371392 -0.049487531 0.67994559
-0.040579405 -0.051051468 0.68075556
-0.040789429 -0.052631497 0.68157339
-0.041001786 -0.054228127 0.68240029
-0.041216217 -0.055841327 0.68323523
-0.041432906 -0.057471424 0.68407899
-0.041652031 -0.059118986 0.68493223
-0.04187334 -0.060783863 0.685794
-0.042097159 -0.062466741 0.68666553
-0.042323235 -0.06416744 0.68754584
-0.042551901 -0.065886796 0.68843627
-0.042782903 -0.067624569 0.6893357
-0.053174246 0.058491707 0.73670036
-0.035421845 0.037783325 0.66527021
-0.02872161 0.02967903 0.63831055
-0.028830184 0.0288302 0.63874739
-0.028939579 0.027974933 0.63918763
-0.029049881 0.027113259 0.63963139
-0.029160954 0.026244849 0.64007831
-0.029272955 0.025369912 0.64052892
-0.029385744 0.024488151 0.64098281
-0.029499481 0.023599595 0.64144045
-0.029614024 0.022704065 0.64190137
-0.029729463 0.021801651 0.64236581
-0.02984588 0.020892143 0.64283431
-0.029963136 0.019975424 0.64330608
-0.030081395 0.019051582 0.6437819
-0.030200513 0.018120348 0.64426118
-0.030320577 0.017181695 0.64474428
-0.030441681 0.01623559 0.64523154
-0.030563675 0.015281856 0.64572245
-0.030686731 0.014320493 0.64621758
-0.030810701 0.013351321 0.64671636
-0.030935759 0.012374341 0.6472196
-0.031061752 0.011389315 0.64772654
-0.031188777 0.010396302 0.64823765
-0.031316929 0.0093951225 0.64875329
-0.031446055 0.0083856285 0.64927286
-0.031576335 0.0073678493 0.64979708
-0.031707611 0.006341517 0.6503253
-0.031839982 0.0053066909 0.65085787
-0.031973556 0.0042631924 0.65139532
-0.032108162 0.0032108724 0.65193701
-0.032243997 0.0021496117 0.65248358
-0.032380894 0.0010793805 0.65303439
-0.032519054 2.9802322e-08 0.65359026
-0.032658301 -0.0010885894 0.65415061
-0.032798752 -0.0021865666 0.65471572
-0.032940507 -0.0032940507 0.65528607
-0.033083398 -0.0044111013 0.65586102
-0.033227626 -0.0055378973 0.65644133
-0.033373024 -0.0066745579 0.65702635
-0.033519801 -0.0078212619 0.65761697
-0.033667769 -0.008978039 0.65821236
-0.033817053 -0.010145098 0.658813
-0.033967767 -0.011322588 0.65941948
-0.034119729 -0.012510538 0.6600309
-0.034273162 -0.013709247 0.66064829
-0.03442787 -0.014918745 0.66127074
-0.03458409 -0.016139239 0.66189933
-0.034741629 -0.01737082 0.66253328
-0.034900613 -0.018613636 0.6631729
-0.035061166 -0.019867957 0.66381896
-0.035223089 -0.02113381 0.66447049
-0.035386626 -0.022411495 0.66512847
-0.035551578 -0.023701042 0.66579223
-0.035718076 -0.025002629 0.66646212
-0.035886254 -0.026316553 0.66713887
-0.036055911 -0.027642876 0.66782153
-0.03622729 -0.028981835 0.66851103
-0.036400195 -0.030333459 0.66920674
-0.03657487 -0.031698197 0.66990966
-0.036751114 -0.033075988 0.67061877
-0.036929067 -0.034467131 0.6713348
-0.037108865 -0.035871893 0.67205828
-0.037290305 -0.037290305 0.67278832
-0.037473653 -0.038722783 0.67352605
-0.037658688 -0.040169269 0.67427063
-0.037845686 -0.041630238 0.67502296
-0.038034424 -0.043105632 0.67578238
-0.038225051 -0.044595867 0.67654943
-0.038417727 -0.046101272 0.67732471
-0.038612224 -0.047621727 0.67810732
-0.038808838 -0.049157828 0.67889839
-0.039007325 -0.050709546 0.6796971
-0.039207991 -0.052277267 0.68050444
-0.039410595 -0.053861111 0.68131971
-0.039615303 -0.055461407 0.68214345
-0.039822292 -0.0570786 0.68297625
-0.040031314 -0.058712602 0.68381727
-0.040242676 -0.060363978 0.68466771
-0.04045615 -0.062032759 0.68552673
-0.040672038 -0.063719511 0.68639535
-0.040890098 -0.065424144 0.68727279
-0.041110653 -0.067147404 0.68816018
-0.046911631 0.053382218 0.71801043
-0.032188755 0.035518646 0.65672737
-0.027627952 0.029533356 0.63774329
-0.027731877 0.028688192 0.6381759
-0.027836654 0.02783668 0.63861203
-0.027942155 0.026978672 0.63905114
-0.02804853 0.026114166 0.639494
-0.028155649 0.025243014 0.63993984
-0.02826366 0.024365246 0.64038938
-0.028372431 0.023480684 0.6408422
-0.02848204 0.022589236 0.64129841
-0.028592575 0.021690935 0.64175856
-0.028703896 0.0207856 0.64222193
-0.028816165 0.019873261 0.64268917
-0.028929237 0.018953681 0.64315981
-0.029043278 0.018026888 0.6436345
-0.029158141 0.017092735 0.64411259
-0.029273922 0.01615116 0.64459455
-0.029390698 0.015202105 0.64508069
-0.029508336 0.014245421 0.64557028
-0.029626995 0.013281107 0.64606422
-0.029746534 0.012308925 0.6465618
-0.029867122 0.011328965 0.64706373
-0.029988611 0.010340929 0.64756942
-0.030111091 0.009344846 0.64807922
-0.030234661 0.0083406568 0.64859354
-0.030359162 0.0073280931 0.64911175
-0.030484781 0.0063072145 0.64963472
-0.030611355 0.0052778721 0.6501615
-0.030738987 0.004239887 0.65069282
-0.030867772 0.0031932592 0.6512289
-0.030997556 0.00213781 0.6517691
-0.031128522 0.00107342 0.65231425
-0.031260513 5.9604645e-08 0.65286362
-0.031393714 -0.0010825098 0.65341806
-0.031527966 -0.0021743178 0.65397692
-0.031663373 -0.0032755136 0.65454048
-0.031800039 -0.0043861866 0.65510935
-0.031937797 -0.0055064857 0.6556828
-0.032076847 -0.0066365898 0.65626156
-0.032217018 -0.007776469 0.65684503
-0.032358516 -0.008926481 0.65743399
-0.032501165 -0.010086566 0.65802777
-0.03264508 -0.011256903 0.65862679
-0.03279037 -0.012437701 0.65923154
-0.032936864 -0.013629019 0.6598413
-0.033084769 -0.014831066 0.66045696
-0.033233907 -0.016043901 0.66107774
-0.033384498 -0.017267823 0.6617046
-0.03353636 -0.018502802 0.66233671
-0.033689611 -0.019749045 0.6629746
-0.033844367 -0.021006823 0.66361874
-0.034000453 -0.022276103 0.66426843
-0.034158085 -0.023557305 0.66492462
-0.034317084 -0.024850279 0.66558641
-0.034477569 -0.026155382 0.6662544
-0.034639668 -0.027472824 0.66692913
-0.034803189 -0.028802633 0.66760981
-0.034968376 -0.030145109 0.66829735
-0.035135023 -0.031500369 0.66899103
-0.03530338 -0.032868624 0.6696918
-0.035473246 -0.034249991 0.67039883
-0.035644751 -0.03564474 0.67111278
-0.03581804 -0.037053078 0.67183399
-0.035992905 -0.038475156 0.67256188
-0.036169603 -0.03991127 0.67329741
-0.036347929 -0.041361421 0.67403966
-0.03652814 -0.042826056 0.67478979
-0.036710028 -0.044305176 0.67554688
-0.036893729 -0.045799106 0.67631155
-0.037079409 -0.047308177 0.67708439
-0.037266839 -0.048832387 0.67786455
-0.037456296 -0.050372243 0.67865318
-0.037647571 -0.051927686 0.67944932
-0.037840933 -0.053499222 0.68025422
-0.038036164 -0.055086851 0.68106687
-0.038233414 -0.056690902 0.68188792
-0.038432859 -0.058311909 0.6827181
-0.038634256 -0.059949696 0.68355638
-0.038837917 -0.061604947 0.68440408
-0.039043598 -0.063277513 0.68526018
-0.039251607 -0.064968139 0.68612599
-0.039461702 -0.066676646 0.68700057
-0.041655239 0.049093693 0.70232338
-0.029321322 0.033510119 0.64915073
-0.026545044 0.029389173 0.63718188
-0.026644403 0.028547585 0.63761026
-0.026744511 0.027699709 0.63804185
-0.02684544 0.026845455 0.63847697
-0.026947066 0.025984704 0.63891506
-0.027049534 0.025117457 0.63935685
-0.027152713 0.024243504 0.63980168
-0.027256755 0.023362935 0.64025021
-0.027361525 0.02247557 0.64070189
-0.027467106 0.021581322 0.64115703
-0.027573572 0.020680189 0.64161599
-0.027680798 0.019772053 0.64207828
-0.027788933 0.018856823 0.64254445
-0.027897842 0.017934352 0.64301395
-0.028007684 0.017004669 0.64348745
-0.028118318 0.016067624 0.64396441
-0.028229829 0.015123129 0.64444518
-0.028342305 0.014171183 0.64493012
-0.028455604 0.013211548 0.64541858
-0.028569888 0.012244254 0.64591122
-0.028685018 0.011269122 0.64640754
-0.028801082 0.010286123 0.64690793
-0.028918164 0.0092951357 0.64741266
-0.029036123 0.0082960427 0.6479212
-0.029155131 0.0072888136 0.64843428
-0.029275035 0.0062732399 0.64895117
-0.029396011 0.0052493215 0.64947277
-0.02951791 0.0042168498 0.64999825
-0.029640824 0.0031757951 0.65052813
-0.02976485 0.0021260679 0.65106279
-0.029889831 0.0010675192 0.65160161
-0.030015953 2.9802322e-08 0.65214533
-0.030143058 -0.0010764897 0.65269333
-0.030271245 -0.0021622181 0.65324593
-0.030400613 -0.0032571554 0.65380365
-0.030531004 -0.0043615699 0.65436578
-0.030662607 -0.0054754615 0.65493315
-0.030795261 -0.0065989494 0.65550506
-0.030929156 -0.0077322721 0.65608221
-0.03106413 -0.0088754296 0.65666413
-0.031200379 -0.01002866 0.65725154
-0.031337738 -0.011192024 0.65784371
-0.031476308 -0.012365669 0.65844107
-0.031616207 -0.013549775 0.65904421
-0.031757258 -0.014744401 0.65965223
-0.031899668 -0.015949816 0.66026622
-0.032043267 -0.017165989 0.66088527
-0.032188162 -0.018393219 0.66150999
-0.032334473 -0.019631624 0.66214073
-0.032482021 -0.020881265 0.66277677
-0.032631025 -0.02214247 0.66341913
-0.032781295 -0.023415178 0.66406703
-0.03293306 -0.024699777 0.66472125
-0.033086136 -0.025996208 0.66538119
-0.033240639 -0.027304769 0.66604728
-0.033396699 -0.028625727 0.66672003
-0.033554122 -0.029959023 0.66739875
-0.033713147 -0.031305045 0.66808432
-0.033873577 -0.032663792 0.66877592
-0.034035649 -0.034035623 0.66947466
-0.034199171 -0.035420537 0.67017961
-0.034364272 -0.036818802 0.67089134
-0.034531083 -0.038230807 0.67161047
-0.034699414 -0.03965646 0.67233616
-0.034869503 -0.041096181 0.67306948
-0.035041153 -0.042549938 0.67380947
-0.035214622 -0.044018239 0.67455727
-0.035389695 -0.045500994 0.67531204
-0.035566524 -0.04699859 0.67607439
-0.035745241 -0.048511356 0.67684489
-0.035925645 -0.050039262 0.67762256
-0.036108002 -0.051582813 0.67840874
-0.036292098 -0.053141981 0.67920244
-0.036478203 -0.054717273 0.68000472
-0.036666103 -0.056308627 0.6808148
-0.036855947 -0.057916462 0.68163323
-0.037047897 -0.059541225 0.68246073
-0.037241723 -0.061182797 0.68329632
-0.037437722 -0.062841862 0.68414128
-0.037635662 -0.064518273 0.6849947
-0.03783584 -0.066212714 0.68585759
-0.037180606 0.045442998 0.68896949
-0.026760833 0.031716585 0.64238513
-0.025472591 0.02924633 0.63662571
-0.025567472 0.028408349 0.63704991
-0.025663126 0.027564108 0.63747752
-0.025759436 0.02671349 0.6379081
-0.025856534 0.025856555 0.63834226
-0.025954304 0.024993032 0.63877928
-0.026052879 0.024123073 0.63922006
-0.026152141 0.023246378 0.63966382
-0.026252231 0.022363007 0.64011127
-0.02635302 0.021472842 0.64056194
-0.026454587 0.020575821 0.64101595
-0.026557006 0.019671887 0.64147389
-0.026660156 0.01876086 0.64193505
-0.026764177 0.017842829 0.64240003
-0.026868943 0.016917467 0.64286846
-0.026974533 0.015984923 0.64334053
-0.027081028 0.015045047 0.64381665
-0.027188295 0.014097661 0.64429629
-0.027296487 0.013142765 0.64477992
-0.027405471 0.012180209 0.64526713
-0.027515404 0.011209995 0.64575857
-0.027626147 0.010231942 0.64625371
-0.027737783 0.0092459321 0.64675283
-0.027850403 0.008251965 0.64725637
-0.027963864 0.0072498918 0.64776361
-0.028078331 0.0062396526 0.64827532
-0.02819366 0.0052210689 0.64879096
-0.028309941 0.0041941106 0.64931083
-0.028427264 0.0031586289 0.64983535
-0.028545484 0.0021144748 0.65036392
-0.028664771 0.0010617077 0.6508972
-0.028784979 2.9802322e-08 0.6514346
-0.02890628 -0.0010705888 0.65197694
-0.029028527 -0.0021502376 0.6525234
-0.029151814 -0.0032390654 0.65307462
-0.029276231 -0.0043371916 0.65363091
-0.029401634 -0.0054447353 0.65419155
-0.029528201 -0.0065617859 0.65475738
-0.029655775 -0.0076885223 0.65532774
-0.029784543 -0.0088250339 0.65590346
-0.029914349 -0.0099713802 0.65648377
-0.030045288 -0.011127859 0.65706915
-0.030177468 -0.012294531 0.65766013
-0.03031073 -0.013471395 0.65825588
-0.030445261 -0.014658779 0.65885735
-0.030580902 -0.015856743 0.65946376
-0.030717848 -0.017065465 0.66007602
-0.030855933 -0.018284976 0.66069335
-0.030995265 -0.019515514 0.66131634
-0.031135956 -0.020757258 0.66194528
-0.031277835 -0.022010297 0.6625796
-0.03142111 -0.023274869 0.66322011
-0.031565607 -0.024551004 0.66386616
-0.031711534 -0.025839001 0.66451854
-0.03185872 -0.027138889 0.66517663
-0.032007277 -0.028450876 0.66584069
-0.032157328 -0.029775292 0.6665116
-0.03230869 -0.031112045 0.66718829
-0.032461587 -0.032461584 0.66787183
-0.032615833 -0.033823788 0.66856146
-0.032771658 -0.035199195 0.66925818
-0.032928873 -0.036587626 0.66996092
-0.033087604 -0.037989467 0.67067063
-0.033247981 -0.039404988 0.67138761
-0.033409808 -0.040834188 0.67211115
-0.033573333 -0.042277485 0.6728422
-0.033738352 -0.043734878 0.67357999
-0.033905115 -0.045206785 0.67432559
-0.03407342 -0.046693176 0.67507803
-0.034243405 -0.048194408 0.67583793
-0.034415208 -0.04971084 0.67660606
-0.034588631 -0.051242411 0.6773814
-0.034763929 -0.052789629 0.67816508
-0.034940891 -0.054352462 0.67895627
-0.035119783 -0.055931449 0.67975599
-0.0353004 -0.057526588 0.68056357
-0.03548288 -0.059138089 0.68137932
-0.035667378 -0.060766608 0.68220425
-0.035853684 -0.062411964 0.68303716
-0.036042072 -0.064074785 0.68387932
-0.036232319 -0.06575495 0.68472993
-0.033325396 0.042297632 0.67746413
-0.024460508 0.030105293 0.63630694
-0.024410576 0.029104948 0.63607514
-0.024501059 0.028270483 0.63649523
-0.024592277 0.027429879 0.63691872
-0.024684116 0.026582897 0.63734514
-0.024776643 0.025729597 0.63777471
-0.02486993 0.024869978 0.63820779
-0.024963858 0.024003744 0.63864386
-0.02505856 0.023130983 0.6390835
-0.025153924 0.022251576 0.63952625
-0.025250012 0.021365404 0.63997239
-0.025346905 0.020472527 0.64042222
-0.025444476 0.019572705 0.64087528
-0.025542868 0.018665999 0.64133203
-0.025641959 0.017752171 0.64179206
-0.025741888 0.016831249 0.64225602
-0.025842533 0.015903145 0.64272332
-0.025944034 0.01496774 0.64319456
-0.026046265 0.014024913 0.64366913
-0.026149308 0.013074696 0.64414752
-0.026253238 0.012116879 0.64463013
-0.026357926 0.011151433 0.64511615
-0.026463525 0.010178328 0.6456064
-0.026569905 0.0091973245 0.64610028
-0.026677137 0.0082083642 0.6465981
-0.026785318 0.0072114468 0.64710039
-0.026894299 0.006206423 0.64760637
-0.027004249 0.0051931441 0.64811683
-0.027115026 0.0041715503 0.6486311
-0.027226793 0.003141582 0.64915001
-0.027339408 0.0021030605 0.64967287
-0.027452957 0.0010558963 0.65020007
-0.02756753 -0 0.65073204
-0.027682988 -0.001064688 0.65126806
-0.027799493 -0.002138406 0.65180898
-0.027916906 -0.0032211542 0.65235406
-0.028035315 -0.0043130815 0.6529038
-0.028154811 -0.0054143667 0.6534586
-0.028275251 -0.0065250397 0.65401769
-0.028396806 -0.0076452494 0.65458208
-0.028519331 -0.0087751746 0.65515089
-0.028642997 -0.009914875 0.65572506
-0.02876766 -0.01106447 0.65630388
-0.028893411 -0.012224138 0.65688765
-0.02902035 -0.013393968 0.65747702
-0.029148327 -0.01457417 0.65807122
-0.029277522 -0.015764803 0.65867102
-0.029407779 -0.016966015 0.65927577
-0.029539291 -0.018178016 0.65988636
-0.029671894 -0.019400835 0.66050196
-0.029805694 -0.020634681 0.66112316
-0.029940797 -0.021879792 0.66175044
-0.030077036 -0.023136169 0.6623829
-0.030214615 -0.024404079 0.66302168
-0.030353365 -0.025683582 0.66366583
-0.03049349 -0.026974976 0.66431642
-0.030634819 -0.028278291 0.66497254
-0.030777464 -0.029593676 0.66563475
-0.030921539 -0.030921519 0.66630375
-0.031066876 -0.032261729 0.66697842
-0.03121368 -0.033614725 0.66766
-0.031361781 -0.034980446 0.6683476
-0.031511392 -0.03635931 0.66904223
-0.031662337 -0.037751228 0.669743
-0.031814739 -0.039156616 0.67045063
-0.031968713 -0.040575653 0.67116547
-0.032124083 -0.04200837 0.6718868
-0.032281075 -0.043455273 0.67261565
-0.0324395 -0.044916183 0.67335117
-0.032599598 -0.046391726 0.6740945
-0.032761175 -0.047881693 0.67484462
-0.032924365 -0.049386501 0.67560226
-0.033089295 -0.050906599 0.676368
-0.033255778 -0.052441776 0.67714089
-0.033424053 -0.053992718 0.67792219
-0.033593927 -0.055559158 0.67871082
-0.033765655 -0.05714184 0.67950809
-0.03393903 -0.058740646 0.68031305
-0.034114193 -0.060355872 0.6811263
-0.034291293 -0.061988086 0.68194854
-0.034470122 -0.063637137 0.68277884
-0.034650944 -0.065303653 0.68361825
-0.045336314 0.061657399 0.74164683
-0.029969318 0.039559484 0.6674484
-0.023273187 0.029789716 0.63511658
-0.023358721 0.028964847 0.63552958
-0.023444947 0.028133959 0.63594592
-0.023531752 0.027296841 0.63636506
-0.023619201 0.026453525 0.6367873
-0.023707364 0.02560398 0.63721299
-0.023796126 0.024747998 0.63764155
-0.023885615 0.023885638 0.63807362
-0.023975722 0.023016721 0.63850874
-0.024066571 0.022141248 0.63894737
-0.024158049 0.021259129 0.6393891
-0.024250226 0.020370215 0.63983417
-0.02434317 0.019474536 0.64028293
-0.02443677 0.018571943 0.64073491
-0.024531152 0.017662436 0.64119059
-0.024626203 0.016745836 0.64164954
-0.024722056 0.015822142 0.64211237
-0.024818597 0.014891207 0.64257848
-0.024915893 0.013952941 0.64304829
-0.025014021 0.013007343 0.64352208
-0.02511286 0.012054175 0.64399928
-0.025212549 0.011093527 0.64448065
-0.025312964 0.01012519 0.64496553
-0.025414251 0.009149164 0.64545453
-0.025516283 0.0081652403 0.64594722
-0.025619138 0.0071733594 0.64644384
-0.025722895 0.0061735213 0.64694482
-0.025827423 0.0051655173 0.64744955
-0.025932878 0.0041492879 0.64795876
-0.026039127 0.0031247139 0.64847171
-0.026146321 0.0020917356 0.64898932
-0.026254328 0.001050204 0.64951086
-0.026363231 2.9802322e-08 0.65003663
-0.026473116 -0.0010589361 0.65056723
-0.026583845 -0.0021266639 0.65110183
-0.026695581 -0.0032034516 0.65164137
-0.026808184 -0.0042892694 0.65218508
-0.026921742 -0.005384326 0.65273339
-0.027036341 -0.0064887404 0.6532867
-0.027151842 -0.007602483 0.65384442
-0.027268413 -0.0087258518 0.65440726
-0.027385913 -0.0098589063 0.65497458
-0.027504507 -0.011001766 0.6555472
-0.027624052 -0.012154549 0.65612441
-0.027744642 -0.013317406 0.65670669
-0.027866369 -0.014490485 0.65729445
-0.027989088 -0.015673876 0.65788698
-0.028112976 -0.016867757 0.65848517
-0.028237881 -0.018072218 0.65908825
-0.028363986 -0.019287467 0.65969718
-0.028491138 -0.020513594 0.66031104
-0.028619433 -0.021750748 0.66093051
-0.028748976 -0.022999167 0.66155607
-0.028879611 -0.024258852 0.6621868
-0.029011525 -0.02553013 0.66282368
-0.029144563 -0.026812971 0.6634661
-0.029278914 -0.028107733 0.66411483
-0.029414421 -0.029414415 0.66476911
-0.029551186 -0.030733258 0.66542947
-0.029689323 -0.032064438 0.66609645
-0.029828664 -0.033408105 0.66676927
-0.029969411 -0.034764498 0.66744882
-0.030111399 -0.036133677 0.66813439
-0.030254835 -0.037515998 0.66882706
-0.03039955 -0.038911402 0.66952574
-0.03054565 -0.040320247 0.67023122
-0.030693265 -0.041742802 0.67094392
-0.030842211 -0.043179065 0.67166311
-0.030992711 -0.044629455 0.67238975
-0.031144585 -0.046093971 0.67312306
-0.03129806 -0.04757303 0.67386413
-0.031452946 -0.049066573 0.67461199
-0.031609379 -0.050574988 0.6753673
-0.031767476 -0.052098662 0.67613065
-0.03192706 -0.053637415 0.67690116
-0.032088362 -0.055191964 0.67768002
-0.032251194 -0.05676204 0.6784662
-0.032415792 -0.058348417 0.67926097
-0.032581974 -0.059950829 0.68006337
-0.032749865 -0.06156975 0.68087411
-0.032919608 -0.0632056 0.68169361
-0.033091009 -0.064858347 0.68252122
-0.039640915 0.056158006 0.72212207
-0.02702133 0.037154347 0.65865046
-0.022235615 0.029647499 0.63458025
-0.022317 0.028826177 0.6349895
-0.02239893 0.027998656 0.63540161
-0.022481516 0.027165204 0.63581699
-0.022564659 0.026325464 0.63623518
-0.02264842 0.025479496 0.63665646
-0.022732861 0.024627268 0.63708115
-0.022817876 0.023768663 0.63750875
-0.022903588 0.022903591 0.63793981
-0.02298989 0.022031993 0.63837391
-0.023076899 0.021153837 0.63881153
-0.023164513 0.020268977 0.63925219
-0.023252795 0.019377381 0.63969624
-0.023341812 0.01847896 0.64014399
-0.023431452 0.017573595 0.64059484
-0.023521844 0.016661316 0.6410495
-0.023612875 0.015741974 0.64150727
-0.023704676 0.01481545 0.64196903
-0.02379713 0.013881713 0.642434
-0.023890309 0.012940615 0.64290267
-0.023984283 0.011992186 0.64337528
-0.024078937 0.011036217 0.6438514
-0.024174405 0.010072678 0.64433157
-0.024270568 0.0091014802 0.64481527
-0.024367563 0.0081225336 0.64530313
-0.024465272 0.0071357191 0.64579451
-0.024563769 0.0061409771 0.64628989
-0.024663126 0.0051381886 0.64678967
-0.024763225 0.0041272342 0.64729309
-0.024864206 0.0031080544 0.64780098
-0.024965946 0.0020805001 0.64831269
-0.025068523 0.0010445416 0.64882869
-0.025172016 2.9802322e-08 0.64934915
-0.025276296 -0.0010531545 0.64987361
-0.025381515 -0.0021150708 0.65040284
-0.025487542 -0.0031859279 0.65093613
-0.025594529 -0.0042657256 0.65147424
-0.025702348 -0.0053546429 0.65201658
-0.02581108 -0.006452769 0.65256339
-0.025920806 -0.0075602233 0.65311527
-0.026031395 -0.0086770952 0.6536715
-0.026143009 -0.009803623 0.65423286
-0.026255507 -0.010939747 0.65479869
-0.026368979 -0.012085766 0.6553694
-0.026483512 -0.013241738 0.65594542
-0.026598966 -0.014407754 0.65652621
-0.026715511 -0.015584052 0.65711236
-0.026833002 -0.016770601 0.65770328
-0.026951609 -0.017967731 0.6582998
-0.027071191 -0.01917541 0.65890127
-0.027191838 -0.020393848 0.65950811
-0.027313646 -0.021623313 0.66012073
-0.027436471 -0.022863716 0.66073847
-0.027560486 -0.024115413 0.66136223
-0.027685544 -0.025378406 0.66199124
-0.027811825 -0.026652992 0.66262639
-0.02793918 -0.027939171 0.66326696
-0.028067794 -0.02923727 0.66391379
-0.028197508 -0.030547261 0.66456622
-0.02832843 -0.031869441 0.66522467
-0.028460659 -0.033204049 0.66588974
-0.028594038 -0.034551114 0.66656065
-0.028728766 -0.035910934 0.66723824
-0.028864676 -0.03728351 0.66792178
-0.029001972 -0.038669288 0.66861236
-0.029140485 -0.04006815 0.66930902
-0.029280331 -0.041480452 0.67001241
-0.029421618 -0.042906523 0.67072296
-0.029564179 -0.044346213 0.67144001
-0.029708227 -0.045800149 0.67216456
-0.029853588 -0.047268152 0.67289567
-0.030000474 -0.048750758 0.67363447
-0.030148715 -0.050247818 0.67438006
-0.030298429 -0.051759809 0.67513305
-0.030449739 -0.053287029 0.67589402
-0.030602464 -0.054829389 0.67666221
-0.030756831 -0.056387514 0.67743862
-0.030912662 -0.057961196 0.67822242
-0.031070182 -0.05955115 0.67901462
-0.031229213 -0.061157197 0.67981458
-0.031389877 -0.062779725 0.68062264
-0.031552315 -0.06441927 0.68143958
-0.034878302 0.051559269 0.70579517
-0.024411265 0.035024881 0.65086108
-0.021207953 0.029506743 0.63404918
-0.021285156 0.028688699 0.63445437
-0.021362975 0.027864754 0.63486278
-0.021441311 0.02703473 0.63527393
-0.021520277 0.026198626 0.63568836
-0.021599775 0.025356293 0.6361056
-0.021679861 0.024507701 0.63652593
-0.021760598 0.023652852 0.63694966
-0.021841884 0.022791535 0.63737625
-0.021923834 0.02192384 0.63780636
-0.022006346 0.021049559 0.63823944
-0.022089483 0.020168692 0.63867569
-0.022173306 0.019281149 0.63911569
-0.02225771 0.018386841 0.63955861
-0.022342818 0.017485678 0.64000529
-0.02242852 0.016577631 0.64045513
-0.022514939 0.015662551 0.64090866
-0.022601971 0.014740437 0.64136541
-0.022689676 0.013811111 0.64182568
-0.022778124 0.012874633 0.64228988
-0.022867205 0.011930734 0.64275742
-0.022957047 0.010979474 0.64322889
-0.023047537 0.010020673 0.64370388
-0.023138801 0.009054333 0.64418292
-0.023230731 0.0080802441 0.64466536
-0.023323396 0.0070984662 0.64515162
-0.023416864 0.0061087608 0.64564222
-0.023511022 0.0051110983 0.6461364
-0.023606004 0.0041054487 0.64663482
-0.02370169 0.0030915439 0.64713705
-0.023798224 0.0020694435 0.64764369
-0.023895478 0.0010389388 0.64815414
-0.023993531 -0 0.64866877
-0.02409246 -0.001047492 0.64918792
-0.024192141 -0.0021036565 0.64971113
-0.024292717 -0.0031685829 0.65023893
-0.024394065 -0.0042424202 0.65077084
-0.024496261 -0.005325228 0.65130723
-0.024599388 -0.0064172149 0.65184844
-0.024703316 -0.0075183511 0.65239394
-0.024808198 -0.0086289346 0.65294433
-0.024913901 -0.0097489059 0.65349913
-0.025020581 -0.010878474 0.65405899
-0.025128108 -0.012017787 0.65462327
-0.025236562 -0.013166904 0.65519249
-0.02534603 -0.014326006 0.65576702
-0.025456376 -0.015495181 0.6563462
-0.025567763 -0.016674608 0.65693074
-0.025680052 -0.017864347 0.65752006
-0.025793411 -0.019064665 0.65811503
-0.025907695 -0.020275563 0.65871483
-0.026022999 -0.02149725 0.65932
-0.026139412 -0.022729903 0.65993094
-0.02625679 -0.023973554 0.66054702
-0.026375309 -0.02522853 0.66116899
-0.026494822 -0.026494771 0.66179627
-0.026615502 -0.027772695 0.66242957
-0.026737208 -0.029062182 0.66306835
-0.02686003 -0.03036347 0.66371292
-0.026984069 -0.031676918 0.66436392
-0.027109174 -0.033002436 0.66502053
-0.02723553 -0.034340441 0.66568369
-0.027362984 -0.035690814 0.66635263
-0.027491722 -0.037054062 0.66702831
-0.027621593 -0.038430005 0.66770983
-0.027752696 -0.039819062 0.6683979
-0.027885137 -0.04122147 0.66909301
-0.028018758 -0.042637229 0.66979426
-0.028153757 -0.044066757 0.67050278
-0.02828997 -0.045509934 0.67121768
-0.028427601 -0.046967298 0.67193997
-0.028566485 -0.048438817 0.67266893
-0.028706735 -0.049924731 0.67340499
-0.02884846 -0.051425487 0.67414874
-0.028991498 -0.052940965 0.67489946
-0.029136058 -0.054471731 0.67565811
-0.029281966 -0.056017637 0.67642403
-0.029429445 -0.057579339 0.67719805
-0.029578315 -0.059156597 0.67797929
-0.029728701 -0.060749918 0.67876852
-0.029880725 -0.06235975 0.67956644
-0.030034207 -0.063985914 0.68037194
-0.03083666 0.047656685 0.69193983
-0.022084171 0.033126265 0.64391619
-0.020189956 0.029367208 0.63352299
-0.020263152 0.028552622 0.6339246
-0.020336833 0.027732044 0.63432884
-0.020411098 0.026905566 0.63473636
-0.020485861 0.026072949 0.63514656
-0.020561174 0.025234193 0.63555974
-0.020637091 0.024389327 0.63597631
-0.020713521 0.023538113 0.63639569
-0.020790571 0.02268067 0.63681841
-0.020868143 0.021816701 0.63724405
-0.02094635 0.020946354 0.6376732
-0.021025093 0.020069391 0.63810527
-0.021104427 0.019185901 0.63854051
-0.02118442 0.018295646 0.63897943
-0.021264965 0.017398655 0.63942134
-0.02134618 0.016494811 0.63986701
-0.021427963 0.015583992 0.64031571
-0.02151043 0.014666229 0.64076817
-0.021593478 0.013741344 0.64122385
-0.02167717 0.012809247 0.6416831
-0.02176157 0.011869967 0.64214617
-0.021846572 0.010923326 0.64261258
-0.021932298 0.0099692643 0.64308292
-0.022018645 0.0090076625 0.64355671
-0.022105729 0.008038491 0.6440345
-0.022193449 0.0070615709 0.64451581
-0.022281865 0.0060769022 0.64500093
-0.02237105 0.0050843656 0.64549029
-0.022460889 0.0040837824 0.64598322
-0.022551516 0.0030752122 0.64648044
-0.022642814 0.0020584464 0.64698142
-0.022734856 0.0010334551 0.64748639
-0.022827711 5.9604645e-08 0.64799589
-0.022921266 -0.0010418296 0.64850926
-0.023015652 -0.0020923018 0.64902711
-0.023110755 -0.0031514168 0.64954895
-0.023206713 -0.004219383 0.65007544
-0.023303404 -0.0052962005 0.65060592
-0.023400906 -0.0063820481 0.65114093
-0.023499295 -0.0074770451 0.65168077
-0.023598444 -0.0085812211 0.65222484
-0.023698503 -0.0096948147 0.6527738
-0.023799347 -0.010817856 0.65332711
-0.023901051 -0.011950523 0.65388519
-0.024003698 -0.013092905 0.65444839
-0.024107162 -0.014245093 0.65501606
-0.024211589 -0.015407354 0.65558904
-0.024316857 -0.016579658 0.65616661
-0.024423113 -0.017762244 0.65674961
-0.024530232 -0.018955141 0.65733743
-0.024638366 -0.020158648 0.65793073
-0.024747383 -0.021372736 0.65852886
-0.02485737 -0.022597611 0.65913236
-0.024968415 -0.023833454 0.65974164
-0.025080383 -0.025080353 0.66035593
-0.025193432 -0.026338577 0.66097629
-0.025307428 -0.027608097 0.66160178
-0.025422541 -0.028889239 0.66223335
-0.025538627 -0.030181974 0.66287029
-0.025655776 -0.031486601 0.66351306
-0.025774084 -0.032803386 0.66416222
-0.025893409 -0.034132183 0.66481698
-0.026013928 -0.035473526 0.66547817
-0.026135487 -0.036827266 0.66614521
-0.026258273 -0.038193852 0.66681892
-0.026382135 -0.039573193 0.66749847
-0.026507171 -0.040965617 0.66818458
-0.026633481 -0.042371422 0.6688776
-0.026760915 -0.043790519 0.66957676
-0.026889661 -0.045223504 0.67028326
-0.027019566 -0.046670139 0.67099601
-0.027150819 -0.048130959 0.67171615
-0.027283268 -0.049605906 0.67244285
-0.027417012 -0.051095307 0.67317671
-0.027552165 -0.052599579 0.67391825
-0.027688565 -0.054118544 0.6746667
-0.027826415 -0.055652797 0.67542303
-0.027965551 -0.05720228 0.67618644
-0.028106179 -0.058767468 0.67695808
-0.028248137 -0.060348272 0.677737
-0.028391533 -0.061945111 0.67852378
-0.028536489 -0.063558549 0.67931914
-0.027363801 0.044303328 0.68003434
-0.019996393 0.031422913 0.63768554
-0.019181585 0.029229134 0.63300192
-0.019250752 0.028417826 0.63339949
-0.019320466 0.027600706 0.63380021
-0.019390639 0.026777565 0.63420355
-0.019461371 0.025948524 0.63461018
-0.019532574 0.025113314 0.63501942
-0.019604297 0.024272025 0.63543177
-0.019676603 0.023424536 0.63584733
-0.019749392 0.022570759 0.63626575
-0.019822769 0.021710694 0.63668746
-0.019896647 0.020844132 0.63711214
-0.019971076 0.019971102 0.63753998
-0.020046115 0.019091547 0.63797134
-0.020121669 0.018205345 0.63840568
-0.020197846 0.017312497 0.63884348
-0.02027455 0.016412765 0.63928437
-0.02035189 0.015506238 0.63972902
-0.020429773 0.014592707 0.64017665
-0.02050825 0.013672173 0.64062774
-0.02058739 0.012744635 0.64108264
-0.020667085 0.011809766 0.64154077
-0.020747457 0.010867715 0.6420027
-0.0208284 0.0099183321 0.64246798
-0.020910034 0.0089614689 0.64293724
-0.020992253 0.0079970658 0.64340985
-0.021075122 0.0070250928 0.64388615
-0.021158705 0.0060453713 0.64436662
-0.021242896 0.0050578415 0.64485055
-0.021327816 0.0040624738 0.64533871
-0.021413362 0.0030590594 0.64583039
-0.021499652 0.0020475984 0.64632642
-0.021586584 0.0010279417 0.64682615
-0.021674221 2.9802322e-08 0.64732987
-0.021762634 -0.0010363162 0.64783812
-0.021851711 -0.0020810962 0.64835012
-0.021941578 -0.0031344891 0.64886671
-0.022032129 -0.0041965544 0.64938718
-0.02212349 -0.0052675009 0.64991236
-0.022215549 -0.0063472986 0.65044153
-0.022308381 -0.0074360967 0.65097511
-0.02240205 -0.0085341036 0.65151352
-0.022496451 -0.0096413195 0.65205616
-0.022591712 -0.010757923 0.65260375
-0.022687718 -0.011884004 0.65315562
-0.022784544 -0.013019741 0.65371221
-0.022882268 -0.014165223 0.65427387
-0.022980766 -0.01532048 0.65484005
-0.023080181 -0.01648581 0.65541154
-0.023180394 -0.017661184 0.65598756
-0.023281548 -0.018846959 0.656569
-0.023383521 -0.020042986 0.65715516
-0.023486393 -0.021249563 0.65774649
-0.023590241 -0.022466868 0.65834343
-0.023694942 -0.023694932 0.65894526
-0.023800649 -0.024933994 0.65955287
-0.023907229 -0.026184112 0.66016549
-0.02401484 -0.027445495 0.66078407
-0.024123354 -0.028718263 0.66140783
-0.024232851 -0.030002564 0.66203725
-0.024343424 -0.031298667 0.66267276
-0.024454933 -0.032606542 0.66331381
-0.024567543 -0.033926576 0.66396105
-0.024681119 -0.03525871 0.6646139
-0.024795828 -0.036603332 0.66527331
-0.02491153 -0.03796041 0.66593832
-0.025028396 -0.039330304 0.66661012
-0.025146285 -0.040713012 0.66728783
-0.025265289 -0.042108774 0.66797179
-0.025385505 -0.043517947 0.66866279
-0.025506789 -0.044940501 0.66935998
-0.025629319 -0.046376854 0.67006433
-0.02575295 -0.047826916 0.670775
-0.025877865 -0.049291164 0.67149299
-0.026003912 -0.050769538 0.67221749
-0.026131192 -0.052262366 0.67294908
-0.02625981 -0.053770036 0.67368841
-0.026389616 -0.055292487 0.67443454
-0.026520794 -0.056830257 0.6751886
-0.0266532 -0.058383197 0.67594969
-0.026787022 -0.059951872 0.67671889
-0.026922103 -0.061536193 0.67749536
-0.027058555 -0.063136607 0.67827976
-0.037127394 0.064972967 0.7468273
-0.024347547 0.041390866 0.66969413
-0.018117821 0.029894412 0.63209444
-0.018182611 0.029092193 0.63248551
-0.018247912 0.028284281 0.63287961
-0.018313639 0.027470469 0.63327634
-0.018379884 0.026650876 0.63367611
-0.018446567 0.025825173 0.63407862
-0.01851378 0.024993628 0.63448429
-0.018581439 0.024155915 0.63489264
-0.018649593 0.023312002 0.63530397
-0.018718299 0.022461981 0.63571858
-0.018787464 0.021605611 0.63613605
-0.018857187 0.020742923 0.63655686
-0.018927386 0.019873798 0.63698059
-0.018998107 0.018998146 0.63740742
-0.019069407 0.018115938 0.63783777
-0.019141195 0.017227143 0.63827097
-0.019213578 0.016331524 0.63870788
-0.019286457 0.015429199 0.63914776
-0.019359943 0.014519989 0.63959128
-0.01943394 0.013603777 0.64003789
-0.019508505 0.01268056 0.64048797
-0.019583696 0.011750251 0.64094174
-0.019659419 0.0108127 0.64139879
-0.019735776 0.0098678768 0.64185965
-0.019812683 0.0089157522 0.64232379
-0.019890239 0.0079561174 0.64279193
-0.019968353 0.0069889724 0.64326334
-0.020047085 0.0060141385 0.64373857
-0.020126494 0.0050316453 0.64421785
-0.020206477 0.0040413141 0.64470059
-0.020287156 0.0030430555 0.64518756
-0.020368427 0.0020368397 0.64567804
-0.020450406 0.0010225773 0.64617282
-0.02053299 -0 0.6466713
-0.020616248 -0.0010307729 0.64717376
-0.020700237 -0.0020700395 0.6476807
-0.020784859 -0.0031177104 0.64819139
-0.020870229 -0.0041740537 0.64870667
-0.020956248 -0.0052390397 0.64922589
-0.02104298 -0.0063128769 0.64974934
-0.021130489 -0.0073956549 0.6502775
-0.021218672 -0.008487463 0.65080976
-0.021307653 -0.0095884204 0.65134674
-0.021397322 -0.010698646 0.65188795
-0.021487812 -0.01181823 0.65243411
-0.021579009 -0.012947381 0.6529845
-0.021670982 -0.014086097 0.65353966
-0.021763805 -0.015234649 0.65409988
-0.021857362 -0.016393006 0.65466458
-0.021951793 -0.017561406 0.65523446
-0.02204698 -0.018739909 0.65580899
-0.022143057 -0.019928753 0.65638888
-0.022239914 -0.021127909 0.65697348
-0.022337621 -0.022337615 0.65756321
-0.022436254 -0.02355805 0.65815848
-0.022535697 -0.024789244 0.6587587
-0.022636093 -0.026031464 0.65936458
-0.022737321 -0.027284771 0.65997559
-0.022839524 -0.028549373 0.66059244
-0.022942582 -0.02982533 0.66121441
-0.023046574 -0.03111285 0.66184211
-0.023151582 -0.032412171 0.66247582
-0.023257483 -0.033723325 0.66311502
-0.02336443 -0.035046637 0.66376054
-0.02347229 -0.03638202 0.66441149
-0.023581224 -0.037729949 0.66506898
-0.023691099 -0.039090306 0.66573215
-0.023802005 -0.040463388 0.66640157
-0.02391403 -0.041849524 0.66707766
-0.024027037 -0.043248653 0.66775972
-0.024141192 -0.044661194 0.66844869
-0.024256362 -0.046087086 0.66914386
-0.024372712 -0.047526807 0.66984606
-0.024490107 -0.048980206 0.67055452
-0.024608716 -0.050447851 0.67127043
-0.024728402 -0.051929623 0.67199284
-0.024849257 -0.053425878 0.67272222
-0.024971381 -0.054937005 0.67345929
-0.025094626 -0.056462884 0.67420322
-0.02521918 -0.058004081 0.67495489
-0.02534489 -0.059560478 0.67571366
-0.025471946 -0.061132669 0.67648053
-0.025600197 -0.062720478 0.67725462
-0.032057419 0.059053153 0.72641063
-0.021703403 0.038837701 0.66062963
-0.017132014 0.029755652 0.63158667
-0.017192993 0.028956622 0.63197416
-0.017254408 0.028151959 0.63236433
-0.017316308 0.027341574 0.63275754
-0.01737861 0.026525289 0.63315338
-0.017441403 0.025703132 0.63355231
-0.01750461 0.024875015 0.63395387
-0.017568275 0.024040818 0.63435835
-0.017632451 0.023200601 0.63476604
-0.017697053 0.022354215 0.63517654
-0.017762171 0.021501601 0.63559026
-0.017827729 0.020642638 0.63600671
-0.017893817 0.019777387 0.63642657
-0.017960353 0.018905669 0.63684928
-0.018027384 0.018027395 0.63727516
-0.018094962 0.017142594 0.63770449
-0.018163003 0.016251147 0.63813674
-0.018231602 0.015352935 0.63857263
-0.01830068 0.014447927 0.63901144
-0.018370278 0.013536066 0.63945365
-0.018440459 0.012617201 0.63989949
-0.018511128 0.011691272 0.64034843
-0.018582389 0.010758251 0.64080119
-0.018654153 0.0098180175 0.64125717
-0.018726522 0.0088705122 0.64171696
-0.018799406 0.0079155862 0.64217997
-0.018872909 0.0069531798 0.64264691
-0.018946938 0.0059832633 0.64311731
-0.019021552 0.0050057173 0.64359128
-0.019096803 0.0040203929 0.64406937
-0.019172605 0.0030272603 0.64455104
-0.019249059 0.0020262301 0.6450367
-0.019326076 0.0010171831 0.64552599
-0.019403711 -0 0.64601922
-0.019482026 -0.0010253489 0.6465168
-0.019560922 -0.0020590425 0.64701807
-0.019640511 -0.0031011105 0.64752364
-0.019720698 -0.0041517019 0.64803314
-0.019801598 -0.0052109659 0.64854705
-0.019883107 -0.0062788725 0.64906496
-0.019965291 -0.0073556304 0.64958704
-0.020048214 -0.0084413588 0.65011394
-0.020131771 -0.0095360875 0.65064478
-0.020216085 -0.010640055 0.65118039
-0.02030105 -0.011753231 0.65172017
-0.020386791 -0.012875825 0.65226495
-0.020473201 -0.014007956 0.65281391
-0.020560347 -0.015149713 0.65336758
-0.020648297 -0.016301244 0.65392631
-0.020736942 -0.017462641 0.65448952
-0.020826412 -0.018634111 0.65505791
-0.020916598 -0.019815683 0.65563089
-0.021007627 -0.021007597 0.65620923
-0.021099394 -0.022209853 0.65679222
-0.021191964 -0.023422658 0.65738034
-0.021285411 -0.024646223 0.657974
-0.021379625 -0.025880575 0.65857261
-0.021474738 -0.027125955 0.65917683
-0.021570638 -0.028382391 0.65978616
-0.021667464 -0.029650182 0.66040134
-0.021765098 -0.030929327 0.66102159
-0.021863613 -0.032220036 0.66164744
-0.021963093 -0.033522576 0.66227949
-0.022063415 -0.034836948 0.66291684
-0.022164727 -0.036163509 0.66356051
-0.022266904 -0.03750214 0.66420966
-0.022370096 -0.038853288 0.66486526
-0.022474179 -0.040216923 0.66552651
-0.022579236 -0.041593313 0.66619402
-0.022685351 -0.042982727 0.66686809
-0.022792393 -0.044385165 0.66754818
-0.022900525 -0.045801014 0.66823518
-0.023009615 -0.047230244 0.66892827
-0.023119824 -0.048673302 0.66962838
-0.023231018 -0.050130099 0.67033488
-0.023343286 -0.051600903 0.6710481
-0.023456722 -0.053086251 0.67176878
-0.023571188 -0.054585874 0.67249602
-0.023686856 -0.056100428 0.67323089
-0.023803584 -0.057629704 0.67397249
-0.023921547 -0.059174329 0.6747219
-0.024040608 -0.060734153 0.67547834
-0.024160858 -0.062309563 0.67624229
-0.027834166 0.054122031 0.70940375
-0.019366514 0.036581188 0.65261841
-0.016155282 0.029618055 0.63108343
-0.016212557 0.028822362 0.63146752
-0.0162702 0.028020918 0.63185412
-0.016328255 0.027213812 0.63224339
-0.016386766 0.026400894 0.63263583
-0.016445657 0.025582165 0.63303077
-0.016505014 0.024757564 0.63342881
-0.01656476 0.023926884 0.63382947
-0.016624982 0.023090243 0.63423336
-0.016685601 0.022247463 0.63463986
-0.016746664 0.021398515 0.63504928
-0.016808217 0.020543396 0.63546216
-0.016870184 0.019681931 0.63587767
-0.01693265 0.018814087 0.63629657
-0.016995538 0.017939746 0.63671833
-0.017058894 0.017058909 0.63714319
-0.01712277 0.016171515 0.63757157
-0.017187079 0.015277445 0.63800281
-0.017251918 0.014376611 0.63843763
-0.017317208 0.013468981 0.63887548
-0.017383033 0.012554407 0.63931692
-0.017449317 0.011632919 0.63976145
-0.01751611 0.010704309 0.64020938
-0.017583461 0.009768635 0.640661
-0.017651286 0.0088256598 0.6411159
-0.017719682 0.0078754127 0.64157456
-0.017788565 0.0069178343 0.6420365
-0.017857986 0.0059526861 0.64250201
-0.017927995 0.0049800277 0.64297152
-0.017998509 0.0039997101 0.64344442
-0.018069629 0.0030116141 0.64392132
-0.018141264 0.0020156801 0.64440173
-0.018213518 0.0010119081 0.64488626
-0.018286301 -0 0.64537436
-0.018359717 -0.0010199845 0.64586669
-0.018433675 -0.0020481646 0.64636266
-0.018508233 -0.0030846596 0.64686263
-0.018583445 -0.0041295886 0.64736706
-0.018659221 -0.0051830709 0.64787525
-0.018735668 -0.0062451959 0.64838791
-0.018812692 -0.0073160529 0.64890444
-0.018890353 -0.0083957016 0.64942521
-0.018968711 -0.0094843209 0.64995068
-0.019047668 -0.01058203 0.65048021
-0.019127337 -0.011688918 0.65101445
-0.019207623 -0.012805074 0.65155292
-0.01928864 -0.013930678 0.65209621
-0.019370288 -0.015065789 0.65264374
-0.019452631 -0.016210526 0.65319598
-0.019535732 -0.017365068 0.65375328
-0.019619491 -0.018529475 0.65431494
-0.019704027 -0.019704014 0.65488183
-0.019789238 -0.020888627 0.65545326
-0.019875247 -0.022083551 0.65603006
-0.019961948 -0.023288906 0.6566115
-0.020049408 -0.024504811 0.65719801
-0.020137699 -0.025731504 0.65779018
-0.020226711 -0.026968926 0.65838701
-0.020316571 -0.028217435 0.65898967
-0.020407176 -0.029477 0.65959728
-0.020498652 -0.03074795 0.66021073
-0.020590888 -0.032030255 0.66082925
-0.020683961 -0.033324122 0.66145343
-0.020777941 -0.034629881 0.66208369
-0.020872716 -0.035947442 0.66271925
-0.020968424 -0.037277162 0.66336107
-0.021064948 -0.038619012 0.66400838
-0.02116243 -0.039973438 0.66466212
-0.021260753 -0.041340321 0.66532147
-0.021359993 -0.04271996 0.66598707
-0.021460231 -0.044112682 0.66665924
-0.021561347 -0.045518398 0.66733736
-0.021663489 -0.046937555 0.66802233
-0.021766536 -0.048370063 0.66871333
-0.021870634 -0.0498164 0.66941142
-0.021975666 -0.051276505 0.67011583
-0.022081709 -0.052750736 0.67082691
-0.022188853 -0.054239392 0.67154539
-0.022296969 -0.055742413 0.67227054
-0.022406217 -0.057260305 0.67300314
-0.022516469 -0.058792979 0.67374247
-0.022627883 -0.060340971 0.67448962
-0.022740331 -0.061904222 0.67524374
-0.024261869 0.049950957 0.69501817
-0.017286258 0.034572542 0.64548695
-0.015187575 0.029481769 0.63058501
-0.015241134 0.028689235 0.63096535
-0.01529511 0.027891099 0.63134855
-0.015349432 0.027087271 0.63173437
-0.015404142 0.026277661 0.63212276
-0.01545928 0.025462389 0.6325143
-0.015514777 0.024641126 0.6329084
-0.01557071 0.023814023 0.63330555
-0.015627012 0.022980928 0.63370532
-0.015683722 0.022141755 0.63410795
-0.015740884 0.021296501 0.63451385
-0.015798423 0.020445049 0.63492239
-0.015856426 0.019587368 0.63533425
-0.015914816 0.018723339 0.63574886
-0.015973678 0.017852962 0.63616681
-0.016032936 0.016976058 0.63658762
-0.016092636 0.016092688 0.63701153
-0.016152823 0.015202701 0.63743889
-0.016213421 0.014306009 0.63786918
-0.016274516 0.013402551 0.63830298
-0.016336031 0.012492269 0.63873982
-0.016398015 0.011575103 0.63917994
-0.016460512 0.010650933 0.63962364
-0.016523445 0.0097196698 0.64007056
-0.016586903 0.0087813139 0.64052111
-0.016650807 0.007835716 0.64097488
-0.016715249 0.0068827569 0.64143246
-0.016780149 0.0059224367 0.64189327
-0.016845554 0.0049545765 0.64235771
-0.016911516 0.0039792061 0.64282614
-0.016977953 0.0029961467 0.64329785
-0.017044958 0.0020053089 0.64377356
-0.017112449 0.0010066628 0.64425284
-0.017180521 5.9604645e-08 0.64473617
-0.017249091 -0.0010146201 0.64522308
-0.017318211 -0.002037406 0.64571387
-0.017387932 -0.0030684471 0.646209
-0.017458174 -0.0041077733 0.64670771
-0.017529028 -0.0051555634 0.64721084
-0.017600415 -0.0062119067 0.64771771
-0.017672434 -0.0072768629 0.64822912
