# .PCD v0.7 - Point Cloud Data file format
VERSION 0.7
FIELDS x y z
SIZE 4 4 4
TYPE F F F
COUNT 1 1 1
WIDTH 1314
HEIGHT 1
VIEWPOINT 0 0 0 1 0 0 0
POINTS 1314
DATA ascii
-0.026634514 0.019463718 0.64640021
-0.026377378 0.018261254 0.64520645
-0.026125159 0.017081857 0.64403546
-0.025877718 0.015924752 0.6428867
-0.025634922 0.014789432 0.6417594
-0.025396639 0.013675153 0.64065313
-0.025162809 0.012581438 0.63956755
-0.02493318 0.01150763 0.63850147
-0.024707707 0.010453284 0.63745463
-0.024486277 0.0094178319 0.63642657
-0.024268778 0.0084007382 0.63541681
-0.024055108 0.0074016154 0.63442475
-0.023845168 0.0064198971 0.63345009
-0.024041148 0.0055480003 0.63436002
-0.024250587 0.0046635866 0.63533235
-0.024463709 0.0037636459 0.63632184
-0.02468067 0.0028477907 0.63732916
-0.024901452 0.0019155145 0.63835412
-0.025126284 0.00096639991 0.63939798
-0.025355147 -0 0.64046049
-0.025588218 -0.00098413229 0.64154261
-0.025825679 -0.0019865632 0.64264506
-0.026067523 -0.0030077398 0.64376783
-0.026314007 -0.0040482879 0.64491224
-0.026565127 -0.0051086843 0.64607811
-0.026821086 -0.0061894655 0.64726645
-0.027082099 -0.0072912872 0.64847827
-0.027348166 -0.0084148049 0.64971352
-0.027619589 -0.009560585 0.65097368
-0.027896378 -0.010729343 0.65225875
-0.02817877 -0.011921763 0.65356982
-0.028467018 -0.013138622 0.65490806
-0.028761141 -0.014380544 0.6562736
-0.029061491 -0.015648454 0.65766805
-0.029368093 -0.016943097 0.65909147
-0.029681323 -0.018265426 0.66054577
-0.030001216 -0.019616157 0.66203088
-0.030328078 -0.020996332 0.66354841
-0.030662235 -0.022406995 0.66509986
-0.031003743 -0.023848981 0.66668534
-0.031353042 -0.025323629 0.66830707
-0.0317102 -0.026831686 0.66996527
-0.032075588 -0.028374523 0.67166162
-0.032449599 -0.02995345 0.67339808
-0.032832332 -0.031569541 0.67517495
-0.033224307 -0.033224255 0.6769948
-0.033625644 -0.034918904 0.6788581
-0.034036793 -0.036654979 0.68076694
-0.034458242 -0.038434178 0.68272364
-0.034890138 -0.040257812 0.6847288
-0.035333123 -0.042127967 0.68678546
-0.035787374 -0.044045955 0.68889439
-0.036253449 -0.046013981 0.69105828
-0.036731966 -0.048034102 0.69327992
-0.037223145 -0.050108045 0.69556022
-0.037727781 -0.052238435 0.6979031
-0.03824614 -0.054427177 0.70030981
-0.038778938 -0.056676894 0.70278347
-0.039326951 -0.058990419 0.70532763
-0.039890513 -0.061370015 0.70794415
-0.040470626 -0.063819021 0.71063739
-0.041067693 -0.066340119 0.71340942
-0.041682638 -0.068936646 0.71626449
-0.042316463 -0.071612448 0.71920717
-0.04296967 -0.074370563 0.72223973
-0.043643553 -0.077215493 0.72536844
-0.044338714 -0.080150723 0.72859591
-0.045056581 -0.083181351 0.73192877
-0.045797866 -0.08631134 0.73537028
-0.036620524 0.073241055 0.69956326
-0.036117077 0.070789516 0.69713235
-0.035627279 0.068404436 0.69476742
-0.035150591 0.066083163 0.69246578
-0.034686618 0.063823402 0.69022554
-0.034234609 0.061622292 0.68804306
-0.033794232 0.059477895 0.68591666
-0.033365037 0.057387888 0.68384433
-0.032946609 0.055350363 0.68182397
-0.032538544 0.053363234 0.67985374
-0.032140575 0.05142495 0.67793214
-0.031752117 0.049533308 0.6760565
-0.031372935 0.047686905 0.67422569
-0.031002702 0.045884043 0.67243797
-0.030641107 0.044123232 0.67069209
-0.030287849 0.042403013 0.66898638
-0.029942738 0.040722132 0.66732001
-0.02960531 0.03907904 0.66569078
-0.029275402 0.037472546 0.66409785
-0.028952768 0.035901487 0.66254002
-0.028637167 0.034364611 0.66101623
-0.028328372 0.032860935 0.65952516
-0.028026246 0.031389385 0.65806639
-0.027730418 0.02994886 0.65663803
-0.02744077 0.028538436 0.65523946
-0.027157109 0.027157098 0.65386987
-0.026879253 0.025804102 0.65252823
-0.026607025 0.024478465 0.65121377
-0.026340256 0.023179471 0.64992571
-0.026078856 0.021906286 0.64866352
-0.025822522 0.020658046 0.64742589
-0.025571177 0.019434094 0.64621228
-0.02532468 0.018233776 0.64502209
-0.025082886 0.017056376 0.64385462
-0.024845669 0.015901268 0.6427092
-0.024612896 0.014767766 0.64158529
-0.024384508 0.013655305 0.64048254
-0.024160255 0.012563378 0.63939977
-0.023940092 0.011491299 0.63833672
-0.023723904 0.010438561 0.63729286
-0.023511587 0.0094046295 0.63626766
-0.023303034 0.0083891153 0.6352607
-0.023098206 0.0073914528 0.63427168
-0.022896891 0.0064111352 0.63329965
-0.023088012 0.0055411756 0.63422251
-0.023288954 0.004657805 0.63519275
-0.02349337 0.0037589669 0.63617969
-0.023701403 0.0028441846 0.6371842
-0.023913214 0.0019130707 0.63820696
-0.024128783 0.00096517801 0.63924778
-0.024348337 2.9802322e-08 0.64030784
-0.02457186 -0.00098285079 0.6413871
-0.024799526 -0.0019839406 0.64248639
-0.025031516 -0.0030037463 0.64360654
-0.025267819 -0.004042834 0.6447475
-0.025508694 -0.0051017106 0.64591056
-0.025754137 -0.0061809719 0.64709568
-0.026004348 -0.007281214 0.64830381
-0.026259542 -0.008403033 0.64953601
-0.02651972 -0.0095470846 0.65079224
-0.02678518 -0.010714054 0.65207398
-0.027055932 -0.011904597 0.65338135
-0.027332213 -0.013119459 0.6547153
-0.027614275 -0.014359415 0.65607721
-0.027902139 -0.015625179 0.65746713
-0.02819615 -0.016917646 0.65888679
-0.02849634 -0.018237621 0.6603362
-0.028802989 -0.019585967 0.66181684
-0.029116398 -0.020963788 0.66333008
-0.029436611 -0.022371799 0.66487622
-0.029764041 -0.023811191 0.66645718
-0.03009874 -0.025282919 0.6680733
-0.030441051 -0.026788056 0.66972607
-0.03079134 -0.028328031 0.67141747
-0.031149682 -0.02990368 0.67314768
-0.031516567 -0.031516552 0.67491913
-0.031892087 -0.03316775 0.67673236
-0.032276668 -0.034858763 0.67858922
-0.032670747 -0.036591232 0.68049204
-0.033074453 -0.038366377 0.68244129
-0.033488382 -0.040186077 0.68443996
-0.033912681 -0.042051703 0.68648863
-0.034347866 -0.04396528 0.68858987
-0.034794495 -0.045928717 0.69074643
-0.035252765 -0.047943741 0.69295907
-0.035723396 -0.050012738 0.69523156
-0.036206629 -0.052137524 0.69756484
-0.036703113 -0.054320544 0.69996196
-0.037213549 -0.056564569 0.70242661
-0.03773823 -0.058871627 0.70496005
-0.038278077 -0.061244935 0.70756662
-0.038833432 -0.063686788 0.71024811
-0.039405141 -0.066200584 0.71300852
-0.039994098 -0.06878984 0.71585232
-0.040600758 -0.071457297 0.71878147
-0.041226283 -0.074207276 0.72180182
-0.041871201 -0.077042997 0.72491574
-0.042536806 -0.079969168 0.72812963
-0.043223716 -0.082989514 0.73144627
-0.043933183 -0.086109012 0.73487186
-0.035079338 0.073082 0.69917911
-0.034598108 0.070637792 0.69675875
-0.034129903 0.068259835 0.69440389
-0.033674326 0.065945566 0.69211251
-0.033230629 0.063692033 0.68988085
-0.032798473 0.061497152 0.6877073
-0.032377414 0.059358627 0.68558955
-0.031967029 0.057274282 0.68352544
-0.031566918 0.055242121 0.68151307
-0.031176802 0.053260386 0.67955089
-0.030796109 0.051326841 0.67763621
-0.0304246 0.049439996 0.6757676
-0.030061949 0.047598124 0.67394364
-0.029707842 0.045799613 0.67216259
-0.029361978 0.044043005 0.67042303
-0.029024167 0.042326957 0.668724
-0.02869395 0.040649772 0.66706312
-0.028371165 0.039010346 0.66543967
-0.02805556 0.037407458 0.66385233
-0.027746899 0.035839766 0.66229981
-0.027444955 0.034306198 0.66078115
-0.027149595 0.032805771 0.65929562
-0.026860444 0.031337231 0.65784132
-0.026577389 0.029899597 0.65641761
-0.026300233 0.028491944 0.65502369
-0.026028801 0.027113378 0.65365845
-0.025762916 0.025762945 0.65232122
-0.025502477 0.024439901 0.65101123
-0.025247181 0.023143262 0.64972728
-0.024996946 0.021872401 0.64846861
-0.024751624 0.020626366 0.6472348
-0.024511067 0.01940462 0.64602488
-0.024275145 0.018206388 0.64483821
-0.024043718 0.017030954 0.64367425
-0.023816727 0.015877843 0.64253259
-0.023593917 0.014746219 0.64141196
-0.023375241 0.013635576 0.64031208
-0.023160579 0.012545317 0.63923246
-0.022949826 0.011474907 0.63817245
-0.022742873 0.010423839 0.63713151
-0.022539619 0.0093915164 0.63610923
-0.022340018 0.0083775222 0.63510537
-0.022143871 0.00738132 0.6341188
-0.021951137 0.0064024627 0.63314939
-0.022137273 0.0055343509 0.6340856
-0.022329649 0.0046520531 0.63505316
-0.022525398 0.0037542582 0.63603771
-0.022724664 0.0028406084 0.63703996
-0.022927431 0.0019106567 0.63805979
-0.023133907 0.00096392632 0.63909829
-0.023344075 2.9802322e-08 0.64015532
-0.023558101 -0.00098156929 0.64123178
-0.023776146 -0.0019812882 0.64232844
-0.023998203 -0.0029997826 0.64344537
-0.02422451 -0.0040373802 0.64458358
-0.024455061 -0.0050947666 0.64574313
-0.024690108 -0.006172508 0.64692539
-0.02492965 -0.007271111 0.64813018
-0.025173888 -0.0083912611 0.64935863
-0.025423026 -0.0095336139 0.6506117
-0.025677076 -0.010698736 0.65188944
-0.025936328 -0.011887491 0.65319335
-0.02620079 -0.013100386 0.65452349
-0.026470704 -0.014338285 0.65588105
-0.026746312 -0.015602022 0.65726727
-0.027027642 -0.016892254 0.65868229
-0.027315035 -0.018209994 0.6601277
-0.027608521 -0.019556016 0.66160381
-0.027908383 -0.020931244 0.66311204
-0.028214918 -0.022336781 0.66465372
-0.028528173 -0.023773462 0.66622937
-0.028848551 -0.025242448 0.66784072
-0.029176112 -0.026744723 0.66948819
-0.0295112 -0.02828151 0.67117357
-0.029854171 -0.029854119 0.67289859
-0.030205108 -0.031463653 0.67466366
-0.030564496 -0.033111542 0.67647123
-0.030932436 -0.03479895 0.67832184
-0.03130934 -0.036527544 0.6802175
-0.031695653 -0.038298905 0.6821605
-0.032091506 -0.040114343 0.68415153
-0.032497484 -0.041975886 0.68619347
-0.032913752 -0.043884963 0.68828714
-0.033340819 -0.045843631 0.69043505
-0.033779241 -0.047853917 0.69264013
-0.034229215 -0.049917579 0.69490337
-0.034691475 -0.052037179 0.69722837
-0.035166252 -0.054214597 0.69961631
-0.035654213 -0.056452483 0.70207059
-0.036156043 -0.05875355 0.70459455
-0.036672056 -0.061120033 0.70718986
-0.037203159 -0.06355539 0.70986116
-0.037749715 -0.066062003 0.71261013
-0.038312577 -0.068643332 0.71544111
-0.038892634 -0.071303129 0.71835858
-0.039490364 -0.074044406 0.72136492
-0.040106926 -0.076871544 0.72446597
-0.040742863 -0.079788059 0.72766447
-0.041399479 -0.082798958 0.73096704
-0.042077415 -0.085908026 0.73437673
-0.033544824 0.072923541 0.69879675
-0.033085633 0.070486814 0.69638669
-0.03263896 0.068116158 0.69404244
-0.032204073 0.065808356 0.69176006
-0.031780619 0.063561261 0.68953764
-0.031368159 0.061372519 0.68737292
-0.030966269 0.059239835 0.68526363
-0.030574543 0.057161152 0.68320775
-0.03019271 0.055134505 0.68120384
-0.029820194 0.053157747 0.67924875
-0.029456761 0.051229149 0.67734134
-0.029102078 0.049347013 0.67547983
-0.028755836 0.04750967 0.67366266
-0.028417733 0.045715541 0.67188823
-0.028087581 0.043963224 0.67015547
-0.027764924 0.042251021 0.6684621
-0.027449593 0.04057765 0.66680717
-0.027141348 0.03894195 0.66518939
-0.026839945 0.037342548 0.66360754
-0.026545247 0.035778403 0.66206086
-0.026256869 0.034248114 0.66054738
-0.025974691 0.032750726 0.65906644
-0.025698513 0.031285167 0.65761691
-0.025428144 0.029850453 0.65619797
-0.025163408 0.028445601 0.65480858
-0.024904126 0.027069747 0.65344775
-0.024650201 0.025721967 0.65211517
-0.024401337 0.024401367 0.65080899
-0.024157446 0.023107141 0.64952898
-0.023918381 0.021838546 0.6482743
-0.023684004 0.020594835 0.64704424
-0.023454174 0.019375205 0.64583802
-0.023228761 0.018179029 0.64465499
-0.0230077 0.017005742 0.64349478
-0.022790749 0.015854418 0.64235616
-0.02257785 0.014724702 0.64123881
-0.022368893 0.013615876 0.64014214
-0.022163767 0.012527376 0.63906556
-0.021962369 0.011458665 0.63800859
-0.021764599 0.010409176 0.63697064
-0.021570414 0.0093784928 0.63595146
-0.021379609 0.0083659589 0.6349501
-0.02119215 0.007371217 0.63396621
-0.02100805 0.0063937902 0.63300002
-0.021188818 0.0055275261 0.63394874
-0.021372773 0.0046462715 0.63491422
-0.0215599 0.0037495792 0.63589633
-0.021750331 0.0028370321 0.63689578
-0.021944212 0.0019082129 0.63791329
-0.022141526 0.00096267462 0.63894886
-0.022342475 2.9802322e-08 0.6400035
-0.022547048 -0.00098028779 0.64107716
-0.022755401 -0.0019786954 0.64217067
-0.022967702 -0.0029957592 0.64328486
-0.02318394 -0.004031986 0.64441979
-0.023404351 -0.0050878823 0.64557654
-0.02362893 -0.0061640441 0.64675516
-0.023857858 -0.0072610378 0.64795667
-0.024091333 -0.0083795786 0.64918202
-0.024329355 -0.0095201433 0.65043122
-0.024572199 -0.010683537 0.65170574
-0.024819868 -0.011870354 0.65300554
-0.025072578 -0.013081342 0.65433186
-0.025330562 -0.014317274 0.6556859
-0.025593836 -0.015578866 0.6570676
-0.025862716 -0.016866982 0.6584788
-0.026137227 -0.018182427 0.6599195
-0.02641763 -0.019526064 0.66139108
-0.026704194 -0.020898879 0.66289508
-0.026996959 -0.022301823 0.66443157
-0.027296303 -0.023735881 0.66600263
-0.02760227 -0.025202006 0.66760838
-0.027915174 -0.026701421 0.66925061
-0.028235344 -0.028235316 0.67093098
-0.028562851 -0.029804677 0.67264986
-0.028898144 -0.031411022 0.67440957
-0.029241301 -0.033055365 0.67621052
-0.029592706 -0.034739256 0.67805487
-0.029952761 -0.036464214 0.67994452
-0.030321583 -0.038231492 0.68188018
-0.030699709 -0.040043056 0.68386471
-0.031087272 -0.041900218 0.68589872
-0.031484861 -0.043804973 0.68798542
-0.031892635 -0.045758963 0.69012547
-0.032311108 -0.047764212 0.69232184
-0.032740831 -0.049823016 0.6945771
-0.033182018 -0.051937014 0.6968925
-0.033635382 -0.054109097 0.69927198
-0.034101173 -0.056341052 0.70171654
-0.034580048 -0.058635712 0.70422983
-0.035072707 -0.060995996 0.70681548
-0.035579458 -0.0634242 0.70947498
-0.036101218 -0.065923929 0.7122134
-0.036638353 -0.068497777 0.71503246
-0.037191715 -0.071149349 0.71793664
-0.03776221 -0.07388258 0.72093076
-0.038350314 -0.076700598 0.72401726
-0.038957197 -0.079608142 0.72720236
-0.039583415 -0.082608849 0.73048896
-0.040230103 -0.085707575 0.7338829
-0.032017078 0.072766095 0.69841659
-0.031579729 0.07033667 0.69601691
-0.031154169 0.067972749 0.69368196
-0.030739926 0.065671682 0.69140905
-0.030336553 0.063431025 0.68919575
-0.029943632 0.061248332 0.68703991
-0.02956086 0.059121728 0.68493968
-0.029187651 0.057048619 0.68289196
-0.028823748 0.055027157 0.68089527
-0.028468808 0.053055525 0.67894781
-0.028122501 0.051131845 0.67704761
-0.027784519 0.049254388 0.67519319
-0.027454656 0.047421694 0.6733833
-0.027132444 0.045631826 0.67161536
-0.026817707 0.043883532 0.66988844
-0.02651019 0.042175323 0.66820109
-0.026209643 0.040505826 0.66655207
-0.025915837 0.038873792 0.66494
-0.025628623 0.037277997 0.66336411
-0.025347626 0.0357171 0.66182232
-0.025072727 0.034190118 0.66031396
-0.024803726 0.03269583 0.65883803
-0.024540434 0.031233311 0.6573934
-0.024282673 0.029801488 0.6559791
-0.024030274 0.028399408 0.65459418
-0.023783132 0.027026325 0.65323812
-0.023540957 0.025681078 0.65190941
-0.023303663 0.024362952 0.65060741
-0.023071107 0.02307111 0.64933145
-0.022843147 0.021804869 0.64808059
-0.022619646 0.020563334 0.64685428
-0.022400476 0.01934588 0.6456517
-0.022185571 0.01815185 0.6444726
-0.021974696 0.016980469 0.64331555
-0.021767789 0.015831143 0.64218026
-0.021564743 0.014703244 0.64106619
-0.021365449 0.013596237 0.63997269
-0.021169806 0.012509435 0.63889921
-0.020977713 0.011442453 0.63784522
-0.020789126 0.010394603 0.63681054
-0.02060385 0.0093654096 0.63579392
-0.020421846 0.0083544254 0.63479531
-0.02024303 0.007361114 0.63381416
-0.020070203 0.006385982 0.63286585
-0.020242736 0.005520761 0.63381255
-0.020418214 0.0046405494 0.63477534
-0.020596758 0.0037449002 0.635755
-0.020778505 0.0028334856 0.63675225
-0.020963436 0.0019057989 0.6377669
-0.02115174 0.00096145272 0.63880008
-0.021343406 -0 0.63985175
-0.021538632 -0.00097897649 0.6409229
-0.021737404 -0.0019761026 0.64201355
-0.021939881 -0.0029917955 0.64312452
-0.022146223 -0.004026562 0.64425671
-0.022356424 -0.0050809979 0.64541006
-0.022570714 -0.0061556399 0.64658582
-0.022789089 -0.007251054 0.64778399
-0.023011733 -0.0083678663 0.64900559
-0.023238832 -0.0095067322 0.65025163
-0.023470392 -0.010668337 0.65152222
-0.023706684 -0.011853307 0.65281868
-0.02394771 -0.013062358 0.65414119
-0.024193691 -0.014296234 0.65549088
-0.024444846 -0.015555799 0.65686893
-0.024701199 -0.016841739 0.65827549
-0.024963059 -0.018154919 0.65971226
-0.025230456 -0.019496232 0.66117942
-0.025503641 -0.020866573 0.66267836
-0.025782889 -0.022267014 0.6642105
-0.026068239 -0.02369839 0.66577619
-0.026360054 -0.025161862 0.66737735
-0.026658395 -0.026658386 0.66901433
-0.026963567 -0.028189152 0.67068869
-0.027275894 -0.029755503 0.67240244
-0.027595451 -0.031358451 0.67415583
-0.027922679 -0.032999516 0.67595124
-0.028257664 -0.03467983 0.67778921
-0.028600784 -0.036401004 0.67967188
-0.028952438 -0.038164556 0.68160141
-0.029312747 -0.039971888 0.68357831
-0.029682241 -0.041824967 0.6856057
-0.030061061 -0.043725163 0.68768418
-0.030449675 -0.045674503 0.68981647
-0.030848581 -0.047675043 0.69200522
-0.031257965 -0.049728543 0.69425142
-0.031678475 -0.051837504 0.69655871
-0.032110333 -0.054003686 0.69892824
-0.032554131 -0.05622983 0.70136327
-0.033010494 -0.058518589 0.70386732
-0.033479702 -0.060872138 0.70644176
-0.033962581 -0.063293844 0.70909125
-0.034459449 -0.065786183 0.7118175
-0.03497107 -0.06835255 0.7146247
-0.035498265 -0.070996493 0.71751738
-0.036041439 -0.073721111 0.72049767
-0.036601659 -0.076530725 0.72357148
-0.037179403 -0.079428673 0.72674143
-0.037775848 -0.082420021 0.73001409
-0.038391568 -0.085508466 0.73339242
-0.030495793 0.072609037 0.69803745
-0.030080114 0.070186973 0.69564801
-0.029675612 0.067829996 0.6933229
-0.029281847 0.065535575 0.69105947
-0.028898394 0.063301295 0.68885541
-0.028524956 0.061124921 0.68670881
-0.028160948 0.05900389 0.68461645
-0.027806113 0.056936353 0.68257678
-0.027460108 0.054920226 0.68058789
-0.027122607 0.05295369 0.67864794
-0.026793303 0.051034898 0.67675507
-0.026471987 0.049162239 0.67490804
-0.026158201 0.047333896 0.67310441
-0.025851766 0.045548379 0.67134297
-0.025552429 0.043804169 0.66962236
-0.025259942 0.042099953 0.66794109
-0.024974078 0.040434211 0.66629791
-0.024694685 0.038805991 0.66469193
-0.024421401 0.037213564 0.66312104
-0.024154101 0.035656065 0.66158456
-0.023892587 0.034132332 0.66008133
-0.023636676 0.032641143 0.65861034
-0.02338619 0.031181604 0.65717047
-0.023140956 0.029752702 0.65576088
-0.022900876 0.028353482 0.65438086
-0.022665665 0.026982963 0.65302885
-0.022435235 0.025640279 0.65170431
-0.022209443 0.024324656 0.65040636
-0.02198815 0.023035228 0.6491344
-0.021771224 0.021771252 0.64788747
-0.021558536 0.020531982 0.64666492
-0.021350022 0.019316673 0.64546639
-0.021145444 0.0181247 0.64429039
-0.020944754 0.016955316 0.64313686
-0.020747835 0.015807897 0.64200491
-0.020554584 0.014681876 0.64089406
-0.020364899 0.013576627 0.63980377
-0.020178683 0.012491584 0.63873333
-0.019995892 0.01142627 0.63768268
-0.019816337 0.01038 0.63665056
-0.019639974 0.009352386 0.63563681
-0.019466724 0.0083429217 0.63464093
-0.019296503 0.0073510706 0.63366246
-0.019134682 0.0063782632 0.63273227
-0.019298924 0.0055139661 0.63367641
-0.019466061 0.0046348274 0.63463712
-0.019636067 0.0037402213 0.63561428
-0.019809071 0.0028298795 0.63660878
-0.019985199 0.0019033551 0.63762122
-0.020164438 0.00096023083 0.63865149
-0.020346971 2.9802322e-08 0.63970071
-0.020532789 -0.00097772479 0.64076877
-0.02072203 -0.0019735098 0.64185655
-0.020914845 -0.0029878318 0.6429649
-0.021111228 -0.0040211976 0.64409375
-0.021311391 -0.0050741136 0.6452443
-0.021515327 -0.0061472058 0.64641654
-0.021723205 -0.0072410405 0.64761144
-0.0219352 -0.0083562434 0.64883
-0.022151308 -0.0094934106 0.65007222
-0.022371784 -0.010653198 0.65133953
-0.022596626 -0.01183632 0.652632
-0.022826035 -0.013043404 0.65395069
-0.023060216 -0.014275342 0.65529674
-0.023299184 -0.015532792 0.65667039
-0.023543226 -0.016816586 0.65807319
-0.023792364 -0.018127501 0.65950525
-0.024046831 -0.01946646 0.66096795
-0.024306873 -0.020834476 0.66246277
-0.024572523 -0.022232234 0.66398972
-0.024844127 -0.023661047 0.66555089
-0.025121719 -0.025121719 0.66714656
-0.025405666 -0.026615411 0.66877878
-0.025696022 -0.028143257 0.67044777
-0.025993094 -0.029706359 0.67215532
-0.0262972 -0.031306177 0.67390335
-0.026608417 -0.032943726 0.67569232
-0.026927181 -0.034620643 0.67752457
-0.027253579 -0.036338091 0.67940074
-0.027587987 -0.03809768 0.68132299
-0.027930804 -0.039901137 0.68329358
-0.028282147 -0.041749835 0.68531311
-0.028642545 -0.043645769 0.68738472
-0.02901214 -0.04559049 0.68950915
-0.029391399 -0.047586054 0.69168919
-0.029780814 -0.049634695 0.69392765
-0.030180575 -0.051738113 0.69622546
-0.030591331 -0.05389899 0.69858652
-0.031013301 -0.056119263 0.70101213
-0.031447075 -0.058401674 0.70350546
-0.031893283 -0.060749114 0.70607036
-0.032352205 -0.063163817 0.70870835
-0.032824662 -0.065649301 0.71142399
-0.033310983 -0.068208218 0.71421951
-0.033811931 -0.070844024 0.71709901
-0.034328327 -0.073560685 0.72006732
-0.034860581 -0.076361239 0.72312677
-0.035409763 -0.079250395 0.72628349
-0.035976361 -0.082231641 0.72954035
-0.036561556 -0.085310251 0.7329042
-0.028981064 0.072452694 0.69765985
-0.02858687 0.070037872 0.69528067
-0.028203255 0.067687839 0.69296545
-0.027829802 0.065400064 0.69071144
-0.027466204 0.063172311 0.68851691
-0.027111892 0.061001778 0.68637848
-0.026766602 0.058886528 0.68429446
-0.02643 0.056824535 0.6822629
-0.026101757 0.054813683 0.6802817
-0.025781566 0.052852213 0.67834926
-0.025469221 0.050938457 0.67646408
-0.025164271 0.049070358 0.67462355
-0.024866536 0.047246456 0.67282653
-0.024575766 0.045465201 0.67107153
-0.024291715 0.043725133 0.66935718
-0.024014156 0.042024791 0.66768199
-0.023742944 0.040363014 0.66604507
-0.023477716 0.038738251 0.66444427
-0.023218349 0.03714937 0.66287887
-0.022964649 0.035595268 0.66134763
-0.022716431 0.034074694 0.65984952
-0.022473523 0.032586604 0.65838343
-0.022235757 0.031130105 0.65694833
-0.022003034 0.029704124 0.6555438
-0.021775065 0.028307647 0.65416789
-0.021551775 0.02693975 0.65282017
-0.021333016 0.025599629 0.65149987
-0.021118654 0.024286449 0.65020609
-0.020908559 0.022999436 0.648938
-0.020702599 0.021737754 0.64769495
-0.020500716 0.02050072 0.64647645
-0.020302678 0.019287556 0.6452812
-0.020108426 0.018097609 0.64410877
-0.019917859 0.016930193 0.64295864
-0.01973087 0.015784711 0.64183003
-0.019547358 0.014660507 0.64072245
-0.019367278 0.013557106 0.63963556
-0.019190438 0.012473822 0.63856822
-0.019016795 0.011410117 0.63752019
-0.01884627 0.010365486 0.636491
-0.018678775 0.0093393922 0.63548011
-0.018514231 0.0083314478 0.63448691
-0.018352559 0.0073410273 0.63351119
-0.018201383 0.0063704848 0.63259876
-0.018357469 0.0055072606 0.63354087
-0.018516211 0.0046290755 0.63449895
-0.018677766 0.0037355721 0.63547403
-0.01884212 0.0028263628 0.63646597
-0.019009393 0.0019009709 0.63747549
-0.019179709 0.00095900893 0.63850343
-0.019353056 2.9802322e-08 0.63954973
-0.019529613 -0.00097644329 0.64061534
-0.019709375 -0.001970917 0.64170033
-0.019892473 -0.0029838979 0.64280546
-0.020079058 -0.0040157735 0.64393151
-0.020269124 -0.0050672591 0.64507866
-0.020462876 -0.0061388314 0.6462481
-0.020660315 -0.0072310865 0.64743972
-0.020861598 -0.0083446205 0.64865458
-0.021066902 -0.0094800591 0.6498937
-0.021276224 -0.010638118 0.65115714
-0.021489812 -0.011819392 0.65244621
-0.021707669 -0.013024598 0.65376103
-0.021929989 -0.014254451 0.65510285
-0.022156972 -0.015509844 0.6564728
-0.022388639 -0.016791463 0.65787113
-0.022625268 -0.018100172 0.65929925
-0.022866882 -0.019436836 0.66075754
-0.023113716 -0.020802319 0.6622473
-0.023366006 -0.022197664 0.66377002
-0.023623791 -0.023623765 0.66532588
-0.023887401 -0.025081754 0.66691697
-0.024156889 -0.026572526 0.6685434
-0.024432523 -0.028097391 0.67020702
-0.024714602 -0.029657513 0.67190951
-0.025003185 -0.031253934 0.67365128
-0.025298674 -0.032888234 0.67543471
-0.025601145 -0.034561515 0.67726028
-0.025910933 -0.036275297 0.67913008
-0.026228402 -0.038031161 0.68104613
-0.026553657 -0.039830446 0.68300915
-0.026887171 -0.041675091 0.68502212
-0.027229073 -0.043566525 0.68708575
-0.027579783 -0.045506626 0.68920243
-0.027939748 -0.047497571 0.69137502
-0.028309129 -0.049540967 0.69360435
-0.028688515 -0.051639318 0.69589424
-0.029078096 -0.053794473 0.69824558
-0.029478407 -0.056008965 0.7006616
-0.029890006 -0.058285505 0.70314586
-0.030313144 -0.060626268 0.70569974
-0.030748559 -0.063034534 0.70832765
-0.031196536 -0.065512717 0.7110315
-0.031657759 -0.068064183 0.71381521
-0.032132961 -0.070692509 0.71668327
-0.032622505 -0.073400617 0.71963793
-0.033127341 -0.076192856 0.72268492
-0.033647902 -0.079072535 0.72582674
-0.034185234 -0.082044542 0.72906983
-0.034739848 -0.085112602 0.73241723
-0.027472844 0.072297007 0.69728398
-0.027099958 0.069889396 0.69491494
-0.026737057 0.067546219 0.69260937
-0.026383843 0.065265298 0.69036537
-0.026039746 0.063043594 0.68817925
-0.025704509 0.060879141 0.6860494
-0.025377793 0.058769643 0.68397373
-0.025059281 0.056713134 0.68195021
-0.024748662 0.054707617 0.67997676
-0.024445735 0.052751333 0.67805219
-0.024150053 0.050842226 0.67617369
-0.023861436 0.048978746 0.67434007
-0.023579638 0.047159284 0.67254972
-0.023304416 0.045382321 0.67080116
-0.023035547 0.043646336 0.66909301
-0.022772882 0.041950047 0.66742426
-0.02251607 0.040291935 0.6657927
-0.022264985 0.038670808 0.6641975
-0.022019438 0.037085414 0.66263747
-0.021779248 0.035534561 0.66111153
-0.021544242 0.034017235 0.65961844
-0.021314315 0.032532394 0.65815765
-0.021089185 0.031078815 0.65672743
-0.02086876 0.029655606 0.65532696
-0.020652894 0.02826187 0.65395552
-0.020441448 0.026896685 0.65261215
-0.020234289 0.025559098 0.65129608
-0.020031286 0.024248451 0.65000635
-0.019832371 0.022963822 0.64874256
-0.019637313 0.021704435 0.64750332
-0.019446054 0.020469546 0.64628828
-0.019258488 0.019258529 0.6450966
-0.019074503 0.018070608 0.64392769
-0.018894002 0.016905159 0.6427809
-0.018716883 0.015761584 0.64165568
-0.0185431 0.014639318 0.64055163
-0.018372472 0.013537616 0.63946754
-0.018204954 0.012456059 0.6384033
-0.018040461 0.011393994 0.63735825
-0.017878916 0.010350972 0.63633192
-0.017720239 0.009326458 0.63532382
-0.017564353 0.0083199739 0.63433343
-0.017411228 0.0073310435 0.63336062
-0.01727039 0.0063627958 0.63246584
-0.017418269 0.0055005252 0.63340533
-0.017568745 0.0046233535 0.63436139
-0.017721802 0.0037309229 0.63533378
-0.017877547 0.0028227866 0.63632321
-0.018036101 0.0018985569 0.63733053
-0.018197445 0.00095778704 0.63835555
-0.018361747 2.9802322e-08 0.63939941
-0.018528998 -0.00097519159 0.64046204
-0.018699324 -0.0019683242 0.6415441
-0.018872857 -0.0029799044 0.64264667
-0.019049594 -0.0040104091 0.6437695
-0.019229723 -0.0050604045 0.64491385
-0.019413238 -0.0061304867 0.64607978
-0.019600289 -0.0072211325 0.64726818
-0.019791035 -0.0083330274 0.64848
-0.019985475 -0.0094667673 0.6497153
-0.020183828 -0.010623038 0.65097547
-0.020386102 -0.011802465 0.65226054
-0.020592472 -0.013005763 0.65357167
-0.02080312 -0.014233679 0.65490997
-0.021018062 -0.015486956 0.65627551
-0.021237556 -0.016766459 0.65766996
-0.021461617 -0.018072903 0.6590935
-0.021690523 -0.019407302 0.66054785
-0.021924296 -0.020770371 0.66203302
-0.022163166 -0.022163153 0.66355056
-0.022407364 -0.023586661 0.66510201
-0.022656934 -0.025041848 0.66668761
-0.022912201 -0.026529908 0.66830939
-0.023173207 -0.028051734 0.66996759
-0.023440233 -0.029608667 0.67166406
-0.023713559 -0.031202018 0.67340052
-0.023993256 -0.032832861 0.67517751
-0.02427971 -0.034502745 0.67699736
-0.024573004 -0.036212802 0.67886078
-0.024873469 -0.037964761 0.68076968
-0.025181463 -0.039760172 0.68272638
-0.025497088 -0.041600466 0.6847316
-0.02582082 -0.043487638 0.68678832
-0.02615278 -0.045423239 0.68889737
-0.026493391 -0.047409207 0.69106138
-0.02684309 -0.049447775 0.69328308
-0.02720204 -0.051540673 0.69556355
-0.027570825 -0.053690553 0.69790649
-0.027949641 -0.055899262 0.70031321
-0.02833901 -0.058169544 0.70278698
-0.028739495 -0.060504198 0.70533133
-0.029151347 -0.06290552 0.70794785
-0.029575294 -0.065376908 0.71064121
-0.030011626 -0.067921013 0.71341336
-0.03046103 -0.070541292 0.71626854
-0.030924229 -0.073241562 0.71921134
-0.031401593 -0.07602489 0.72224408
-0.031894069 -0.078895807 0.72537291
-0.032402094 -0.08185792 0.7286005
-0.032926712 -0.084916234 0.73193347
-0.025971092 0.072141945 0.69690973
-0.025619429 0.069741815 0.69455141
-0.025277071 0.067405581 0.6922555
-0.024943741 0.065130919 0.69002014
-0.024619086 0.062915474 0.68784297
-0.024302775 0.060756952 0.68572176
-0.023994489 0.058653235 0.68365431
-0.023694009 0.056602389 0.68163925
-0.023400882 0.054602087 0.67967349
-0.023114916 0.05265066 0.67775577
-0.022835856 0.050746351 0.67588437
-0.022563457 0.048887491 0.6740576
-0.022297477 0.04707244 0.67227393
-0.022037767 0.045299888 0.67053223
-0.021783967 0.043567955 0.66883022
-0.021535946 0.041875452 0.66716695
-0.02129351 0.040221095 0.66554117
-0.021056471 0.038603574 0.66395152
-0.020824652 0.037021637 0.66239691
-0.020597942 0.035474271 0.66087657
-0.020376056 0.033960104 0.65938854
-0.0201589 0.032478243 0.65793228
-0.019946322 0.031027645 0.65650672
-0.019738181 0.029607296 0.6551109
-0.019534342 0.028216302 0.65374392
-0.019334666 0.02685374 0.65240484
-0.019139087 0.025518805 0.65109324
-0.01894737 0.024210542 0.64980763
-0.018759459 0.022928268 0.64854741
-0.018575238 0.021671146 0.64731199
-0.018394597 0.020438462 0.64610058
-0.018217439 0.019229561 0.64491254
-0.01804366 0.018043667 0.64374721
-0.017873211 0.016880274 0.64260411
-0.017705906 0.015738606 0.64148211
-0.017541705 0.014618129 0.64038098
-0.017380521 0.013518184 0.63930011
-0.017222272 0.012438357 0.63823879
-0.017066879 0.011377931 0.63719678
-0.016914265 0.010336548 0.63617331
-0.016764399 0.0093135834 0.63516819
-0.016617123 0.0083085597 0.63418067
-0.016472412 0.0073210597 0.63321018
-0.016341608 0.0063551068 0.63233292
-0.016481403 0.0054938197 0.63327044
-0.01662357 0.0046176612 0.63422388
-0.016768252 0.0037263036 0.63519412
-0.016915435 0.0028192699 0.63618112
-0.017065221 0.0018961728 0.63718557
-0.017217731 0.00095653534 0.63820839
-0.017372945 5.9604645e-08 0.63924927
-0.017531026 -0.00097391009 0.64030939
-0.017691968 -0.0019657612 0.64138865
-0.01785589 -0.0029759705 0.642488
-0.018022927 -0.0040050745 0.64360815
-0.01819307 -0.0050536096 0.64474916
-0.018366504 -0.0061221421 0.64591223
-0.01854323 -0.0072112083 0.64709735
-0.018723385 -0.0083214641 0.64830554
-0.01890713 -0.0094535351 0.64953774
-0.019094463 -0.010608017 0.65079403
-0.019285602 -0.011785626 0.65207583
-0.019480549 -0.012987018 0.6533832
-0.019679477 -0.014212906 0.65471721
-0.019882567 -0.015464187 0.65607917
-0.020089835 -0.016741484 0.65746909
-0.02030153 -0.018045783 0.65888882
-0.020517671 -0.019377768 0.66033828
-0.020738466 -0.020738453 0.66181892
-0.020964127 -0.022128791 0.66333228
-0.021194687 -0.023549616 0.66487843
-0.021430442 -0.025002182 0.66645944
-0.021671435 -0.026487321 0.66807556
-0.021917909 -0.028006196 0.66972846
-0.022170123 -0.029560149 0.67141986
-0.022428136 -0.031150132 0.67315012
-0.022692304 -0.032777756 0.67492169
-0.022962689 -0.034443974 0.67673492
-0.023239594 -0.036150455 0.67859191
-0.023523342 -0.03789869 0.68049467
-0.023814023 -0.039689988 0.6824441
-0.024112059 -0.041526347 0.68444282
-0.024417564 -0.04340899 0.68649149
-0.024731001 -0.045340151 0.68859351
-0.025052495 -0.047321349 0.69074947
-0.025382461 -0.049354732 0.69296223
-0.025721328 -0.051442623 0.69523478
-0.026069269 -0.053586811 0.69756812
-0.026426854 -0.055789977 0.69996613
-0.026794279 -0.058054239 0.70243013
-0.027172064 -0.060382336 0.70496362
-0.027560769 -0.062777281 0.70757031
-0.027960639 -0.065241486 0.71025193
-0.028372405 -0.067778498 0.71301323
-0.028796356 -0.070391089 0.71585637
-0.029233169 -0.073082924 0.7187857
-0.029683566 -0.075857967 0.72180605
-0.030147927 -0.078719556 0.72492015
-0.030627184 -0.08167249 0.72813416
-0.031121785 -0.084720373 0.73145097
-0.024475861 0.071987838 0.69653773
-0.024145052 0.069594592 0.69418877
-0.023823068 0.067265153 0.69190246
-0.023509556 0.064997047 0.68967628
-0.023204191 0.062787831 0.68750799
-0.022906657 0.060635298 0.68539536
-0.022616733 0.058537483 0.68333673
-0.02233398 0.056491882 0.68132895
-0.022058211 0.054496765 0.67937088
-0.021789167 0.052550375 0.67746055
-0.02152661 0.050650895 0.67559618
-0.021270305 0.048796594 0.67377621
-0.021020098 0.046986133 0.67199963
-0.020775642 0.045217633 0.67026383
-0.020536806 0.043489724 0.66856796
-0.020303402 0.041801155 0.66691065
-0.020075241 0.040150493 0.66529053
-0.019852152 0.038536549 0.66370642
-0.019634025 0.036958158 0.66215765
-0.019420583 0.03541404 0.66064203
-0.019211732 0.033903062 0.65915906
-0.019007323 0.032424301 0.65770763
-0.018807219 0.030976623 0.65628678
-0.018611286 0.029559135 0.65489548
-0.018419391 0.028170854 0.65353292
-0.018231465 0.026811004 0.65219855
-0.018047284 0.025478542 0.65089071
-0.017866788 0.024172723 0.64960909
-0.017689867 0.022892833 0.64835286
-0.017516414 0.021637946 0.64712131
-0.01734633 0.020407468 0.64591354
-0.017179519 0.019200653 0.64472908
-0.017015927 0.018016905 0.64356744
-0.01685538 0.016855419 0.6424275
-0.016697833 0.015715629 0.64130878
-0.016543204 0.014596969 0.64021087
-0.016391413 0.013498843 0.63913304
-0.016242383 0.012420684 0.63807482
-0.016096037 0.011361957 0.63703567
-0.015952345 0.010322154 0.63601536
-0.015811156 0.0093007088 0.63501287
-0.015672445 0.0082971752 0.6340279
-0.015536148 0.0073111653 0.6330601
-0.015415109 0.006347388 0.63220066
-0.015546781 0.0054871142 0.63313562
-0.015680758 0.0046119988 0.63408697
-0.015817028 0.0037216842 0.63505453
-0.015955726 0.0028157234 0.63603938
-0.016096838 0.0018937886 0.63704139
-0.016240468 0.00095534325 0.63806123
-0.016386725 2.9802322e-08 0.63909972
-0.016535599 -0.0009726584 0.64015687
-0.016687244 -0.0019631982 0.64123362
-0.016841656 -0.0029720366 0.64233005
-0.016998949 -0.0039997101 0.64344692
-0.017159255 -0.0050468147 0.64458519
-0.017322566 -0.0061138272 0.6457448
-0.017489063 -0.0072013438 0.646927
-0.017658744 -0.0083099604 0.64813191
-0.01783175 -0.0094403028 0.6493603
-0.018008228 -0.010593057 0.65061343
-0.018188184 -0.011768788 0.65189123
-0.018371824 -0.012968302 0.6531952
-0.01855916 -0.014192283 0.6545254
-0.018750351 -0.015441447 0.65588301
-0.018945582 -0.016716659 0.65726924
-0.019144863 -0.018018633 0.65868425
-0.019348439 -0.019348443 0.66012979
-0.019556332 -0.020706654 0.66160595
-0.019768739 -0.022094429 0.66311419
-0.019985875 -0.023512751 0.66465598
-0.02020777 -0.024962515 0.66623163
-0.020434713 -0.026444882 0.66784298
-0.020666743 -0.027960867 0.66949058
-0.020904103 -0.02951166 0.67117596
-0.02114705 -0.031098604 0.67290109
-0.021395639 -0.032722741 0.67466617
-0.021650214 -0.034385622 0.6764738
-0.021910844 -0.036088407 0.67832446
-0.022177828 -0.037832737 0.68022025
-0.022451477 -0.03962025 0.6821633
-0.022731882 -0.041452229 0.68415439
-0.023019461 -0.043330729 0.68619633
-0.023314325 -0.045257181 0.68829012
-0.023616843 -0.047233701 0.69043815
-0.023927405 -0.049262285 0.69264334
-0.024246151 -0.051344752 0.69490659
-0.024573596 -0.053483665 0.69723165
-0.02490991 -0.05568096 0.69961971
-0.025255559 -0.057939202 0.70207405
-0.025611037 -0.06026125 0.70459819
-0.025976561 -0.062649339 0.70719361
-0.026352774 -0.065106839 0.70986497
-0.026739934 -0.067636311 0.71261406
-0.027138757 -0.070241451 0.71544588
-0.027549537 -0.07292524 0.71836269
-0.027972946 -0.075691462 0.72136921
-0.028409695 -0.078544438 0.72447038
-0.02886017 -0.081487536 0.72766906
-0.029325295 -0.084525824 0.73097175
-0.022986917 0.071834177 0.69616657
-0.022676889 0.069447994 0.69382763
-0.022375111 0.06712535 0.69155085
-0.022081258 0.064863682 0.68933398
-0.021795025 0.062660724 0.68717444
-0.021516193 0.060514301 0.68507087
-0.02124433 0.05842194 0.68301982
-0.020979254 0.056381762 0.68101996
-0.020720711 0.054391891 0.6790694
-0.020468462 0.052450448 0.67716634
-0.02022228 0.050555706 0.67530906
-0.019982018 0.048706174 0.67349643
-0.019747332 0.046899945 0.67172581
-0.019518094 0.045135617 0.66999632
-0.019294119 0.043411791 0.66830659
-0.019075224 0.041727066 0.66665518
-0.018861242 0.04008019 0.66504079
-0.018652063 0.038469911 0.66346264
-0.018447418 0.036894858 0.66191876
-0.018247215 0.035353988 0.66040832
-0.018051311 0.033846229 0.65893036
-0.017859567 0.032370508 0.65748376
-0.017671855 0.030925781 0.65606755
-0.017488047 0.029511094 0.65468085
-0.017308075 0.028125674 0.65332305
-0.01713172 0.026768357 0.65199256
-0.016958922 0.025438428 0.65068889
-0.016789574 0.024135053 0.64941126
-0.016623575 0.022857457 0.64815891
-0.016460828 0.021604866 0.64693105
-0.016301237 0.020376563 0.64572704
-0.016144753 0.019171923 0.64454645
-0.015991202 0.017990142 0.64338803
-0.015840545 0.016830593 0.64225137
-0.0156927 0.015692741 0.64113599
-0.015547588 0.014575899 0.64004123
-0.015405136 0.013479531 0.63896644
-0.015265309 0.012403101 0.63791156
-0.015127961 0.011345983 0.63687539
-0.014993061 0.010307729 0.63585764
-0.014860547 0.009287864 0.63485789
-0.014730354 0.0082858205 0.63387567
-0.014602423 0.0073012412 0.63291049
-0.014490809 0.0063397586 0.6320684
-0.01461447 0.0054804683 0.63300139
-0.014740225 0.0046063364 0.63395011
-0.014868198 0.0037170947 0.63491559
-0.014998376 0.0028122365 0.6358977
-0.015130854 0.0018914044 0.63689721
-0.015265731 0.00095412135 0.63791472
-0.015402995 -0 0.63895035
-0.015542789 -0.0009713769 0.64000499
-0.015685106 -0.0019606054 0.64107871
-0.015830051 -0.0029680729 0.64217222
-0.01597774 -0.0039944053 0.64328647
-0.016128171 -0.0050400496 0.64442134
-0.016281504 -0.0061055422 0.64557821
-0.016437737 -0.007191509 0.64675689
-0.016596997 -0.0082984865 0.6479584
-0.01675942 -0.0094271302 0.64918375
-0.016925005 -0.010578126 0.650433
-0.017093943 -0.011752069 0.65170753
-0.01726624 -0.012949675 0.65300745
-0.017442044 -0.01417166 0.65433377
-0.017621515 -0.015418798 0.65568781
-0.017804667 -0.016691834 0.65706956
-0.017991722 -0.017991692 0.65848076
-0.018182691 -0.019319057 0.65992147
-0.018377759 -0.020674974 0.66139317
-0.018577114 -0.022060305 0.66289723
-0.018780785 -0.023475945 0.66443372
-0.018989027 -0.024923086 0.66600484
-0.019201882 -0.026402563 0.6676107
-0.019419624 -0.027915657 0.66925341
-0.019642295 -0.02946341 0.67093337
-0.019870136 -0.031047076 0.6726523
-0.020103388 -0.032667994 0.67441201
-0.020342113 -0.034327298 0.67621309
-0.020586647 -0.036026627 0.67805797
-0.020837059 -0.037767142 0.67994726
-0.02109364 -0.039550573 0.68188292
-0.021356693 -0.041378587 0.68386751
-0.021626312 -0.043252587 0.68590164
-0.021902906 -0.045174718 0.6879884
-0.022186583 -0.047146469 0.69012856
-0.022477707 -0.049170017 0.69232494
-0.022776658 -0.051247478 0.69458032
-0.023083579 -0.053380728 0.69689584
-0.023398975 -0.05557254 0.69927537
-0.023723017 -0.05782482 0.70172006
-0.024056161 -0.060140371 0.70423341
-0.024398891 -0.062522113 0.70681912
-0.024751429 -0.06497246 0.7094788
-0.025114408 -0.067494929 0.71221727
-0.025488084 -0.070092231 0.71503645
-0.025873046 -0.072767884 0.71794075
-0.026269929 -0.075526029 0.72093505
-0.026679063 -0.078369707 0.72402167
-0.027101262 -0.081303775 0.72720695
-0.027536912 -0.084331781 0.73049372
-0.021504316 0.071681082 0.69579709
-0.021214893 0.069302022 0.69346797
-0.020933157 0.066986114 0.69120073
-0.020658806 0.064730972 0.68899292
-0.020391624 0.062534332 0.68684286
-0.020131197 0.060393602 0.6847471
-0.019877335 0.058306843 0.68270415
-0.019629799 0.056272089 0.6807121
-0.019388348 0.054287404 0.67876905
-0.019152768 0.052350909 0.67687333
-0.018922906 0.050461084 0.6750235
-0.018698433 0.048615932 0.67321706
-0.018479226 0.046814054 0.671453
-0.018265098 0.045053929 0.66972989
-0.018055877 0.043334126 0.66804618
-0.017851392 0.041653275 0.66640067
-0.017651543 0.040010214 0.66479236
-0.017456064 0.038403392 0.66321927
-0.017264869 0.036831737 0.66168064
-0.017077817 0.035294175 0.66017532
-0.016894775 0.033789575 0.65870237
-0.016715614 0.032316893 0.6572606
-0.016540261 0.030875176 0.65584946
-0.016368503 0.029463291 0.65446723
-0.016200274 0.028080493 0.65311342
-0.016035467 0.026725829 0.65178716
-0.015873984 0.025398374 0.65048766
-0.015715716 0.024097472 0.64921403
-0.015560575 0.022822171 0.64796555
-0.015408508 0.021571904 0.64674181
-0.015259344 0.020345807 0.64554143
-0.01511304 0.019143194 0.64436412
-0.014969516 0.017963439 0.6432091
-0.014828691 0.016805857 0.64207584
-0.014690491 0.015669882 0.64096361
-0.014554844 0.014554858 0.63987201
-0.014421715 0.013460308 0.63880068
-0.014290964 0.012385517 0.63774848
-0.014162562 0.011330038 0.63671517
-0.014036447 0.010293424 0.63570035
-0.013912558 0.009275049 0.63470334
-0.013790837 0.0082745552 0.63372374
-0.013671228 0.0072913468 0.63276124
-0.013568774 0.0063320696 0.63193679
-0.013684393 0.0054737628 0.63286722
-0.013802032 0.0046007037 0.63381386
-0.013921679 0.0037124455 0.63477671
-0.014043452 0.0028087199 0.63575667
-0.01416734 0.0018889904 0.63675368
-0.014293431 0.00095289946 0.63776839
-0.014421824 2.9802322e-08 0.63880157
-0.014552508 -0.0009701252 0.63985324
-0.01468562 -0.001958102 0.64092445
-0.01482115 -0.0029641986 0.6420151
-0.014959206 -0.0039891005 0.64312613
-0.015099897 -0.0050332844 0.64425826
-0.01524322 -0.0060972571 0.64541167
-0.01538933 -0.0071816444 0.64658749
-0.015538227 -0.0082870424 0.64778572
-0.015690032 -0.0094139874 0.64900738
-0.015844878 -0.010563225 0.65025342
-0.016002765 -0.01173532 0.65152401
-0.016163876 -0.012931079 0.65282059
-0.016328219 -0.014151126 0.65414304
-0.016495937 -0.015396178 0.65549278
-0.016667185 -0.016667157 0.65687084
-0.016841976 -0.017964751 0.65827745
-0.017020522 -0.019289911 0.65971428
-0.017202841 -0.020643383 0.66118151
-0.017389111 -0.022026181 0.66268051
-0.017579515 -0.023439318 0.6642127
-0.017774075 -0.024883687 0.6657784
-0.017973049 -0.026360422 0.66737962
-0.01817647 -0.027870595 0.66901666
-0.018384546 -0.02941525 0.67069113
-0.018597504 -0.030995846 0.67240489
-0.018815391 -0.032613307 0.67415828
-0.019038508 -0.034269303 0.67595381
-0.019266915 -0.035964906 0.67779183
-0.019500868 -0.037701637 0.67967457
-0.019740641 -0.039481282 0.68160415
-0.019986313 -0.041305035 0.68358117
-0.020238249 -0.043174893 0.68560851
-0.020496545 -0.045092374 0.68768716
-0.02076152 -0.047059417 0.68981957
-0.021033512 -0.049078166 0.69200838
-0.021312647 -0.051150352 0.69425464
-0.021599369 -0.053278416 0.69656199
-0.021893829 -0.055464357 0.69893169
-0.022196515 -0.057710916 0.7013675
-0.022507599 -0.060020238 0.70387089
-0.022827528 -0.062395185 0.70644546
-0.023156773 -0.064838946 0.709095
-0.023495562 -0.067353874 0.71182138
-0.023844508 -0.069943905 0.71462953
-0.024203876 -0.07261157 0.71752143
-0.024574239 -0.075360984 0.72050196
-0.024956223 -0.078196168 0.72357589
-0.025350155 -0.081120491 0.72674602
-0.02575684 -0.08413896 0.73001873
-0.020028023 0.071528673 0.69542915
-0.019759033 0.069156647 0.69310987
-0.019497246 0.066847712 0.6908527
-0.019242233 0.064598978 0.68865389
-0.018993808 0.062408209 0.68651199
-0.018751714 0.060273409 0.68442452
-0.018515714 0.058192253 0.68238974
-0.018285578 0.056162864 0.68040544
-0.018061157 0.054183483 0.67847043
-0.017842118 0.052251965 0.67658186
-0.017628327 0.05036667 0.67473853
-0.017419601 0.048526078 0.67293882
-0.017215757 0.046728522 0.67118126
-0.017016629 0.044972569 0.66946435
-0.016822109 0.043256879 0.66778713
-0.016631933 0.041579843 0.66614741
-0.016446009 0.039940327 0.66454434
-0.016264198 0.038337052 0.66297674
-0.01608636 0.036768824 0.66144341
-0.015912371 0.035234541 0.65994322
-0.015742105 0.0337331 0.65847516
-0.015575489 0.032263517 0.65703857
-0.015412319 0.030824631 0.65563166
-0.015252532 0.029415607 0.65425396
-0.015096025 0.028035492 0.65290451
-0.014942695 0.02668339 0.65158248
-0.014792452 0.025358498 0.65028703
-0.014645196 0.024059981 0.64901739
-0.014500886 0.022787124 0.64777315
-0.014359351 0.021539032 0.6465528
-0.014220553 0.02031514 0.64535606
-0.014084414 0.019114584 0.64418221
-0.013950855 0.017936826 0.64303064
-0.013819806 0.016781211 0.64190072
-0.013691196 0.015647113 0.64079183
-0.013564994 0.014533937 0.63970369
-0.013441061 0.013441086 0.6386351
-0.013319373 0.012368023 0.63758588
-0.013199868 0.011314213 0.63655549
-0.013082489 0.010279119 0.63554341
-0.012967179 0.0092622936 0.6345492
-0.012853915 0.0082632899 0.63357258
-0.012742583 0.0072814822 0.63261271
-0.012648926 0.00632447 0.63180518
-0.012756607 0.0054671168 0.63273358
-0.012866105 0.0045950413 0.63367772
-0.012977532 0.0037078857 0.63463855
-0.013090872 0.0028052032 0.63561571
-0.013206211 0.0018866062 0.63661015
-0.013323633 0.00095170736 0.63762259
-0.013443128 5.9604645e-08 0.63865292
-0.01356482 -0.0009688735 0.6397022
-0.0136887 -0.0019555092 0.64077032
-0.013814865 -0.0029602945 0.64185816
-0.013943412 -0.0039837956 0.64296651
-0.014074339 -0.0050265193 0.6440953
-0.014207783 -0.0060890317 0.64524591
-0.014343745 -0.0071718395 0.64641821
-0.014482333 -0.0082755983 0.64761311
-0.014623666 -0.0094008744 0.64883173
-0.014767745 -0.010548383 0.65007401
-0.014914731 -0.01171872 0.65134138
-0.015064631 -0.012912512 0.65263379
-0.015217618 -0.014130652 0.65395296
-0.015373698 -0.015373677 0.65529871
-0.015533015 -0.016642511 0.65667236
-0.015695713 -0.017937928 0.65807515
-0.015861811 -0.019260764 0.65950727
-0.016031509 -0.020611942 0.66097045
-0.016204828 -0.021992266 0.66246486
-0.016381934 -0.023402721 0.66399187
-0.016563008 -0.024844468 0.66555309
-0.016748074 -0.026318371 0.66714883
-0.016937381 -0.027825654 0.66878098
-0.017130956 -0.029367328 0.67045009
-0.017329011 -0.030944645 0.67215776
-0.017531754 -0.032558948 0.67390579
-0.01773924 -0.034211397 0.67569482
-0.017951755 -0.035903484 0.67752719
-0.018169362 -0.037636518 0.67940342
-0.018392311 -0.039412051 0.68132573
-0.018620862 -0.041231871 0.68329632
-0.018855099 -0.043097317 0.68531597
-0.019095372 -0.045010477 0.68738765
-0.019341776 -0.046972871 0.68951225
-0.019594627 -0.048986554 0.69169235
-0.019854246 -0.051053762 0.69393086
-0.020120762 -0.053176284 0.69622874
-0.02039461 -0.055356801 0.69858998
-0.020675935 -0.05759725 0.70101559
-0.020965129 -0.059900343 0.70350909
-0.021262612 -0.062269032 0.706074
-0.021568572 -0.0647057 0.7087121
-0.021883557 -0.067213774 0.71142793
-0.022207784 -0.069795847 0.71422344
-0.022541763 -0.072455615 0.71710312
-0.02288604 -0.075196952 0.72007143
-0.023240894 -0.078022987 0.72313112
-0.023607031 -0.080938369 0.72628808
-0.023984781 -0.083946705 0.72954506
-0.018557994 0.07137689 0.69506276
-0.018309336 0.069012135 0.69275391
-0.01806719 0.066709667 0.69050545
-0.017831365 0.064467221 0.68831569
-0.017601615 0.062282652 0.68618238
-0.017377712 0.060153633 0.68410331
-0.017159432 0.05807814 0.68207651
-0.016946627 0.056054235 0.68010056
-0.016738979 0.054079801 0.67817241
-0.016536359 0.05215314 0.67629099
-0.016338585 0.050272554 0.67445463
-0.016145485 0.048436463 0.6726616
-0.015956897 0.046643287 0.67091048
-0.015772713 0.044891596 0.66920024
-0.015592684 0.04317975 0.66752863
-0.015416718 0.041506559 0.66589463
-0.01524468 0.039870739 0.66429716
-0.015076438 0.03827098 0.66273504
-0.01491187 0.03670615 0.66120696
-0.014750854 0.035175115 0.65971184
-0.014593324 0.033676952 0.65824914
-0.014439079 0.03221029 0.65681684
-0.01428806 0.030774325 0.65541458
-0.014140169 0.029368073 0.65404135
-0.013995308 0.027990639 0.65269625
-0.013853385 0.02664116 0.65137839
-0.013714349 0.025318831 0.65008742
-0.013578039 0.024022698 0.64882177
-0.013444412 0.022752106 0.64758098
-0.013313388 0.02150625 0.64636433
-0.013184896 0.020284474 0.64517128
-0.013058858 0.019086033 0.64400089
-0.012935208 0.017910302 0.64285278
-0.012813912 0.016756654 0.64172649
-0.012694836 0.015624434 0.64062083
-0.012577952 0.014513046 0.63953555
-0.012463202 0.013421953 0.63846993
-0.012350525 0.012350559 0.63742369
-0.012239869 0.011298358 0.63639623
-0.012131178 0.010264814 0.635387
-0.012024429 0.0092495978 0.63439572
-0.011919513 0.0082519948 0.63342154
-0.011816413 0.0072716475 0.63246429
-0.011731321 0.0063168705 0.63167417
-0.01183104 0.0054605007 0.63260007
