# .PCD v0.7 - Point Cloud Data file format
VERSION 0.7
FIELDS x y z
SIZE 4 4 4
TYPE F F F
COUNT 1 1 1
WIDTH 947
HEIGHT 1
VIEWPOINT 0 0 0 1 0 0 0
POINTS 947
DATA ascii
0.00046461532 0.02880621 0.63491178
0.00046461532 0.02880621 0.63491178
0.024159996 0.02880621 0.63491178
-0.03426357 0.029633373 0.63452697
-0.023151061 0.029633373 0.63452697
-0.011112508 0.029633373 0.63452697
0.0055562542 0.029633373 0.63452697
0.011112508 0.029633373 0.63452697
0.023151061 0.029633373 0.63452697
0.03426357 0.029633373 0.63452697
-0.043491598 0.027591109 0.63564742
-0.027415773 0.0277269 0.63556522
-0.026189104 0.027591109 0.63564742
-0.016835853 0.027591109 0.63564742
0.016835853 0.027591109 0.63564742
0.043491598 0.027591109 0.63564742
-0.03451623 0.025532573 0.63689375
0.03451623 0.025532573 0.63689375
-0.044250082 0.026361793 0.63639176
0.044250082 0.026361793 0.63639176
-0.021943826 0.023852021 0.63791126
0.021943826 0.023852021 0.63791126
0.043887652 0.023852021 0.63791126
-0.013297846 0.024696022 0.63740027
0.013297846 0.024696022 0.63740027
0.029445231 0.024696022 0.63740027
-0.042700369 0.031313598 0.63728571
-0.033211399 0.031313598 0.63728571
-0.00094889704 0.031313598 0.63728571
-0.013477245 0.022141218 0.63894713
-0.013477245 0.022141218 0.63894713
0.013477245 0.022141218 0.63894713
0.013477245 0.022141218 0.63894713
-0.046480007 0.023000449 0.6384269
-0.039292376 0.023000449 0.6384269
-0.032583926 0.023000449 0.6384269
-0.030667223 0.023000449 0.6384269
-0.0047917534 0.023000449 0.6384269
0.0047917534 0.023000449 0.6384269
0.030667223 0.023000449 0.6384269
0.032583926 0.023000449 0.6384269
0.039292376 0.023000449 0.6384269
-0.035779335 0.021274239 0.63947201
-0.020307189 0.021274239 0.63947201
-0.020307189 0.021274239 0.63947201
0.020307189 0.021274239 0.63947201
0.020307189 0.021274239 0.63947201
0.035779335 0.021274239 0.63947201
-0.023419805 0.019516498 0.64053625
-0.0058549512 0.019516498 0.64053625
0.023419805 0.019516498 0.64053625
-0.0335132 0.020399362 0.64000171
-0.0087425737 0.020399362 0.64000171
0.0087425737 0.020399362 0.64000171
0.0335132 0.020399362 0.64000171
-0.022376893 0.033078909 0.64018416
0.022376893 0.033078909 0.64018416
-0.03249852 0.017726511 0.64162004
0.03249852 0.017726511 0.64162004
-0.028428519 0.018625617 0.64107561
0.00049014692 0.018625617 0.64107561
0.028428519 0.018625617 0.64107561
0.046715591 0.015903205 0.64272392
-0.04748904 0.01681906 0.64216942
-0.04748904 0.01681906 0.64216942
-0.035616782 0.01681906 0.64216942
-0.022755165 0.01681906 0.64216942
-0.0069254851 0.01681906 0.64216942
0.022755165 0.01681906 0.64216942
0.035616782 0.01681906 0.64216942
0.043531619 0.01681906 0.64216942
-0.033937663 0.034935832 0.64323306
-0.029944995 0.034935832 0.64323306
0.00049908325 0.034935832 0.64323306
0.029944995 0.034935832 0.64323306
0.033937663 0.034935832 0.64323306
-0.038484808 0.012153089 0.64499444
-0.02228068 0.012153089 0.64499444
0 0.012153089 0.64499444
0.0050637908 0.012153089 0.64499444
0.02228068 0.012153089 0.64499444
0.038484808 0.012153089 0.64499444
-0.044351533 0.013103902 0.64441878
-0.011087883 0.013103902 0.64441878
0.0010079894 0.013103902 0.64441878
0.011087883 0.013103902 0.64441878
0.044351533 0.013103902 0.64441878
-0.028492024 0.011193305 0.64557552
-0.0040702894 0.011193305 0.64557552
0.0040702894 0.011193305 0.64557552
0.028492024 0.011193305 0.64557552
-0.047257602 0.0092460513 0.6467545
-0.0092460522 0.0092460513 0.6467545
-0.0010273391 0.0092460513 0.6467545
0.0010273391 0.0092460513 0.6467545
0.0092460522 0.0092460513 0.6467545
-0.044987023 0.010224342 0.64616221
-0.032717839 0.010224342 0.64616221
-0.032717839 0.010224342 0.64616221
0.0040897299 0.010224342 0.64616221
0.032717839 0.010224342 0.64616221
0.032717839 0.010224342 0.64616221
-0.014346755 0.036891699 0.6464442
-0.0010247682 0.036891699 0.6464442
0 0.036891699 0.6464442
0.0010247682 0.036891699 0.6464442
0.014346755 0.036891699 0.6464442
-0.044603698 0.0072611272 0.64795637
-0.0062237722 0.0072611272 0.64795637
-0.0031118861 0.0072611272 0.64795637
0.0062237722 0.0072611272 0.64795637
0.044603698 0.0072611272 0.64795637
-0.035097972 0.0082583725 0.64735252
-0.017548986 0.0082583725 0.64735252
-0.014452105 0.0082583725 0.64735252
0.014452105 0.0082583725 0.64735252
0.017548986 0.0082583725 0.64735252
0.035097972 0.0082583725 0.64735252
-0.023973962 0.0062541068 0.64856601
0.023973962 0.0062541068 0.64856601
0.044820886 0.0062541068 0.64856601
-0.02631492 0.0042103827 0.6498034
-0.021051936 0.0042103827 0.6498034
0.021051936 0.0042103827 0.6498034
0.02631492 0.0042103827 0.6498034
-0.04922998 0.0052372813 0.64918166
-0.032470841 0.0052372813 0.64918166
-0.021996373 0.0052372813 0.64918166
0.021996373 0.0052372813 0.64918166
0.032470841 0.0052372813 0.64918166
-0.043166015 0.038954705 0.64983153
-0.040007524 0.038954705 0.64983153
-0.027373569 0.038954705 0.64983153
-0.026320741 0.038954705 0.64983153
-0.02526791 0.038954705 0.64983153
-0.02526791 0.038954705 0.64983153
-0.020003762 0.038954705 0.64983153
-0.018950934 0.038954705 0.64983153
-0.017898103 0.038954705 0.64983153
-0.0063169776 0.038954705 0.64983153
0.0063169776 0.038954705 0.64983153
0.017898103 0.038954705 0.64983153
0.018950934 0.038954705 0.64983153
0.020003762 0.038954705 0.64983153
0.02526791 0.038954705 0.64983153
0.02526791 0.038954705 0.64983153
0.026320741 0.038954705 0.64983153
0.027373569 0.038954705 0.64983153
0.040007524 0.038954705 0.64983153
0.043166015 0.038954705 0.64983153
-0.042311925 0.0031734109 0.65043122
-0.035965133 0.0031734109 0.65043122
-0.026444953 0.0031734109 0.65043122
-0.017982567 0.0031734109 0.65043122
-0.017982567 0.0031734109 0.65043122
-0.013751375 0.0031734109 0.65043122
-0.0074045868 0.0031734109 0.65043122
0.0074045868 0.0031734109 0.65043122
0.013751375 0.0031734109 0.65043122
0.017982567 0.0031734109 0.65043122
0.017982567 0.0031734109 0.65043122
0.026444953 0.0031734109 0.65043122
0.035965133 0.0031734109 0.65043122
0.042311925 0.0031734109 0.65043122
0.049144398 0.0010683835 0.65170574
-0.052089501 0.0021260977 0.65106535
-0.0021261021 0.0021260977 0.65106535
0.0021261021 0.0021260977 0.65106535
-0.040801171 -0 0.65235257
-0.040801171 -0 0.65235257
-0.033285167 -0 0.65235257
-0.024695447 -0 0.65235257
-0.018253157 -0 0.65235257
-0.016105726 -0 0.65235257
-0.012884581 -0 0.65235257
0.012884581 -0 0.65235257
0.016105726 -0 0.65235257
0.018253157 -0 0.65235257
0.024695447 -0 0.65235257
0.033285167 -0 0.65235257
0.040801171 -0 0.65235257
0.040801171 -0 0.65235257
-0.048806645 -0.002169162 0.65366554
-0.042299092 -0.002169162 0.65366554
-0.0075921444 -0.002169162 0.65366554
0.0075921444 -0.002169162 0.65366554
0.042299092 -0.002169162 0.65366554
-0.051798128 -0.0010791421 0.65300596
-0.030215574 -0.0010791421 0.65300596
-0.01402866 -0.0010791421 0.65300596
-0.0086330222 -0.0010791421 0.65300596
-0.0043165111 -0.0010791421 0.65300596
0.0043165111 -0.0010791421 0.65300596
0.0086330222 -0.0010791421 0.65300596
0.01402866 -0.0010791421 0.65300596
0.030215574 -0.0010791421 0.65300596
-0.030309189 0.04113397 0.65340948
0.030309189 0.04113397 0.65340948
-0.026162766 -0.003270328 0.65433228
-0.020712189 -0.003270328 0.65433228
0.020712189 -0.003270328 0.65433228
0.026162766 -0.003270328 0.65433228
0.050145302 -0.003270328 0.65433228
-0.019823976 -0.0055066347 0.65568626
-0.014317316 -0.0055066347 0.65568626
0.014317316 -0.0055066347 0.65568626
0.019823976 -0.0055066347 0.65568626
-0.0098612541 -0.0043827593 0.65500581
0 -0.0043827593 0.65500581
0 -0.0043827593 0.65500581
0.0098612541 -0.0043827593 0.65500581
-0.049816232 -0.006642133 0.65637374
-0.030996768 -0.006642133 0.65637374
0.030996768 -0.006642133 0.65637374
-0.015660355 -0.0089487433 0.65777028
0 -0.0089487433 0.65777028
0 -0.0089487433 0.65777028
0.015660355 -0.0089487433 0.65777028
-0.050075188 -0.007789433 0.65706837
-0.046736844 -0.007789433 0.65706837
-0.024481203 -0.007789433 0.65706837
-0.0044511277 -0.007789433 0.65706837
0.0044511277 -0.007789433 0.65706837
0.024481203 -0.007789433 0.65706837
0.046736844 -0.007789433 0.65706837
0.050075188 -0.007789433 0.65706837
-0.034528732 0.043439418 0.65719485
-0.0033414897 0.043439418 0.65719485
-0.00222766 0.043439418 0.65719485
-0.00111383 0.043439418 0.65719485
0.00111383 0.043439418 0.65719485
0.00222766 0.043439418 0.65719485
0.0033414897 0.043439418 0.65719485
0.034528732 0.043439418 0.65719485
-0.049476795 -0.010120243 0.65847957
-0.04385443 -0.010120243 0.65847957
-0.0089957807 -0.010120243 0.65847957
0.0089957807 -0.010120243 0.65847957
0.04385443 -0.010120243 0.65847957
-0.026137462 -0.012500495 0.65992069
0.026137462 -0.012500495 0.65992069
-0.012434515 -0.01130408 0.65919632
-0.0056520524 -0.01130408 0.65919632
0.0056520524 -0.01130408 0.65919632
0.012434515 -0.01130408 0.65919632
-0.051411435 -0.013709694 0.66065282
-0.047984004 -0.013709694 0.66065282
-0.029704385 -0.013709694 0.66065282
-0.015994668 -0.013709694 0.66065282
-0.0022849527 -0.013709694 0.66065282
0 -0.013709694 0.66065282
0 -0.013709694 0.66065282
0.0022849527 -0.013709694 0.66065282
0.015994668 -0.013709694 0.66065282
0.029704385 -0.013709694 0.66065282
0.047984004 -0.013709694 0.66065282
-0.030187717 -0.017415971 0.66289675
-0.017415991 -0.017415971 0.66289675
-0.012771727 -0.017415971 0.66289675
0.012771727 -0.017415971 0.66289675
0.017415991 -0.017415971 0.66289675
0.030187717 -0.017415971 0.66289675
-0.046192106 -0.016167223 0.66214073
-0.033489276 -0.016167223 0.66214073
-0.026560461 -0.016167223 0.66214073
-0.026560461 -0.016167223 0.66214073
-0.019631643 -0.016167223 0.66214073
0.019631643 -0.016167223 0.66214073
0.026560461 -0.016167223 0.66214073
0.026560461 -0.016167223 0.66214073
0.033489276 -0.016167223 0.66214073
0.046192106 -0.016167223 0.66214073
-0.036189333 -0.018678337 0.66366112
-0.0011673977 -0.018678337 0.66366112
0.0011673977 -0.018678337 0.66366112
0.036189333 -0.018678337 0.66366112
-0.048125755 -0.019954592 0.66443378
0 -0.019954592 0.66443378
0 -0.019954592 0.66443378
0.048125755 -0.019954592 0.66443378
-0.047210827 -0.021244824 0.66521496
-0.033047579 -0.021244824 0.66521496
-0.033047579 -0.021244824 0.66521496
-0.029506767 -0.021244824 0.66521496
-0.028326496 -0.021244824 0.66521496
-0.020064602 -0.021244824 0.66521496
-0.015343519 -0.021244824 0.66521496
0.015343519 -0.021244824 0.66521496
0.020064602 -0.021244824 0.66521496
0.028326496 -0.021244824 0.66521496
0.029506767 -0.021244824 0.66521496
0.033047579 -0.021244824 0.66521496
0.033047579 -0.021244824 0.66521496
0.047210827 -0.021244824 0.66521496
-0.055569511 0.048475534 0.66546357
-0.027193591 0.048475534 0.66546357
-0.01773495 0.048475534 0.66546357
-0.01300563 0.048475534 0.66546357
-0.0070939804 0.048475534 0.66546357
-0.0047293198 0.048475534 0.66546357
-0.0035469902 0.048475534 0.66546357
0.0035469902 0.048475534 0.66546357
0.0047293198 0.048475534 0.66546357
0.0070939804 0.048475534 0.66546357
0.01300563 0.048475534 0.66546357
0.01773495 0.048475534 0.66546357
0.027193591 0.048475534 0.66546357
-0.058478106 -0.023868591 0.66680354
-0.011934307 -0.023868591 0.66680354
-0.011934307 -0.023868591 0.66680354
-0.0059671537 -0.023868591 0.66680354
0.0059671537 -0.023868591 0.66680354
0.011934307 -0.023868591 0.66680354
0.011934307 -0.023868591 0.66680354
-0.055780269 -0.022549421 0.6660049
-0.055780269 -0.022549421 0.6660049
-0.023736285 -0.022549421 0.6660049
0.023736285 -0.022549421 0.6660049
0.054593455 -0.022549421 0.6660049
-0.0579306 -0.026551515 0.66842794
-0.042241063 -0.026551515 0.66842794
0.042241063 -0.026551515 0.66842794
0.0579306 -0.026551515 0.66842794
-0.033984449 -0.027915776 0.66925395
-0.021847146 -0.027915776 0.66925395
0.021847146 -0.027915776 0.66925395
0.033984449 -0.027915776 0.66925395
-0.058552407 0.051233351 0.66999161
-0.054892883 0.051233351 0.66999161
-0.05367304 0.051233351 0.66999161
-0.052453198 0.051233351 0.66999161
-0.051233355 0.051233351 0.66999161
-0.047573831 0.051233351 0.66999161
-0.040254779 0.051233351 0.66999161
-0.036595255 0.051233351 0.66999161
-0.035375413 0.051233351 0.66999161
-0.02683652 0.051233351 0.66999161
-0.020737311 0.051233351 0.66999161
0.020737311 0.051233351 0.66999161
0.02683652 0.051233351 0.66999161
0.035375413 0.051233351 0.66999161
0.036595255 0.051233351 0.66999161
0.040254779 0.051233351 0.66999161
0.047573831 0.051233351 0.66999161
0.051233355 0.051233351 0.66999161
0.052453198 0.051233351 0.66999161
0.05367304 0.051233351 0.66999161
0.054892883 0.051233351 0.66999161
-0.035601888 -0.030691296 0.67093432
-0.035601888 -0.030691296 0.67093432
-0.0024553027 -0.030691296 0.67093432
0.0024553027 -0.030691296 0.67093432
0.035601888 -0.030691296 0.67093432
0.035601888 -0.030691296 0.67093432
-0.0024694649 -0.032103032 0.67178905
0.0024694649 -0.032103032 0.67178905
-0.049675822 -0.033531129 0.67265373
-0.047192033 -0.033531129 0.67265373
-0.042224448 -0.033531129 0.67265373
-0.013660851 -0.033531129 0.67265373
-0.013660851 -0.033531129 0.67265373
0.013660851 -0.033531129 0.67265373
0.013660851 -0.033531129 0.67265373
0.042224448 -0.033531129 0.67265373
0.047192033 -0.033531129 0.67265373
0.049675822 -0.033531129 0.67265373
-0.053713121 -0.034975946 0.67352855
-0.049965695 -0.034975946 0.67352855
-0.042470839 -0.034975946 0.67352855
-0.022484563 -0.034975946 0.67352855
0.022484563 -0.034975946 0.67352855
0.042470839 -0.034975946 0.67352855
0.049965695 -0.034975946 0.67352855
0.053713121 -0.034975946 0.67352855
-0.033924803 -0.03643772 0.67441356
-0.010051793 -0.03643772 0.67441356
-0.0012564742 -0.03643772 0.67441356
0.0012564742 -0.03643772 0.67441356
0.010051793 -0.03643772 0.67441356
0.033924803 -0.03643772 0.67441356
0.057797808 -0.03643772 0.67441356
-0.044093415 0.054171979 0.67481643
-0.042833604 0.054171979 0.67481643
-0.041573789 0.054171979 0.67481643
-0.040313978 0.054171979 0.67481643
-0.0062990594 0.054171979 0.67481643
-0.0050392472 0.054171979 0.67481643
0.0050392472 0.054171979 0.67481643
0.0062990594 0.054171979 0.67481643
0.040313978 0.054171979 0.67481643
0.041573789 0.054171979 0.67481643
0.042833604 0.054171979 0.67481643
0.044093415 0.054171979 0.67481643
-0.053083487 -0.03791675 0.67530906
0.053083487 -0.03791675 0.67530906
-0.041956168 -0.039413363 0.67621517
-0.031784978 -0.039413363 0.67621517
0.031784978 -0.039413363 0.67621517
0.041956168 -0.039413363 0.67621517
-0.057554789 -0.040927827 0.67713207
-0.035811871 -0.040927827 0.67713207
-0.020463925 -0.040927827 0.67713207
-0.0051159812 -0.040927827 0.67713207
0.0051159812 -0.040927827 0.67713207
0.020463925 -0.040927827 0.67713207
0.035811871 -0.040927827 0.67713207
0.057554789 -0.040927827 0.67713207
-0.055661924 -0.044011712 0.67899925
-0.051778536 -0.044011712 0.67899925
-0.01553356 -0.044011712 0.67899925
0.01553356 -0.044011712 0.67899925
0.051778536 -0.044011712 0.67899925
-0.057900727 -0.042460471 0.67806005
-0.0064334143 -0.042460471 0.67806005
-0.0012866829 -0.042460471 0.67806005
0.0012866829 -0.042460471 0.67806005
0.0064334143 -0.042460471 0.67806005
0.057900727 -0.042460471 0.67806005
-0.041674834 -0.045581818 0.67994988
0.041674834 -0.045581818 0.67994988
-0.01172237 0.057309419 0.67996764
0.01172237 0.057309419 0.67996764
-0.0052412404 -0.047171116 0.68091214
0.0052412404 -0.047171116 0.68091214
-0.054053579 -0.048780024 0.6818862
-0.042188156 -0.048780024 0.6818862
-0.032959498 -0.048780024 0.6818862
-0.032959498 -0.048780024 0.6818862
-0.030322736 -0.048780024 0.6818862
0.032959498 -0.048780024 0.6818862
0.046143293 -0.048780024 0.6818862
0.054053579 -0.048780024 0.6818862
-0.059694737 -0.05040884 0.68287241
-0.058368184 -0.05040884 0.68287241
0.04377614 -0.05040884 0.68287241
0.059694737 -0.05040884 0.68287241
-0.037374869 -0.052057832 0.68387032
-0.026696334 -0.052057832 0.68387032
-0.018687434 -0.052057832 0.68387032
0.018687434 -0.052057832 0.68387032
-0.036266189 -0.053727657 0.68488133
-0.028207034 -0.053727657 0.68488133
-0.024177458 -0.053727657 0.68488133
-0.0094023449 -0.053727657 0.68488133
0.0094023449 -0.053727657 0.68488133
0.024177458 -0.053727657 0.68488133
0.028207034 -0.053727657 0.68488133
0.041638955 -0.053727657 0.68488133
-0.043253545 -0.055418581 0.68590504
-0.036495179 -0.055418581 0.68590504
-0.01622008 -0.055418581 0.68590504
0.01622008 -0.055418581 0.68590504
0.036495179 -0.055418581 0.68590504
0.043253545 -0.055418581 0.68590504
-0.059851538 -0.057131022 0.68694192
-0.04896944 -0.057131022 0.68694192
-0.020403935 -0.057131022 0.68694192
0.020403935 -0.057131022 0.68694192
0.025844984 -0.057131022 0.68694192
0.04896944 -0.057131022 0.68694192
-0.054758444 -0.058865309 0.68799198
-0.031486105 -0.058865309 0.68799198
-0.013689611 -0.058865309 0.68799198
0.013689611 -0.058865309 0.68799198
0.031486105 -0.058865309 0.68799198
0.031486105 -0.058865309 0.68799198
0.054758444 -0.058865309 0.68799198
-0.046844248 -0.060621947 0.6890555
-0.039955385 -0.060621947 0.6890555
-0.038577612 -0.060621947 0.6890555
-0.035822067 -0.060621947 0.6890555
-0.0013777718 -0.060621947 0.6890555
0.0013777718 -0.060621947 0.6890555
0.035822067 -0.060621947 0.6890555
0.038577612 -0.060621947 0.6890555
0.039955385 -0.060621947 0.6890555
0.046844248 -0.060621947 0.6890555
-0.022187149 -0.062401354 0.69013286
0.022187149 -0.062401354 0.69013286
-0.055829525 -0.064203948 0.69122422
-0.032101978 -0.064203948 0.69122422
-0.025123287 -0.064203948 0.69122422
-0.0069786906 -0.064203948 0.69122422
0.0069786906 -0.064203948 0.69122422
0.025123287 -0.064203948 0.69122422
0.032101978 -0.064203948 0.69122422
0.055829525 -0.064203948 0.69122422
-0.041914392 0.064268768 0.69139415
-0.040517241 0.064268768 0.69139415
0 0.064268768 0.69139415
0.040517241 0.064268768 0.69139415
0.041914392 0.064268768 0.69139415
-0.040742047 -0.066030174 0.69232988
0.040742047 -0.066030174 0.69232988
-0.046667915 -0.067880571 0.69345027
-0.041011196 -0.067880571 0.69345027
-0.03676866 -0.067880571 0.69345027
-0.0070708962 -0.067880571 0.69345027
0.0070708962 -0.067880571 0.69345027
0.03676866 -0.067880571 0.69345027
0.041011196 -0.067880571 0.69345027
0.046667915 -0.067880571 0.69345027
-0.052193917 0.068142086 0.69775379
-0.030446451 0.068142086 0.69775379
-0.018847803 0.068142086 0.69775379
-0.0072491555 0.068142086 0.69775379
0.0072491555 0.068142086 0.69775379
0.018847803 0.068142086 0.69775379
0.030446451 0.068142086 0.69775379
0.052193917 0.068142086 0.69775379
0.053643748 0.068142086 0.69775379
-0.058758918 0.072318673 0.70461112
-0.058758918 0.072318673 0.70461112
-0.057252273 0.072318673 0.70461112
-0.055745639 0.072318673 0.70461112
-0.052732356 0.072318673 0.70461112
-0.048212443 0.072318673 0.70461112
-0.046705801 0.072318673 0.70461112
-0.042185888 0.072318673 0.70461112
-0.040679246 0.072318673 0.70461112
-0.040679246 0.072318673 0.70461112
-0.039172608 0.072318673 0.70461112
-0.037665971 0.072318673 0.70461112
-0.030132778 0.072318673 0.70461112
-0.025612859 0.072318673 0.70461112
0.025612859 0.072318673 0.70461112
0.030132778 0.072318673 0.70461112
0.037665971 0.072318673 0.70461112
0.039172608 0.072318673 0.70461112
0.040679246 0.072318673 0.70461112
0.040679246 0.072318673 0.70461112
0.042185888 0.072318673 0.70461112
0.046705801 0.072318673 0.70461112
0.048212443 0.072318673 0.70461112
0.052732356 0.072318673 0.70461112
0.055745639 0.072318673 0.70461112
0.057252273 0.072318673 0.70461112
-0.058019198 0.076836228 0.7120285
-0.058019198 0.076836228 0.7120285
-0.056451108 0.076836228 0.7120285
-0.054883022 0.076836228 0.7120285
-0.054883022 0.076836228 0.7120285
-0.053314935 0.076836228 0.7120285
-0.051746853 0.076836228 0.7120285
-0.050178766 0.076836228 0.7120285
-0.050178766 0.076836228 0.7120285
-0.048610676 0.076836228 0.7120285
-0.04704259 0.076836228 0.7120285
-0.04704259 0.076836228 0.7120285
-0.045474503 0.076836228 0.7120285
-0.04390642 0.076836228 0.7120285
-0.042338334 0.076836228 0.7120285
-0.040770248 0.076836228 0.7120285
-0.039202157 0.076836228 0.7120285
-0.036065988 0.076836228 0.7120285
0.036065988 0.076836228 0.7120285
0.039202157 0.076836228 0.7120285
0.040770248 0.076836228 0.7120285
0.042338334 0.076836228 0.7120285
0.04390642 0.076836228 0.7120285
0.045474503 0.076836228 0.7120285
0.04704259 0.076836228 0.7120285
0.04704259 0.076836228 0.7120285
0.048610676 0.076836228 0.7120285
0.050178766 0.076836228 0.7120285
0.050178766 0.076836228 0.7120285
0.051746853 0.076836228 0.7120285
0.053314935 0.076836228 0.7120285
0.054883022 0.076836228 0.7120285
0.054883022 0.076836228 0.7120285
0.056451108 0.076836228 0.7120285
0.058019198 0.076836228 0.7120285
0.058019198 0.076836228 0.7120285
-0.062120851 0.081737965 0.72007656
-0.060486093 0.081737965 0.72007656
-0.058851335 0.081737965 0.72007656
-0.057216574 0.081737965 0.72007656
-0.055581816 0.081737965 0.72007656
-0.053947054 0.081737965 0.72007656
-0.052312296 0.081737965 0.72007656
-0.047408018 0.081737965 0.72007656
-0.04577326 0.081737965 0.72007656
-0.044138499 0.081737965 0.72007656
-0.042503741 0.081737965 0.72007656
-0.040868979 0.081737965 0.72007656
-0.039234221 0.081737965 0.72007656
-0.037599463 0.081737965 0.72007656
-0.011443315 0.081737965 0.72007656
0.011443315 0.081737965 0.72007656
0.037599463 0.081737965 0.72007656
0.039234221 0.081737965 0.72007656
0.040868979 0.081737965 0.72007656
0.042503741 0.081737965 0.72007656
0.044138499 0.081737965 0.72007656
0.04577326 0.081737965 0.72007656
0.047408018 0.081737965 0.72007656
0.052312296 0.081737965 0.72007656
0.053947054 0.081737965 0.72007656
0.055581816 0.081737965 0.72007656
0.057216574 0.081737965 0.72007656
0.058851335 0.081737965 0.72007656
0.060486093 0.081737965 0.72007656
-0.038815994 0.027591109 0.63564742
-0.026802439 0.027659005 0.63560629
0.0051442888 0.027591109 0.63564742
-0.024698123 0.029219791 0.63471937
0.024698123 0.029219791 0.63471937
-0.025283106 0.023852021 0.63791126
0.025283106 0.023852021 0.63791126
0.0011846852 0.025114298 0.63714701
0.027010823 0.025114298 0.63714701
0.03707986 0.025114298 0.63714701
0.041227046 0.025114298 0.63714701
-0.030598462 0.026361793 0.63639176
0.035305917 0.026361793 0.63639176
-0.019215167 0.031313598 0.63728571
0.019215167 0.031313598 0.63728571
-0.018856676 0.021274239 0.63947201
-0.018856676 0.021274239 0.63947201
-0.0072525674 0.021274239 0.63947201
0.0072525674 0.021274239 0.63947201
-0.042742494 0.022570834 0.63868701
-0.040869348 0.017726511 0.64162004
-0.0014772053 0.017726511 0.64162004
-0.034721114 0.019071057 0.64080596
-0.028656214 0.020399362 0.64000171
-0.013113861 0.020399362 0.64000171
-0.0053426838 0.020399362 0.64000171
0.043227173 0.020399362 0.64000171
0.0034051796 0.033078909 0.64018416
0.011188447 0.033078909 0.64018416
0.0052350871 0.015207738 0.64314502
0.0072299615 0.015207738 0.64314502
-0.043246821 0.011193305 0.64557552
-0.031035956 0.011193305 0.64557552
-0.024754157 0.012628496 0.64470661
-0.018691916 0.012628496 0.64470661
-0.0088170106 0.0072611272 0.64795637
-0.046856638 0.0087522119 0.64705348
-0.023170864 0.0087522119 0.64705348
-0.023170864 0.0087522119 0.64705348
0.023170864 0.0087522119 0.64705348
0.023170864 0.0087522119 0.64705348
0.03861811 0.0087522119 0.64705348
0.050460994 0.0087522119 0.64705348
-0.041408509 0.010224342 0.64616221
-0.0046009459 0.010224342 0.64616221
0.00051121623 0.010224342 0.64616221
0.041408509 0.010224342 0.64616221
0.043453373 0.010224342 0.64616221
-0.029205896 0.036891699 0.6464442
0.029205896 0.036891699 0.6464442
0.048676491 0.036891699 0.6464442
0.048676491 0.036891699 0.6464442
-0.050926048 0.004723832 0.6494925
-0.026775552 0.004723832 0.6494925
0.044836979 0.0045526824 0.64959615
-0.01511402 0.0062541068 0.64856601
-0.0088599417 0.0062541068 0.64856601
0.01511402 0.0062541068 0.64856601
-0.051062234 0.038954705 0.64983153
-0.0010528297 0.038954705 0.64983153
-0.016559526 0.0010683835 0.65170574
0.016559526 0.0010683835 0.65170574
-0.018749051 0.0024752021 0.65085399
-0.018749051 0.0024752021 0.65085399
0.018749053 0.0024752021 0.65085399
-0.013015104 -0.002169162 0.65366554
-0.013015104 -0.002169162 0.65366554
0.013015104 -0.002169162 0.65366554
0.013015104 -0.002169162 0.65366554
-0.04910031 -0.0010791421 0.65300596
-0.023201246 -0.0010791421 0.65300596
-0.048854038 -0 0.65235257
-0.03489574 -0 0.65235257
-0.011274008 -0 0.65235257
0.00053685752 -0 0.65235257
0.011274008 -0 0.65235257
0.03489574 -0 0.65235257
0.048854038 -0 0.65235257
0.051001467 -0 0.65235257
0.051001467 -0 0.65235257
0.007036062 0.04113397 0.65340948
0.007036062 0.04113397 0.65340948
-0.0027462835 -0.004944697 0.65534604
0.0027462835 -0.004944697 0.65534604
0.041194253 -0.004944697 0.65534604
-0.028888054 -0.003270328 0.65433228
0.028888054 -0.003270328 0.65433228
-0.036913689 -0.0089487433 0.65777028
0.0089487741 -0.0089487433 0.65777028
0.012863862 -0.0089487433 0.65777028
0.012863862 -0.0089487433 0.65777028
0.022931233 -0.0089487433 0.65777028
0.036913689 -0.0089487433 0.65777028
-0.022753045 -0.007215783 0.65672106
0.022753045 -0.007215783 0.65672106
0.0028410284 -0.012500495 0.65992069
0.025001051 -0.012500495 0.65992069
-0.038896736 -0.010712162 0.65883797
0.046788827 -0.010712162 0.65883797
-0.053410202 -0.014931858 0.66139275
-0.051112987 -0.014931858 0.66139275
0.051112987 -0.014931858 0.66139275
-0.010853525 -0.013709694 0.66065282
-0.0051411437 -0.013709694 0.66065282
0.010853525 -0.013709694 0.66065282
0.039415434 -0.013709694 0.66065282
0.045127816 -0.013709694 0.66065282
-0.043014619 0.045882255 0.66120565
-0.022941131 0.045882255 0.66120565
0.022941131 0.045882255 0.66120565
0.043014619 0.045882255 0.66120565
-0.012841376 -0.018678337 0.66366112
0.012841376 -0.018678337 0.66366112
-0.041106671 -0.016791597 0.66251874
0.030685259 -0.016791597 0.66251874
0.0387908 -0.016791597 0.66251874
-0.044850286 -0.021244824 0.66521496
0.044850286 -0.021244824 0.66521496
-0.051060252 -0.019954592 0.66443378
-0.001173799 -0.019954592 0.66443378
-0.001173799 -0.019954592 0.66443378
0.051060252 -0.019954592 0.66443378
-0.054605521 -0.025202513 0.66761118
-0.052805338 -0.025202513 0.66761118
-0.027002729 -0.025202513 0.66761118
0.027002729 -0.025202513 0.66761118
0.040804129 -0.025202513 0.66761118
0.052805338 -0.025202513 0.66761118
-0.038912624 -0.023428869 0.66653734
-0.014876531 -0.023209006 0.66640425
0.014876531 -0.023209006 0.66640425
0.026777755 -0.023209006 0.66640425
0.055069055 -0.027233645 0.66884089
-0.050623432 0.051233351 0.66999161
-0.00670913 0.051233351 0.66999161
0.0030496046 0.051233351 0.66999161
0.050623432 0.051233351 0.66999161
0.053063117 0.051233351 0.66999161
-0.035189874 -0.032103032 0.67178905
-0.016668888 -0.032103032 0.67178905
0.016668888 -0.032103032 0.67178905
-0.034988064 -0.030691296 0.67093432
0.020870075 -0.030691296 0.67093432
-0.044969127 -0.034975946 0.67352855
-0.029354846 -0.034975946 0.67352855
0.05308855 -0.034975946 0.67352855
-0.049054876 -0.033531129 0.67265373
-0.047192033 -0.033531129 0.67265373
-0.047192033 -0.033531129 0.67265373
-0.0068304259 -0.033531129 0.67265373
-0.0068304259 -0.033531129 0.67265373
0.0068304259 -0.033531129 0.67265373
0.03663592 -0.033531129 0.67265373
0.047192033 -0.033531129 0.67265373
0.047192033 -0.033531129 0.67265373
-0.0031504584 -0.037177235 0.67486131
0.00063009164 -0.037177235 0.67486131
0.0050407331 -0.037177235 0.67486131
0.0151222 -0.037177235 0.67486131
-0.040943883 0.054171979 0.67481643
-0.018897178 0.054171979 0.67481643
0.010708401 0.054171979 0.67481643
0.018897178 0.054171979 0.67481643
0.040943883 0.054171979 0.67481643
0.023021916 -0.040927827 0.67713207
0.024940409 -0.040927827 0.67713207
-0.041320469 -0.039413363 0.67621517
-0.034963474 -0.039413363 0.67621517
-0.019070985 -0.039413363 0.67621517
0.019070985 -0.039413363 0.67621517
0.034963474 -0.039413363 0.67621517
0.041320469 -0.039413363 0.67621517
-0.022722017 -0.044796765 0.67947459
-0.011036409 -0.044796765 0.67947459
0.037004426 -0.044796765 0.67947453
0.059077244 -0.044796765 0.67947459
-0.057257384 -0.042460471 0.67806005
-0.027020341 -0.042460471 0.67806005
-0.0012866829 -0.042460471 0.67806005
0.0070767556 -0.042460471 0.67806005
0.0070767556 -0.042460471 0.67806005
-0.0052099423 0.057309419 0.67996764
0.059263092 0.057309419 0.67996764
-0.058667906 -0.048780024 0.6818862
-0.013183799 -0.048780024 0.6818862
-0.062894881 -0.047171116 0.68091214
-0.045205697 -0.047171116 0.68091214
-0.043240234 -0.047171116 0.68091214
-0.0131031 -0.047171116 0.68091214
0.043240234 -0.047171116 0.68091214
0.045205697 -0.047171116 0.68091214
-0.028698558 -0.052057832 0.68387032
-0.061021287 -0.05040884 0.68287241
-0.049082339 -0.05040884 0.68287241
0.045102689 -0.05040884 0.68287241
-0.0013516733 -0.055418581 0.68590504
-0.0013516733 -0.055418581 0.68590504
0.043253545 -0.055418581 0.68590504
-0.04298215 -0.053727657 0.68488133
-0.054758444 -0.058865309 0.68799198
-0.04106883 -0.058865309 0.68799198
-0.034908507 -0.058865309 0.68799198
0.034908507 -0.058865309 0.68799198
0.04106883 -0.058865309 0.68799198
-0.062572062 -0.057131022 0.68694192
-0.059171408 -0.057131022 0.68694192
-0.036727082 -0.057131022 0.68694192
-0.029245637 -0.057131022 0.68694192
-0.023124458 -0.057131022 0.68694192
-0.014962885 -0.057131022 0.68694192
-0.0088417046 -0.057131022 0.68694192
0.0088417046 -0.057131022 0.68694192
0.014962885 -0.057131022 0.68694192
0.023124458 -0.057131022 0.68694192
0.059171408 -0.057131022 0.68694192
-0.042710926 -0.060621947 0.6890555
0.0068888594 -0.060621947 0.6890555
0.042710926 -0.060621947 0.6890555
-0.015253665 -0.062401354 0.69013286
0.015253665 -0.062401354 0.69013286
-0.055187277 0.064268768 0.69139415
-0.039120097 0.064268768 0.69139415
-0.039120097 0.064268768 0.69139415
-0.01536861 0.064268768 0.69139415
0.01536861 0.064268768 0.69139415
0.039120097 0.064268768 0.69139415
0.039120097 0.064268768 0.69139415
0.055187277 0.064268768 0.69139415
-0.048916604 -0.067263775 0.69307679
-0.035238467 -0.066955373 0.69289005
-0.019028772 -0.066955373 0.69289005
-0.0028190771 -0.066955373 0.69289005
0.019028772 -0.066955373 0.69289005
-0.024647128 0.068142086 0.69775379
-0.021022551 0.068142086 0.69775379
0.021022551 0.068142086 0.69775379
0.024647128 0.068142086 0.69775379
0.057268329 0.068142086 0.69775379
-0.032929812 0.076836228 0.7120285
-0.007056389 0.076836228 0.7120285
0.007056389 0.076836228 0.7120285
0.032929812 0.076836228 0.7120285
-0.060486093 0.081737965 0.72007656
-0.014029877 0.027591109 0.63564742
0.018238841 0.027591109 0.63564742
0.045223393 0.027523216 0.63568854
-0.037916742 0.029219791 0.63471937
0.037916742 0.029219791 0.63471937
0.042207461 0.029219791 0.63471937
-0.0062434538 0.022565698 0.63869011
-0.0062434538 0.022565698 0.63869011
-0.0023615491 0.025738046 0.63676935
-0.029890258 0.031313598 0.63728571
-0.029890258 0.031313598 0.63728571
0.029890258 0.031313598 0.63728571
-0.049642786 0.014626727 0.64349675
-0.041965395 0.017872211 0.64153183
0.014269054 0.017872211 0.64153188
-0.0064059938 0.03400737 0.64170861
0.0064059938 0.03400737 0.64170861
0.0064059938 0.03400737 0.64170861
-0.026191708 0.0072611272 0.64795637
-0.033847518 0.012628496 0.64470661
0.052219484 0.0015972406 0.65138555
-0.034000978 0.0054889694 0.64902925
0.034000978 0.0054889694 0.64902925
0.041586768 0.038954705 0.64983153
0.041586768 0.038954705 0.64983153
-0.013731418 -0.004944697 0.65534604
-0.013731418 -0.004944697 0.65534604
-0.025939383 -0.0021728775 0.65366793
-0.0018790014 -0 0.65235257
0.033822026 -0 0.65235257
-0.029767955 0.04113397 0.65340948
0.029767955 0.04113397 0.65340948
-0.038069781 -0.012500495 0.65992069
-0.037815858 -0.0098797791 0.65833402
-0.018108131 -0.0098304525 0.6583041
-0.0019652834 -0.0098304525 0.6583041
-0.0019652834 -0.0098304525 0.6583041
0.037815858 -0.0098797791 0.65833402
-0.049945712 -0.007215783 0.65672112
-0.046223942 0.043439418 0.65719485
-0.026014062 -0.017734967 0.66308993
0.029792726 -0.017734967 0.66308993
0.045983475 -0.017786998 0.66312146
-0.017779376 0.045882255 0.66120565
-0.0060220468 0.045882255 0.66120565
0.017779376 0.045882255 0.66120565
0.056205768 0.045882255 0.66120565
-0.049805034 -0.025202513 0.66761118
0.01770179 -0.025202513 0.66761118
0.029703002 -0.025202513 0.66761118
-0.038073827 -0.022226915 0.66580963
-0.018074248 -0.022226915 0.66580963
-0.049886454 -0.019954592 0.66443378
0.02200873 -0.019954592 0.66443378
0.029931873 -0.019954592 0.66443378
0.049886454 -0.019954592 0.66443378
-0.0020690775 0.048475534 0.66546357
0.033991989 0.048475534 0.66546357
-0.049884163 -0.029993445 0.67051184
-0.042079762 -0.029993445 0.67051178
0.04988417 -0.029993445 0.67051178
-0.013918553 -0.027233645 0.66884089
-0.017992666 0.051233351 0.66999161
0.017992666 0.051233351 0.66999161
-0.057968438 -0.037177235 0.67486131
-0.014177063 -0.037177235 0.67486131
-0.061653189 -0.034253538 0.67309111
-0.037988327 -0.034253538 0.67309111
0.022107963 -0.034253538 0.67309117
0.042036265 -0.034253538 0.67309117
-0.033699967 0.054171979 0.67481643
0.041888744 0.054171979 0.67481643
0.05007752 0.054171979 0.67481643
-0.053878281 -0.041694149 0.67759609
-0.017958786 -0.041694149 0.67759609
0.017958786 -0.041694149 0.67759609
-0.046088219 -0.039413363 0.67621517
0.049902417 -0.039413363 0.67621517
-0.053727526 0.057309419 0.67996764
0.0016685209 -0.052057832 0.68387032
0.053726561 -0.052057981 0.68387091
-0.041988257 -0.049594432 0.68237925
0.045955651 -0.049594432 0.68237931
0.018016765 -0.047171116 0.68091214
0.057981223 -0.047171116 0.68091214
-0.041961808 -0.057998165 0.68746698
0.0016851955 0.060667068 0.68548059
0.0059318868 -0.064203948 0.69122422
0.014306316 -0.064203948 0.69122422
-0.045959294 -0.061511651 0.68959421
-0.014167902 -0.061511651 0.68959415
-0.014167902 -0.061511651 0.68959415
0.038010329 -0.061511651 0.68959421
-0.026196493 0.064268768 0.69139415
0.026196493 0.064268768 0.69139415
-0.0583557 0.068142086 0.69775379
-0.006161782 0.068142086 0.69775379
0.041809227 0.072318673 0.70461112
-0.046258546 0.076836228 0.7120285
-0.02234523 0.076836228 0.7120285
0.02234523 0.076836228 0.7120285
0.049786743 0.076836228 0.7120285
