# .PCD v0.7 - Point Cloud Data file format
VERSION 0.7
FIELDS x y z
SIZE 4 4 4
TYPE F F F
COUNT 1 1 1
WIDTH 1346
HEIGHT 1
VIEWPOINT 0 0 0 1 0 0 0
POINTS 1346
DATA ascii
0.010796154 0.035332888 0.64121747
0.010796154 0.034351468 0.64121741
0.010796154 0.033369958 0.64121741
0.010796154 0.032388508 0.64121747
0.010796154 0.031407028 0.64121747
0.010796154 0.030425549 0.64121747
0.010796127 0.029444009 0.64121711
0.010796127 0.028462529 0.64121711
0.010796127 0.027481049 0.64121717
0.010796127 0.026499599 0.64121717
0.010796127 0.025518149 0.64121711
0.010796127 0.024536699 0.64121711
0.010796127 0.023555189 0.64121711
0.010796127 0.022573739 0.64121717
0.010796127 0.021592259 0.64121717
0.010796127 0.020610839 0.64121711
0.010796127 0.019629329 0.64121711
0.010796127 0.018647879 0.64121711
0.010796127 0.017666399 0.64121711
0.010796127 0.016684949 0.64121717
0.010796127 0.015703499 0.64121711
0.010796127 0.014722049 0.64121711
0.010796127 0.013740569 0.64121711
0.010796127 0.012759089 0.64121711
0.010796127 0.01177758 0.64121711
0.010796127 0.01079613 0.64121711
0.010796127 0.0098146498 0.64121717
0.010796127 0.0088332295 0.64121711
0.010796127 0.0078517497 0.64121711
0.010796127 0.0068702996 0.64121711
0.010796127 0.0058888197 0.64121717
0.010796127 0.0049073696 0.64121717
0.010796127 0.0039258599 0.64121717
0.010796127 0.0029444396 0.64121711
0.010796127 0.00196293 0.64121711
0.010796127 0.00098147988 0.64121711
0.010796127 -0 0.64121711
0.010796127 -0.00098145008 0.64121717
0.010796127 -0.00196293 0.64121717
0.010796127 -0.0029443502 0.64121711
0.010796127 -0.0039258599 0.64121711
0.010796127 -0.00490731 0.64121711
0.010796127 -0.0058887899 0.64121711
0.010796127 -0.00687024 0.64121717
0.010796127 -0.0078516901 0.64121711
0.010796127 -0.0088331401 0.64121711
0.010796127 -0.00981462 0.64121711
0.010796127 -0.0107961 0.64121711
0.010796127 -0.01177758 0.64121711
0.010796127 -0.01275906 0.64121717
0.010796127 -0.01374051 0.64121711
0.010796127 -0.01472196 0.64121711
0.010796127 -0.01570344 0.64121711
0.010796127 -0.01668489 0.64121717
0.010796127 -0.01766637 0.64121717
0.010796127 -0.01864782 0.64121717
0.010796127 -0.01962927 0.64121711
0.010796127 -0.02061075 0.64121711
0.010796127 -0.021592259 0.64121711
0.010796127 -0.022573709 0.64121711
0.010796127 -0.023555189 0.64121711
0.010796127 -0.02453661 0.64121711
0.010796127 -0.025518119 0.64121717
0.010796127 -0.02649954 0.64121711
0.010796127 -0.027481019 0.64121711
0.010796127 -0.028462499 0.64121711
0.010796127 -0.029443979 0.64121711
0.010796127 -0.030425429 0.64121717
0.010796127 -0.031406879 0.64121711
0.010796127 -0.03238833 0.64121711
0.010796127 -0.033369839 0.64121711
0.010796127 -0.034351289 0.64121717
0.010796127 -0.035332769 0.64121717
0.010796127 -0.036314189 0.64121711
0.010796127 -0.037295699 0.64121711
0.010796127 -0.038277149 0.64121711
0.010796127 -0.039258629 0.64121717
0.010796127 -0.040240079 0.64121717
0.010796127 -0.041221559 0.64121717
0.010796127 -0.042203009 0.64121717
0.010796127 -0.043184489 0.64121711
0.010796127 -0.044165939 0.64121711
0.010796127 -0.045147419 0.64121711
0.010796127 -0.046128899 0.64121711
0.010796127 -0.047110379 0.64121711
0.010796127 -0.048091799 0.64121711
0.011724021 0.038103104 0.64067823
0.011724021 0.037126064 0.64067829
0.011724021 0.036149114 0.64067823
0.011724021 0.035172075 0.64067829
0.011724021 0.034195125 0.64067829
0.011724021 0.033218086 0.64067829
0.011724021 0.032241106 0.64067829
0.011724021 0.031264067 0.64067829
0.011724021 0.030287087 0.64067829
0.011723991 0.029309988 0.64067799
0.011723991 0.028333008 0.64067793
0.011723991 0.027355999 0.64067799
0.011723991 0.026379019 0.64067793
0.011723991 0.02540198 0.64067799
0.011723991 0.024425 0.64067793
0.011723991 0.02344802 0.64067793
0.011723991 0.022470981 0.64067793
0.011723991 0.021494031 0.64067793
0.011723991 0.020516992 0.64067799
0.011723991 0.019540042 0.64067793
0.011723991 0.018563002 0.64067793
0.011723991 0.017586023 0.64067799
0.011723991 0.016609013 0.64067793
0.011723991 0.015632004 0.64067799
0.011723991 0.014655024 0.64067793
0.011723991 0.013678014 0.64067793
0.011723991 0.012701005 0.64067793
0.011723991 0.011723995 0.64067793
0.011723991 0.010746986 0.64067793
0.011723991 0.0097700357 0.64067793
0.011723991 0.0087929964 0.64067793
0.011723991 0.0078160465 0.64067793
0.011723991 0.0068390369 0.64067793
0.011723991 0.0058620274 0.64067793
0.011723991 0.0048850179 0.64067793
0.011723991 0.0039080083 0.64067793
0.011723991 0.0029310286 0.64067793
0.011723991 0.0019540191 0.64067793
0.011723991 0.00097703934 0.64067793
0.011723991 -0 0.64067793
0.011723991 -0.00097697973 0.64067793
0.011723991 -0.0019539893 0.64067799
0.011723991 -0.002930969 0.64067793
0.011723991 -0.0039079785 0.64067793
0.011723991 -0.0048849583 0.64067793
0.011723991 -0.0058619678 0.64067793
0.011723991 -0.0068389773 0.64067793
0.011723991 -0.0078159869 0.64067793
0.011723991 -0.0087929666 0.64067799
0.011723991 -0.0097699463 0.64067793
0.011723991 -0.010746956 0.64067793
0.011723991 -0.011723936 0.64067793
0.011723991 -0.012700975 0.64067793
0.011723991 -0.013677984 0.64067793
0.011723991 -0.014654964 0.64067793
0.011723991 -0.015631974 0.64067793
0.011723991 -0.016608953 0.64067793
0.011723991 -0.017585963 0.64067799
0.011723991 -0.018562973 0.64067793
0.011723991 -0.019539982 0.64067799
0.011723991 -0.020516992 0.64067793
0.011723991 -0.021493942 0.64067793
0.011723991 -0.022470981 0.64067793
0.011723991 -0.023447961 0.64067793
0.011723991 -0.02442497 0.64067793
0.011723991 -0.02540198 0.64067793
0.011723991 -0.02637893 0.64067793
0.011723991 -0.027355969 0.64067793
0.011723991 -0.028332919 0.64067793
0.011723991 -0.029309958 0.64067799
0.011723991 -0.030286938 0.64067793
0.011723991 -0.031263977 0.64067799
0.011723991 -0.032240957 0.64067793
0.011723991 -0.033217967 0.64067799
0.011723991 -0.034194946 0.64067793
0.011723991 -0.035171956 0.64067793
0.011723991 -0.036148936 0.64067799
0.011723991 -0.037125975 0.64067793
0.011723991 -0.038102955 0.64067799
0.011723991 -0.039079964 0.64067793
0.011723991 -0.040056974 0.64067799
0.011723991 -0.041033953 0.64067793
0.011723991 -0.042010933 0.64067793
0.011723991 -0.042987972 0.64067799
0.011723991 -0.043964952 0.64067793
0.011723991 -0.044941932 0.64067799
0.011723991 -0.045918941 0.64067793
0.011723991 -0.046895951 0.64067799
0.011723991 -0.047872931 0.64067799
0.012643481 0.037930429 0.64014399
0.012643481 0.03695789 0.64014393
0.012643481 0.035985321 0.64014399
0.012643481 0.035012722 0.64014399
0.012643481 0.034040183 0.64014393
0.012643481 0.033067584 0.64014399
0.012643481 0.032095045 0.64014399
0.012643481 0.031122416 0.64014399
0.012643481 0.030149877 0.64014399
0.012643449 0.029177219 0.64014363
0.012643449 0.02820465 0.64014363
0.012643449 0.027232051 0.64014369
0.012643449 0.026259482 0.64014363
0.012643449 0.025286943 0.64014363
0.012643449 0.024314344 0.64014369
0.012643449 0.023341805 0.64014363
0.012643449 0.022369206 0.64014363
0.012643449 0.021396637 0.64014363
0.012643449 0.020424068 0.64014363
0.012643449 0.019451469 0.64014363
0.012643449 0.0184789 0.64014363
0.012643449 0.017506361 0.64014363
0.012643449 0.016533762 0.64014363
0.012643449 0.015561223 0.64014363
0.012643449 0.014588624 0.64014363
0.012643449 0.013616055 0.64014363
0.012643449 0.012643516 0.64014363
0.012643449 0.011670887 0.64014363
0.012643449 0.010698348 0.64014363
0.012643449 0.0097257197 0.64014363
0.012643449 0.0087531805 0.64014363
0.012643449 0.0077806115 0.64014363
0.012643449 0.0068080127 0.64014363
0.012643449 0.0058354437 0.64014363
0.012643449 0.0048628747 0.64014369
0.012643449 0.003890276 0.64014363
0.012643449 0.0029177368 0.64014363
0.012643449 0.0019451678 0.64014369
0.012643449 0.00097259879 0.64014363
0.012643449 2.9802322e-08 0.64014363
0.012643449 -0.00097256899 0.64014363
0.012643449 -0.0019451082 0.64014363
0.012643449 -0.002917707 0.64014369
0.012643449 -0.003890276 0.64014363
0.012643449 -0.0048628449 0.64014363
0.012643449 -0.0058354139 0.64014363
0.012643449 -0.0068079829 0.64014363
0.012643449 -0.0077805519 0.64014369
0.012643449 -0.0087531507 0.64014363
0.012643449 -0.0097256899 0.64014363
0.012643449 -0.010698259 0.64014363
0.012643449 -0.011670858 0.64014363
0.012643449 -0.012643397 0.64014363
0.012643449 -0.013615996 0.64014363
0.012643449 -0.014588535 0.64014363
0.012643449 -0.015561163 0.64014363
0.012643449 -0.016533703 0.64014363
0.012643449 -0.017506272 0.64014363
0.012643449 -0.018478841 0.64014363
0.012643449 -0.019451439 0.64014363
0.012643449 -0.020424008 0.64014369
0.012643449 -0.021396577 0.64014363
0.012643449 -0.022369146 0.64014363
0.012643449 -0.023341715 0.64014363
0.012643449 -0.024314314 0.64014363
0.012643449 -0.025286883 0.64014369
0.012643449 -0.026259452 0.64014369
0.012643449 -0.027232021 0.64014363
0.012643449 -0.02820462 0.64014363
0.012643449 -0.029177159 0.64014363
0.012643449 -0.030149758 0.64014369
0.012643449 -0.031122327 0.64014363
0.012643449 -0.032094896 0.64014363
0.012643449 -0.033067465 0.64014363
0.012643449 -0.034040064 0.64014363
0.012643449 -0.035012633 0.64014363
0.012643449 -0.035985172 0.64014363
0.012643449 -0.036957741 0.64014363
0.012643449 -0.03793031 0.64014363
0.012643449 -0.038902909 0.64014363
0.012643449 -0.039875448 0.64014363
0.012643449 -0.040848047 0.64014363
0.012643449 -0.041820616 0.64014363
0.012643449 -0.042793214 0.64014363
0.012643449 -0.043765754 0.64014363
0.012643449 -0.044738322 0.64014363
0.012643449 -0.045710891 0.64014363
0.012643449 -0.04668349 0.64014363
0.012663371 -0.047731161 0.64032865
0.013554648 0.036791205 0.63961446
0.013554648 0.035823017 0.63961446
0.013554648 0.034854829 0.63961446
0.013554648 0.033886641 0.63961446
0.013554648 0.032918423 0.63961446
0.013554648 0.031950295 0.63961446
0.013554648 0.030982047 0.63961446
0.013554648 0.030013889 0.63961446
0.013554648 0.029045671 0.63961446
0.013554648 0.028077513 0.63961446
0.013554648 0.027109325 0.63961446
0.013554648 0.026141107 0.63961446
0.013554648 0.025172979 0.63961446
0.013554648 0.024204731 0.63961446
0.013554648 0.023236573 0.63961446
0.013554648 0.022268355 0.63961446
0.013554612 0.021300107 0.63961416
0.013554612 0.020331919 0.63961416
0.013554612 0.019363761 0.63961416
0.013554612 0.018395543 0.63961416
0.013554612 0.017427385 0.63961416
0.013554612 0.016459227 0.63961416
0.013554612 0.015491009 0.63961422
0.013554612 0.014522821 0.63961422
0.013554612 0.013554633 0.63961416
0.013554612 0.012586474 0.63961416
0.013554612 0.011618286 0.63961416
0.013554612 0.010650069 0.63961416
0.013554612 0.0096818805 0.63961416
0.013554612 0.0087136924 0.63961416
0.013554612 0.0077455342 0.63961416
0.013554612 0.0067773163 0.63961416
0.013554612 0.0058091283 0.63961416
0.013554612 0.00484097 0.63961411
0.013554612 0.0038727522 0.63961416
0.013554612 0.0029045641 0.63961416
0.013554612 0.0019363761 0.63961422
0.013554612 0.00096821785 0.63961416
0.013554612 2.9802322e-08 0.63961416
0.013554612 -0.00096818805 0.63961416
0.013554612 -0.0019363165 0.63961416
0.013554612 -0.0029045343 0.63961416
0.013554612 -0.0038727224 0.63961416
0.013554612 -0.0048409104 0.63961411
0.013554612 -0.0058090687 0.63961416
0.013554612 -0.0067772865 0.63961422
0.013554612 -0.0077455044 0.63961422
0.013554612 -0.0087136328 0.63961416
0.013554612 -0.0096818507 0.63961416
0.013554612 -0.010650069 0.63961416
0.013554612 -0.011618227 0.63961416
0.013554612 -0.012586415 0.63961416
0.013554612 -0.013554603 0.63961416
0.013554612 -0.014522791 0.63961411
0.013554612 -0.015490949 0.63961416
0.013554612 -0.016459167 0.63961416
0.013554612 -0.017427355 0.63961422
0.013554612 -0.018395513 0.63961416
0.013554612 -0.019363701 0.63961416
0.013554612 -0.020331889 0.63961416
0.013554612 -0.021300077 0.63961416
0.013554612 -0.022268265 0.63961416
0.013554612 -0.023236454 0.63961416
0.013554612 -0.024204642 0.63961422
0.013554612 -0.02517283 0.63961416
0.013554612 -0.026141018 0.63961422
0.013554612 -0.027109176 0.63961416
0.013554612 -0.028077394 0.63961411
0.013554612 -0.029045612 0.63961416
0.013554612 -0.03001377 0.63961416
0.013554612 -0.030981958 0.63961416
0.013554612 -0.031950146 0.63961416
0.013554612 -0.032918364 0.63961416
0.013554612 -0.033886492 0.63961411
0.013554612 -0.03485468 0.63961416
0.013554612 -0.035822898 0.63961416
0.013554612 -0.036791056 0.63961422
0.013554612 -0.037759244 0.63961416
0.013554612 -0.038727432 0.63961416
0.013554612 -0.03969565 0.63961416
0.013554612 -0.040663779 0.63961416
0.013554612 -0.041631997 0.63961416
0.013554612 -0.042600185 0.63961416
0.013554612 -0.043568403 0.63961422
0.013554612 -0.044536531 0.63961416
0.013554612 -0.045504749 0.63961422
0.013838099 -0.04744488 0.64205843
0.014197795 -0.049692273 0.64515984
0.014457631 0.036626011 0.6390897
0.014457631 0.035662174 0.6390897
0.014457631 0.034698367 0.63908976
0.014457631 0.0337345 0.6390897
0.014457631 0.032770634 0.6390897
0.014457631 0.031806797 0.6390897
0.014457631 0.03084299 0.6390897
0.014457631 0.029879123 0.6390897
0.014457631 0.028915286 0.6390897
0.014457631 0.027951449 0.6390897
0.014457631 0.026987612 0.6390897
0.014457631 0.026023775 0.6390897
0.014457631 0.025059909 0.63908976
0.014457631 0.024096072 0.6390897
0.014457631 0.023132265 0.6390897
0.014457631 0.022168398 0.63908976
0.014457595 0.021204501 0.63908947
0.014457595 0.020240635 0.63908947
0.014457595 0.019276828 0.63908947
0.014457595 0.018312991 0.63908941
0.014457595 0.017349124 0.63908947
0.014457595 0.016385287 0.63908947
0.014457595 0.01542148 0.63908941
0.014457595 0.014457613 0.63908947
0.014457595 0.013493776 0.63908947
0.014457595 0.01252991 0.63908947
0.014457595 0.011566103 0.63908947
0.014457595 0.010602266 0.63908941
0.014457595 0.0096383989 0.63908947
0.014457595 0.008674562 0.63908947
0.014457595 0.0077107251 0.63908947
0.014457595 0.0067468584 0.63908947
0.014457595 0.0057830513 0.63908941
0.014457595 0.0048191845 0.63908947
0.014457595 0.0038553774 0.63908947
0.014457595 0.0028915405 0.63908947
0.014457595 0.0019276738 0.63908947
0.014457595 0.00096386671 0.63908947
0.014457595 2.9802322e-08 0.63908941
0.014457595 -0.00096383691 0.63908947
0.014457595 -0.0019276738 0.63908941
0.014457595 -0.0028914809 0.63908941
0.014457595 -0.0038553178 0.63908947
0.014457595 -0.0048191845 0.63908947
0.014457595 -0.0057829916 0.63908941
0.014457595 -0.0067468584 0.63908947
0.014457595 -0.0077106655 0.63908947
0.014457595 -0.0086745322 0.63908941
0.014457595 -0.0096383691 0.63908947
0.014457595 -0.010602206 0.63908941
0.014457595 -0.011566073 0.63908947
0.014457595 -0.01252991 0.63908947
0.014457595 -0.013493717 0.63908941
0.014457595 -0.014457583 0.63908947
0.014457595 -0.01542142 0.63908947
0.014457595 -0.016385257 0.63908941
0.014457595 -0.017349094 0.63908947
0.014457595 -0.018312931 0.63908947
0.014457595 -0.019276768 0.63908941
0.014457595 -0.020240635 0.63908947
0.014457595 -0.021204442 0.63908947
0.014457595 -0.022168308 0.63908947
0.014457595 -0.023132145 0.63908947
0.014457595 -0.024095982 0.63908947
0.014457595 -0.025059819 0.63908947
0.014457595 -0.026023656 0.63908947
0.014457595 -0.026987493 0.63908947
0.014457595 -0.02795136 0.63908947
0.014457595 -0.028915167 0.63908947
0.014457595 -0.029879004 0.63908947
0.014457595 -0.03084287 0.63908947
0.014457595 -0.031806707 0.63908947
0.014457595 -0.032770514 0.63908941
0.014457595 -0.033734381 0.63908947
0.014457595 -0.034698218 0.63908947
0.014457595 -0.035662085 0.63908947
0.014457595 -0.036625892 0.63908947
0.014457595 -0.037589729 0.63908947
0.014457595 -0.038553596 0.63908947
0.014457595 -0.039517432 0.63908947
0.014457595 -0.04048121 0.63908947
0.014457595 -0.041445106 0.63908947
0.014457595 -0.042408913 0.63908947
0.014457595 -0.04337275 0.63908947
0.014670684 -0.044990093 0.64080429
0.01504791 -0.047150105 0.64383996
0.015445044 -0.049424142 0.64703584
0.015863711 -0.05182144 0.65040499
0.015352543 0.035502791 0.63856971
0.015352543 0.034543216 0.63856971
0.015352543 0.03358373 0.63856971
0.015352543 0.032624155 0.63856971
0.015352543 0.03166464 0.63856971
0.015352543 0.030705094 0.63856971
0.015352543 0.029745549 0.63856971
0.015352543 0.028786033 0.63856971
0.015352543 0.027826488 0.63856971
0.015352543 0.026866972 0.63856971
0.015352543 0.025907457 0.63856971
0.015352543 0.024947912 0.63856971
0.015352543 0.023988366 0.63856971
0.015352543 0.023028851 0.63856971
0.015352543 0.022069305 0.63856971
0.015352504 0.0211097 0.63856941
0.015352504 0.020150185 0.63856941
0.015352504 0.019190669 0.63856941
0.015352504 0.018231124 0.63856941
0.015352504 0.017271608 0.63856941
0.015352504 0.016312063 0.63856936
0.015352504 0.015352547 0.63856941
0.015352504 0.014393002 0.63856941
0.015352504 0.013433427 0.63856947
0.015352504 0.012473941 0.63856941
0.015352504 0.011514395 0.63856941
0.015352504 0.01055488 0.63856947
0.015352504 0.0095953345 0.63856941
0.015352504 0.008635819 0.63856941
0.015352504 0.0076762736 0.63856941
0.015352504 0.006716758 0.63856941
0.015352504 0.0057572126 0.63856936
0.015352504 0.0047976971 0.63856941
0.015352504 0.0038381517 0.63856941
0.015352504 0.0028786361 0.63856936
0.015352504 0.0019190907 0.63856941
0.015352504 0.00095954537 0.63856941
0.015352504 5.9604645e-08 0.63856936
0.015352504 -0.00095951557 0.63856941
0.015352504 -0.0019190311 0.63856941
0.015352504 -0.0028785765 0.63856941
0.015352504 -0.0038380921 0.63856941
0.015352504 -0.0047976077 0.63856936
0.015352504 -0.005757153 0.63856941
0.015352504 -0.0067166984 0.63856941
0.015352504 -0.0076761842 0.63856936
0.015352504 -0.0086357594 0.63856941
0.015352504 -0.0095953047 0.63856941
0.015352504 -0.01055482 0.63856947
0.015352504 -0.011514366 0.63856941
0.015352504 -0.012473851 0.63856941
0.015352504 -0.013433427 0.63856941
0.015352504 -0.014392942 0.63856941
0.015352504 -0.015352458 0.63856941
0.015352504 -0.016312003 0.63856941
0.015352504 -0.017271549 0.63856941
0.015352504 -0.018231034 0.63856936
0.015352504 -0.019190639 0.63856941
0.015352504 -0.020150125 0.63856941
0.015352504 -0.02110967 0.63856936
0.015352504 -0.022069246 0.63856941
0.015352504 -0.023028731 0.63856936
0.015352504 -0.023988307 0.63856941
0.015352504 -0.024947792 0.63856941
0.015352504 -0.025907338 0.63856936
0.015352504 -0.026866883 0.63856941
0.015352504 -0.027826399 0.63856941
0.015352504 -0.028785914 0.63856936
0.015352504 -0.029745489 0.63856941
0.015352504 -0.030705005 0.63856936
0.015352504 -0.031664521 0.63856936
0.015352504 -0.032624066 0.63856941
0.015352504 -0.033583581 0.63856936
0.015352504 -0.034543127 0.63856936
0.015352504 -0.035502642 0.63856941
0.015352504 -0.036462188 0.63856936
0.015352504 -0.037421733 0.63856941
0.015352504 -0.038381249 0.63856941
0.015352504 -0.039340764 0.63856936
0.015352504 -0.04030031 0.63856941
0.015352504 -0.041259855 0.63856936
0.015485946 -0.042586327 0.6395762
0.015879886 -0.044662148 0.6425482
0.016294392 -0.04684636 0.64567542
0.016731119 -0.049147636 0.64897025
0.017191898 -0.051575661 0.65244651
0.017678777 -0.054141223 0.65611976
0.01623949 0.035344809 0.63805425
0.01623949 0.034389526 0.63805425
0.01623949 0.033434242 0.63805431
0.01623949 0.032479018 0.63805425
0.01623949 0.031523734 0.63805425
0.01623949 0.03056848 0.63805431
0.01623949 0.029613197 0.63805431
0.01623949 0.028657943 0.63805425
0.01623949 0.027702689 0.63805425
0.01623949 0.026747435 0.63805431
0.01623949 0.025792181 0.63805425
0.01623949 0.024836898 0.63805425
0.01623949 0.023881614 0.63805425
0.01623949 0.02292636 0.63805431
0.01623949 0.021971107 0.63805425
0.016239449 0.021015793 0.63805401
0.016239449 0.020060509 0.63805401
0.016239449 0.019105226 0.63805401
0.016239449 0.018150002 0.63805395
0.016239449 0.017194718 0.63805395
0.016239449 0.016239494 0.63805401
0.016239449 0.01528421 0.63805401
0.016239449 0.014328957 0.63805395
0.016239449 0.013373673 0.63805395
0.016239449 0.012418389 0.63805401
0.016239449 0.011463195 0.63805395
0.016239449 0.010507911 0.63805401
0.016239449 0.0095526278 0.63805401
0.016239449 0.008597374 0.63805401
0.016239449 0.0076421201 0.63805401
0.016239449 0.0066868663 0.63805401
0.016239449 0.0057315826 0.63805401
0.016239449 0.0047763288 0.63805401
0.016239449 0.003821075 0.63805401
0.016239449 0.0028657913 0.63805401
0.016239449 0.0019105375 0.63805401
0.016239449 0.00095528364 0.63805401
0.016239449 2.9802322e-08 0.63805401
0.016239449 -0.00095522404 0.63805395
0.016239449 -0.0019105077 0.63805401
0.016239449 -0.0028657615 0.63805401
0.016239449 -0.0038210452 0.63805401
0.016239449 -0.004776299 0.63805395
0.016239449 -0.005731523 0.63805401
0.016239449 -0.0066868067 0.63805401
0.016239449 -0.0076420307 0.63805395
0.016239449 -0.0085973442 0.63805395
0.016239449 -0.0095526278 0.63805401
0.016239449 -0.010507852 0.63805401
0.016239449 -0.011463106 0.63805401
0.016239449 -0.01241836 0.63805401
0.016239449 -0.013373643 0.63805401
0.016239449 -0.014328927 0.63805395
0.016239449 -0.015284181 0.63805401
0.016239449 -0.016239434 0.63805401
0.016239449 -0.017194659 0.63805401
0.016239449 -0.018149942 0.63805401
0.016239449 -0.019105226 0.63805401
0.016239449 -0.02006045 0.63805401
0.016239449 -0.021015733 0.63805401
0.016239449 -0.021970987 0.63805401
0.016239449 -0.022926271 0.63805401
0.016239449 -0.023881525 0.63805401
0.016239449 -0.024836779 0.63805401
0.016239449 -0.025792062 0.63805401
0.016239449 -0.026747316 0.63805395
0.016239449 -0.02770254 0.63805401
0.016239449 -0.028657854 0.63805401
0.016239449 -0.029613107 0.63805401
0.016239449 -0.030568361 0.63805395
0.016239449 -0.031523645 0.63805401
0.016239449 -0.032478869 0.63805401
0.016239449 -0.033434123 0.63805401
0.016239449 -0.034389377 0.63805401
0.016239449 -0.03534466 0.63805401
0.016239449 -0.036299914 0.63805401
0.016239449 -0.037255198 0.63805401
0.016239449 -0.038210452 0.63805401
0.016239449 -0.039165676 0.63805401
0.016284423 -0.040232092 0.63837337
0.016694302 -0.042226732 0.64128375
0.017125348 -0.044324398 0.64434445
0.017579244 -0.046533287 0.64756739
0.018057855 -0.048862398 0.65096581
0.018563256 -0.051321924 0.65455449
0.019097764 -0.05392307 0.65834987
0.019663962 -0.056678474 0.6623702
0.017118579 0.034237206 0.63754344
0.017118579 0.033286154 0.63754344
0.017118579 0.032335132 0.63754344
0.017118579 0.031384051 0.63754344
0.017118579 0.030433029 0.63754344
0.017118579 0.029482037 0.63754344
0.017118579 0.028530955 0.63754344
0.017118579 0.027579963 0.63754344
0.017118579 0.026628911 0.63754344
0.017118579 0.02567789 0.63754344
0.017118579 0.024726868 0.63754344
0.017118579 0.023775816 0.63754344
0.017118579 0.022824794 0.63754344
0.017118579 0.021873772 0.63754338
0.017118536 0.020922691 0.63754314
0.017118536 0.019971669 0.63754308
0.017118536 0.019020617 0.63754314
0.017118536 0.018069595 0.63754314
0.017118536 0.017118543 0.63754314
0.017118536 0.016167521 0.63754314
0.017118536 0.0152165 0.63754308
0.017118536 0.014265478 0.63754314
0.017118536 0.013314456 0.63754314
0.017118536 0.012363374 0.63754314
0.017118536 0.011412382 0.63754314
0.017118536 0.01046136 0.63754314
0.017118536 0.0095102787 0.63754314
0.017118536 0.0085592866 0.63754314
0.017118536 0.0076082647 0.63754314
0.017118536 0.006657213 0.6375432
0.017118536 0.0057062209 0.63754314
0.017118536 0.004755199 0.63754314
0.017118536 0.0038041174 0.63754314
0.017118536 0.0028531253 0.63754314
0.017118536 0.0019020736 0.6375432
0.017118536 0.00095102191 0.63754314
0.017118536 2.9802322e-08 0.63754314
0.017118536 -0.00095099211 0.6375432
0.017118536 -0.0019020438 0.63754314
0.017118536 -0.0028530955 0.6375432
0.017118536 -0.0038040876 0.63754314
0.017118536 -0.0047551394 0.63754314
0.017118536 -0.0057061613 0.63754308
0.017118536 -0.0066571832 0.63754314
0.017118536 -0.0076082051 0.63754314
0.017118536 -0.0085592568 0.63754314
0.017118536 -0.0095102489 0.63754314
0.017118536 -0.010461301 0.63754308
0.017118536 -0.011412352 0.63754314
0.017118536 -0.012363344 0.63754314
0.017118536 -0.013314426 0.6375432
0.017118536 -0.014265448 0.6375432
0.017118536 -0.01521641 0.63754314
0.017118536 -0.016167492 0.63754314
0.017118536 -0.017118514 0.63754314
0.017118536 -0.018069506 0.63754314
0.017118536 -0.019020587 0.6375432
0.017118536 -0.019971609 0.63754314
0.017118536 -0.020922601 0.63754314
0.017118536 -0.021873653 0.63754314
0.017118536 -0.022824675 0.63754314
0.017118536 -0.023775756 0.6375432
0.017118536 -0.024726748 0.63754314
0.017118536 -0.02567777 0.63754314
0.017118536 -0.026628822 0.6375432
0.017118536 -0.027579844 0.63754314
0.017118536 -0.028530896 0.6375432
0.017118536 -0.029481918 0.63754314
0.017118536 -0.03043291 0.63754314
0.017118536 -0.031383961 0.6375432
0.017118536 -0.032335013 0.63754314
0.017118536 -0.033286005 0.63754314
0.017118536 -0.034237057 0.6375432
0.017118536 -0.035188079 0.63754314
0.017118536 -0.036139071 0.63754314
0.017118536 -0.037090123 0.6375432
0.017118536 -0.038041174 0.63754314
0.017491706 -0.039842188 0.6400457
0.017938504 -0.041856468 0.64304197
0.018408725 -0.043976367 0.64619535
0.018904263 -0.046210378 0.64951849
0.019427216 -0.048567981 0.65302551
0.019979928 -0.051059783 0.65673208
0.020565007 -0.053697467 0.66065562
0.021185387 -0.056494325 0.66481602
0.021844361 -0.0594652 0.66923529
0.017989913 0.034086138 0.6370371
0.017989913 0.033139378 0.6370371
0.017989913 0.032192498 0.6370371
0.017989913 0.031245679 0.6370371
0.017989913 0.030298799 0.6370371
0.017989913 0.029351979 0.6370371
0.017989913 0.02840516 0.63703704
0.017989913 0.02745831 0.63703716
0.017989913 0.026511461 0.6370371
0.017989913 0.025564641 0.63703704
0.017989913 0.024617821 0.6370371
0.017989913 0.023670971 0.6370371
0.017989913 0.022724092 0.6370371
0.017989913 0.021777302 0.6370371
0.017989868 0.020830393 0.6370368
0.017989868 0.019883573 0.6370368
0.017989868 0.018936694 0.6370368
0.017989868 0.017989904 0.6370368
0.017989868 0.017043054 0.6370368
0.017989868 0.016096205 0.6370368
0.017989868 0.015149385 0.6370368
0.017989868 0.014202535 0.6370368
0.017989868 0.013255715 0.63703686
0.017989868 0.012308896 0.6370368
0.017989868 0.011362046 0.63703686
0.017989868 0.010415196 0.6370368
0.017989868 0.0094683766 0.6370368
0.017989868 0.0085215271 0.63703686
0.017989868 0.0075747073 0.6370368
0.017989868 0.0066278875 0.6370368
0.017989868 0.0056810379 0.6370368
0.017989868 0.0047341883 0.6370368
0.017989868 0.0037873685 0.63703686
0.017989868 0.0028405488 0.6370368
0.017989868 0.0018936992 0.6370368
0.017989868 0.00094681978 0.6370368
0.017989868 -0 0.6370368
0.017989868 -0.00094681978 0.6370368
0.017989868 -0.0018936396 0.6370368
0.017989868 -0.0028404891 0.6370368
0.017989868 -0.0037873387 0.6370368
0.017989868 -0.0047341287 0.6370368
0.017989868 -0.0056809783 0.6370368
0.017989868 -0.0066278279 0.6370368
0.017989868 -0.0075746477 0.6370368
0.017989868 -0.0085214972 0.6370368
0.017989868 -0.009468317 0.6370368
0.017989868 -0.010415167 0.6370368
0.017989868 -0.011362016 0.63703686
0.017989868 -0.012308836 0.6370368
0.017989868 -0.013255656 0.6370368
0.017989868 -0.014202505 0.6370368
0.017989868 -0.015149325 0.6370368
0.017989868 -0.016096175 0.63703686
0.017989868 -0.017043024 0.6370368
0.017989868 -0.017989844 0.6370368
0.017989868 -0.018936694 0.6370368
0.017989868 -0.019883513 0.6370368
0.017989868 -0.020830333 0.6370368
0.017989868 -0.021777213 0.63703686
0.017989868 -0.022724003 0.6370368
0.017989868 -0.023670822 0.6370368
0.017989868 -0.024617702 0.6370368
0.017989868 -0.025564551 0.6370368
0.017989868 -0.026511341 0.63703686
0.017989868 -0.027458191 0.6370368
0.017989868 -0.028405011 0.6370368
0.017989868 -0.02935189 0.6370368
0.017989868 -0.03029871 0.6370368
0.017989868 -0.03124553 0.63703686
0.017989868 -0.032192379 0.6370368
0.017989868 -0.033139229 0.6370368
0.017989868 -0.034086049 0.63703686
0.017989868 -0.035032868 0.6370368
0.017989868 -0.035979688 0.6370368
0.018272625 -0.037506938 0.63883328
0.018734423 -0.03944087 0.64176714
0.019220171 -0.041475087 0.64485317
0.019731777 -0.043617606 0.64810354
0.020271361 -0.045877278 0.65153158
0.020841289 -0.048264027 0.65515244
0.02144419 -0.05078885 0.65898281
0.022083012 -0.053464115 0.66304135
0.022761062 -0.05630365 0.66734916
0.023482071 -0.059323102 0.67192984
0.024250172 -0.062539876 0.67680973
0.018853594 0.033936471 0.63653523
0.018853594 0.032993823 0.63653517
0.018853594 0.032051116 0.63653523
0.018853594 0.031108439 0.63653523
0.018853594 0.030165762 0.63653517
0.018853594 0.029223114 0.63653523
0.018853594 0.028280407 0.63653523
0.018853594 0.02733776 0.63653517
0.018853594 0.026395053 0.63653517
0.018853594 0.025452375 0.63653523
0.018853594 0.024509668 0.63653523
0.018853594 0.023567021 0.63653517
0.018853594 0.022624314 0.63653523
0.018853594 0.021681637 0.63653523
0.018853547 0.02073893 0.63653493
0.018853547 0.019796252 0.63653493
0.018853547 0.018853575 0.63653487
0.018853547 0.017910898 0.63653493
0.018853547 0.016968191 0.63653493
0.018853547 0.016025543 0.63653493
0.018853547 0.015082836 0.63653493
0.018853547 0.014140189 0.63653493
0.018853547 0.013197482 0.63653493
0.018853547 0.012254864 0.63653493
0.018853547 0.011312157 0.63653493
0.018853547 0.01036948 0.63653493
0.018853547 0.0094268024 0.63653493
0.018853547 0.0084841251 0.63653493
0.018853547 0.0075414479 0.63653493
0.018853547 0.0065987706 0.63653493
0.018853547 0.0056560934 0.63653493
0.018853547 0.0047134161 0.63653493
0.018853547 0.0037707388 0.63653493
0.018853547 0.0028280616 0.63653493
0.018853547 0.0018853843 0.63653493
0.018853547 0.00094267726 0.63653493
0.018853547 2.9802322e-08 0.63653493
0.018853547 -0.00094267726 0.63653493
0.018853547 -0.0018853247 0.63653493
0.018853547 -0.0028280616 0.63653493
0.018853547 -0.0037706792 0.63653493
0.018853547 -0.0047133565 0.63653493
0.018853547 -0.0056560338 0.63653493
0.018853547 -0.006598711 0.63653493
0.018853547 -0.0075413883 0.63653493
0.018853547 -0.0084840655 0.63653493
0.018853547 -0.0094267428 0.63653493
0.018853547 -0.01036942 0.63653493
0.018853547 -0.011312127 0.63653493
0.018853547 -0.012254775 0.63653493
0.018853547 -0.013197452 0.63653493
0.018853547 -0.014140129 0.63653493
0.018853547 -0.015082836 0.63653493
0.018853547 -0.016025484 0.63653493
0.018853547 -0.016968191 0.63653493
0.018853547 -0.017910838 0.63653493
0.018853547 -0.018853575 0.63653493
0.018853547 -0.019796193 0.63653493
0.018853547 -0.0207389 0.63653493
0.018853547 -0.021681577 0.63653493
0.018853547 -0.022624224 0.63653493
0.018853547 -0.023566902 0.63653493
0.018853547 -0.024509579 0.63653493
0.018853547 -0.025452256 0.63653493
0.018853547 -0.026394933 0.63653493
0.018853547 -0.027337641 0.63653493
0.018853547 -0.028280288 0.63653493
0.018853547 -0.029222995 0.63653493
0.018853547 -0.030165672 0.63653493
0.018853547 -0.03110832 0.63653487
0.018853547 -0.032050997 0.63653493
0.018853547 -0.032993704 0.63653493
0.018853547 -0.033936352 0.63653493
0.019037567 -0.035219491 0.6376456
0.019513654 -0.037075907 0.64051902
0.020014161 -0.039027601 0.64353985
0.02054102 -0.041082025 0.64671969
0.021096367 -0.043247491 0.6500715
0.021682579 -0.045533419 0.65360963
0.0223023 -0.04794994 0.65735
0.022958487 -0.050508648 0.66131043
0.023654386 -0.053222358 0.66551054
0.024393868 -0.056105852 0.66997373
0.025181077 -0.059175491 0.67472494
0.026020786 -0.062449872 0.679793
0.026918434 -0.065950125 0.68521082
0.019709723 0.03284958 0.63603771
0.019709723 0.031910986 0.63603771
0.019709723 0.030972451 0.63603771
0.019709723 0.030033886 0.63603777
0.019709723 0.029095322 0.63603771
0.019709723 0.028156787 0.63603771
0.019709723 0.027218223 0.63603771
0.019709723 0.026279658 0.63603771
0.019709723 0.025341123 0.63603771
0.019709723 0.024402529 0.63603771
0.019709723 0.023463994 0.63603771
0.019709723 0.02252543 0.63603771
0.019709723 0.021586865 0.63603771
0.019709675 0.020648241 0.63603747
0.019709675 0.019709677 0.63603741
0.019709675 0.018771142 0.63603741
0.019709675 0.017832577 0.63603747
0.019709675 0.016894013 0.63603741
0.019709675 0.015955478 0.63603741
0.019709675 0.015016913 0.63603747
0.019709675 0.014078379 0.63603741
0.019709675 0.013139814 0.63603741
0.019709675 0.01220125 0.63603747
0.019709675 0.011262715 0.63603741
0.019709675 0.01032418 0.63603741
0.019709675 0.0093855858 0.63603747
0.019709675 0.008447051 0.63603741
0.019709675 0.0075085163 0.63603741
0.019709675 0.006569922 0.63603741
0.019709675 0.0056313872 0.63603741
0.019709675 0.0046928227 0.63603747
0.019709675 0.0037542582 0.63603741
0.019709675 0.0028157234 0.63603741
0.019709675 0.0018771291 0.63603747
0.019709675 0.00093856454 0.63603741
0.019709675 2.9802322e-08 0.63603741
0.019709675 -0.00093856454 0.63603747
0.019709675 -0.0018770993 0.63603747
0.019709675 -0.0028156638 0.63603741
0.019709675 -0.0037542284 0.63603747
0.019709675 -0.0046927631 0.63603747
0.019709675 -0.0056313574 0.63603747
0.019709675 -0.0065698922 0.63603747
0.019709675 -0.0075084269 0.63603747
0.019709675 -0.0084469914 0.63603741
0.019709675 -0.009385556 0.63603747
0.019709675 -0.010324091 0.63603741
0.019709675 -0.011262655 0.63603747
0.019709675 -0.01220122 0.63603747
0.019709675 -0.013139755 0.63603741
0.019709675 -0.014078319 0.63603747
0.019709675 -0.015016884 0.63603747
0.019709675 -0.015955418 0.63603741
0.019709675 -0.016893983 0.63603747
0.019709675 -0.017832547 0.63603747
0.019709675 -0.018771082 0.63603741
0.019709675 -0.019709647 0.63603747
0.019709675 -0.020648211 0.63603741
0.019709675 -0.021586746 0.63603741
0.019709675 -0.022525311 0.63603747
0.019709675 -0.023463875 0.63603741
0.019709675 -0.02440244 0.63603741
0.019709675 -0.025341004 0.63603747
0.019709675 -0.026279539 0.63603741
0.019709675 -0.027218074 0.63603741
0.019709675 -0.028156668 0.63603741
0.019709675 -0.029095203 0.63603741
0.019709675 -0.030033737 0.63603741
0.019709675 -0.030972332 0.63603741
0.019709675 -0.031910866 0.63603741
0.019787017 -0.032978326 0.636482
0.020276709 -0.034760028 0.63929677
0.020791253 -0.03663218 0.64225447
0.021332595 -0.038601816 0.64536619
0.02190288 -0.040676743 0.64864427
0.02250449 -0.042865694 0.65210241
0.023140086 -0.045178264 0.65575588
0.023812555 -0.047625095 0.6596213
0.024525352 -0.050218552 0.66371858
0.025282141 -0.052972049 0.66806865
0.026087124 -0.055900931 0.67269582
0.026945051 -0.059022486 0.67762733
0.027861329 -0.062356323 0.68289423
0.028842116 -0.065924853 0.68853188
0.029894475 -0.069753766 0.69458091
0.020558398 0.032706559 0.63554454
0.020558398 0.031772077 0.63554454
0.020558398 0.030837625 0.63554454
0.020558398 0.029903144 0.63554454
0.020558398 0.028968692 0.63554454
0.020558398 0.02803418 0.63554454
0.020558398 0.027099729 0.63554454
0.020558398 0.026165247 0.63554454
0.020558398 0.025230765 0.63554454
0.020558398 0.024296343 0.63554454
0.020558398 0.023361832 0.63554454
0.020558398 0.02242735 0.63554454
0.020558398 0.021492898 0.63554454
0.020558348 0.020558357 0.63554424
0.020558348 0.019623905 0.63554424
0.020558348 0.018689424 0.6355443
0.020558348 0.017754972 0.63554424
0.020558348 0.01682052 0.63554424
0.020558348 0.015886009 0.6355443
0.020558348 0.014951527 0.63554424
0.020558348 0.014017105 0.63554424
0.020558348 0.013082594 0.6355443
0.020558348 0.012148142 0.63554424
0.020558348 0.01121369 0.63554424
0.020558348 0.010279179 0.6355443
0.020558348 0.009344697 0.63554424
0.020558348 0.008410275 0.63554424
0.020558348 0.0074757934 0.63554424
0.020558348 0.0065413117 0.63554424
0.020558348 0.0056068599 0.6355443
0.020558348 0.0046723485 0.6355443
0.020558348 0.0037378967 0.6355443
0.020558348 0.0028034151 0.63554424
0.020558348 0.001868993 0.63554424
0.020558348 0.00093448162 0.6355443
0.020558348 2.9802322e-08 0.63554424
0.020558348 -0.00093445182 0.63554424
0.020558348 -0.0018689334 0.6355443
0.020558348 -0.0028034151 0.63554424
0.020558348 -0.0037378371 0.63554424
0.020558348 -0.0046723187 0.63554424
0.020558348 -0.0056068003 0.6355443
0.020558348 -0.0065412819 0.63554424
0.020558348 -0.0074757636 0.6355443
0.020558348 -0.0084102154 0.6355443
0.020558348 -0.009344697 0.63554424
0.020558348 -0.010279119 0.63554424
0.020558348 -0.01121363 0.6355443
0.020558348 -0.012148112 0.63554424
0.020558348 -0.013082564 0.63554424
0.020558348 -0.014017045 0.6355443
0.020558348 -0.014951497 0.63554424
0.020558348 -0.015885949 0.63554424
0.020558348 -0.016820431 0.6355443
0.020558348 -0.017754942 0.63554424
0.020558348 -0.018689364 0.6355443
0.020558348 -0.019623876 0.6355443
0.020558348 -0.020558327 0.63554424
0.020558348 -0.021492779 0.6355443
0.020558348 -0.022427261 0.6355443
0.020558348 -0.023361772 0.6355443
0.020558348 -0.024296194 0.6355443
0.020558348 -0.025230676 0.63554424
0.020558348 -0.026165158 0.6355443
0.020558348 -0.027099609 0.63554424
0.020558348 -0.028034061 0.63554424
0.020558348 -0.028968573 0.6355443
0.020558348 -0.029903054 0.63554424
0.020558348 -0.030837476 0.63554424
0.021024091 -0.032491773 0.63809973
0.021551985 -0.034287214 0.64099616
0.02210707 -0.036175162 0.64404184
0.022691507 -0.038162977 0.64724857
0.023307683 -0.040258706 0.6506294
0.023958256 -0.042471439 0.65419906
0.024646193 -0.044811249 0.65797365
0.025374804 -0.047289371 0.66197139
0.026147721 -0.049918354 0.66621232
0.026969295 -0.052712709 0.67072022
0.02784417 -0.055688322 0.67552048
0.028777711 -0.058863461 0.68064266
0.029776022 -0.062258959 0.68612027
0.030846084 -0.065898418 0.69199145
0.031995922 -0.069809258 0.69830048
0.033234809 -0.074022979 0.70509803
0.02139972 0.03163439 0.63505566
0.02139972 0.030703962 0.63505566
0.02139972 0.029773533 0.6350556
0.02139972 0.028843105 0.63505566
0.02139972 0.027912706 0.6350556
0.02139972 0.026982278 0.63505566
0.02139972 0.026051879 0.6350556
0.02139972 0.025121421 0.63505566
0.02139972 0.024191022 0.63505566
0.02139972 0.023260593 0.6350556
0.02139972 0.022330135 0.63505566
0.02139972 0.021399736 0.63505566
0.021399666 0.020469278 0.63505536
0.021399666 0.019538879 0.63505536
0.021399666 0.018608391 0.63505536
0.021399666 0.017678022 0.63505536
0.021399666 0.016747594 0.63505536
0.021399666 0.015817136 0.63505536
0.021399666 0.014886737 0.63505536
0.021399666 0.013956338 0.63505536
0.021399666 0.01302591 0.6350553
0.021399666 0.012095481 0.63505536
0.021399666 0.011165053 0.63505536
0.021399666 0.010234654 0.63505536
0.021399666 0.0093042254 0.63505536
0.021399666 0.0083738267 0.63505536
0.021399666 0.0074433982 0.63505536
0.021399666 0.0065129399 0.63505536
0.021399666 0.005582571 0.63505536
0.021399666 0.0046521127 0.63505536
0.021399666 0.003721714 0.6350553
0.021399666 0.0027912855 0.63505536
0.021399666 0.0018608272 0.63505536
0.021399666 0.00093045831 0.63505536
0.021399666 2.9802322e-08 0.63505542
0.021399666 -0.0009303987 0.63505536
0.021399666 -0.0018608272 0.63505536
0.021399666 -0.0027912259 0.63505542
0.021399666 -0.0037216544 0.63505536
0.021399666 -0.0046520829 0.63505536
0.021399666 -0.0055824816 0.6350553
0.021399666 -0.0065129399 0.63505536
0.021399666 -0.0074433386 0.63505536
0.021399666 -0.0083737671 0.63505536
0.021399666 -0.0093041956 0.63505542
0.021399666 -0.010234594 0.63505536
0.021399666 -0.011165023 0.63505536
0.021399666 -0.012095451 0.63505536
0.021399666 -0.01302585 0.63505536
0.021399666 -0.013956279 0.63505536
0.021399666 -0.014886707 0.63505536
0.021399666 -0.015817136 0.63505536
0.021399666 -0.016747504 0.63505536
0.021399666 -0.017677993 0.63505536
0.021399666 -0.018608421 0.63505542
0.021399666 -0.01953879 0.63505536
0.021399666 -0.020469248 0.63505536
0.021399666 -0.021399647 0.63505536
0.021399666 -0.022330046 0.63505536
0.021399666 -0.023260444 0.63505536
0.021399666 -0.024190903 0.63505536
0.021399666 -0.025121331 0.63505542
0.021399666 -0.0260517 0.63505536
0.021399666 -0.026982158 0.63505536
0.021399666 -0.027912587 0.6350553
0.021399666 -0.028842986 0.63505536
0.021756275 -0.030269563 0.63692695
0.022296863 -0.031991124 0.63976407
0.022864997 -0.033800393 0.64274585
0.023462843 -0.035704315 0.6458835
0.024092792 -0.037710428 0.64918965
0.024757501 -0.039827228 0.65267825
0.025459928 -0.04206419 0.6563648
0.026203299 -0.044431657 0.66026628
0.02699147 -0.046941668 0.66440278
0.027828526 -0.049607337 0.66879588
0.028719159 -0.052443683 0.6734702
0.029668683 -0.055467516 0.67845356
0.030683147 -0.058698177 0.68377775
0.03176944 -0.062157601 0.68947899
0.03293547 -0.065870941 0.6955986
0.03419036 -0.069867224 0.70218462
0.03554466 -0.074180156 0.70929241
0.037010677 -0.078848839 0.71698648
0.022233775 0.031497866 0.63457096
0.022233775 0.030571461 0.63457096
0.022233775 0.029645085 0.63457096
0.022233775 0.02871865 0.63457096
0.022233775 0.027792245 0.63457096
0.022233775 0.02686584 0.63457096
0.022233775 0.025939435 0.63457096
0.022233775 0.025013 0.63457096
0.022233775 0.024086624 0.63457096
0.022233775 0.023160189 0.63457096
0.022233775 0.022233814 0.63457096
0.022233775 0.021307379 0.63457096
0.022233723 0.020380944 0.63457072
0.022233723 0.019454509 0.63457072
0.022233723 0.018528134 0.63457066
0.022233723 0.017601728 0.63457066
0.022233723 0.016675323 0.63457072
0.022233723 0.015748888 0.63457072
0.022233723 0.014822483 0.63457066
0.022233723 0.013896078 0.63457072
0.022233723 0.012969702 0.63457072
0.022233723 0.012043267 0.63457072
0.022233723 0.011116922 0.63457066
0.022233723 0.010190457 0.63457072
0.022233723 0.0092640817 0.63457072
0.022233723 0.0083376467 0.63457066
0.022233723 0.0074112713 0.63457072
0.022233723 0.0064848661 0.63457066
0.022233723 0.005558461 0.63457072
0.022233723 0.0046320558 0.63457072
0.022233723 0.0037056506 0.63457072
0.022233723 0.0027792156 0.63457066
0.022233723 0.0018528402 0.63457066
0.022233723 0.00092643499 0.63457072
0.022233723 2.9802322e-08 0.63457072
0.022233723 -0.00092640519 0.63457072
0.022233723 -0.0018527806 0.63457072
0.022233723 -0.0027791858 0.63457072
0.022233723 -0.003705591 0.63457066
0.022233723 -0.0046319664 0.63457072
0.022233723 -0.0055584013 0.63457072
0.022233723 -0.0064848065 0.63457072
0.022233723 -0.0074112117 0.63457066
0.022233723 -0.0083376169 0.63457072
0.022233723 -0.0092640221 0.63457066
0.022233723 -0.010190427 0.63457072
0.022233723 -0.011116832 0.63457072
0.022233723 -0.012043238 0.63457072
0.022233723 -0.012969643 0.63457066
0.022233723 -0.013896048 0.63457066
0.022233723 -0.014822483 0.63457072
0.022233723 -0.015748888 0.63457072
0.022233723 -0.016675264 0.63457072
0.022233723 -0.017601669 0.63457072
0.022233723 -0.018528074 0.63457072
0.022233723 -0.019454479 0.63457066
0.022233723 -0.020380884 0.63457066
0.022233723 -0.021307319 0.63457072
0.022233723 -0.022233665 0.63457072
0.022233723 -0.0231601 0.63457072
0.022233723 -0.024086475 0.63457066
0.022233723 -0.02501291 0.63457066
0.022233723 -0.025939345 0.63457072
0.022233723 -0.026865751 0.63457072
0.022473723 -0.028092116 0.63577777
0.023026379 -0.02974239 0.63855743
0.0236069 -0.031475842 0.64147723
0.024217449 -0.033298969 0.64454806
0.024860419 -0.035218924 0.64778197
0.025538389 -0.037243485 0.65119189
0.026254451 -0.039381653 0.65479338
0.027011827 -0.041643232 0.65860271
0.027814196 -0.04403913 0.66263831
0.028665693 -0.046581745 0.66692102
0.029570973 -0.049284905 0.67147422
0.030535292 -0.052164435 0.67632437
0.031564627 -0.055238098 0.68150151
0.032665778 -0.058526158 0.68703985
0.033846539 -0.062051982 0.69297862
0.03511586 -0.065842211 0.69936287
0.036484092 -0.069927812 0.70624447
0.037963275 -0.074344724 0.7136842
0.039567463 -0.079134911 0.7217527
0.023060666 0.030440122 0.63409042
0.023060666 0.02951768 0.63409042
0.023060666 0.028595269 0.63409042
0.023060666 0.027672827 0.63409042
0.023060666 0.026750416 0.63409042
0.023060666 0.025827944 0.63409048
0.023060666 0.024905533 0.63409042
0.023060666 0.023983121 0.63409042
0.023060666 0.023060679 0.63409042
0.023060666 0.022138268 0.63409048
0.023060666 0.021215796 0.63409042
0.023060609 0.020293355 0.63409019
0.023060609 0.019370914 0.63409019
0.023060609 0.018448532 0.63409019
0.023060609 0.01752609 0.63409019
0.023060609 0.016603649 0.63409019
0.023060609 0.015681207 0.63409019
0.023060609 0.014758825 0.63409019
0.023060609 0.013836414 0.63409019
0.023060609 0.012913942 0.63409019
0.023060609 0.01199156 0.63409019
0.023060609 0.011069119 0.63409019
0.023060609 0.010146707 0.63409019
0.023060609 0.0092242956 0.63409019
0.023060609 0.0083018541 0.63409013
0.023060609 0.0073794127 0.63409013
0.023060609 0.0064569414 0.63409019
0.023060609 0.0055345893 0.63409019
0.023060609 0.0046121478 0.63409019
0.023060609 0.0036897063 0.63409019
0.023060609 0.0027672946 0.63409019
0.023060609 0.0018448532 0.63409019
0.023060609 0.00092244148 0.63409019
0.023060609 2.9802322e-08 0.63409019
0.023060609 -0.00092238188 0.63409019
0.023060609 -0.0018448234 0.63409019
0.023060609 -0.0027672648 0.63409019
0.023060609 -0.0036896467 0.63409019
0.023060609 -0.0046120882 0.63409019
0.023060609 -0.0055345595 0.63409019
0.023060609 -0.0064569712 0.63409019
0.023060609 -0.0073793828 0.63409019
0.023060609 -0.0083018243 0.63409019
0.023060609 -0.0092242062 0.63409019
0.023060609 -0.010146648 0.63409019
0.023060609 -0.011069089 0.63409019
0.023060609 -0.011991531 0.63409019
0.023060609 -0.012913942 0.63409019
0.023060609 -0.013836324 0.63409019
0.023060609 -0.014758766 0.63409019
0.023060609 -0.015681177 0.63409019
0.023060609 -0.016603619 0.63409019
0.023060609 -0.01752606 0.63409019
0.023060609 -0.018448442 0.63409019
0.023060609 -0.019370884 0.63409019
0.023060609 -0.020293295 0.63409019
0.023060609 -0.021215707 0.63409019
0.023060609 -0.022138178 0.63409019
0.023060609 -0.02306059 0.63409019
0.023060609 -0.023983032 0.63409019
0.023060609 -0.024905443 0.63409019
0.023176873 -0.025958061 0.63465154
0.023741001 -0.027539551 0.63737541
0.024333278 -0.029199928 0.64023519
0.024955863 -0.030945271 0.64324129
0.025611144 -0.032782257 0.64640528
0.026301762 -0.034718305 0.6497398
0.027030583 -0.036761582 0.65325892
0.027801029 -0.038921416 0.65697896
0.028616682 -0.041207969 0.66091728
0.029481642 -0.043632805 0.66509366
0.030400518 -0.046208769 0.66953039
0.031378519 -0.048950464 0.67425263
0.032421533 -0.051874459 0.67928869
0.033536274 -0.054999441 0.68467116
0.034730397 -0.058347046 0.69043684
0.036012702 -0.061941832 0.69662845
0.037393324 -0.06581223 0.70329463
0.038884025 -0.069991231 0.71049237
0.040498517 -0.07451722 0.71828783
0.042252883 -0.079435378 0.72675872
0.02388048 0.030309856 0.63361406
0.02388048 0.029391378 0.63361406
0.02388048 0.0284729 0.63361406
0.02388048 0.027554423 0.63361406
0.02388048 0.026635945 0.63361406
0.02388048 0.025717497 0.633614
0.02388048 0.024798989 0.63361406
0.02388048 0.023880482 0.63361406
0.02388048 0.022962034 0.63361406
0.02388048 0.022043556 0.63361406
0.02388048 0.021125048 0.63361406
0.023880422 0.020206511 0.63361382
0.023880422 0.019288063 0.63361382
0.023880422 0.018369585 0.63361382
0.023880422 0.017451108 0.63361377
0.023880422 0.0165326 0.63361382
0.023880422 0.015614152 0.63361377
0.023880422 0.014695674 0.63361377
0.023880422 0.013777196 0.63361377
0.023880422 0.012858748 0.63361377
0.023880422 0.011940211 0.63361382
0.023880422 0.011021733 0.63361377
0.023880422 0.010103285 0.63361377
0.023880422 0.0091848075 0.63361382
0.023880422 0.0082663298 0.63361382
0.023880422 0.007347852 0.63361377
0.023880422 0.0064293742 0.63361377
0.023880422 0.0055108964 0.63361382
0.023880422 0.0045924187 0.63361382
0.023880422 0.0036739111 0.63361377
0.023880422 0.0027554631 0.63361377
0.023880422 0.0018369555 0.63361382
0.023880422 0.00091847777 0.63361382
0.023880422 -0 0.63361377
0.023880422 -0.00091844797 0.63361377
0.023880422 -0.0018369257 0.63361382
0.023880422 -0.0027554035 0.63361382
0.023880422 -0.0036738813 0.63361377
0.023880422 -0.0045923293 0.63361377
0.023880422 -0.0055108666 0.63361382
0.023880422 -0.0064293444 0.63361377
0.023880422 -0.0073477924 0.63361382
0.023880422 -0.0082663 0.63361382
0.023880422 -0.0091847777 0.63361382
0.023880422 -0.010103256 0.63361377
0.023880422 -0.011021703 0.63361377
0.023880422 -0.011940151 0.63361377
0.023880422 -0.012858659 0.63361382
0.023880422 -0.013777137 0.63361382
0.023880422 -0.014695615 0.63361377
0.023880422 -0.015614122 0.63361382
0.023880422 -0.0165326 0.63361382
0.023880422 -0.017451048 0.63361377
0.023880422 -0.018369555 0.63361377
0.023880422 -0.019288003 0.63361377
0.023880422 -0.020206511 0.63361382
