# .PCD v0.7 - Point Cloud Data file format
VERSION 0.7
FIELDS x y z
SIZE 4 4 4
TYPE F F F
COUNT 1 1 1
WIDTH 1319
HEIGHT 1
VIEWPOINT 0 0 0 1 0 0 0
POINTS 1319
DATA ascii
-0.051239625 0.052662998 0.69455397
-0.051066708 0.051066726 0.6939742
-0.050894767 0.049481064 0.69339764
-0.050724164 0.04790619 0.69282562
-0.050554514 0.046341628 0.69225675
-0.050386183 0.044787735 0.69169235
-0.050218783 0.043243945 0.691131
-0.050052673 0.041710556 0.69057405
-0.049887482 0.04018718 0.69002014
-0.049723554 0.038673878 0.68947053
-0.049560521 0.03717041 0.68892384
-0.049398731 0.035676897 0.68838131
-0.049237821 0.034192979 0.68784177
-0.049078129 0.032718778 0.68730634
-0.048919294 0.031253994 0.68677378
-0.048761658 0.029798836 0.68624514
-0.048604861 0.028352857 0.68571943
-0.048449241 0.026916295 0.68519759
-0.048294447 0.025488734 0.68467855
-0.048140805 0.024070412 0.68416345
-0.047988143 0.02266109 0.68365157
-0.047836274 0.021260589 0.6831423
-0.047685526 0.01986897 0.68263686
-0.047535565 0.018486083 0.68213397
-0.047386706 0.017111897 0.6816349
-0.047238614 0.015746266 0.68113828
-0.047091611 0.014389127 0.68064535
-0.046945356 0.013040394 0.68015498
-0.046800163 0.011700094 0.67966813
-0.046655711 0.01036796 0.67918378
-0.046512306 0.009044081 0.67870295
-0.04636962 0.0077283084 0.6782245
-0.046227962 0.0064205825 0.67774951
-0.046087015 0.0051208138 0.67727691
-0.045947079 0.0038289428 0.6768077
-0.045807835 0.0025449097 0.67634076
-0.045669585 0.0012685955 0.67587721
-0.045532018 -0 0.67541593
-0.045395426 -0.0012609661 0.67495793
-0.045259502 -0.0025143921 0.67450219
-0.045124538 -0.0037603378 0.67404962
-0.044990227 -0.0049988925 0.67359924
-0.044856861 -0.0062300861 0.67315209
-0.044724137 -0.0074540079 0.67270708
-0.04459234 -0.0086707473 0.67226517
-0.044461176 -0.0098802745 0.67182541
-0.044330928 -0.011082709 0.67138857
-0.044201292 -0.01227811 0.67095393
-0.044072557 -0.013466567 0.67052227
-0.043944426 -0.01464811 0.67009264
-0.043817181 -0.015822858 0.66966599
-0.043690529 -0.016990751 0.66924131
-0.043564748 -0.018151969 0.66881955
-0.043439548 -0.019306421 0.66839975
-0.043315209 -0.020454377 0.66798282
-0.04319144 -0.021595716 0.66756779
-0.04306851 -0.022730589 0.66715562
-0.042946145 -0.023858964 0.66674531
-0.042824604 -0.024981022 0.66633779
-0.042703621 -0.026096642 0.66593218
-0.042583447 -0.027206063 0.66552913
-0.042463817 -0.028309196 0.66512805
-0.042344991 -0.02940622 0.6647296
-0.042226698 -0.030497044 0.66433299
-0.042109191 -0.031581849 0.66393894
-0.041992206 -0.032660604 0.66354668
-0.041875999 -0.033733398 0.66315711
-0.041760311 -0.034800231 0.66276914
-0.041645382 -0.035861254 0.66238379
-0.041530956 -0.036916405 0.66200012
-0.04141729 -0.037965834 0.66161895
-0.041304108 -0.039009392 0.66123945
-0.041191678 -0.040047437 0.66086251
-0.04107973 -0.04107973 0.66048712
-0.040968515 -0.042106509 0.66011417
-0.040857773 -0.043127656 0.65974289
-0.040747751 -0.044143379 0.659374
-0.040638201 -0.045153558 0.65900666
-0.040529359 -0.046158433 0.65864164
-0.040420979 -0.047157764 0.65827823
-0.040313296 -0.04815197 0.65791714
-0.040206067 -0.049140722 0.65755761
-0.051821265 0.074030399 0.70146888
-0.051639173 0.072294861 0.70084083
-0.051458552 0.07057178 0.7002179
-0.051278993 0.068860382 0.69959861
-0.05110088 0.067161173 0.69898432
-0.050923806 0.065473497 0.69837368
-0.050748143 0.063797683 0.69776785
-0.050573498 0.062133163 0.69716549
-0.050400242 0.060480326 0.69656795
-0.050227981 0.058838516 0.69597381
-0.050057083 0.057208121 0.69538438
-0.049887154 0.055588573 0.69479835
-0.049718563 0.053980201 0.69421691
-0.049550924 0.05238241 0.69363868
-0.04938459 0.050795585 0.69306505
-0.049219191 0.049219191 0.69249463
-0.049055073 0.047653526 0.69192863
-0.048891872 0.046098083 0.69136572
-0.048729926 0.044553071 0.69080722
-0.048568875 0.043018132 0.69025177
-0.04840906 0.041493475 0.6897006
-0.04825012 0.039978683 0.68915242
-0.048092395 0.038473934 0.68860847
-0.047935519 0.036978841 0.68806738
-0.047779843 0.035493612 0.68753052
-0.047625169 0.03401801 0.686997
-0.047471326 0.032551795 0.68646646
-0.047318641 0.031095117 0.68593985
-0.047166768 0.029647708 0.6854161
-0.047016036 0.028209656 0.68489617
-0.046866097 0.026780635 0.6843791
-0.046717275 0.025360823 0.68386585
-0.046569232 0.023949921 0.68335521
-0.046422284 0.02254799 0.68284845
-0.046276104 0.021154821 0.68234426
-0.046131 0.019770443 0.68184376
-0.045986645 0.018394679 0.68134594
-0.045843348 0.017027587 0.68085176
-0.045700785 0.015668869 0.68036008
-0.045559257 0.014318645 0.67987204
-0.045418452 0.012976736 0.67938632
-0.045278668 0.011643112 0.67890429
-0.045139592 0.010317653 0.6784246
-0.045001514 0.0090003014 0.67794836
-0.044864129 0.0076910257 0.6774745
-0.044727731 0.0063897073 0.6770041
-0.044592015 0.0050962865 0.67653608
-0.044457261 0.0038106441 0.67607129
-0.044323176 0.0025327504 0.67560887
-0.044190042 0.0012626052 0.67514968
-0.044057559 -0 0.67469281
-0.043926015 -0.0012549758 0.6742391
-0.043795109 -0.0025025606 0.67378765
-0.043665126 -0.0037427545 0.67333937
-0.043535769 -0.0049754977 0.67289323
-0.043407317 -0.0062010288 0.67245018
-0.043279484 -0.007419318 0.67200923
-0.043152537 -0.0086304843 0.67157149
-0.04302619 -0.0098344982 0.67113572
-0.042900726 -0.011031598 0.67070299
-0.042775851 -0.012221664 0.67027235
-0.04265184 -0.013404876 0.66984463
-0.042528406 -0.014581174 0.66941893
-0.042405825 -0.015750706 0.66899616
-0.042283811 -0.016913503 0.66857529
-0.042162631 -0.018069685 0.66815746
-0.042042006 -0.01921919 0.66774142
-0.041922208 -0.020362198 0.66732824
-0.041802958 -0.021498621 0.66691691
-0.041684512 -0.022628695 0.66650844
-0.04156661 -0.023752362 0.66610181
-0.041449498 -0.02486968 0.66569793
-0.041332919 -0.025980651 0.66529584
-0.041217119 -0.027085483 0.66489649
-0.041101839 -0.028184116 0.66449887
-0.040987328 -0.029276639 0.66410393
-0.04087333 -0.030363023 0.66371077
-0.040760089 -0.031443477 0.66332018
-0.040647347 -0.03251788 0.66293144
-0.040535353 -0.033586413 0.66254514
-0.040423851 -0.034648985 0.66216058
-0.040313084 -0.035705835 0.66177857
-0.0402028 -0.036756843 0.66139823
-0.040093239 -0.03780216 0.66102034
-0.039984155 -0.038841724 0.66064411
-0.039875779 -0.039875746 0.66027033
-0.039767869 -0.040904105 0.65989816
-0.039660666 -0.04192698 0.65952843
-0.039553918 -0.042944252 0.65916032
-0.039447859 -0.043956161 0.65879452
-0.039342251 -0.044962555 0.65843028
-0.039237324 -0.045963705 0.65806836
-0.039132837 -0.04695937 0.65770805
-0.039029025 -0.04794994 0.65735
-0.038925648 -0.048935086 0.65699339
-0.050061747 0.07362023 0.70047867
-0.049886808 0.071895719 0.69985759
-0.04971328 0.070183456 0.69924152
-0.049540762 0.068482876 0.6986289
-0.049369626 0.066794217 0.69802135
-0.049199477 0.065117002 0.69741732
-0.049030691 0.063451499 0.69681805
-0.048862867 0.061797172 0.69622225
-0.048696376 0.060154378 0.69563109
-0.048531014 0.058522701 0.69504404
-0.048366588 0.056901932 0.69446027
-0.048203453 0.055292219 0.69388109
-0.048041239 0.053693146 0.69330513
-0.047880292 0.052105039 0.69273376
-0.047720239 0.050527334 0.69216549
-0.047561426 0.048960328 0.69160169
-0.047403499 0.047403544 0.69104099
-0.047246784 0.045857221 0.69048464
-0.047090936 0.044320911 0.68993133
-0.046936277 0.042794883 0.68938226
-0.046782468 0.04127869 0.68883616
-0.046629827 0.039772511 0.68829429
-0.046478018 0.038276017 0.68775523
-0.046327353 0.036789387 0.68722039
-0.046177499 0.035312235 0.6866883
-0.046028774 0.033844709 0.68616033
-0.045880843 0.032386482 0.68563515
-0.045734022 0.030937731 0.68511385
-0.045587976 0.02949813 0.68459535
-0.045443021 0.028067797 0.68408066
-0.045298826 0.026646376 0.68356872
-0.045155697 0.025234103 0.68306065
-0.045013316 0.023830593 0.68255508
-0.044871986 0.022435993 0.68205339
-0.044731386 0.021050096 0.68155414
-0.044591814 0.0196729 0.6810587
-0.044452962 0.018304169 0.68056566
-0.044315122 0.016944051 0.6800763
-0.044177987 0.015592247 0.67958945
-0.044041846 0.014248848 0.67910612
-0.043906391 0.012913674 0.67862517
-0.043771915 0.011586696 0.67814773
-0.043638114 0.010267824 0.67767274
-0.043505274 0.0089569986 0.67720109
-0.043373097 0.0076541007 0.67673182
-0.043241862 0.0063591003 0.6762659
-0.043111276 0.0050719678 0.67580235
-0.042981617 0.0037924945 0.67534196
-0.042852595 0.0025207698 0.6748839
-0.04272449 0.0012566149 0.67442906
-0.042597149 5.9604645e-08 0.67397696
-0.042470418 -0.0012491047 0.673527
-0.042344444 -0.0024908185 0.67307979
-0.042219356 -0.0037252307 0.67263567
-0.042094864 -0.0049523115 0.67219365
-0.041971244 -0.00617221 0.67175478
-0.041848209 -0.0073849559 0.67131793
-0.041726027 -0.0085906386 0.67088419
-0.041604422 -0.0097892582 0.67045248
-0.041483656 -0.010980934 0.67002374
-0.041363459 -0.012165725 0.66959703
-0.04124409 -0.013343662 0.66917318
-0.041125275 -0.014514804 0.66875136
-0.041007273 -0.015679181 0.6683324
-0.040889814 -0.016836971 0.6679154
-0.040773157 -0.017988145 0.66750127
-0.04065704 -0.019132733 0.66708899
-0.040541705 -0.020270824 0.6666795
-0.040426899 -0.021402448 0.66627187
-0.040312864 -0.022527754 0.66586703
-0.040199347 -0.023646653 0.66546398
-0.04008659 -0.024759322 0.66506368
-0.039974343 -0.025865763 0.66466522
-0.039862845 -0.026966035 0.66426933
-0.039751843 -0.028060108 0.66387522
-0.039641581 -0.029148191 0.66348374
-0.039531808 -0.030230194 0.66309404
-0.039422762 -0.031306297 0.66270691
-0.039314192 -0.032376409 0.66232145
-0.039206345 -0.033440709 0.66193855
-0.039098963 -0.034499079 0.66155732
-0.038992289 -0.035551757 0.66117859
-0.038886074 -0.036598623 0.66080147
-0.038780555 -0.037639916 0.66042686
-0.038675494 -0.038675487 0.66005385
-0.038571116 -0.039705545 0.65968323
-0.038467184 -0.04072994 0.65931427
-0.038363922 -0.041748971 0.65894771
-0.038261101 -0.042762399 0.65858263
-0.038158942 -0.043770522 0.65821993
-0.038057219 -0.044773161 0.65785879
-0.037956141 -0.045770645 0.65749991
-0.037855491 -0.046762645 0.65714264
-0.037755486 -0.047749609 0.65678757
-0.037655901 -0.048731118 0.65643394
-0.037556943 -0.049707711 0.65608263
-0.048321623 0.07321462 0.69949931
-0.048153874 0.071501225 0.69888574
-0.047987103 0.069799453 0.69827569
-0.047821667 0.068109661 0.69767058
-0.047657184 0.066431254 0.69706887
-0.047494009 0.064764589 0.69647205
-0.047331773 0.06310907 0.69587857
-0.047170814 0.061465025 0.69528979
-0.047010772 0.059831917 0.69470441
-0.046851989 0.058210075 0.69412357
-0.046694096 0.056598932 0.693546
-0.04653744 0.054998815 0.69297302
-0.04638166 0.053409219 0.69240308
-0.04622709 0.051830381 0.69183779
-0.046073373 0.050261915 0.69127548
-0.045920849 0.048703939 0.69071758
-0.045769159 0.047156125 0.69016272
-0.045618638 0.045618653 0.68961209
-0.045468941 0.044091105 0.6890645
-0.045320384 0.04257372 0.68852109
-0.045172628 0.041066021 0.68798065
-0.045026001 0.039568335 0.68744427
-0.044880159 0.038080186 0.68691081
-0.04473542 0.036601752 0.68638134
-0.044591449 0.035132676 0.68585473
-0.044448562 0.033673167 0.68533206
-0.044306431 0.032222897 0.68481219
-0.044165362 0.030781955 0.68429613
-0.04402503 0.029350042 0.68378282
-0.043885749 0.027927309 0.68327332
-0.043747187 0.026513487 0.6827665
-0.043609653 0.025108635 0.68226337
-0.043472826 0.023712486 0.68176293
-0.043337006 0.022325158 0.68126607
-0.043201882 0.020946383 0.68077189
-0.04306775 0.019576281 0.68028116
-0.042934302 0.018214583 0.67979306
-0.04280182 0.016861349 0.67930847
-0.042670008 0.015516371 0.67882633
-0.042539153 0.014179736 0.67834765
-0.042409096 0.012851298 0.67787188
-0.042279691 0.011530817 0.67739856
-0.042151213 0.010218471 0.67692864
-0.042023372 0.0089140832 0.67646098
-0.041896444 0.007617563 0.67599666
-0.041770142 0.0063288808 0.67553467
-0.041644741 0.0050478876 0.67507595
-0.041519947 0.0037745535 0.67461956
-0.04139604 0.0025088787 0.67416626
-0.041272733 0.0012507439 0.67371517
-0.041150294 2.9802322e-08 0.67326736
-0.041028447 -0.0012432635 0.67282164
-0.04090745 -0.0024792254 0.67237902
-0.040787034 -0.0037078857 0.67193854
-0.040667452 -0.0049293339 0.67150116
-0.040548444 -0.0061436892 0.67106581
-0.040430255 -0.0073509216 0.67063349
-0.040312629 -0.0085511208 0.67020321
-0.040195808 -0.0097444355 0.6697759
-0.040079542 -0.010930747 0.66935062
-0.039964069 -0.012110293 0.66892827
-0.039849132 -0.013283014 0.66850781
-0.039734982 -0.01444903 0.66809022
-0.039621361 -0.01560837 0.66767466
-0.03950851 -0.016761154 0.66726184
-0.039396178 -0.017907321 0.66685092
-0.039284606 -0.019047052 0.66644287
-0.039173536 -0.020180255 0.66603655
-0.039063219 -0.021307141 0.66563302
-0.038953401 -0.022427708 0.66523135
-0.038844317 -0.023541987 0.66483223
-0.038735725 -0.024649978 0.66443503
-0.038627855 -0.025751859 0.66404045
-0.038520467 -0.026847541 0.66364765
-0.038413793 -0.027937263 0.66325748
-0.038307585 -0.029020876 0.66286904
-0.038202088 -0.030098617 0.6624831
-0.03809705 -0.031170309 0.66209888
-0.037992705 -0.032236189 0.66171718
-0.037888814 -0.033296198 0.6613372
-0.037785601 -0.034350514 0.66095966
-0.037682842 -0.03539902 0.66058373
-0.037580751 -0.036441952 0.66021031
-0.037479095 -0.037479073 0.65983844
-0.037377991 -0.03851065 0.65946865
-0.037277542 -0.039536804 0.65910125
-0.037177522 -0.040557235 0.65873533
-0.037078142 -0.041572452 0.65837181
-0.036979187 -0.042582095 0.65800989
-0.036880869 -0.043586463 0.65765023
-0.036782965 -0.044585407 0.65729207
-0.036685679 -0.045579165 0.65693629
-0.036588803 -0.046567529 0.65658188
-0.036492549 -0.047550887 0.65622979
-0.03639669 -0.04852888 0.65587914
-0.036301438 -0.049501926 0.65553069
-0.046600565 0.072813421 0.69853079
-0.046439677 0.071110785 0.69792384
-0.046279717 0.069419622 0.69732046
-0.046121031 0.067740262 0.69672185
-0.045963258 0.066072196 0.6961267
-0.045806732 0.064415723 0.69553626
-0.045651093 0.062770277 0.69494915
-0.045496684 0.061136186 0.69436669
-0.045343146 0.059512913 0.69378752
-0.045190804 0.057900727 0.69321281
-0.045039319 0.05629918 0.69264138
-0.04488901 0.054708511 0.69207442
-0.044739537 0.053128272 0.69151056
-0.044591222 0.051558614 0.69095111
-0.044443723 0.049999207 0.6903947
-0.04429736 0.048450261 0.68984258
-0.044151794 0.046911299 0.6892935
-0.044007346 0.045382619 0.6887486
-0.043863676 0.043863714 0.68820667
-0.043721098 0.042354822 0.6876688
-0.043579292 0.040855616 0.68713391
-0.043438558 0.039366215 0.68660301
-0.043298576 0.037886292 0.68607497
-0.043159641 0.036415964 0.68555093
-0.043021448 0.034954965 0.68502957
-0.042884286 0.033503354 0.6845122
-0.042747844 0.032060891 0.68399751
-0.042612419 0.030627698 0.68348664
-0.042477705 0.029203445 0.68297851
-0.042343982 0.027788281 0.68247402
-0.042211097 0.026381999 0.68197274
-0.042078905 0.02498436 0.68147415
-0.041947674 0.023595572 0.68097913
-0.041817125 0.022215396 0.68048662
-0.041687518 0.020843774 0.67999774
-0.041558579 0.019480616 0.67951137
-0.041430574 0.018125862 0.67902851
-0.04130321 0.016779453 0.67854804
-0.04117677 0.015441328 0.67807108
-0.041050963 0.01411131 0.67759645
-0.040926065 0.012789398 0.67712539
-0.040801778 0.011475533 0.67665654
-0.040678389 0.010169625 0.67619109
-0.040555604 0.0088715851 0.67572784
-0.040433694 0.0075813234 0.67526805
-0.04031238 0.00629884 0.67481041
-0.040191922 0.0050240159 0.67435604
-0.040072054 0.0037567914 0.67390382
-0.039953027 0.002497077 0.67345488
-0.039834578 0.0012448728 0.67300808
-0.039716955 -0 0.67256433
-0.039599899 -0.001237452 0.67212272
-0.039483659 -0.0024676919 0.67168432
-0.03936797 -0.0036907196 0.6712479
-0.039253086 -0.0049066246 0.67081451
-0.039138742 -0.0061154366 0.67038321
-0.039025187 -0.0073171854 0.6699549
-0.03891217 -0.0085120499 0.66952854
-0.038799919 -0.0096999407 0.66910511
-0.038688201 -0.010881007 0.66868365
-0.038577244 -0.012055337 0.6682651
-0.0384668 -0.013222933 0.66784847
-0.038357105 -0.014383882 0.66743469
-0.038247913 -0.015538186 0.66702282
-0.038139462 -0.016685992 0.6666137
-0.038031507 -0.017827272 0.66620648
-0.037924279 -0.018962115 0.665802
-0.037817538 -0.02009055 0.66539931
-0.037711509 -0.021212697 0.66499937
-0.03760596 -0.022328526 0.66460127
-0.037501115 -0.023438215 0.66420573
-0.037396736 -0.024541587 0.66381204
-0.037293054 -0.025638938 0.66342086
-0.03718983 -0.02673015 0.66303146
-0.037087288 -0.027815431 0.66264468
-0.0369852 -0.028894663 0.66225958
-0.036883783 -0.029968023 0.66187704
-0.036782809 -0.031035453 0.6614961
-0.036682494 -0.032097161 0.66111773
-0.036582619 -0.033152997 0.66074097
-0.036483396 -0.034203142 0.66036665
-0.036384597 -0.035247564 0.65999401
-0.036286443 -0.036286414 0.65962374
-0.03618871 -0.03731963 0.65925509
-0.036091607 -0.038347334 0.65888882
-0.035994921 -0.039369404 0.65852404
-0.035898853 -0.04038617 0.65816164
-0.035803195 -0.041397423 0.65780079
-0.035708148 -0.04240343 0.65744227
-0.035613496 -0.043403924 0.65708524
-0.035519455 -0.044399291 0.65673047
-0.035425801 -0.045389295 0.65637726
-0.035332747 -0.046374202 0.65602618
-0.035240076 -0.047353834 0.65567666
-0.035147991 -0.048328459 0.65532929
-0.035056286 -0.049297899 0.65498334
-0.044898272 0.072416574 0.69757277
-0.0447441 0.070724607 0.69697243
-0.044590812 0.069043875 0.69637549
-0.044438742 0.067374915 0.69578338
-0.04428754 0.065717012 0.69519466
-0.04413753 0.064070612 0.69461054
-0.043988362 0.06243515 0.69402969
-0.043840371 0.060810864 0.69345337
-0.043693203 0.059197277 0.69288033
-0.043547183 0.057594717 0.69231176
-0.043401979 0.056002557 0.69174635
-0.043257896 0.054421246 0.69118536
-0.04311461 0.052850157 0.69062734
-0.042972423 0.051289678 0.69007373
-0.042831019 0.049739271 0.6895231
-0.042690698 0.048199177 0.68897671
-0.042551134 0.046669006 0.68843329
-0.042412639 0.045148969 0.68789399
-0.042274889 0.043638617 0.6873576
-0.042138182 0.042138219 0.68682528
-0.04200235 0.040647447 0.6862964
-0.041867249 0.039166152 0.68577027
-0.041733161 0.037694514 0.68524814
-0.041599777 0.036232054 0.6847288
-0.041467398 0.034779131 0.68421334
-0.041335706 0.033335239 0.68370056
-0.041204996 0.031900674 0.68319154
-0.041074969 0.030474991 0.6826852
-0.040945895 0.029058397 0.68218261
-0.040817495 0.027650595 0.68168265
-0.040690035 0.026251644 0.68118632
-0.040563233 0.024861366 0.68069255
-0.040437352 0.02347976 0.68020242
-0.040312111 0.022106677 0.67971474
-0.040187787 0.020742089 0.67923063
-0.040064085 0.019385904 0.67874897
-0.039941281 0.018038034 0.67827076
-0.039819095 0.01669836 0.67779499
-0.039697785 0.015366912 0.67732263
-0.039577082 0.01404348 0.67685264
-0.039457239 0.012728125 0.676386
-0.039337989 0.011420757 0.67592162
-0.039219588 0.010121197 0.67546058
-0.039101768 0.0088294744 0.6750018
-0.038984783 0.0075454712 0.67454624
-0.038868371 0.0062690973 0.67409301
-0.038752776 0.0050004125 0.67364287
-0.038637739 0.0037391782 0.67319489
-0.03852351 0.0024853945 0.67275012
-0.038409829 0.0012390614 0.67230743
-0.038296942 -0 0.67186791
-0.038184598 -0.00123173 0.67143047
-0.038073026 -0.0024563372 0.67099595
-0.037961982 -0.0036737323 0.67056358
-0.037851714 -0.0048840642 0.67013419
-0.037741955 -0.0060873926 0.66970682
-0.037632953 -0.007283777 0.66928244
-0.037524462 -0.0084732175 0.66885996
-0.037416715 -0.0096559227 0.6684404
-0.037309464 -0.010831773 0.66802275
-0.037202939 -0.012000948 0.66760796
-0.03709691 -0.013163418 0.66719508
-0.0369916 -0.014319301 0.666785
-0.036886767 -0.015468627 0.66637683
-0.036782645 -0.016611516 0.6659714
-0.036678992 -0.017747879 0.66556776
-0.036576036 -0.018877923 0.66516685
-0.036473542 -0.02000156 0.66476774
-0.036371734 -0.021119028 0.66437137
-0.036270384 -0.022230238 0.66397673
-0.036169704 -0.023335308 0.66358471
-0.036069475 -0.024434149 0.66319442
-0.035969906 -0.025527 0.66280663
-0.035870779 -0.026613772 0.66242069
-0.035772305 -0.027694643 0.66203725
-0.035674263 -0.028769553 0.66165549
-0.035576861 -0.029838651 0.66127622
-0.035479885 -0.03090179 0.66089857
-0.035383545 -0.031959325 0.66052347
-0.035287615 -0.03301096 0.66014993
-0.035192311 -0.034057021 0.65977883
-0.035097416 -0.03509739 0.65940928
-0.035003137 -0.036132216 0.65904212
-0.03490926 -0.03716144 0.65867662
-0.034815986 -0.038185269 0.65831339
-0.034723107 -0.039203465 0.65795177
-0.034630824 -0.040216416 0.65759242
-0.034538928 -0.041223884 0.65723455
-0.034447625 -0.042226106 0.65687907
-0.034356698 -0.043222904 0.65652502
-0.034266349 -0.044214636 0.65617323
-0.034176379 -0.045201004 0.65582287
-0.034086976 -0.046182334 0.65547472
-0.033997942 -0.04715842 0.65512806
-0.03390947 -0.048129529 0.65478355
-0.033821356 -0.049095511 0.6544404
-0.043214425 0.072024047 0.69662511
-0.043066837 0.070342541 0.69603121
-0.04292009 0.06867218 0.69544089
-0.042774506 0.067013413 0.69485503
-0.042629745 0.065365642 0.69427252
-0.04248612 0.063729197 0.69369471
-0.0423433 0.06210354 0.69311994
-0.042201594 0.060488969 0.69254982
-0.042060673 0.058884948 0.69198275
-0.041920852 0.057291836 0.6914202
-0.041781951 0.055709302 0.69086128
-0.041643817 0.054136992 0.69030547
-0.041506745 0.052575231 0.68975395
-0.041370425 0.051023573 0.68920541
-0.041235145 0.049482226 0.6886611
-0.041100595 0.047950715 0.68811977
-0.040967073 0.046429366 0.68758249
-0.040834267 0.044917732 0.68704808
-0.040702466 0.043415993 0.68651778
-0.040571369 0.041923761 0.68599033
-0.040441252 0.040441275 0.68546677
-0.040311828 0.038968116 0.68494594
-0.040183373 0.037504494 0.68442911
-0.040055595 0.036050081 0.68391502
-0.03992876 0.034604937 0.68340468
-0.039802592 0.033168852 0.68289691
-0.039677355 0.031741887 0.68239307
-0.039552767 0.030323774 0.6818918
-0.039429095 0.02891466 0.68139416
-0.039306059 0.027514249 0.68089908
-0.039183922 0.02612263 0.68040764
-0.039062407 0.024739563 0.67991865
-0.038941778 0.02336511 0.67943335
-0.038821761 0.021999031 0.67895043
-0.038702611 0.020641416 0.67847097
-0.038584061 0.019292086 0.67799401
-0.038466364 0.017950982 0.67752039
-0.038349252 0.016618043 0.67704922
-0.038232978 0.015293241 0.67658132
-0.038117286 0.013976336 0.67611587
-0.038002413 0.012667477 0.67565364
-0.037888106 0.011366457 0.67519367
-0.037774611 0.010073215 0.67473704
-0.037661668 0.0087877512 0.67428255
-0.037549522 0.007509917 0.67383128
-0.03743792 0.0062396526 0.67338228
-0.037327103 0.004976958 0.67293632
-0.03721682 0.0037216842 0.67249262
-0.037107304 0.0024738908 0.67205191
-0.036998309 0.0012332797 0.6716134
-0.036890075 2.9802322e-08 0.67117786
-0.03678235 -0.0012260675 0.67074448
-0.036675375 -0.0024450123 0.67031401
-0.036568899 -0.0036568642 0.66988558
-0.036463156 -0.0048617125 0.66946012
-0.036357909 -0.0060596168 0.66903663
-0.036253385 -0.0072506666 0.66861606
-0.036149342 -0.0084348321 0.66819739
-0.036046013 -0.0096122622 0.66778165
-0.035943154 -0.010782927 0.66736782
-0.035840996 -0.011946976 0.66695672
-0.035739303 -0.013104379 0.66654754
-0.035638303 -0.014255285 0.66614115
-0.035537753 -0.015399665 0.66573656
-0.035437886 -0.016537637 0.66533476
-0.035338465 -0.017669201 0.66493469
-0.035239711 -0.018794507 0.66453737
-0.035141397 -0.019913465 0.66414177
-0.035043743 -0.021026224 0.66374886
-0.034946516 -0.022132754 0.66335762
-0.034849938 -0.023233265 0.66296905
-0.034753785 -0.024327636 0.66258216
-0.034658264 -0.025416046 0.66219783
-0.034563165 -0.026498437 0.66181517
-0.034468692 -0.027574927 0.66143501
-0.034374628 -0.028645486 0.66105652
-0.034281179 -0.029710323 0.66068053
-0.034188136 -0.030769289 0.66030616
-0.034095697 -0.031822622 0.65993422
-0.034003656 -0.032870173 0.65956384
-0.033912212 -0.033912182 0.6591959
-0.033821158 -0.034948528 0.65882957
-0.033730689 -0.03597939 0.6584655
-0.033640608 -0.03700462 0.65810299
-0.033551104 -0.038024545 0.65774292
-0.033461973 -0.039038956 0.65738428
-0.033373415 -0.040048063 0.65702796
-0.033285227 -0.041051745 0.65667313
-0.0331976 -0.042050272 0.65632057
-0.033110335 -0.043043405 0.65596944
-0.033023629 -0.044031501 0.65562057
-0.032937277 -0.045014292 0.65527308
-0.032851469 -0.045992017 0.65492779
-0.032766018 -0.046964616 0.65458399
-0.032681096 -0.047932237 0.65424228
-0.032596525 -0.048894793 0.65390205
-0.041548893 0.071636051 0.69568837
-0.0414076 0.069964588 0.69510025
-0.041267421 0.068304718 0.69451678
-0.041128032 0.066655815 0.69393659
-0.040989734 0.065018237 0.69336092
-0.040852211 0.063391358 0.69278848
-0.040715761 0.061775684 0.69222051
-0.040580068 0.060170442 0.6916557
-0.040445428 0.058576167 0.69109529
-0.040311527 0.056992173 0.69053793
-0.040178657 0.055418849 0.68998486
-0.040046513 0.053855687 0.68943483
-0.039915383 0.052302957 0.68888897
-0.039784964 0.05076015 0.68834615
-0.039655536 0.049227566 0.68780738
-0.039526813 0.047704786 0.6872716
-0.039399058 0.04619199 0.6867398
-0.039271984 0.044688851 0.68621087
-0.039145868 0.043195486 0.68568593
-0.039020419 0.041711479 0.68516374
-0.038895916 0.040237188 0.68464553
-0.038772058 0.038772076 0.68412995
-0.038649131 0.037316412 0.68361831
-0.038526844 0.035869837 0.68310928
-0.038405459 0.034432501 0.68260401
-0.038284704 0.033004075 0.68210143
-0.038164843 0.03158471 0.68160242
-0.038045593 0.030174077 0.68110615
-0.037927222 0.028772414 0.6806134
-0.037809454 0.027379304 0.68012315
-0.037692539 0.025994897 0.67963654
-0.037576221 0.024618953 0.67915237
-0.037460748 0.023251534 0.67867172
-0.037345849 0.021892399 0.67819345
-0.037231788 0.020541698 0.6777187
-0.03711829 0.019199163 0.67724621
-0.037005603 0.017864764 0.67677724
-0.036893483 0.016538501 0.67631048
-0.03678216 0.015220195 0.67584711
-0.036671504 0.013909936 0.67538655
-0.036561396 0.012607425 0.67492819
-0.036452062 0.011312723 0.67447317
-0.036343262 0.010025769 0.67402029
-0.036235232 0.008746475 0.67357051
-0.03612772 0.0074747205 0.67312306
-0.036020964 0.006210506 0.67267871
-0.035914719 0.0049538016 0.67223644
-0.035809211 0.0037044287 0.67179728
-0.03570421 0.0024623871 0.67136025
-0.035599943 0.0012276173 0.67092621
-0.03549616 -0 0.67049426
-0.035393097 -0.0012204349 0.67006528
-0.035290517 -0.0024338067 0.66963828
-0.035188645 -0.0036401749 0.66921425
-0.035087246 -0.0048395991 0.66879213
-0.034986541 -0.0060321391 0.66837305
-0.034886304 -0.0072178245 0.66795576
-0.034786746 -0.0083967745 0.66754138
-0.034687646 -0.0095689893 0.66712886
-0.03458922 -0.010734588 0.6667192
-0.034491241 -0.011893541 0.66631138
-0.034393925 -0.013045937 0.66590625
-0.034297049 -0.014191836 0.66550303
-0.034200821 -0.015331358 0.66510248
-0.034105029 -0.016464502 0.66470373
-0.034009874 -0.017591268 0.66430765
-0.033915147 -0.018711746 0.66391337
-0.03382105 -0.019826114 0.66352171
-0.03372737 -0.020934194 0.66313177
-0.033634204 -0.022036195 0.66274399
-0.033541657 -0.023132145 0.66235876
-0.033449516 -0.024222046 0.6619752
-0.033357982 -0.025306016 0.66159415
-0.033266842 -0.026384026 0.66121489
-0.033176303 -0.027456224 0.66083795
-0.033086155 -0.028522491 0.66046274
-0.032996595 -0.029583156 0.66008997
-0.032907419 -0.03063792 0.65971875
-0.032818824 -0.031687111 0.65934998
-0.032730605 -0.032730579 0.65898281
-0.032642957 -0.033768564 0.65861797
-0.032555681 -0.034800857 0.65825462
-0.032468967 -0.035827816 0.65789372
-0.032382615 -0.036849141 0.6575343
-0.032296818 -0.037865192 0.65717715
-0.032211382 -0.038875788 0.65682161
-0.032126486 -0.03988114 0.65646821
-0.032041948 -0.040881097 0.65611631
-0.031957943 -0.041875929 0.65576661
-0.031874288 -0.042865366 0.6554184
-0.031791158 -0.043849856 0.65507239
-0.031708371 -0.044829041 0.65472782
-0.031626105 -0.045803308 0.65438533
-0.031544175 -0.046772361 0.65404439
-0.031462759 -0.047736585 0.65370548
-0.03138167 -0.048695654 0.653368
-0.031301089 -0.049649984 0.65303254
-0.039901063 0.071251959 0.69476098
-0.039766099 0.069590718 0.69417918
-0.03963219 0.06794095 0.69360185
-0.039499041 0.066301942 0.69302785
-0.03936692 0.064674258 0.69245827
-0.03923554 0.063057154 0.69189191
-0.039105177 0.061451048 0.6913299
-0.038975537 0.059855342 0.69077098
-0.038846891 0.058270365 0.69021636
-0.038718954 0.05669564 0.68966484
-0.038591996 0.055131465 0.68911749
-0.038465727 0.053577274 0.68857312
-0.03834042 0.052033454 0.68803293
-0.03821579 0.050499439 0.68749565
-0.038092107 0.048975587 0.68696243
-0.037969083 0.04746142 0.68643206
-0.03784699 0.045957029 0.68590569
-0.037725538 0.044462264 0.68538213
-0.037605003 0.042977184 0.68486249
-0.0374851 0.041501403 0.6843456
-0.037366092 0.040035129 0.68383253
-0.037247706 0.038578004 0.68332213
-0.037130199 0.037130207 0.68281555
-0.0370133 0.03569144 0.68231159
-0.036897264 0.034261793 0.68181133
-0.036781829 0.032840937 0.68131369
-0.036667239 0.031429052 0.68081969
-0.03655323 0.03002587 0.68032819
-0.03644006 0.028631479 0.67984027
-0.036327455 0.027245611 0.67935485
-0.036215674 0.025868386 0.67887294
-0.036104579 0.024499565 0.67839402
-0.035994042 0.02313906 0.67791748
-0.035884302 0.021786928 0.67744434
-0.035775103 0.020442933 0.67697358
-0.035666689 0.019107133 0.67650622
-0.035558809 0.01777941 0.67604113
-0.035451703 0.016459733 0.67557943
-0.035345118 0.015147924 0.67511994
-0.035239294 0.013844043 0.67466366
-0.035133984 0.01254788 0.67420959
-0.035029415 0.011259466 0.67375886
-0.034925349 0.0099786818 0.67331022
-0.034822021 0.0087055266 0.67286474
-0.034719184 0.007439822 0.6724214
-0.034617066 0.0061816573 0.67198122
-0.034515437 0.004930824 0.67154306
-0.034414511 0.0036873221 0.67110795
-0.034314062 0.0024510324 0.67067492
-0.03421431 0.0012219548 0.67024487
-0.034115028 2.9802322e-08 0.66981685
-0.03401643 -0.0012148619 0.66939181
-0.033918291 -0.0024227202 0.66896868
-0.033820823 -0.0036236346 0.66854852
-0.033723809 -0.0048176646 0.66813028
-0.033627454 -0.0060048997 0.66771489
-0.033531543 -0.0071853399 0.66730142
-0.033436283 -0.0083590448 0.66689068
-0.033341456 -0.0095261037 0.66648191
-0.033247273 -0.010686606 0.66607589
-0.033153515 -0.011840492 0.66567171
-0.033060387 -0.012987971 0.66527015
-0.032967679 -0.014128953 0.6648705
-0.032875594 -0.015263647 0.66447353
-0.032783914 -0.016391933 0.6640783
-0.03269285 -0.01751402 0.66368568
-0.032602191 -0.018629789 0.66329491
-0.032512128 -0.019739449 0.66290653
-0.032422464 -0.020842969 0.66252005
-0.032333396 -0.021940529 0.66213608
-0.032244712 -0.02303189 0.66175377
-0.032156613 -0.02411741 0.66137397
-0.032068901 -0.02519694 0.66099578
-0.031981759 -0.026270688 0.66062009
-0.031894993 -0.027338564 0.66024607
-0.031808794 -0.028400719 0.65987444
-0.031722963 -0.029457033 0.65950441
-0.031637687 -0.030507743 0.65913677
-0.031552777 -0.031552762 0.65877074
-0.031468414 -0.032592237 0.65840703
-0.031384408 -0.033626109 0.65804493
-0.03130094 -0.034654617 0.65768504
-0.031217827 -0.035677522 0.65732676
-0.031135242 -0.036695063 0.65697074
-0.031053003 -0.03770718 0.65661621
-0.030971289 -0.038714081 0.65626383
-0.030889912 -0.039715588 0.65591305
-0.030809052 -0.040711939 0.65556443
-0.030728525 -0.041702986 0.65521729
-0.030648507 -0.042688996 0.65487236
-0.030568814 -0.04366973 0.6545288
-0.030489624 -0.044645488 0.65418738
-0.030410757 -0.04561609 0.6538474
-0.030332383 -0.046581835 0.6535095
-0.030254325 -0.047542512 0.65317297
-0.030176755 -0.048498333 0.65283859
-0.030099494 -0.049449146 0.65250552
-0.038270809 0.07087189 0.69384354
-0.038142048 0.069220781 0.69326782
-0.038014289 0.067580968 0.69269669
-0.037887245 0.065951884 0.69212866
-0.037761185 0.064333886 0.69156516
-0.037635826 0.062726408 0.69100463
-0.037511431 0.061129749 0.69044852
-0.037387721 0.059543431 0.68989545
-0.037264962 0.057967752 0.68934661
-0.037142865 0.056402147 0.68880075
-0.037021704 0.054847002 0.68825907
-0.036901195 0.053301752 0.6877203
-0.036781605 0.051766694 0.68718565
-0.036662653 0.050241411 0.68665385
-0.036544599 0.048726141 0.68612605
-0.036427174 0.047220439 0.68560106
-0.036310628 0.045724511 0.68507999
-0.036194697 0.044237971 0.68456173
-0.03607963 0.042761117 0.68404728
-0.035965297 0.041293532 0.68353611
-0.035851561 0.039835095 0.68302763
-0.035738662 0.038385987 0.68252289
-0.035626352 0.03694582 0.68202078
-0.035514865 0.035514891 0.68152237
-0.035403952 0.034092724 0.68102646
-0.035293855 0.032679558 0.68053424
-0.035184316 0.031274974 0.68004453
-0.035075575 0.029879183 0.6795584
-0.034967389 0.028492004 0.6790747
-0.034859981 0.027113318 0.67859453
-0.034753121 0.025743097 0.67811674
-0.034647021 0.02438128 0.67764241
-0.034541458 0.023027688 0.67717052
-0.034436651 0.021682322 0.6767019
-0.034332357 0.020345122 0.67623562
-0.034228813 0.019016027 0.67577273
-0.034125779 0.017694861 0.6753121
-0.034023475 0.016381681 0.6748547
-0.03392167 0.015076309 0.67439955
-0.033820581 0.013778776 0.67394763
-0.033719987 0.012488931 0.67349786
-0.033620097 0.011206746 0.6730513
-0.033520687 0.009932071 0.67260683
-0.033421971 0.0086649656 0.67216551
-0.033323728 0.0074052811 0.67172629
-0.03322617 0.0061530173 0.67129016
-0.033129074 0.0049080253 0.67085606
-0.033032648 0.0036703348 0.670425
-0.032936677 0.0024397671 0.6699959
-0.03284137 0.001216352 0.66956979
-0.032746505 -0 0.66914564
-0.032652292 -0.0012093186 0.66872448
-0.032558516 -0.0024117231 0.66830522
-0.03246538 -0.0036072433 0.66788882
-0.032372672 -0.0047959089 0.66747433
-0.032280594 -0.0059778392 0.66706264
-0.032188937 -0.007153064 0.66665286
-0.032097898 -0.0083216727 0.66624594
-0.032007277 -0.0094836354 0.66584074
-0.031917263 -0.010639071 0.66543835
-0.031827655 -0.011787981 0.66503769
-0.03173865 -0.012930512 0.66463971
-0.03165004 -0.014066666 0.66424364
-0.031562019 -0.015196502 0.66385013
-0.031474393 -0.01632002 0.66345835
-0.031387348 -0.017437398 0.66306919
-0.031300686 -0.018548548 0.66268176
-0.031214597 -0.019653618 0.66229689
-0.031128887 -0.020752579 0.66191369
-0.03104374 -0.021845609 0.661533
-0.030958964 -0.022932559 0.66115403
-0.030874742 -0.024013668 0.66077745
-0.030790884 -0.025088876 0.66040254
-0.030707572 -0.026158273 0.66003007
-0.030624621 -0.027221859 0.65965921
-0.030542206 -0.028279781 0.65929079
-0.030460142 -0.029331982 0.65892392
-0.03037861 -0.03037858 0.65855938
-0.030297421 -0.031419545 0.65819639
-0.030216757 -0.032454997 0.65783572
-0.030136431 -0.033484906 0.6574766
-0.030056618 -0.03450945 0.65711981
-0.029977141 -0.035528421 0.65676445
-0.029898169 -0.036542177 0.65641141
-0.029819528 -0.037550509 0.6560598
-0.029741382 -0.038553596 0.65571046
-0.029663561 -0.039551377 0.65536255
-0.029586231 -0.040544063 0.65501678
-0.029509218 -0.041531473 0.6546725
-0.02943269 -0.042513847 0.65433043
-0.029356474 -0.043491066 0.65398967
-0.029280733 -0.044463307 0.653651
-0.029205302 -0.045430452 0.65331376
-0.02913034 -0.046392739 0.65297866
-0.029055679 -0.047349989 0.65264481
-0.028981483 -0.048302442 0.65231311
-0.02890758 -0.049249947 0.65198272
-0.036657851 0.070495903 0.69293576
-0.03653517 0.068854749 0.69236624
-0.036413439 0.067224801 0.69180107
-0.036292385 0.065605462 0.69123906
-0.036172263 0.06399712 0.69068134
-0.036052808 0.062399089 0.69012678
-0.035934262 0.060811847 0.68957633
-0.035816494 0.059235007 0.68902963
-0.035699371 0.057668239 0.6884858
-0.035583142 0.056111902 0.6879462
-0.035467532 0.054565459 0.68740946
-0.035352804 0.053029209 0.68687683
-0.035238687 0.051502705 0.68634701
-0.035125431 0.049986213 0.68582118
-0.035012774 0.048479229 0.68529814
-0.034900963 0.04698208 0.68477905
-0.034789741 0.045494318 0.68426263
-0.034679342 0.044016123 0.68375015
-0.034569528 0.042547137 0.68324029
-0.034460522 0.041087568 0.68273419
-0.034352083 0.039637059 0.68223077
-0.034244444 0.038195759 0.68173105
-0.034137364 0.03676334 0.68123388
-0.034031063 0.035339981 0.68074036
-0.033925306 0.033925354 0.68024933
-0.033820324 0.032519549 0.67976195
-0.03371587 0.031122386 0.67927694
-0.033612177 0.029733837 0.67879558
-0.033509005 0.02835381 0.67831653
-0.033406574 0.026982278 0.67784101
-0.033304662 0.02561897 0.67736787
-0.033203475 0.024264097 0.67689812
-0.033102792 0.02291733 0.6764307
-0.033002827 0.021578819 0.6759665
-0.032903358 0.020248264 0.6755048
-0.032804593 0.018925726 0.67504615
-0.032706313 0.017611146 0.67458993
-0.032608725 0.016304374 0.67413688
-0.032511611 0.01500538 0.67368603
-0.032415181 0.013714135 0.67323828
-0.032319218 0.012430489 0.67279273
-0.032223925 0.011154473 0.67235029
-0.032129087 0.0098858774 0.67190999
-0.032034907 0.0086248219 0.67147279
-0.031941175 0.0073710978 0.67103755
-0.031848095 0.0061246455 0.67060548
-0.031755455 0.0048854947 0.67017531
-0.031663451 0.0036534667 0.66974819
-0.03157188 0.0024286211 0.66932309
-0.031480938 0.0012108684 0.66890079
-0.031390414 2.9802322e-08 0.66848058
-0.031300511 -0.0012038648 0.66806316
-0.031211022 -0.0024008155 0.66764772
-0.031122144 -0.003591001 0.66723508
-0.031033671 -0.0047743917 0.66682434
-0.030945798 -0.0059510767 0.66641635
-0.030858325 -0.0071211159 0.6660102
-0.030771438 -0.0082845986 0.66560686
-0.030684946 -0.0094414949 0.66520524
-0.030599032 -0.010591954 0.66480643
-0.030513505 -0.011735916 0.66440934
-0.030428547 -0.01287356 0.66401488
-0.03034397 -0.014004856 0.6636222
-0.030259954 -0.015129954 0.66323215
-0.03017631 -0.016248763 0.66284382
-0.030093215 -0.017361462 0.66245806
-0.03001049 -0.018467963 0.66207397
-0.029928306 -0.019568473 0.66169244
-0.029846484 -0.020662963 0.66131258
-0.029765194 -0.021751463 0.66093516
-0.029684259 -0.022834033 0.66055936
-0.029603852 -0.023910791 0.66018605
-0.02952379 -0.024981648 0.65981436
-0.029444247 -0.026046842 0.65944505
-0.029365046 -0.027106196 0.65907735
-0.029286355 -0.028159916 0.65871203
-0.029207999 -0.029207945 0.6583482
-0.029130148 -0.03025052 0.65798682
-0.029052623 -0.031287432 0.65762687
-0.028975597 -0.03231892 0.65726924
-0.028898893 -0.033344835 0.65691316
-0.028822677 -0.034365475 0.65655923
-0.02874678 -0.035380632 0.65620691
-0.028671363 -0.036390573 0.65585679
-0.028596258 -0.03739509 0.6555081
-0.028521631 -0.038394481 0.65516162
-0.028447308 -0.039388567 0.65481657
-0.028373454 -0.040377617 0.65447366
-0.0282999 -0.041361392 0.65413219
-0.028226808 -0.042340189 0.65379286
-0.028154012 -0.043313801 0.65345484
-0.02808167 -0.044282615 0.65311897
-0.02800962 -0.045246273 0.65278447
-0.027938016 -0.046205133 0.65245205
-0.027866701 -0.047159016 0.65212095
-0.027795827 -0.04810816 0.65179193
-0.027725233 -0.049052298 0.6514641
-0.035061918 0.070123851 0.6920377
-0.034945324 0.068492889 0.69147468
-0.034829374 0.066872418 0.69091481
-0.034714315 0.065262973 0.69035923
-0.034599893 0.06366384 0.68980676
-0.034486342 0.062075406 0.68925852
-0.034373414 0.060497224 0.68871319
-0.034261346 0.058929533 0.6881721
-0.034149881 0.057371795 0.68763393
-0.034039263 0.055824399 0.68709981
-0.033929236 0.054286808 0.68656856
-0.033820041 0.05275926 0.6860413
-0.033711426 0.051241398 0.68551683
-0.033603624 0.049733371 0.68499637
-0.033496395 0.04823482 0.68447858
-0.033389963 0.046745986 0.68396467
-0.033284087 0.04526639 0.6834535
-0.033178996 0.043796301 0.68294609
-0.033074453 0.042335331 0.68244123
-0.032970682 0.04088366 0.68194026
-0.032867447 0.03944093 0.68144178
-0.032764968 0.038007379 0.68094701
-0.032663014 0.036582619 0.68045467
-0.032561805 0.03516677 0.67996597
-0.032461107 0.033759564 0.67947984
-0.032361146 0.03236115 0.67899716
-0.032261685 0.030971259 0.67851692
-0.032162942 0.029589921 0.67804009
-0.032064695 0.028216958 0.67756575
-0.031967152 0.026852459 0.67709476
-0.031870097 0.025496095 0.67662609
-0.031773731 0.024148047 0.67616087
-0.031677846 0.022808075 0.67569792
-0.031582639 0.021476239 0.67523813
-0.031488005 0.02015236 0.6747812
-0.03139383 0.018836349 0.67432654
-0.031300321 0.017528206 0.67387503
-0.031207267 0.016227841 0.67342567
-0.031114863 0.014935195 0.67297953
-0.031022906 0.013650119 0.67253554
-0.030931592 0.012372673 0.67209464
-0.030840712 0.011102676 0.67165577
-0.030750467 0.0098401606 0.67122006
-0.030660646 0.008585006 0.67078638
-0.030571448 0.0073371828 0.67035574
-0.030482668 0.0060965717 0.66992712
-0.0303945 0.004863143 0.66950136
-0.030306747 0.003636837 0.66907758
-0.030219592 0.0024175942 0.66865683
-0.030132843 0.0012053549 0.66823792
-0.030046685 -0 0.66782194
-0.029960923 -0.0011983812 0.66740787
-0.029875746 -0.002390027 0.66699654
-0.029790955 -0.003574878 0.66658717
-0.029706739 -0.004753083 0.66618055
-0.029622905 -0.0059245825 0.66577578
-0.029539634 -0.0070894659 0.66537368
-0.02945674 -0.0082478523 0.66497344
-0.0293744 -0.0093998015 0.66457582
-0.029292427 -0.010545224 0.6641801
-0.029210912 -0.011684328 0.66378647
-0.029129939 -0.012817144 0.66339552
-0.029049324 -0.013943672 0.66300625
-0.028969241 -0.015063971 0.66261959
-0.028889515 -0.016178101 0.66223466
-0.028810309 -0.017286122 0.66185218
-0.028731452 -0.018388122 0.66147149
-0.028653111 -0.019484103 0.66109312
-0.028575111 -0.020574033 0.66071653
-0.02849762 -0.021658152 0.66034234
-0.028420459 -0.022736341 0.65996987
-0.028343806 -0.023808777 0.65959966
-0.028267477 -0.024875343 0.65923113
-0.028191643 -0.025936306 0.65886497
-0.028116129 -0.026991457 0.65850043
-0.028041104 -0.028041095 0.65813816
-0.027966397 -0.02908504 0.65777743
-0.027892167 -0.030123502 0.65741897
-0.027818248 -0.031156391 0.65706211
-0.027744804 -0.032183915 0.65670747
-0.027671663 -0.033205986 0.65635431
-0.027598988 -0.034222722 0.65600342
-0.027526613 -0.035234064 0.65565395
-0.027454697 -0.03624019 0.6553067
-0.027383076 -0.037240982 0.65496093
-0.027311908 -0.038236618 0.65461725
-0.027241027 -0.039227068 0.654275
-0.027170595 -0.040212452 0.65393496
-0.027100448 -0.041192651 0.65359622
-0.027030736 -0.042167932 0.65325963
-0.02696131 -0.043138057 0.65292442
-0.026892312 -0.044103414 0.65259129
-0.026823591 -0.045063615 0.65225947
-0.026755298 -0.046019107 0.65192974
-0.026687276 -0.046969593 0.65160131
-0.026619673 -0.047915399 0.65127486
-0.026552338 -0.048856258 0.65094972
-0.033482745 0.069755733 0.69114888
-0.033371981 0.068134457 0.69059181
-0.033261828 0.066523671 0.69003785
-0.033152521 0.064923733 0.68948805
-0.033043813 0.063334018 0.68894124
-0.032935929 0.061754882 0.6883986
-0.032828633 0.06018582 0.68785894
-0.032722149 0.058627218 0.68732339
-0.032616235 0.057078451 0.6867907
-0.032511123 0.055539876 0.68626201
-0.032406572 0.054010987 0.68573618
-0.032302804 0.052492112 0.68521428
-0.032199588 0.050982684 0.68469512
-0.032097138 0.04948312 0.68417978
-0.031995229 0.047992855 0.6836673
-0.031894073 0.046512216 0.68315852
-0.031793445 0.045040786 0.68265235
-0.031693563 0.043578655 0.68215001
-0.031594198 0.042125642 0.68165022
-0.031495556 0.040681809 0.68115413
-0.031397425 0.039246827 0.68066055
-0.031300008 0.037820876 0.68017066
-0.031203091 0.036403656 0.67968309
-0.031106878 0.034995258 0.67919922
-0.031011147 0.033595413 0.67871773
-0.030916112 0.03220433 0.6782397
-0.030821655 0.030821681 0.67776465
-0.030727673 0.029447377 0.67729199
-0.030634364 0.028081506 0.6768226
-0.030541517 0.026723832 0.67635566
-0.030449333 0.025374472 0.675892
-0.030357601 0.024033129 0.6754306
-0.030266523 0.022699893 0.67497253
-0.030175889 0.021374613 0.67451668
-0.030085895 0.020057261 0.6740641
-0.029996337 0.018747717 0.67361367
-0.029907413 0.017446011 0.67316639
-0.029818913 0.016151935 0.67272127
-0.029731032 0.014865518 0.67227924
-0.029643575 0.01358667 0.67183936
-0.029556721 0.012315303 0.67140257
-0.029470285 0.011051357 0.67096782
-0.029384444 0.0097948313 0.67053604
-0.029299008 0.0085455775 0.67010635
-0.029214161 0.0073035359 0.66967964
-0.029129712 0.0060687065 0.6692549
-0.029045843 0.0048409998 0.66883302
-0.028962363 0.0036203265 0.66841316
-0.028879452 0.0024066567 0.66799611
-0.028796924 0.0011999011 0.66758102
-0.028714955 2.9802322e-08 0.6671688
-0.028633364 -0.0011930168 0.66675836
-0.028552322 -0.002379328 0.66635078
-0.028471652 -0.0035589635 0.66594505
-0.028391523 -0.0047318935 0.66554207
-0.028311757 -0.005898267 0.66514087
-0.028232524 -0.0070581436 0.66474235
-0.028153645 -0.0082114637 0.66434562
-0.028075295 -0.0093584061 0.66395152
-0.027997293 -0.010498971 0.6635592
-0.027919807 -0.011633247 0.6631695
-0.027842667 -0.012761205 0.66278148
-0.027766034 -0.013882965 0.66239601
-0.027689738 -0.014998615 0.66201234
-0.027613943 -0.016108125 0.66163117
-0.02753848 -0.017211497 0.66125154
-0.027463511 -0.018308997 0.66087449
-0.027388867 -0.019400418 0.6604991
-0.027314708 -0.020485997 0.66012609
-0.027240871 -0.021565676 0.65975475
-0.02716751 -0.022639573 0.65938574
-0.027094463 -0.023707628 0.65901834
-0.027021889 -0.024770021 0.65865326
-0.026949624 -0.025826693 0.65828985
-0.026877822 -0.026877791 0.65792871
-0.026806323 -0.027923226 0.65756905
-0.026735282 -0.028963208 0.65721184
-0.026664538 -0.029997587 0.65685594
-0.026594246 -0.031026602 0.65650243
-0.026524246 -0.032050103 0.65615034
-0.026454691 -0.033068359 0.65580046
-0.026385421 -0.034081131 0.65545213
-0.026316592 -0.035088778 0.65510589
-0.026248043 -0.03609103 0.65476114
-0.026179926 -0.037088215 0.65441859
-0.026112089 -0.038080096 0.65407741
-0.026044674 -0.03906697 0.65373826
-0.025977533 -0.040048689 0.65340066
-0.025910813 -0.04102546 0.65306503
-0.02584436 -0.041997045 0.65273076
-0.02577832 -0.042963862 0.65239865
-0.025712544 -0.043925554 0.65206784
-0.025647104 -0.044882387 0.65173864
-0.025582064 -0.045834512 0.65141153
-0.025517285 -0.046781689 0.65108573
-0.025452906 -0.047724187 0.65076196
-0.025388777 -0.048661798 0.65043938
-0.025325041 -0.049594849 0.65011883
-0.031920064 0.069391459 0.69026947
-0.031815019 0.067779839 0.68971813
-0.03171055 0.06617856 0.68916988
-0.031606879 0.064587981 0.68862575
-0.031503771 0.063007593 0.6880846
-0.031401448 0.061437637 0.68754756
-0.031299673 0.059877634 0.68701351
-0.031198665 0.058327943 0.68648332
-0.0310982 0.056788057 0.68595606
-0.030998487 0.055258185 0.68543279
-0.030899305 0.053737968 0.68491226
-0.03080086 0.052227587 0.68439555
-0.030702936 0.050726622 0.68388164
-0.030605739 0.049235344 0.68337154
-0.030509049 0.047753334 0.68286401
-0.030413074 0.046280771 0.68236035
-0.030317701 0.044817507 0.68185979
-0.030222818 0.043363184 0.68136185
-0.030128634 0.041918099 0.68086755
-0.030034928 0.040481925 0.6803757
-0.029941909 0.039054692 0.67988753
-0.029849362 0.037636191 0.67940181
-0.029757485 0.036226511 0.67891961
-0.029666074 0.034825444 0.67843986
-0.02957532 0.03343299 0.67796361
-0.029485021 0.032048941 0.67748964
-0.029395372 0.030673444 0.67701912
-0.029306166 0.029306203 0.67655098
-0.029217599 0.027947307 0.67608613
-0.029129468 0.026596487 0.67562366
-0.029041963 0.025253922 0.67516434
-0.028954888 0.023919284 0.67470735
-0.028868426 0.022592723 0.67425358
-0.028782386 0.021273971 0.67380202
-0.028696952 0.019963086 0.67335367
-0.02861193 0.018659949 0.67290741
-0.028527502 0.017364591 0.67246431
-0.02844348 0.016076773 0.67202336
-0.028360043 0.014796555 0.67158544
-0.028277002 0.013523787 0.67114961
-0.028194536 0.01225853 0.67071676
-0.028112462 0.011000544 0.67028606
-0.028030952 0.0097499192 0.66985828
-0.027949825 0.0085065067 0.66943252
-0.027869254 0.0072702467 0.66900963
-0.02778906 0.0060411096 0.66858876
-0.027709411 0.0048190653 0.66817069
-0.027630132 0.003603965 0.66775465
-0.02755139 0.0023958087 0.66734141
-0.027473014 0.0011945367 0.66693008
-0.027395165 2.9802322e-08 0.66652143
-0.027317671 -0.001187712 0.66611481
-0.027240697 -0.0023687482 0.66571081
-0.027164074 -0.0035431385 0.66530871
-0.027087964 -0.0047109127 0.66490918
-0.027012197 -0.00587219 0.66451156
-0.026936933 -0.0070270002 0.6641165
-0.026862007 -0.0081753433 0.66372329
-0.026787577 -0.0093174279 0.6633327
-0.026713477 -0.010453075 0.66294378
-0.026639869 -0.011582524 0.66255748
-0.026566582 -0.012705743 0.66217285
-0.02649378 -0.013822794 0.66179073
-0.026421294 -0.014933735 0.66141033
-0.026349284 -0.016038626 0.66103238
-0.026277587 -0.017137557 0.66065609
-0.026206357 -0.018230498 0.66028231
-0.026135435 -0.019317478 0.65991008
-0.026064971 -0.020398647 0.6595403
-0.025994811 -0.021473944 0.65917206
-0.025925104 -0.022543579 0.6588062
-0.025855692 -0.023607343 0.6584419
-0.02578673 -0.024665534 0.65807992
-0.025718056 -0.025718033 0.65771955
-0.025649823 -0.026765049 0.65736145
-0.025581876 -0.027806371 0.65700483
-0.025514364 -0.0288423 0.65665054
-0.025447132 -0.029872656 0.65629762
-0.025380328 -0.030897766 0.65594703
