# .PCD v0.7 - Point Cloud Data file format
VERSION 0.7
FIELDS x y z
SIZE 4 4 4
TYPE F F F
COUNT 1 1 1
WIDTH 839
HEIGHT 1
VIEWPOINT 0 0 0 1 0 0 0
POINTS 839
DATA ascii
0.022534888 -0.040652454 0.62942171
0.024980254 -0.037470371 0.63043594
0.01278052 -0.044731826 0.63293982
0.01278052 -0.044731826 0.63293982
0.020431286 -0.034507468 0.63236004
0.021776661 -0.032664955 0.63227189
0.023945045 -0.023945034 0.63391376
0.011127905 -0.041729599 0.63468176
0.012977942 -0.038933814 0.634642
0.0084342202 -0.042171091 0.63586593
0.013536535 -0.035477191 0.63544053
0.013536535 -0.035477191 0.63544053
0.014991992 -0.031857938 0.63584954
0.018726489 -0.026217073 0.63576806
0.020545997 -0.024281621 0.63547647
0.024264198 -0.018664747 0.63539559
0.0037814646 -0.046322942 0.63685948
0.010374176 -0.036781132 0.63658679
0.016530503 -0.026450142 0.63677287
0.021644397 -0.019762278 0.63633978
0.025447249 -0.013194889 0.6365124
0.0076001813 -0.038475364 0.63742161
0.010444503 -0.034181952 0.63735855
0.012311214 -0.032198548 0.63705873
0.028618226 -0.013355166 0.63789457
0.0028787248 -0.042221278 0.63857466
0.0096162977 -0.03077212 0.63882267
0.0096162977 -0.03077212 0.63882267
0.016307967 -0.021104425 0.63854051
0.016345311 -0.020191282 0.63880569
0.019241145 -0.01539287 0.63887429
0.024985781 -0.0067269206 0.63874567
0.024167432 -0.0058001578 0.63943434
0.024167432 -0.0058001578 0.63943434
0.028344065 0.00064431631 0.63938564
0.028344065 0.00064431631 0.63938564
-0.0039103343 -0.045946419 0.6407485
-0.00097138714 -0.043712407 0.64000052
0.013703655 -0.017618984 0.64089924
0.016650164 -0.012732476 0.64097035
-0.003928618 -0.044196904 0.6413002
-0.00098505325 -0.038417071 0.64165014
0.001966683 -0.034416914 0.64144349
0.0068688639 -0.027475476 0.64119303
0.0059232963 -0.02665478 0.64191121
0.01469684 -0.015676618 0.64101475
0.015765581 -0.011824161 0.64168584
0.022553783 -0.0029417574 0.64111251
0.029551519 0.0098505318 0.64164984
-0.0079374611 -0.046632558 0.64251077
0.0019759329 -0.032602876 0.64200187
0.018821312 -0.0049529374 0.64231914
0.024736639 0.0039578974 0.64218277
0.027721889 0.0089106262 0.64225549
-0.0099964682 -0.046983361 0.64341176
0.0020042127 -0.027056843 0.64370865
0.0059937271 -0.021976978 0.64332819
0.015500236 -0.0064992011 0.6434682
0.019509397 1.4901161e-08 0.64351839
0.024912698 0.0069755912 0.64303285
0.024912698 0.0069755912 0.64303285
0.028119504 0.015064031 0.64396954
0.028119504 0.015064031 0.64396954
0.028119504 0.015064031 0.64396954
-0.012057765 -0.048231035 0.64403546
-0.0090489117 -0.043233663 0.64411044
-0.0060363207 -0.038230032 0.64418507
0.0030383472 -0.021268427 0.64499736
0.0040357495 -0.021187663 0.64453322
-0.016323859 -0.048971534 0.64589775
-0.016323859 -0.048971534 0.64589775
-0.011198083 -0.041738302 0.64562809
-0.0040517654 -0.032414109 0.64501655
0.0050741681 -0.017252147 0.64524496
0.0081041344 -0.013169229 0.64502567
0.0091706729 -0.0091706514 0.64574349
0.011150124 -0.0081091821 0.64510179
0.020310907 0.0071088672 0.64533091
0.02950605 0.022383898 0.6455608
-0.013320035 -0.042521 0.64642608
-0.0010234463 -0.023539245 0.64628458
0.0082030464 -0.0082029998 0.64651811
0.012294902 -0.0020491183 0.64642084
0.015378268 0.0030756891 0.64649844
0.018510781 0.0092553794 0.64687979
0.028667744 0.023548514 0.6463331
-0.0010360678 -0.01864922 0.64780819
0.0030904962 -0.014422297 0.64709568
0.005148794 -0.011327326 0.64704657
0.012446662 0.0031117201 0.64794743
0.014515335 0.0062208474 0.64789772
0.015529864 0.0072472692 0.64771843
0.026826754 0.023731381 0.64729279
0.032072119 0.033106774 0.64762908
-0.017669395 -0.043653786 0.64820755
-0.0010412034 -0.01665926 0.64842808
0.0062617385 -0.0041744709 0.64872015
0.013531315 0.0062452257 0.64838791
0.017724544 0.013554096 0.64859909
0.022829764 0.01971662 0.64800715
0.022829764 0.01971662 0.64800715
0.028094517 0.029135078 0.64834774
0.029093165 0.030132204 0.64816713
-0.017846003 -0.039891064 0.64946157
-0.012568804 -0.032469362 0.64917612
-0.0073703369 -0.022110999 0.64984059
-0.0042037992 -0.017866135 0.64960456
0 -0.012569785 0.64918619
0.0041865613 -0.0062798262 0.64908439
0.0073311976 -0.0010472834 0.64916563
0.0083872993 0.0010484457 0.64929831
0.017857473 0.01680705 0.64954293
0.025206517 0.028357357 0.64952272
0.029383861 0.034631044 0.64942032
0.03363847 0.042048126 0.64963502
-0.024356689 -0.046595395 0.65057468
-0.023263609 -0.045469761 0.65038759
-0.022229629 -0.043400675 0.65052247
-0.02119346 -0.041327208 0.65065753
-0.011649759 -0.026476681 0.65058464
-0.0095518082 -0.022287548 0.65085542
0.011597862 0.0084348023 0.65001518
0.011685864 0.011685908 0.65098083
0.013804943 0.014866889 0.65092862
0.013804943 0.014866889 0.65092862
0.021234881 0.026543647 0.65090752
0.030618314 0.039064765 0.65019053
0.035129715 -0.042581469 0.6512447
0.035129715 -0.040452391 0.65124464
-0.021355089 -0.038439125 0.65163302
0.035129618 -0.020226121 0.65124428
0.035129618 -0.019161582 0.65124428
0.035129618 -0.015967995 0.65124434
0.035129618 0.001064539 0.65124434
0.035129618 0.0021290779 0.65124428
0.0064212531 0.006421268 0.65192932
0.0064212531 0.006421268 0.65192932
0.035129618 0.0085162818 0.65124428
0.0095893294 0.0095893741 0.65135866
0.035129618 0.014903486 0.65124428
0.017044881 0.021306127 0.65133739
0.018175624 0.024590552 0.65180206
0.025525553 0.034034073 0.65112734
0.028735025 0.03937766 0.65121126
0.029906848 0.042724103 0.65167499
-0.0096493168 -0.018226445 0.65216315
-0.0096740182 -0.017198205 0.65249449
-0.0053563276 -0.011783898 0.65205693
-0.0043006195 -0.0086012185 0.65252638
-0.0010758657 -0.0032275915 0.65261221
0.0032167013 0.0021445155 0.65217376
0.02249101 0.032130033 0.65202492
-0.021685788 -0.032528669 0.65362906
-0.011951037 -0.016296834 0.65389079
-0.011951037 -0.016296834 0.65389079
-0.0075598061 -0.011879683 0.65310788
0.0010865477 0.0043462217 0.65390158
0.0075963205 0.014107466 0.65373755
0.011896429 0.019466937 0.65329152
0.01511207 0.023747563 0.65304291
0.019513875 0.032523125 0.65360665
0.019513875 0.032523125 0.65360665
0.022722721 0.036789179 0.65335679
0.031488862 0.052119493 0.65381414
-0.031626105 -0.045803308 0.65438533
-0.031708371 -0.044829041 0.65472782
-0.027241027 -0.039227068 0.654275
-0.010904617 -0.013085514 0.65437406
-0.0076185507 -0.0087068975 0.65412086
-0.0065713711 -0.0043809116 0.65494949
0.010915557 0.021831155 0.65450609
0.015308721 0.029523998 0.65473843
-0.024239819 -0.029748827 0.65574396
-0.016438119 -0.01972571 0.65502751
-0.012107613 -0.011006892 0.65560901
-0.003305143 0.003305167 0.65573239
0.0011036748 0.011036754 0.65596902
0.005484913 0.015357733 0.65516126
0.0066063683 0.018718094 0.6556536
0.0066063683 0.018718094 0.6556536
0.0087817796 0.020856768 0.65525055
0.023079382 0.04396078 0.65540695
0.022071641 0.044143319 0.65595782
0.02533298 0.048463076 0.65569854
0.03764911 -0.046507686 0.65640986
-0.035519455 -0.044399291 0.65673047
0.03764911 -0.033219784 0.65640986
0.03764911 -0.027683169 0.65640986
-0.023347409 -0.024459153 0.65694755
0.03764911 -0.017717183 0.65640986
-0.015521169 -0.013303846 0.6565702
-0.015521169 -0.013303846 0.6565702
0.0022156134 0.014401495 0.6564678
0.03764911 0.017717242 0.65640986
0.0044410452 0.018874437 0.65676415
0.03764911 0.019931912 0.65640986
0.019872883 0.040849835 0.6560142
0.037648998 0.043185651 0.6564095
-0.027966397 -0.02908504 0.65777743
-0.022378903 -0.020140976 0.65781236
-0.022378903 -0.020140976 0.65781236
0.0011153959 0.015615582 0.65738392
0.0022332773 0.017866254 0.65753394
0.0067119151 0.02572906 0.65777701
0.0088980179 0.026694089 0.65700442
0.011176939 0.032413155 0.65766132
0.012275646 0.033479035 0.657453
0.018997507 0.044700027 0.65763789
0.022365365 0.050322086 0.65773064
-0.037177522 -0.040557235 0.65873533
-0.030297421 -0.031419545 0.65819639
-0.025925025 -0.02254349 0.65880579
-0.01466087 -0.0045109987 0.6588763
-0.010086956 2.9802322e-08 0.65803301
-0.0078629963 0.0044931769 0.65833622
0.0033806448 0.023664534 0.65877032
0.0078813378 0.030399501 0.65865254
0.0078813378 0.030399501 0.65865254
0.023635838 0.0551503 0.65860558
0.023635838 0.0551503 0.65860558
-0.035003137 -0.036132216 0.65904212
-0.035003137 -0.036132216 0.65904212
-0.02952379 -0.024981648 0.65981436
-0.024959862 -0.018152595 0.65969473
0.0090660499 0.035130978 0.65953982
0.011297163 0.037280649 0.65911251
-0.03070748 -0.026158184 0.66002965
-0.013658497 0.0011382401 0.66013753
-0.013658497 0.0011382401 0.66013753
-0.0068574091 0.01371485 0.66070408
0.014856427 0.047997713 0.6606921
0.018247979 0.052462965 0.6604141
-0.029846484 -0.020662963 0.66131258
-0.029846484 -0.020662963 0.66131258
-0.011470289 0.0080292225 0.66120237
0.0046116733 0.035740465 0.66191328
0.017275415 0.055281371 0.66176552
-0.040647347 -0.03251788 0.66293144
-0.040647347 -0.03251788 0.66293144
-0.0369852 -0.028894663 0.66225958
-0.027842667 -0.012761205 0.66278148
0.040379643 -0.0069221854 0.66200811
0.040379643 -0.0069221854 0.66200811
-0.023181532 -0.0057953894 0.66265666
-0.010420556 0.013894081 0.66250736
-0.010420556 0.013894081 0.66250736
0 0.030085117 0.66242027
0.0057871393 0.039352566 0.66245764
0.0081207529 0.044084102 0.66278106
-0.034946516 -0.022132754 0.66335762
-0.02572407 -0.0058463514 0.6638878
-0.017487325 0.0058291256 0.6634708
-0.0046582818 0.02562061 0.66331983
0.0023324718 0.037319571 0.66352081
-0.042344861 -0.02940613 0.66472918
-0.030428456 -0.01287356 0.66401446
-0.025795829 -0.0046901107 0.66428149
-0.015233375 0.011717975 0.6641922
-0.011759265 0.018814862 0.66469061
-0.0081915464 0.022234201 0.66400188
-0.0046842517 0.028105527 0.66410351
-0.0011719026 0.033985168 0.66420484
-0.0011719026 0.033985168 0.66420484
0.009421871 0.052998036 0.66490877
-0.041332919 -0.025980651 0.66529584
-0.023571735 0.0011785924 0.6650117
-0.015405253 0.016590297 0.66578823
0.0071094753 0.052136183 0.6657753
-0.057256326 -0.04652074 0.66673219
-0.039284483 -0.019046992 0.66644239
-0.039284483 -0.019046992 0.66644239
-0.029875651 -0.002390027 0.66699612
-0.0047774659 0.037025392 0.66691649
-0.057583321 -0.044387102 0.66755456
-0.044338122 -0.023966521 0.66739464
-0.020335926 0.01315859 0.66714156
-0.016759552 0.019153804 0.66724777
-0.016759552 0.019153804 0.66724777
0.0011981014 0.047924101 0.66736734
0.0024059445 0.051727802 0.66795528
-0.056613192 -0.040954232 0.66814411
-0.053191379 -0.033849031 0.66867018
-0.05060444 -0.031326532 0.6681841
-0.048311017 -0.026571035 0.66853505
-0.039849132 -0.013283014 0.66850781
-0.036149342 -0.0084348321 0.66819739
0.043348901 0.0036124587 0.66809583
0.043348763 0.007224828 0.66809529
-0.020511171 0.016891569 0.66838592
-0.014441003 0.025271773 0.66800898
-0.014524214 0.027838111 0.66884601
-0.0096460506 0.033761203 0.66829133
-0.0084504616 0.036216289 0.66846669
-0.0048324196 0.042283714 0.66857487
-0.044849843 -0.019394487 0.6690641
-0.040195681 -0.0097443759 0.66977549
-0.040195681 -0.0097443759 0.66977549
-0.0085239578 0.040184379 0.66973412
-0.0024290553 0.048581153 0.66935021
0.0036446059 0.058313698 0.66939133
-0.058929548 -0.035603255 0.67094004
-0.039252959 -0.0049065948 0.67081404
-0.018353123 0.026917934 0.67043823
-0.015944973 0.031890005 0.67079973
-0.0085487235 0.041522413 0.67016113
-0.055613443 -0.027188778 0.67192459
-0.046953477 -0.013591766 0.67189598
-0.033226065 0.0061530173 0.67128968
-0.008598716 0.044221967 0.67102325
-0.008598716 0.044221967 0.67102325
-0.0074010515 0.048106879 0.67164135
-0.0049317023 0.051782906 0.67157102
0 0.060533702 0.67186749
0 0.060533702 0.67186749
-0.059626546 -0.031055421 0.67269289
-0.053273126 -0.022300363 0.67229337
-0.052098624 -0.019847065 0.6724785
-0.043535769 -0.0049754977 0.67289323
-0.038409829 0.0012390614 0.67230743
-0.03732698 0.0049769282 0.6729359
-0.033421863 0.0086649656 0.67216504
-0.029730937 0.014865488 0.67227876
-0.018569453 0.032187045 0.67217916
-0.014866871 0.038406104 0.67229289
-0.012383177 0.042102844 0.6722219
-0.0049755001 0.055974424 0.67289269
-0.0049755001 0.055974424 0.67289269
-0.051224079 -0.014992416 0.67355579
-0.046182364 -0.0074890256 0.67341137
-0.01745593 0.03740558 0.67325211
0.046589609 -0.047848791 0.67474002
0.046589609 -0.046589583 0.67474008
0.046589609 -0.032738626 0.67474008
0.046589609 -0.031479418 0.67474002
0.046589609 -0.031479418 0.67474002
-0.062884703 -0.030184656 0.67456084
0.046589609 -0.021405995 0.67474002
-0.055424206 -0.017634958 0.67479587
-0.050186608 -0.011291981 0.67419523
-0.050186608 -0.011291981 0.67419523
0.046589609 -0.010073423 0.67474002
0.046589609 -0.0088142455 0.67474002
0.04658946 0.0050367117 0.67473948
0.04658946 0.0062959194 0.67473954
0.04658946 0.0075550675 0.67473948
0.04658946 0.010073423 0.67473954
0.04658946 0.013850957 0.67473948
-0.028954888 0.023919284 0.67470735
0.04658946 0.023924351 0.67473948
0.04658946 0.025183529 0.67473948
0.04658946 0.028961062 0.67473948
0.04658946 0.031479388 0.67473948
-0.022599163 0.032643288 0.67429703
0.04658946 0.033997744 0.67473948
-0.018847175 0.038950861 0.67441404
0.04658946 0.039034426 0.67473954
0.04658946 0.040293634 0.67473948
0.04658946 0.040293634 0.67473948
0.04658946 0.041552782 0.67473948
-0.013807913 0.046444803 0.67426759
-0.012606125 0.050424546 0.67491311
0.04658946 0.050367028 0.67473948
0.04658946 0.052885324 0.67473954
0.04658946 0.056662887 0.67473954
0.04658946 0.056662887 0.67473954
0.04658946 0.057922035 0.67473948
-0.049436685 -0.0050703883 0.67575741
-0.044189896 0.0012625754 0.6751492
-0.039337989 0.011420757 0.67592162
-0.026503656 0.02902782 0.67509013
-0.015180264 0.048070848 0.67544532
-0.0088311285 0.056771547 0.67503107
-0.062453263 -0.022941977 0.67659628
-0.051102318 -0.0038326681 0.67695856
-0.03566657 0.019107133 0.67650568
-0.021629309 0.040714025 0.67632538
-0.056267668 -0.01150924 0.67710978
-0.046227805 0.0064205527 0.67774898
-0.020507246 0.046141356 0.67745894
-0.020507246 0.046141356 0.67745894
-0.016675269 0.052591264 0.67758089
-0.01279812 0.057591558 0.67723066
-0.040064085 0.019385904 0.67874897
-0.025737917 0.039893776 0.6780858
-0.037692413 0.025994778 0.679636
-0.029941807 0.039054573 0.679887
-0.028588586 0.040283948 0.67960495
-0.024633572 0.045377672 0.67924559
-0.016881445 0.058435827 0.67949528
-0.015554974 0.059627414 0.67921466
-0.057672102 -0.0013107061 0.68096274
-0.057672102 -0.0013107061 0.68096274
-0.057672102 -0.0013107061 0.68096274
-0.040563233 0.024861366 0.68069255
-0.037927091 0.028772265 0.68061286
-0.024786562 0.048268616 0.6802175
-0.020889638 0.05483532 0.68034387
-0.062978528 -0.0091843605 0.68112248
-0.06032408 -0.0052455664 0.68104285
-0.039428961 0.028914571 0.68139362
-0.038164709 0.031584591 0.68160194
-0.030222818 0.043363184 0.68136185
-0.025019683 0.052673072 0.68169862
-0.052870821 0.010574192 0.68229556
-0.018499138 0.064747006 0.6822468
-0.034569528 0.042547137 0.68324029
-0.058959879 0.0080400109 0.68449563
-0.051003702 0.021475285 0.68476188
-0.033603508 0.049733222 0.68499577
-0.064799815 0.002700001 0.68570268
-0.063331738 0.0040424764 0.68539935
-0.056794066 0.016226918 0.68597347
-0.037969083 0.04746142 0.68643206
-0.028470831 0.062364697 0.68639767
-0.036901195 0.053301752 0.6877203
-0.059209917 0.022031635 0.6889593
-0.057722952 0.023364097 0.68864316
-0.035699371 0.057668239 0.6884858
-0.053821504 0.031740904 0.68932909
-0.0415066 0.052575052 0.68975335
-0.0415066 0.052575052 0.68975335
0.054049097 -0.059592575 0.6900335
0.054049097 -0.059592575 0.6900335
0.054049097 -0.047119707 0.69003356
0.054049097 -0.018016338 0.6900335
0.054049097 -0.018016338 0.6900335
0.054049097 -0.015244603 0.69003356
0.054049097 -0.0013858676 0.69003356
0.054049097 0.015244633 0.69003356
0.054049097 0.024945766 0.6900335
-0.041643817 0.054136992 0.69030547
-0.046073373 0.050261915 0.69127548
-0.036413439 0.067224801 0.69180107
-0.063240945 0.026701748 0.69238502
-0.063240945 0.026701748 0.69238502
-0.063240945 0.026701748 0.69238502
-0.0518861 0.043472141 0.69201958
-0.061216384 0.037014604 0.69459188
-0.061216384 0.037014604 0.69459188
-0.055649571 0.047088116 0.69498724
-0.04685181 0.058209866 0.69412291
-0.070591569 0.028812885 0.69664484
-0.056222349 0.051897585 0.69676
-0.04749383 0.064764351 0.69647133
-0.06655667 0.037618995 0.69739807
0.058371689 -0.030645102 0.69889581
0.058371689 -0.0072964728 0.69889587
0.058371689 0.014592916 0.69889587
-0.065656826 0.043771237 0.69886547
-0.062703677 0.048121452 0.69876701
-0.062703677 0.048121452 0.69876701
-0.071573332 0.035056353 0.69906342
-0.062199548 0.057756722 0.70150918
-0.053223241 0.070964336 0.70120525
-0.053223241 0.070964336 0.70120525
-0.071713224 0.047808856 0.70308852
-0.071713224 0.047808856 0.70308852
-0.061459504 0.065956563 0.70369053
0.063177884 -0.050850451 0.70874971
0.063177884 -0.049309552 0.70874977
0.063177884 -0.021572918 0.70874965
0.063177884 -0.015409201 0.70874965
0.063177884 -0.013868302 0.70874971
0.063177884 0.0015409291 0.70874965
0.063177884 0.0077046454 0.70874971
0.06317763 0.03698203 0.70874894
0.06317763 0.040063888 0.70874894
-0.075235561 0.058345944 0.7080853
0.06317763 0.063177645 0.70874894
-0.067830302 0.072455138 0.70883101
0.068553358 -0.073450029 0.71977043
0.068553358 -0.05059889 0.71977043
0.068553358 -0.045702249 0.71977043
0.068553358 -0.045702249 0.71977043
0.068553358 -0.031012237 0.71977043
0.068553358 -0.031012237 0.71977043
0.068553358 0.024483353 0.71977043
0.068553358 0.052231133 0.71977043
0.074606277 -0.039905667 0.73218036
0.074606277 -0.01041013 0.7321803
0.074606277 -0.0034700334 0.73218036
0.074606277 -0.0034700334 0.73218036
0.074606277 -0.0017350018 0.7321803
0.074606277 -0.0017350018 0.7321803
0.074606277 2.9802322e-08 0.7321803
0.074606277 2.9802322e-08 0.7321803
0.074606277 0.0017350614 0.73218036
0.074606277 0.0017350614 0.73218036
0.074606277 0.017350316 0.73218036
0.074606277 0.017350316 0.73218036
0.074606277 0.032965571 0.73218036
0.074606277 0.032965571 0.73218036
0.074606277 0.041640759 0.73218036
0.074606277 0.048580855 0.7321803
0.074606277 0.052050918 0.7321803
0.081472956 0.0055550039 0.74625862
0.081472956 0.022219926 0.74625862
0.081472956 0.024071544 0.74625862
0.081472956 0.0370332 0.74625862
0.081472956 0.038884819 0.74625862
0.081472956 0.044439852 0.74625862
0.081472956 0.046291471 0.74625862
0.022851674 -0.037010413 0.63039643
0.016938888 -0.037083633 0.63327348
0.024485968 -0.028566465 0.63221473
0.025112716 -0.025112987 0.63297892
0.026738327 -0.041029468 0.63404036
0.012214849 -0.0352346 0.63616395
0.013008906 -0.029191753 0.6376493
0.028618226 -0.025279433 0.63789457
0.01914325 -0.021236986 0.63710904
0.0012033132 -0.042923182 0.63917863
0.0035526506 -0.037469856 0.63971853
0.0090990569 -0.033046506 0.63837081
0.016930239 -0.01693055 0.63953042
0.015246693 -0.01327958 0.64148879
0.021174574 -0.0034465715 0.64163244
-0.0014935313 -0.035324238 0.6428588
0.030633001 -0.031127065 0.64202529
0.0074935472 -0.019485027 0.64336562
0.015990615 -0.0059964657 0.64338356
0.030632921 0.011363849 0.64202499
-0.014692129 -0.049138777 0.64504582
-0.0070353118 -0.040201753 0.64406329
-0.0050293114 -0.036713347 0.64416206
0.006565813 -0.016668878 0.64469439
0.014625299 -0.0045385584 0.6445055
0.016716521 0.00050723553 0.64504546
-0.014524627 -0.039423972 0.64797783
-0.00241478 -0.021382501 0.64763618
0.0044369064 -0.014677763 0.64635623
0.032797702 -0.014861435 0.64646351
0.032797616 -0.0025622845 0.64646316
0.022496352 0.013293326 0.64617777
0.032797616 0.02101101 0.64646316
-0.023060508 -0.048740849 0.64927322
-0.0072881458 -0.026548997 0.64842331
0.0041606566 -0.0088407397 0.64830256
0.0065949126 -0.0045125983 0.64845181
0.0088819154 0.00052320212 0.64889264
0.017214697 0.013042897 0.64869046
0.026789643 0.030993819 0.64956415
0.032807514 0.036975376 0.64846885
-0.021113625 -0.042754412 0.65017569
0.035129715 -0.040984645 0.65124464
0.035129715 -0.033000648 0.65124464
-0.015397723 -0.031323567 0.65091896
0.035129618 -0.018629327 0.65124428
-0.0010663106 -0.0069302917 0.65145874
-0.0010663106 -0.0069302917 0.65145874
0.0090164747 0.006896466 0.65080398
0.010558917 0.007391274 0.65020108
0.035129618 0.013306662 0.65124428
0.033270001 0.045070905 0.65075362
0.0331329 0.04809615 0.65175968
0.0331329 0.04809615 0.65175968
-0.025426183 -0.04115162 0.65278804
-0.020978775 -0.03110531 0.65372378
-0.01895418 -0.028699651 0.65347737
-0.016717311 -0.026958033 0.6529206
-0.0075019402 -0.01500386 0.65210998
-0.0075019402 -0.01500386 0.65210998
-0.0010855987 0.00054351985 0.65378708
0.00072156766 0.002527982 0.65351659
0.0026883706 0.0026901886 0.65260231
0.0027022045 0.0048666522 0.65327078
0.00702166 0.011345178 0.65316248
0.014682934 0.021132043 0.65244174
0.014682934 0.021132043 0.65244174
0.018221971 0.025725156 0.65213114
0.018221971 0.025725156 0.65213114
0.019539133 0.033108681 0.65377605
0.019539133 0.033108681 0.65377605
-0.023072664 -0.029114738 0.65536827
0.02533298 0.048463076 0.65569854
-0.035332747 -0.046374202 0.65602618
-0.038057219 -0.044773161 0.65785879
-0.032339714 -0.037357166 0.65735573
-0.030176595 -0.032969952 0.65765619
-0.028937245 -0.032831877 0.6570912
-0.019197326 -0.019565633 0.65643048
-0.0050097541 0.0050093457 0.6570971
-0.0011173597 0.012850404 0.65762097
0.0025851382 0.015145789 0.65651739
0.0078289025 0.027401909 0.65774834
0.014967039 0.034926549 0.6565823
0.037648998 0.039309993 0.6564095
0.017883897 0.043033883 0.65766728
-0.042856958 -0.049059153 0.65888298
-0.02356571 -0.020759508 0.65820241
-0.018686203 -0.0090593696 0.65943933
-0.015113054 -0.0030223131 0.65956008
-0.0073657958 0.009064123 0.65951055
0.0090295244 0.033297166 0.65898871
0.017430093 0.044983983 0.65849477
0.024656929 0.054917723 0.65803254
-0.029104291 -0.019146901 0.66141903
-0.021356437 -0.008769542 0.66083884
-0.0056900373 0.01365611 0.66011333
0.015201084 0.047505867 0.66037047
0.040379643 -0.053070366 0.66200811
-0.049019217 -0.047088426 0.66251653
0.040379643 -0.043263882 0.66200811
0.040379643 -0.043263882 0.66200811
-0.04496406 -0.03876128 0.66311139
0.040379643 -0.036918521 0.66200811
-0.041262694 -0.033124559 0.66304499
-0.019124452 0.00058032572 0.6626451
0.040379643 0.00057688355 0.66200811
0.040379643 0.010960221 0.66200811
0.040379521 0.027111977 0.66200769
0.040379521 0.040956378 0.66200769
-0.052141178 -0.041475922 0.66578907
-0.032783914 -0.016391933 0.6640783
-0.032783914 -0.016391933 0.6640783
-0.028994899 -0.0086196959 0.66463149
-0.026013684 -0.0011824071 0.66547686
-0.02472125 -0.0011771917 0.66484463
-0.014237112 0.018982828 0.66595799
-0.0011801359 0.037175149 0.66519868
0.0070597036 0.04883045 0.664774
-0.058880728 -0.045662612 0.66779542
-0.055971269 -0.045253307 0.66649538
-0.044401504 -0.023399904 0.66760141
-0.044401504 -0.023399904 0.66760141
-0.0384668 -0.013222933 0.66784847
-0.02646054 0.0060137808 0.6679287
-0.023129484 0.0087731089 0.66715115
-0.019053929 0.013099581 0.66649449
-0.014928299 0.020898618 0.66689122
-0.01202862 0.028868705 0.66794199
-0.0072104987 0.036052525 0.6678077
-0.0011901659 0.041061595 0.66640943
0.00059396983 0.043394953 0.66625851
0.0071295728 0.053471804 0.66617966
-0.053038839 -0.034957409 0.66825175
-0.053038839 -0.034957409 0.66825175
-0.04895743 -0.027196907 0.66865772
0.043348901 -0.024684787 0.66809583
0.043348901 -0.024684787 0.66809583
-0.037309464 -0.010831773 0.66802275
-0.033723809 -0.0048176646 0.66813028
-0.029045751 0.0048409998 0.66883254
-0.021163967 0.016930103 0.66871804
-0.018845148 0.023098797 0.66949487
-0.013291642 0.028999984 0.66860217
-0.00487448 0.046307594 0.66984415
-0.00487448 0.046307594 0.66984415
-0.061030515 -0.038501751 0.67107123
-0.052883398 -0.025210932 0.67119932
-0.044330779 -0.011082649 0.67138809
-0.044461176 -0.0098802745 0.67182541
-0.040787034 -0.0037078857 0.67193854
-0.034515437 0.004930824 0.67154306
-0.031453509 0.0069442792 0.67066592
-0.0049244827 0.051092446 0.6713531
-0.055193655 -0.024805471 0.67245805
-0.03732698 0.0049769282 0.6729359
-0.030977149 0.013011336 0.67231464
-0.022531787 0.031294167 0.67384523
0.046589609 -0.050996706 0.67474002
0.046589609 -0.050996706 0.67474002
-0.062076598 -0.025337368 0.67566836
0.046589609 -0.0088142455 0.67474002
-0.031393729 0.01883626 0.67432606
-0.031393729 0.01883626 0.67432606
-0.029041866 0.025253803 0.67516387
-0.01901778 0.043106973 0.67578697
-0.015134665 0.046665251 0.67498666
-0.064230844 -0.021838516 0.67781067
-0.052632898 -0.0038511455 0.67770356
-0.049661607 -0.0031824559 0.67645359
-0.045001365 0.0090003014 0.67794788
-0.036949486 0.017201617 0.67654359
-0.034646906 0.024381161 0.67764193
-0.019250162 0.04876706 0.67765707
-0.014900435 0.053212725 0.67690337
-0.014124483 0.057140961 0.67774153
-0.05320197 0.00064983964 0.67937899
-0.047333997 0.0073153079 0.67856932
-0.047333997 0.0073153079 0.67856932
-0.04377177 0.011586636 0.6781472
-0.032988779 0.031046823 0.6788969
-0.024709871 0.046818733 0.6797303
-0.047165029 0.015067667 0.68089151
-0.028856309 0.044596136 0.6810739
0.050140616 -0.031007975 0.68202019
-0.063374385 -0.0066015124 0.682118
-0.060703054 -0.0026392043 0.68203735
-0.060028039 0.0040019155 0.68376648
-0.060028039 0.0040019155 0.68376648
-0.042612419 0.030627698 0.68348664
-0.037130069 0.037130117 0.68281496
-0.059338413 0.010788828 0.68553418
-0.059338413 0.010788828 0.68553418
-0.049012829 0.024842344 0.68483049
-0.026977547 0.062048405 0.68556756
-0.055516731 0.018956959 0.68619406
-0.054588314 0.024564773 0.68747848
-0.044953 0.038824186 0.68717724
-0.029786291 0.059572577 0.6861766
-0.063287295 0.015133947 0.68881875
-0.060702343 0.020694017 0.68927598
-0.054855801 0.026743352 0.68828577
-0.053470209 0.028791666 0.68824184
-0.046782468 0.04127869 0.68883616
-0.038718954 0.05669564 0.68966484
-0.063915364 0.019452542 0.69046688
-0.064997137 0.020966247 0.69146687
-0.051371571 0.038875818 0.69034088
0.0540489 0.065135896 0.69003296
-0.036413439 0.067224801 0.69180107
-0.031920064 0.069391459 0.69026947
-0.057557508 0.035096049 0.69220239
-0.049219191 0.049219191 0.69249463
-0.049219191 0.049219191 0.69249463
-0.046694096 0.056598932 0.693546
-0.040989581 0.065017968 0.69336021
-0.067326918 0.030799747 0.69566023
-0.059776496 0.039140597 0.69454515
-0.054977462 0.048549876 0.69511086
-0.047170639 0.061464787 0.69528913
-0.064979926 0.038987964 0.69704974
-0.061844997 0.041709453 0.69635653
-0.06028698 0.04306218 0.69601232
0.058371689 -0.013133585 0.69889587
0.058371689 0.02480799 0.69889587
0.058371689 0.029185861 0.69889587
-0.055624261 0.061479479 0.69943959
-0.052851055 0.067531943 0.69995725
-0.049540762 0.068482876 0.6986289
-0.073437646 0.035250098 0.7000379
-0.061350189 0.0650924 0.70336866
-0.075279824 0.046673506 0.7044853
-0.072226942 0.051160783 0.70438045
-0.066849083 0.06532979 0.70613909
0.063177884 -0.057014167 0.70874965
0.063177757 0.020802453 0.70874929
-0.070825718 0.066977933 0.7086007
-0.06951993 0.07106483 0.70922804
-0.066989079 0.073147312 0.7086333
0.068553358 -0.07834667 0.71977043
0.068553358 -0.062840566 0.71977043
0.068553358 -0.044886127 0.71977043
0.068553358 -0.040805548 0.71977043
0.068553358 -0.039173335 0.71977043
0.068553358 -0.035092756 0.71977043
0.068553358 -0.0065288246 0.71977043
0.068553358 0.017138377 0.71977043
0.068553358 0.035092816 0.71977043
0.068553358 0.053047255 0.71977043
0.068553358 0.057127833 0.71977043
0.074606277 0.0008675456 0.73218036
0.074606277 0.015615284 0.73218036
0.074606277 0.029495537 0.7321803
0.074606277 0.04337579 0.73218036
0.024980254 -0.037916444 0.63043594
0.01379313 -0.04187315 0.63333023
0.01379313 -0.04187315 0.63333023
0.022209639 -0.025843604 0.63417596
0.0087463893 -0.028182775 0.64005286
0.006308157 -0.026053533 0.64190912
0.013970812 -0.014367494 0.64177698
0.026192203 0.0098837754 0.64330757
0.032797702 -0.034335069 0.64646351
-0.0082745971 -0.030769393 0.64759773
-0.0017617126 -0.022183837 0.64706731
0.032827549 0.030264184 0.64657605
-0.002145113 -0.017840052 0.64860308
-0.002145113 -0.017840052 0.64860308
0.0032044407 0.00053475797 0.65168047
0.018232498 0.018063046 0.64974874
0.034163367 0.034315988 0.65024531
-0.026325781 -0.041987948 0.65296966
0.014889101 0.032535955 0.65587878
0.021732176 0.034301747 0.65307075
0.022605762 0.044660598 0.65585625
-0.037781652 -0.042383846 0.65846509
-0.033983804 -0.037990756 0.65796554
-0.033983804 -0.037990756 0.65796554
-0.021737665 -0.017877443 0.65819997
-0.02160096 -0.014564704 0.65916079
-0.002196417 0.010222993 0.6573351
-0.002196417 0.010222993 0.6573351
0.019305628 0.052238792 0.65982574
-0.016340513 0.0081702471 0.66363478
-0.0081687793 0.021005481 0.66360927
-0.0049586585 0.025959481 0.66357207
0.040379521 0.05393552 0.66200769
-0.049509805 -0.034233522 0.66674542
-0.046189882 -0.033543658 0.66533148
-0.039487727 -0.026194274 0.66432476
-0.023440216 -0.0011719763 0.66421789
-0.0096016778 0.029551879 0.66696364
0.043348901 -0.0099341124 0.66809583
0.043348901 -0.0099341124 0.66809583
-0.001851993 0.057072937 0.67170191
0.046589609 -0.03809014 0.67474008
0.046589609 -0.03809014 0.67474008
0.046589609 -0.03809014 0.67474008
-0.05945085 -0.032202512 0.67225105
-0.060886897 -0.022832543 0.67586243
-0.050005771 -0.0097461399 0.67458606
-0.044592701 0.001582779 0.67544627
-0.044592701 0.001582779 0.67544627
-0.014246777 0.039330758 0.67227578
-0.014246777 0.039330758 0.67227578
-0.014339472 0.04226511 0.67323154
-0.06211875 -0.021697175 0.67681855
-0.036439933 0.028631389 0.67983973
-0.0099668037 0.064274363 0.67791563
0.050140616 -0.018142968 0.68202019
-0.057891931 0.0061566755 0.68338752
-0.057891931 0.0061566755 0.68338752
0.050140616 0.014184542 0.68202019
-0.045723826 0.025747051 0.68349802
-0.045723826 0.025747051 0.68349802
-0.022273641 0.054366671 0.68087721
-0.022273641 0.054366671 0.68087721
-0.041404612 0.045498639 0.68750799
0.054049097 -0.053702608 0.69003356
-0.066219732 0.017601907 0.69102252
0.054049097 0.037765115 0.69003356
-0.031078834 0.066170797 0.68885773
-0.031078834 0.066170797 0.68885773
-0.058313049 0.038355976 0.69358414
-0.050141267 0.050140597 0.69323266
-0.043620192 0.058395997 0.69259608
0.058371689 -0.062019899 0.69889587
-0.068852678 0.041018665 0.69957888
-0.043214425 0.072024047 0.69662511
-0.054525301 0.067052677 0.70062983
-0.070510492 0.058379255 0.7057783
-0.069404006 0.065832458 0.70754802
0.063177884 -0.021958157 0.70874965
0.06317763 0.041990027 0.70874894
-0.072418191 0.07792975 0.71277952
0.068553358 -0.022034973 0.71977043
0.068553358 0.018362544 0.71977043
