# .PCD v0.7 - Point Cloud Data file format
VERSION 0.7
FIELDS x y z
SIZE 4 4 4
TYPE F F F
COUNT 1 1 1
WIDTH 908
HEIGHT 1
VIEWPOINT 0 0 0 1 0 0 0
POINTS 908
DATA ascii
0.025664253 -0.005132854 0.62600869
0.034376536 -0.0034376383 0.62648404
0.036420539 -0.0034278184 0.62618792
0.022519825 -0.0060629845 0.62729692
0.026482146 -0.0069461912 0.62755394
0.014773828 -0.0052142739 0.62764716
0.029459752 -0.0087940246 0.62889719
0.011356305 -0.0052413642 0.62819195
0.016594706 -0.0043670237 0.62817311
0.024801534 -0.0088576674 0.62966549
0.013289874 -0.0070879161 0.62969238
0.016745638 -0.0070507526 0.62913197
0.017752666 -0.0079886615 0.6298905
0.012401027 -0.0035431683 0.62966776
0.020325366 -0.0026510954 0.62941712
0.039721671 2.9802322e-08 0.62929547
0.039139431 -0.011563867 0.63011974
0.02415113 -0.0098393261 0.63071775
0.042357132 -0.013518214 0.63153005
-0.0053974832 -0.0044978559 0.6313327
0.037249103 -0.013627678 0.63241112
0.032644615 -0.012695104 0.63220346
0.014524073 -0.0099852681 0.63231933
0.00045522169 -0.0081995279 0.63271838
0.0018184305 -0.0081829131 0.6324957
-0.009116115 -0.0036464334 0.6327849
-0.0063581159 -0.0036332011 0.63238549
0.0072578155 -0.001814425 0.63225567
0.017300451 -0 0.63265681
0.030485414 0.0018200725 0.63259292
0.0018343013 -0.0091714859 0.63345355
-0.0064428318 -0.0082836151 0.6338464
-0.02017775 -0.0045858324 0.63345599
-0.013757723 -0.0036686957 0.6334573
0.0045916913 -0.00091832876 0.63359696
0.022541249 0.0018401444 0.63380504
0.027416993 0.0018278062 0.63306117
0.030306697 0.0027551949 0.6336025
0.042298537 0.0045976937 0.6337412
0.027666232 -0.013833076 0.63406402
0.012512745 -0.012049615 0.63462967
0.021228051 -0.012921393 0.63415468
-0.030657804 -0.005574137 0.63488686
-0.02225722 -0.0037095249 0.63468891
-0.017512066 -0.0036867559 0.63400126
-0.011528611 -0.0027667731 0.63407111
0.0092858933 0.00092864037 0.63483435
0.013843173 0.00092288852 0.63414496
0.015786212 0.0018572211 0.63483572
0.03410583 0.0036871135 0.63401228
0.04255005 -0.017768264 0.63562912
0.024324162 -0.014968693 0.63567388
0.0037234458 -0.011170357 0.63510865
-0.0075049517 -0.010319293 0.63598466
-0.035547644 -0.0046772957 0.63566422
-0.035547644 -0.0046772957 0.63566422
-0.026095759 -0.0037279427 0.63524503
-0.024383465 -0.0028134584 0.63594925
0.033513796 0.0046547353 0.63511795
0.0028214741 -0.012226373 0.63627106
-0.031925537 -0.0037559271 0.63608938
-0.017492618 -0.00094552338 0.63687938
-0.011353666 -0 0.63695276
-0.010394408 2.9802322e-08 0.63680881
-0.0028313121 0.00094383955 0.63666689
0.00046952328 0.00093966722 0.63616759
0.00046952328 0.00093966722 0.63616759
0.0028349091 0.0018899441 0.63681161
0.033807844 0.0056346357 0.63610393
0.029586397 -0.018133581 0.63794994
0.014251033 -0.015201062 0.63742715
-0.0028453299 -0.012329757 0.63723093
-0.0304954 -0.0085768104 0.6377787
-0.037197638 -0.0076302588 0.6378758
-0.036192544 -0.0076194704 0.63771284
-0.043911196 -0.0066820979 0.63797307
-0.03986669 -0.0066444278 0.63732308
0.019920386 0.00474298 0.63724864
0.035322443 0.0076372921 0.63798141
-0.026774662 -0.0095623732 0.63817185
-0.035511702 -0.0086379647 0.63859886
-0.017314494 0.00096192956 0.63885731
0.0076466203 0.0038233101 0.63812232
0.024483394 0.0067210495 0.6386435
0.040198531 0.0086140037 0.63827688
0.044573642 -0.022286803 0.63971138
0.027084367 -0.019345969 0.639507
-0.015458249 -0.012559801 0.63936722
-0.020248113 -0.011570334 0.63913244
-0.02702054 -0.0106152 0.6392318
-0.043619964 -0.0019386411 0.63975251
-0.038524527 -0.0019262135 0.63900179
-0.022266764 0.00096815825 0.63960612
-0.013518971 0.0019313097 0.6393069
-0.0087133031 0.0029044747 0.63960916
-0.004815883 0.0028895438 0.63900948
0.0077155014 0.0048222244 0.63916159
0.02215418 0.0067425966 0.63901526
0.026107984 0.0077356994 0.6394664
0.045899775 -0.023438126 0.64062864
0.027335992 -0.020502001 0.6405918
0.021465678 -0.019514203 0.64052266
-0.0097567765 -0.014635146 0.64051843
-0.023456709 -0.012705684 0.6407218
-0.029303662 -0.011721432 0.64065254
-0.0097825406 0.0039130151 0.64082944
0.03815544 0.010761797 0.64084029
0.041850563 0.010705978 0.64022768
0.040391777 -0.02364397 0.64166367
0.0068839588 0.006883949 0.64145333
0.0068839588 0.006883949 0.64145333
0.010860474 0.0078985691 0.64192325
0.019694747 0.0088626742 0.64161199
0.01188078 -0.019801289 0.64225513
0.01188078 -0.019801289 0.64225513
0.0039695683 -0.018855423 0.64253604
-0.0049810279 -0.0179317 0.64299631
-0.0019836004 -0.017852366 0.64246458
-0.0099413805 -0.016900301 0.64274675
-0.023901304 -0.014938295 0.64295799
-0.019800577 -0.014850408 0.64225078
-0.019800577 -0.014850408 0.64225078
-0.038598884 -0.011876583 0.64221287
-0.036818381 0.0019901991 0.6428619
-0.033699092 0.0019823015 0.64238608
-0.024713779 0.0029656589 0.64207238
0.018001487 -0.022001803 0.64346433
0.018001487 -0.022001803 0.64346433
-0.042151023 -0.013046741 0.64388847
-0.016939703 0.0049822927 0.64302629
0.0010004793 0.0080038905 0.64351225
0.015986796 0.009991765 0.64335477
0.022981321 0.010991096 0.64335632
0.022981321 0.010991096 0.64335632
0.042510293 -0.027328014 0.644921
0.0070487056 -0.021146119 0.64429426
-0.0060434574 -0.019137591 0.64432871
-0.035432778 -0.015185475 0.64494699
-0.047397833 0.0020169318 0.64447618
-0.046327047 0.0020142198 0.64431262
-0.021235958 0.0060674548 0.64481068
-0.019161841 0.0060511529 0.64448255
-0.010058275 0.0070407987 0.64415783
0.047671769 -0.028400183 0.64517969
0.039652687 -0.027451813 0.64547455
0.030622164 -0.026539177 0.64595783
-0.031497192 -0.016256601 0.64539039
-0.038581874 0.0040612817 0.64530271
-0.038581874 0.0040612817 0.64530271
-0.023321286 0.0060838461 0.64514053
-0.023321286 0.0060838461 0.64514053
-0.019344108 0.0071267784 0.64564055
0.0081564011 0.011215091 0.6458143
0.0091634886 0.011199832 0.64564711
0.043843586 0.01631394 0.64582253
0.043843586 0.01631394 0.64582253
0.045270458 -0.02983734 0.64693981
0.049085852 -0.029655993 0.64618504
-0.023539836 -0.018422455 0.64628762
0.0010293385 0.011322767 0.64699584
0.031823993 0.015398741 0.64666289
0.048118915 0.017404765 0.64632809
0.02173212 -0.026906401 0.6476627
0.015513289 -0.025855452 0.64758497
0.003098795 -0.023757398 0.64742959
-0.012437009 -0.021764755 0.64785039
-0.023771355 -0.019637197 0.64750266
-0.038310848 -0.017602295 0.64773095
-0.011400746 0.010364354 0.64785206
0.0031093792 0.012437552 0.64785546
0.018631073 0.014490843 0.64768648
0.018631073 0.014490843 0.64768648
0.037058789 0.016470611 0.6470046
0.0485835 0.018606454 0.64752132
0.044748131 -0.031219631 0.6483618
0.028236939 -0.029282719 0.64898443
-0.024007408 -0.02087599 0.6487416
-0.037587941 -0.018793941 0.64877886
-0.033205483 -0.018678069 0.64800173
-0.021855293 0.0093665719 0.64837074
-0.021855293 0.0093665719 0.64837074
-0.01563284 0.010421902 0.64854705
-0.0072853169 0.011448383 0.64837444
-0.0031353626 0.012541503 0.64890099
0.0052184155 0.013567924 0.64872742
0.023872554 0.015569121 0.6480338
0.0031609358 -0.02634111 0.64993
-0.0062844022 -0.024090201 0.64917612
-0.043143112 -0.018940866 0.64976406
-0.048138577 0.0062789321 0.64906633
-0.040813703 0.0073255599 0.64906806
-0.016862616 0.011593074 0.64996231
0.039773427 0.018840075 0.64908785
-0.021198533 -0.02331838 0.65068817
-0.014859322 0.012736589 0.65086365
-0.014859322 0.012736589 0.65086365
0.045580145 0.021200091 0.65069741
0.040664509 -0.034243762 0.65191847
-0.045701373 0.0085026026 0.65103775
-0.04275573 0.0096200705 0.65177047
-0.0095796539 0.013837278 0.6512289
-0.0053448561 0.014965624 0.65177989
0.0010705128 0.01605776 0.65196598
0.0085642226 0.017128438 0.65196788
0.024587719 0.019242585 0.65178716
0.024587719 0.019242585 0.65178716
0.021580476 -0.032370687 0.65299344
-0.0043049096 -0.027981877 0.65265584
-0.008576856 -0.026802659 0.65215844
-0.02474477 -0.024744749 0.65261143
-0.033436853 -0.023729354 0.65294325
-0.046320066 -0.021544188 0.65277451
-0.037518673 0.010719627 0.65214097
-0.026953829 0.012937844 0.6528883
-0.0021502248 0.016126722 0.65252125
0.043008264 0.022579342 0.65253264
0.03354707 -0.034629196 0.65337241
0.028072832 -0.033471435 0.6530779
0.0032589645 -0.030416965 0.65387434
-0.0021677273 -0.029264301 0.65357763
-0.016266286 0.015181899 0.65364468
0.0065067932 0.018435895 0.65365028
0.050119046 -0.038134038 0.65426338
0.035966083 -0.035966069 0.65430403
0.028364269 -0.034909874 0.65443099
-0.0076486287 -0.029501826 0.6546396
-0.020723699 0.015270084 0.65440536
-0.013088876 0.016361117 0.65440762
0.0043504364 0.018489391 0.65402973
0.016385874 0.02075547 0.65460706
0.033766799 0.022874296 0.65422803
0.040361412 0.023998708 0.65442079
0.039327793 0.024033666 0.65461278
0.049017724 0.025053531 0.65423173
0.045035832 -0.038445175 0.6553365
0.037383124 -0.037383109 0.65546554
0.0033011511 0.019806921 0.65557182
0.019778505 0.021976143 0.65538126
0.0377784 -0.038889527 0.65686888
-0.01547306 -0.029840887 0.65615541
-0.025528789 -0.028858602 0.65672618
-0.049952291 0.013320625 0.65673876
-0.049952291 0.013320625 0.65673876
-0.01222956 0.018900245 0.65694714
0.0055426285 0.021062016 0.65655458
0.019983595 0.023314238 0.6567567
0.026684701 0.024461001 0.65695739
0.026684701 0.024461001 0.65695739
0.00558683 -0.034638315 0.65762174
-0.0066841138 -0.032306522 0.65721768
-0.0066841138 -0.032306522 0.65721768
-0.016782353 -0.031327039 0.65779769
-0.03567104 -0.027867973 0.65730226
-0.03567104 -0.027867973 0.65730226
-0.055916041 0.013419867 0.65773696
-0.03674145 0.0155873 0.65714025
0 0.021218777 0.65755057
0.0022269241 0.021155775 0.65715045
0.015742661 -0.037107676 0.65847993
-0.0056203716 -0.033722222 0.65843153
-0.032510158 -0.029147029 0.6580652
-0.032510158 -0.029147029 0.6580652
-0.040397514 -0.02805379 0.65819961
-0.04500242 0.015750855 0.6585505
-0.011217664 0.020191789 0.65815294
0.011320402 -0.037357301 0.65939301
-0.037521955 0.01819253 0.6599952
0.0056598471 0.023771346 0.65938455
0.02943252 0.027168512 0.65939057
-0.050333586 0.017159194 0.66083008
-0.03871759 0.018220037 0.66020334
-0.026311925 0.020591974 0.66083634
0 0.023952007 0.66042274
0.017083129 0.026194155 0.66021812
0.051798526 -0.046043098 0.66169113
-0.02755741 -0.033298492 0.66134679
-0.026364194 -0.033241779 0.66111064
-0.050589647 -0.029893875 0.66153258
-0.055246081 0.017264396 0.66167688
-0.044750974 0.018359363 0.66125453
-0.019477902 0.021769434 0.66104907
0.0092088217 0.0264754 0.66169405
0.032281905 0.02997607 0.66191411
0.049501304 0.032233417 0.66170502
0.047519248 -0.046360224 0.66264808
0.027710473 -0.042720288 0.66211665
-0.017336022 -0.035827756 0.66225326
-0.026654948 -0.03476727 0.66263664
-0.032371186 -0.033527285 0.66229904
-0.042783745 0.019657403 0.66232359
-0.019688662 0.02316314 0.66254556
-0.019688662 0.02316314 0.66254556
-0.01040752 0.024284214 0.66233242
-0.0046399352 0.025519639 0.66276616
0.021972764 0.028911531 0.66234094
0.026722604 0.0302082 0.66299164
0.037254747 -0.045404196 0.66327631
0.026897559 -0.044439405 0.66390991
-0.0093390392 -0.038523495 0.66365892
-0.0093390392 -0.038523495 0.66365892
-0.016331853 -0.037329942 0.66356009
-0.040956348 -0.033935219 0.66399705
-0.040785905 0.02097562 0.66340929
-0.024472369 0.023307055 0.663414
0.032824989 -0.045720488 0.66425538
-0.052683737 0.019902766 0.66406572
-0.046977296 0.021139801 0.66451025
0.021076476 0.030443817 0.66408569
0.044566449 0.034011245 0.66431332
0.041450657 -0.048556447 0.66570187
0.021234738 -0.044828862 0.66514707
-0.031861383 -0.036581546 0.66518849
-0.051027603 -0.034413934 0.6659897
0.011857168 0.030828685 0.66587234
0.040126093 0.034225225 0.66520393
0.047282193 0.035461664 0.66543031
0.045274742 -0.050040483 0.66656333
0.028654998 -0.047758281 0.66686714
0.028654998 -0.047758281 0.66686714
0.0071483534 -0.044081479 0.66655743
-0.032223135 -0.038190335 0.6668058
-0.045206152 -0.035689056 0.66634542
-0.0083392756 0.028591812 0.66654938
0.025019391 0.03335923 0.66655838
-0.0072198398 -0.043319017 0.66799569
-0.028816808 -0.039623082 0.66768104
-0.027566912 -0.03955251 0.66742289
-0.058769275 -0.034781784 0.66752082
-0.056435581 0.022814423 0.66768789
-0.032473993 0.02646032 0.66792732
-0.027486807 0.026291728 0.66700244
0.018042872 0.033680052 0.66794157
0.038308512 0.035914242 0.66725141
-0.010888177 -0.043552697 0.66877913
0.054799672 -0.054799646 0.66974163
0.047458302 -0.053542674 0.66963404
0.047458302 -0.053542674 0.66963404
-0.038978629 -0.040196687 0.66977924
-0.038978629 -0.040196687 0.66977924
-0.038798686 0.026674122 0.6691004
-0.031575404 0.027932107 0.66933942
-0.021824956 0.029099971 0.66910511
0.036437925 0.037652552 0.66935855
0.036678553 -0.052572578 0.67032683
0.026975721 -0.051499069 0.67075539
-0.028210429 -0.042928874 0.67080021
-0.052473873 0.025626808 0.67004967
-0.04393246 0.026847661 0.67005253
0.030612733 0.037959814 0.67055511
0.040343557 0.039121032 0.6703164
0.030845609 -0.053054422 0.6716795
0.030845609 -0.053054422 0.6716795
0.022233041 -0.051877111 0.6718418
0.022233041 -0.051877111 0.6718418
0.0074000214 -0.049333453 0.67162061
-0.0073826867 0.033222109 0.67127192
-0.022396483 -0.046037197 0.67293787
-0.059501164 -0.039667398 0.67237759
-0.03839384 0.02972427 0.6722452
-0.012385715 0.033441484 0.67225254
-0.0062134694 0.034795463 0.67275012
-0.0049625654 0.034738004 0.67250234
0.045096632 -0.057623476 0.6739561
-0.0074766814 -0.048598439 0.67316294
-0.023684451 -0.046122313 0.67321563
-0.03244609 -0.044925332 0.67338175
-0.041227106 -0.043725699 0.67354828
-0.058847316 -0.041318297 0.67388195
-0.056383401 0.02881819 0.67398989
0.036101028 0.041080505 0.67301196
0.043643251 0.042396367 0.67326391
0.050045144 0.043789536 0.67376822
0.051494714 -0.059030503 0.67435253
0.051494714 -0.059030503 0.67435253
0.0012596619 -0.051646113 0.67479831
-0.022664767 -0.047847837 0.67473698
-0.061580643 -0.041472644 0.67444658
-0.061580643 -0.041472644 0.67444658
0.012552317 0.038912207 0.67426354
0.054160625 0.045343816 0.67478478
-0.055689268 0.030375957 0.67552304
-0.055689268 0.030375957 0.67552304
-0.026490929 0.034059793 0.67501694
-0.026490929 0.034059793 0.67501694
0.034121249 0.042967528 0.67529184
0.040577345 0.044381499 0.67580992
0.049763326 -0.06124714 0.67676848
0.033187449 -0.058716238 0.67682374
0.035605356 -0.058494508 0.67624182
0.0012744156 0.039506882 0.6765793
-0.046031307 0.033244878 0.67709011
-0.030793514 0.035925776 0.67762315
-0.030793514 0.035925776 0.67762315
-0.019180678 0.037082642 0.67709792
-0.010229901 0.038362175 0.67710096
0.027061852 -0.059278309 0.67829871
-0.0051485403 -0.054059654 0.67811465
-0.016816191 -0.053035676 0.67888939
-0.014174583 -0.052832544 0.67829132
-0.033644725 -0.050467074 0.67894667
-0.046334673 -0.047621727 0.67810732
-0.018087199 0.038758308 0.67869496
-0.018087199 0.038758308 0.67869496
0.0090440903 0.042636454 0.67870349
0.027133189 0.045221984 0.67870873
0.036178201 0.046514869 0.67871141
0.040164541 -0.062190235 0.67914015
0.02081784 -0.059851289 0.67980218
-0.025900712 -0.051801383 0.67906833
-0.059615225 -0.046655387 0.67918271
-0.057038013 0.033704311 0.67922318
0.024885019 -0.061557651 0.680843
0 -0.057604253 0.68077672
-0.056094941 -0.048267752 0.68021488
0.019583164 0.045694083 0.68033683
-0.026223797 -0.05375874 0.68101835
-0.061999056 0.035616487 0.68197668
-0.061999056 0.035616487 0.68197668
0.042072363 0.049960971 0.68144941
0.040829208 0.050048739 0.68172824
0.051276579 0.051276624 0.68145216
0.036946483 -0.064656317 0.68202353
0.026473176 -0.063535601 0.68252343
-0.037067857 0.039715558 0.68254679
-0.029176775 0.041112751 0.6828323
0.0013216147 0.044934958 0.68227673
0 0.045014113 0.68255788
0.0040039588 -0.061394006 0.68385059
0.0040039588 -0.061394006 0.68385059
-0.037294608 -0.054609954 0.68352437
-0.049155109 0.038526982 0.68310982
-0.025377974 0.042741865 0.68397486
0.023959098 0.049249291 0.68341696
0.049427371 0.053435028 0.68399805
0.050672948 0.053339958 0.68371123
-0.033524584 -0.056321293 0.68461478
-0.042962447 -0.055045605 0.684807
-0.052422766 -0.053766906 0.68499982
0.010705287 0.048173815 0.68427402
0.029440574 0.050851911 0.68427968
0.029440574 0.050851911 0.68427968
0.036261585 0.05237782 0.68486077
0.013502116 -0.064810127 0.68572867
-0.012146651 -0.060733229 0.68565822
-0.063377932 -0.052590191 0.68551803
-0.059188128 0.039010406 0.68512189
0.052567862 0.055263698 0.68544888
-0.058472902 0.040795058 0.6868903
-0.044632781 0.041927814 0.68600595
-0.0067630233 0.047341138 0.68601751
0.010840782 0.050138652 0.68631852
0.012173874 0.050048172 0.68602335
0.012173874 0.050048172 0.68602335
-0.0027310697 -0.064180106 0.68757832
-0.020490957 -0.061472863 0.68764216
0.042393904 0.056069374 0.68782103
0.0096332161 -0.067432493 0.68886256
-0.026027381 0.046575338 0.6881007
0 0.050873607 0.68871623
0.0013724442 0.050780475 0.68841237
-0.037307281 -0.060797036 0.68953586
-0.055291705 -0.058056295 0.68960124
-0.051055878 0.044156432 0.68931103
0.0069002178 0.052441657 0.68932974
0.042942412 0.058180064 0.6899569
-0.0097497636 0.051534474 0.69087231
-0.0069383602 0.051343858 0.69025052
0.029251538 0.05711022 0.69088525
0.048754346 0.059898227 0.69089144
-0.063022099 0.044815749 0.69179797
-0.053219642 0.046217114 0.69180101
-0.033613645 0.049019903 0.69180727
-0.067458257 -0.059025943 0.69238812
0.0014085616 0.054933935 0.69277215
0.014033192 0.056132793 0.69213927
0.040851455 0.060572892 0.69278532
-0.0070539219 -0.069128394 0.69304049
-0.055249415 -0.06233266 0.69374871
-0.055249415 -0.06233266 0.69374871
-0.031103395 0.050896496 0.69340336
-0.011357719 -0.069566011 0.6941185
-0.031312287 -0.066894412 0.69454944
-0.044365264 -0.065832317 0.69549727
-0.051575609 0.050142974 0.69568056
-0.054649595 0.050335199 0.69634342
-0.015851226 0.056199819 0.69669026
-0.015851226 0.056199819 0.69669026
-0.0028710684 0.057421416 0.69602799
0.0071778065 0.058858067 0.69603127
0.01582177 0.06041044 0.69636703
0.017227059 0.060294718 0.69603455
0.046029571 0.064729124 0.6963768
0.00288769 0.059197694 0.6970312
0.0129949 0.060642868 0.69703513
-0.04652904 -0.068339467 0.69826096
-0.04652904 -0.068339467 0.69826096
-0.032184098 -0.071682721 0.69933301
-0.032184098 -0.071682721 0.69933301
-0.036515605 0.055503756 0.69905668
-0.036515605 0.055503756 0.69905668
-0.0073178005 0.060005963 0.69941103
0.014607643 0.062812895 0.69907355
0.033664469 0.065865308 0.69942462
-0.047181882 -0.070772827 0.70072365
-0.063150294 -0.067556083 0.70002079
-0.061704047 0.052889198 0.70008504
0.038355473 0.067859679 0.70081735
0.025177084 0.066645235 0.70151681
0.050757833 0.071658134 0.70295
-0.014986584 0.062943667 0.70364779
0.0074786651 0.06581232 0.70329463
0.0074786651 0.06581232 0.70329463
0.028420044 0.068806469 0.70330173
-0.040705983 0.060305178 0.70473063
-0.0075234906 0.064702064 0.70437682
-0.0075234906 0.064702064 0.70437682
0.013542872 0.067714363 0.70438468
-0.056119524 0.05915302 0.70583093
0.028822837 0.071298599 0.70586079
0.051475804 0.074185759 0.70549899
-0.027413845 0.063965678 0.70658505
-0.018313469 0.065623283 0.70696294
-0.051990665 0.061165541 0.70732689
-0.015418286 0.067840517 0.70885891
0.01996303 0.072174072 0.70810914
-0.038623434 0.064887375 0.70923412
-0.032646049 0.066846699 0.71039736
0.023272814 0.074473053 0.71002889
0.044995941 0.07757923 0.71003646
-0.02046467 0.070839256 0.71276706
0.012594423 0.07556656 0.71277887
-0.034777712 0.069555461 0.71356374
-0.02208516 0.070988059 0.71316618
0.0031887447 0.07652992 0.71520144
-0.014472043 0.075576246 0.71684706
0.017727202 0.080578208 0.71727663
-0.058638133 0.071668863 0.71936178
-0.0065587731 0.080344975 0.72067219
-0.055989437 0.074103683 0.72152382
-0.031221118 0.077231228 0.72109747
-0.019719027 0.078876138 0.72110176
-0.045157742 0.078607947 0.72463346
-0.026941529 0.082508475 0.72600186
-0.055940889 0.079673409 0.72736984
-0.020343501 0.0847646 0.72738349
-0.034529906 0.086324781 0.73115015
0.015198281 -0.0052109212 0.62757963
0.024935715 -0.0047276206 0.6265437
0.040133029 -0.0095970035 0.62805861
0.0068732807 -0.0062088296 0.62981147
0.02091375 -0.00738374 0.6288234
0.025016805 -0.0079001039 0.62870264
0.01478824 -0.0035316721 0.62932187
0.03298473 -0.0013175607 0.62892073
-0.0011998059 -0.0066037579 0.63141936
0.016752219 -0.0013472848 0.6313231
0.027161513 -0.0008905232 0.63024259
0.029129799 0.00045187399 0.63135833
0.042862408 0.0027071238 0.63166964
-0.0031786761 -0.0072648078 0.63236177
-0.024877621 -0.0055283606 0.63396573
-0.016872859 -0.0050155297 0.63283557
0.011149984 -0.00091024488 0.63262236
0.044511165 0.0036335886 0.63239622
0.035146594 -0.016870499 0.63587993
0.041280992 -0.017073562 0.6351468
0.018985454 -0.012965873 0.63453811
-0.030931257 -0.0065611303 0.63588715
-0.030931257 -0.0065611303 0.63588715
-0.017339461 -0.0018744916 0.63588011
-0.0014009567 1.4901161e-08 0.63546062
-0.0014009567 1.4901161e-08 0.63546062
0.034997664 0.0051350892 0.63540041
0.0090138102 -0.014232829 0.63728094
0.021520615 0.0050652921 0.63734758
0.034963392 0.0069628805 0.63732648
-0.0033833464 -0.014498547 0.6394192
0.0033643793 -0.014903076 0.63878882
-0.014964789 -0.012550786 0.6392836
-0.014964789 -0.012550786 0.6392836
-0.012871596 -0.012874097 0.63928032
-0.035154894 -0.0014425218 0.63900489
-0.02580566 -0.00095573068 0.63811475
-0.01689928 0.0014506727 0.63930863
-0.0057348213 0.0019116402 0.6381194
0.02703283 0.0072117858 0.63877702
0.044648185 0.0096018463 0.63864797
0.0093515432 -0.018703803 0.64157259
0.017107166 -0.019064926 0.64074719
0.017107166 -0.019064926 0.64074719
-0.040976994 -0.0097563863 0.64051414
-0.0093732923 0.0049331784 0.64184028
0.0054191472 0.0068975389 0.64168698
0.042721093 0.011416515 0.64084405
0.028600162 -0.024084628 0.64388019
0.024979006 -0.022981584 0.64335787
0.037133656 -0.023765773 0.64227629
0.0045046159 -0.020022139 0.64358819
-0.0025053634 -0.019037902 0.64369535
-0.011458342 -0.016937837 0.64301324
-0.021333082 -0.014883265 0.64251518
-0.0020089915 0.0080359876 0.64399707
-0.0020089915 0.0080359876 0.64399707
0.011451891 0.0089626312 0.64295292
0.027313668 0.010925621 0.64263791
-0.034702517 -0.01633057 0.64594853
-0.04321897 -0.013066173 0.64406908
-0.04321897 -0.013066173 0.64406908
-0.028839651 0.0050595403 0.64489156
-0.028839651 0.0050595403 0.64489156
0.037014678 0.014707021 0.64515764
0.0087917484 -0.024824858 0.64760327
-0.046896446 0.0046405792 0.64715815
-0.021115413 0.0082400143 0.64707607
0.031331778 0.015409276 0.64674771
0.010989226 -0.026691683 0.64908338
0 -0.023867339 0.6480065
-0.021315712 -0.02079542 0.64825523
-0.018829435 -0.021967649 0.64901668
-0.018829435 -0.021967649 0.64901668
-0.041414864 0.0069627566 0.64877689
-0.019719139 0.0093406439 0.64802325
0.021351207 0.015623122 0.64846873
0.041256741 0.018800735 0.64882404
0.013306156 -0.029277153 0.65124339
-0.0069525084 -0.026738763 0.65184999
-0.011329215 -0.025140664 0.65096146
-0.043014511 -0.020179436 0.65094769
-0.027104037 0.011162996 0.65104568
-0.0090414267 0.013827503 0.65113795
-0.0064229681 0.014986932 0.65196383
0.029210795 0.019120052 0.65096557
0.033271305 0.019012406 0.65024364
0.0048762038 -0.030343533 0.65355766
-0.026982781 -0.024824142 0.65302807
-0.026982781 -0.024824142 0.65302807
-0.0350651 0.011868089 0.65298015
-0.0010790115 0.016727433 0.65299189
0.0048411563 0.017214403 0.65261614
0.0048411563 0.017214403 0.65261614
0.033376068 -0.036112279 0.65483886
0.036863066 -0.037413687 0.65557414
0.030447401 -0.034797013 0.65400535
0.03463833 0.024192154 0.65548229
0.047459938 0.026489288 0.65597445
-0.0072475784 -0.03233327 0.65732896
-0.01717367 -0.029914618 0.65648502
-0.038931143 -0.027070295 0.65702176
-0.038931143 -0.027070295 0.65702176
-0.033017024 0.016788125 0.65784395
-0.030687073 0.016738206 0.65744209
0.00055755745 0.021203011 0.65745026
0.015912941 -0.038645685 0.65994811
0.024805795 -0.038902998 0.65884936
-0.011335396 -0.034006178 0.65957403
-0.0073252935 -0.03380686 0.65877205
-0.028726026 -0.030415267 0.65872335
-0.047000851 -0.028313458 0.65945327
0.0073407749 0.023717746 0.65907621
0.023153277 0.025977358 0.65908027
0.033218861 0.027025893 0.65867329
0.041102014 0.028152391 0.65867531
0.048985396 0.029278904 0.65867734
0.022748321 -0.039809555 0.66004199
-0.045069788 -0.029665843 0.66047394
-0.054629222 0.017251194 0.66157061
-0.054629222 0.017251194 0.66157061
-0.015386 0.021653801 0.66031426
-0.0074084094 0.02279377 0.66031629
0.008639466 0.02649574 0.66180092
0.01683015 0.027163506 0.66127491
0.052712362 0.032085806 0.66106862
0.036703922 -0.04544355 0.66339815
0.01169847 -0.042114496 0.66395676
-0.0027063857 -0.038679354 0.6628046
0.0028973757 -0.039411038 0.66266549
-0.015139091 -0.03726545 0.66331685
-0.047085237 0.019764006 0.66308039
-0.03894778 0.020926952 0.66308272
-0.030810002 0.022089854 0.66308486
0.0052074846 0.026618347 0.66244435
0.040988717 -0.046844244 0.66410875
0.020662498 -0.044868246 0.66527212
0.025208602 -0.044555619 0.66427898
-0.013054143 -0.040349156 0.66599596
-0.0047419812 -0.041492313 0.66584563
-0.0311483 0.023507833 0.66462588
-0.0088440031 0.027120218 0.66507828
0.021193001 0.03120406 0.66486716
0.027015777 0.031714171 0.66453034
-0.03522674 0.025076345 0.66688561
0.041136879 0.035771623 0.66667753
0.041136879 0.035771623 0.66667753
0.040698364 -0.052240357 0.66939425
0.036827412 -0.050713882 0.66849869
0.024913339 -0.049827754 0.6694448
-0.017057898 0.030460536 0.66982013
-0.017057898 0.030460536 0.66982013
0.0084333792 0.032528758 0.66817212
0.012721287 0.033924729 0.66899651
0.015095737 0.033815563 0.6685257
0.048584901 -0.055350512 0.67121923
-0.011014989 -0.045283824 0.67048007
-0.052816764 -0.039305508 0.67101222
0.022634089 0.036704749 0.67043209
0.033334207 0.03950724 0.6717732
0.012994848 -0.050743997 0.67214233
-0.027252294 -0.044594646 0.67227292
-0.041006222 0.029822737 0.67274034
0.048888512 0.042081714 0.67214698
0.05328811 -0.060900658 0.67589712
0.029169822 -0.057071358 0.67583537
0.035179649 -0.056538701 0.67440653
-0.052979223 0.030273885 0.67500937
-0.042816751 0.031482935 0.67475659
0.040102385 0.042608798 0.67401826
-0.0070140613 -0.052282125 0.67667091
-0.0050862418 -0.052133948 0.6762346
-0.049528841 0.031749278 0.67604268
-0.0591189 0.032129854 0.67788029
-0.050123561 0.033415735 0.67788345
-0.037081402 0.034524083 0.67709267
0.032693628 0.044874385 0.67750984
0.048847571 0.047562122 0.67791277
0.040772513 -0.062130481 0.67898989
0.013000978 -0.058504343 0.67967939
0.00064530142 -0.055549145 0.67868268
-0.064500421 -0.04515028 0.67846149
-0.063299827 0.032295853 0.67868173
-0.029144084 0.037562802 0.67909634
-0.015018061 -0.054846227 0.68037534
-0.05537042 -0.050097018 0.6818819
-0.058932528 -0.048455596 0.68082786
-0.049252305 0.036774665 0.68128264
-0.034299131 0.039575905 0.6819849
0.00065274967 0.043118998 0.68046862
-0.031249473 0.041221961 0.68325752
0.05499763 0.053010359 0.68271649
-0.012835028 -0.060794264 0.68582189
-0.0053449245 -0.060130388 0.68404108
-0.067137584 0.03759706 0.68482816
-0.059188128 0.039010406 0.68512189
-0.024302172 0.044554025 0.6857177
-0.010743188 0.045658559 0.68484592
-0.059002396 -0.054254428 0.68647099
-0.053324312 0.042386025 0.68779022
-0.032756511 0.04504022 0.68749624
0.04368192 0.05596748 0.68752098
-0.0089584682 -0.064771488 0.68909717
-0.029041007 -0.062230706 0.68967509
-0.019337008 -0.063535839 0.68947107
-0.059025947 -0.056280524 0.68844283
-0.0466589 0.043914288 0.68839741
-0.016438643 0.047946066 0.68810368
-0.054514505 -0.060105711 0.69147408
-0.023088951 0.050374508 0.69165301
0.048754346 0.059898227 0.69089144
-0.026872 -0.066472799 0.69346666
-0.040774386 -0.063270569 0.69246459
-0.065247774 -0.06099245 0.69396329
-0.042492911 0.04957509 0.69372201
0.0070828372 0.056662709 0.69373846
-0.056978703 0.048431933 0.69469213
-0.024859557 0.05255878 0.69421422
-0.015640652 0.054031372 0.69437945
0.0085969372 0.058745742 0.69570071
0.02002163 0.060064942 0.69537401
-0.024602171 -0.070912093 0.69743454
-0.050519444 -0.066396952 0.69697905
-0.038839363 -0.067609251 0.69638538
-0.039055929 0.053521127 0.6973536
0.0071778065 0.058858067 0.69603127
0.044676874 0.064853549 0.69671071
-0.023279808 0.056744546 0.6983763
-0.0014522305 0.059541434 0.69804347
0.037141897 0.065545812 0.69856763
0.037141897 0.065545812 0.69856763
-0.052993856 0.05446592 0.70043606
-0.035469908 0.057638615 0.70114356
-0.017047752 0.060776368 0.70167911
-0.013275558 0.060477585 0.70079947
-0.058559906 0.057058424 0.70399511
-0.058559906 0.057058424 0.70399511
0.011161659 0.065486073 0.70239973
0.026978079 0.068944037 0.70366269
-0.051070951 -0.073602229 0.70406157
-0.027029352 0.061566919 0.70400655
-0.0015138377 0.066608906 0.7054801
0.04301703 0.072451025 0.70494395
0.04301703 0.072451025 0.70494395
-0.021452975 0.065891266 0.70771539
0.0007646454 0.068888456 0.70753413
0.030712973 0.073711127 0.70811296
0.030712973 0.073711127 0.70811296
-0.04517521 0.065426171 0.71078271
-0.04517521 0.065426171 0.71078271
0.023272814 0.074473053 0.71002889
0.023272814 0.074473053 0.71002889
-0.012646966 0.072720051 0.71357167
-0.012646966 0.072720051 0.71357167
0.0094856182 0.075884968 0.7135796
0.014139093 0.075408518 0.71238142
-0.017500143 0.073182464 0.71478498
-0.035298899 0.072202325 0.71642345
-0.0032160776 0.077185869 0.71685112
0.019297279 0.080405354 0.71685934
-0.03243731 0.074605852 0.71852016
-0.024434227 0.076560587 0.71937519
-0.024434227 0.076560587 0.71937519
-0.044463161 0.075752079 0.72152811
-0.0065587731 0.080344975 0.72067219
-0.033450913 0.080282241 0.72463781
-0.042284973 0.081187189 0.72691363
-0.037550163 0.083634496 0.72877574
-0.035761915 0.083444506 0.72830772
0.035705715 -0.0087086856 0.6278671
0.038065352 -0.0086764395 0.62747788
0.02246156 -0.013731014 0.63475406
0.037897326 -0.014661802 0.63331729
0.013830442 -0.00090694427 0.6322239
0.037934467 0.0031966399 0.63292295
0.013779679 -0.014671322 0.63698411
-0.034093738 -0.0023740884 0.6378668
0.018252678 0.0037687458 0.63647485
0.030026831 -0.022106841 0.64174259
-0.006353505 -0.015397541 0.64074296
0.02853388 0.012014449 0.64359927
0.02853388 0.012014449 0.64359927
-0.013821768 -0.020776851 0.64710069
0.0015308984 -0.021947691 0.64590967
0.0092823952 -0.022630235 0.64539713
-0.013644418 0.0070740134 0.64473045
-0.050319113 -0.018150175 0.65008432
-0.037626799 0.009333238 0.65070027
-0.0097130463 0.01324538 0.6506269
-0.0057374816 0.013775093 0.65058756
0.010146415 0.017091908 0.65169215
0.045760389 0.019613747 0.64900327
0.030238921 -0.036289386 0.6554867
0.010154777 -0.032938391 0.65527761
-0.018117715 0.016468853 0.65527457
0.017802 0.019422509 0.65299374
0.018025544 -0.037750341 0.65875798
-0.020458641 -0.03296113 0.65994239
0.0016746068 -0.034100499 0.65769243
-0.048822273 -0.028385013 0.65979886
-0.017970437 -0.030808199 0.65747386
-0.029559428 0.017666638 0.65824872
-0.018114869 0.018395323 0.6572988
0.050389063 0.029709583 0.65891957
0.046047971 -0.045622971 0.66215527
-0.0060701673 0.024856899 0.66228396
0.022290889 0.02743765 0.66074431
0.025605246 0.027312741 0.66011608
0.041761301 0.030323885 0.66085863
-0.013807972 -0.038775846 0.66458195
0.050038151 0.035322711 0.66487116
0.017857734 -0.049464375 0.67016184
0.022092678 -0.049829602 0.66987425
-0.031330027 -0.03976503 0.66820025
0.033849243 0.038134355 0.67025322
0.037729781 -0.0571074 0.67457217
0.037729781 -0.0571074 0.67457217
-0.014158025 -0.049075536 0.6746397
-0.038051292 -0.04528223 0.67457843
-0.038051292 -0.04528223 0.67457843
-0.05376095 -0.041887004 0.67366314
-0.05376095 -0.041887004 0.67366314
0.014568909 0.040541098 0.67567307
-0.064702936 0.032351524 0.67895043
-0.033909716 0.036499195 0.67869306
-0.017979044 0.037888601 0.67776489
0.006122537 0.041905373 0.67837298
0.037878767 -0.064561591 0.68179017
-0.0062394417 -0.057128079 0.68126047
-0.033934772 -0.053374443 0.68181455
-0.054107737 -0.050968964 0.68253744
-0.063872032 -0.046926379 0.68009144
-0.062050153 0.037363201 0.68381989
-0.042102404 0.038551286 0.68207783
0.0022090236 0.045514178 0.68275249
0.029349197 0.046959639 0.68020284
0.050360493 0.053363867 0.68378329
0.03390725 0.053584389 0.68648165
-0.041894414 -0.059063256 0.68854761
-0.014259319 -0.069860771 0.6948446
-0.0099438876 0.054697659 0.69422573
0.0017580655 0.054908358 0.692693
0.0060271146 0.05674316 0.69398129
-0.050046138 -0.068673432 0.69911861
-0.0087985033 0.060123116 0.69975591
0.037326701 0.063168287 0.69604105
0.0218687 0.066345215 0.70169735
-0.029789802 0.064161003 0.70714641
-0.0098809768 0.066126809 0.70622778
-0.041888095 0.065155946 0.710006
-0.038089484 0.066077851 0.71040535
-0.0023232817 0.070454285 0.70964265
0.033392169 0.076104939 0.71022689
-0.041671835 0.067617148 0.71256018
-0.020770058 0.073494077 0.71560276
-0.020770058 0.073494077 0.71560276
0.0015720753 0.07399106 0.71277571
0.010264465 0.075805277 0.7133792
-0.045337208 0.075835302 0.72174644
-0.053281609 0.076592356 0.72373307
-0.033797789 0.077485561 0.72175074
-0.038448282 0.083729729 0.7290104
