# .PCD v0.7 - Point Cloud Data file format
VERSION 0.7
FIELDS x y z
SIZE 4 4 4
TYPE F F F
COUNT 1 1 1
WIDTH 1353
HEIGHT 1
VIEWPOINT 0 0 0 1 0 0 0
POINTS 1353
DATA ascii
0.021669067 0.0090287924 0.63173068
0.021423843 0.0080339611 0.63049734
0.021184156 0.0070614219 0.62929177
0.020949723 0.0061103404 0.62811267
0.020720424 0.0051800907 0.62695938
0.020496134 0.0042700469 0.62583131
0.020276604 0.0033794641 0.62472713
0.02006177 0.0025077462 0.62364662
0.019851401 0.0016542971 0.62258857
0.019645436 0.00081858039 0.62155265
0.019443663 2.9802322e-08 0.62053776
0.019246031 -0.00080189109 0.61954373
0.019052336 -0.0015876591 0.61856961
0.018862501 -0.0023577809 0.61761475
0.01867645 -0.0031127334 0.61667901
0.018493997 -0.0038529038 0.61576134
0.018315112 -0.0045787692 0.61486161
0.018371955 -0.0053584576 0.61514747
0.018788327 -0.0062627494 0.61724168
0.019223968 -0.007209003 0.61943281
0.019680334 -0.008200109 0.62172812
0.020158896 -0.009239465 0.62413514
0.020661311 -0.010330647 0.62666208
0.02118941 -0.01147759 0.62931824
0.021745214 -0.012684673 0.6321137
0.022330958 -0.013956845 0.63505971
0.022949135 -0.01529941 0.63816893
0.02360251 -0.016718388 0.64145517
0.024294179 -0.018220633 0.644934
0.02502761 -0.019813478 0.64862287
0.025806706 -0.021505594 0.6525414
0.026635787 -0.023306251 0.65671134
0.02751999 -0.025226623 0.66115856
0.028464913 -0.027278841 0.6659112
0.029477032 -0.029477 0.67100167
0.030563781 -0.031837285 0.67646766
0.031733729 -0.034378201 0.68235207
0.032996811 -0.037121385 0.68870485
0.034364607 -0.040092021 0.6955843
0.035850704 -0.043319553 0.70305878
0.037471142 -0.046838909 0.71120906
0.039245006 -0.050691456 0.7201308
0.041195158 -0.054926842 0.72993934
0.043349259 -0.059605211 0.74077368
0.045740839 -0.064799488 0.75280237
0.04245884 0.084917694 0.72775316
0.041564107 0.081465662 0.7234329
0.040706124 0.078155786 0.71929026
0.039883021 0.07498011 0.71531594
0.039092381 0.071930021 0.71149838
0.038332481 0.068998486 0.7078293
0.037601706 0.066179007 0.70430082
0.036898129 0.06346482 0.70090365
0.036220543 0.060850501 0.69763196
0.035567254 0.058330327 0.69447756
0.034937248 0.05589962 0.69143569
0.034329042 0.053553313 0.68849897
0.033741653 0.051287323 0.68566281
0.033174142 0.049097747 0.6829226
0.032625295 0.046980441 0.68027258
0.032094419 0.044932216 0.67770928
0.031580441 0.042949408 0.67522758
0.031082764 0.041029304 0.67282456
0.030600432 0.039168596 0.67049563
0.030132938 0.037364841 0.6682384
0.029679419 0.035615325 0.66604865
0.029239351 0.033917665 0.6639238
0.028812226 0.032269716 0.66186142
0.028397318 0.030669153 0.65985811
0.027994273 0.029114068 0.65791202
0.027602427 0.027602434 0.65601999
0.027221479 0.026132643 0.65418059
0.026850825 0.024702787 0.65239096
0.026490204 0.023311406 0.65064973
0.026139071 0.021956831 0.64895427
0.025797121 0.020637721 0.64730322
0.025464075 0.019352734 0.64569515
0.025139449 0.018100441 0.64412773
0.024823062 0.016879678 0.64260006
0.024514476 0.015689254 0.64111006
0.02421353 0.014528185 0.63965696
0.023919823 0.013395131 0.63823885
0.023633214 0.012289286 0.63685501
0.023353336 0.011209667 0.63550353
0.02308001 0.010155201 0.63418388
0.022813059 0.0091252923 0.63289487
0.022552161 0.0081188083 0.63163519
0.022297218 0.0071351528 0.63040417
0.02204792 0.0061734617 0.62920046
0.021804187 0.0052330196 0.62802362
0.021565733 0.0043132007 0.6268723
0.021332487 0.0034132302 0.62574607
0.021104187 0.0025325418 0.62464374
0.020880722 0.0016704798 0.62356478
0.020661982 0.00082650781 0.62250859
0.020447735 -0 0.62147409
0.020237928 -0.00080949068 0.62046111
0.020032341 -0.0016025603 0.61946839
0.019830929 -0.0023796558 0.61849588
0.019633489 -0.0031413436 0.61754262
0.019439979 -0.0038879812 0.61660826
0.019250209 -0.0046200156 0.61569196
0.01935379 -0.0054190457 0.6161921
0.019797487 -0.0063351691 0.61833441
0.020262003 -0.0072942972 0.62057734
0.020748844 -0.0082995296 0.62292802
0.021259654 -0.0093542337 0.6253944
0.021796251 -0.010462195 0.6279853
0.022360634 -0.011627525 0.63071042
0.022954971 -0.012854785 0.63358009
0.023581818 -0.01414907 0.63660675
0.024243865 -0.015516043 0.63980347
0.02494416 -0.016962022 0.64318478
0.025686113 -0.01849398 0.64676726
0.026473558 -0.020119876 0.65056932
0.027310809 -0.021848619 0.65461195
0.02820275 -0.023690283 0.65891862
0.029154915 -0.025656313 0.6635161
0.03017362 -0.027759701 0.66843486
0.031266093 -0.030015409 0.67370975
0.032440647 -0.032440633 0.67938101
0.033706773 -0.035055041 0.68549442
0.035075869 -0.037881911 0.69210505
0.036560901 -0.040948182 0.69927531
0.038177229 -0.044285566 0.70707965
0.039943088 -0.047931641 0.71560597
0.041880224 -0.051931441 0.72495931
0.04401483 -0.056338996 0.73526615
0.046378721 -0.061219871 0.74667996
0.045053098 0.086640626 0.73191255
0.044084646 0.083082646 0.72741634
0.043156959 0.079674393 0.7231093
0.042267688 0.076406956 0.71898067
0.041414153 0.073271185 0.71501791
0.04059457 0.070259899 0.71121287
0.039806638 0.06736511 0.70755476
0.039048869 0.064580828 0.70403659
0.03831926 0.061900347 0.7006492
0.037616413 0.059318185 0.69738615
0.036939025 0.056829274 0.69424117
0.036285467 0.05442822 0.69120687
0.035654768 0.052110821 0.68827873
0.03504549 0.049872458 0.68545002
0.034456804 0.047709435 0.68271697
0.033887457 0.045617759 0.68007362
0.033336729 0.043594211 0.67751676
0.032803506 0.041635245 0.67504114
0.032287072 0.03973797 0.67264354
0.031786751 0.037899613 0.67032063
0.031301599 0.036117256 0.66806823
0.030831132 0.034388602 0.66588396
0.030374503 0.032711029 0.663764
0.029931294 0.031082541 0.66170621
0.029500743 0.029500782 0.65970731
0.02908249 0.027963966 0.65776551
0.028675847 0.026470035 0.65587759
0.02828042 0.025017351 0.65404171
0.027895829 0.023604184 0.65225613
0.02752148 0.022228897 0.65051818
0.02715712 0.020890117 0.64882654
0.02680221 0.019586235 0.64717883
0.026456526 0.01831609 0.64557385
0.026119579 0.017078221 0.64400959
0.025791172 0.015871495 0.6424849
0.025470855 0.01469475 0.64099765
0.025158396 0.013546854 0.63954705
0.024853574 0.012426823 0.63813186
0.02455599 0.011333555 0.63675022
0.024265505 0.010266215 0.63540161
0.023981756 0.009223789 0.63408422
0.023704622 0.0082054734 0.6327976
0.023433765 0.0072104037 0.63154006
0.023169084 0.0062378645 0.63031125
0.02291026 0.0052869916 0.62910962
0.022657156 0.0043571591 0.62793452
0.022409633 0.0034476519 0.62678528
0.022167409 0.0025577843 0.62566078
0.021930417 0.0016869605 0.62456048
0.021698389 0.00083458424 0.62348318
0.021471266 2.9802322e-08 0.62242877
0.021248804 -0.00081723928 0.62139595
0.021030905 -0.0016177595 0.62038428
0.020817472 -0.0024019778 0.61939335
0.020608284 -0.0031704903 0.61842215
0.020403301 -0.0039237142 0.6174705
0.020202314 -0.0046620667 0.61653733
0.02035808 -0.0054810047 0.61726052
0.020830261 -0.0064092577 0.61945271
0.021324862 -0.0073816478 0.62174904
0.021843527 -0.0084013343 0.62415701
0.022388047 -0.0094718337 0.62668514
0.02296041 -0.01059711 0.62934244
0.023562808 -0.011781365 0.63213921
0.024197666 -0.013029516 0.63508666
0.024867682 -0.014346719 0.6381973
0.025575858 -0.015738964 0.64148521
0.026325552 -0.017212838 0.64496583
0.027120523 -0.018775702 0.64865667
0.027964924 -0.020435899 0.65257698
0.02886368 -0.02220279 0.65674961
0.029822122 -0.024087071 0.66119945
0.030846404 -0.026100755 0.66595483
0.031943548 -0.028257728 0.67104864
0.033121616 -0.030573756 0.67651802
0.034389909 -0.033067226 0.68240637
0.035759196 -0.035759181 0.68876356
0.037242047 -0.038674384 0.69564801
0.038853198 -0.041841924 0.70312816
0.040610053 -0.045295805 0.71128476
0.042533316 -0.049076885 0.72021395
0.044647608 -0.053233653 0.73002994
0.046983309 -0.057825595 0.74087393
0.049576886 -0.062924474 0.7529152
0.046707276 0.084765047 0.73156106
0.045705125 0.081253558 0.72708058
0.044744875 0.077889264 0.72278762
0.043824337 0.074663728 0.71867204
0.042940728 0.071567893 0.71472168
0.042092048 0.068594456 0.71092743
0.041276433 0.065736592 0.70728099
0.040491663 0.062987059 0.70377243
0.039736331 0.060340375 0.70039552
0.039008513 0.057790458 0.69714165
0.038307022 0.055332422 0.69400543
0.037630178 0.052960992 0.69097942
0.036976837 0.050671995 0.6880585
0.036345925 0.048461288 0.68523777
0.035736054 0.046324551 0.68251121
0.035146434 0.044258475 0.6798752
0.034575839 0.042259395 0.67732418
0.034023587 0.040324301 0.67485523
0.03348859 0.038449883 0.6724633
0.032970261 0.03663367 0.67014599
0.032467633 0.034872681 0.66789889
0.031980101 0.033164591 0.66571927
0.031507086 0.031507134 0.6636045
0.031047769 0.029897869 0.66155106
0.030601744 0.028334975 0.65955693
0.030168261 0.026816219 0.65761894
0.029746976 0.025340021 0.65573543
0.029337209 0.023904413 0.65390348
0.02893866 0.022507876 0.65212166
0.028550716 0.021148711 0.65038729
0.028173035 0.019825488 0.64869875
0.027805291 0.018536896 0.64705461
0.02744695 0.017281443 0.64545262
0.027097799 0.016057968 0.64389163
0.02675735 0.01486522 0.64236957
0.026425419 0.013702095 0.64088553
0.026101554 0.012567461 0.63943762
0.025785597 0.011460304 0.63802505
0.025477136 0.010379583 0.63664603
0.025175966 0.0093244612 0.63529956
0.024881896 0.0082940161 0.6339848
0.024594553 0.0072872937 0.6327002
0.02431383 0.0063035786 0.63144517
0.02403939 0.0053420961 0.63021815
0.02377113 0.0044020712 0.62901884
0.023508733 0.0034828186 0.6278457
0.023252122 0.0025835931 0.62669849
0.023001 0.0017037988 0.62557578
0.022755247 0.00084280968 0.62447709
0.022514738 -0 0.62340182
0.02227921 -0.0008251369 0.62234885
0.022048607 -0.0016331971 0.62131786
0.02182268 -0.0024247468 0.6203078
0.021601385 -0.0032001734 0.61931843
0.021384487 -0.003960073 0.61834878
0.021171944 -0.0047048628 0.6173985
0.021385644 -0.0055444241 0.61835396
0.02188753 -0.0064851642 0.62059772
0.022413539 -0.0074711442 0.62294942
0.022965454 -0.0085056722 0.62541687
0.023545178 -0.0095924437 0.62800866
0.024154989 -0.010735512 0.63073498
0.024797225 -0.011939347 0.63360631
0.025474546 -0.013209015 0.63663441
0.02618991 -0.014549911 0.63983262
0.02694661 -0.015968323 0.64321572
0.027748339 -0.017471135 0.64679998
0.028599234 -0.019066125 0.65060419
0.029503969 -0.020762056 0.65464908
0.030467814 -0.022568733 0.6589582
0.031496763 -0.024497449 0.66355836
0.032597635 -0.026561022 0.6684801
0.03377825 -0.028774053 0.67375839
0.035047483 -0.031153291 0.67943281
0.036415949 -0.033718437 0.68555087
0.037895624 -0.03649205 0.69216615
0.039500635 -0.039500624 0.69934183
0.041247621 -0.042775303 0.70715219
0.043156281 -0.046353012 0.71568537
0.045250151 -0.050277919 0.72504652
0.047557566 -0.0546031 0.73536247
0.05011294 -0.059393078 0.74678689
0.049438544 0.086517453 0.73587799
0.048356123 0.082896233 0.73121154
0.047320083 0.079430163 0.72674507
0.046327703 0.076109856 0.72246689
0.045375902 0.072925568 0.71836358
0.04446261 0.069869846 0.71442628
0.043585174 0.066934437 0.71064359
0.042741876 0.064112842 0.707008
0.041930426 0.061398178 0.70350981
0.041149206 0.058784604 0.70014185
0.04039672 0.056266904 0.6968978
0.039671119 0.053839386 0.69376969
0.03897126 0.051497757 0.69075251
0.038295534 0.049237132 0.68783945
0.037642971 0.047053754 0.68502611
0.037012145 0.044943362 0.68230653
0.03640224 0.042902648 0.67967725
0.035811987 0.040928006 0.67713261
0.035240576 0.039016396 0.67466915
0.034687221 0.037164927 0.67228365
0.034150869 0.035370588 0.66997135
0.033630956 0.033630967 0.66772997
0.033126529 0.03194347 0.66555536
0.032637116 0.030305892 0.66344541
0.032161854 0.028715938 0.66139656
0.031700328 0.027171731 0.65940684
0.03125177 0.025671154 0.65747309
0.03081573 0.02421239 0.65559328
0.030391775 0.022793829 0.65376556
0.029979246 0.021413773 0.65198708
0.029577844 0.020070702 0.65025663
0.029186971 0.018763065 0.64857155
0.028806372 0.017489642 0.64693075
0.028435497 0.016248882 0.64533186
0.028074121 0.015039742 0.64377391
0.027721744 0.013860911 0.64225483
0.027378106 0.012711287 0.64077336
0.02704295 0.011589855 0.63932842
0.026715832 0.010495514 0.63791823
0.026396599 0.0094273686 0.63654196
0.026084844 0.0083844364 0.635198
0.025780424 0.0073658526 0.63388556
0.025482971 0.006370753 0.63260323
0.025192304 0.0053983629 0.6313501
0.024908248 0.0044479072 0.63012552
0.02463047 0.003518641 0.62892807
0.024358878 0.0026098788 0.62775713
0.024093153 0.0017209649 0.62661159
0.023833217 0.00085121393 0.62549102
0.023578778 -0 0.62439412
0.023329765 -0.00083318353 0.62332058
0.023085907 -0.0016489625 0.62226927
0.022847096 -0.0024478734 0.62123972
0.02261322 -0.0032304227 0.62023145
0.022384036 -0.0039971471 0.61924344
0.0221595 -0.0047484338 0.6182754
0.022437213 -0.0056092739 0.61947268
0.022970084 -0.0065628588 0.62176996
0.023528883 -0.0075628459 0.62417901
0.024115548 -0.0086126626 0.62670815
0.024732217 -0.0097162127 0.62936664
0.02538125 -0.010877669 0.63216472
0.026065268 -0.01210168 0.63511354
0.026787173 -0.013393581 0.63822579
0.027550206 -0.014759004 0.64151531
0.028357908 -0.016204506 0.64499736
0.029214479 -0.017737329 0.6486901
0.030124409 -0.019365668 0.65261292
0.031092845 -0.021098703 0.65678793
0.032125615 -0.022946864 0.66124028
0.033229347 -0.024922013 0.66599864
0.034411624 -0.02703768 0.67109549
0.035681132 -0.029309481 0.67656845
0.037047897 -0.031755328 0.68246073
0.038523536 -0.034396023 0.68882239
0.040121607 -0.037255734 0.69571179
0.041858003 -0.040363044 0.70319754
0.043751311 -0.043751299 0.71135974
0.045824207 -0.047460765 0.72029626
0.048103295 -0.051539212 0.73012161
0.050620951 -0.056044608 0.7409755
0.051116519 0.084606677 0.73551303
0.049999457 0.081033617 0.73086333
0.04892996 0.077613086 0.72641158
0.047905464 0.074336082 0.72214723
0.046922788 0.071193248 0.71805686
0.045979623 0.068176687 0.714131
0.045073807 0.065279335 0.71036065
0.044202816 0.062493622 0.70673513
0.043365017 0.059813857 0.70324785
0.042558223 0.057233483 0.69988966
0.041781057 0.054747641 0.69665474
0.041031614 0.0523507 0.69353521
0.040308584 0.050038308 0.69052565
0.039610736 0.047806054 0.68762094
0.038936503 0.045649707 0.68481445
0.038284972 0.043565661 0.6821025
0.037654757 0.0415501 0.6794793
0.03704508 0.039599925 0.67694151
0.036454707 0.037711799 0.67448413
0.03588298 0.035883009 0.67210436
0.035328791 0.034110576 0.6697976
0.034791458 0.032392055 0.66756099
0.034270335 0.030725151 0.6653918
0.033764489 0.029107332 0.66328627
0.033273458 0.02753669 0.66124243
0.032796409 0.02601096 0.6592567
0.032332938 0.024528444 0.65732753
0.031882294 0.023087174 0.65545177
0.031444129 0.02168563 0.65362787
0.031017752 0.020321995 0.65185314
0.030602789 0.018994868 0.65012586
0.030198861 0.017702818 0.64844459
0.029805381 0.016444355 0.64680672
0.029422099 0.015218347 0.64521134
0.029048471 0.014023393 0.64365613
0.02868429 0.01285851 0.64214027
0.028329054 0.011722386 0.64066166
0.027982581 0.010614097 0.63921946
0.027644413 0.0095325708 0.63781184
0.027314316 0.0084768832 0.63643783
0.026992077 0.0074460804 0.63509655
0.026677292 0.006439358 0.63378626
0.026369823 0.0054558218 0.63250643
0.026069302 0.0044947267 0.63125557
0.025775611 0.0035552979 0.63003302
0.025488406 0.0026367307 0.62883759
0.02520759 0.0017384887 0.62766868
0.024932835 0.0008597672 0.62652504
0.024664007 2.9802322e-08 0.62540609
0.024400968 -0.00084137917 0.62431121
0.024143428 -0.0016650259 0.62323922
0.023891319 -0.0024715066 0.62218982
0.023644369 -0.0032612979 0.62116188
0.023402521 -0.0040349066 0.62015522
0.023165524 -0.0047928691 0.61916876
0.023513734 -0.0056757033 0.62061816
0.024078945 -0.0066424608 0.62297082
0.024671942 -0.0076567829 0.62543911
0.025294941 -0.0087223649 0.62803233
0.025950221 -0.0098431408 0.63075984
0.026640354 -0.011023581 0.63363248
0.027368197 -0.012268454 0.63666213
0.028136926 -0.013583332 0.63986194
0.02895009 -0.014974177 0.64324665
0.029811656 -0.016447783 0.64683282
0.030726071 -0.018011808 0.65063906
0.031698361 -0.019674838 0.65468615
0.032734193 -0.021446556 0.65899777
0.033840012 -0.02333793 0.66360068
0.035023045 -0.025361508 0.66852498
0.036291912 -0.027531773 0.67380655
0.037656169 -0.029865205 0.67948514
0.039127007 -0.032380968 0.68560737
0.040717416 -0.035101175 0.69222736
0.04244259 -0.038051933 0.69940829
0.044320423 -0.041263819 0.70722473
0.046372112 -0.044773072 0.71576476
0.048622981 -0.048622906 0.72513384
0.05110351 -0.052865714 0.73545885
0.053850729 -0.057564557 0.746894
0.053993486 0.086389601 0.73999667
0.052788999 0.082702786 0.73515022
0.051637083 0.079176873 0.73051524
0.050534584 0.075801909 0.72607917
0.049477965 0.072567731 0.72182763
0.048464838 0.069466293 0.71775115
0.047492165 0.066489041 0.71383744
0.046557959 0.06362924 0.71007848
0.045659617 0.060879469 0.70646381
0.044795457 0.058234125 0.70298672
0.043963231 0.055686802 0.69963807
0.043161366 0.053232402 0.69641161
0.042388387 0.050866097 0.69330144
0.041642454 0.048582882 0.69029999
0.040922463 0.046378821 0.68740302
0.040226806 0.044249505 0.68460387
0.039554548 0.042191535 0.68189889
0.038904253 0.040201038 0.67928231
0.038274992 0.038275033 0.67675036
0.037665889 0.036410362 0.67429954
0.037075751 0.034604043 0.67192501
0.036503933 0.032853574 0.66962415
0.035949375 0.031156152 0.66739285
0.035411522 0.029509634 0.66522866
0.034889419 0.027911574 0.6631279
0.034382597 0.026360035 0.66108859
0.033890184 0.024852842 0.65910721
0.033411674 0.023388207 0.65718192
0.032946587 0.021964401 0.65531051
0.032494176 0.020579696 0.65349019
0.032054111 0.019232512 0.65171945
0.031625718 0.017921239 0.6499958
0.031208713 0.016644686 0.64831787
0.030802475 0.015401244 0.64668328
0.03040668 0.01418981 0.64509076
0.030021004 0.013009131 0.64353889
0.029644916 0.011858016 0.64202559
0.029278206 0.010735393 0.64055014
0.028920386 0.0096401274 0.63911033
0.028571278 0.0085714161 0.63770562
0.028230427 0.007528156 0.63633418
0.027897682 0.0065095127 0.63499534
0.027572623 0.0055145621 0.63368732
0.027255049 0.0045424998 0.63240957
0.026944773 0.0035926998 0.63116109
0.026641421 0.0026641786 0.62994051
0.026344882 0.0017563403 0.62874734
0.026054813 0.00086852908 0.62758017
0.025771121 2.9802322e-08 0.62643868
0.025493482 -0.00084975362 0.62532151
0.025221819 -0.001681447 0.62422848
0.024955828 -0.0024955571 0.62315822
0.024695389 -0.0032926798 0.62211025
0.024440382 -0.0040733516 0.62108421
0.024190538 -0.0048380792 0.62007892
0.024616001 -0.0057436824 0.62179083
0.025214972 -0.0067239702 0.62420094
0.025843816 -0.007753104 0.62673116
0.026504828 -0.0088348985 0.6293909
0.027200542 -0.009973526 0.63219023
0.027933763 -0.011173487 0.63514048
0.02870761 -0.012439936 0.63825417
0.029525477 -0.013778538 0.64154506
0.030391393 -0.015195668 0.64502925
0.031309634 -0.01669845 0.64872396
0.032285091 -0.018294871 0.65264887
0.033323284 -0.019993961 0.65682626
0.034430467 -0.021805942 0.66128117
0.035613749 -0.023742467 0.66604233
0.036881261 -0.025816858 0.67114246
0.038242325 -0.028044343 0.67661893
0.039707694 -0.030442536 0.68251514
0.041289836 -0.033031851 0.68888116
0.043003295 -0.035836041 0.69577563
0.044864941 -0.038882941 0.70326626
0.046895262 -0.042205721 0.71143568
0.049118049 -0.045843482 0.72037947
0.051562037 -0.049843282 0.73021334
0.054261979 -0.054261982 0.74107707
0.05569588 0.084442168 0.73961747
0.054455787 0.080805391 0.73478872
0.053269472 0.077326685 0.7301693
0.052133977 0.073996603 0.72574782
0.05104566 0.070805311 0.72150999
0.050001848 0.067744464 0.71744555
0.049000077 0.064806581 0.71354479
0.048037458 0.061983854 0.70979643
0.047112126 0.059270114 0.70619327
0.046221584 0.056658715 0.70272559
0.045364261 0.054144472 0.69938731
0.044537995 0.051721573 0.69616991
0.04374145 0.049385518 0.69306821
0.042972736 0.047131419 0.69007492
0.042230576 0.044955194 0.68718505
0.041513767 0.042852968 0.68439388
0.04082074 0.040820748 0.68169534
0.040150613 0.038855433 0.67908585
0.039501995 0.036953479 0.67656022
0.038874127 0.035112113 0.67411542
0.038265787 0.033328265 0.67174655
0.037676193 0.031599432 0.66945076
0.037104607 0.029923081 0.66722512
0.036549993 0.028296798 0.66506541
0.036011823 0.026718497 0.66296983
0.035489164 0.025185883 0.66093469
0.034981564 0.023697197 0.6589582
0.034488179 0.022250444 0.65703696
0.034008615 0.020844012 0.65516961
0.033542112 0.019476056 0.6533531
0.033088233 0.018145174 0.6515857
0.032646563 0.016849846 0.64986593
0.032216441 0.015588641 0.64819103
0.031797592 0.014360189 0.64656007
0.031389408 0.013163298 0.64497072
0.030991657 0.011996776 0.64342189
0.030603776 0.0108594 0.64191157
0.030225564 0.009750247 0.6404388
0.02985651 0.0086680651 0.63900173
0.029496361 0.0076119602 0.63759941
0.029144866 0.0065811574 0.63623071
0.028801583 0.0055745244 0.63489401
0.028466359 0.0045913756 0.63358861
0.028138779 0.0036308467 0.63231307
0.027818723 0.002692163 0.63106686
0.027505798 0.0017745793 0.62984836
0.0271999 0.00087743998 0.62865722
0.02690067 2.9802322e-08 0.62749201
0.026607951 -0.00085830688 0.62635219
0.026321592 -0.0016981363 0.62523717
0.026041275 -0.0025200844 0.62414563
0.02576692 -0.0033247471 0.62307733
0.025498232 -0.0041126013 0.62203109
0.025235143 -0.0048841834 0.62100661
0.025745006 -0.0058133602 0.62299204
0.02637923 -0.0068075061 0.62546158
0.02704549 -0.0078519285 0.62805599
0.027746281 -0.0089503825 0.63078475
0.028484352 -0.010107309 0.63365871
0.029262764 -0.011327505 0.63668978
0.030084917 -0.012616247 0.63989115
0.030954601 -0.013979495 0.64327759
0.031876061 -0.015423864 0.64686573
0.032854069 -0.016956896 0.65067393
0.033893988 -0.018586993 0.65472323
0.035001893 -0.020323664 0.65903729
0.036184564 -0.022177607 0.66364253
0.037450068 -0.024161339 0.66857028
0.038807299 -0.026288748 0.67385519
0.040266603 -0.028576285 0.67953753
0.041839946 -0.031042516 0.685664
0.043541241 -0.033709317 0.69228864
0.045386758 -0.036602199 0.69947487
0.047395643 -0.039751172 0.70729727
0.049590595 -0.043191791 0.71584415
0.051998727 -0.046966583 0.72522116
0.054652672 -0.051126689 0.73555535
0.057592098 -0.055734277 0.74700117
0.058727939 0.086256713 0.74427772
0.057392608 0.082501918 0.73924059
0.056116652 0.078914076 0.73442739
0.054896444 0.075482607 0.72982454
0.053727932 0.07219696 0.72541666
0.05260836 0.069048494 0.72119343
0.051534269 0.066028297 0.71714175
0.050503373 0.063129246 0.71325296
0.049512714 0.060343623 0.70951605
0.048560362 0.057665467 0.70592356
0.04764377 0.055088103 0.70246601
0.046761137 0.052606285 0.6991365
0.045910791 0.050214946 0.69592881
0.045090646 0.047908843 0.69283503
0.044299453 0.045683831 0.68985045
0.043535393 0.043535441 0.68696827
0.042797387 0.041459978 0.68418443
0.042083845 0.039453626 0.68149269
0.041393701 0.037513047 0.67888939
0.040725969 0.035635233 0.67637056
0.040079303 0.033816904 0.67393124
0.039452981 0.032055587 0.67156857
0.038845807 0.030348301 0.6692782
0.038257159 0.028692901 0.66705769
0.037685972 0.027086824 0.6649031
0.037131697 0.025528044 0.66281223
0.036593385 0.024014443 0.66078162
0.036070459 0.022544056 0.65880901
0.035562366 0.021115154 0.65689242
0.035068292 0.019725949 0.65502858
0.034587856 0.01837483 0.6532163
0.034120306 0.01706019 0.6514526
0.033665325 0.015780628 0.64973629
0.033222228 0.014534742 0.64806485
0.032790732 0.013321221 0.64643723
0.032370213 0.012138844 0.64485091
0.031960342 0.010986388 0.64330482
0.031560805 0.0098627806 0.64179766
0.031171056 0.0087668896 0.64032745
0.030790888 0.0076977313 0.63889337
0.03041981 0.0066543221 0.63749361
0.030057643 0.0056358576 0.63612741
0.029703924 0.0046412647 0.63479316
0.029358506 0.003669858 0.63349009
0.02902096 0.0027207136 0.63221681
0.028691087 0.0017932057 0.6309725
0.028368693 0.00088655949 0.62975633
0.028053401 -0 0.62856698
0.027745105 -0.00086700916 0.62740403
0.027443446 -0.0017151833 0.62626612
0.02714834 -0.0025451183 0.62515289
0.026859453 -0.0033574402 0.62406319
0.026576707 -0.0041526258 0.62299657
0.026299795 -0.0049312115 0.62195206
0.026901789 -0.0058847368 0.62422287
0.027572848 -0.0068931878 0.62675422
0.028278247 -0.0079532266 0.62941515
0.029020682 -0.0090689361 0.6322158
0.029803084 -0.010244817 0.63516718
0.030628916 -0.011485815 0.63828242
0.031501822 -0.012797594 0.64157516
0.032425936 -0.014186323 0.64506114
0.033405915 -0.015659004 0.64875782
0.03444697 -0.017223448 0.65268481
0.035555001 -0.018888563 0.65686458
0.036736678 -0.020664394 0.66132218
0.037999608 -0.022562265 0.6660862
0.039352462 -0.024595261 0.67118937
0.040805198 -0.02677843 0.67666942
0.042369302 -0.029128879 0.68256956
0.044058096 -0.031666726 0.68894005
0.045886934 -0.034415185 0.69583881
0.047874361 -0.037401825 0.70333576
0.050041739 -0.040658891 0.71151161
0.052414671 -0.044224888 0.7204628
0.055023845 -0.04814586 0.73030519
0.057906397 -0.052477628 0.74117875
0.060455389 0.084271193 0.74388343
0.059083451 0.080568373 0.73886502
0.057772133 0.077029556 0.73406833
0.056518011 0.073644698 0.72948086
0.05531694 0.070403397 0.72508752
0.054165851 0.067296982 0.72087693
0.053061917 0.064317495 0.7168389
0.052001871 0.0614568 0.71296132
0.050983548 0.05870837 0.70923638
0.050004151 0.056065291 0.70565385
0.049061865 0.05352205 0.70220703
0.048154242 0.051072687 0.69888711
0.047279775 0.048712522 0.69568837
0.046436328 0.046436369 0.69260311
0.045622449 0.044239968 0.68962604
0.044836763 0.042119443 0.68675208
0.044077534 0.040070504 0.68397486
0.04334373 0.038089991 0.68129075
0.042633817 0.036174148 0.67869395
0.041946929 0.034320265 0.67618132
0.041281682 0.032525003 0.67374796
0.04063734 0.030785888 0.67139101
0.040012673 0.02910015 0.66910607
0.039406925 0.027465463 0.66689026
0.038819361 0.025879592 0.66474098
0.038248945 0.024340242 0.66265452
0.037695162 0.022845566 0.6606288
0.037157077 0.021393508 0.65866053
0.036634244 0.019982368 0.65674806
0.036125813 0.018610299 0.65488827
0.035631407 0.01727587 0.65307981
0.035150252 0.015977442 0.6513198
0.034681916 0.014713556 0.6496067
0.034225993 0.013483018 0.64793891
0.033781808 0.012284338 0.64631414
0.033349093 0.011116385 0.64473134
0.032927237 0.0099779963 0.64318824
0.032516006 0.0088680387 0.64168394
0.032114837 0.0077854395 0.64021653
0.031723525 0.0067292452 0.63878518
0.03134156 0.0056984723 0.63738799
0.030968681 0.0046922565 0.636024
0.030604646 0.0037096739 0.63469243
0.030248996 0.0027499199 0.6333915
0.029901588 0.0018122494 0.63212073
0.029562002 0.00089582801 0.63087851
0.029230107 2.9802322e-08 0.62966454
0.028905516 -0.00087592006 0.62847722
0.028588057 -0.0017325878 0.62731588
0.028277557 -0.0025706589 0.62618017
0.027973669 -0.0033907294 0.62506855
0.027676301 -0.0041933656 0.62398082
0.027411833 -0.0049839318 0.62301344
0.028087266 -0.0059578717 0.62548405
0.028796826 -0.0069810152 0.62807959
0.029543167 -0.0080571771 0.63080966
0.030329226 -0.0091906488 0.63368493
0.031158254 -0.01038605 0.63671744
0.032033879 -0.011648655 0.63992041
0.032960139 -0.012984306 0.64330864
0.033941563 -0.014399439 0.64689857
0.034983229 -0.015901476 0.65070885
0.03609075 -0.017498523 0.65476
0.037270799 -0.019200116 0.65907651
0.038530625 -0.021016687 0.66368484
0.039878596 -0.022960365 0.66861558
0.041324303 -0.025045037 0.67390388
0.042878781 -0.02728647 0.67958999
0.044554774 -0.02970317 0.68572056
0.046367113 -0.032316476 0.69234997
0.048333142 -0.035151333 0.69954145
0.050473288 -0.038237333 0.70736992
0.052811734 -0.041609228 0.71592367
0.055377387 -0.045308769 0.72530866
0.058204789 -0.049385875 0.73565102
0.060768154 0.078641146 0.73848975
0.059422001 0.075151354 0.73371047
0.058133945 0.07181254 0.72913742
0.056900788 0.068615705 0.72475934
0.055718623 0.065551341 0.72056234
0.054584809 0.062611997 0.716537
0.053496003 0.059789658 0.71267134
0.05244999 0.057077974 0.70895767
0.051443897 0.054470032 0.70538574
0.050475676 0.051960289 0.70194817
0.049543414 0.04954344 0.69863838
0.048644785 0.047214091 0.69544798
0.047778349 0.04496783 0.69237185
0.046942066 0.042800128 0.68940276
0.046134721 0.040707111 0.68653649
0.045354515 0.038684756 0.68376648
0.044600263 0.036729664 0.68108869
0.043870836 0.034838617 0.67849898
0.043164741 0.033008367 0.67599207
0.04248115 0.031236142 0.67356515
0.041818742 0.029519141 0.67121339
0.041176803 0.027854919 0.66893429
0.040554151 0.026240915 0.66672367
0.03995017 0.024675101 0.66457939
0.039363794 0.023155212 0.66249752
0.038794383 0.021679223 0.66047597
0.038241323 0.020245403 0.65851247
0.037703708 0.018851876 0.65660369
0.037181098 0.017497003 0.65474826
0.036672674 0.016179174 0.65294319
0.036178071 0.01489687 0.65118724
0.035696536 0.013648719 0.6494776
0.035227742 0.01243335 0.64781326
0.03477101 0.011249483 0.64619172
0.034325968 0.010095924 0.64461166
0.033892266 0.0089714825 0.64307189
0.033469301 0.0078751743 0.64157027
0.033056844 0.0068058372 0.64010584
0.032654349 0.0057625771 0.63867688
0.032261617 0.0047443509 0.63728261
0.03187814 0.0037503839 0.63592112
0.031503748 0.0027797818 0.63459188
0.031137977 0.0018316507 0.63329333
0.0307806 0.00090533495 0.63202453
0.030431405 -0 0.63078481
0.030089974 -0.00088497996 0.62957257
0.029756187 -0.00175035 0.62838751
0.029429657 -0.0025966763 0.62722826
0.029110285 -0.0034247041 0.62609434
0.028797701 -0.0042349398 0.62498462
0.028589334 -0.0050451756 0.62424481
0.029302649 -0.0060328543 0.62677729
0.03005247 -0.0070711374 0.62943935
0.0308416 -0.008163929 0.63224107
0.031673368 -0.0093156695 0.63519412
0.03255124 -0.010531276 0.63831085
0.033479165 -0.011816144 0.64160526
0.034461547 -0.013176441 0.64509302
0.035503324 -0.014619023 0.64879167
0.036610048 -0.016151458 0.65272087
0.037787989 -0.017782569 0.65690291
0.039044257 -0.019522101 0.66136312
0.040386923 -0.021381259 0.66612995
0.041825224 -0.023372918 0.6712364
0.043369751 -0.025511593 0.67671996
0.045032572 -0.027814239 0.68262351
0.046828151 -0.030300528 0.68899834
0.048772864 -0.032993406 0.69590271
0.050886098 -0.035919577 0.70340538
0.053190757 -0.039110839 0.71158761
0.055714071 -0.042604834 0.72054613
0.058488715 -0.04644689 0.73039705
0.061554208 -0.050691664 0.7412805
0.062447306 0.076721013 0.73811674
0.0610663 0.07327956 0.73335385
0.059744786 0.06998679 0.72879606
0.058479257 0.066833436 0.72443146
0.057266474 0.063811243 0.72024876
0.056102742 0.060911596 0.7162351
0.054985587 0.058127642 0.7123822
0.053911835 0.055452228 0.70867896
0.052879427 0.052879483 0.7051183
0.051885616 0.050403178 0.70169085
0.050928667 0.048018456 0.69839036
0.050006188 0.045719951 0.69520885
0.049116533 0.043503225 0.69214058
0.048258156 0.041364163 0.68918014
0.047429096 0.039298445 0.68632078
0.046628207 0.037302583 0.68355864
0.045853756 0.035372913 0.68088764
0.045104764 0.033506423 0.67830443
0.0443797 0.031699777 0.67580378
0.043677717 0.02995047 0.67338276
0.042997465 0.028255492 0.67103666
0.04233807 0.02661252 0.66876245
0.041698728 0.025019288 0.66655743
0.041078281 0.023473352 0.66441762
0.040476147 0.021972805 0.66234094
0.039891291 0.020515561 0.66032386
0.039323218 0.019099861 0.65836465
0.038770977 0.017723888 0.65645999
0.038234148 0.016386092 0.65460855
0.037711874 0.015084773 0.6528073
0.03720367 0.013818532 0.65105456
0.036709089 0.012586027 0.6493488
0.036227383 0.011385769 0.64768749
0.035758253 0.010216653 0.64606953
0.035301022 0.0090774298 0.64449257
0.034855433 0.0079669952 0.64295578
0.034420859 0.0068842173 0.64145696
0.033996992 0.0058280528 0.63999516
0.033583518 0.0047976673 0.63856912
0.033179898 0.0037920177 0.63717705
0.032785948 0.0028102696 0.63581836
0.032401163 0.0018514991 0.63449132
0.032025382 0.0009150207 0.63319528
0.031658143 -0 0.63192874
0.0312993 -0.00089424849 0.63069111
0.030948434 -0.0017684698 0.62948102
0.030605346 -0.0026233196 0.62829775
0.030269848 -0.003459394 0.6271407
0.029941563 -0.0042773187 0.62600851
0.029796051 -0.0051078796 0.62550658
0.030548949 -0.0061098039 0.62810326
0.031340882 -0.007163614 0.63083458
0.032174971 -0.0082735717 0.63371122
0.033054665 -0.0094441473 0.63674515
0.033983815 -0.010680616 0.63994968
0.034966715 -0.01198855 0.64333957
0.036008064 -0.013374388 0.64693105
0.037113443 -0.014845371 0.65074337
0.038288843 -0.016409457 0.6547972
0.039541125 -0.018075913 0.65911615
0.040878095 -0.019855052 0.66372722
0.04230864 -0.021758676 0.66866094
0.043842938 -0.023800403 0.67395258
0.045492705 -0.025995821 0.6796425
0.047271486 -0.0283629 0.68577719
0.049195029 -0.030922532 0.6924113
0.051281754 -0.033699423 0.69960821
0.05355335 -0.036722273 0.70744258
0.056035519 -0.040025353 0.71600324
0.05875871 -0.043649286 0.7253952
0.061760385 -0.047643691 0.73574769
0.064120665 0.074807465 0.73774511
0.062704757 0.071413755 0.73299742
0.061350308 0.068167031 0.72845584
0.060052872 0.065057337 0.72410548
0.058809426 0.062076658 0.71993607
0.057616189 0.059216648 0.71593505
0.05647064 0.056470662 0.71209395
0.055369534 0.053831518 0.70840186
0.054310549 0.051293284 0.70485103
0.053291518 0.048850566 0.70143414
0.052309819 0.046497673 0.69814241
0.051363833 0.044230014 0.69497043
0.050451264 0.042042732 0.69191056
0.049570732 0.039932013 0.68895805
0.048720241 0.037893564 0.68610632
0.047898442 0.035923839 0.68335074
0.047104068 0.034019619 0.68068713
0.046335455 0.032177418 0.67810994
0.045591675 0.030394495 0.67561597
0.044871248 0.028667748 0.67320037
0.044173382 0.026994854 0.67086035
0.043496747 0.025373101 0.6685915
0.042840663 0.023800403 0.66639161
0.042203948 0.022274345 0.66425669
0.041585885 0.020792961 0.66218424
0.040985782 0.019354403 0.6601721
0.040402632 0.017956734 0.65821671
0.03983596 0.016598344 0.65631664
0.039284859 0.015277445 0.65446872
0.038748898 0.013992697 0.65267169
0.038227264 0.01274243 0.65092254
0.037719589 0.011525452 0.64922023
0.03722512 0.010340363 0.64756227
0.036743443 0.0091859102 0.64594722
0.036274176 0.008060962 0.64437371
0.035816647 0.0069643855 0.64283961
0.035370607 0.0058951378 0.64134401
0.034935452 0.0048521757 0.63988489
0.034510963 0.0038346052 0.63846153
0.034096576 0.0028413832 0.63707203
0.033692107 0.0018717945 0.63571584
0.033297043 0.00092494488 0.63439113
0.032911133 2.9802322e-08 0.63309723
0.032534145 -0.00090369582 0.63183308
0.03216562 -0.0017869473 0.63059741
0.031805426 -0.0026504397 0.62938964
0.031453133 -0.0034947693 0.6282084
0.031108633 -0.0043205917 0.62705332
0.031033147 -0.0051721334 0.62680012
0.031827427 -0.0061886311 0.62946343
0.032663435 -0.0072585344 0.63226664
0.033544548 -0.0083861351 0.63522106
0.034474514 -0.0095762312 0.63833928
0.035457514 -0.010834217 0.64163542
0.036498215 -0.012166053 0.64512491
0.037601858 -0.013578415 0.64882553
0.038774326 -0.015078902 0.65275693
0.040022261 -0.016675919 0.65694129
0.0413532 -0.018379152 0.66140401
0.042775705 -0.020199597 0.66617382
0.044299413 -0.022149652 0.67128289
0.045935843 -0.024243891 0.67676997
0.047697805 -0.026498765 0.68267798
0.049600326 -0.028933525 0.68905729
0.051660925 -0.031570554 0.69596666
0.053900156 -0.034436196 0.703475
0.056342307 -0.037561506 0.71166366
0.059016254 -0.040983498 0.72062957
0.061956655 -0.044746459 0.73048902
0.065788254 0.072900534 0.7373746
0.064337969 0.069554567 0.73264319
0.062950253 0.066352963 0.72811586
0.061621405 0.063286901 0.72378051
0.06034724 0.060347259 0.71962363
0.05912495 0.057527006 0.7156359
0.057950951 0.054818481 0.71180582
0.056822896 0.052215636 0.70812559
0.0557377 0.049712002 0.70458519
0.054693386 0.047302395 0.70117819
0.053687282 0.044981271 0.69789577
0.052717529 0.042743951 0.69473201
0.051782373 0.040586233 0.69168115
0.050879631 0.038503528 0.68873602
0.050008006 0.036492348 0.68589234
0.049165569 0.034548789 0.68314397
0.048351213 0.032669753 0.68048716
0.047563236 0.030851871 0.67791641
0.04680068 0.029092342 0.67542863
0.046062045 0.027388245 0.67301881
0.045346357 0.025737137 0.67068398
0.044652715 0.024136603 0.66842097
0.043979835 0.02258426 0.66622579
0.043327063 0.02107802 0.66409612
0.042693261 0.019615829 0.66202837
0.042077858 0.018195838 0.66002065
0.041479822 0.016816169 0.65806961
0.04089855 0.015475154 0.65617323
0.040333457 0.014171213 0.6543296
0.039783653 0.012902826 0.65253592
0.03924875 0.011668533 0.65079081
0.038727932 0.010467052 0.64909166
0.038220856 0.0092969835 0.64743733
0.037726786 0.0081571639 0.64582551
0.037245426 0.0070464611 0.64425504
0.036776099 0.0059637427 0.64272392
0.036318459 0.0049079359 0.64123094
0.03587215 0.0038781166 0.6397748
0.035436593 0.0028732419 0.63835382
0.035011575 0.0018925369 0.6369673
0.03459654 0.00093504786 0.6356132
0.034191318 2.9802322e-08 0.63429117
0.033795398 -0.00091335177 0.63299954
0.033408616 -0.0018058419 0.63173771
0.033030514 -0.0026781261 0.63050413
0.032660872 -0.0035308897 0.62929821
0.032299489 -0.0043647587 0.62811923
0.032301858 -0.0052381158 0.62812692
0.033139426 -0.0062696338 0.63085949
0.034021586 -0.007355988 0.6337375
0.034951996 -0.0085018277 0.63677287
0.035934724 -0.0097120702 0.63997895
0.036974218 -0.010992318 0.64337027
0.038075745 -0.01234889 0.64696395
0.039244924 -0.01378873 0.65077835
0.040488176 -0.015319824 0.65483439
0.041812778 -0.016951114 0.65915585
0.043226976 -0.018692732 0.6637696
0.044740193 -0.020556271 0.66870642
0.046363194 -0.022555053 0.67400134
0.04810838 -0.024704278 0.67969489
0.049990091 -0.027021646 0.68583393
0.05202499 -0.029527664 0.69247264
0.05423259 -0.032246381 0.69967484
0.056635614 -0.035205901 0.70751464
0.059261717 -0.038439989 0.7160821
0.062143195 -0.041988581 0.72548282
0.06531921 -0.045899957 0.73584437
0.067449793 0.070999801 0.73700446
0.06596569 0.067701668 0.73229015
0.064545207 0.064545244 0.72777778
0.063184887 0.061522156 0.72345662
0.061880454 0.058623642 0.71931297
0.060629047 0.055842549 0.71533775
0.059427008 0.053171575 0.71151936
0.058271702 0.050604373 0.70784944
0.05716069 0.04813537 0.70432019
0.056091033 0.045758456 0.70092231
0.055060878 0.043469161 0.6976499
0.054067679 0.041262209 0.69449496
0.053109877 0.039133608 0.69145238
0.052185226 0.037079006 0.68851513
0.051292401 0.035094798 0.68567902
0.050429441 0.033177257 0.68293774
0.049595036 0.031323224 0.68028712
0.048787955 0.029529572 0.67772341
0.048006568 0.027793288 0.67524117
0.047249965 0.026111811 0.67283785
0.046516694 0.024482489 0.6705085
0.04580598 0.022903025 0.6682508
0.045116514 0.021371037 0.66606069
0.0444475 0.019884437 0.66393548
0.043798164 0.018441379 0.6618728
0.043167401 0.017039806 0.65986919
0.042554677 0.015678048 0.65792274
0.041958973 0.014354408 0.65603042
0.041379843 0.013067335 0.65419078
0.040816363 0.01181531 0.65240085
0.040268134 0.010596871 0.65065932
0.039734334 0.0094107687 0.64896369
0.039214496 0.0082556903 0.64731228
0.038708188 0.007130444 0.64570403
0.038214687 0.0060338974 0.64413637
0.037733711 0.0049649775 0.64260846
0.037264593 0.0039226115 0.64111829
0.036807094 0.0029058456 0.63966501
0.036360599 0.0019137561 0.63824666
0.035924893 0.00094541907 0.63686264
0.03549942 2.9802322e-08 0.63551104
0.035083909 -0.00092324615 0.63419116
0.034678098 -0.001825124 0.63290203
0.034281477 -0.0027063787 0.6316421
0.033893913 -0.0035677552 0.63041103
0.033514936 -0.0044098496 0.62920713
0.033603262 -0.0053057969 0.62948775
0.034486122 -0.006352663 0.63229221
0.035416625 -0.007456094 0.63524806
0.036398731 -0.0086207092 0.63836783
0.037436862 -0.0098517835 0.64166552
0.038535949 -0.011155158 0.64515686
0.039701518 -0.012537271 0.64885944
0.0409398 -0.014005691 0.65279293
0.042257808 -0.015568644 0.65697974
0.043663505 -0.017235577 0.66144508
0.0451658 -0.01901716 0.66621727
0.046775304 -0.02092576 0.67132998
0.048503757 -0.022975415 0.67682064
0.050364852 -0.025182396 0.68273258
0.052374471 -0.027565479 0.6891163
0.054551121 -0.030146629 0.69603062
0.056916542 -0.032951653 0.70354462
0.059496395 -0.036010981 0.71173978
0.062321227 -0.039360762 0.72071314
0.065427668 -0.043044478 0.73058105
0.067587949 0.065854967 0.73193824
0.066134922 0.062743425 0.72744089
0.064743057 0.059762865 0.72313285
0.063408837 0.056905419 0.71900332
0.062128242 0.054163098 0.71503967
0.060898595 0.051529616 0.71123374
0.059716444 0.048998147 0.70757478
0.058579538 0.046563238 0.70405591
0.057484895 0.044219166 0.7006678
0.056430407 0.041961074 0.69740403
0.055414122 0.039784521 0.69425851
0.054433588 0.037684828 0.69122362
0.053487349 0.03565827 0.68829483
0.05257326 0.033700824 0.68546563
0.051690064 0.03180927 0.68273199
0.050835881 0.029980153 0.68008816
0.050009638 0.02821058 0.67753083
0.049209662 0.026497543 0.67505473
0.048434872 0.024838418 0.67265671
0.047684263 0.023230821 0.67033339
0.046956409 0.021672219 0.66808063
0.046250585 0.020160526 0.66589606
0.045565531 0.018693566 0.66377568
0.044900604 0.017269492 0.66171759
0.044254676 0.015886337 0.65971833
0.043627195 0.014542431 0.65777624
0.043017134 0.013236046 0.65588796
0.042423904 0.011965752 0.6540519
0.041846927 0.010729998 0.65226603
0.041285321 0.009527415 0.65052778
0.040738698 0.0083566904 0.6488359
0.040206254 0.007216543 0.64718789
0.039687652 0.0061058104 0.64558274
0.039182156 0.0050233603 0.64401823
0.038689375 0.0039681494 0.64249301
0.038208935 0.0029391646 0.64100593
0.037740182 0.0019353926 0.6395551
0.037282888 0.0009559691 0.63813967
0.036836449 -0 0.63675785
0.036400668 -0.00093331933 0.63540906
0.035974987 -0.0018448532 0.63409156
0.035559233 -0.0027353168 0.63280475
0.035152894 -0.0036053956 0.63154703
0.03475574 -0.0044558346 0.63031775
0.034938797 -0.0053751767 0.63088435
0.035869081 -0.0064380467 0.63376373
0.036850251 -0.0075590014 0.63680065
0.037886515 -0.0087430179 0.64000803
0.038982853 -0.0099955797 0.64340132
0.040144525 -0.011322767 0.64699686
0.041377563 -0.012731552 0.65081328
0.042688746 -0.014229536 0.65487158
0.044085745 -0.015825629 0.65919548
0.045577273 -0.017529666 0.66381204
0.047173262 -0.019353122 0.66875184
0.048885077 -0.021308839 0.67405009
0.050725803 -0.02341187 0.67974746
0.052710582 -0.025679469 0.68589067
0.054857001 -0.028131783 0.69253415
0.05718543 -0.030792147 0.69974095
0.05972052 -0.033688486 0.70758748
0.06249081 -0.036853552 0.71616191
0.065530606 -0.040326506 0.7255705
0.06920445 0.064014167 0.73158658
0.067719422 0.060947478 0.72710514
0.066296495 0.058009446 0.72281104
0.064932413 0.05519256 0.71869457
0.063623071 0.052489042 0.71474326
0.062365483 0.049892396 0.71094817
0.061156895 0.04739663 0.7073009
0.059994023 0.044995546 0.70379174
0.058874782 0.042684227 0.70041406
0.057796311 0.040457428 0.69715953
0.056756854 0.038310915 0.69402266
0.05575392 0.036240071 0.69099605
0.054786015 0.034241289 0.68807518
0.053850949 0.032310575 0.68525338
0.052947272 0.030444711 0.68252623
0.052073594 0.028640538 0.67988968
0.051228117 0.026894778 0.67733824
0.050409816 0.025204927 0.67486876
0.049617086 0.023568124 0.67247653
0.048849061 0.021982104 0.67015886
0.048104301 0.020444363 0.66791129
0.047382053 0.018952847 0.66573167
0.046681028 0.017505407 0.66361618
0.046000447 0.016100168 0.66156232
0.045339558 0.014735371 0.65956795
0.044697259 0.013409227 0.65762961
0.044073034 0.012120098 0.6557458
0.043465879 0.010866493 0.65391356
0.042875346 0.0096469522 0.6521315
0.04230053 0.0084601045 0.65039688
0.041741032 0.0073046982 0.6487084
0.04119603 0.0061793923 0.64706373
0.040665079 0.0050831437 0.64546144
0.040147744 0.0040148199 0.64390022
0.039643306 0.0029732585 0.64237797
0.039151486 0.0019575953 0.64089376
0.03867162 0.00096681714 0.6394456
0.03820347 -0 0.63803291
0.037746429 -0.00094363093 0.6366536
0.037300196 -0.0018649995 0.63530701
0.036864474 -0.0027648211 0.63399208
0.03643873 -0.0036438406 0.63270724
0.03602279 -0.0045028329 0.63145208
0.036309663 -0.005446434 0.63231778
0.037289601 -0.0065256655 0.63527501
0.038323902 -0.0076647401 0.63839632
0.039417218 -0.0088688731 0.64169574
0.040574744 -0.010143638 0.64518881
0.041802313 -0.01149562 0.64889336
0.043106478 -0.012931913 0.65282899
0.044494636 -0.014460742 0.65701813
0.045975041 -0.016091228 0.66148567
0.047557492 -0.017834038 0.66626108
0.049252763 -0.019701064 0.67137706
0.051073361 -0.021706164 0.67687118
0.053033721 -0.023865134 0.68278712
0.05515058 -0.02619645 0.68917531
0.057443455 -0.02872169 0.69609469
0.059935249 -0.031465977 0.70361429
0.062653027 -0.034459174 0.71181595
0.065628983 -0.037736654 0.72079664
0.068901755 -0.041341037 0.73067319
0.070815846 0.062179804 0.73123711
0.069298416 0.059157223 0.72676957
0.067844957 0.056261688 0.72249031
0.066450924 0.053484917 0.71838605
0.065113291 0.050820142 0.71444786
0.063828193 0.048260331 0.71066427
0.062593095 0.045799851 0.70702791
0.061404638 0.043432564 0.70352894
0.060260475 0.04115355 0.70016038
0.059158396 0.038958013 0.69691563
0.058095686 0.036841184 0.69378686
0.057070691 0.034799248 0.69076914
0.056081038 0.032827973 0.68785542
0.055125315 0.030923992 0.68504161
0.054201435 0.029083699 0.68232155
0.053308193 0.027304232 0.67969167
0.052443739 0.025582314 0.67714667
0.051606871 0.02391541 0.67468274
0.05079646 0.022300899 0.67229676
0.050010949 0.020736277 0.6699841
0.049249519 0.019219369 0.66774231
0.048510775 0.017747879 0.66556734
0.04779401 0.016319931 0.6634571
0.047097974 0.014933556 0.66140783
0.046422064 0.013586968 0.65941787
0.045765143 0.012278467 0.65748376
0.045126554 0.011006504 0.65560365
0.044505671 0.0097695589 0.65377563
0.043901511 0.0085661411 0.65199691
0.043313656 0.0073950589 0.65026617
0.042741224 0.006254822 0.64858085
0.042183835 0.0051443875 0.64693975
0.041640688 0.0040625334 0.64534062
0.041111458 0.0030082166 0.6437825
0.040595405 0.0019802749 0.64226317
0.040092148 0.0009778738 0.64078152
0.039601315 5.9604645e-08 0.63933641
0.039122254 -0.00095418096 0.63792598
0.038654748 -0.0018855929 0.63654959
0.038198184 -0.0027949512 0.63520539
0.037752375 -0.00368312 0.63389283
0.037316758 -0.0045508146 0.63261032
0.037717357 -0.0055195689 0.63378978
0.038749333 -0.0066156983 0.63682806
0.039839376 -0.0077735186 0.6400373
0.040992513 -0.0089983046 0.64343232
0.042214401 -0.010296166 0.64702982
0.043511368 -0.011673748 0.65084827
0.044890556 -0.013138682 0.65490884
0.046360042 -0.014699489 0.65923524
0.047928985 -0.016365945 0.66385442
0.049607843 -0.018149197 0.66879731
0.051408585 -0.020061851 0.67409897
0.053344984 -0.022118658 0.67980003
0.05543277 -0.024336338 0.68594682
0.057690851 -0.02673474 0.69259501
0.060140707 -0.029336929 0.69980776
0.062807865 -0.032169849 0.70766032
0.06572257 -0.035265744 0.71624166
0.068920955 -0.03866294 0.72565818
0.072421864 0.06035158 0.73088878
0.070872553 0.057373047 0.72643596
0.069388457 0.054519534 0.72217053
0.067964941 0.051782846 0.71807933
0.066598661 0.049156219 0.71415246
0.065286502 0.046633214 0.71038127
0.064024784 0.044207603 0.70675504
0.062811166 0.041874111 0.70326698
0.061642457 0.039627314 0.69990808
0.060516678 0.037462711 0.6966725
0.059431057 0.035375655 0.69355237
0.058383916 0.033362299 0.69054282
0.057372831 0.031418502 0.68763685
0.056396168 0.029540867 0.68482983
0.055452388 0.027726203 0.6821174
0.054539498 0.025971204 0.67949367
0.053656355 0.024273127 0.67695546
0.052801184 0.022629112 0.67449766
0.051973008 0.021036714 0.67211747
0.051170252 0.019493461 0.6698103
0.050392073 0.017997205 0.66757375
0.049637057 0.016545683 0.66540378
0.048904333 0.015137047 0.66329789
0.048193067 0.013769507 0.66125369
0.047502052 0.012441039 0.65926766
0.046830714 0.011150181 0.65733814
0.046177953 0.0098953247 0.65546209
0.045543268 0.0086749196 0.65363795
0.044925671 0.0074876249 0.65186292
0.044324595 0.0063320994 0.65013546
0.043739513 0.0052071214 0.64845383
0.043169558 0.004111439 0.64681578
0.042614378 0.0030439198 0.64522016
0.04207319 0.0020035207 0.64366472
0.041545678 0.00098919868 0.64214861
0.04103113 2.9802322e-08 0.64066976
0.04052927 -0.00096493959 0.63922739
0.040039439 -0.0019066334 0.63781959
0.039561309 -0.0028257966 0.63644546
0.039094556 -0.0037232637 0.63510394
0.038638595 -0.0045998096 0.63379347
0.039163478 -0.0055947602 0.63530207
0.040250022 -0.006708324 0.63842487
0.041398577 -0.0078854263 0.64172584
0.042614605 -0.0091316998 0.64522082
0.043904234 -0.010453373 0.64892733
0.045274228 -0.011857539 0.65286475
0.046732612 -0.013352126 0.65705621
0.048288077 -0.014946252 0.66152674
0.049950648 -0.0166502 0.66630507
0.051731795 -0.018475622 0.67142421
0.053644657 -0.020436019 0.6769219
0.055704415 -0.022546977 0.68284178
0.057928663 -0.024826556 0.68923438
0.060337923 -0.027295679 0.69615877
0.062956288 -0.029979169 0.70368409
