# .PCD v0.7 - Point Cloud Data file format
VERSION 0.7
FIELDS x y z
SIZE 4 4 4
TYPE F F F
COUNT 1 1 1
WIDTH 887
HEIGHT 1
VIEWPOINT 0 0 0 1 0 0 0
POINTS 887
DATA ascii
-0.0015340921 -0.026846588 0.61533439
-0.0031147532 -0.02491799 0.61673969
-0.0031147532 -0.02491799 0.61673969
0.0015829899 -0.018599018 0.61828566
-0.0089069605 -0.026720822 0.62048596
0.0016235657 -0.015423864 0.62073457
0.0057105008 -0.029368281 0.62121779
0.00082077918 -0.014773995 0.62182051
0.0066087507 -0.028500214 0.62246203
-0.0057917652 -0.019857436 0.62261915
0.0066087507 -0.019413203 0.62246203
-0.0091917701 -0.021725982 0.62361139
-0.0016681857 -0.015013635 0.62342763
-0.0016681857 -0.015013635 0.62342763
0.0016711798 -0.011698216 0.62360835
0.007530007 -0.01045832 0.62373841
0.0084751518 -0.032205552 0.62504786
0.0084751518 -0.032205552 0.62504786
-0.015261727 -0.025436223 0.62509114
0.0084751518 -0.0067801178 0.62504786
-0.015445565 -0.024026394 0.626324
-0.0043162755 -0.012948811 0.62694782
0.0042971792 -0.0055850148 0.62648678
0.0051745689 -0.0043121278 0.62684798
0.0064520091 -0.0034416765 0.62660658
0.009445129 -0.0017172694 0.62639171
0.010440903 -0.030452609 0.62777108
-0.0095270555 -0.017321885 0.62729073
0.010440903 -0.017401457 0.62777108
0.010440926 -0.009570837 0.62777132
0.0025994051 -0.0060652792 0.62733567
0.010440926 -0.0052204132 0.62777132
-0.015778318 -0.021474674 0.62855548
-0.010516103 -0.016650498 0.62852752
0.0034887178 -0.0043608546 0.62802505
0.0052702767 -0.0017567575 0.62877345
0.011463565 -0.022486195 0.62918788
0.011463565 -0.011463523 0.62918788
0.011463592 0.00044094026 0.62918818
0.012514196 -0.0268161 0.63064349
0.012514196 -0.0268161 0.63064349
0.012514196 -0.024134487 0.63064349
-0.013373037 -0.016939163 0.63036162
-0.0053723566 -0.0089538991 0.63082719
0.0071663433 0.0026873648 0.63087547
0.010702814 0.0053514242 0.63040572
-0.015333327 -0.017137229 0.63161999
-0.0036077136 -0.006313473 0.63161606
0.010838516 0.0072256923 0.63177073
0.01359396 -0.031719178 0.63213944
-0.019921027 -0.020826489 0.63204736
0.01359396 -0.018125266 0.63213944
-0.010919081 -0.011828989 0.63258117
0.00090989308 -0.0009098351 0.63257754
0.01359396 0.0018125474 0.63213944
-0.025770208 -0.023929477 0.63384151
0.014704049 -0.016542017 0.63367718
0.012902847 0.011981219 0.63399452
-0.019521274 -0.016732484 0.63495445
-0.0074364035 -0.005577296 0.6349504
0.004647593 0.0055771172 0.63494653
0.0055437041 0.0055437386 0.63427436
0.0083279619 0.0083279908 0.63444084
0.0083279619 0.0083279908 0.63444084
0.0083279619 0.0083279908 0.63444084
-0.018723221 -0.014978558 0.63574833
0.015845831 -0.0074568391 0.63525903
-0.0065528862 -0.003744483 0.63574421
-0.0018646854 -0 0.6352874
0.017020646 -0.041606009 0.63688672
-0.011263976 -0.033791929 0.63605058
-0.021706834 -0.030200809 0.63666743
0.017020646 -0.029313296 0.63688672
0.017020646 -0.029313296 0.63688672
0.017020646 -0.024585336 0.63688672
0.017020646 -0.023639768 0.63688672
0.017020646 -0.0094558895 0.63688672
-0.0056567639 -0.0018855631 0.636549
0.017020646 0.0047279596 0.63688672
-0.0094995741 -0.035148442 0.63741374
0.00095247355 0.0057148933 0.63771743
0.0028603468 0.0076276064 0.63783514
0.0075961924 0.011394322 0.63736141
-0.027752573 -0.020096689 0.63826203
-0.023973912 -0.016302258 0.63849998
0.018229948 -0.0086351931 0.63856208
0.018229948 -0.0067162514 0.63856208
-0.010553544 -0.0038376451 0.63855511
0.018229948 -0.00095942616 0.63856208
0.018229948 0.00047975779 0.63856208
-0.0038256817 0.0019128621 0.63819385
0.0066878381 0.011464894 0.63807136
-0.0029027665 -0.038703531 0.63954198
-0.033844799 -0.024174839 0.63947022
-0.033844799 -0.024174839 0.63947022
-0.030992135 -0.021307051 0.63965249
-0.027940247 -0.019269109 0.63904321
-0.014458765 -0.0067474246 0.63909888
-0.013593873 -0.0048549473 0.63995266
-0.0077393935 -0 0.63952214
0.019475233 -0.037489772 0.64028716
0.019475233 -0.030186594 0.64028716
-0.031204257 -0.020477742 0.64045268
-0.031204257 -0.020477742 0.64045268
-0.030244922 -0.019512832 0.64051419
0.019475233 -0.018501461 0.64028716
-0.024301043 -0.014580607 0.6400795
-0.022380324 -0.012649715 0.64020216
-0.018526817 -0.0087758303 0.64044815
0.019475285 0.011685193 0.64028746
-0.034548264 -0.021716028 0.64189637
-0.00098437082 0.0088593662 0.64156777
0.001971866 0.011831254 0.64175636
0.0049375137 0.014812589 0.64194584
0.0049375137 0.014812589 0.64194584
-0.0089451177 0.0029817224 0.64271832
-0.0049801418 0.0069722235 0.64297497
-0.00099121931 0.0099122226 0.64239448
0.020758282 0.016804338 0.64206493
0.020758282 0.024712265 0.64206493
0.020758282 0.024712265 0.64206493
0.022080619 -0.034124553 0.6438967
0.022080619 -0.034124553 0.6438967
-0.042178255 -0.026110351 0.64396673
0.022080619 -0.024087936 0.64389676
-0.037975416 -0.022985101 0.64337629
0.022080619 -0.018065929 0.6438967
0.022080619 -0.012043953 0.6438967
0.022080619 -0.0060219765 0.64389676
0.022080619 0.0080293417 0.64389676
0.0090318862 0.021074414 0.64388204
0.011977496 0.022956878 0.64322805
0.011977496 0.022956878 0.64322805
0.019100182 -0.049258322 0.64409089
-0.015177568 2.9802322e-08 0.64488333
0 0.013074785 0.64414853
-0.041785557 -0.023440689 0.64576715
-0.026337525 -0.010129809 0.64502144
-0.023336632 -0.0071024299 0.64522111
-0.015286171 0.0010190904 0.64575732
-0.0091363266 0.0060909092 0.6452828
0.002028008 0.016224086 0.64514482
0.023444254 0.016309083 0.64578593
0.0050783087 0.0192976 0.64534491
0.015209452 0.028391004 0.64513993
0.01828118 0.031484276 0.64534003
-0.033948716 -0.03086248 0.64692473
-0.036790382 -0.018395156 0.64610457
-0.030759932 -0.012303948 0.64651215
0.011289706 0.026684821 0.64663351
0.012322817 0.027726352 0.64670169
0.024851024 -0.043489248 0.6477347
0.024851024 -0.040382892 0.6477347
-0.045535076 -0.026907057 0.64766574
0.024851091 -0.017602831 0.64773506
-0.030982908 -0.011360377 0.64740932
-0.02265702 -0.004119426 0.64705932
-0.0041307183 0.013424873 0.64739919
-0.0041307183 0.013424873 0.64739919
0.024851091 0.025886565 0.64773506
0.019586761 0.035050005 0.64718223
-0.023982955 -0.035453022 0.64861321
-0.042701948 -0.020830184 0.64846522
-0.026080426 -0.0052160919 0.64867115
0.0051892898 0.0228329 0.64802426
0.013552577 0.031275213 0.64858526
0.013552577 0.031275213 0.64858526
0.022882951 0.039525121 0.64829904
0.026303142 -0.04839772 0.64974648
-0.0021014067 -0.044129521 0.64957482
0.026303142 -0.02419886 0.64974654
0.026303142 -0.02419886 0.64974654
0.026303142 -0.0052606165 0.64974654
0.026303217 0.0010521412 0.64974689
0.026303217 0.0073649287 0.64974689
0.026303217 0.013677686 0.64974689
0.026303217 0.023146838 0.64974689
0.0052660112 0.025276899 0.64987648
-0.020035168 0.0021089911 0.65003103
-0.012704128 0.0095281303 0.65053737
-0.0074318564 0.0148637 0.6509015
-0.001057431 0.020091236 0.65038693
0.023222022 0.042221874 0.65015948
-0.034021433 -0.032958239 0.65107965
-0.040534321 -0.014933676 0.65150493
0.027802773 -0.010693371 0.65182412
-0.031908099 -0.0074452162 0.65113199
0.027802773 -0.0074853599 0.65182418
0.027802773 0.0010693669 0.65182412
0.027802773 0.0085547268 0.65182412
-0.013857922 0.0095939636 0.65142059
0.027802773 0.01497075 0.65182412
0.027802773 0.01497075 0.65182412
0.027802851 0.026733518 0.65182453
0.027802851 0.027802885 0.65182447
0.027802851 0.029941559 0.65182447
0.027802851 0.0331496 0.65182447
0.013856757 0.035174876 0.6514098
0.027802851 0.045981646 0.65182453
-0.038735326 -0.011835754 0.65262616
0 0.023627698 0.65238512
0.029352285 -0.023916662 0.6539709
-0.045376722 -0.01728633 0.65315932
0.029352285 -0.0076098144 0.6539709
0.0065155686 0.031491935 0.65382683
0.012977628 0.036769956 0.6532886
-0.02620312 0.0021836162 0.65453523
-0.02620312 0.0021836162 0.65453523
-0.013093301 0.014184415 0.65445215
-0.022056682 0.0077198446 0.65586758
-0.0021950779 0.025243402 0.65522838
0.027452322 0.052708477 0.65529525
0.027452322 0.052708477 0.65529525
0.030954115 -0.054169685 0.65618986
0.030954115 -0.049747676 0.65618992
0.030954115 -0.038692623 0.65618992
0.030954115 -0.038692623 0.65618992
-0.037653595 -0.034331203 0.65642583
0.030954204 -0.0099495351 0.65619028
-0.037767932 -0.00555408 0.65683174
-0.036679041 -0.0044459403 0.65691197
-0.033145305 -0.0022096932 0.65611011
0.030954204 0.0099496245 0.65619022
0.030954204 0.021004677 0.65619028
0.0055533783 0.034430981 0.65681416
0.007784015 0.036696076 0.65697426
-0.046796188 -0.013370305 0.65723896
-0.0055635846 0.024479806 0.6570605
0.0055970117 0.035820872 0.65786755
0.016760096 0.045810968 0.65761852
0.020148413 0.049251705 0.65786195
-0.053868592 -0.029178828 0.65821278
0.032611147 -0.011245191 0.65848553
0.032611147 0.0044981241 0.65848553
0.032611147 0.0044981241 0.65848553
-0.017965993 0.014597416 0.65828663
0.032611247 0.014618874 0.65848595
0.032611247 0.030362219 0.65848595
0.032611247 0.030362219 0.65848595
0.013489609 0.043841273 0.65843868
0.032611247 0.043856531 0.65848601
0.032611247 0.047230124 0.65848595
-0.046436008 -0.010193259 0.65945888
-0.014740227 0.019275725 0.65961313
0.034326188 -0.050345063 0.66086161
0.034326188 -0.025172532 0.66086167
0.034326188 -0.014874637 0.66086161
-0.04569453 -0.0079965293 0.66063917
-0.018253775 0.017112941 0.66045779
0.034326296 0.02402845 0.66086203
0.034326296 0.042335808 0.66086209
0.034326296 0.042335808 0.66086209
0.034326296 0.049201041 0.66086203
-0.040105667 -0.002291739 0.66106319
-0.024077091 0.012611836 0.66114187
-0.024077091 0.012611836 0.66114187
0 0.035716683 0.66182065
0.0068827951 0.04129678 0.66121483
-0.032370791 -0.039307356 0.66229725
-0.057689399 -0.017306805 0.66201818
-0.020843774 0.017369837 0.66252518
-0.010395557 0.026566446 0.66217196
-0.017480904 -0.0454503 0.66341913
0.036102343 -0.033773124 0.66332233
0.036102343 -0.033773124 0.66332233
0.036102343 -0.023291796 0.66332239
0.036102343 0.0081522167 0.66332239
0.036102343 0.013975143 0.66332239
0.036102343 0.03726697 0.66332239
0.018618723 0.054692477 0.66321111
-0.043390974 -0.0011727214 0.66430461
-0.028144196 0.012899458 0.66429806
-0.010566894 0.029352486 0.66447002
0.037942819 -0.05454278 0.66587198
0.037942819 -0.028457046 0.66587192
0.037942939 -0.015414268 0.66587234
-0.034181345 0.0082506835 0.66502142
-0.022537248 0.020164937 0.66592717
0.037942939 0.021342903 0.6658724
0.037942939 0.024900079 0.66587234
0.037942939 0.047428697 0.66587234
0.013080025 0.053509206 0.66627997
-0.041972503 -0.038374841 0.66750169
-0.031221161 0.01440981 0.66769475
-0.0011999286 0.041997522 0.66758788
0.0012014768 0.044454694 0.6677748
0.01077803 0.052692622 0.66730183
0.011983275 0.053924739 0.66739464
0.039851408 -0.043474227 0.6685161
0.039851408 -0.032605678 0.66851616
0.039851408 -0.020529509 0.66851616
-0.056626264 -0.0084336996 0.66817766
0.039851408 -0.0048304498 0.66851616
0.039851408 -0.0036228299 0.66851616
0.039851535 -0 0.66851664
-0.035051279 0.01208666 0.66864246
-0.033864539 0.013303936 0.66873699
0.039851535 0.015699089 0.66851664
-0.024109555 0.021698624 0.66825771
-0.024109555 0.021698624 0.66825771
0.0048152199 0.048152238 0.66805577
0.039851535 0.060381144 0.66851664
-0.053568713 -0.0036523938 0.66970539
-0.053568713 -0.0036523938 0.66970539
-0.019503163 0.02803582 0.66988373
-0.015877472 0.031755 0.67017293
0.041831847 -0.055365682 0.67125988
0.041831847 -0.0061517358 0.67125988
-0.049248464 0.0024624765 0.67136407
0.041831847 0.0061517954 0.67125988
-0.042027913 0.009888947 0.671956
0.013531778 0.060277939 0.67123735
0.041831981 0.061517686 0.67126036
0.041831981 0.061517686 0.67126036
-0.055701841 -0.0024756193 0.6721617
-0.029864904 0.02239868 0.67295253
-0.027412796 0.024920762 0.67315358
-0.0087335119 0.04241994 0.67334777
-0.0012526801 0.050107241 0.67395556
0.0087389508 0.058675855 0.67344153
0.043888267 -0.041380346 0.67410892
0.043888267 -0.026332945 0.67410892
0.043888267 -0.018809229 0.67410892
0.043888267 -0.011285514 0.67410886
0.043888267 0.027586937 0.67410898
0.043888412 0.052666098 0.6741094
0.0075516514 0.0591546 0.67467117
0 -0.058357686 0.67588288
-0.030404054 -0.046872914 0.67566431
-0.030404054 -0.046872914 0.67566431
-0.059652995 -0.0012691617 0.67595124
-0.017693968 0.03665185 0.67530447
-0.016441245 0.037941337 0.67540783
-0.012672951 0.041820794 0.67571974
-0.0012751026 0.053554356 0.67666221
0.0012768512 0.05618149 0.67687333
0.010172484 0.063578069 0.6762346
-0.029410867 0.028132141 0.67710048
-0.046878256 0.015626103 0.67993003
0.0039059203 0.062494755 0.67990583
0.04824708 -0.054766953 0.68014747
0.04824708 -0.054766953 0.68014747
0.04824708 -0.041727185 0.68014741
0.04824708 -0.03259936 0.68014741
0.04824708 -0.03259936 0.68014741
0.04824708 -0.023471534 0.68014741
0.04824708 0.0013040006 0.68014741
0.048247244 0.022167653 0.68014801
0.048247244 0.041727364 0.68014795
-0.010430907 0.049546838 0.68013394
0.048247244 0.059983075 0.68014795
0.048247244 0.061287075 0.68014795
-0.015746368 0.045926929 0.68113995
0 0.060315609 0.6810205
-0.063717 0.0039823353 0.68297958
-0.055472583 0.010566235 0.6821754
0.050559644 -0.031932414 0.68335134
0.050559819 0.029271483 0.68335181
-0.025272669 0.039904237 0.68330586
-0.064316243 0.0053597093 0.68448663
-0.049503256 0.018730998 0.68424559
-0.033422314 0.033422381 0.68412089
-0.064845793 -0.039177626 0.68581831
0.052968305 2.9802322e-08 0.6866883
0.052968305 0.02987957 0.68668836
0.052968305 0.046177536 0.68668836
-0.020391116 0.048938721 0.68683875
-0.01082726 0.056843132 0.68611443
-0.038432177 0.034314483 0.68842846
-0.033039153 0.039922327 0.68891788
0.055478986 -0.031900376 0.69016629
0.055479188 -0.012482792 0.69016695
0.055479188 -0.0013869405 0.69016695
0.055479188 0.012482822 0.69016695
0.055479188 0.030513585 0.69016695
0.055479188 0.058253169 0.69016695
-0.041923307 0.0349361 0.69143009
0.058098931 0.015587538 0.6937964
0.058098931 0.034009159 0.6937964
-0.025636198 0.054120898 0.69466388
-0.021629386 0.060562313 0.69680351
0.060834542 -0.066628277 0.69758606
0.060834542 -0.065179855 0.69758606
0.060834542 -0.065179855 0.69758606
0.060834542 -0.057937622 0.69758612
0.060834542 -0.056489199 0.69758606
0.060834542 -0.056489199 0.69758606
0.060834542 -0.047798544 0.69758606
0.060834542 -0.047798544 0.69758606
0.060834542 -0.046350121 0.69758606
0.060834542 -0.044901639 0.69758606
0.060834542 -0.044901639 0.69758606
0.060834542 -0.043453217 0.697586
0.060834542 -0.030417264 0.69758606
0.060834542 -0.026071906 0.69758606
0.060834542 -0.026071906 0.69758606
0.060834542 -0.018829733 0.69758606
0.060834542 -0.018829733 0.69758606
0.060834542 -0.015932828 0.69758606
0.060834542 -0.014484406 0.69758606
0.060834542 -0.01158753 0.69758612
0.060834542 0.0043453574 0.69758606
0.060834542 0.0072422326 0.69758606
0.060834542 0.0086906552 0.69758606
0.060834542 0.021726668 0.69758606
0.060834769 0.033314317 0.69758672
0.060834769 0.04635033 0.69758677
0.060834769 0.047798753 0.69758677
0.060834769 0.049247235 0.69758672
0.060834769 0.050695658 0.69758672
0.060834769 0.053592563 0.69758677
0.060834769 0.05793789 0.69758672
0.060834769 0.062283248 0.69758672
0.060834769 0.06373167 0.69758677
-0.06254752 0.02472809 0.69832867
-0.043635305 0.042180836 0.6983186
-0.039363936 0.046653569 0.69873059
-0.051241536 -0.051241487 0.69946939
-0.063192695 0.02645278 0.70013988
-0.057495795 0.03243354 0.70070159
-0.066714756 0.025203407 0.70170331
0.063694358 0.026662767 0.7015481
-0.028165162 0.060777456 0.70168245
-0.063074216 0.031537145 0.704023
-0.060167719 0.034596443 0.7043159
-0.040610645 0.052643478 0.7043044
0.066686526 -0.050014853 0.70569319
0.066686526 -0.045468062 0.70569313
-0.051391423 0.043833882 0.70519942
-0.045493074 0.050042421 0.70579368
-0.036573149 0.059431404 0.70669246
-0.030577712 0.065742105 0.70729655
-0.039983135 0.05843693 0.70837414
-0.065133892 0.037219375 0.7099427
0.069821008 -0.034134656 0.71003574
0.069821008 -0.023273617 0.71003574
0.069821008 -0.018618941 0.7100358
-0.063635953 0.038802475 0.71009833
-0.07188011 0.03281486 0.71136755
-0.046993636 0.056392401 0.71183145
-0.058256432 0.047234952 0.71280247
-0.074194364 0.033150703 0.71329796
0.073107906 -0.0047678649 0.71458948
0.073107906 0.0063572228 0.71458948
0.073108204 0.044500679 0.71459025
-0.04648865 0.062519222 0.71624982
-0.051746313 0.059831709 0.71794158
0.076558612 0.0081445575 0.71937013
-0.060254086 0.053740144 0.7193197
-0.052948248 0.06453073 0.72247553
0.080185704 0.011693776 0.72439516
0.080185704 0.015034854 0.72439522
0.080185704 0.030069649 0.72439516
0.080185704 0.030069649 0.72439516
0.080185704 0.031740189 0.72439522
0.080185704 0.033410728 0.72439516
0.080185704 0.035081267 0.72439516
0.080185704 0.036751807 0.72439516
0.080185704 0.045104474 0.7243951
0.080185704 0.045104474 0.7243951
-0.042117 0.079179972 0.72610253
-0.066432215 0.059618682 0.72836107
-0.06478823 0.06137836 0.72854978
-0.06056435 0.0692164 0.7316227
-0.041449983 0.086354166 0.73122102
-0.059613507 0.073640257 0.73439044
-0.059377402 0.080969185 0.73994023
0.0039795977 -0.021091834 0.61881971
-0.0048841275 -0.028490722 0.62100476
0.002696851 -0.014834474 0.62042105
-0.0044597308 -0.01727907 0.62367147
0.007069381 -0.014963523 0.62310028
0.007069381 -0.014963523 0.62310028
0.0070693861 -0.01111903 0.62310034
0.0029601783 -0.0088827386 0.62487662
0.010440903 -0.035238042 0.62777114
-0.010812718 -0.029401004 0.62712657
0.010440903 -0.029147491 0.62777102
0.010440903 -0.027189814 0.62777102
-0.015112471 -0.022881433 0.62697744
0.010440903 -0.01870659 0.62777108
0.0067900578 -0.002802711 0.62686157
-0.02218225 -0.025731385 0.62984908
-0.0092440657 -0.014853757 0.62901306
-0.0063114059 -0.033360273 0.63158
0.012514196 -0.029050782 0.63064349
-0.019295972 -0.022560161 0.63024372
0 -0.0044617951 0.63046098
0.0049324087 0.00078721717 0.63100255
0.0082519129 0.0031232238 0.63043308
0.010702814 0.0053514242 0.63040572
0.014704049 -0.027110592 0.63367724
-0.026922455 -0.02539151 0.63353103
0.014704049 -0.018839538 0.63367718
0.014704049 -0.018839538 0.63367718
-0.013264025 -0.013261169 0.6331538
0.014704085 -0.0050544888 0.63367748
0.0081687784 0.0054458678 0.6323058
-0.023315703 -0.028911442 0.63532186
-0.022789724 -0.020632705 0.6342665
0.015845831 -0.010719225 0.63525903
-0.011263976 -0.033791929 0.63605058
-0.021706834 -0.030200809 0.63666743
-0.021379095 -0.016347488 0.63659436
-0.010775453 -0.0053866506 0.63750613
0.0038157443 0.008585453 0.63789397
0.0038157443 0.008585453 0.63789397
0.017020646 0.012765527 0.63688672
0.010522184 -0.043045312 0.63821095
-0.017207401 -0.0105156 0.63813907
-0.016848629 -0.0091439411 0.63895106
0.019475233 -0.036759466 0.64028716
-0.029169295 -0.029169261 0.64011186
0.019475233 -0.018988341 0.64028716
0.013795241 0.022663623 0.64168888
0.017155992 0.025002725 0.64109224
0.020758227 -0.021252453 0.64206469
-0.012983583 2.9802322e-08 0.64330196
-0.0085096741 0.0045053661 0.64359367
-0.0085096741 0.0045053661 0.64359367
-0.0045147669 0.008528322 0.64385414
0.022080619 0.010538504 0.64389676
0.022080619 0.010538504 0.64389676
0.022080649 0.014553174 0.64389694
0.019035812 0.030056566 0.64368188
0.016184332 -0.04855296 0.64484507
-0.011183495 -0.038633853 0.645468
-0.011183495 -0.038633853 0.645468
0.023444254 -0.029050469 0.64578593
-0.043011665 -0.025060635 0.6453867
0.023444254 -0.010702804 0.64578593
-0.019183278 -0.0040385425 0.64461875
0.006054122 0.019171417 0.64454323
0.012427981 0.024858177 0.64438736
0.012887763 0.026795268 0.64556789
0.024851024 -0.038829714 0.6477347
0.024851091 -0.0046595633 0.64773506
-0.019022502 -0.0010281205 0.64685249
-0.010367448 0.0082939565 0.64788985
-0.008757852 0.0087580085 0.64709181
0.024851091 0.021226987 0.64773506
0.01554127 0.032118648 0.64781016
0.026303142 -0.019464299 0.64974654
-0.031209139 -0.010403007 0.6483196
-0.027108494 -0.0062557459 0.64860082
-0.002442081 0.017090451 0.64904302
0.00034771045 0.0195133 0.64892316
0.0026294384 0.02261208 0.64969707
0.0088697523 0.027136415 0.6487304
0.022882951 0.039525121 0.64829904
0.027802773 -0.050793529 0.65182412
0.027802773 -0.048654824 0.65182412
-0.017024308 -0.039368719 0.65118223
-0.022190461 -0.036984086 0.65029728
0.027802773 -0.011228025 0.65182412
-0.014915356 0.0085230768 0.65134674
-0.014915356 0.0085230768 0.65134674
-0.0085524181 0.014966756 0.65178972
0.0042417729 0.025450647 0.65075052
0.029352285 -0.040767044 0.6539709
-0.051017676 -0.021709651 0.65377307
0.029352285 -0.019024581 0.6539709
0.029352285 -0.0027177781 0.6539709
0.029352285 0.025003791 0.6539709
0.0076059215 0.032596827 0.65390313
0.025939124 0.04863587 0.65320742
0.0099202506 -0.051805705 0.655797
-0.014775688 0.013132259 0.65484363
0.019204007 0.044996858 0.6552217
0.019204007 0.044996858 0.6552217
0.025226384 0.050452769 0.65513909
-0.0022186078 -0.047700047 0.65664852
0.030954204 -0.014924332 0.65619028
-0.041027039 -0.0088706911 0.65659237
-0.032591373 -0.00073966384 0.65685833
-0.0055204695 0.023185998 0.65601963
-0.01245707 -0.045298427 0.65944386
0.032611147 -0.0073093921 0.65848553
-0.040735684 -0.0050896853 0.65933347
-0.033389047 0.00075139606 0.65859699
0.032611247 0.012932047 0.65848601
0.032611247 0.012932047 0.65848601
0.032611247 0.017430171 0.65848595
-0.013507071 0.019135088 0.65861434
0.034326188 -0.050917163 0.66086161
0.034326188 -0.016590983 0.66086161
-0.047920465 -0.010268629 0.66047013
0.034326188 -0.0011442006 0.66086167
-0.015991598 0.019418389 0.66062635
0.034326296 0.046912611 0.66086209
0.021794533 0.05505991 0.66120863
0.036102343 -0.043089867 0.66332239
-0.023130983 0.015035182 0.66235155
-0.023130983 0.015035182 0.66235155
0.0087147653 0.0453282 0.663041
0.037942819 -0.058099926 0.66587192
0.0035516985 -0.054459363 0.66565299
-0.0023496619 -0.051692516 0.66455829
-0.034272145 -0.04018113 0.66539937
0.037942819 -0.026678503 0.66587198
0.037942879 -0.020749986 0.66587216
-0.016521486 0.02478227 0.66519511
0.016404869 0.053901732 0.6641897
0.015349703 0.054314375 0.66527241
-0.038094159 -0.039284587 0.66644287
-0.058712713 -0.011380538 0.66738153
-0.057309277 -0.010745466 0.66686541
-0.044489596 0.0024048686 0.66788882
-0.032401133 0.013200462 0.66760159
-0.027672295 0.018047184 0.6679759
-0.027672295 0.018047184 0.6679759
-0.013114709 0.029806167 0.66666055
0.010688189 0.051065832 0.66609693
0.039851408 -0.00301902 0.66851616
0.039851535 0.016906738 0.66851664
-0.022918876 0.02291888 0.66835177
0.039851535 0.030794397 0.66851664
0.039851535 0.048908725 0.66851664
0.041831847 -0.057211176 0.67125988
0.041831847 -0.047368377 0.67125988
-0.058074597 -0.034597635 0.67189741
0.041831847 -0.017224818 0.67125988
-0.0486487 0.0030792803 0.67141312
-0.042863611 0.0073480904 0.67057502
-0.0092355702 0.039394617 0.67134845
0.041831981 0.047368586 0.67126036
0.041831981 0.047368586 0.67126036
0.0032803088 0.05086153 0.67127693
-0.054978129 -0 0.67357206
-0.041176319 0.012477696 0.67336255
-0.041176319 0.012477696 0.67336255
-0.023516186 0.027229309 0.67214656
-0.019842699 0.03100422 0.67244536
0.0074205198 0.05565396 0.67203307
0.0074205198 0.05565396 0.67203307
0.043888267 0.0068967491 0.67410898
0.043888267 0.013166517 0.67410892
-0.030745167 0.023216128 0.67422515
-0.0075571211 0.045342773 0.6747812
-0.0012637919 0.05181551 0.67529684
0.008816204 0.060453981 0.67477369
-0.03192449 0.025539607 0.67688882
-0.024995133 0.032686472 0.67747223
-0.017220415 0.038906097 0.67672259
0.046025127 0.040911227 0.67706943
-0.0076245256 0.047017902 0.67613733
0.046025127 0.053056762 0.67706937
0.046025127 0.053056762 0.67706937
-0.042805027 -0.044102132 0.67932022
-0.06380979 2.9802322e-08 0.67993802
-0.031087365 0.029147387 0.67910105
-0.016738415 0.041202277 0.67816722
-0.0012983426 0.057127088 0.6794675
0.04824708 -0.050855011 0.68014741
0.04824708 -0.0091277957 0.68014741
0.04824708 0.0052159131 0.68014741
-0.051145032 0.013114125 0.68104506
-0.043061994 0.019573659 0.68026018
0.048247244 0.026731595 0.68014801
-0.03409481 0.028849483 0.68103629
0.00065606477 0.060992867 0.68107611
0.050559644 -0.059207961 0.68335128
-0.062433954 0.0053135455 0.68309361
-0.057283878 0.010657489 0.68355244
-0.053401839 0.014685512 0.68389803
-0.034411538 0.030440986 0.6825068
-0.030506074 0.034485161 0.68284845
-0.018688677 0.046721697 0.6838811
-0.04034058 0.028238446 0.68506169
-0.024185561 0.042996556 0.68493569
-0.012843136 0.054753646 0.68593669
0.052968118 -0.061117023 0.68668777
0.052968305 -0.012902528 0.6866883
0.052968305 0.014939785 0.68668836
-0.040724955 0.029864967 0.68660831
-0.006913471 0.064986646 0.68964964
-0.0047979429 0.065118641 0.68822753
-0.066830352 0.011138439 0.69080901
-0.056826223 0.019404083 0.69004941
-0.056026857 0.02241075 0.69181973
0.055479188 0.029126614 0.69016695
-0.034725711 0.040281862 0.69041425
0.055479188 0.051318258 0.69016695
0.055479188 0.051318258 0.69016695
0.055479188 0.058946669 0.69016695
0.058098711 -0.014878914 0.6937958
0.058098931 0.024798319 0.6937964
-0.046466891 0.032386035 0.69271487
-0.054376483 0.02861923 0.69547582
-0.054376483 0.02861923 0.69547582
-0.050199416 0.03298822 0.69587529
-0.042762175 0.038485974 0.69480538
-0.027039802 0.052656472 0.69453275
-0.01871641 -0.061908096 0.69653374
-0.064647779 -0.0445351 0.69615877
0.060834542 -0.024623483 0.69758606
-0.066754997 0.02031678 0.69791847
-0.043194328 0.040314734 0.69654429
-0.034716513 0.049181759 0.69735426
-0.023053449 0.059074491 0.69666857
0.060834769 0.060834795 0.69758677
-0.013038204 0.069537103 0.69761598
-0.049092844 0.038835168 0.69964123
-0.045518883 0.042582214 0.69998938
0.063694358 0.01703456 0.7015481
-0.061771963 0.027944475 0.70028031
0.063694358 0.031106591 0.7015481
-0.056780808 0.033184066 0.70077193
-0.041211389 0.047098756 0.70040995
0.063694358 0.048881739 0.7015481
-0.052305665 0.040350109 0.70313948
-0.052305665 0.040350109 0.70313948
-0.022306681 0.066920072 0.70225406
-0.020836167 0.068461716 0.70239711
0.066686526 -0.054561704 0.70569319
0.066686526 -0.053046107 0.70569313
0.066686794 -0.0045468211 0.7056939
0.066686794 0.039405823 0.7056939
-0.010661196 -0.07005927 0.70658946
-0.073275022 0.025951594 0.70701611
-0.050456267 0.047398359 0.70730764
-0.042529467 0.05316186 0.70609236
-0.036573149 0.059431404 0.70669246
-0.036573149 0.059431404 0.70669246
-0.057326637 -0.054227859 0.70976901
-0.052181754 -0.055251241 0.70800531
-0.052181754 -0.055251241 0.70800531
-0.042987764 0.055270016 0.70806807
-0.030909404 0.068000734 0.70929843
-0.050085753 -0.057911634 0.71167761
0.069821008 -0.029479951 0.71003568
0.069821008 -0.013188377 0.71003568
0.069821283 0.018619031 0.71003652
0.069821283 0.020946428 0.71003652
-0.07188011 0.03281486 0.71136755
-0.031248372 0.070308864 0.7113443
-0.061301772 0.044011533 0.71248162
-0.047516067 0.058603168 0.71393359
-0.074325673 0.038778633 0.71778506
-0.059573147 0.051522732 0.71709818
-0.027226754 0.080078691 0.71607077
0.076558612 -0.02932027 0.71937013
0.076558612 -0.017103493 0.71937013
0.076558612 0.0032578409 0.71937013
0.076558612 0.026877001 0.71937013
0.076558612 0.029320359 0.71937013
0.076558612 0.045609415 0.71937013
-0.061041363 0.052903175 0.71923405
-0.045435838 0.066531062 0.71862197
-0.035887215 0.076668143 0.71965146
0.080185704 0.0066821575 0.72439522
-0.056816399 0.063500732 0.72445977
-0.060087916 -0.063521504 0.72997952
-0.053194348 0.073785752 0.72987676
-0.065572932 0.063847363 0.7310425
-0.06056435 0.0692164 0.7316227
-0.026958901 -0.080876678 0.73969221
-0.032711931 -0.079962462 0.74211478
-0.032711931 -0.079962462 0.74211478
-0.0011908263 -0.028509051 0.6183368
-0.0049493266 -0.02916654 0.62237513
0.00060587493 -0.016607907 0.62054396
-0.0061095413 -0.030410931 0.62566
-0.012145411 -0.019518062 0.62746376
-0.0067778393 -0.017417923 0.62523401
0.0094537279 -0.017958794 0.62640351
-0.00093360897 -0.037344337 0.63544029
0.017625276 -0.041907832 0.63772428
-0.017731987 -0.032580569 0.63841504
-0.026675891 -0.020668756 0.63703948
-0.0067295749 -0.0018165931 0.63737619
0.0069243102 0.013368784 0.63938683
0.013761728 0.017906053 0.63799989
0.021419423 -0.04183137 0.64298069
-0.035467472 -0.02618055 0.64085352
-0.029636947 -0.015128251 0.64349818
-0.01533902 -0.0052207513 0.64092505
0.019475285 0.0063294992 0.6402874
0.021419436 0.0059726909 0.64298075
-0.033340044 -0.014614247 0.64656866
0.023444254 -0.0096834749 0.64578593
-0.015070538 -0.0010046959 0.64402205
-0.0095626498 0.0085259825 0.64749086
0.0089145117 0.022659257 0.64520359
0.023444254 0.021915302 0.64578599
0.013024412 0.026570639 0.64529401
0.018396385 0.03351764 0.64684409
-0.0095092347 -0.041769549 0.6503793
-0.0020710786 0.018148392 0.64960116
0.011711542 0.033005297 0.65126264
0.013138019 -0.052552074 0.65490198
-0.045454212 -0.015059225 0.65495336
0.029352285 -0.0059791505 0.6539709
-0.029825477 -0.0019584061 0.65391326
0.022309899 0.04626615 0.65397364
0.022309899 0.04626615 0.65397364
0.032611147 -0.05425819 0.65848553
-0.044909552 -0.032559365 0.65827024
-0.023326231 0.0077754259 0.6568259
0.030954204 0.010225981 0.65619028
-0.015169065 0.015169293 0.65671712
-0.0064757206 0.023110261 0.65664899
0.00083244126 0.030648697 0.65726507
0.030954204 0.033717997 0.65619028
0.0095778406 0.03845058 0.65705079
0.026494827 0.056376398 0.65884829
0.013903376 -0.056772083 0.66260087
-0.019523542 -0.043640822 0.66137308
0.036102343 -0.042216428 0.66332239
0.034326188 -0.030035406 0.66086161
0.036102343 0.014266275 0.66332233
0.036102343 0.021836124 0.66332233
0.0099954437 0.046095587 0.66271687
0.024599317 0.057212681 0.66086721
-0.021966998 -0.045107767 0.66603297
-0.052849494 -0.0065674409 0.66691184
-0.039373055 0.0029385239 0.66461742
0.037942939 0.010078602 0.66587234
-0.029602636 0.014030176 0.66623193
-0.013743641 0.029637596 0.66698235
0.0082339011 0.047050893 0.66473222
-0.036259942 -0.041094542 0.6686424
0.039851408 -0.041964725 0.66851616
0.041831847 -0.021838672 0.67125994
0.039851408 -0.0057361647 0.66851616
0.039851408 -0.0057361647 0.66851616
0.039851535 0.0057362393 0.66851664
-0.0024971706 -0.056186348 0.67346132
-0.02968662 0.025475573 0.67522573
-0.0034188782 0.046615407 0.6727916
0.0060393279 0.057778846 0.67468733
-0.032443963 -0.048017055 0.67939699
0.046025127 0.018218294 0.67706943
-0.065435939 0.0015452256 0.6823163
0.049403362 0.0062569454 0.68174934
-0.054412361 0.010594217 0.68143314
-0.0027056036 0.05836172 0.6814456
-0.0017750147 0.061642788 0.68333566
-0.028179107 -0.05233258 0.68472081
-0.054065783 -0.043252587 0.68590164
-0.045216441 0.025552053 0.68647921
-0.03870859 0.030607393 0.68573421
-0.03870859 0.030607393 0.68573421
-0.0013905196 -0.065354407 0.69059426
0.055478986 -0.026005752 0.69016635
-0.041722395 0.034071214 0.69061011
0.055479188 0.033981025 0.69016695
0.055479188 0.05027803 0.69016695
0.055479188 0.05027803 0.69016695
0.058098711 -0.054201826 0.6937958
-0.048443496 -0.049868256 0.69473332
-0.06629812 0.014461935 0.69301939
-0.050431591 0.030037796 0.69373971
-0.03446614 0.043257713 0.69254994
-0.033821732 0.046037246 0.69425493
-0.016131086 -0.064524353 0.69976139
-0.051241536 -0.051241487 0.69946939
-0.032537442 -0.059158951 0.70127171
0.063694358 -0.049992621 0.7015481
0.063694358 -0.0062953308 0.7015481
0.063694358 -0.0062953308 0.7015481
0.063694358 0.025922149 0.7015481
-0.045999665 0.045436412 0.70256388
-0.042318366 0.046747278 0.7009334
0.063694358 0.049992695 0.7015481
-0.025641654 0.062623143 0.70130414
0.066686526 -0.057971798 0.70569313
0.06668666 -0.026144192 0.70569348
-0.063074216 0.031537145 0.704023
-0.033960879 0.061331552 0.70629263
-0.076375835 0.028056443 0.71089423
-0.058204219 0.042752646 0.70926619
0.073107906 -0.0059598461 0.71458948
0.073107906 0.013906389 0.71458948
-0.026143018 0.078430399 0.71400321
0.076558612 0.013845727 0.71937013
0.076558612 0.038279325 0.71937013
-0.05771349 0.054477822 0.71806407
-0.04326747 -0.066565305 0.72362238
-0.048112698 0.069680512 0.72300982
-0.042382285 0.073755346 0.72205967
-0.057864122 0.069895402 0.73020649
-0.03928322 0.085398316 0.72891349
-0.0298736 -0.07731989 0.73486507
-0.04707098 0.083681792 0.73318696
-0.035529036 -0.076387435 0.73718041
-0.058145784 0.080502361 0.73868799
