# .PCD v0.7 - Point Cloud Data file format
VERSION 0.7
FIELDS x y z
SIZE 4 4 4
TYPE F F F
COUNT 1 1 1
WIDTH 946
HEIGHT 1
VIEWPOINT 0 0 0 1 0 0 0
POINTS 946
DATA ascii
0.022051334 -0.0086287558 0.63847554
0.022051334 -0.0028762519 0.63847554
0.022051334 0.010546297 0.63847548
0.022051334 0.044102699 0.63847554
0.023240911 -0.047450185 0.6396364
0.023240911 -0.040671557 0.63963646
0.020319469 -0.03870371 0.63954258
0.021189349 -0.033710301 0.63900644
0.020319469 -0.026124984 0.63954258
0.021189349 -0.021189302 0.63900644
0.021189349 -0.0067420304 0.63900644
0.021189349 -0.0048157573 0.6390065
0.023240911 -0.0038734376 0.63963646
0.020319469 0.0029028058 0.63954258
0.020319469 0.013546318 0.63954258
0.023240911 0.031956255 0.63963646
0.021189349 0.043341875 0.6390065
0.019441528 -0.041799247 0.64008367
0.019441528 -0.039855093 0.64008367
0.019441528 -0.035966784 0.64008367
0.018555418 -0.021485209 0.64062989
0.018555418 -0.0087893903 0.64062989
0.019441528 0.0019441545 0.64008373
0.019441528 0.012637019 0.64008373
0.019441528 0.0213857 0.64008373
0.018555418 0.029298037 0.64062989
0.018555418 0.030274659 0.64062983
0.018555418 0.046876878 0.64062983
0.019441528 0.046659678 0.64008373
0.016758172 -0.046331406 0.64173722
0.016758172 -0.046331406 0.64173722
0.017661018 -0.044152558 0.64118111
0.016758172 -0.040416747 0.64173722
0.017661018 -0.026491493 0.64118111
0.016758172 -0.025630116 0.64173722
0.017661018 -0.018642187 0.64118111
0.017661018 -0.018642187 0.64118111
0.017661018 0.0049058497 0.64118111
0.017661018 0.0049058497 0.64118111
0.017661018 0.0098116994 0.64118111
0.017661018 0.028453857 0.64118111
0.016758172 0.045345664 0.64173722
0.014926879 -0.042790353 0.64286596
0.024702942 -0.041500926 0.64202011
0.024702942 -0.032607883 0.64202005
0.024702942 -0.030631632 0.64202005
0.014926879 -0.028858632 0.64286596
0.024702942 -0.020750433 0.64202005
0.015846848 -0.013865948 0.64229894
0.015846848 -0.013865948 0.64229894
0.014926879 -0.0089561045 0.64286596
0.024702942 0.0049405992 0.64202005
0.024702942 0.0079049766 0.64202005
0.015846848 0.016837269 0.64229894
0.024702942 0.016798049 0.64202005
0.014926879 0.017912298 0.6428659
0.024702942 0.021738589 0.64202011
0.024702942 0.027667314 0.64202011
0.015846848 0.031693697 0.64229894
0.014926879 0.032839119 0.64286596
0.015846848 0.03862673 0.64229894
0.013998142 -0.0079989135 0.64343834
0.013998142 -0.0039994717 0.6434384
0.013998142 -0.0039994717 0.6434384
0.013998142 0.028996199 0.64343834
0.013998142 0.038994849 0.64343834
0.013998142 0.046993792 0.64343834
0.013060478 -0.043199986 0.64401591
0.013060478 -0.040186077 0.64401597
0.013060478 -0.033153474 0.64401591
0.012113828 -0.030284524 0.64459944
0.013060478 -0.027125567 0.64401597
0.026225841 -0.021182388 0.64450288
0.013060478 -0.018083721 0.64401591
0.012113828 -0.015142262 0.64459944
0.012113828 -0.0070663691 0.64459944
0.013060478 0.0050233006 0.64401591
0.012113828 0.011104375 0.64459938
0.012113828 0.021199197 0.64459944
0.013060478 0.02109772 0.64401591
0.012113828 0.025237173 0.64459944
0.013060478 0.0341582 0.64401597
0.011158025 -0.046660781 0.64518851
0.010192935 -0.033636659 0.64578331
0.010192935 -0.030578762 0.64578331
0.010192935 -0.030578762 0.64578331
0.010192935 -0.025482297 0.64578331
0.010192935 -0.010192901 0.64578331
0.010192935 -0.0071350336 0.64578336
0.010192935 -0.0030578673 0.64578331
0.010192935 0.0061157942 0.64578336
0.010192935 0.013250828 0.64578331
0.011158025 0.016229868 0.64518851
0.010192935 0.02140519 0.64578331
0.011158025 0.024344802 0.64518845
0.011158025 0.035502821 0.64518851
0.011158025 0.039560288 0.64518851
0.010192935 0.047906816 0.64578331
0.010192935 0.047906816 0.64578331
0.0082343295 -0.049405962 0.64699012
0.0082343295 -0.036025167 0.64699018
0.0092184246 -0.02867955 0.646384
0.0082343295 0.0030878782 0.64699018
0.0092184246 0.0092184544 0.64638394
0.0092184246 0.0092184544 0.64638394
0.0092184246 0.027655333 0.64638394
0.0072405566 -0.03516838 0.64760268
0.0072405566 -0.009309262 0.64760268
0.02781349 -0.0041204989 0.64709133
0.0072405566 0.012412399 0.64760268
0.0072405566 0.029996604 0.64760262
0.02781349 0.033994257 0.64709133
0.0072405566 0.04551208 0.64760268
0.0072405566 0.04551208 0.64760268
0.0052233255 -0.048054576 0.64884597
0.0052233255 -0.048054576 0.64884597
0.0062369383 -0.043658525 0.64822114
0.0062369383 -0.030145168 0.64822125
0.0062369383 -0.012473851 0.64822119
0.0062369383 -0.012473851 0.64822119
0.0062369383 -0.0041579306 0.64822119
0.0062369383 0.0051974654 0.64822119
0.0062369383 0.018710822 0.64822125
0.0062369383 0.025987267 0.64822119
0.0062369383 0.037421644 0.64822125
0.0062369383 0.044698089 0.64822119
0.029470105 -0.049467653 0.64979213
0.029470105 -0.035785109 0.64979213
0.0041995575 -0.027297109 0.64947659
0.0041995575 -0.014698416 0.64947653
0.029470105 -0.013682544 0.64979213
0.029470105 -0.0031574965 0.64979219
0.029470105 0.010525078 0.64979213
0.029470105 0.013682574 0.64979213
0.029470105 0.01684007 0.64979213
0.029470105 0.021050096 0.64979208
0.029470105 0.037890166 0.64979213
0.0041995575 0.050394744 0.64947653
0.0041995575 0.050394744 0.64947653
0.0031655075 -0.051703274 0.65011388
0.0021210045 -0.043480575 0.65075767
0.0031655075 -0.03798604 0.65011394
0.0021210045 -0.015907496 0.65075767
0.0021210045 -0.013786525 0.65075767
0.0021210045 -0.010604978 0.65075767
0.0031655075 -0.00949651 0.65011388
0.0021210045 -0.0042419732 0.65075767
0.0021210045 -0.0031814873 0.65075767
0.0021210045 -0 0.65075767
0.0031655075 0.0031655133 0.65011394
0.0021210045 0.012726068 0.65075767
0.0021210045 0.01484707 0.65075761
0.0021210045 0.020149559 0.65075767
0.0031655075 0.026379287 0.65011388
0.0021210045 0.036057085 0.65075767
0.0021210045 0.0371176 0.65075761
0.0021210045 0.046662122 0.65075767
0.0010658896 0.0053294897 0.65140796
0.0010658896 0.0085271299 0.65140796
0.0010658896 0.02238369 0.65140796
0.0010658896 0.02984497 0.65140796
0.0010658896 0.05329451 0.65140796
0 -0.039639294 0.65206492
0 -0.034282625 0.65206492
0.03120028 -0.034427881 0.65261292
0 -0.032139927 0.65206492
0.03120028 -0.03120026 0.65261292
0.03120028 -0.025820911 0.65261292
0.03120028 -0.021517426 0.65261292
0 -0.0064279735 0.65206492
0.03120028 0.019365728 0.65261292
0 0.029997319 0.65206492
0.03120028 0.033352077 0.65261292
0.03120028 0.033352077 0.65261292
0 0.039639294 0.65206492
-0.0010768269 0.044149935 0.6527282
0.03120028 0.050565988 0.65261292
-0.0021647636 -0.046542436 0.65339875
-0.0021647636 -0.037883312 0.65339875
-0.0021647636 -0.031389058 0.65339875
-0.0021647636 -0.027059525 0.65339875
-0.0021647636 -0.0173181 0.65339875
-0.0021647636 -0.0173181 0.65339875
-0.0021647636 -0.014070988 0.65339875
-0.0021647636 -0.0010823607 0.65339875
-0.0021647636 0.028141946 0.65339875
-0.0021647636 0.041130513 0.65339875
-0.0021647636 0.042212874 0.65339875
-0.0021647636 0.048707217 0.65339875
-0.0021647636 0.048707217 0.65339875
-0.0032639829 -0.053311706 0.65407622
-0.0032639829 -0.045695752 0.65407622
-0.0043746615 -0.043746591 0.65476078
-0.0032639829 -0.025023848 0.65407622
-0.0043746615 -0.019685954 0.65476078
-0.0043746615 0.0098429918 0.65476084
-0.0043746615 0.0098429918 0.65476084
-0.0032639829 0.016319931 0.65407622
-0.0032639829 0.021759927 0.65407622
-0.0032639829 0.029375881 0.65407622
-0.0032639829 0.030463874 0.65407622
-0.0032639829 0.036991835 0.65407622
-0.0032639829 0.045695782 0.65407622
-0.0043746484 0.051402122 0.65476042
-0.0054969629 -0.01978904 0.65545213
0.03300903 -0.014303893 0.6555618
-0.0077772476 -0.049996585 0.65685755
-0.0077772476 -0.036664158 0.65685755
-0.0077772476 -0.028886914 0.65685755
-0.0077772476 -0.012221366 0.65685755
-0.0077772476 -0.0044441223 0.65685749
-0.0066311001 0.0066311359 0.65615118
-0.0077772476 0.0099993348 0.65685755
-0.0077772476 0.0099993348 0.65685755
-0.0066311001 0.013262242 0.65615112
-0.0077772476 0.029997975 0.65685755
-0.0077772476 0.031109005 0.65685755
-0.0077772476 0.037775218 0.65685755
-0.0066311001 0.045312554 0.65615118
-0.0077772476 0.048885584 0.65685755
-0.0077772476 0.049996614 0.65685761
-0.0077772476 0.053329736 0.65685755
-0.0089355977 -0.015637249 0.65757143
-0.0089355977 0.0022339225 0.65757149
-0.0089355977 0.022339016 0.65757149
-0.010106347 -0.04716295 0.65829301
-0.010106347 -0.041548282 0.65829301
-0.010106347 -0.028073192 0.65829307
0.034901828 -0.027020752 0.65864766
-0.010106347 -0.024704397 0.65829307
0.034901828 -0.015762091 0.65864766
-0.010106347 0.025827378 0.65829301
-0.010106318 0.051654547 0.65829265
-0.010106318 0.056146264 0.65829265
-0.012485808 -0.054483533 0.65975922
-0.012485808 -0.053348452 0.65975922
-0.011289662 -0.046287596 0.65902197
-0.012485808 -0.032917112 0.65975916
-0.011289662 -0.011289656 0.65902197
-0.011289662 -0.0033868849 0.65902197
-0.011289662 0.007902801 0.65902197
-0.011289662 0.040642798 0.65902197
-0.012485808 0.046538055 0.65975916
-0.011289662 0.055319369 0.65902197
-0.013694967 -0.034237385 0.66050446
-0.013694967 -0.028531134 0.66050446
-0.013694967 -0.028531134 0.66050446
-0.013694967 0.0011412799 0.6605044
-0.013694967 0.010271251 0.66050446
-0.013694967 0.050214887 0.66050446
-0.014917351 -0.052784413 0.6612578
0.036884673 -0.046105832 0.66188037
-0.014917351 -0.04589954 0.66125786
-0.014917351 -0.04589954 0.66125786
0.036884673 -0.029968768 0.66188037
-0.014917351 -0.0091798604 0.6612578
0.036884673 -0.0092211366 0.66188037
-0.014917351 -0.001147449 0.66125786
-0.014917351 0.0022949874 0.6612578
0.036884673 0.043800592 0.66188037
0.036884673 0.044953227 0.66188043
-0.016153131 -0.051920772 0.66201913
-0.017402621 -0.049887478 0.66278917
-0.017402621 -0.049887478 0.66278917
-0.016153131 -0.036921412 0.66201907
-0.017402621 -0.033645034 0.66278917
-0.017402621 -0.033645034 0.66278917
-0.017402621 -0.025523812 0.66278917
-0.017402621 -0.01508221 0.66278917
-0.017402621 -0.0046406984 0.66278917
-0.017402621 2.9802322e-08 0.66278917
-0.016153131 0.012691736 0.66201907
-0.016153131 0.036921442 0.66201913
-0.016153131 0.046151817 0.66201907
-0.016153131 0.053074598 0.66201907
-0.017402621 0.056848556 0.66278917
-0.018666005 -0.039665222 0.66356778
-0.018666005 -0.026832372 0.66356784
-0.018666005 0.01283291 0.66356784
-0.018666005 0.031498909 0.66356784
-0.019943517 -0.053964794 0.66435522
-0.019943517 -0.025809258 0.66435522
-0.019943517 0.0011731684 0.66435516
-0.019943517 0.017597228 0.66435522
0.038964149 -0.057855844 0.66527069
0.038964149 -0.057855844 0.66527069
-0.021235395 -0.050728977 0.66515136
-0.021235395 -0.0294936 0.66515142
-0.021235395 -0.024774611 0.66515142
-0.021235395 -0.024774611 0.66515142
-0.021235395 -0.024774611 0.66515142
0.038964149 -0.016530216 0.66527063
0.038964149 0.0047229528 0.66527069
-0.021235395 0.012977213 0.66515142
-0.021235395 0.015336692 0.66515142
0.038964149 0.029518306 0.66527063
-0.022541814 0.032033145 0.6659562
-0.022541814 0.035592318 0.66595626
0.038964149 0.036602706 0.66527063
-0.022541814 0.039151579 0.6659562
-0.02123533 0.042470664 0.665151
-0.022541814 0.046270043 0.6659562
-0.02123533 0.053088367 0.665151
-0.023863155 2.9802322e-08 0.66677058
-0.023863155 0.026249498 0.66677058
-0.023863155 0.026249498 0.66677058
-0.025199609 -0.055199146 0.66759431
-0.025199609 0.0083999038 0.66759425
-0.025199609 0.014399827 0.66759431
-0.025199609 0.019199729 0.66759425
-0.025199609 0.032399535 0.66759425
-0.025199533 0.055198997 0.66759384
-0.025199533 0.055198997 0.66759384
-0.026551438 -0.056723505 0.66842747
-0.026551438 -0.049482226 0.66842747
-0.026551438 -0.036206484 0.66842747
0.041147493 -0.03630659 0.66883028
0.041147493 -0.03630659 0.66883028
0.041147493 -0.032675922 0.66883022
-0.026551438 -0.028965175 0.66842747
0.041147493 -0.014522612 0.66883028
0.041147493 0.014522672 0.66883022
-0.026551355 0.03258577 0.66842699
-0.026551355 0.036206454 0.66842699
-0.026551355 0.044654548 0.66842699
-0.026551355 0.054309607 0.66842699
-0.027918823 -0.041271269 0.6692698
-0.027918823 -0.010924727 0.6692698
-0.027918823 -0.0048554242 0.66926974
-0.027918823 -0.0048554242 0.66926974
-0.030701777 -0.05771935 0.67098504
-0.030701777 -0.055263191 0.67098498
-0.030701777 -0.030701756 0.67098498
-0.029302204 0.043953329 0.67012239
-0.030701777 0.051579028 0.67098498
-0.030701676 0.058947265 0.67098451
-0.032117829 -0.042000234 0.67185777
-0.032117829 -0.0098823905 0.67185771
-0.032117829 -0.0098823905 0.67185771
-0.032117829 0.0049411952 0.67185771
-0.032117829 0.014823645 0.67185771
-0.032117829 0.01976487 0.67185771
-0.032117724 0.048176616 0.67185724
-0.033550657 -0.059645563 0.67274082
-0.033550657 -0.054675132 0.67274082
-0.033550657 -0.050947249 0.67274082
-0.033550657 -0.045976818 0.67274082
-0.033550657 -0.036035895 0.67274088
-0.033550657 -0.001242578 0.67274082
-0.033550657 -0.001242578 0.67274082
-0.033550546 0.0049704611 0.67274034
0.043442685 0.0074473619 0.67257214
-0.033550546 0.014911383 0.67274034
-0.033550546 0.044734061 0.67274034
-0.033550546 0.054674983 0.67274034
0.043442685 0.058337331 0.67257214
-0.03500044 -0.026250273 0.67363393
-0.03500044 0.010000139 0.67363393
-0.03500044 0.026250333 0.67363393
-0.03500044 0.032500446 0.67363393
-0.03500044 0.032500446 0.67363393
-0.03500044 0.043750584 0.67363393
-0.03500044 0.046250612 0.67363393
-0.03500044 0.052500695 0.67363393
-0.036467709 -0.020120114 0.67453825
-0.036467709 0.018862665 0.67453825
-0.037952673 -0.058194041 0.67545342
-0.037952673 -0.056928962 0.67545354
-0.037952673 -0.029097021 0.67545348
-0.037952673 -0.017711222 0.67545348
-0.037952673 -0.0063254535 0.67545348
-0.037952673 -0.0063254535 0.67545348
-0.037952673 0.01012072 0.67545348
-0.03795255 0.037952572 0.67545295
-0.03795255 0.058193952 0.67545295
0.045858551 -0.048406243 0.67651087
-0.039455522 0.016545862 0.67637926
-0.039455522 0.016545862 0.67637926
-0.039455522 0.026727945 0.67637932
-0.039455522 0.050910354 0.67637932
0.045858402 0.053501487 0.67651033
-0.040976845 -0.046098918 0.67731684
-0.040976845 -0.039696306 0.6773169
-0.040976845 -0.010244191 0.67731684
-0.042516846 -0.057977498 0.67826605
-0.042516846 -0.037363291 0.67826605
-0.042516846 -0.019325823 0.67826605
-0.042516846 5.9604645e-08 0.67826605
-0.042516846 0.010307103 0.67826605
-0.044075876 -0.059632033 0.67922688
-0.044075876 -0.047964931 0.67922693
-0.044075876 -0.04666853 0.67922688
-0.044075876 -0.011667132 0.67922688
-0.044075876 2.9802322e-08 0.67922693
-0.044075876 0.022037953 0.67922693
0.048404865 -0.061487228 0.68066216
0.048404865 -0.060178995 0.68066216
0.048404865 -0.058870763 0.68066221
0.048404865 -0.053637803 0.68066216
-0.045654293 -0.039132237 0.68019974
0.048404865 -0.028781265 0.68066221
0.048404865 -0.019623548 0.68066216
0.048404697 -0.013082325 0.68066162
0.048404697 -0.011774093 0.68066168
0.048404697 0.01046589 0.68066168
0.048404697 0.011774153 0.68066168
0.048404697 0.024856478 0.68066168
0.048404697 0.048404723 0.68066168
0.048404697 0.049712956 0.68066168
-0.045654137 0.052176178 0.68019915
-0.045654137 0.052176178 0.68019915
-0.045654137 0.060002595 0.68019915
-0.047252294 0.0039377213 0.68118417
-0.047252294 0.015750796 0.68118417
-0.047252294 0.028876454 0.68118411
-0.048870571 -0.062078804 0.68218154
-0.048870571 -0.056795508 0.68218148
-0.048870571 -0.051512212 0.68218154
-0.048870571 -0.023774892 0.68218148
-0.048870571 -0.015849859 0.68218154
-0.048870571 -0.010566562 0.68218154
-0.048870571 -0.0013208091 0.6821816
-0.048870571 0.036983132 0.68218154
-0.048870571 0.046228945 0.68218148
-0.048870571 0.058116347 0.68218154
-0.048870571 0.063399673 0.68218154
-0.050509352 -0.023925483 0.68319154
-0.050509352 0.0039875805 0.68319154
-0.050509352 0.011962742 0.68319154
-0.050509352 0.018608749 0.68319154
-0.050509352 0.029242277 0.68319154
-0.050509177 0.062471896 0.683191
-0.052169025 0.0026753247 0.68421447
-0.052169025 0.012039065 0.68421441
-0.053849999 -0.044426233 0.68525052
0.051092479 -0.034957975 0.68504393
0.051092479 -0.024201661 0.68504393
0.051092479 -0.020168066 0.68504399
-0.053849999 -0.013462484 0.68525046
-0.053849999 -0.013462484 0.68525046
0.051092297 -0.0067226589 0.68504333
-0.053849809 -0.0013462603 0.68524987
-0.053849809 0.029617399 0.68524987
0.051092297 0.038991541 0.68504333
0.051092297 0.044369638 0.68504333
-0.053849809 0.048464864 0.68524992
0.051092297 0.055125952 0.68504333
0.051092297 0.057814986 0.68504333
-0.055552486 -0.058262348 0.68629932
-0.055552486 -0.033873439 0.68629932
-0.055552486 -0.020324051 0.6862992
-0.055552486 2.9802322e-08 0.68629932
-0.055552486 0.021679044 0.68629926
-0.055552486 0.042003155 0.68629926
-0.055552486 0.056907445 0.68629926
-0.057277296 -0.0409123 0.68736231
-0.057277296 -0.015001178 0.68736225
-0.057277296 0.012273729 0.68736231
-0.057277296 0.025911152 0.68736231
-0.057277296 0.038184911 0.68736231
-0.057277296 0.04091239 0.68736231
-0.057277091 0.06545952 0.68736172
-0.059024669 -0.061769992 0.68843925
-0.059024669 -0.059024632 0.68843925
-0.059024669 -0.053534001 0.68843925
-0.059024669 -0.039807349 0.68843931
-0.059024669 -0.030198634 0.68843925
-0.059024669 -0.024707973 0.68843925
-0.059024669 -0.010981292 0.68843919
-0.059024669 0.020590037 0.68843925
-0.059024457 0.031571239 0.68843865
-0.059024457 0.038434535 0.68843865
-0.059024457 0.052161187 0.68843865
-0.059024457 0.059024513 0.68843865
-0.060794838 -0.0041450858 0.68952972
-0.060794838 -0.0041450858 0.68952972
0.0539333 0.0096803904 0.68967515
0.0539333 0.013829052 0.68967509
-0.060794838 0.03177914 0.68952972
-0.062588923 -0.043116748 0.69063592
-0.062588923 -0.03755334 0.69063598
-0.062588692 -0.013908565 0.69063532
-0.062588692 -0.0041725636 0.69063538
-0.062588692 0.0055634975 0.69063532
-0.062588692 0.015299499 0.69063532
-0.062588692 0.045898408 0.69063538
-0.062588692 0.055634409 0.69063532
-0.062588692 0.055634409 0.69063532
-0.064406484 -0.047604769 0.69175565
-0.064406484 -0.0014001131 0.69175571
-0.064406484 0.022402287 0.69175565
-0.064406484 0.028002828 0.69175565
-0.064406253 0.063006133 0.69175506
-0.064406253 0.064406276 0.69175506
-0.066248707 -0.063429594 0.69289112
-0.066248707 -0.062020034 0.69289112
-0.066248707 -0.007047683 0.69289106
-0.066248707 -0.005638212 0.69289106
-0.066248707 0.008457303 0.69289106
-0.066248707 0.008457303 0.69289106
-0.066248707 0.033829153 0.69289106
-0.066248462 0.036648095 0.69289047
-0.066248462 0.039467186 0.69289047
-0.066248462 0.040876716 0.69289047
-0.066248462 0.052153051 0.69289041
0.056941431 -0.045553148 0.69457972
0.056941431 -0.045553148 0.69457972
-0.068115838 -0.038315117 0.69404179
-0.068115838 -0.031219751 0.69404185
-0.068115585 0.048248559 0.69404119
-0.068115585 0.056762993 0.69404113
-0.068115585 0.06385836 0.69404119
-0.068115585 0.06385836 0.69404119
-0.070008136 -0.00428617 0.6952076
-0.070008136 0.0057149529 0.6952076
-0.070008136 0.021431088 0.6952076
-0.071926646 -0.040278852 0.69638997
0.060131442 -0.039598733 0.6997804
0.060131442 -0.039598733 0.6997804
0.060131442 -0.038132101 0.69978046
0.060131442 -0.032265633 0.69978046
0.060131442 -0.030799001 0.69978046
0.060131442 -0.020532668 0.69978046
0.060131215 -0.00733307 0.69977975
0.060131215 -0.00733307 0.69977975
0.060131215 -0.0014666021 0.69977981
0.060131215 -0.0014666021 0.69977981
0.060131215 0.017599404 0.69977975
0.060131215 0.026399076 0.69977975
0.060131215 0.027865708 0.69977981
0.060131215 0.03666541 0.69977981
0.060131215 0.038132012 0.69977981
0.060131215 0.038132012 0.69977981
0.060131215 0.046931714 0.69977981
0.060131215 0.048398316 0.69977975
0.060131215 0.048398316 0.69977975
0.060131215 0.055731416 0.69977975
0.060131215 0.05866462 0.69977975
0.060131215 0.060131252 0.69977975
0.060131215 0.060131252 0.69977975
0.063520581 -0.022685915 0.70530587
0.067127816 0.012488902 0.71118659
0.07097578 -0.038714021 0.71746039
0.07097578 -0.037100941 0.71746039
0.07097578 -0.03548786 0.71746039
0.07097578 -0.03387478 0.71746045
0.07097578 -0.032261699 0.71746045
0.070975475 -0.0080653727 0.71745956
0.070975475 0.0048392713 0.71745956
0.070975475 0.022583127 0.71745956
0.075088456 -0.053396195 0.7241655
0.075088456 -0.051727593 0.72416544
0.075088456 -0.020023555 0.72416544
0.075088128 0.0016686618 0.72416455
0.075088128 0.013349026 0.72416455
0.079494111 -0.0086406767 0.7313478
0.079494111 0.038018912 0.7313478
0.079494111 0.050115883 0.7313478
0.079494111 0.057028443 0.7313478
0.079494111 0.060484678 0.7313478
0.020754408 -0.037166834 0.63927454
0.020754408 -0.014963262 0.6392746
0.022646122 0.0091538802 0.63905597
0.022646122 0.022763595 0.63905597
0.017209595 -0.029012389 0.64145923
0.017209595 -0.029012389 0.64145923
0.018998474 -0.018999591 0.64035678
0.018998474 -0.0034101456 0.64035678
0.017209595 0.021144643 0.64145923
0.024702942 -0.044959337 0.64202011
0.015386865 -0.041200213 0.64258242
0.013998142 -0.039494723 0.64343834
0.013998142 -0.039494723 0.64343834
0.015386865 -0.033257969 0.64258242
0.015386864 -0.019359127 0.64258242
0.015386864 -0.0094313547 0.64258242
0.024702942 0.0034584403 0.64202005
0.013998142 0.013498262 0.64343834
0.013998142 0.025496632 0.64343834
0.013998142 0.025496632 0.64343834
0.024702942 0.027173266 0.64202011
0.015386864 0.0392147 0.64258242
0.015386865 0.04914245 0.64258242
0.012587153 -0.038772129 0.64430773
0.026225841 -0.038834378 0.64450288
0.01067548 -0.022878654 0.64548588
0.01067548 -0.022878654 0.64548588
0.026225841 -0.016643301 0.64450288
0.01067548 -0.014744014 0.645486
0.012587154 -0.0025176406 0.64430773
0.010675481 0.0025421083 0.64548588
0.010675481 0.0025421083 0.64548588
0.0072405566 -0.02947937 0.64760268
0.02781349 -0.0128766 0.64709127
0.0072405566 0.012929589 0.64760268
0.008726377 0.029263251 0.64668703
0.008726377 0.044664957 0.64668709
0.008726377 0.044664957 0.64668709
0.02781349 0.046870887 0.64709127
0.02781349 0.046870887 0.64709127
0.029470105 -0.019471288 0.64979219
0.0062369383 -0.012993604 0.64822125
0.029470105 -0.0089462548 0.64979219
0.0062369383 -0.0067566633 0.64822119
0.029470105 0.026838884 0.64979213
0.0047114417 0.028800152 0.64916122
0.002643256 -0.049189337 0.65043575
0.002643256 -0.042842336 0.65043581
0.00281734 -0.035230927 0.6503284
0.002643256 -0.031206131 0.65043581
0.00281734 -0.017262846 0.65032852
0.00281734 -0.017262846 0.65032852
0.002643256 0.0047602877 0.65043581
0.0010658896 0.01865308 0.65140796
0.0024691722 0.038819343 0.65054309
0.002643256 0.047073707 0.65043581
0.03120028 -0.04680039 0.65261292
-0.0010768269 -0.039304182 0.65272826
-0.0021647636 -0.025435954 0.65339875
0 -0.0091063231 0.65206492
0.03120028 -0.0026896447 0.65261292
-0.0010768269 0.0026921034 0.6527282
-0.0010768269 0.011306703 0.65272826
0.03120028 0.01129666 0.65261292
0 0.025176331 0.65206492
0 0.043388978 0.65206492
0 0.050888121 0.65206456
-0.0049358122 -0.053181641 0.65510648
-0.0032639829 -0.04515174 0.65407622
-0.0049358122 -0.031251051 0.65510643
0.03300903 -0.019255236 0.6555618
-0.0049358122 0.00054828078 0.65510648
-0.0049358122 0.019189291 0.65510643
-0.0049358122 0.029058032 0.65510648
0.03300903 0.033009082 0.65556175
0.03300903 0.042911738 0.6555618
0.03300903 0.044562206 0.6555618
-0.0089355977 -0.032949999 0.65757149
-0.0072041741 -0.022716217 0.65650433
-0.0072041741 0.037121676 0.65650433
-0.0089355977 0.050821245 0.65757143
-0.010895224 -0.044701785 0.65877903
0.034901828 -0.043345779 0.65864766
0.034901828 -0.043345779 0.65864766
-0.010698004 -0.030963525 0.65865749
-0.012485808 -0.015323475 0.65975922
0.034901828 -0.0028146505 0.65864766
-0.012485808 0.0028377175 0.65975916
0.034901828 0.01294747 0.65864766
-0.012485808 0.017026126 0.65975916
-0.01069799 0.033215404 0.65865731
-0.010697991 0.041097015 0.65865731
0.034901828 0.051226884 0.65864766
-0.013694967 -0.039372995 0.66050446
-0.013694967 -0.039372995 0.66050446
-0.013694967 -0.023395538 0.6605044
-0.014917351 -0.021228507 0.6612578
-0.013694967 -0.021113038 0.66050446
-0.013694967 -0.0091299415 0.66050446
-0.013694967 0.0051356256 0.66050446
-0.014917351 0.029260978 0.66125786
-0.014917306 0.040735736 0.66125739
-0.018666005 -0.050748169 0.6635679
-0.018666005 -0.016916052 0.66356784
-0.016569629 0.051245164 0.66227579
-0.021235395 -0.043060631 0.66515148
-0.021235395 -0.043060631 0.66515148
-0.022541814 -0.023134992 0.6659562
-0.022541814 -0.0011863708 0.6659562
-0.019943517 0.0070389211 0.66435522
0.038964149 0.011216983 0.66527057
-0.019943517 0.014664382 0.66435522
-0.019943517 0.022876397 0.66435522
-0.019943517 0.022876397 0.66435522
-0.019943517 0.039300486 0.66435522
-0.02123533 0.040701076 0.665151
-0.025199609 -0.050999179 0.66759431
-0.023863155 -0.035198137 0.66677058
-0.023863155 -0.0089486241 0.66677058
-0.023863155 0.01133503 0.66677058
0.041147493 -0.056880355 0.66883028
-0.027007235 -0.045143031 0.66870826
-0.027007233 -0.039096981 0.66870826
-0.027235132 -0.02723337 0.66884863
-0.027235132 -0.02723337 0.66884863
0.041147493 -0.010891944 0.66883022
0.041147493 0.050829291 0.66883028
-0.027463 0.058960598 0.66898888
-0.032117829 -0.048794359 0.67185771
-0.032117829 -0.029029533 0.67185771
-0.029302204 0.0067151338 0.67012239
-0.032117724 0.032735392 0.67185724
-0.030701777 0.041140392 0.67098498
-0.029302204 0.045174271 0.67012239
-0.030701777 0.050964981 0.67098498
-0.032117724 0.05867663 0.67185724
-0.033550657 -0.059024259 0.67274082
-0.033550657 -0.059024259 0.67274082
-0.03500044 -0.04312554 0.67363393
0.043442685 -0.037236571 0.6725722
-0.033550657 0.00062133372 0.67274082
0.043442685 0.014894664 0.6725722
-0.033550546 0.042870164 0.67274034
0.043442685 0.062061012 0.67257214
-0.037210189 -0.029009834 0.67499584
-0.037210193 0.0069371685 0.67499584
-0.037210193 0.0069371685 0.67499584
-0.037210189 0.0088291019 0.67499584
-0.036962695 0.02309981 0.67484331
-0.036962695 0.02309981 0.67484331
-0.037210129 0.054866396 0.6749956
-0.036962658 0.057120692 0.67484319
-0.040976845 -0.056983382 0.6773169
0.045858551 -0.056686267 0.67651081
0.045858551 -0.050953925 0.67651081
-0.039455652 -0.047092199 0.6763798
0.045858551 -0.038852394 0.67651081
-0.040976845 -0.032653406 0.6773169
0.045858402 -0.012738407 0.67651033
-0.040976845 -0.0032013059 0.6773169
-0.039455652 0.00063639879 0.6763798
-0.039455522 0.038819179 0.67637932
-0.039455522 0.04709208 0.67637932
-0.042516846 -0.025123566 0.67826605
-0.042516846 -0.01868163 0.67826605
-0.044075876 0.0071299523 0.67922688
-0.044075876 0.0090744793 0.67922693
-0.042516846 0.018681645 0.67826605
-0.044075876 0.031112373 0.67922693
-0.044075724 0.044723913 0.67922634
-0.047252458 -0.053158969 0.68118471
-0.047252458 -0.053158969 0.68118471
-0.045654293 -0.050871938 0.68019974
-0.045654293 -0.039132237 0.68019974
-0.045654293 -0.039132237 0.68019974
0.048404865 -0.030743599 0.68066216
-0.047252458 -0.026907623 0.68118471
-0.047252458 -0.026907623 0.68118471
0.048404865 -0.022894174 0.68066216
0.048404697 -0.007195279 0.68066162
-0.047252294 0.011156827 0.68118417
-0.045654137 0.035218894 0.68019921
0.048404697 0.037284717 0.68066162
-0.047252294 0.051189989 0.68118417
-0.047252294 0.051189989 0.68118417
-0.045654137 0.058698237 0.68019915
-0.050509352 -0.063136637 0.68319154
-0.050509352 -0.063136637 0.68319154
-0.050509352 -0.037217408 0.6831916
-0.048870571 -0.019151956 0.68218148
-0.050509352 -0.015285686 0.68319154
-0.050509352 0.021267116 0.6831916
-0.050509177 0.061142683 0.683191
-0.050509177 0.061142683 0.683191
-0.05300951 -0.057033226 0.6847325
0.051092479 -0.04705888 0.68504393
-0.05300951 -0.044955596 0.68473244
-0.05300951 -0.026839152 0.68473244
0.051092479 -0.026890755 0.68504393
0.051092297 -0.0087394565 0.68504333
0.051092297 0.00067228079 0.68504333
-0.053009417 0.0026839226 0.6847322
-0.053009324 0.026839092 0.6847319
-0.057277296 -0.012955561 0.68736231
-0.057277296 0.032729924 0.68736231
-0.055552486 0.042680621 0.68629926
-0.055552486 0.067069501 0.68629926
-0.059024669 -0.063142657 0.68843925
-0.059024669 -0.048729643 0.68843925
-0.060795061 -0.040760309 0.68953043
-0.059024669 -0.037062019 0.68843925
-0.059024669 -0.037062019 0.68843925
-0.059024669 -0.023335308 0.68843919
-0.059024669 -0.006863296 0.68843925
0.0539333 0.013137609 0.68967509
-0.059024457 0.041179925 0.68843865
-0.060794838 0.056649774 0.68952978
-0.064406484 -0.056705698 0.69175565
-0.064406484 -0.018901885 0.69175565
-0.062588692 -0.016690314 0.69063532
-0.062588692 -0.011126846 0.69063538
-0.064406484 -0.002800256 0.69175565
-0.064406484 0.00070008636 0.69175565
-0.062588692 0.0069543421 0.69063532
-0.062588692 0.016690314 0.69063538
-0.062588692 0.022949189 0.69063538
-0.062588692 0.022949189 0.69063538
-0.062588692 0.033380628 0.69063532
-0.062588692 0.05285269 0.69063538
-0.066248707 -0.057086632 0.692891
-0.066248707 -0.02678138 0.69289106
-0.066248707 -0.007047683 0.69289106
-0.066248462 0.064838916 0.69289041
-0.066248462 0.066953272 0.69289041
0.056941431 -0.05694142 0.69457972
-0.068115838 -0.053215459 0.69404185
0.056941431 -0.052670836 0.69457972
0.056941431 -0.052670836 0.69457972
-0.068115838 -0.046829641 0.69404185
0.056941431 -0.029182464 0.6945796
0.056941219 0.0049823523 0.69457901
-0.068115585 0.012771696 0.69404119
-0.070008136 0.015001774 0.6952076
-0.070008136 0.020716712 0.6952076
0.056941219 0.021352977 0.69457901
-0.068115585 0.026962429 0.69404113
-0.070008136 0.035004079 0.6952076
0.056941219 0.042705953 0.69457901
-0.070008136 0.05500643 0.6952076
0.056941219 0.062635392 0.69457901
-0.071926646 -0.056822047 0.69639003
-0.071926646 -0.023016512 0.69639003
0.060131215 0.035198778 0.69977981
0.060131215 0.05133155 0.69977975
0.063520581 -0.031004071 0.70530593
0.063520327 -0.016636252 0.70530522
0.063520327 -0.016636252 0.70530522
0.063520327 0.004537195 0.70530522
0.063520327 0.0068057775 0.70530522
0.067128092 -0.062444687 0.71118736
0.067128092 -0.028880671 0.71118736
0.067127816 0.023416728 0.71118653
0.067127816 0.03902784 0.71118665
0.07097578 -0.046779484 0.71746039
0.070975475 0.041133508 0.71745956
0.075088456 -0.060905069 0.72416544
0.075088128 -0.018354863 0.72416461
0.075088128 -0.0033372343 0.72416455
0.075088128 -0.0033372343 0.72416455
0.075088128 0.016686291 0.72416455
0.075088128 0.06090486 0.72416455
0.075088128 0.06090486 0.72416455
0.079494469 -0.050980136 0.73134875
0.024702942 -0.030137576 0.64202011
0.018104035 -0.025940953 0.640908
0.024702942 -0.018280149 0.64202011
0.024702942 0.022232659 0.64202011
0.014692502 0.046328999 0.64301038
0.014692503 0.049317949 0.64301038
0.012587154 -0.041793332 0.64430773
0.0072405566 -0.033616833 0.64760268
0.0072405566 -0.0056889877 0.64760268
0.0072405566 0.0098264888 0.64760268
0.027019665 0.017839678 0.64579707
0.012587153 0.021651998 0.64430767
0.027019667 0.037712742 0.64579707
0.0018545727 -0.0058402158 0.65092188
0.0018545728 0.030263117 0.65092188
0.0054741898 0.033909984 0.64869118
0.029470105 0.052625239 0.64979213
-0.0049358122 -0.046054192 0.65510648
0.03120028 -0.038193427 0.65261292
-0.0021685245 -0.022189206 0.65340108
-0.0021685245 -0.0178596 0.65340108
0.03120028 0.010220788 0.65261292
0.03300903 0.013753802 0.6555618
0 0.042317644 0.65206492
-0.012485808 -0.050226972 0.65975916
-0.012485808 -0.033768415 0.65975916
-0.012485808 0.014188446 0.65975916
-0.012485808 0.014188446 0.65975916
-0.012485808 0.01787743 0.65975916
-0.0072041741 0.026040588 0.65650433
-0.0098660998 0.038042344 0.65814477
0.034901828 0.042219967 0.65864766
0.034901828 0.042219967 0.65864766
-0.012485808 0.050227024 0.65975916
-0.0098167937 0.054108743 0.65811443
-0.01430616 -0.038192857 0.66088116
-0.01430616 -0.030182298 0.66088116
-0.01430616 -0.0020026155 0.66088116
-0.01430616 0.0017165691 0.66088116
0.036884673 0.0017289966 0.66188037
-0.017721942 0.030061135 0.66298598
-0.017669879 0.04220178 0.66295391
-0.022546789 -0.038063753 0.66595942
0.038964149 -0.038078569 0.66527069
-0.022546789 0.013940672 0.66595942
0.038964149 0.045753375 0.66527069
-0.022546768 0.057936005 0.6659593
-0.032117829 -0.057750285 0.67185771
-0.032117829 -0.046014942 0.67185771
-0.03000199 -0.046071269 0.67055368
-0.03000199 -0.037958521 0.67055368
-0.03000199 -0.033979785 0.67055368
-0.03000199 -0.018061336 0.67055368
0.041147493 -0.013917491 0.66883028
-0.027235132 0.022089321 0.66884863
-0.03000199 0.033979844 0.67055368
-0.03000199 0.042091701 0.67055368
-0.027121134 0.050104521 0.66877818
-0.032117724 0.061147228 0.67185724
-0.037333935 -0.025973702 0.67507213
0.043442685 -0.022031635 0.67257214
-0.037210189 -0.0097750388 0.6749959
0.043442685 -0.0058957636 0.67257214
-0.037210189 -0.0022072569 0.67499584
-0.034275495 0.014021058 0.67318714
-0.037333935 0.025973758 0.67507219
0.043442685 0.034133568 0.67257214
0.043442685 0.034133568 0.67257214
0.045858551 -0.041718513 0.67651081
-0.041746844 -0.038051553 0.67779148
-0.041746847 -0.017981406 0.67779148
-0.041746847 -0.0061011389 0.67779148
-0.039455652 0.0019091666 0.6763798
0.045858402 0.049998417 0.67651033
-0.044075724 0.058011457 0.6792264
0.048404865 -0.033687145 0.68066216
-0.046453293 0.010140788 0.68069196
-0.046453215 0.029768042 0.68069166
-0.046453215 0.029768042 0.68069166
-0.046453215 0.050049525 0.68069172
-0.049689874 0.057969097 0.68268627
-0.054280996 -0.057981644 0.68551588
-0.054280996 -0.041800253 0.68551588
0.051092479 -0.042016827 0.68504393
-0.054280996 -0.038093656 0.68551588
0.051092479 -0.037983194 0.68504393
-0.054280996 -0.013821566 0.68551588
-0.054280929 0.01786695 0.68551564
-0.057277296 0.026252121 0.68736231
-0.054280907 0.045845591 0.68551564
-0.064406484 -0.029752962 0.69175565
0.0539333 -0.0020743459 0.68967509
0.0539333 0.054279029 0.68967509
-0.069062114 -0.046098515 0.69462502
-0.069062114 -0.046098515 0.69462502
-0.069061987 -0.021891985 0.69462466
-0.069061987 -0.0099661276 0.69462472
-0.066248707 -0.002114296 0.69289106
0.056941219 0.038079448 0.69457901
-0.066248462 0.061667465 0.69289041
0.060131386 -0.017966084 0.69978034
0.060131215 0.0018332899 0.69977975
-0.071926646 0.038121149 0.69638997
0.063520327 0.034028754 0.70530522
0.063520327 0.054067917 0.70530522
0.067127816 -0.013659708 0.71118665
0.067127816 0.010147259 0.71118659
0.067127816 0.010147259 0.71118659
0.067127816 0.017952815 0.71118665
0.07097578 -0.049602352 0.71746039
0.070975475 0.045972779 0.71745956
0.075088456 -0.045887381 0.72416544
0.079494111 0.021601692 0.7313478
