# .PCD v0.7 - Point Cloud Data file format
VERSION 0.7
FIELDS x y z
SIZE 4 4 4
TYPE F F F
COUNT 1 1 1
WIDTH 833
HEIGHT 1
VIEWPOINT 0 0 0 1 0 0 0
POINTS 833
DATA ascii
-0.02094448 -0.027646691 0.62387264
-0.024108801 -0.026602805 0.6230951
-0.032422181 -0.022446126 0.6230951
-0.020198679 -0.027773201 0.62433523
-0.023530286 -0.025210977 0.62418503
-0.026499946 -0.02355589 0.62429547
-0.016548511 -0.027157262 0.62518668
-0.027246915 -0.021286637 0.62552476
-0.030518427 -0.020345598 0.62507427
-0.03065278 -0.019583732 0.62552476
-0.013805792 -0.02588582 0.62690037
-0.010424153 -0.026493728 0.62760258
-0.01470143 -0.025078863 0.62713307
-0.018160591 -0.023349285 0.62713313
-0.029468775 -0.017334551 0.62736714
-0.019284172 -0.020597979 0.62855303
-0.030540759 -0.015706658 0.628075
-0.031555917 -0.014462098 0.62855303
-0.034399725 -0.013409376 0.6283136
-0.034592465 -0.033705443 0.62981236
-0.01677631 -0.030020744 0.62932682
-0.01677631 -0.030020744 0.62932682
-0.012383968 -0.0225555 0.62952065
-0.0062264223 -0.028463632 0.6301145
-0.018747358 -0.017854601 0.63050592
-0.018747358 -0.017854601 0.63050592
-0.029324777 -0.013329446 0.63001078
-0.010837822 -0.019869298 0.63176376
0.0027157932 -0.026252687 0.6320188
-0.00090952142 -0.023647517 0.63253266
-0.0045476072 -0.021828502 0.63253266
-0.0093828207 -0.019674441 0.63236189
-0.010939993 -0.018233299 0.63279158
-0.01814778 -0.015425593 0.63227528
-0.025406893 -0.011796027 0.63227522
0.0092034228 -0.026689887 0.63383883
0.0027544701 -0.023872048 0.63357502
0.0036813694 -0.023928851 0.63383883
-0.011490073 -0.016546458 0.63370693
-0.03255545 -0.0064194649 0.63344383
-0.033552058 -0.0055154711 0.63370693
-0.036813691 -0.0036813617 0.63383889
0.011123555 -0.026417315 0.63463807
-0.0046126805 -0.019373238 0.63410372
-0.023063404 -0.01014787 0.63410366
-0.028735684 -0.0064886808 0.63463736
-0.030947329 -0.036574095 0.63594592
0.0037527899 -0.020640343 0.6359942
-0.0065199509 -0.016765565 0.63517618
-0.0093593411 -0.014505833 0.63572097
-0.0224081 -0.008403033 0.63544774
0.0094277067 -0.022626489 0.63654625
-0.027407182 -0.0037802756 0.63682437
-0.027407182 -0.0037802756 0.63682437
-0.014233244 -0.03415978 0.63728404
-0.014233244 -0.03415978 0.63728404
0.016179709 -0.028552383 0.63762981
0.019944033 -0.026592016 0.63738453
0.021951253 -0.026723236 0.6379503
0.017136937 -0.024753362 0.63766658
0.006664413 -0.019516036 0.63766742
-0.0057123126 -0.013328701 0.63766658
-0.0057123126 -0.013328701 0.63766658
-0.010446874 -0.011396557 0.63738453
-0.01614517 -0.0085474253 0.63738459
-0.023860056 -0.0038175881 0.63795024
0.02499947 -0.026922494 0.6388092
0.0019135233 -0.016264945 0.63823509
-0.020141838 -0.0047956705 0.63852155
-0.031651463 0.00095915794 0.63852155
0.0096915988 -0.031013101 0.63973165
0.025250528 -0.025250524 0.63997483
0.014458692 -0.021206021 0.63909829
0.0048437039 -0.01549983 0.63968104
-0.010603067 -0.0086752474 0.63909858
-0.010603067 -0.0086752474 0.63909858
-0.011654089 -0.0067982078 0.63997477
-0.01453111 -0.0058124065 0.6396811
-0.018406074 -0.0038749576 0.6396811
-0.028541606 0.0009675473 0.63953519
-0.0088127311 -0.035250902 0.64094269
0.020409126 -0.02915588 0.64005792
0.024340432 -0.024340391 0.64026976
-0.0039043012 -0.0097607374 0.64056641
-0.021473655 -0.00097605586 0.64056641
-0.024402006 0.00048930943 0.64056695
-0.03212937 0.0038945079 0.6402697
-0.017764684 -0.037503213 0.64187634
0.015696419 -0.018639445 0.64116406
0.013804385 -0.016762435 0.64176774
0.0019620524 -0.011772275 0.641164
-0.012785749 -0.0039340854 0.64146501
-0.027468732 0.0029430985 0.641164
-0.030489096 0.0049176216 0.64146495
-0.037694197 -0.041661978 0.642483
-0.03187374 -0.040838212 0.64297807
0.026690742 -0.02273652 0.64207178
0.018878866 -0.017885238 0.64268482
0.01482819 -0.016805261 0.64207172
0.0099108005 -0.013875097 0.64237767
0.011954185 -0.013946533 0.64299351
0.0059464802 -0.011892945 0.64237761
0.00098854606 -0.0098854601 0.64207178
-0.00098854606 -0.0088968873 0.64207178
-0.0039643203 -0.0069375336 0.64237767
-0.023908433 0.0039847791 0.64299381
-0.036576204 0.0088969469 0.64207178
-0.034776859 0.0089426339 0.64268482
-0.036099575 -0.042116135 0.64378822
0 -0.03497237 0.64335924
-0.011043337 -0.001003921 0.64392996
-0.019074854 0.0030118525 0.64392996
-0.037145767 0.012047291 0.6439299
0.04249629 -0.026307195 0.64488077
0.040472656 -0.025295377 0.64488071
0.024283594 -0.017200857 0.64488077
0.016189063 -0.013153583 0.64488077
0.010118164 -0.010118127 0.64488071
-0.004026203 -0.0040261447 0.64424509
-0.0030275341 -0.0040366948 0.64456224
-0.010118164 5.9604645e-08 0.64488071
-0.014091711 0.0010065734 0.64424515
0.0091806203 -0.034682333 0.64587688
0.031614348 -0.019376516 0.64584655
0.027535152 -0.017336935 0.6458469
0.027535152 -0.017336935 0.6458469
-0.026445573 0.0091542602 0.64552307
-0.037733357 0.015297353 0.6458469
0.048304096 -0.027749121 0.64680374
0.025630586 -0.015378356 0.64649916
0.021529693 -0.013327897 0.64649916
0.0051261312 -0.0051261187 0.64649951
0.0020450295 -0.0040900111 0.64617217
-0.0061676954 0.0010279715 0.64682817
-0.030675445 0.012270212 0.64617217
0.046380907 -0.024736464 0.64715862
0.022735719 -0.012401283 0.64749116
0.0092761815 -0.0061841011 0.64715862
-0.0010306897 -0.0010307133 0.64715898
-0.0051810439 0.0020724535 0.64782512
-0.008267534 0.0031003654 0.64749116
-0.015543131 0.007253468 0.64782518
-0.036267404 0.017615616 0.64782554
-0.030233996 -0.043787152 0.64859086
-0.00834304 -0.03962943 0.64863044
0.0427134 -0.020835757 0.64849889
0.031169802 -0.015584856 0.64816129
0.017710432 -0.0083342791 0.64849889
0.017710432 -0.0083342791 0.64849889
-0.016713679 0.0094014704 0.64883864
-0.020892099 0.011490673 0.64883864
-0.030211914 0.015626878 0.64849889
0.04411165 -0.019955277 0.64952344
0.011521752 -0.0041897297 0.64917994
-0.026328383 0.015797049 0.64986837
-0.043178547 0.024222136 0.64986837
0.0052902247 -0.038089573 0.65046102
0.04765055 -0.020119101 0.65056437
0.0095301094 -0.0010588467 0.65056437
-0.031680353 0.019008219 0.65021563
0.018100414 -0.0042589307 0.65126801
0.013841494 -0.0021294355 0.65126801
-0.0031941908 0.006388396 0.65126801
-0.0074943686 0.0096356571 0.65197945
-0.024624355 0.018200606 0.65197945
-0.025751011 -0.045064241 0.65226132
0.036502197 -0.011809498 0.65233797
-0.035714336 -0.047619104 0.6533832
-0.035714336 -0.047619104 0.6533832
0.032499444 -0.034666061 0.6535114
0.049918246 -0.03147018 0.65373641
0.048717432 -0.016239136 0.65342629
0.045597151 -0.014113367 0.65379286
0.04102429 -0.01295501 0.65306133
0.0086851716 0.0043426156 0.6537928
0.0086851716 0.0043426156 0.6537928
0.0043183463 0.0053979158 0.65306139
-0.012955039 0.014034659 0.65306133
-0.023884222 0.02062729 0.65379286
-0.028069252 0.021591753 0.65306133
-0.02706524 0.021652192 0.65342629
0.051306203 -0.031656981 0.65451407
-0.0076209246 0.013064474 0.65416181
-0.038104624 0.028306305 0.65416187
0.01756756 0.0021959841 0.65528071
-0.015371615 0.018665582 0.65528071
-0.0088696778 -0.044348359 0.65657681
-0.0088696778 -0.044348359 0.65657681
0.0077279629 -0.040847808 0.65600765
0.01993507 -0.038762629 0.6564312
0.046644438 -0.0099952221 0.65680277
0.042202108 -0.007774055 0.65680277
0.029899823 -0.0022147596 0.6564188
0.0055370037 0.0099666119 0.6564188
0 0.013327003 0.65680277
0 0.013327003 0.65680277
-0.003322212 0.01439628 0.65641928
-0.012181444 0.018825859 0.65641916
-0.023255484 0.024362892 0.65641922
-0.043188754 0.034329563 0.65641916
-0.0022276731 -0.043439597 0.65719569
0.042445831 -0.0067019463 0.65757698
0.025765261 0.002240479 0.65796733
-0.014562974 0.022404611 0.65796727
-0.033509869 0.031275898 0.65757704
0.0056293104 -0.042782754 0.6586473
0.034863178 -0.037112415 0.65849721
0.034863178 -0.037112415 0.65849721
0.034863178 -0.037112415 0.65849721
0.043943439 -0.0056337714 0.65875506
0.039436419 -0.0033802688 0.65875506
0.020222712 0.0056174397 0.65836024
0.020222712 0.0056174397 0.65836024
0.014647813 0.00901407 0.658755
0.0033802646 0.014647812 0.65875506
-0.017975744 0.024716675 0.65836024
-0.02816887 0.030422419 0.65875506
-0.02816887 0.030422419 0.65875506
-0.037182909 0.034929395 0.65875506
0.053267799 -0.0090668201 0.6595521
0.034100685 0.0011367202 0.65995431
0.029381253 0.0022600889 0.65915257
0.023800505 0.0056667924 0.6595521
0.0034000722 0.015866995 0.65955204
-0.04092082 0.038647443 0.65995431
0.042181399 -0.0022800565 0.66035843
0.036588989 0.0011434257 0.66076499
-0.0068604564 0.022868186 0.66076541
-0.032015461 0.03544572 0.66076541
0.027576284 -0.040215403 0.66144168
0.050609048 -0.0046008229 0.66158581
0.042431507 -0.0011467636 0.66117442
0.042431507 -0.0011467636 0.66117442
0.028669937 0.0057339668 0.66117442
0.028669937 0.0057339668 0.66117442
0.025304524 0.008051455 0.66158581
0.012614772 0.01376155 0.66117442
0.0092016459 0.01610291 0.66158581
0.0092016459 0.01610291 0.66158581
0.041762982 -0.038282722 0.66277814
0.025455909 0.0092567205 0.66241646
0.026692882 0.0092845261 0.66283566
0.016199214 0.013885081 0.6624164
0.0046283472 0.019670486 0.66241646
0.0011536377 0.020765513 0.66200006
-0.0011536377 0.021919131 0.66200012
-0.0092567224 0.026613086 0.66241682
-0.0092567224 0.026613086 0.66241682
-0.020827625 0.032398552 0.66241688
-0.020827625 0.032398552 0.66241688
-0.02437176 0.034816772 0.66283572
-0.03934107 0.041655242 0.66241688
-0.042940725 0.044101298 0.66283572
0.055874433 -0.0046561658 0.66325706
0.053546332 -0.0034921467 0.66325712
0.032593418 0.0069843233 0.66325706
0.033859413 0.0070053935 0.66368139
0.020952912 0.012804568 0.66325706
0.022183754 0.012843251 0.66368139
-0.0035026979 0.025686473 0.66368139
-0.032593418 0.039577752 0.66325706
-0.033859413 0.040864795 0.66368139
-0.035262659 -0.0540694 0.6646297
0.04477286 0.0035347044 0.66496903
0.040059924 0.0058912039 0.66496897
0.030448573 0.0093688369 0.6641078
0.016395386 0.01639539 0.66410792
0.003523971 0.023493171 0.66453737
0.003523971 0.023493171 0.66453737
-0.018851731 0.035347015 0.66496903
-0.047159236 -0.056591064 0.66505927
0.0519493 -0.037781268 0.6652627
0.0519493 -0.037781268 0.6652627
0.047418185 0.0035564005 0.66584074
-0.010636512 0.031909555 0.66540378
-0.026080003 0.040305525 0.66584074
-0.028450914 0.041490972 0.66584074
0.021469776 0.017891526 0.66672325
-0.0011891007 0.028538436 0.66628087
-0.032105718 0.043996751 0.66628081
-0.03686212 0.046374947 0.66628087
-0.046374928 0.051131338 0.66628087
0.0060148416 -0.048118711 0.6679548
0.043189261 -0.040789872 0.66756052
0.041875843 0.0083751678 0.66716832
0.043206003 0.0084011853 0.66761661
0.016802335 0.021602988 0.66761667
0.016802335 0.021602988 0.66761667
0.0059822635 0.026321977 0.66716838
-0.0059822826 0.032304347 0.66716874
-0.03360467 0.046806544 0.66761667
0.058991104 0.0012039542 0.66806728
0.044544302 0.0084273517 0.66806728
0.0349131 0.0132429 0.66806728
0.031399176 0.015699625 0.66852123
-0.0060195001 0.033709228 0.66806734
-0.0060195001 0.033709228 0.66806734
-0.0084800851 0.036343217 0.66897756
-0.015650751 0.038524985 0.66806775
-0.031399176 0.047098815 0.66852123
-0.031399176 0.047098815 0.66852123
-0.024246555 -0.054554731 0.66908467
0.046191238 -0.041328967 0.6694746
0.023162454 0.02194339 0.66989923
0.0036572292 0.031695992 0.66989928
-0.0097219879 0.037672728 0.66943717
-0.015847994 0.041448623 0.66989923
-0.04131845 0.053470939 0.66943717
-0.043748949 0.054686219 0.66943717
-0.048609942 0.057116687 0.66943717
0.057660025 0.0061340928 0.67083263
0.039133839 0.01467523 0.67036474
0.013494899 0.02821663 0.67083263
0 0.034242153 0.67036474
-0.017121054 0.042802691 0.67036474
-0.024458649 0.046471447 0.67036474
-0.02576299 0.047845572 0.67083269
-0.002461842 -0.051698655 0.67132902
0.059074093 0.0061535835 0.67130357
0.05661267 0.0073843002 0.67130357
0.049228407 0.011076421 0.67130363
0.0073842853 0.031998575 0.67130405
0.0086424816 0.032100677 0.67177796
-0.004922857 0.038152158 0.67130405
0.038567182 -0.044787675 0.67292011
0.04706648 0.013624549 0.67225492
0.021123728 0.027336627 0.67273545
0.0086980052 0.033549458 0.67273545
-0.0099087656 0.042112261 0.67225546
-0.04211225 0.058214009 0.6722554
-0.047066633 0.060691208 0.67225546
0.026209895 -0.047427386 0.67340147
0.042383537 0.017452061 0.67321861
0.028763955 0.025012136 0.67370534
0.028763955 0.025012136 0.67370534
0.014958895 0.031164378 0.67321861
0.0099726291 0.03365767 0.67321903
0.0012506067 0.038768798 0.67370534
-0.034904201 0.056096047 0.67321908
0 0.040149182 0.67419469
-0.010037322 0.045167983 0.67419517
-0.0088112205 0.045314878 0.67468774
0.050514128 0.016417116 0.67518359
0.039276741 0.022805899 0.67568314
0.026606824 0.02914083 0.67568314
-0.025257064 0.054302692 0.67518353
-0.029327853 -0.059930772 0.67666483
0.058473036 0.013982713 0.67618543
-0.01271153 0.049575001 0.67618549
0.051182501 0.01919347 0.67720056
0.033268627 0.028150409 0.67720056
0.020473 0.034548193 0.67720056
0.015354751 0.037107319 0.67720062
0.012795625 0.038386941 0.67720056
-0.0051182499 0.04734385 0.67720056
-0.0076773753 0.048623413 0.67720056
-0.016689548 0.05392012 0.67771345
-0.024392417 0.057771534 0.67771345
-0.032095283 0.061622977 0.67771345
0.059251871 0.01674512 0.67822921
0.043794863 0.024473608 0.67822921
0.025934402 0.035011441 0.6792717
0.0051868805 0.045385212 0.6792717
-0.019516256 0.058548778 0.67979842
0.040606622 0.030127525 0.68086147
0.027507709 0.036677003 0.68086153
0.0052218903 0.04699707 0.68032819
0.060459822 0.021029502 0.68139905
0.03943032 0.031544298 0.68139905
0.0078860633 0.047316402 0.68139905
-0.017144695 0.060665876 0.68193972
-0.025057632 0.064622313 0.68193972
-0.0026473636 -0.058241993 0.68252623
0.034406759 0.035730124 0.68248457
0 0.052933514 0.68248457
-0.036045607 -0.065416098 0.68389523
0.023984164 0.04263854 0.68358505
-0.022573913 0.06506601 0.68303263
0.038774647 0.036100537 0.68414074
0.029517224 0.041592509 0.68470025
0.020055853 0.045459926 0.68414074
0.020055853 0.045459926 0.68414074
-0.0053667868 0.059034675 0.68470085
-0.020055853 0.065515816 0.68414074
0.021617029 0.047287315 0.68583155
0.0054042572 0.055393636 0.68583161
0 0.058095962 0.6858322
0.061011095 0.028471857 0.68640351
0.055587884 0.031183481 0.68640351
0.055587884 0.031183481 0.68640351
-0.0095576132 0.06553793 0.68755889
0.055066448 -0.05093646 0.68892145
0.061840441 -0.049472332 0.6886282
-0.030476479 -0.067879409 0.68996352
0.041446365 -0.053880274 0.689511
0.066239208 0.030359656 0.68932247
0.066239208 0.030359656 0.68932247
0.046919443 0.040019542 0.68932247
0.033119604 0.046919465 0.68932247
0.030359639 0.048299432 0.68932247
0.013799836 0.056579411 0.68932247
0.0027599672 0.062099278 0.68932247
0.052816216 0.038917243 0.69051957
0.052816216 0.038917243 0.69051957
0 0.06532535 0.69051951
0 0.06532535 0.69051951
0.065568693 -0.050222754 0.69114459
0.0027999219 0.065798223 0.69173396
0.030968996 -0.057714939 0.69266593
0.040746257 0.047771484 0.69234747
0.021075649 0.057606786 0.69234741
-0.019806378 -0.067907542 0.6935181
0.060858972 0.039629102 0.6935885
0.058028322 0.041044444 0.69358855
0.0113642 0.065344185 0.69421625
0.020034496 0.062965572 0.69548494
0.043143112 -0.057524115 0.69633818
0.0043090391 0.071817309 0.6961261
0.070907556 0.040518641 0.69742328
0.040670674 0.056648463 0.69807887
0.034860577 0.059553534 0.69807887
0.034860577 0.059553534 0.69807887
0.016038017 0.069984108 0.69874007
0.063085094 -0.055749595 0.6998378
0.05561357 0.05122304 0.69940561
0.017562179 0.070248783 0.69940555
0.061936293 0.05013895 0.70075256
0.0044685951 -0.06851843 0.70254606
0.068356171 0.049038142 0.70212018
0.049227327 0.059669524 0.70281231
0.041930258 0.064392924 0.70350909
0.06163637 0.055623084 0.70421124
0.030183885 0.072441339 0.70491958
0.024147108 0.075459719 0.70491958
0.04393797 0.066664517 0.70563281
0.055192329 0.064391047 0.70780766
0.037088875 0.075723171 0.70928633
0.04985014 0.071659595 0.71078885
0.063332632 0.069665909 0.71386683
0.025431488 -0.071526051 0.7146095
0.043112312 -0.068660319 0.71548873
0.043112312 -0.068660319 0.71548873
0.052899096 0.07854715 0.71624327
0.0032265545 -0.077437282 0.71748352
0.045100495 -0.069261461 0.71717626
0.063039586 0.075970799 0.7178604
0.047124006 -0.069873482 0.71889442
0.055133801 -0.068106443 0.71848595
0.0048826681 -0.078122675 0.71920717
0.062202826 0.080208927 0.72033697
0.01835198 -0.07841298 0.72413278
0.024010379 -0.080606252 0.72976577
0.024010379 -0.080606252 0.72976577
0.015469311 -0.082502991 0.7302227
0.043087766 -0.077557921 0.73078984
0.043087766 -0.077557921 0.73078984
0.034546666 -0.079457313 0.73125124
0.021220611 -0.084882438 0.73620665
0.051928166 -0.080578178 0.73889148
-0.031095386 -0.022982549 0.62317741
-0.029031102 -0.029452801 0.62432277
-0.029017411 -0.031183973 0.62730592
-0.02106926 -0.022788741 0.6265536
-0.02106926 -0.022788741 0.6265536
-0.029245481 -0.017083317 0.6276024
-0.021212693 -0.030939272 0.62944955
-0.01535489 -0.021209646 0.62943017
-0.026805785 -0.017067745 0.62840348
-0.031413671 -0.012978053 0.62956136
-0.031413671 -0.012978053 0.62956136
-0.022952303 -0.03240478 0.63139939
-0.031121943 -0.0099230707 0.63163686
-0.0013659047 -0.023117959 0.63272816
-0.025769584 -0.0092033744 0.63383883
-0.012781268 -0.032542318 0.63497823
0.0055451165 -0.028649777 0.63430285
0.0055451165 -0.028649777 0.63430285
-0.0070194872 -0.01567626 0.63572061
-0.019059163 -0.010806099 0.63497519
0.0052081798 -0.030295014 0.63702297
-0.027033322 -0.0033187717 0.63724482
-0.035087075 0.0006669283 0.63721812
0.0091841649 -0.030931845 0.6394251
0.0091841649 -0.030931845 0.6394251
0.020854693 -0.023278967 0.63982797
0.011127286 -0.018865757 0.63953578
0.0035168414 -0.016624253 0.63852197
-0.0058270446 -0.0097117424 0.63997477
-0.038270466 0.0038270652 0.63823503
-0.019090235 -0.037204012 0.64092588
-0.0092763938 -0.035157546 0.64062965
0.0029616635 -0.033565491 0.6419118
0.028977856 -0.025046848 0.64131528
0.0231428 -0.021664992 0.64161634
0.015149008 -0.019056395 0.64071614
0.0034212219 -0.013192505 0.64071614
-0.0034286482 -0.0093067363 0.64101493
-0.010709791 -0.0068153143 0.64026976
-0.0173756 -0.0016383629 0.6414656
-0.025636714 0.0029580891 0.64176774
-0.033524934 0.0069022477 0.64176774
-0.026005017 -0.040007681 0.64347768
0.025305754 -0.021334387 0.64253187
0.0190944 -0.017094914 0.6432671
0.0094280392 -0.013395548 0.64253193
0.0094280392 -0.013395548 0.64253193
-0.0033309381 -0.0056630871 0.64340925
-0.039189983 -0.043772176 0.64562213
0.034863051 -0.022735007 0.64472234
0.010610954 -0.010608949 0.64472234
-0.018742627 0.0045605451 0.64504182
0.015366148 -0.033805519 0.64640093
0.015366148 -0.033805519 0.64640093
0.041958593 -0.028654635 0.64627665
0.031264342 -0.017177265 0.64715934
0.031264342 -0.017177265 0.64715934
-0.0064931228 0.00068441033 0.64649999
-0.024540355 0.0092026591 0.64617217
-0.029335126 0.012867957 0.64699447
0.0072709699 -0.03635481 0.64812708
0.048811078 -0.022831505 0.64918184
0.039210513 -0.01750372 0.64952391
0.030906623 -0.01493144 0.64849961
0.010954357 -0.0046930015 0.64866972
-0.0045144479 0.0027790866 0.64849961
-0.0031594059 0.0042125285 0.64986837
-0.024699099 0.013221502 0.64872664
-0.034852471 0.01768671 0.64833027
-0.034753468 0.020009607 0.64986837
0.050319333 -0.019271225 0.65197945
0.0311465 -0.011325012 0.65091586
0.024912393 -0.0071168146 0.65162337
-0.013918113 0.012847543 0.65197945
-0.024849504 0.015861869 0.65039003
-0.040935464 0.024988502 0.65109271
-0.020358168 -0.043930769 0.6520831
-0.0026895648 -0.040905312 0.65268344
0.045090947 -0.016103894 0.65233797
0.038974196 -0.011365935 0.65342712
0.038974196 -0.011365935 0.65342712
0.032569394 -0.007599473 0.6537928
0.023326075 -0.0046641827 0.65269941
-0.0046652132 0.0093314648 0.65269941
-0.0010826095 0.0086609125 0.65342623
-0.01073594 0.011809528 0.65233797
0.02900634 -0.036119059 0.65486366
0.04050342 -0.033935249 0.6548841
0.050984617 -0.014800183 0.65509415
0.048930064 -0.013194367 0.65546924
0.031248963 -0.004932344 0.65509421
-0.016330551 0.017419249 0.65416187
-0.016330551 0.017419249 0.65416187
-0.026710089 0.022895068 0.65434718
-0.026710089 0.022895068 0.65434718
-0.035432003 0.027255982 0.65434718
0.043188628 -0.0088591874 0.6564188
0.030246176 2.9802322e-08 0.65796727
0.020695133 0.0044744611 0.65777212
0.00055529544 0.012755118 0.65661192
-0.0033606864 0.016803443 0.65796727
-0.015100457 0.022372276 0.65777218
-0.015100457 0.022372276 0.65777218
-0.042818539 0.03503564 0.65699697
-0.035496429 -0.050711617 0.65877563
0.047386937 -0.034976035 0.6589368
0.041178886 -0.0030211806 0.65955281
-0.020874605 0.027081668 0.65895385
0.013657803 -0.042111546 0.66013062
0.055209871 -0.0069011748 0.66158581
0.016102878 0.012652278 0.66158581
0.016102878 0.012652278 0.66158581
-0.0087921768 0.024466336 0.66117537
-0.023004184 0.03220588 0.66158628
-0.029434673 0.034787588 0.66117543
-0.042940535 0.041223735 0.66096985
-0.036672793 -0.053556561 0.66328406
0.023159046 -0.041686267 0.66252095
0.024471095 -0.041950464 0.66340667
0.043195572 -0.03852576 0.66366714
0.037026778 0.0034712851 0.6624164
0.031148218 0.0057682097 0.66200006
0.035203829 0.0050303042 0.66283643
0.00077604211 0.022894343 0.66325808
-0.01499729 0.028840959 0.66200006
-0.03302592 0.038822718 0.6626274
-0.01540765 -0.0509637 0.66581041
-0.01540765 -0.0509637 0.66581041
-0.0035448333 -0.048446029 0.66537672
0.04464633 -0.038771778 0.66456711
0.052859563 -0.0011745989 0.66453737
0.056901827 -0.001185447 0.66584074
0.051057082 0.00039396685 0.66496992
0.042810936 0.003518641 0.66432261
0.031082157 0.0093830526 0.66432261
0.037285715 0.0082855374 0.66562223
0.023011774 0.014752373 0.66518772
0.016596366 0.018967301 0.66584074
0.0029330845 0.023457602 0.66432261
-0.0070479964 0.028781116 0.66453844
-0.014794654 0.034325704 0.66562223
-0.039000545 0.046091586 0.66540378
-0.0011969905 -0.049076587 0.66723323
0.0047806143 -0.047806114 0.6670115
0.050407004 0.0048007071 0.66761661
0.048006669 0.0060008466 0.66761667
0.037090037 0.010768116 0.66716832
0.02703619 0.015109709 0.66672415
0.029113896 0.014757603 0.66716945
0.013080107 0.021403849 0.66628087
0 0.030004174 0.66761667
-0.038704403 0.047637329 0.666502
-0.04890392 0.053080514 0.6667248
0.031288542 -0.043322593 0.66800761
0.04510583 0.010971725 0.66989923
0.03483732 0.015394529 0.669438
0.0066327318 0.027732983 0.66829431
0.012781164 0.02677761 0.6696682
-0.0032204478 0.03301087 0.66852206
-0.0090992237 0.037009291 0.66920882
-0.015215488 0.040775925 0.6696682
-0.027299304 0.046107128 0.66920733
-0.025600605 0.046324939 0.66989923
-0.041060459 0.051929444 0.66852117
-0.028817751 -0.056413203 0.67078018
0.036687974 0.015898138 0.67036474
0.022661079 0.023272559 0.67059875
0.004922857 0.033229321 0.67130405
-0.026904516 0.047694415 0.67036474
-0.038828351 0.055470511 0.67154104
-0.044574406 0.057252854 0.67083377
-0.047306348 0.058980614 0.67106843
-0.046053462 -0.060989708 0.6729908
0.052439556 -0.042451054 0.67345834
0.052725725 0.011165261 0.67249519
0.052725725 0.011165261 0.67249519
0.027249103 0.023533344 0.6722554
0.016257888 0.031265169 0.67370528
-0.0028993553 0.039349787 0.67273664
-0.023761528 0.051274925 0.67370528
-0.021260316 0.050024271 0.67370528
-0.0038004944 -0.054473728 0.67566383
-0.0038004944 -0.054473728 0.67566383
0.016501965 -0.05077526 0.67597169
0.047413047 0.017204374 0.6746887
0.032834183 0.025257111 0.67518353
0.030991632 0.026563391 0.6754334
0.0088689411 0.038009793 0.67568314
-0.010715769 0.04664962 0.6749357
0.044754464 -0.046033114 0.67709631
0.051064119 -0.044681102 0.67684335
0.050068475 0.020540953 0.67771292
0.026782267 0.030608356 0.67669159
0.02883902 0.030760512 0.67745697
0.021009665 0.033104524 0.67643857
0.003412199 0.043080412 0.67720187
-0.035013311 0.061116025 0.67643851
0.054372083 -0.04531005 0.67901254
0.011041738 0.042863712 0.67953479
-0.0051868805 0.050572127 0.6792717
-0.0091075869 0.053344488 0.67979836
-0.020609347 0.056675702 0.67822921
-0.024918355 -0.061640114 0.68105483
0.030188236 -0.051188737 0.68118036
0.045116127 0.02746135 0.6805948
0.018962491 0.040538162 0.6805948
0.0030564354 0.048904538 0.6808629
-0.028720396 0.063968182 0.68032813
-0.01593836 -0.061097056 0.68307126
-0.0080133658 -0.060100228 0.6839602
0.031727228 -0.051556706 0.68231928
0.031260032 0.038574815 0.68330884
0.011268795 0.047721878 0.68275857
0.0092951404 0.049131453 0.68303263
-0.019033074 0.063297592 0.68303412
0 -0.059092522 0.68485963
0.057493441 0.026741177 0.68414074
0.062148955 0.027021348 0.68583155
0.04891824 0.032763332 0.68526542
0.018783754 0.0469594 0.68470085
0.0046889787 0.053575084 0.68442076
0.0046889787 0.053575084 0.68442076
-0.010808553 0.063500255 0.68583214
-0.01351069 0.064851344 0.68583214
0.009523741 -0.058502942 0.68697476
0.029775809 -0.054137826 0.68611902
0.046540327 -0.052015632 0.68797648
0.062586144 0.028571963 0.68697882
0.040817056 0.039456517 0.68697882
0.040817056 0.039456517 0.68697882
0.031403586 0.045057327 0.68755889
0.031403586 0.045057327 0.68755889
-0.0040674065 0.061011106 0.68640351
0.061840441 -0.049472332 0.6886282
0.059128251 0.03300184 0.68873
0.037260029 0.04485251 0.68932456
-0.0013750804 0.063253731 0.6887306
-0.014656628 -0.065617695 0.69127047
0.061598279 0.036399007 0.69173396
0.061598279 0.036399007 0.69173396
0.047256615 0.041697055 0.69051957
0.034872748 0.048821867 0.6911242
0.013999608 0.060198307 0.69173396
0.0069745756 0.062771201 0.69112486
-0.0027999219 0.068598121 0.69173396
0.016953405 -0.06074968 0.69328177
0.066520274 0.036798477 0.69358855
0.052976705 0.04309006 0.6932773
0.026695823 0.054796726 0.69234741
0.026695823 0.054796726 0.69234741
0.01988735 0.061082631 0.69421625
0.01988735 0.061082631 0.69421625
0.0049796873 0.069023699 0.6945321
0.012937266 -0.063248813 0.69626218
0.053542443 0.049201161 0.69742328
0.049017694 0.050459385 0.69677198
0.039519612 -0.060011238 0.69942665
0.039519612 -0.060011238 0.69942665
0.040978424 0.058540612 0.69940561
0.011620237 0.071173966 0.69807953
0.024976604 -0.063176066 0.70009327
0.039003283 0.061084241 0.70041478
0.031086719 0.066614419 0.70143414
0.070111379 0.049227178 0.7028116
0.053060569 0.058290333 0.70316064
0.032692082 0.066870183 0.70212024
0.023776058 0.071328223 0.70212024
0.015111166 -0.068000227 0.70515168
0.067649677 0.052616447 0.70421124
0.055623062 0.058629721 0.70421124
0.01676001 -0.06856364 0.70666301
0.045631893 0.066926807 0.70635229
0.038176619 0.071772069 0.70707673
0.035122488 0.07329914 0.70707673
0.0030848938 -0.072494984 0.70893359
0.0030848938 -0.072494984 0.70893359
0.0030848938 -0.072494984 0.70893359
0.063614175 0.063614219 0.71003425
0.046734504 0.073217452 0.71078885
0.031453423 -0.069197506 0.71258187
0.058343995 0.070958942 0.7130881
0.055190265 0.072535783 0.71308815
0.05702661 0.077104196 0.71664572
0.021070162 -0.074555933 0.71838939
0.047124006 -0.069873482 0.71889442
0.015469311 -0.082502991 0.7302227
0.034178913 -0.084547818 0.73988903
0.034178913 -0.084547818 0.73988903
-0.026021479 -0.02165181 0.62568533
-0.030000061 -0.018294236 0.62657255
-0.023454199 -0.019979477 0.62760192
-0.014189808 -0.030058991 0.63024265
-0.008166546 -0.020415276 0.63227582
0.0007814531 -0.019365609 0.63585746
-0.01784062 -0.013608041 0.63355345
-0.033080436 -0.0081569105 0.63214713
-0.0098601868 -0.010239916 0.63832474
-0.017610317 -0.0064080879 0.63829672
-0.0092763938 -0.035157546 0.64062965
0.006059845 -0.033171654 0.64225221
0.018059347 -0.020741396 0.64056706
0.02634776 -0.022381101 0.64219099
-0.0073294481 -0.0036638281 0.64340937
-0.0073294481 -0.0036638281 0.64340937
-0.037874047 0.012290493 0.64385152
0.037846386 -0.02447236 0.64456302
0.038356442 -0.022189612 0.64620847
-0.029495791 0.01004092 0.64510912
0.005926976 -0.037684355 0.64997298
0.035480361 -0.031306177 0.64871013
0.035480361 -0.031306177 0.64871013
0.025837637 -0.012657891 0.64833045
0.041049704 -0.015458509 0.65144622
0.029821752 -0.01054766 0.65099049
-0.0063428781 -0.042455848 0.65415084
0.01831805 -0.037740953 0.65414208
0.042706907 -0.013296801 0.65338528
-0.021529641 0.01860816 0.65324712
-0.022477631 0.021646464 0.65490991
0.042186543 -0.003215611 0.65975356
0.0298713 0.0012561671 0.65866041
0.0014579864 0.014222535 0.65785617
-0.037044264 0.030963063 0.6562283
0.045786154 0.00038862228 0.6632576
-0.038879514 -0.056228563 0.66715622
0.042107649 0.0063286196 0.66591656
0.042107649 0.0063286196 0.66591656
0.012001667 0.024003386 0.66761667
-0.010081364 -0.052574456 0.67033207
-0.010081364 -0.052574456 0.67033207
0.054146662 0.0061601056 0.6697104
-0.024717595 0.043408185 0.66829449
0.050017584 0.014108628 0.67352581
-0.025458349 0.050505839 0.67265666
-0.034120604 0.057468683 0.67436314
-0.030568069 0.057344139 0.67543411
0.062074594 0.014215505 0.677504
0.013776453 0.038230695 0.6774174
-0.033049978 0.059744209 0.67618543
-0.032609649 -0.062610507 0.680197
0.015691329 -0.053611994 0.68058628
0.045620039 -0.048923269 0.6823535
0.049882255 0.029263616 0.6833086
0.03029646 0.037706442 0.68243349
0.0023284827 0.050351441 0.68156511
-0.014852442 0.061632074 0.68330956
0.04197067 0.037909217 0.68634963
0.018082745 0.046878204 0.68442082
0.038011413 -0.054629043 0.68967056
0.065568693 -0.050222754 0.69114459
0.058349323 0.033737041 0.68895429
0.025822919 0.053505778 0.69122756
0.0061781155 0.059023693 0.68843651
-0.0028631359 -0.065852106 0.69554925
0.037545349 0.053230625 0.69484973
0.053018294 -0.056646585 0.69807321
0.070380971 0.038781375 0.69612604
0.053964645 0.047487751 0.69644898
0.065775476 0.045799844 0.69918382
0.013489252 -0.067446202 0.70366555
0.046337023 0.058336593 0.70101076
0.038114335 0.065763444 0.7031607
0.054319799 -0.060355306 0.70488203
0.062511265 0.055731639 0.70456541
0.062511265 0.055731639 0.70456541
-0.0031172021 -0.074812829 0.7108835
0.018436333 -0.069136232 0.7081989
0.054004833 0.069585279 0.71079063
0.038426518 0.077374421 0.71079063
0.049982689 -0.066638991 0.71426851
0.06198141 0.070496738 0.71396762
0.011269643 -0.07566756 0.71708173
0.019279532 -0.073904842 0.71668082
0.016533611 -0.077707916 0.72232211
