# .PCD v0.7 - Point Cloud Data file format
VERSION 0.7
FIELDS x y z
SIZE 4 4 4
TYPE F F F
COUNT 1 1 1
WIDTH 1337
HEIGHT 1
VIEWPOINT 0 0 0 1 0 0 0
POINTS 1337
DATA ascii
-0.013782143 0.057097465 0.69848537
-0.013782197 0.055128813 0.69848633
-0.013782197 0.053159922 0.69848633
-0.01378225 0.051191241 0.69848728
-0.01378225 0.04922235 0.69848728
-0.013782305 0.047253639 0.69848824
-0.013782305 0.045284748 0.69848824
-0.013782305 0.043315828 0.6984883
-0.013782359 0.041347116 0.69848919
-0.013782359 0.039378166 0.69848919
-0.013782414 0.037409425 0.69849014
-0.013782414 0.035440505 0.69849008
-0.013782467 0.033471704 0.69849104
-0.013782467 0.031502813 0.69849104
-0.013782523 0.029533982 0.69849193
-0.013782523 0.027565062 0.69849205
-0.013782523 0.025596112 0.69849205
-0.013782576 0.023627311 0.69849288
-0.013782576 0.021658361 0.69849288
-0.013782631 0.0196895 0.69849384
-0.013782631 0.01772055 0.69849384
-0.013782685 0.01575166 0.69849479
-0.013782685 0.01378271 0.69849479
-0.013782738 0.01181379 0.69849575
-0.013782738 0.0098448396 0.69849575
-0.013782793 0.0078759193 0.69849664
-0.013782793 0.0059069395 0.69849664
-0.013782793 0.0039379597 0.6984967
-0.013782847 0.0019690096 0.69849759
-0.013782847 -0 0.69849759
-0.013782902 -0.0019689798 0.69849855
-0.013782902 -0.0039379299 0.69849849
-0.013782956 -0.0059069693 0.69849944
-0.013782956 -0.0078759491 0.69849944
-0.013783011 -0.0098449886 0.69850039
-0.013783011 -0.011813998 0.69850039
-0.013783011 -0.013782978 0.69850039
-0.013783064 -0.015752047 0.69850129
-0.013783064 -0.017721087 0.69850135
-0.013783064 -0.019690067 0.69850135
-0.013783064 -0.021659076 0.69850135
-0.013783064 -0.023628116 0.69850135
-0.013783064 -0.025597125 0.69850135
-0.013783064 -0.027566075 0.69850135
-0.013783064 -0.029535115 0.69850135
-0.013783064 -0.031504124 0.69850135
-0.013783064 -0.033473164 0.69850135
-0.013783011 -0.035442024 0.69850034
-0.013783011 -0.037411034 0.69850045
-0.013783011 -0.039379984 0.69850045
-0.013817157 -0.041451424 0.69908923
-0.013817157 -0.043425322 0.69908923
-0.013817157 -0.045399219 0.69908923
-0.013817212 -0.047373295 0.69909018
-0.013817212 -0.049347162 0.69909018
-0.013817212 -0.051321089 0.69909024
-0.013817212 -0.053294957 0.69909024
-0.013817212 -0.055268854 0.69909012
-0.013817212 -0.057242721 0.69909012
-0.013817265 -0.059216827 0.69909114
-0.013817265 -0.061190724 0.69909108
-0.013817265 -0.063164592 0.69909108
-0.013817265 -0.065138519 0.69909108
-0.013817265 -0.067112446 0.6990912
-0.013817265 -0.069086313 0.69909108
-0.01381732 -0.071060479 0.69909209
-0.01381732 -0.073034376 0.69909203
-0.013817375 -0.075008601 0.69909298
-0.013817375 -0.076982498 0.69909304
-0.013817429 -0.078956723 0.69909394
-0.013817429 -0.08093065 0.69909394
-0.013817484 -0.082904875 0.69909489
-0.013817484 -0.084878772 0.69909489
-0.013817537 -0.086853072 0.69909579
-0.01383626 -0.088947371 0.69941866
-0.011592396 0.088875055 0.69404185
-0.011592439 0.086943299 0.6940428
-0.011592439 0.085011274 0.6940428
-0.011592439 0.083079189 0.69404274
-0.011592439 0.081147075 0.6940428
-0.011592439 0.07921499 0.6940428
-0.011592439 0.077282935 0.6940428
-0.011592439 0.075350881 0.69404274
-0.011592439 0.073418826 0.6940428
-0.011592439 0.071486741 0.6940428
-0.011592439 0.069554627 0.6940428
-0.011592439 0.067622602 0.6940428
-0.011592439 0.065690517 0.6940428
-0.011592439 0.063758433 0.6940428
-0.011592439 0.061826319 0.6940428
-0.011592439 0.059894294 0.6940428
-0.011592439 0.057962209 0.6940428
-0.011592439 0.056030124 0.6940428
-0.011592439 0.05409807 0.6940428
-0.011592439 0.052165985 0.6940428
-0.011592439 0.050233901 0.6940428
-0.011592439 0.048301846 0.6940428
-0.011592439 0.046369791 0.69404274
-0.011592439 0.044437677 0.6940428
-0.011592439 0.042505592 0.6940428
-0.011592439 0.040573537 0.6940428
-0.011592439 0.038641512 0.69404274
-0.011592439 0.036709428 0.6940428
-0.011592439 0.034777373 0.6940428
-0.011592439 0.032845259 0.6940428
-0.011592439 0.030913234 0.6940428
-0.011592439 0.028981149 0.6940428
-0.011592439 0.027049065 0.6940428
-0.011592439 0.02511701 0.6940428
-0.011592439 0.023184896 0.6940428
-0.011592439 0.021252841 0.6940428
-0.011592439 0.019320756 0.6940428
-0.011592439 0.017388672 0.6940428
-0.011592439 0.015456617 0.6940428
-0.011592439 0.013524532 0.6940428
-0.011592439 0.011592478 0.6940428
-0.011592439 0.009660393 0.6940428
-0.011592439 0.0077283084 0.6940428
-0.011592439 0.0057962537 0.6940428
-0.011592439 0.0038641989 0.6940428
-0.011592439 0.0019321144 0.6940428
-0.011592439 2.9802322e-08 0.6940428
-0.011592439 -0.001932025 0.69404274
-0.011592439 -0.0038641393 0.6940428
-0.011592439 -0.0057961941 0.69404274
-0.011592439 -0.0077282786 0.6940428
-0.011592439 -0.0096603334 0.6940428
-0.011592439 -0.011592388 0.6940428
-0.011592439 -0.013524473 0.6940428
-0.011592439 -0.015456557 0.6940428
-0.011592439 -0.017388642 0.69404274
-0.011592439 -0.019320697 0.69404274
-0.011592439 -0.021252781 0.6940428
-0.011592439 -0.023184866 0.6940428
-0.011592439 -0.02511692 0.6940428
-0.011592439 -0.027048975 0.6940428
-0.011592439 -0.02898109 0.6940428
-0.011592439 -0.030913174 0.6940428
-0.011592439 -0.032845229 0.6940428
-0.011592439 -0.034777284 0.69404274
-0.011592439 -0.036709368 0.6940428
-0.011592439 -0.038641423 0.6940428
-0.011792291 -0.041273028 0.69806343
-0.011792291 -0.043238372 0.69806343
-0.011792291 -0.045203745 0.69806349
-0.011792245 -0.04716894 0.6980626
-0.011792245 -0.049134314 0.69806254
-0.011792245 -0.051099688 0.69806254
-0.011792245 -0.053065062 0.69806254
-0.011792245 -0.055030495 0.6980626
-0.011792245 -0.056995839 0.69806254
-0.011792245 -0.058961183 0.69806254
-0.011792245 -0.060926557 0.69806254
-0.011792245 -0.06289193 0.69806254
-0.011792245 -0.064857334 0.6980626
-0.011792245 -0.066822708 0.6980626
-0.011792245 -0.068788052 0.69806254
-0.011792199 -0.070753187 0.69806165
-0.011792199 -0.072718531 0.69806159
-0.011792199 -0.074683934 0.69806165
-0.011792199 -0.076649278 0.69806165
-0.011792199 -0.078614652 0.69806159
-0.011792199 -0.080579996 0.69806159
-0.011792199 -0.08254534 0.69806159
-0.011792199 -0.084510744 0.69806165
-0.011792199 -0.086476088 0.69806159
-0.011792199 -0.088441491 0.69806165
-0.0096187685 0.088492692 0.69303852
-0.0096187685 0.086568922 0.69303846
-0.0096187685 0.084645182 0.69303846
-0.0096187685 0.082721442 0.69303846
-0.0096187685 0.080797672 0.69303852
-0.0096187685 0.078873903 0.69303852
-0.0096187685 0.076950133 0.69303852
-0.0096187685 0.075026393 0.69303852
-0.0096187685 0.073102623 0.69303852
-0.0096187685 0.071178883 0.69303852
-0.0096187685 0.069255143 0.69303846
-0.0096187685 0.067331433 0.69303852
-0.0096187685 0.065407664 0.69303852
-0.0096187685 0.063483894 0.69303846
-0.0096187685 0.061560154 0.69303846
-0.0096187685 0.059636414 0.69303846
-0.0096187685 0.057712644 0.69303846
-0.0096187685 0.055788904 0.69303846
-0.0096188048 0.053865343 0.69303942
-0.0096188048 0.051941544 0.69303942
-0.0096188048 0.050017804 0.69303942
-0.0096188048 0.048094034 0.69303942
-0.0096188048 0.046170294 0.69303942
-0.0096188048 0.044246554 0.69303942
-0.0096188048 0.042322755 0.69303936
-0.0096188048 0.040399015 0.69303936
-0.0096188048 0.038475245 0.69303942
-0.0096188048 0.036551476 0.69303942
-0.0096188048 0.034627736 0.69303942
-0.0096188048 0.032703936 0.69303942
-0.0096188048 0.030780166 0.69303942
-0.0096188048 0.028856426 0.69303942
-0.0096188048 0.026932687 0.69303942
-0.0096188048 0.025008887 0.69303942
-0.0096188048 0.023085147 0.69303942
-0.0096188048 0.021161407 0.69303942
-0.0096188048 0.019237667 0.69303942
-0.0096188048 0.017313898 0.69303942
-0.0096188048 0.015390098 0.69303942
-0.0096188048 0.013466358 0.69303942
-0.0096188048 0.011542588 0.69303942
-0.0096188048 0.0096188486 0.69303942
-0.0096188048 0.0076950788 0.69303942
-0.0096188048 0.0057712495 0.69303942
-0.0096188048 0.0038475096 0.69303942
-0.0096188048 0.0019237697 0.69303942
-0.0096188048 2.9802322e-08 0.69303942
-0.0096188048 -0.0019237697 0.69303942
-0.0096188048 -0.0038475096 0.69303942
-0.0096188048 -0.0057712495 0.69303942
-0.0096188048 -0.0076949894 0.69303942
-0.0096188048 -0.009618789 0.69303942
-0.0096188048 -0.011542559 0.69303942
-0.0096188048 -0.013466299 0.69303942
-0.0096188048 -0.015390038 0.69303942
-0.0096188048 -0.017313808 0.69303942
-0.0096188048 -0.019237638 0.69303942
-0.0096188048 -0.021161377 0.69303942
-0.0096188048 -0.023085117 0.69303942
-0.0096188048 -0.025008857 0.69303942
-0.0096188048 -0.026932627 0.69303942
-0.0096188048 -0.028856397 0.69303942
-0.0096188048 -0.030780137 0.69303936
-0.0096188048 -0.032703876 0.69303936
-0.0096188048 -0.034627676 0.69303942
-0.0096188048 -0.036551476 0.69303942
-0.0096188048 -0.038475215 0.69303942
-0.0096188048 -0.040398955 0.69303936
-0.0097939782 -0.043093503 0.69726849
-0.0097939782 -0.04505226 0.69726849
-0.0097939782 -0.047011077 0.69726849
-0.0097939782 -0.048969865 0.69726849
-0.0097939782 -0.050928682 0.69726849
-0.00979394 -0.052887261 0.69726753
-0.00979394 -0.054846048 0.69726753
-0.00979394 -0.056804836 0.69726753
-0.00979394 -0.058763593 0.69726753
-0.00979394 -0.060722381 0.69726753
-0.00979394 -0.062681228 0.69726759
-0.00979394 -0.064639986 0.69726753
-0.00979394 -0.066598803 0.69726753
-0.00979394 -0.06855759 0.69726753
-0.00979394 -0.070516348 0.69726753
-0.00979394 -0.072475135 0.69726753
-0.00979394 -0.074433893 0.69726753
-0.00979394 -0.07639268 0.69726753
-0.00979394 -0.078351468 0.69726753
-0.00979394 -0.080310315 0.69726759
-0.00979394 -0.082269102 0.69726759
-0.00979394 -0.08422789 0.69726753
-0.00979394 -0.086186662 0.69726753
-0.0097939018 -0.088145092 0.69726664
-0.0076948665 0.088491023 0.69303399
-0.0076948665 0.086567253 0.69303405
-0.0076948665 0.084643543 0.69303405
-0.0076948665 0.082719803 0.69303405
-0.0076948665 0.080796123 0.69303405
-0.0076948665 0.078872412 0.69303405
-0.0076948665 0.076948673 0.69303405
-0.0076948665 0.075024962 0.69303405
-0.0076948665 0.073101252 0.69303405
-0.0076948665 0.071177542 0.69303405
-0.0076948665 0.069253802 0.69303405
-0.0076948665 0.067330092 0.69303405
-0.0076948665 0.065406382 0.69303405
-0.0076948665 0.063482672 0.69303405
-0.0076948665 0.061558962 0.69303405
-0.0076948665 0.059635222 0.69303405
-0.0076948665 0.057711542 0.69303405
-0.0076948665 0.055787802 0.69303399
-0.0076948665 0.053864092 0.69303405
-0.0076948665 0.051940382 0.69303405
-0.0076948665 0.050016642 0.69303405
-0.0076948665 0.048092902 0.69303405
-0.0076948665 0.046169221 0.69303405
-0.0076948665 0.044245481 0.69303405
-0.0076948665 0.042321771 0.69303405
-0.0076948665 0.040398091 0.69303399
-0.0076948665 0.038474381 0.69303405
-0.0076948665 0.036550611 0.69303405
-0.0076948665 0.034626931 0.69303405
-0.0076948665 0.032703191 0.69303405
-0.0076948665 0.030779511 0.69303405
-0.0076948665 0.028855771 0.69303405
-0.0076948665 0.026932031 0.69303405
-0.0076948665 0.025008351 0.69303399
-0.0076948665 0.023084641 0.69303405
-0.0076948665 0.02116093 0.69303405
-0.0076948665 0.01923719 0.69303405
-0.0076948665 0.017313451 0.69303405
-0.0076948665 0.01538974 0.69303399
-0.0076948665 0.01346606 0.69303405
-0.0076948665 0.01154232 0.69303405
-0.0076948665 0.0096186399 0.69303405
-0.0076948665 0.0076949 0.69303405
-0.0076948665 0.0057711601 0.69303405
-0.0076948665 0.00384745 0.69303405
-0.0076948665 0.0019237399 0.69303405
-0.0076948665 2.9802322e-08 0.69303411
-0.0076948665 -0.0019237399 0.69303405
-0.0076948665 -0.0038474202 0.69303399
-0.0076948665 -0.0057711303 0.69303405
-0.0076948665 -0.0076948702 0.69303405
-0.0076948665 -0.0096185207 0.69303405
-0.0076948665 -0.01154229 0.69303405
-0.0076948665 -0.013466001 0.69303405
-0.0076948665 -0.01538974 0.69303405
-0.0076948665 -0.017313451 0.69303405
-0.0076948665 -0.019237131 0.69303405
-0.0076948665 -0.021160901 0.69303405
-0.0076948665 -0.023084581 0.69303405
-0.0076948665 -0.025008291 0.69303399
-0.0076948665 -0.026932001 0.69303405
-0.0076948665 -0.028855711 0.69303405
-0.0076948665 -0.030779481 0.69303405
-0.0076948665 -0.032703131 0.69303405
-0.0076948665 -0.034626901 0.69303399
-0.0076948665 -0.036550581 0.69303405
-0.0076948665 -0.038474321 0.69303405
-0.0076948665 -0.040398031 0.69303399
-0.0078150518 -0.042982757 0.696661
-0.0078150518 -0.044936508 0.69666094
-0.0078150518 -0.046890289 0.69666094
-0.0078150211 -0.048843861 0.69666004
-0.0078150211 -0.050797641 0.69666004
-0.0078150211 -0.052751392 0.69666004
-0.0078150211 -0.054705113 0.69666004
-0.0078150211 -0.056658894 0.69666004
-0.0078149913 -0.058612406 0.69665915
-0.0078149913 -0.060566157 0.69665915
-0.0078149913 -0.062519908 0.69665915
-0.0078149913 -0.064473629 0.69665915
-0.0078149606 -0.066427141 0.69665825
-0.0078149606 -0.068380862 0.69665813
-0.0078149606 -0.070334643 0.69665825
-0.0078149606 -0.072288364 0.69665813
-0.0078149606 -0.074242115 0.69665819
-0.0078149606 -0.076195806 0.69665819
-0.0078149606 -0.078149587 0.69665819
-0.0078149913 -0.080103666 0.69665915
-0.0078149913 -0.082057387 0.69665909
-0.0078149913 -0.084011167 0.69665915
-0.0078149913 -0.085964888 0.69665915
-0.0078149913 -0.087918624 0.69665909
-0.0078508882 -0.090285182 0.6977424
-0.0057936916 0.08883661 0.69394106
-0.0057936916 0.08690542 0.69394106
-0.0057936916 0.08497417 0.693941
-0.0057936916 0.083042979 0.69394106
-0.0057936916 0.081111729 0.69394106
-0.0057936916 0.079180479 0.693941
-0.0057936916 0.077249259 0.693941
-0.0057936916 0.075318038 0.693941
-0.0057936916 0.073386788 0.693941
-0.0057936916 0.071455568 0.69394112
-0.0057936916 0.069524348 0.693941
-0.0057936916 0.067593068 0.69394106
-0.0057936916 0.065661877 0.69394112
-0.0057936916 0.063730627 0.69394112
-0.0057936916 0.061799407 0.69394112
-0.0057936916 0.059868187 0.69394112
-0.0057936916 0.057936937 0.69394106
-0.0057936916 0.056005716 0.69394112
-0.0057936916 0.054074496 0.69394112
-0.0057936916 0.052143246 0.69394106
-0.0057936916 0.050212026 0.69394106
-0.0057936916 0.048280805 0.69394112
-0.0057936916 0.046349555 0.69394106
-0.0057936916 0.044418335 0.69394106
-0.0057936916 0.042487115 0.69394106
-0.0057936916 0.040555865 0.69394106
-0.0057936916 0.038624674 0.69394106
-0.0057936916 0.036693394 0.69394112
-0.0057936916 0.034762174 0.693941
-0.0057936916 0.032830924 0.69394112
-0.0057936916 0.030899704 0.69394112
-0.0057936916 0.028968453 0.69394112
-0.0057936916 0.027037233 0.69394112
-0.0057936916 0.025106013 0.69394112
-0.0057936916 0.023174793 0.69394112
-0.0057936916 0.021243542 0.69394112
-0.0057936916 0.019312322 0.69394112
-0.0057936916 0.017381072 0.69394106
-0.0057936916 0.015449852 0.69394112
-0.0057936916 0.013518661 0.69394112
-0.0057936916 0.011587381 0.69394106
-0.0057936916 0.0096561611 0.69394106
-0.0057936916 0.0077249408 0.69394106
-0.0057936916 0.0057936907 0.69394106
-0.0057936916 0.0038625002 0.69394106
-0.0057936916 0.0019312501 0.69394106
-0.0057936916 -0 0.693941
-0.0057936916 -0.0019311905 0.69394106
-0.0057936916 -0.0038624406 0.69394106
-0.0057936916 -0.0057936609 0.693941
-0.0057936916 -0.0077248812 0.693941
-0.0057936916 -0.0096561313 0.69394106
-0.0057936916 -0.011587352 0.693941
-0.0057936916 -0.013518602 0.693941
-0.0057936916 -0.015449852 0.69394112
-0.0057936916 -0.017381042 0.693941
-0.0057936916 -0.019312292 0.693941
-0.0057936916 -0.021243513 0.69394112
-0.0057936916 -0.023174763 0.69394106
-0.0057936916 -0.025105953 0.693941
-0.0057936916 -0.027037203 0.69394112
-0.0057936916 -0.028968483 0.69394106
-0.0057936916 -0.030899674 0.69394106
-0.0057936916 -0.032830894 0.69394106
-0.0057936916 -0.034762174 0.69394106
-0.0057936916 -0.036693364 0.69394106
-0.0057936916 -0.038624614 0.69394106
-0.0058503239 -0.040952235 0.6962198
-0.0058504608 -0.042903364 0.69622529
-0.0058504608 -0.044853508 0.69622529
-0.0058504608 -0.046803683 0.69622529
-0.005850438 -0.048753619 0.69622433
-0.005850438 -0.050703794 0.69622433
-0.005850438 -0.052653939 0.69622433
-0.0058504152 -0.054603875 0.69622344
-0.0058504152 -0.05655396 0.69622344
-0.0058504152 -0.058504134 0.69622338
-0.0058503924 -0.060454041 0.69622248
-0.0058503924 -0.062404186 0.69622254
-0.0058503924 -0.064354271 0.69622242
-0.0058503696 -0.066304177 0.69622159
-0.0058503696 -0.068254322 0.69622165
-0.0058503696 -0.070204407 0.69622159
-0.0058503468 -0.072154254 0.69622064
-0.0058503468 -0.074104369 0.69622064
-0.0058503468 -0.076054513 0.69622064
-0.0058503239 -0.078004301 0.69621974
-0.0058503239 -0.079954416 0.69621974
-0.0058503239 -0.08190456 0.6962198
-0.0058503011 -0.083854288 0.69621885
-0.0058503239 -0.085804746 0.69621974
-0.0058503239 -0.087754831 0.6962198
-0.0058733062 -0.090057388 0.69714451
-0.0038860999 0.089380324 0.69536775
-0.0038860999 0.087437302 0.69536775
-0.003886115 0.085494548 0.69536871
-0.003886115 0.083551526 0.69536865
-0.0038861302 0.081608742 0.6953696
-0.0038861302 0.079665691 0.6953696
-0.0038861451 0.077722937 0.69537055
-0.0038861451 0.075779855 0.69537055
-0.0038861451 0.073836803 0.69537055
-0.0038861602 0.07189399 0.69537145
-0.0038861602 0.069950879 0.69537145
-0.0038861753 0.068008095 0.69537234
-0.0038861753 0.066064984 0.6953724
-0.0038861905 0.06412214 0.69537324
-0.0038861905 0.062179029 0.6953733
-0.0038862056 0.060236216 0.69537413
-0.0038862056 0.058293104 0.69537413
-0.0038862205 0.056350201 0.69537508
-0.0038862205 0.05440709 0.69537508
-0.0038862356 0.052464217 0.69537598
-0.0038862356 0.050521106 0.69537604
-0.0038862356 0.048577964 0.69537598
-0.0038862508 0.046635032 0.69537693
-0.0038862508 0.04469189 0.69537687
-0.0038862659 0.042748928 0.69537783
-0.0038862659 0.040805817 0.69537783
-0.0038862659 0.038862675 0.69537783
-0.0038862659 0.036919534 0.69537783
-0.0038862813 0.034976542 0.69537872
-0.0038862813 0.033033431 0.69537872
-0.0038862813 0.031090289 0.69537872
-0.0038862813 0.029147118 0.69537872
-0.0038862964 0.027204096 0.69537961
-0.0038862964 0.025260925 0.69537967
-0.0038862964 0.023317814 0.69537961
-0.0038862964 0.021374643 0.69537961
-0.0038863115 0.019431531 0.69538057
-0.0038863115 0.01748839 0.69538057
-0.0038863115 0.015545249 0.69538057
-0.0038863115 0.013602108 0.69538057
-0.0038863264 0.011658996 0.69538146
-0.0038863264 0.0097158849 0.69538146
-0.0038863264 0.0077726841 0.69538146
-0.0038863264 0.0058295429 0.69538146
-0.0038863416 0.0038863719 0.69538236
-0.0038863416 0.0019432008 0.69538236
-0.0038863416 2.9802322e-08 0.69538236
-0.0038863416 -0.0019431412 0.69538242
-0.0038863567 -0.0038863719 0.69538331
-0.0038863567 -0.0058295131 0.69538331
-0.0038863567 -0.0077726841 0.69538319
-0.0038863567 -0.0097158849 0.69538331
-0.0038863719 -0.011659086 0.69538414
-0.0038863719 -0.013602287 0.69538414
-0.0038863719 -0.015545458 0.6953842
-0.0038863719 -0.017488658 0.69538414
-0.003886387 -0.019431919 0.6953851
-0.003886387 -0.02137512 0.6953851
-0.003886387 -0.02331835 0.6953851
-0.003886387 -0.025261492 0.6953851
-0.0038864019 -0.027204782 0.69538599
-0.0038864019 -0.029147983 0.69538605
-0.0038864019 -0.031091213 0.69538605
-0.0038864019 -0.033034414 0.69538599
-0.003886417 -0.034977734 0.69538689
-0.003886417 -0.036920935 0.69538689
-0.003886417 -0.038864136 0.69538689
-0.0038955547 -0.04090327 0.69593841
-0.0038957673 -0.042853445 0.69595128
-0.0038957519 -0.044801116 0.69595033
-0.0038957519 -0.046748996 0.69595033
-0.0038957368 -0.048696697 0.69594944
-0.0038957368 -0.050644547 0.69594944
-0.0038957216 -0.052592218 0.69594854
-0.0038957216 -0.054540068 0.69594854
-0.0038957216 -0.056487948 0.69594848
-0.0038957065 -0.058435589 0.69594759
-0.0038957065 -0.060383439 0.69594759
-0.0038956911 -0.062331051 0.69594663
-0.0038956911 -0.064278901 0.69594669
-0.0038957065 -0.066227019 0.69594759
-0.0038957065 -0.068174869 0.69594759
-0.0038957216 -0.070122987 0.69594854
-0.0038957216 -0.072070837 0.69594848
-0.0038957368 -0.074018985 0.69594944
-0.0038957368 -0.075966835 0.69594944
-0.0038957368 -0.077914715 0.69594938
-0.0038957519 -0.079862893 0.69595039
-0.0038957519 -0.081810772 0.69595039
-0.0038957673 -0.08375895 0.69595128
-0.0038957673 -0.08570683 0.69595122
-0.0038957824 -0.087655053 0.69595212
-0.0039094035 -0.089916304 0.6967743
-0.0019445679 0.089450151 0.69555104
-0.0019445679 0.087505579 0.69555104
-0.0019445679 0.085561007 0.69555098
-0.0019445679 0.083616436 0.69555098
-0.0019445679 0.081671864 0.69555104
-0.0019445679 0.079727292 0.69555104
-0.0019445679 0.077782691 0.69555104
-0.0019445679 0.075838149 0.69555104
-0.0019445679 0.073893547 0.69555098
-0.0019445679 0.071949065 0.69555098
-0.0019445679 0.070004463 0.69555104
-0.0019445679 0.068059891 0.69555104
-0.0019445679 0.06611535 0.69555098
-0.0019445679 0.064170778 0.69555104
-0.0019445679 0.062226176 0.69555104
-0.0019445679 0.060281664 0.69555098
-0.0019445679 0.058337063 0.69555104
-0.0019445679 0.056392491 0.69555104
-0.0019445679 0.054447919 0.69555104
-0.0019445679 0.052503377 0.69555098
-0.0019445679 0.050558746 0.69555098
-0.0019445679 0.048614264 0.69555098
-0.0019445679 0.046669662 0.69555098
-0.0019445679 0.04472506 0.69555104
-0.0019445679 0.042780489 0.69555104
-0.0019445679 0.040835947 0.69555098
-0.0019445679 0.038891375 0.69555104
-0.0019445679 0.036946833 0.69555098
-0.0019445679 0.035002261 0.69555098
-0.0019445679 0.03305763 0.69555104
-0.0019445679 0.031113118 0.69555104
-0.0019445679 0.029168546 0.69555098
-0.0019445679 0.027223974 0.69555104
-0.0019445679 0.025279403 0.69555098
-0.0019445679 0.023334831 0.69555098
-0.0019445679 0.021390259 0.69555104
-0.0019445679 0.019445717 0.69555104
-0.0019445679 0.017501116 0.69555098
-0.0019445679 0.015556544 0.69555098
-0.0019445679 0.013612002 0.69555104
-0.0019445679 0.01166746 0.69555098
-0.0019445679 0.0097228587 0.69555104
-0.0019445679 0.0077782869 0.69555098
-0.0019445679 0.0058336854 0.69555104
-0.0019445679 0.0038891435 0.69555104
-0.0019445679 0.0019446015 0.69555098
-0.0019445679 2.9802322e-08 0.69555098
-0.0019445679 -0.0019445419 0.69555098
-0.0019445679 -0.0038891137 0.69555104
-0.0019445679 -0.0058336854 0.69555104
-0.0019445679 -0.0077782571 0.69555098
-0.0019445679 -0.0097227991 0.69555104
-0.0019445679 -0.01166743 0.69555104
-0.0019445679 -0.013611943 0.69555104
-0.0019445679 -0.015556514 0.69555104
-0.0019445679 -0.017501086 0.69555104
-0.0019445679 -0.019445688 0.69555098
-0.0019445679 -0.021390229 0.69555098
-0.0019445679 -0.023334801 0.69555104
-0.0019445679 -0.025279343 0.69555098
-0.0019445679 -0.027223915 0.69555104
-0.0019445679 -0.029168516 0.69555104
-0.0019445679 -0.031113058 0.69555098
-0.0019445679 -0.03305763 0.69555104
-0.0019445679 -0.035002172 0.69555098
-0.0019445679 -0.036946774 0.69555098
-0.0019445679 -0.038891345 0.69555098
-0.0019469741 -0.040886432 0.69584149
-0.0019470573 -0.042835265 0.69585156
-0.0019470498 -0.044782132 0.69585061
-0.0019470498 -0.046729177 0.69585061
-0.0019470423 -0.048676044 0.69584972
-0.0019470423 -0.050623089 0.69584966
-0.0019470423 -0.052570134 0.69584966
-0.0019470347 -0.054516941 0.69584876
-0.0019470347 -0.056463957 0.69584882
-0.001947027 -0.058410764 0.69584787
-0.001947027 -0.060357839 0.69584787
-0.001947027 -0.062304854 0.69584787
-0.0019470195 -0.064251631 0.69584692
-0.0019470195 -0.066198647 0.69584692
-0.0019470119 -0.068145394 0.69584602
-0.0019470119 -0.07009244 0.69584608
-0.0019470043 -0.072039127 0.69584507
-0.0019470043 -0.073986143 0.69584513
-0.0019470043 -0.075933158 0.69584513
-0.0019470043 -0.077880174 0.69584513
-0.0019470043 -0.07982716 0.69584513
-0.0019470043 -0.081774145 0.69584513
-0.0019470043 -0.083721161 0.69584513
-0.0019470043 -0.085668191 0.69584519
-0.0019470043 -0.087615177 0.69584507
-0.0019535264 -0.089862198 0.69663244
0 0.089464724 0.69558936
0 0.087519854 0.69558936
0 0.085574985 0.6955893
0 0.083630085 0.6955893
0 0.081685215 0.6955893
0 0.079740316 0.6955893
0 0.077795416 0.6955893
0 0.075850517 0.69558936
0 0.073905677 0.6955893
0 0.071960777 0.69558936
0 0.070015907 0.6955893
0 0.068071008 0.6955893
0 0.066126108 0.6955893
0 0.064181209 0.69558936
0 0.062236339 0.6955893
0 0.060291499 0.6955893
0 0.05834657 0.6955893
0 0.05640167 0.69558936
0 0.05445677 0.6955893
0 0.05251196 0.6955893
0 0.050567031 0.6955893
0 0.048622161 0.69558936
0 0.046677262 0.6955893
0 0.044732392 0.6955893
0 0.042787492 0.69558936
0 0.040842623 0.6955893
0 0.038897723 0.6955893
0 0.036952853 0.6955893
0 0.035007954 0.6955893
0 0.033063084 0.6955893
0 0.031118184 0.6955893
0 0.029173285 0.6955893
0 0.027228415 0.6955893
0 0.025283515 0.6955893
0 0.023338616 0.69558936
0 0.021393746 0.6955893
0 0.019448906 0.6955893
0 0.017503977 0.6955893
0 0.015559077 0.6955893
0 0.013614208 0.6955893
0 0.011669338 0.69558936
0 0.0097244382 0.6955893
0 0.0077795386 0.69558936
0 0.0058346689 0.6955893
0 0.0038897991 0.6955893
0 0.0019449294 0.6955893
0 -0 0.69558936
0 -0.0019448698 0.6955893
0 -0.0038897395 0.6955893
0 -0.0058346391 0.6955893
0 -0.0077795088 0.6955893
0 -0.0097243786 0.69558936
0 -0.011669278 0.6955893
0 -0.013614208 0.6955893
0 -0.015559077 0.6955893
0 -0.017503947 0.6955893
0 -0.019448817 0.6955893
0 -0.021393687 0.6955893
0 -0.023338616 0.6955893
0 -0.025283515 0.69558936
0 -0.027228355 0.6955893
0 -0.029173255 0.69558936
0 -0.031118125 0.6955893
0 -0.033063024 0.69558936
0 -0.035007924 0.6955893
0 -0.036952794 0.6955893
0 -0.038897663 0.6955893
0 -0.040893108 0.69587988
0 -0.04284209 0.695889
0 -0.044789284 0.6958881
0 -0.046736658 0.6958881
0 -0.048683822 0.69588721
0 -0.050631136 0.69588715
0 -0.0525783 0.69588625
0 -0.054525644 0.69588625
0 -0.056472749 0.6958853
0 -0.058420122 0.69588542
0 -0.060367197 0.69588441
0 -0.06231454 0.69588447
0 -0.064261585 0.69588351
0 -0.066208929 0.69588351
0 -0.068156272 0.69588351
0 -0.070103884 0.69588447
0 -0.072051227 0.69588447
0 -0.073998541 0.69588447
0 -0.075945854 0.69588447
0 -0.077893198 0.69588447
0 -0.079840511 0.69588447
0 -0.081787825 0.69588447
0 -0.083735168 0.69588441
0 -0.085682511 0.69588441
0 -0.087629855 0.69588453
0 -0.08988291 0.69668674
0.0019464515 0.087590367 0.69577837
0.0019464515 0.085643917 0.69577837
0.0019464515 0.083697438 0.69577837
0.0019464515 0.081750989 0.69577837
0.0019464515 0.07980451 0.69577837
0.0019464515 0.077858061 0.69577837
0.0019464515 0.075911611 0.69577837
0.0019464515 0.073965192 0.69577837
0.0019464515 0.072018743 0.69577837
0.0019464515 0.070072293 0.69577837
0.0019464515 0.068125844 0.69577837
0.0019464515 0.066179395 0.69577837
0.0019464515 0.064232916 0.69577837
0.0019464515 0.062286466 0.69577837
0.0019464515 0.060340017 0.69577837
0.0019464515 0.058393568 0.69577837
0.0019464515 0.056447119 0.69577837
0.0019464515 0.054500639 0.69577837
0.0019464515 0.05255422 0.69577843
0.0019464515 0.050607741 0.69577837
0.0019464515 0.048661321 0.69577837
0.0019464515 0.046714842 0.69577837
0.0019464515 0.044768393 0.69577837
0.0019464515 0.042821914 0.69577837
0.0019464515 0.040875494 0.69577837
0.0019464515 0.038929015 0.69577837
0.0019464515 0.036982626 0.69577837
0.0019464515 0.035036147 0.69577837
0.0019464515 0.033089727 0.69577837
0.0019464515 0.031143218 0.69577837
0.0019464515 0.029196799 0.69577837
0.0019464515 0.02725032 0.69577837
0.0019464515 0.02530387 0.69577837
0.0019464515 0.023357421 0.69577837
0.0019464515 0.021411002 0.69577837
0.0019464515 0.019464552 0.69577837
0.0019464515 0.017518103 0.69577837
0.0019464515 0.015571624 0.69577837
0.0019464515 0.013625205 0.69577837
0.0019464515 0.011678696 0.69577837
0.0019464515 0.0097322762 0.69577837
0.0019464515 0.0077858269 0.69577837
0.0019464515 0.0058394074 0.69577831
0.0019464515 0.0038929284 0.69577837
0.0019464515 0.0019465089 0.69577837
0.0019464515 -0 0.69577837
0.0019464515 -0.0019464493 0.69577837
0.0019464438 -0.0038928688 0.69577748
0.0019464438 -0.005839318 0.69577748
0.0019464438 -0.0077857077 0.69577748
0.0019464438 -0.0097321868 0.69577742
0.0019464438 -0.011678636 0.69577748
0.0019464438 -0.013625085 0.69577748
0.0019464438 -0.015571505 0.69577748
0.0019464438 -0.017517954 0.69577748
0.0019464438 -0.019464433 0.69577742
0.0019464438 -0.021410882 0.69577742
0.0019464438 -0.023357332 0.69577742
0.0019464438 -0.025303751 0.69577748
0.0019464438 -0.02725023 0.69577748
0.0019464438 -0.02919665 0.69577748
0.0019464438 -0.031143099 0.69577742
0.0019464438 -0.033089519 0.69577742
0.0019464438 -0.035035968 0.69577742
0.0019464438 -0.036982417 0.69577748
0.0019464438 -0.038928896 0.69577748
0.0019489154 -0.040927231 0.69607586
0.0019489458 -0.04287678 0.69607949
0.0019489458 -0.044825733 0.69607943
0.0019489382 -0.046774507 0.69607854
0.0019489306 -0.048723221 0.69607764
0.001948923 -0.050671995 0.69607675
0.001948923 -0.052620888 0.69607669
0.0019489154 -0.054569602 0.6960758
0.0019489079 -0.056518286 0.69607484
0.0019489002 -0.058467001 0.69607395
0.0019488926 -0.060415685 0.69607306
0.0019488926 -0.062364548 0.69607311
0.0019488852 -0.064313173 0.69607216
0.0019488774 -0.066261798 0.69607121
0.0019488699 -0.068210423 0.69607031
0.0019488699 -0.070159286 0.69607031
0.0019488699 -0.072108179 0.69607031
0.0019488699 -0.074057043 0.69607025
0.0019488774 -0.076006204 0.69607127
0.0019488774 -0.077955067 0.69607115
0.0019488852 -0.079904258 0.69607216
0.0019488852 -0.081853181 0.6960721
0.0019488926 -0.083802372 0.69607311
0.0019488926 -0.085751295 0.69607306
0.0019489002 -0.087700486 0.69607395
0.0019560619 -0.089978844 0.69693851
0.0038986055 0.087718666 0.69612253
0.0038986055 0.085769355 0.69612259
0.0038986055 0.083820015 0.69612253
0.0038986055 0.081870735 0.69612259
0.0038986055 0.079921454 0.69612253
0.0038986055 0.077972144 0.69612259
0.0038986055 0.076022834 0.69612253
0.0038986055 0.074073523 0.69612253
0.0038986055 0.072124213 0.69612253
0.0038986055 0.070174903 0.69612253
0.0038986055 0.068225622 0.69612259
0.0038986055 0.066276312 0.69612253
0.0038986055 0.064327002 0.69612259
0.0038986055 0.062377721 0.69612253
0.0038986055 0.060428351 0.69612253
0.0038985899 0.058478862 0.69612163
0.0038985899 0.056529582 0.69612163
0.0038985899 0.054580301 0.69612163
0.0038985899 0.052630991 0.69612163
0.0038985899 0.05068171 0.69612163
0.0038985899 0.04873237 0.69612163
0.0038985899 0.046783119 0.69612163
0.0038985899 0.044833839 0.69612157
0.0038985899 0.042884529 0.69612163
0.0038985899 0.040935218 0.69612157
0.0038985899 0.038985908 0.69612169
0.0038985899 0.037036598 0.69612163
0.0038985899 0.035087317 0.69612163
0.0038985899 0.033138037 0.69612163
0.0038985899 0.031188756 0.69612163
0.0038985899 0.029239446 0.69612163
0.0038985899 0.027290136 0.69612163
0.0038985899 0.025340855 0.69612157
0.0038985899 0.023391575 0.69612169
0.0038985899 0.021442264 0.69612163
0.0038985899 0.019492984 0.69612163
0.0038985899 0.017543674 0.69612169
0.0038985899 0.015594363 0.69612157
0.0038985899 0.013645142 0.69612163
0.0038985899 0.011695772 0.69612163
0.0038985899 0.0097465217 0.69612157
0.0038985899 0.0077972114 0.69612157
0.0038985899 0.0058479011 0.69612163
0.0038985899 0.0038985908 0.69612169
0.0038985899 0.0019493103 0.69612163
0.0038985899 2.9802322e-08 0.69612163
0.0038985899 -0.0019492805 0.69612169
0.0038985899 -0.0038985908 0.69612163
0.0038985899 -0.0058478713 0.69612157
0.0038985899 -0.0077971518 0.69612163
0.0038985899 -0.0097464621 0.69612157
0.0038985899 -0.011695743 0.69612163
0.0038985899 -0.013645053 0.69612163
0.0038985899 -0.015594333 0.69612163
0.0038985899 -0.017543614 0.69612157
0.0038985899 -0.019492924 0.69612163
0.0038985899 -0.021442235 0.69612163
0.0038985899 -0.023391485 0.69612157
0.0038985899 -0.025340825 0.69612163
0.0038985899 -0.027290106 0.69612169
0.0038985899 -0.029239416 0.69612163
0.0038985899 -0.031188697 0.69612163
0.0038985899 -0.033138007 0.69612169
0.0038985899 -0.035087317 0.69612163
0.0038985899 -0.037036568 0.69612157
0.0038985899 -0.038985878 0.69612163
0.0039037154 -0.040988982 0.69643092
0.0039036998 -0.042940706 0.69643003
0.0039036849 -0.044892341 0.69642913
0.0039036693 -0.046844006 0.69642818
0.0039036544 -0.04879567 0.69642729
0.0039036393 -0.050747305 0.69642633
0.0039036239 -0.05269888 0.69642544
0.0039036239 -0.054650694 0.69642544
0.0039036088 -0.056602299 0.69642448
0.0039035932 -0.058553874 0.69642365
0.0039035783 -0.06050542 0.6964227
0.0039035631 -0.062457025 0.6964218
0.0039035478 -0.064408511 0.69642085
0.0039035326 -0.066360056 0.69641995
0.0039035173 -0.068311542 0.69641906
0.0039035173 -0.070263296 0.69641906
0.0039035021 -0.072214782 0.69641811
0.0039034868 -0.074166209 0.69641721
0.0039034716 -0.076117665 0.69641626
0.0039034565 -0.078069121 0.69641542
0.0039034411 -0.080020517 0.69641441
0.0039034411 -0.081972241 0.69641441
0.0039034411 -0.083923966 0.69641447
0.0039034565 -0.085876033 0.69641536
0.0039034716 -0.087828115 0.69641626
0.0039198627 -0.090156794 0.69740552
0.0058605792 0.087908715 0.69663239
0.0058605792 0.085955203 0.69663239
0.0058605792 0.08400169 0.69663244
0.0058605792 0.082048148 0.69663239
0.0058605792 0.080094635 0.69663239
0.0058605792 0.078141093 0.69663239
0.0058605792 0.076187521 0.69663244
0.0058605792 0.074234039 0.69663239
0.0058605792 0.072280496 0.69663239
0.0058605792 0.070326954 0.69663244
0.0058605792 0.068373442 0.69663239
0.0058605792 0.066419959 0.69663239
0.0058605792 0.064466387 0.69663239
0.0058605792 0.062512845 0.69663244
0.0058605792 0.060559332 0.69663239
0.0058605792 0.05860582 0.69663239
0.0058605792 0.056652278 0.69663244
0.0058605792 0.054698795 0.69663239
0.0058605792 0.052745223 0.69663244
0.0058605792 0.050791711 0.69663244
0.0058605792 0.048838198 0.69663239
0.0058605792 0.046884626 0.69663239
0.0058605792 0.044931144 0.69663244
0.0058605792 0.042977631 0.69663239
0.0058605792 0.041024089 0.69663239
0.0058605792 0.039070547 0.69663239
0.0058605792 0.037117064 0.69663239
0.0058605792 0.035163492 0.69663239
0.0058605792 0.03320995 0.69663239
0.0058605792 0.031256437 0.69663244
0.0058605792 0.029302925 0.69663239
0.0058605792 0.027349412 0.69663244
0.0058605792 0.02539587 0.69663244
0.0058605792 0.023442298 0.69663244
0.0058605792 0.021488816 0.69663239
0.0058605792 0.019535273 0.69663239
0.0058605792 0.017581731 0.69663244
0.0058605792 0.015628248 0.69663239
0.0058605792 0.013674736 0.69663239
0.0058605792 0.011721164 0.69663244
0.0058605792 0.0097676516 0.69663239
0.0058605792 0.0078141391 0.69663239
0.0058605792 0.0058605671 0.69663239
0.0058605792 0.0039070845 0.69663239
0.0058605792 0.0019535422 0.69663239
0.0058605792 2.9802322e-08 0.69663244
0.0058605792 -0.0019534826 0.69663239
0.0058605792 -0.0039070249 0.69663239
0.0058605792 -0.0058605671 0.69663244
0.0058605792 -0.0078141093 0.69663239
0.0058605792 -0.009767592 0.69663239
0.0058605792 -0.011721164 0.69663244
0.0058605792 -0.013674676 0.69663239
0.0058605792 -0.015628159 0.69663239
0.0058605792 -0.017581731 0.69663239
0.0058605792 -0.019535273 0.69663239
0.0058605792 -0.021488786 0.69663239
0.0058605792 -0.023442298 0.69663239
0.0058605792 -0.02539584 0.69663244
0.0058605792 -0.027349323 0.69663239
0.0058605792 -0.029302865 0.69663239
0.0058605792 -0.031256407 0.69663244
0.0058605792 -0.03320995 0.69663239
0.0058605792 -0.035163462 0.69663239
0.0058605792 -0.037116975 0.69663239
0.0058605792 -0.039070517 0.69663239
0.0058684382 -0.041079015 0.69694859
0.0058684382 -0.043035179 0.69694859
0.0058684153 -0.044991195 0.69694775
0.0058683925 -0.046947092 0.69694674
0.0058683697 -0.048903048 0.69694591
0.0058683464 -0.050859004 0.69694495
0.0058683464 -0.05281508 0.69694489
0.0058683236 -0.054771006 0.69694406
0.0058683008 -0.056726873 0.69694304
0.005868278 -0.05868277 0.69694215
0.0058682547 -0.060638607 0.6969412
0.0058682547 -0.062594712 0.69694126
0.0058682319 -0.064550549 0.69694036
0.0058682091 -0.066506386 0.69693941
0.0058681862 -0.068462133 0.69693851
0.0058681634 -0.070417941 0.69693756
0.0058681634 -0.072374016 0.69693756
0.0058681397 -0.074329793 0.69693661
0.0058681169 -0.076285511 0.69693571
0.005868094 -0.078241229 0.69693476
0.005868094 -0.080197275 0.69693482
0.005868094 -0.082153291 0.69693476
0.0058681169 -0.084109634 0.69693565
0.0058681169 -0.08606568 0.69693571
0.0058681397 -0.088022068 0.69693667
0.0058978368 -0.090433463 0.6981315
0.0078370236 0.088166565 0.69732398
0.0078370236 0.086207241 0.69732404
0.0078370236 0.084248006 0.69732404
0.0078370236 0.082288802 0.69732398
0.0078370236 0.080329508 0.69732404
0.0078370236 0.078370273 0.69732404
0.0078370236 0.076411009 0.69732404
0.0078370236 0.074451745 0.69732404
0.0078370236 0.07249251 0.69732398
0.0078370236 0.070533216 0.69732404
0.0078370236 0.068573982 0.69732404
0.0078370236 0.066614717 0.69732398
0.0078370236 0.064655483 0.69732398
0.0078370236 0.062696218 0.69732398
0.0078370236 0.060736954 0.69732404
0.0078370236 0.05877772 0.69732404
0.0078370236 0.056818455 0.69732404
0.0078370236 0.054859161 0.69732404
0.0078370236 0.052899957 0.69732404
0.0078370236 0.050940663 0.69732404
0.0078370236 0.048981428 0.69732398
0.0078370236 0.047022194 0.69732404
0.0078370236 0.04506287 0.69732404
0.0078370236 0.043103635 0.69732404
0.0078370236 0.041144401 0.69732404
0.0078370236 0.039185107 0.69732404
0.0078370236 0.037225902 0.69732398
0.0078370236 0.035266638 0.69732404
0.0078370236 0.033307374 0.69732398
0.0078370236 0.031348139 0.69732404
0.0078370236 0.029388845 0.69732404
0.0078370236 0.027429581 0.69732404
0.0078370236 0.025470346 0.69732404
0.0078370236 0.023511112 0.69732404
0.0078370236 0.021551818 0.69732404
0.0078370236 0.019592553 0.69732404
0.0078370236 0.017633319 0.69732404
0.0078370236 0.015674055 0.69732404
0.0078370236 0.01371479 0.69732404
0.0078370236 0.011755586 0.69732404
0.0078370236 0.0097962916 0.69732398
0.0078370236 0.0078370273 0.69732404
0.0078370236 0.0058778226 0.69732404
0.0078370236 0.0039184988 0.69732404
0.0078370236 0.0019592643 0.69732404
0.0078370236 2.9802322e-08 0.69732404
0.0078370236 -0.0019592941 0.69732404
0.0078370236 -0.0039184988 0.69732398
0.0078370236 -0.0058777332 0.69732404
0.0078370236 -0.0078369975 0.69732404
0.0078370236 -0.009796232 0.69732404
0.0078370236 -0.011755526 0.69732404
0.0078370236 -0.01371479 0.69732404
0.0078370236 -0.015674025 0.69732404
0.0078370236 -0.017633289 0.69732398
0.0078370236 -0.019592524 0.69732398
0.0078370236 -0.021551818 0.69732404
0.0078370236 -0.023511082 0.69732398
0.0078370236 -0.025470287 0.69732404
0.0078370236 -0.027429551 0.69732404
0.0078370236 -0.029388815 0.69732404
0.0078370236 -0.03134805 0.69732404
0.0078370236 -0.033307314 0.69732404
0.0078370236 -0.035266578 0.69732404
0.0078370236 -0.037225842 0.69732404
0.0078370236 -0.039185107 0.69732404
0.0078478716 -0.041201293 0.69765133
0.0078478409 -0.043163121 0.69765043
0.0078478409 -0.045125097 0.69765043
0.0078478102 -0.047086865 0.69764948
0.0078478102 -0.049048811 0.69764954
0.0078477794 -0.051010549 0.69764858
0.0078477794 -0.052972466 0.69764858
0.0078477487 -0.054934233 0.69764769
0.0078477487 -0.05689615 0.69764769
0.007847717 -0.058857858 0.69764674
0.007847717 -0.060819805 0.69764674
0.0078476863 -0.062781453 0.69764584
0.0078476863 -0.0647434 0.69764578
0.0078476556 -0.066705048 0.69764483
0.0078476556 -0.068666965 0.69764483
0.0078476556 -0.070628881 0.69764489
0.0078476556 -0.072590798 0.69764489
0.0078476556 -0.074552715 0.69764483
0.0078476556 -0.076514661 0.69764489
0.0078476556 -0.078476518 0.69764483
0.0078476556 -0.080438465 0.69764489
0.0078476556 -0.082400352 0.69764489
0.0078476556 -0.084362268 0.69764483
0.0078476556 -0.08632417 0.69764489
0.0078476556 -0.088286102 0.69764489
0.0098332437 0.088499218 0.69821638
0.0098332437 0.086532593 0.69821638
0.0098332437 0.084565938 0.69821644
0.0098332437 0.082599252 0.69821638
0.0098332437 0.080632567 0.69821644
0.0098332437 0.078665972 0.69821638
0.0098332437 0.076699317 0.69821644
0.0098332437 0.074732661 0.69821644
0.0098332437 0.072766036 0.69821644
0.0098332437 0.070799381 0.69821644
0.0098332437 0.068832755 0.69821638
0.0098332437 0.06686607 0.69821638
0.0098332437 0.064899415 0.69821638
0.0098332437 0.06293276 0.69821644
0.0098332437 0.060966134 0.69821638
0.0098332437 0.058999509 0.69821638
0.0098332437 0.057032853 0.69821644
0.0098332437 0.055066198 0.69821644
0.0098332437 0.053099543 0.69821644
0.0098332437 0.051132888 0.69821638
0.0098332437 0.049166232 0.69821638
0.0098332437 0.047199607 0.69821638
0.0098332437 0.045232922 0.69821644
0.0098332437 0.043266296 0.69821638
0.0098332437 0.041299641 0.69821644
0.0098332437 0.039332986 0.69821638
0.0098332437 0.037366331 0.69821644
0.0098332437 0.035399675 0.69821644
0.0098332437 0.03343305 0.69821638
0.0098332437 0.031466395 0.69821644
0.0098332437 0.029499769 0.69821644
0.0098332437 0.027533114 0.69821644
0.0098332437 0.025566459 0.69821644
0.0098332437 0.023599803 0.69821644
0.0098332437 0.021633148 0.69821638
0.0098332437 0.019666463 0.69821644
0.0098332437 0.017699867 0.69821638
0.0098332437 0.015733212 0.69821638
0.0098332437 0.013766557 0.69821644
0.0098332437 0.011799932 0.69821644
0.0098332437 0.0098332763 0.69821644
0.0098332437 0.007866621 0.69821638
0.0098332437 0.005899936 0.69821644
0.0098332437 0.0039333105 0.69821638
0.0098332437 0.0019666553 0.69821644
0.0098332437 -0 0.69821644
0.0098332437 -0.0019665956 0.69821638
0.0098332437 -0.0039332509 0.69821632
0.0098332437 -0.005899936 0.69821644
0.0098332437 -0.0078665614 0.69821644
0.0098332437 -0.0098332167 0.69821638
0.0098332437 -0.011799902 0.69821644
0.0098332437 -0.013766527 0.69821644
0.0098332437 -0.015733182 0.69821644
0.0098332437 -0.017699808 0.69821644
0.0098332437 -0.019666463 0.69821638
0.0098332437 -0.021633089 0.69821632
0.0098332437 -0.023599774 0.69821644
0.0098332437 -0.025566429 0.69821644
0.0098332437 -0.027533054 0.69821638
0.0098332437 -0.02949971 0.69821644
0.0098332437 -0.031466365 0.69821644
0.0098332437 -0.03343302 0.69821644
0.0098332437 -0.035399675 0.69821638
0.0098332437 -0.037366301 0.69821644
0.0098332437 -0.039332926 0.69821638
0.00984741 -0.041359097 0.69855845
0.0098473709 -0.043328404 0.69855744
0.0098473709 -0.045297891 0.6985575
0.0098473709 -0.047267348 0.6985575
0.0098473318 -0.049236655 0.69855654
0.0098473318 -0.051206142 0.69855654
0.0098472936 -0.05317539 0.69855559
0.0098472936 -0.055144846 0.69855559
0.0098472936 -0.057114303 0.69855559
0.0098472545 -0.059083521 0.69855469
0.0098472545 -0.061052948 0.69855464
0.0098472154 -0.063022137 0.69855368
0.0098472154 -0.064991623 0.69855374
0.0098472154 -0.06696105 0.69855374
0.0098471772 -0.068930209 0.69855279
0.0098471772 -0.070899695 0.69855285
0.0098471381 -0.072868794 0.69855183
0.0098471381 -0.074838251 0.69855189
0.0098471381 -0.076807648 0.69855189
0.0098470999 -0.078776777 0.69855094
0.0098470999 -0.080746204 0.69855088
0.0098470999 -0.082715631 0.69855094
0.0098470999 -0.084685057 0.69855094
0.0098470999 -0.086654469 0.69855094
0.009852102 -0.088668898 0.69867164
0.011855952 0.08891964 0.69934428
0.011855952 0.086943686 0.69934422
0.011855952 0.084967673 0.69934422
0.011855952 0.082991689 0.69934422
0.011855952 0.081015676 0.69934422
0.011855952 0.079039663 0.69934422
0.011855952 0.077063709 0.69934416
0.011855952 0.075087726 0.69934422
0.011855952 0.073111743 0.69934422
0.011855952 0.07113573 0.69934422
0.011855952 0.069159716 0.69934422
0.011855952 0.067183763 0.69934422
0.011855952 0.06520775 0.69934428
0.011855952 0.063231796 0.69934422
0.011855952 0.061255723 0.69934422
0.011855952 0.059279799 0.69934422
0.011855952 0.057303786 0.69934422
0.011855952 0.055327803 0.69934428
0.011855952 0.05335179 0.69934428
0.011855952 0.051375806 0.69934428
0.011855952 0.049399853 0.69934422
0.011855952 0.04742381 0.69934422
0.011855952 0.045447856 0.69934422
0.011855952 0.043471813 0.69934422
0.011855952 0.04149586 0.69934422
0.011855952 0.039519846 0.69934428
0.011855952 0.037543863 0.69934428
0.011855952 0.03556788 0.69934422
0.011855952 0.033591896 0.69934422
0.011855952 0.031615883 0.69934422
0.011855952 0.0296399 0.69934422
0.011855952 0.027663887 0.69934422
0.011855952 0.025687903 0.69934428
0.011855952 0.02371192 0.69934428
0.011855952 0.021735936 0.69934422
0.011855952 0.019759923 0.69934422
0.011855952 0.01778394 0.69934422
0.011855952 0.015807927 0.69934422
0.011855952 0.013831973 0.69934422
0.011855952 0.01185599 0.69934422
0.011855952 0.0098799765 0.69934428
0.011855952 0.0079040229 0.69934428
0.011855952 0.0059280097 0.69934422
0.011855952 0.0039520264 0.69934428
0.011855952 0.0019759834 0.69934428
0.011855952 2.9802322e-08 0.69934428
0.011855952 -0.0019759834 0.69934422
0.011855952 -0.0039519668 0.69934428
0.011855952 -0.0059279501 0.69934422
0.011855952 -0.0079039633 0.69934422
0.011855952 -0.0098799467 0.69934428
0.011855952 -0.01185596 0.69934428
0.011855952 -0.013831913 0.69934428
0.011855952 -0.015807897 0.69934422
0.011855952 -0.01778388 0.69934422
0.011855952 -0.019759893 0.69934422
0.011855952 -0.021735877 0.69934422
0.011855952 -0.02371189 0.69934422
0.011855952 -0.025687903 0.69934428
0.011855952 -0.027663887 0.69934428
0.011855952 -0.02963987 0.69934422
0.011855952 -0.031615853 0.69934422
0.011855952 -0.033591837 0.69934422
0.011855952 -0.03556785 0.69934422
0.011855952 -0.037543833 0.69934428
0.011855952 -0.039519787 0.69934416
0.011873818 -0.041558355 0.69970369
0.011873771 -0.04353714 0.69970274
0.011873724 -0.045515954 0.69970179
0.011873676 -0.04749468 0.69970089
0.011873629 -0.049473435 0.69969988
0.011873629 -0.051452368 0.69969988
0.011873581 -0.053431064 0.69969893
0.011873535 -0.055409819 0.69969797
0.011873488 -0.057388514 0.69969702
0.011873535 -0.059367627 0.69969797
0.011873581 -0.061346829 0.69969893
0.011873581 -0.063325793 0.69969893
0.011873629 -0.065304935 0.69969988
0.011873676 -0.067284167 0.69970083
0.011873676 -0.069263071 0.69970077
0.011873724 -0.071242303 0.69970179
0.011873724 -0.073221266 0.69970179
0.011873771 -0.075200558 0.69970274
0.011873818 -0.07717979 0.69970357
0.011873818 -0.079158783 0.69970363
0.011873865 -0.081138074 0.69970465
0.011873912 -0.083117366 0.6997056
0.011873912 -0.085096359 0.69970554
0.011873959 -0.087075695 0.69970649
0.011902109 -0.089265808 0.7002728
0.013914424 0.089449942 0.70076656
0.013914424 0.087462127 0.70076656
0.013914424 0.085474312 0.70076656
0.013914424 0.083486587 0.70076656
0.013914424 0.081498802 0.7007665
0.013914424 0.079511017 0.70076656
0.013914424 0.077523261 0.70076656
0.013914369 0.075535119 0.70076561
0.013914369 0.073547393 0.70076561
0.013914369 0.071559638 0.70076555
0.013914369 0.069571882 0.70076561
0.013914369 0.067584068 0.70076561
0.013914369 0.065596312 0.70076561
0.013914369 0.063608587 0.70076561
0.013914369 0.061620802 0.70076561
0.013914369 0.059632987 0.70076561
0.013914369 0.057645291 0.70076561
0.013914369 0.055657476 0.70076561
0.013914369 0.053669721 0.70076561
0.013914369 0.051681966 0.70076555
0.013914369 0.04969421 0.70076561
0.013914369 0.047706425 0.70076561
0.013914369 0.04571867 0.70076555
0.013914369 0.043730885 0.70076561
0.013914369 0.041743129 0.70076561
0.013914369 0.039755374 0.70076555
0.013914369 0.037767589 0.70076555
0.013914369 0.035779834 0.70076561
0.013914369 0.033792049 0.70076561
0.013914369 0.031804264 0.70076561
0.013914369 0.029816538 0.70076561
0.013914369 0.027828753 0.70076561
0.013914369 0.025840968 0.70076561
0.013914369 0.023853213 0.70076561
0.013914369 0.021865457 0.70076561
0.013914369 0.019877702 0.70076561
0.013914369 0.017889917 0.70076555
0.013914369 0.015902162 0.70076561
0.013914369 0.013914376 0.70076561
0.013914369 0.011926621 0.70076561
0.013914369 0.0099388063 0.70076567
0.013914369 0.0079510808 0.70076561
0.013914369 0.0059632957 0.70076561
0.013914369 0.0039755702 0.70076561
0.013914369 0.0019877553 0.70076561
0.013914369 2.9802322e-08 0.70076561
0.013914369 -0.0019877553 0.70076561
0.013914369 -0.0039755106 0.70076555
0.013914369 -0.0059632957 0.70076561
0.013914369 -0.007951051 0.70076561
0.013914369 -0.0099388063 0.70076561
0.013914369 -0.011926562 0.70076561
0.013914369 -0.013914376 0.70076561
0.013914369 -0.015902102 0.70076555
0.013914369 -0.017889857 0.70076561
0.013914369 -0.019877672 0.70076561
0.013914369 -0.021865398 0.70076561
0.013914369 -0.023853153 0.70076555
0.013914369 -0.025840938 0.70076561
0.013914369 -0.027828753 0.70076561
0.013914369 -0.029816508 0.70076567
0.013914369 -0.031804234 0.70076561
0.013914369 -0.033791989 0.70076561
0.013914369 -0.035779834 0.70076561
