# .PCD v0.7 - Point Cloud Data file format
VERSION 0.7
FIELDS x y z
SIZE 4 4 4
TYPE F F F
COUNT 1 1 1
WIDTH 1343
HEIGHT 1
VIEWPOINT 0 0 0 1 0 0 0
POINTS 1343
DATA ascii
-0.017273033 -0.019432127 0.72145087
-0.01846087 -0.023076087 0.73937392
-0.018745206 -0.025774688 0.74366426
-0.016155643 0.030003369 0.73941505
-0.015911249 0.027276456 0.73520052
-0.014880873 0.023384243 0.71743238
-0.014453894 0.02064845 0.71006942
-0.014175443 0.01822558 0.70526767
-0.01397126 0.01596716 0.7017467
-0.013817974 0.013817996 0.69910336
-0.013698646 0.011741698 0.69704556
-0.013606317 0.0097187757 0.69545346
-0.013534914 0.0077342689 0.69422209
-0.013280064 0.0056914687 0.68982744
-0.013063757 0.0037325025 0.68609732
-0.013013471 0.0018590987 0.6852302
-0.013057182 -0 0.68598396
-0.013255588 -0.0018936396 0.68940532
-0.013527857 -0.0038650632 0.69410044
-0.013602036 -0.0058294237 0.69537961
-0.013690132 -0.007822901 0.69689882
-0.013805392 -0.0098609924 0.69888639
-0.01395773 -0.011963755 0.70151335
-0.014154534 -0.014154494 0.70490712
-0.014420628 -0.016480654 0.70949572
-0.014818169 -0.019051909 0.71635109
-0.015817834 -0.022596866 0.73358965
-0.016099578 -0.025299311 0.7384482
-0.013594858 0.029455513 0.73432839
-0.013346696 0.026693404 0.72933573
-0.012501936 0.022920251 0.71234041
-0.012173388 0.020289004 0.70573056
-0.011951813 0.017927736 0.70127285
-0.011786597 0.01571551 0.69794893
-0.011662512 0.01360625 0.69545257
-0.011564886 0.01156491 0.69348848
-0.011489997 0.0095750391 0.69198179
-0.011429455 0.007619679 0.69076383
-0.011206618 0.0056033432 0.68628067
-0.011033511 0.003677845 0.68279803
-0.010993149 0.001832217 0.68198597
-0.011028971 -2.9802322e-08 0.68270665
-0.011189284 -0.0018648505 0.68593192
-0.011424235 -0.0038080513 0.69065875
-0.011487138 -0.0057435334 0.69192433
-0.011559455 -0.0077062845 0.69337916
-0.011653413 -0.0097111464 0.69526947
-0.011776286 -0.011776268 0.69774145
-0.011936512 -0.01392591 0.70096499
-0.01214743 -0.016196579 0.7052083
-0.01245758 -0.018686354 0.71144807
-0.013090401 -0.021817297 0.72417945
-0.013566415 -0.024871737 0.73375607
-0.01114087 0.028966278 0.72978532
-0.010724654 0.025739223 0.71973693
-0.010221958 0.022488326 0.70760077
-0.0099709202 0.019941866 0.70154017
-0.0097996946 0.017639488 0.69740641
-0.0096708219 0.015473336 0.69429517
-0.009572139 0.013401031 0.69191277
-0.0094944723 0.011393398 0.69003773
-0.0094356379 0.0094356835 0.68861735
-0.0093854442 0.0075083971 0.68740553
-0.0091963839 0.0055178404 0.6828413
-0.0090618748 0.0036247671 0.67959392
-0.0090303756 0.0018061101 0.67883348
-0.0090589542 -0 0.67952341
-0.0091848029 -0.0018369555 0.68256164
-0.0093818186 -0.0037527084 0.68731809
-0.0094336811 -0.0056601763 0.68857014
-0.0094913747 -0.0075931251 0.68996298
-0.0095662465 -0.0095662475 0.69177049
-0.0096621579 -0.011594564 0.69408607
-0.0097889584 -0.013704509 0.69714725
-0.0099539403 -0.015926301 0.70113027
-0.01019102 -0.018343836 0.70685393
-0.01061927 -0.021238536 0.71719277
-0.011123187 -0.024470985 0.72935838
-0.0087704919 0.028504133 0.72549391
-0.008356547 0.025069684 0.71300203
-0.0080263186 0.022072405 0.70303649
-0.0078443037 0.019610792 0.69754368
-0.0077156909 0.01736033 0.69366246
-0.0076192594 0.015238523 0.69075239
-0.0075439014 0.013201863 0.68847823
-0.0074845729 0.011226863 0.68668789
-0.007440222 0.0093002915 0.68534946
-0.007400278 0.0074003041 0.68414408
-0.007246586 0.0054349303 0.67950606
-0.0071463729 0.003573209 0.67648178
-0.007122797 0.0017807186 0.67577028
-0.0071446635 -0 0.67643023
-0.0072394828 -0.0018098652 0.67929167
-0.0073978156 -0.0036989152 0.68406975
-0.0074389782 -0.0055792034 0.68531191
-0.0074831736 -0.0074831545 0.68664563
-0.0075404625 -0.0094255805 0.68837452
-0.0076134629 -0.011420161 0.69057751
-0.0077086478 -0.013490111 0.69344997
-0.0078338338 -0.015667647 0.69722778
-0.0080088787 -0.018019974 0.70251024
-0.0083033657 -0.02075842 0.71139711
-0.0087584788 -0.02408576 0.72513139
-0.0064751245 0.028058887 0.72135979
-0.0061252415 0.024500996 0.70728159
-0.0059144287 0.021686256 0.69879913
-0.0057882406 0.019294143 0.69372177
-0.0056970725 0.017091274 0.69005334
-0.0056290282 0.015010744 0.68731552
-0.0055750688 0.013008535 0.68514436
-0.0055331253 0.011066258 0.68345666
-0.0055012479 0.0091687441 0.68217403
-0.0054714107 0.0072952509 0.68097341
-0.0053545027 0.0053545535 0.67626941
-0.0052845855 0.0035230815 0.67345619
-0.0052680611 0.0017560422 0.67279136
-0.0052837674 2.9802322e-08 0.67342329
-0.0053507234 -0.0017835498 0.67611736
-0.005469895 -0.0036465526 0.68091249
-0.0055005224 -0.0055004954 0.68214488
-0.0055322689 -0.007376343 0.68342221
-0.0055733919 -0.0092889667 0.68507689
-0.0056257155 -0.01125142 0.68718225
-0.0056924061 -0.013282239 0.68986559
-0.0057814857 -0.015417278 0.69344991
-0.0059024519 -0.017707318 0.69831723
-0.0060969288 -0.020323098 0.70614243
-0.0064665326 -0.023710608 0.72101414
-0.0065711308 -0.026284486 0.72522277
-0.0043122293 0.03018564 0.72108698
-0.0042493856 0.027621031 0.71729398
-0.0039979764 0.023987889 0.70212013
-0.0038753247 0.021314293 0.69471747
-0.0037975004 0.018987536 0.69002038
-0.0037407058 0.016833216 0.68659246
-0.0036974181 0.01478973 0.68397981
-0.0036630551 0.012820721 0.68190581
-0.0036367238 0.010910183 0.68031663
-0.0036163535 0.0090409219 0.67908716
-0.0035965203 0.0071930587 0.67789006
-0.0035179667 0.005276978 0.67314899
-0.0034743147 0.0034743249 0.67051435
-0.0034640438 0.0017320216 0.66989446
-0.0034740614 2.9802322e-08 0.67049903
-0.003517064 -0.0017585158 0.67309451
-0.0035956025 -0.0035955608 0.67783475
-0.0036160138 -0.0054239929 0.67906666
-0.003636288 -0.0072725713 0.68029028
-0.0036625187 -0.0091562569 0.68187344
-0.0036958477 -0.011087537 0.6838851
-0.0037380229 -0.013083071 0.68643051
-0.0037937146 -0.015174836 0.6897918
-0.00386809 -0.017406374 0.6942808
-0.0039846678 -0.0199233 0.70131683
-0.0042408491 -0.023324639 0.71677881
-0.0042981161 -0.025788665 0.72023517
-0.0021176876 0.029647619 0.71644843
-0.0020892678 0.027160496 0.71301782
-0.0019604536 0.023525447 0.69746864
-0.0019049962 0.020954996 0.69077426
-0.0018690533 0.018690556 0.68643564
-0.0018425345 0.016582817 0.68323457
-0.0018218843 0.014575064 0.68074179
-0.0018056189 0.012639374 0.67877835
-0.0017930724 0.01075846 0.67726386
-0.001783314 0.0089165866 0.67608595
-0.0017732839 0.0070931613 0.6748752
-0.0017343754 0.0052031279 0.67017853
-0.0017134572 0.0034269392 0.66765344
-0.001708671 0.0017086864 0.66707569
-0.0017134631 2.9802322e-08 0.66765422
-0.0017341771 -0.0017341375 0.67015457
-0.001772932 -0.0035458207 0.6748327
-0.0017832059 -0.0053496063 0.6760729
-0.0017929183 -0.0071716607 0.67724526
-0.0018054625 -0.0090273023 0.67875952
-0.0018214002 -0.010928392 0.68068337
-0.0018415309 -0.012890726 0.68311334
-0.001867484 -0.014939874 0.68624616
-0.001902707 -0.017124355 0.69049799
-0.0019547476 -0.019547433 0.69677985
-0.0020827539 -0.022910267 0.71223158
-0.0021126445 -0.025351703 0.71583968
0 0.029156655 0.71221477
0 0.026637167 0.70815861
0 0.023085326 0.69304121
0 0.020616204 0.68705672
0 0.018403709 0.68297273
0 0.016339839 0.67997497
0 0.014366567 0.67759562
0 0.01246354 0.67574662
0 0.010610908 0.67429566
0 0.0087955892 0.67316544
0 0.0069954097 0.67192519
0 0.0051313639 0.66729009
0 0.0033810437 0.66488272
0 0.0016859472 0.66433132
0 2.9802322e-08 0.66489035
0 -0.0017104745 0.66729569
0 -0.0034971237 0.67189127
0 -0.0052772462 0.6731602
0 -0.0070735216 0.67428356
0 -0.0089018941 0.67573285
0 -0.010773659 0.67757148
0 -0.012703866 0.67989147
0 -0.014713645 0.68283308
0 -0.016851306 0.68683577
0 -0.019200504 0.69259202
0 -0.022262812 0.70512629
0 -0.024963409 0.71193361
0.0020515332 0.028721482 0.70846289
0.0019817678 0.025762975 0.70004147
0.0018897719 0.022677243 0.68893659
0.001844545 0.020289987 0.68347716
0.0018129923 0.018129915 0.67966843
0.0017893086 0.016103804 0.67680955
0.0017705919 0.014164746 0.67455024
0.0017560818 0.012292594 0.67279875
0.0017445527 0.010467321 0.67140704
0.0017355727 0.0086778998 0.67032301
0.001724869 0.0068994761 0.66903102
0.0016871745 0.005061537 0.66448092
0.0016681902 0.0033363998 0.66218925
0.0016638024 0.0016638339 0.6616596
0.0016683126 -0 0.66220409
0.0016874422 -0.0016874075 0.66451317
0.0017247859 -0.0034495592 0.66902095
0.0017355846 -0.0052067339 0.6703245
0.0017445041 -0.0069780052 0.67140114
0.0017560017 -0.0087800026 0.6727891
0.0017705668 -0.010623395 0.67454726
0.0017889183 -0.012522399 0.67676246
0.0018121517 -0.014497191 0.67956692
0.0018429825 -0.01658684 0.68328863
0.0018865869 -0.018865854 0.68855208
0.0019685288 -0.021653801 0.69844335
0.0020493991 -0.024592757 0.70820528
0.0040427148 0.028299004 0.70482028
0.0038641468 0.02511701 0.6940428
0.0037148357 0.022289038 0.68503106
0.0036316167 0.019973934 0.68000835
0.0035728421 0.017864257 0.67646098
0.0035276646 0.015874535 0.67373431
0.0034924417 0.013969779 0.67160839
0.0034646317 0.012126207 0.66992992
0.0034425228 0.010327578 0.66859555
0.0034252957 0.0085632801 0.66755581
0.0034030247 0.0068061054 0.66621161
0.003329044 0.0049935877 0.66174644
0.0032929163 0.003292948 0.65956599
0.003284486 0.001642257 0.65905714
0.003293263 2.9802322e-08 0.65958691
0.0033300186 -0.0016649663 0.66180533
0.0034032564 -0.0034032464 0.66622555
0.0034254366 -0.0051381588 0.66756433
0.0034425347 -0.0068850517 0.66859627
0.0034645479 -0.0086613595 0.66992491
0.0034924052 -0.010477215 0.67160624
0.0035274534 -0.012346029 0.67372155
0.0035717452 -0.014286965 0.67639482
0.0036290088 -0.01633054 0.679851
0.0037096858 -0.018548399 0.68472022
0.0038488833 -0.021168828 0.69312155
0.0040392228 -0.024235308 0.70460957
0.0041329246 -0.026863992 0.71026498
0.0060763457 0.030381739 0.70531416
0.0059767156 0.027891368 0.70130539
0.0056700441 0.024570197 0.68896586
0.0054785595 0.021914244 0.68126106
0.0053638588 0.019667506 0.67664587
0.0052818707 0.017606229 0.673347
0.0052172686 0.015651822 0.67074752
0.0051675527 0.013780177 0.66874719
0.0051275711 0.011964351 0.66713846
0.0050957515 0.01019153 0.66585809
0.0050709625 0.0084516406 0.66486067
0.0050362884 0.0067150891 0.6634655
0.0049274084 0.0049273968 0.65908456
0.0048758392 0.0032505691 0.65700954
0.0048636906 0.0016212165 0.65652072
0.0048765205 -0 0.65703696
0.0049294797 -0.001643151 0.65916789
0.0050372011 -0.0033580661 0.66350222
0.0050713397 -0.005071342 0.66487581
0.0050959075 -0.0067945123 0.66586435
0.0051275361 -0.0085459054 0.66713703
0.0051674997 -0.010334998 0.66874504
0.0052177035 -0.012174606 0.6707651
0.005281053 -0.014082819 0.67331409
0.005361943 -0.016085833 0.67656887
0.0054749828 -0.018249929 0.68111724
0.0056547928 -0.020734221 0.68835223
0.005971984 -0.023887902 0.70111501
0.0060530193 -0.026229709 0.70437557
0.0079510044 0.0298163 0.7007637
0.0078537222 0.027488053 0.69782794
0.00741327 0.024093151 0.6845361
0.0071885707 0.021565706 0.67775524
0.0070462627 0.019377261 0.67346066
0.0069422182 0.017355561 0.67032087
0.0068613007 0.015437961 0.66787893
0.006797797 0.013595641 0.66596258
0.0067466968 0.011806726 0.66442049
0.006705984 0.010058999 0.66319185
0.0066742739 0.0083428919 0.6622349
0.0066264546 0.006626457 0.66079187
0.0064839958 0.004862994 0.65649283
0.0064185774 0.0032093227 0.6545186
0.0064030127 0.0016007721 0.65404892
0.0064196689 2.9802322e-08 0.65455151
0.006487506 -0.0016218722 0.65659869
0.0066283857 -0.0033141971 0.66085017
0.0066749635 -0.0050062239 0.66225576
0.0067063887 -0.006706357 0.66320407
0.0067467652 -0.0084334314 0.66442257
0.0067977044 -0.010196507 0.66595978
0.0068616536 -0.012007892 0.6678896
0.0069421702 -0.013884336 0.67031944
0.007044849 -0.015850872 0.67341799
0.0071843648 -0.017960876 0.67762828
0.0074000861 -0.020350218 0.68413824
0.007844734 -0.023534209 0.69755673
0.0079386104 -0.025800467 0.70038968
0.0097820694 0.029346198 0.69698095
0.0096646585 0.027061075 0.69414639
0.0090947188 0.023646325 0.68038684
0.0088450098 0.021228045 0.67435825
0.0086798798 0.019095778 0.67037177
0.0085559478 0.017111927 0.66737974
0.0084610078 0.015229851 0.6650877
0.0083849244 0.013415873 0.66325092
0.0083236899 0.011653185 0.66177255
0.0082749045 0.0099299252 0.66059476
0.0082368441 0.0082368553 0.65967596
0.0081752334 0.0065402091 0.65818852
0.0080003878 0.0048002303 0.65396738
0.0079226326 0.0031690598 0.65209019
0.0079039354 0.0015808046 0.65163875
0.0079242131 -0 0.65212834
0.0080057122 -0.0016011 0.65409589
0.0081784669 -0.0032713711 0.65826654
0.0082379561 -0.004942745 0.65970278
0.008275616 -0.0066204667 0.66061199
0.0083239386 -0.0083239079 0.66177857
0.0083848406 -0.0100618 0.6632489
0.0084611792 -0.011845618 0.66509181
0.0085571473 -0.013691425 0.6674087
0.0086793387 -0.015622765 0.67035866
0.0088404147 -0.017680824 0.67424744
0.0090841837 -0.019985199 0.68013251
0.0096515715 -0.023163766 0.69383043
0.0097678229 -0.025396317 0.69663697
0.011564977 0.028912425 0.69349027
0.011395356 0.026589185 0.69007778
0.010723962 0.023235321 0.67657036
0.01045041 0.020900846 0.67106694
0.01026668 0.018822283 0.66737056
0.010126497 0.016877502 0.66455024
0.010018159 0.015027255 0.66237068
0.0099306731 0.013240904 0.66061062
0.0098602222 0.011503577 0.65919328
0.0098040327 0.00980407 0.65806282
0.0097602066 0.0081335306 0.65718108
0.0096841734 0.0064561665 0.65565139
0.0094781648 0.0047390759 0.6515069
0.0093894415 0.0031298399 0.64972192
0.0093678478 0.0015613437 0.64928746
0.0093916142 -0 0.64976561
0.0094855614 -0.001580894 0.65165567
0.0096890172 -0.0032296777 0.6557489
0.0097618252 -0.0048809052 0.65721363
0.0098051215 -0.0065367222 0.65808469
0.0098609021 -0.0082173645 0.65920693
0.0099314619 -0.0099314451 0.66062647
0.010018561 -0.011688292 0.66237879
0.010127829 -0.01350376 0.66457707
0.010267417 -0.015401125 0.6673854
0.010448701 -0.01741448 0.67103255
0.01071428 -0.01964283 0.67637557
0.011346389 -0.02269274 0.68909258
0.011557629 -0.025041521 0.69334245
0.013305895 0.028512657 0.69027281
0.012891665 0.02578336 0.68312967
0.012298271 0.022839636 0.67289698
0.012010529 0.020589471 0.66793507
0.01180871 0.018556535 0.66445482
0.011655454 0.016650677 0.66181201
0.011534467 0.014830023 0.65972567
0.011436619 0.013070434 0.65803838
0.011357774 0.011357784 0.65667874
0.011294886 0.0096813738 0.65559423
0.011245819 0.008032769 0.65474814
0.011154811 0.0063741803 0.65317869
0.01091873 0.0046794713 0.64910769
0.010820336 0.0030915737 0.64741087
0.010796155 0.0015423596 0.64699394
0.010823178 2.9802322e-08 0.64745992
0.010928541 -0.0015612245 0.64927685
0.011161529 -0.0031889975 0.65329456
0.011247986 -0.0048205554 0.65478545
0.011296452 -0.0064551234 0.65562123
0.01135991 -0.0081141889 0.65671551
0.011439009 -0.0098048747 0.65807956
0.011536482 -0.011536449 0.65976042
0.011656772 -0.013321996 0.66183478
0.011811058 -0.015185624 0.66449535
0.012012053 -0.017160058 0.6679613
0.012297018 -0.019323885 0.6728754
0.012847686 -0.022024632 0.68237132
0.013298318 -0.024696857 0.69014215
0.015338134 0.030676305 0.6922555
0.014999268 0.028123647 0.68714237
0.014375748 0.025157571 0.6777342
0.013831184 0.02247569 0.6695174
0.013527228 0.020290881 0.664931
0.013308207 0.018298805 0.66162622
0.013143854 0.016429842 0.65914643
0.013011452 0.014637917 0.65714854
0.012904238 0.012904257 0.65553081
0.012817876 0.011215657 0.65422773
0.012748883 0.0095616877 0.65318668
0.012695068 0.0079344511 0.65237468
0.012588588 0.0062943399 0.65076804
0.012323497 0.0046213567 0.64676809
0.012216681 0.0030541718 0.64515638
0.012190118 0.0015238225 0.64475554
0.012220223 2.9802322e-08 0.64520985
0.012335953 -0.0015419722 0.64695609
0.012597423 -0.0031493604 0.65090138
0.012697887 -0.0047616959 0.65241718
0.012751564 -0.0063757896 0.65322721
0.012821736 -0.0080135465 0.65428591
0.012908608 -0.0096814334 0.65559679
0.013015513 -0.01138854 0.65720981
0.013147222 -0.013147205 0.65919715
0.013312146 -0.014976174 0.66168565
0.013530337 -0.016912907 0.66497791
0.013829273 -0.019015253 0.66948855
0.014349002 -0.021523505 0.67733061
0.014992806 -0.024363309 0.68704486
0.015244496 -0.026677847 0.69084263
0.016867982 0.029987484 0.68705928
0.016647484 0.027745843 0.68410194
0.015840095 0.024640173 0.67327297
0.015316007 0.022123128 0.66624379
0.015000508 0.020000666 0.66201222
0.014770153 0.018052459 0.65892255
0.014593294 0.016214788 0.65655053
0.014450651 0.014450669 0.65463734
0.014335052 0.012742281 0.6530869
0.014241841 0.011077046 0.65183669
0.014167375 0.0094449222 0.6508379
0.014109271 0.0078385174 0.65005863
0.013985265 0.0062156916 0.64839542
0.013693823 0.0045646131 0.64448655
0.013579685 0.0030177236 0.64295566
0.013550918 0.0015057027 0.64256978
0.013583986 2.9802322e-08 0.64301336
0.013709122 -0.0015232265 0.64469171
0.013998046 -0.003110677 0.64856684
0.014112764 -0.004704237 0.65010548
0.014171699 -0.0062984824 0.65089595
0.014247744 -0.0079153776 0.65191591
0.014341672 -0.0095611215 0.65317571
0.014457054 -0.011244357 0.65472323
0.014599064 -0.012976944 0.65662789
0.014775435 -0.014775425 0.65899342
0.015005508 -0.01667276 0.66207922
0.015315695 -0.018719167 0.66623956
0.015833355 -0.021111131 0.67318255
0.016643116 -0.024040043 0.68404335
0.016841549 -0.02619797 0.68670475
0.01844994 0.029519916 0.68353134
0.018249277 0.02737391 0.68110919
0.017274298 0.024184048 0.66934013
0.016756257 0.021783173 0.66308677
0.0164323 0.019718796 0.65917635
0.016193308 0.017812669 0.65629137
0.016005278 0.016005278 0.65402174
0.015853498 0.01426816 0.65218961
0.015730392 0.012584329 0.65070355
0.015631909 0.01094237 0.64951468
0.015552514 0.0093315542 0.64855635
0.015489636 0.0077448189 0.64779735
0.015343246 0.0061373115 0.64603025
0.015030884 0.0045093 0.64225972
0.014910485 0.0029821694 0.64080638
0.0148798 0.0014880002 0.64043599
0.01491564 -0 0.64086866
0.01504933 -0.0015049279 0.6424824
0.015364683 -0.0030729175 0.64628905
0.015493953 -0.0046481788 0.6478495
0.015557881 -0.0062231123 0.6486212
0.015639188 -0.0078195632 0.64960253
0.015739547 -0.0094437301 0.65081406
0.015862595 -0.011103809 0.6522994
0.016013782 -0.012811035 0.65412438
0.016201172 -0.014581054 0.65638638
0.016439319 -0.016439319 0.65926105
0.016765859 -0.018442392 0.6632027
0.017266786 -0.020720124 0.66924942
0.018240694 -0.023712903 0.6810056
0.018436207 -0.025810659 0.68336564
0.019997548 0.029087365 0.68026799
0.019781997 0.026975483 0.67790258
0.018663894 0.02375403 0.66563284
0.018162496 0.021464795 0.66013062
0.017826485 0.019447118 0.65644336
0.017579097 0.017579108 0.6537286
0.017381243 0.015801132 0.65155745
0.017221354 0.01409021 0.6498028
0.017093422 0.012431562 0.64839894
0.016989108 0.010811299 0.64725423
0.016904993 0.0092209578 0.64633119
0.016836114 0.0076528192 0.64557534
0.016666146 0.0060604513 0.64371014
0.01633596 0.004455328 0.64008677
0.01621029 0.0029473305 0.6387077
0.016177794 0.0014707148 0.6383512
0.016216354 2.9802322e-08 0.63877428
0.016357662 -0.0014870167 0.64032495
0.016697189 -0.0030358136 0.64405084
0.016842606 -0.0045934021 0.64564657
0.016911279 -0.0061495006 0.64640015
0.016997399 -0.0077261031 0.64734524
0.017103514 -0.00932917 0.64850968
0.017233433 -0.010966718 0.64993542
0.017392779 -0.012649298 0.65168405
0.017589884 -0.014391661 0.65384698
0.017837346 -0.016215742 0.65656251
0.018173773 -0.018173754 0.66025436
0.018675104 -0.020372838 0.66575587
0.019776596 -0.023372322 0.67784327
0.019988036 -0.025439292 0.68016356
0.02152659 0.02870214 0.67736167
0.021238234 0.026547849 0.67446101
0.020027431 0.023365349 0.66228127
0.019528221 0.021155596 0.65725964
0.019186817 0.019186825 0.6538254
0.018929018 0.017351627 0.65123212
0.018722551 0.015602142 0.6491552
0.018557975 0.013918519 0.64749974
0.018423703 0.012282521 0.64614898
0.018314177 0.010683268 0.64504731
0.018225787 0.0091129243 0.64415812
0.018150527 0.0075627267 0.64340115
0.017956365 0.0059854686 0.64144802
0.017610095 0.0044025183 0.63796479
0.017480133 0.0029133558 0.63665748
0.017446052 0.0014538765 0.63631463
0.017487107 -2.9802322e-08 0.63672763
0.017635284 -0.0014695823 0.63821816
0.017994087 -0.0029989779 0.64182746
0.018159365 -0.0045398176 0.64349002
0.018232983 -0.0060776472 0.64423048
0.018323511 -0.0076347888 0.64514124
0.018434789 -0.0092174113 0.64626062
0.018570833 -0.010832936 0.64762908
0.018737391 -0.012491584 0.64930451
0.018943053 -0.014207244 0.65137327
0.019200806 -0.016000628 0.65396607
0.019541251 -0.017912805 0.65739071
0.020037055 -0.020036995 0.66237807
0.021230049 -0.022999227 0.67437869
0.021521807 -0.025108725 0.67731351
0.023020057 0.028332412 0.67457223
0.022367012 0.025808126 0.66850841
0.021349931 0.022992283 0.65906429
0.02085516 0.020855188 0.65447015
0.020511284 0.018933505 0.65127718
0.020244509 0.017129958 0.64880002
0.020032713 0.015409797 0.64683342
0.019862412 0.013750881 0.64525211
0.019722512 0.012136966 0.64395303
0.019608302 0.010558307 0.64289254
0.019515995 0.0090074241 0.64203542
0.019434363 0.0074747801 0.64127743
0.019215001 0.0059123337 0.63924056
0.018854421 0.0043510795 0.63589239
0.018721037 0.0028802156 0.63465387
0.018685542 0.001437366 0.63432431
0.01872896 5.9604645e-08 0.63472748
0.01888332 -0.0014525652 0.63616079
0.019258749 -0.0029628575 0.63964677
0.019444646 -0.0044872165 0.64137292
0.019524196 -0.0060074329 0.64211154
0.019618591 -0.0075456202 0.64298809
0.019734539 -0.0091082454 0.64406472
0.019875946 -0.010702401 0.64537776
0.020048829 -0.012337744 0.64698303
0.020261914 -0.014027447 0.6489616
0.020528505 -0.015791148 0.65143704
0.020870082 -0.017659277 0.65460873
0.021366552 -0.019722909 0.65921867
0.022373011 -0.022372991 0.66856408
0.023016309 -0.0247868 0.67453742
0.024845874 0.030170023 0.6750468
0.024475794 0.02797237 0.67185587
0.023516566 0.025196344 0.66358525
0.022638176 0.022638172 0.65601158
0.022148931 0.020566881 0.65179324
0.021801235 0.018686831 0.64879531
0.021526819 0.01691395 0.6464293
0.021312067 0.015222937 0.64457762
0.021135746 0.013587296 0.64305735
0.020990837 0.011994779 0.64180791
0.020872438 0.010436237 0.64078712
0.020776669 0.0089043081 0.63996136
0.020688737 0.0073888004 0.63920319
0.020443302 0.0058409572 0.63708699
0.020070022 0.0043007433 0.63386852
0.019933924 0.0028477311 0.63269496
0.019897178 0.0014212728 0.63237816
0.019942891 2.9802322e-08 0.63277233
0.02010268 -0.0014358759 0.63415009
0.02049336 -0.0029276013 0.63751853
0.020700537 -0.0044358075 0.63930488
0.020785917 -0.005938828 0.64004111
0.020883827 -0.0074585378 0.64088523
0.021003803 -0.0090016127 0.64191973
0.021150041 -0.010574996 0.64318061
0.021328419 -0.01218766 0.64471859
0.021547876 -0.013852179 0.64661074
0.021821883 -0.015587032 0.64897335
0.022172417 -0.017421186 0.65199572
0.022665936 -0.019427925 0.65625095
0.023549614 -0.021867484 0.66387016
0.024474083 -0.024474084 0.67184114
0.024828965 -0.026602447 0.67490101
0.026183629 0.029674768 0.67153049
0.025893386 0.02761963 0.66919476
0.024708012 0.024708033 0.65965563
0.02389898 0.022305757 0.65314502
0.023413263 0.020291537 0.64923626
0.02305793 0.018446386 0.64637685
0.022781681 0.016706586 0.64415371
0.02256076 0.015040517 0.64237589
0.022379199 0.013427556 0.6409148
0.022229861 0.01185596 0.63971299
0.022107676 0.010316938 0.63872975
0.022008812 0.0088035464 0.63793409
0.02191454 0.0073048472 0.63717544
0.021642243 0.0057713091 0.6349842
0.02125778 0.0042515695 0.6318903
0.021119839 0.0028159916 0.63078028
0.021081991 0.0014054477 0.63047564
0.02112983 2.9802322e-08 0.63086063
0.021294393 -0.0014196336 0.63218492
0.02169887 -0.0028931797 0.63543993
0.021927921 -0.0043855309 0.63728321
0.022019079 -0.005871743 0.63801676
0.022120185 -0.0073733926 0.63883042
0.022243761 -0.0088974833 0.63982487
0.022394156 -0.010450602 0.64103514
0.022577254 -0.012041181 0.64250863
0.022802029 -0.013681203 0.64431751
0.023082325 -0.015388191 0.64657307
0.023440028 -0.017189324 0.64945161
0.023926942 -0.019141525 0.65337002
0.024739446 -0.021440864 0.65990859
0.025898568 -0.024171978 0.66923654
0.026180796 -0.026180774 0.67150772
0.027541792 0.029263169 0.66860771
0.02727391 0.027273953 0.66658664
0.025880896 0.024263382 0.65607721
0.025123293 0.021982938 0.65036148
0.024644185 0.020023435 0.64674693
0.024283065 0.018212348 0.64402246
0.024006145 0.016504258 0.64193326
0.02377989 0.014862448 0.6402263
0.023593752 0.013271481 0.63882196
0.023440458 0.01172024 0.63766551
0.023314988 0.010200322 0.63671887
0.023213379 0.00870502 0.63595235
0.023112787 0.0072227716 0.63519341
0.022812983 0.0057032406 0.63293159
0.022531506 0.0042247176 0.630808
0.022531506 0.0028164685 0.630808
0.022531571 0.0014082491 0.63080847
0.022531506 -0 0.630808
0.022531571 -0.0014081895 0.63080847
0.022876412 -0.0028595626 0.6334101
0.023127876 -0.0043364763 0.63530725
0.02322476 -0.0058061481 0.63603818
0.023328576 -0.0072901547 0.63682139
0.023455363 -0.0087957382 0.63777792
0.023609338 -0.010329098 0.63893962
0.023796428 -0.01189819 0.64035112
0.024025667 -0.0135144 0.64208061
0.024310937 -0.015194297 0.64423275
0.024674339 -0.016963601 0.64697444
0.025151864 -0.018863887 0.65057707
0.025923049 -0.021062464 0.6563952
0.027275862 -0.023866326 0.66660142
0.027540751 -0.025819451 0.66859984
0.028871516 0.028871536 0.6658268
0.028582411 0.026901126 0.66377395
0.027040223 0.023859054 0.65282345
0.026315924 0.021671951 0.64768052
0.025842927 0.019762248 0.64432192
0.02548353 0.017988414 0.64176995
0.025201308 0.016306728 0.63976604
0.024970485 0.014688551 0.63812703
0.024780329 0.013119012 0.6367768
0.024623731 0.01158765 0.63566488
0.024495386 0.010086358 0.63475358
0.024391288 0.0086087286 0.63401437
0.024284396 0.007142514 0.63325536
0.024074422 0.005664587 0.63176447
0.024074355 0.0042484105 0.63176394
0.024686836 0.0029043555 0.63611293
0.024795355 0.0014585853 0.6368835
0.024650779 2.9802322e-08 0.63585693
0.024074422 -0.001416117 0.63176447
0.024074422 -0.0028322935 0.63176447
0.024301188 -0.0042884052 0.63337457
0.024403814 -0.0057420433 0.63410336
0.024510067 -0.0072088242 0.63485777
0.024639567 -0.0086963177 0.63577729
0.02479651 -0.010210305 0.63689172
0.024989925 -0.011759967 0.63826507
0.025224026 -0.013353884 0.63992739
0.025509821 -0.015005738 0.64195663
0.025876656 -0.01674366 0.64456141
0.026358493 -0.018605947 0.64798272
0.027086029 -0.020712852 0.65314871
0.028596153 -0.023549765 0.66387159
0.028873965 -0.025476992 0.6658442
0.030196659 0.028519094 0.66332424
0.029825564 0.026511639 0.66083556
0.028175108 0.023479253 0.6497674
0.02748728 0.021378994 0.64515471
0.027010884 0.019507885 0.64195991
0.026654754 0.017769843 0.63957167
0.026368199 0.016113877 0.63765001
0.026133541 0.014518648 0.63607633
0.025940025 0.012970001 0.63477856
0.025780531 0.011458009 0.63370901
0.025649622 0.0099748671 0.63283104
0.025634728 0.0085449219 0.6327312
0.025634801 0.0071208179 0.63273168
0.025634801 0.0056966245 0.63273174
0.025634801 0.0042725205 0.63273174
0.025861442 0.0028734803 0.63425159
0.025972115 0.0014429092 0.63499379
0.025822813 2.9802322e-08 0.63399255
0.025634801 -0.0014241338 0.63273168
0.025634801 -0.0028482974 0.63273168
0.025634801 -0.0042724609 0.63273168
0.025634728 -0.0056965947 0.6327312
0.02566541 -0.007129252 0.63293695
0.025797294 -0.0085990727 0.63382143
0.025958715 -0.01009503 0.63490391
0.026156841 -0.01162526 0.63623255
0.026395094 -0.013197511 0.63783032
0.026685318 -0.014825165 0.63977659
0.027048199 -0.016529411 0.64221013
0.02753257 -0.018355042 0.64545846
0.028235171 -0.02039209 0.65017021
0.029845728 -0.023213327 0.66097081
0.03020091 -0.025167406 0.66335273
0.032035686 0.030349642 0.66434979
0.031489942 0.028175205 0.66088259
0.030710235 0.025861263 0.65592891
0.029294549 0.023127288 0.64693487
0.028627392 0.021093875 0.64269626
0.028155988 0.019264638 0.63970137
0.027797863 0.017556548 0.63742608
0.027507899 0.015925646 0.63558394
0.027270002 0.014352649 0.63407248
0.027212862 0.012890309 0.63370949
0.027212862 0.011458069 0.63370943
0.02721294 0.010025859 0.63370997
0.02721294 0.0085935891 0.63370997
0.037554674 0.0098828077 0.69941306
0.02721294 0.0057290494 0.63370997
0.027212862 0.0042968094 0.63370949
0.02721294 0.0028645396 0.63370997
0.02721294 0.0014322698 0.63370997
0.02721294 -0 0.63370997
0.02721294 -0.00143224 0.63370997
0.037704512 -0.0039688647 0.70036495
0.037567437 -0.0059316754 0.69949406
0.027212862 -0.0057290196 0.63370949
0.02721294 -0.0071612895 0.63371003
0.02721294 -0.0085935593 0.63370997
0.02721294 -0.010025829 0.63370997
0.027297406 -0.011493593 0.63424659
0.027539056 -0.013044804 0.63578188
0.027832774 -0.014648795 0.63764787
0.028195487 -0.016323656 0.63995224
0.028675402 -0.018110752 0.64300126
0.029349264 -0.020081013 0.64728242
0.030855959 -0.022735953 0.65685481
0.031495888 -0.02486515 0.66092038
0.032066047 -0.02700299 0.66454273
0.033150274 0.029835284 0.66090047
0.03275295 0.027840048 0.6585024
0.031560104 0.02524814 0.65130293
0.03038083 0.022785634 0.64418542
0.029737491 0.020816267 0.64030254
0.029274773 0.019028634 0.63750982
0.028913938 0.017348379 0.63533193
0.02880914 0.015845031 0.63469946
0.02880914 0.014404565 0.63469946
0.02880914 0.012964129 0.63469946
0.029021267 0.011608511 0.63597977
0.037820008 0.013237 0.68908483
0.038854513 0.011656374 0.69532859
0.039124299 0.0097810924 0.69695693
0.03926846 0.0078537166 0.69782698
0.03920139 0.0058802664 0.69742227
0.038854815 0.0038855076 0.69533044
0.02880914 0.0014404655 0.63469946
0.038834006 2.9802322e-08 0.69520485
0.039184507 -0.0019592047 0.69732034
0.039273854 -0.0039273798 0.69785959
0.039136235 -0.0058704019 0.69702899
0.038195465 -0.0076390505 0.69135094
0.037856344 -0.0094640553 0.68930417
0.028809056 -0.0086426735 0.63469893
0.02880914 -0.010083199 0.63469946
0.02880914 -0.011523634 0.6346994
0.028809056 -0.01296407 0.63469893
0.028953256 -0.014476627 0.63556921
0.029318688 -0.016125292 0.63777483
0.029788215 -0.01787293 0.64060867
0.03044831 -0.019791424 0.6445927
0.031678595 -0.022175014 0.65201813
0.032761205 -0.024570882 0.65855229
0.033171043 -0.026536852 0.66102582
0.034324765 0.02942127 0.65812397
0.033981968 0.027509242 0.65615362
0.032507505 0.024767637 0.6476782
0.031452987 0.022466451 0.6416167
0.030821376 0.020547599 0.63798606
0.030423628 0.018833667 0.63569975
0.030423628 0.017384976 0.63569975
0.030423628 0.015936226 0.63569981
0.030423628 0.014487475 0.63569975
0.030423628 0.013038725 0.63569981
0.030423628 0.011589944 0.63569981
0.039304886 0.013101667 0.68675041
0.040400688 0.011543065 0.69304919
0.040660992 0.0096812248 0.69454551
0.040805478 0.0077725053 0.69537598
0.04072845 0.005818367 0.69493318
0.040370267 0.0038447976 0.69287437
0.040246099 0.0019164979 0.69216061
0.040350422 5.9604645e-08 0.69276023
0.040708885 -0.0019385219 0.69482076
0.040810548 -0.0038867295 0.69540513
0.040673114 -0.0058104098 0.69461513
0.04047383 -0.0077092946 0.6934697
0.039341088 -0.0093668997 0.68695843
0.039564025 -0.011303961 0.68823993
0.030423628 -0.010141164 0.63569981
0.030423628 -0.011589915 0.63569981
0.030423628 -0.013038665 0.63569981
0.030423628 -0.014487445 0.63569975
0.030423628 -0.015936166 0.63569981
0.030878618 -0.017644942 0.63831514
0.031527162 -0.019516766 0.64204305
0.032601912 -0.021734595 0.6482209
0.034002423 -0.024287432 0.65627116
0.034342714 -0.026165873 0.65822721
0.03549169 0.029038668 0.65555847
0.035182126 0.027186185 0.65385997
0.033458222 0.024333268 0.64440113
0.03250204 0.0221605 0.63915473
0.032056894 0.020399868 0.63671219
0.032056801 0.018942654 0.63671172
0.033148203 0.018080831 0.64270014
0.041666415 0.017045379 0.68943822
0.041090626 0.01494205 0.68627894
0.040762872 0.012970001 0.68448061
0.041917097 0.011431932 0.69081366
0.042166457 0.0095832944 0.69218183
0.042311192 0.0076929629 0.692976
0.042223554 0.0057577789 0.69249517
0.041854303 0.0038049221 0.69046915
0.041728802 0.0018967986 0.68978059
0.041835535 2.9802322e-08 0.69036615
0.042201377 -0.0019182563 0.69237351
0.042315912 -0.0038469136 0.69300187
0.042178735 -0.0057516396 0.6922493
0.041975919 -0.0076319873 0.69113648
0.040795654 -0.0092717409 0.68466049
0.041004453 -0.011183023 0.68580616
0.041036706 -0.013057142 0.68598312
0.040640369 -0.014778316 0.68380851
0.038971089 -0.015942752 0.67464942
0.032290574 -0.014677525 0.63799441
0.032056894 -0.016028434 0.63671225
0.032056894 -0.017485559 0.63671219
0.03257649 -0.019249737 0.6395632
0.03358224 -0.0213705 0.64508158
0.035201367 -0.024000913 0.65396547
0.035512414 -0.025827229 0.65567219
0.036655843 0.028687209 0.6532014
0.036307171 0.02683574 0.65137148
0.03443037 0.02395159 0.64152145
0.033709183 0.021984249 0.6377365
0.033709183 0.020518631 0.6377365
0.034047667 0.019244313 0.63951296
0.034374014 0.017934322 0.6412257
0.043059159 0.01684925 0.68680787
0.042431887 0.014758945 0.68351579
0.042197112 0.012842625 0.68228358
0.043404754 0.011323005 0.68862164
0.043641943 0.0094873905 0.68986648
0.043786239 0.0076150298 0.69062382
0.043687835 0.0056984425 0.69010735
0.043307893 0.0037659407 0.68811333
0.043181308 0.0018774867 0.68744898
0.043290298 -0 0.68802094
0.043662973 -0.0018983483 0.68997687
0.043790739 -0.0038078725 0.69064742
0.043653533 -0.0056939125 0.68992734
0.04344818 -0.0075561702 0.68884957
0.042223122 -0.0091789365 0.68242007
0.042402808 -0.011061609 0.6833632
0.042478874 -0.012928307 0.68376237
0.042098012 -0.014642745 0.68176347
0.040344149 -0.015786827 0.67255872
0.033709183 -0.014656126 0.63773644
0.033709183 -0.016121745 0.63773644
0.033709183 -0.017587423 0.6377365
0.033709183 -0.019053012 0.6377365
0.034534514 -0.021021008 0.64206809
0.036348797 -0.023705691 0.65158999
0.036670908 -0.025510162 0.6532805
0.037811071 0.02835831 0.65099591
0.037383202 0.026479781 0.64884388
0.035380721 0.023587137 0.63877219
0.035380721 0.022112936 0.63877219
0.035380721 0.020638794 0.63877219
0.035380825 0.019164652 0.63877273
0.044420391 0.01665768 0.6842382
0.043771762 0.014590591 0.68097585
0.043606933 0.012718737 0.68014681
0.04485276 0.011213213 0.68641287
0.045088023 0.0093933642 0.68759614
0.045231696 0.0075386465 0.68831873
0.045117836 0.0056397617 0.68774611
0.04473196 0.0037277043 0.68580532
0.044604525 0.0018585622 0.68516433
0.044715639 2.9802322e-08 0.68572319
0.045094624 -0.0018789172 0.68762934
0.045235954 -0.0037696362 0.68834025
0.045098353 -0.0056372881 0.68764806
0.044891492 -0.0074819028 0.68660766
0.043628477 -0.0090892613 0.68025523
0.043767933 -0.010941982 0.68095666
0.043892715 -0.012802035 0.68158424
0.043528058 -0.01450932 0.67975014
0.041704953 -0.015639335 0.67058063
0.041680198 -0.017366737 0.67045617
0.039409824 -0.01806283 0.65903699
0.035380721 -0.017690331 0.63877219
0.035380721 -0.019164532 0.63877219
0.035496913 -0.020706534 0.63935661
0.037441485 -0.023400873 0.64913702
0.037828341 -0.025218904 0.65108275
0.039480012 0.030004799 0.65144724
0.038940232 0.028037012 0.64884096
0.0381005 0.025908351 0.64478636
0.037072055 0.023726106 0.63982064
0.037072055 0.022243232 0.63982064
0.037072055 0.020760357 0.63982064
0.037072055 0.019277513 0.63982064
0.045750841 0.016470313 0.6817255
0.045092795 0.014429659 0.67854822
0.044996768 0.012599111 0.67808455
0.046271756 0.011105239 0.68424064
0.046505883 0.0093011558 0.68537122
0.046648618 0.0074637532 0.68606037
0.046518337 0.0055822134 0.6854313
0.046127398 0.003690213 0.68354368
0.045999333 0.0018400252 0.68292534
0.046112437 2.9802322e-08 0.68347144
0.046497244 -0.0018598735 0.68532944
0.046652447 -0.0037321746 0.68607885
0.046514705 -0.0055817068 0.68541378
0.046306528 -0.007409066 0.68440861
0.045006484 -0.009001255 0.67813146
0.045104012 -0.010824949 0.67860234
0.045277882 -0.012677759 0.67944187
0.044929214 -0.014377326 0.67775834
0.043040421 -0.015494525 0.66863847
0.042969305 -0.017187715 0.66829509
0.04289975 -0.018875867 0.66795921
0.039492726 -0.018956512 0.65150863
0.037072055 -0.019277424 0.63982058
0.037072055 -0.020760328 0.63982064
0.038389076 -0.02303344 0.6461798
0.038959756 -0.024934202 0.64893526
0.039550915 -0.026894599 0.65178961
0.040456027 0.029564023 0.64864683
0.040042736 0.027721912 0.6467281
0.038783439 0.025358409 0.64088148
0.038783439 0.023866743 0.64088148
0.040186342 0.023184448 0.64739478
0.040455777 0.021783888 0.64864564
0.04444563 0.022222817 0.66716945
0.047051705 0.016287148 0.67926872
0.046386499 0.014272779 0.67618036
0.046370126 0.012484282 0.67610443
0.047663681 0.010999322 0.68210995
0.047896199 0.009210825 0.68318945
0.048037507 0.0073904097 0.68384552
0.047890555 0.0055258572 0.68316323
0.047495063 0.0036534965 0.6813271
0.047366578 0.001821816 0.68073058
0.047481544 -0 0.68126434
0.047871523 -0.0018411875 0.68307489
0.048040874 -0.0036954582 0.6838612
0.04790343 -0.0055273175 0.68322301
0.047694437 -0.0073376 0.68225276
0.046358068 -0.0089149773 0.67604834
0.046406854 -0.010709256 0.6762749
0.046626899 -0.012553364 0.67729646
0.046305101 -0.014247686 0.67580241
0.04437029 -0.015358925 0.66681963
0.044232253 -0.017012388 0.66617882
0.044207752 -0.018703282 0.6660651
0.040763181 -0.018813759 0.65007287
0.040211931 -0.020105898 0.64751357
0.038783327 -0.020883292 0.64088094
0.03892117 -0.02245447 0.64152092
0.040066414 -0.024656266 0.64683801
0.040497843 -0.026479334 0.64884096
0.04149178 0.029197961 0.64632094
0.041117854 0.027411908 0.64464927
0.04051511 0.025509536 0.64195442
0.04051511 0.024009019 0.64195442
0.04134398 0.022968888 0.64566016
0.041656051 0.021599472 0.64705539
0.045803919 0.022053719 0.66559952
0.048324116 0.016108036 0.67686671
0.047653545 0.014119595 0.67386872
0.047723234 0.012372732 0.67418027
0.049029488 0.010895461 0.68002033
0.049259569 0.0091221631 0.68104893
0.049399346 0.0073184371 0.68167382
0.049235515 0.0054706335 0.6809414
0.048835769 0.0036174953 0.67915422
0.048707068 0.0018039942 0.67857879
0.04882377 2.9802322e-08 0.67910057
0.049218655 -0.0018228889 0.680866
0.049402419 -0.0036594272 0.68168759
0.049265321 -0.0054739118 0.68107462
0.049055841 -0.0072675347 0.68013805
0.047687523 -0.0088310242 0.67402065
0.047692742 -0.010598361 0.67404401
0.04794953 -0.012431324 0.675192
0.047656398 -0.0141204 0.67388153
0.045680173 -0.015226752 0.66504627
0.045470156 -0.016840786 0.66410732
0.045486078 -0.018531322 0.66417849
0.042014774 -0.018673241 0.64865911
0.041418254 -0.019942105 0.64599222
0.040515229 -0.021007866 0.64195502
0.040515229 -0.022508442 0.64195502
0.041157186 -0.024389416 0.6448251
0.041536685 -0.0261527 0.64652169
0.042502064 0.028840691 0.64405137
0.042267792 0.027172178 0.64304137
0.042267669 0.025662541 0.64304084
0.042267669 0.024152964 0.6430409
0.042489689 0.022762358 0.64399803
0.042855304 0.021427631 0.64557421
0.047141697 0.021887243 0.66405326
0.049568679 0.015932798 0.67451626
0.048903406 0.013972431 0.67164814
0.049075045 0.012268782 0.67238814
0.050369564 0.010793477 0.67796892
0.050597135 0.0090352595 0.67895001
0.050734919 0.0072478354 0.67954403
0.050553683 0.0054164827 0.67876267
0.050150316 0.0035821497 0.67702377
0.050021574 0.0017865002 0.67646873
0.050140087 2.9802322e-08 0.6769796
0.050539274 -0.0018049777 0.67870057
0.050737675 -0.0036241114 0.67955589
0.050601333 -0.0054215491 0.67896807
0.050391484 -0.007198751 0.67806339
0.048993185 -0.0087487698 0.67203522
0.04895398 -0.010490119 0.67186618
0.049246863 -0.012311697 0.67312878
0.048983593 -0.01399529 0.67199385
0.046982504 -0.015101492 0.66336691
0.046683334 -0.016672611 0.66207719
0.046730205 -0.01835829 0.66227925
0.043297797 -0.018556178 0.64748186
0.04260508 -0.019780874 0.64449543
0.042267792 -0.0211339 0.64304137
0.042267669 -0.022643387 0.6430409
0.042267792 -0.024153024 0.64304137
0.042550087 -0.025833964 0.64425838
0.044041373 0.028854698 0.64414036
0.044041373 0.027336001 0.64414036
0.044041507 0.025817454 0.6441409
0.044041373 0.024298728 0.64414036
0.044041373 0.022780031 0.64414036
0.044113003 0.021295995 0.64443851
0.048454415 0.021720946 0.66250938
0.050786633 0.015761375 0.67221707
0.050140817 0.013831973 0.66952884
0.050929412 0.012293309 0.67281139
0.051684789 0.010693431 0.67595553
0.051909253 0.0089499056 0.6768899
0.052045166 0.0071786344 0.67745566
0.051846009 0.0053633749 0.67662662
0.051439457 0.0035475492 0.67493439
0.051310852 0.0017693639 0.67439914
0.051430881 2.9802322e-08 0.67489868
0.051834151 -0.0017873645 0.67657733
0.052045166 -0.0035892725 0.67745566
0.05191185 -0.0053701699 0.67690074
0.051700808 -0.0071311295 0.67602229
0.050274409 -0.0086679757 0.67008495
0.05019198 -0.01038453 0.66974187
0.050516818 -0.01219368 0.671094
0.050287649 -0.013872415 0.67014003
0.048261825 -0.014977813 0.6617077
0.04788895 -0.016513437 0.66015565
0.047951307 -0.018188387 0.66041517
0.044591404 -0.018451601 0.64642984
0.044041373 -0.019742668 0.64414036
0.044041373 -0.021261334 0.6441403
0.044041242 -0.022779942 0.64413983
0.044041242 -0.024298608 0.64413977
0.044041242 -0.025817275 0.64413977
0.045836616 0.029029906 0.64525318
0.046282075 0.027769238 0.64704561
0.046556246 0.02638188 0.64814878
0.046392217 0.024742544 0.64748877
0.045836616 0.022918314 0.64525318
0.048878424 0.022809952 0.65749252
0.049741559 0.021554679 0.6609655
0.051978473 0.015593559 0.66996616
0.051354121 0.013694435 0.66745394
0.052330196 0.012210399 0.67138135
0.052975852 0.010595173 0.67397928
0.053197011 0.0088661909 0.67486918
0.053327601 0.0071103573 0.67539459
0.053113244 0.0053113103 0.67453212
0.052703913 0.0035136044 0.67288512
0.052575618 0.0017525256 0.67236888
0.052697066 2.9802322e-08 0.67285752
0.053104039 -0.0017700791 0.67449504
0.053325895 -0.0035550296 0.67538774
0.05319776 -0.0053197742 0.67487222
0.052985195 -0.0070646703 0.67401683
0.051532011 -0.0085886419 0.66816968
0.051416043 -0.010283172 0.66770303
0.051753923 -0.012075901 0.66906261
0.051569011 -0.013751715 0.66831857
0.049519047 -0.014855683 0.66007018
0.049071606 -0.016357183 0.65826976
0.04914036 -0.018018156 0.65854645
0.045926791 -0.018370688 0.64561599
0.045836616 -0.019862533 0.64525318
0.046425648 -0.021665275 0.6476233
0.046549316 -0.02327463 0.64812088
0.046238024 -0.024660259 0.64686829
0.045836616 -0.025974065 0.64525318
0.047653642 0.02920711 0.64637899
0.047653642 0.027669877 0.64637905
0.047659937 0.02613613 0.64640355
0.047653783 0.024595529 0.64637965
0.047653783 0.023058295 0.64637965
0.050158668 0.022652298 0.65613341
0.051006299 0.021389782 0.65943396
0.053186383 0.015441209 0.66792297
0.052554227 0.013562411 0.66546142
0.05365628 0.012115985 0.66975272
0.054243591 0.010498762 0.67203963
0.054460898 0.0087839961 0.67288584
0.054583751 0.0070430636 0.67336416
0.054356128 0.0052602887 0.67247784
0.053944398 0.0034802854 0.6708746
0.053816568 0.0017360151 0.67037684
0.053939331 2.9802322e-08 0.67085487
0.054349653 -0.0017531812 0.67245257
0.054582402 -0.0035214722 0.67335898
0.054459758 -0.0052702725 0.67288136
0.054245677 -0.0069994032 0.67204779
0.052766439 -0.0085107088 0.66628778
0.052616447 -0.010183811 0.66570371
0.052967347 -0.011960357 0.66707015
0.052823406 -0.013631821 0.66650957
0.050768405 -0.014739186 0.65850759
0.050240062 -0.016206443 0.65645033
0.050300997 -0.0178487 0.65668756
0.047653642 -0.018446535 0.64637911
0.047653783 -0.019983798 0.64637959
0.047653783 -0.021521032 0.64637965
0.047663305 -0.023062855 0.64641666
0.047653783 -0.024595469 0.64637959
0.047653783 -0.026132673 0.64637959
0.04949329 0.026293308 0.64751995
0.049493138 0.024746567 0.64751935
0.050358471 0.023605525 0.6507836
0.051406484 0.022490352 0.65473688
0.054377943 0.015293807 0.66594583
0.053734478 0.013433635 0.66351855
0.054933719 0.012016773 0.66804236
0.055483863 0.010403246 0.67011762
0.055700421 0.0087032318 0.67093456
0.055816151 0.0069770515 0.6713711
0.055575337 0.005210191 0.67046267
0.05516139 0.0034476221 0.66890121
0.055034362 0.0017198324 0.66842198
0.055158354 2.9802322e-08 0.6688897
0.055571672 -0.0017365813 0.67044884
0.055815373 -0.0034883916 0.67136812
0.055698488 -0.0052216947 0.67092723
0.055483282 -0.0069353878 0.67011547
0.053978853 -0.0084341764 0.66444039
0.05379387 -0.010086358 0.6637426
0.054157779 -0.011846989 0.6651153
0.054049917 -0.013512433 0.6647085
0.052061036 -0.014642149 0.657206
0.051395267 -0.016061008 0.65469456
0.051440012 -0.017682493 0.65486336
0.051251646 -0.019219309 0.65415275
0.050293777 -0.020431846 0.65053952
0.049493138 -0.021653205 0.64751929
0.049493138 -0.023199856 0.64751935
0.051355384 0.024899602 0.64867371
0.051608998 0.02345866 0.6496014
0.052633736 0.022329479 0.65334976
0.056190606 0.017027497 0.6663605
0.055533886 0.01514563 0.66395825
0.054897998 0.013308614 0.66163224
0.056190606 0.01191926 0.6663605
0.056700394 0.01030916 0.66822529
0.056917347 0.0086238682 0.66901881
0.057025854 0.0069122314 0.66941571
0.056771554 0.0051610768 0.66848552
0.056355923 0.003415525 0.66696519
0.056229644 0.0017039478 0.66650331
0.056354769 5.9604645e-08 0.66696095
0.056770768 -0.0017203093 0.66848266
0.057025455 -0.0034560859 0.66941428
0.056914594 -0.0051740408 0.66900873
0.056698252 -0.0068724751 0.66821736
0.055171862 -0.0083593428 0.66263402
0.054958113 -0.0099923611 0.66185212
0.055323627 -0.01173529 0.66318917
0.055255126 -0.013395131 0.66293859
0.054751638 -0.014932245 0.66109693
0.052529752 -0.015918106 0.65296942
0.0525463 -0.017515421 0.65302998
0.052418519 -0.019061267 0.65256262
0.051544394 -0.020305365 0.64936513
0.051355384 -0.021787107 0.64867377
0.053240635 0.025054425 0.6498419
0.053240635 0.023488551 0.64984185
0.05384355 0.022170901 0.65198243
0.05729381 0.016851157 0.6642319
0.056650285 0.014995694 0.66194725
0.056043938 0.013186812 0.65979451
0.057427064 0.011823237 0.66470504
0.057895131 0.010216802 0.66636676
0.058112275 0.0085459352 0.66713774
0.058213089 0.0068486333 0.66749561
0.057945609 0.0051128566 0.66654605
0.057528432 0.0033840537 0.66506487
0.057403035 0.0016883612 0.66461968
0.057529211 -0 0.66506767
0.057947583 -0.0017043054 0.66655302
0.058213089 -0.003424257 0.66749561
0.058108903 -0.0051272511 0.66712576
0.057891384 -0.0068107545 0.66635352
0.056346878 -0.0082862973 0.66087008
0.05610197 -0.0099003315 0.66000056
0.056456834 -0.011623412 0.66126037
0.05643829 -0.013279587 0.66119456
0.055945706 -0.014809132 0.6594457
0.053661317 -0.015782714 0.65133542
0.05362647 -0.01734975 0.65121174
0.053549495 -0.018899798 0.65093839
0.053240635 -0.020356685 0.6498419
0.053240798 -0.021922678 0.6498425
0.055149652 0.023635596 0.65102524
0.055149652 0.022059888 0.65102524
0.058374397 0.016678423 0.66214699
0.057694759 0.014835805 0.65980303
0.057173014 0.01306811 0.65800357
0.058634926 0.011727005 0.66304553
0.059068441 0.010126054 0.66454065
0.059285808 0.0084694028 0.66529036
0.059378676 0.0067861676 0.66561061
0.059097741 0.0050655305 0.66464174
0.058679525 0.0033531785 0.66319931
0.058555137 0.001673013 0.66277033
0.058682278 -2.9802322e-08 0.66320884
0.059102532 -0.0016886294 0.66465819
0.059379276 -0.003393054 0.6656127
0.059281591 -0.0050812364 0.66527575
0.059063464 -0.0067501068 0.66452348
0.057501532 -0.0082144737 0.65913659
0.057224952 -0.0098099709 0.65818274
0.057568446 -0.01151365 0.65936732
0.057587754 -0.013162881 0.65943396
0.057120427 -0.014688075 0.65782225
0.055149823 -0.015757084 0.65102589
0.055149652 -0.017332733 0.65102524
0.055149823 -0.018908501 0.65102583
0.055149652 -0.02048412 0.65102524
0.059433248 0.016509265 0.66010499
0.058684871 0.014671236 0.65759563
0.058285344 0.012952328 0.65625596
0.059804022 0.011628568 0.66134822
0.060221292 0.010036856 0.66274738
0.060438707 0.0083943009 0.66347641
0.060523391 0.0067248344 0.6637603
0.060228743 0.0050190985 0.6627723
0.059809778 0.0033227801 0.66136754
0.059686508 0.0016579926 0.66095424
0.059814744 2.9802322e-08 0.66138417
0.060236596 -0.0016732216 0.66279864
0.060524408 -0.003362447 0.66376376
0.06043344 -0.0050361156 0.6634587
0.060214646 -0.0066904724 0.66272509
0.058639407 -0.0081443489 0.65744317
0.058328941 -0.009721458 0.65640217
0.058659263 -0.011405945 0.65750974
0.058717199 -0.013048232 0.657704
0.058271389 -0.014567822 0.65620923
0.057670102 -0.016019434 0.65419304
0.057082903 -0.017441958 0.65222412
0.057082728 -0.019027531 0.65222353
0.060470644 0.016343445 0.65810341
0.059696347 0.014520764 0.6555773
0.059382126 0.012839407 0.65455216
0.060953852 0.01153183 0.65967983
0.061353818 0.0099492967 0.66098469
0.061571129 0.0083204508 0.66169369
0.0616474 0.0066645741 0.66194254
