# .PCD v0.7 - Point Cloud Data file format
VERSION 0.7
FIELDS x y z
SIZE 4 4 4
TYPE F F F
COUNT 1 1 1
WIDTH 1343
HEIGHT 1
VIEWPOINT 0 0 0 1 0 0 0
POINTS 1343
DATA ascii
-0.017713135 -0 0.69839478
-0.017837958 -0.0019819736 0.70006889
-0.017964553 -0.0039921105 0.70176685
-0.018092884 -0.0060309768 0.70348811
-0.018223135 -0.0080991685 0.70523506
-0.018355276 -0.010197371 0.70700729
-0.018489271 -0.012326181 0.70880455
-0.018625313 -0.014486343 0.71062917
-0.018764468 -0.016679525 0.71249551
-0.018907227 -0.018907189 0.71441019
-0.019052172 -0.021169096 0.71635437
-0.01919944 -0.023465931 0.71832955
-0.019348919 -0.025798529 0.72033435
-0.019500744 -0.028167695 0.72237074
-0.019655056 -0.03057453 0.72444034
-0.019811742 -0.033019543 0.72654188
-0.019971656 -0.035505146 0.72868669
-0.020136332 -0.038035244 0.73089534
-0.020303655 -0.040607274 0.73313957
-0.020518092 -0.043315947 0.73601568
-0.020691372 -0.045980811 0.73833972
-0.020867605 -0.048691064 0.74070346
-0.021046864 -0.051447839 0.74310768
-0.02122923 -0.054252476 0.74555373
-0.02141631 -0.057110131 0.74806285
-0.021607548 -0.060020924 0.75062776
-0.021802125 -0.06298393 0.75323749
-0.022000456 -0.066001385 0.75589758
-0.022202972 -0.069075912 0.75861382
-0.022410147 -0.072210431 0.76139241
-0.022622474 -0.07540822 0.76424026
-0.013531572 0.07273221 0.66499656
-0.013474226 0.070739746 0.66413122
-0.013169975 0.067496151 0.65954047
-0.012996328 0.064981669 0.65692031
-0.01282716 0.062532425 0.6543678
-0.012662378 0.060146332 0.6518814
-0.012501777 0.057820737 0.64945817
-0.012516241 0.056323081 0.64967638
-0.01258111 0.055042386 0.65065521
-0.012648654 0.053756773 0.65167439
-0.012716928 0.052457333 0.65270454
-0.01278594 0.051143795 0.65374583
-0.012855708 0.049815863 0.65479857
-0.01292624 0.048473418 0.65586281
-0.012997552 0.047116131 0.65693879
-0.013069611 0.045743674 0.6580261
-0.013142518 0.044356018 0.65912616
-0.01321624 0.042952806 0.66023856
-0.013290796 0.041533738 0.66136354
-0.013367403 0.040102243 0.66251945
-0.013445577 0.038656056 0.66369903
-0.013524668 0.037192881 0.66489244
-0.013604697 0.035712332 0.66609991
-0.013685678 0.034214199 0.6673218
-0.013767628 0.032698154 0.66855836
-0.013850567 0.031163812 0.66980982
-0.01393451 0.029610872 0.67107642
-0.014019478 0.028039008 0.67235851
-0.014105487 0.026447803 0.67365623
-0.014193364 0.024838418 0.67498219
-0.014283463 0.023210615 0.67634171
-0.014374663 0.02156204 0.6777178
-0.014467087 0.019892275 0.67911237
-0.014560706 0.018200874 0.680525
-0.014655493 0.016487449 0.68195522
-0.014751575 0.014751643 0.68340498
-0.014848925 0.012992829 0.68487388
-0.014947514 0.01121068 0.68636143
-0.015047476 0.0094046593 0.68786979
-0.015149989 0.0075750351 0.68941659
-0.015254606 0.005720526 0.6909951
-0.015360677 0.0038402081 0.6925956
-0.015468293 0.0019335747 0.69421941
-0.015577368 2.9802322e-08 0.69586521
-0.015687991 -0.0019610226 0.69753444
-0.01580026 -0.0039500594 0.69922841
-0.015914084 -0.005967766 0.70094591
-0.016029561 -0.0080147684 0.70268834
-0.016148027 -0.010092497 0.70447576
-0.016269051 -0.012201786 0.70630187
-0.016391836 -0.014342844 0.70815462
-0.016516555 -0.016516566 0.71003646
-0.016643118 -0.018723488 0.71194619
-0.016771708 -0.020964593 0.71388644
-0.016902227 -0.023240536 0.71585578
-0.017034866 -0.025552273 0.71785724
-0.017170046 -0.027901292 0.71989685
-0.017309185 -0.030291021 0.72199631
-0.017450519 -0.032719731 0.72412896
-0.017594183 -0.035188317 0.7262966
-0.017740309 -0.03769812 0.7285015
-0.017888803 -0.040249795 0.73074216
-0.018077035 -0.042932957 0.73358226
-0.018230829 -0.045577049 0.73590291
-0.018387685 -0.048267663 0.73826963
-0.018548466 -0.051008254 0.74069566
-0.018712958 -0.053799689 0.74317765
-0.018880395 -0.056641161 0.74570405
-0.019050855 -0.059533864 0.74827605
-0.019224513 -0.062479615 0.75089639
-0.019402588 -0.065483689 0.75358331
-0.019583995 -0.068543971 0.7563206
-0.019768825 -0.071661949 0.75910938
-0.019957375 -0.074840158 0.76195443
-0.012028884 0.075610131 0.66825157
-0.011863385 0.072875112 0.66539764
-0.011885487 0.071312964 0.66577876
-0.011950005 0.06999293 0.66689134
-0.011393242 0.065104246 0.65729034
-0.011387094 0.063442379 0.6571843
-0.012149388 0.065953821 0.67032957
-0.010958906 0.057925671 0.64980048
-0.010821406 0.055652976 0.64742935
-0.010877766 0.054388881 0.64840126
-0.010936903 0.053122133 0.64942104
-0.01099672 0.051841706 0.65045255
-0.011057161 0.050547063 0.6514948
-0.011118269 0.049238086 0.65254855
-0.011180056 0.047914565 0.65361404
-0.011242534 0.046576262 0.65469146
-0.011305714 0.045222878 0.65578097
-0.011370385 0.043857217 0.65689617
-0.011436395 0.042478085 0.6580345
-0.011503214 0.041082948 0.65918672
-0.011570821 0.039671421 0.66035253
-0.011639186 0.038243055 0.66153151
-0.011708403 0.036797851 0.66272509
-0.011778411 0.035335243 0.66393232
-0.011849298 0.03385517 0.66515476
-0.011921046 0.032357126 0.66639197
-0.011993625 0.030840784 0.66764355
-0.012067136 0.029305935 0.66891122
-0.012142732 0.027754843 0.67021483
-0.012219496 0.026184678 0.67153853
-0.012297234 0.024594486 0.6728791
-0.012376013 0.022984058 0.67423761
-0.012455762 0.021352768 0.67561281
-0.012536547 0.019700319 0.67700595
-0.012618386 0.018026263 0.67841715
-0.012701347 0.016330332 0.67984784
-0.012785358 0.01461187 0.68129653
-0.01287049 0.01287052 0.68276453
-0.012958296 0.011107147 0.68427873
-0.013047309 0.009319514 0.68581367
-0.013137504 0.0075071752 0.68736905
-0.013229003 0.0056695938 0.68894684
-0.013321736 0.0038062334 0.69054604
-0.013415829 0.0019165576 0.69216859
-0.013511261 -0 0.69381434
-0.013608009 -0.0019439757 0.69548261
-0.013706204 -0.003916055 0.69717598
-0.013807134 -0.0059173107 0.69891638
-0.013909837 -0.0079484582 0.70068747
-0.01401408 -0.010010004 0.70248508
-0.014119954 -0.012102783 0.70431077
-0.014227381 -0.01422736 0.70616329
-0.014336515 -0.016384572 0.7080453
-0.014447276 -0.018575072 0.70995522
-0.014559763 -0.020799637 0.71189499
-0.014674691 -0.023060232 0.71387696
-0.014792571 -0.025358677 0.71590966
-0.014912426 -0.027694464 0.71797645
-0.015034237 -0.030068427 0.72007704
-0.015158055 -0.032481521 0.7222122
-0.01528393 -0.03493467 0.72438288
-0.015411844 -0.037428766 0.72658867
-0.015541988 -0.039965093 0.7288329
-0.01567547 -0.042547703 0.73113471
-0.015842447 -0.045264125 0.73401409
-0.015981672 -0.047944993 0.73641491
-0.016123367 -0.050673425 0.73885846
-0.016267674 -0.053450912 0.74134684
-0.01641451 -0.056278318 0.74387902
-0.016564725 -0.059159696 0.74646938
-0.016717715 -0.062094361 0.7491076
-0.016874613 -0.065087765 0.75181317
-0.017035149 -0.068140596 0.75458151
-0.017199021 -0.071253061 0.75740737
-0.017366162 -0.074426383 0.76028967
-0.017536584 -0.077662021 0.76322848
-0.010330981 0.075760514 0.66866422
-0.010188598 0.073018342 0.66579968
-0.010160667 0.071124703 0.66523772
-0.010224616 0.069868267 0.66652429
-0.010289446 0.068596333 0.66782856
-0.010357819 0.06732583 0.66920418
-0.010427723 0.066042274 0.67061049
-0.010502874 0.064767748 0.67212242
-0.0092921425 0.055752873 0.64776438
-0.0092328442 0.05385828 0.6465714
-0.0092836367 0.052607298 0.6475932
-0.0093349619 0.051342309 0.64862585
-0.0093868868 0.050063401 0.64967048
-0.0094393929 0.048770219 0.65072685
-0.0094924597 0.047462344 0.65179443
-0.0095462166 0.046140075 0.65287596
-0.0096015399 0.044807225 0.65398896
-0.0096575068 0.043458819 0.65511489
-0.0097141294 0.042094558 0.65625411
-0.0097714532 0.040714383 0.65740734
-0.0098294243 0.039317727 0.65857363
-0.0098880874 0.037904322 0.65975386
-0.0099474546 0.036474019 0.66094828
-0.010007573 0.03502652 0.66215771
-0.010068389 0.033561319 0.66338122
-0.010129947 0.032078177 0.66461974
-0.010192679 0.030578047 0.66588175
-0.010256894 0.029061198 0.66717374
-0.010321887 0.027525038 0.66848129
-0.010387746 0.025969386 0.66980618
-0.010454449 0.024393737 0.67114818
-0.010521978 0.022797614 0.67250681
-0.010590423 0.021180868 0.6738838
-0.010659726 0.019542843 0.67527807
-0.010729981 0.017883331 0.67669141
-0.010801167 0.016201794 0.67812359
-0.010873738 0.014498323 0.67958367
-0.010948049 0.012772739 0.68107861
-0.011023342 0.011023343 0.68259341
-0.011099719 0.0092498064 0.68413001
-0.01117712 0.0074514449 0.68568718
-0.011255651 0.0056278706 0.68726707
-0.011335249 0.0037784278 0.68886852
-0.011415983 0.0019026995 0.69049275
-0.011497917 -0 0.69214112
-0.011581304 -0.001930207 0.69381875
-0.011666908 -0.0038889647 0.6955409
-0.011753833 -0.0058768988 0.69728971
-0.011842062 -0.007894665 0.69906479
-0.011931626 -0.0099429786 0.7008667
-0.012022507 -0.012022465 0.70269501
-0.012114832 -0.01413396 0.70455253
-0.012208586 -0.016278088 0.70643866
-0.012303801 -0.018455714 0.70835429
-0.012401641 -0.020669401 0.71032274
-0.012501415 -0.022919238 0.71232998
-0.012602754 -0.025205523 0.71436876
-0.012705803 -0.02752921 0.71644193
-0.012810495 -0.029891133 0.71854818
-0.012916928 -0.032292336 0.72068942
-0.0130252 -0.034733862 0.72286773
-0.013135477 -0.03721717 0.72508633
-0.013249155 -0.039747447 0.72737336
-0.013364819 -0.042321891 0.72970033
-0.013507755 -0.045025855 0.73257595
-0.013627689 -0.047696888 0.73498887
-0.013749834 -0.050416052 0.73744625
-0.013874189 -0.05318436 0.73994809
-0.014001011 -0.056004018 0.74249947
-0.014131702 -0.058882058 0.74512875
-0.014265059 -0.061815262 0.74781173
-0.014400886 -0.064803958 0.75054437
-0.014539327 -0.067850173 0.75332963
-0.014680598 -0.07095623 0.7561717
-0.014825373 -0.074126869 0.75908434
-0.014974153 -0.077366471 0.76207763
-0.008748875 0.078739882 0.67203748
-0.0086952057 0.07651782 0.67074168
-0.0087534059 0.075279295 0.6721468
-0.0088120485 0.07402119 0.67356259
-0.0088710412 0.072742552 0.67498678
-0.0089308294 0.071446657 0.67643023
-0.0089914296 0.070133179 0.67789316
-0.0090528578 0.068801731 0.67937624
-0.0091151306 0.067452013 0.68087959
-0.0077607227 0.055877239 0.64818132
-0.0076608639 0.053626031 0.64577055
-0.0076735052 0.052179873 0.64607573
-0.0077164154 0.050928354 0.64711165
-0.0077597839 0.04966262 0.64815867
-0.0078036422 0.04838261 0.64921749
-0.0078479992 0.047088027 0.6502884
-0.0078934608 0.045782089 0.6513859
-0.0079396544 0.044462085 0.65250111
-0.0079863658 0.043126404 0.65362883
-0.0080336565 0.041775018 0.65477055
-0.0080815097 0.040407568 0.65592581
-0.0081299115 0.039023638 0.6570943
-0.0081789223 0.037623048 0.65827751
-0.0082285004 0.036205411 0.65947449
-0.0082787098 0.034770578 0.66068661
-0.0083295088 0.033318073 0.66191304
-0.0083809644 0.031847686 0.66315526
-0.008433911 0.030362129 0.66443354
-0.008487503 0.028857559 0.66572732
-0.0085418085 0.027333796 0.66703844
-0.0085967844 0.025790393 0.6683656
-0.0086525027 0.024227023 0.66971076
-0.0087089175 0.022643209 0.67107272
-0.0087660719 0.021038592 0.67245263
-0.0088240141 0.019412875 0.67385149
-0.0088826949 0.017765433 0.67526811
-0.0089422576 0.016096115 0.67670608
-0.0090034995 0.014405668 0.67818463
-0.0090655852 0.012691826 0.67968351
-0.0091285342 0.010954291 0.68120319
-0.0091923289 0.0091923773 0.68274337
-0.0092570558 0.0074056387 0.68430603
-0.009322701 0.0055936277 0.68589079
-0.0093892831 0.0037557185 0.68749827
-0.0094567891 0.0018913746 0.68912798
-0.0095253438 2.9802322e-08 0.69078302
-0.0095958933 -0.0019191504 0.69248629
-0.0096675344 -0.0038670003 0.69421589
-0.0097402148 -0.0058441162 0.69597048
-0.0098140333 -0.007851243 0.69775271
-0.0098889414 -0.0098889172 0.69956112
-0.0099650025 -0.011958003 0.7013973
-0.010042282 -0.014059186 0.7032631
-0.010120729 -0.016193122 0.70515692
-0.010201368 -0.018362433 0.70710373
-0.010283556 -0.020567119 0.70908791
-0.010367122 -0.022807688 0.71110535
-0.010452056 -0.025084913 0.71315587
-0.010538395 -0.027399838 0.71524024
-0.01062617 -0.029753238 0.7173593
-0.010715375 -0.032146096 0.71951294
-0.010806558 -0.034580976 0.72171432
-0.010900254 -0.037060857 0.72397631
-0.010995639 -0.039584309 0.72627914
-0.011092658 -0.042152077 0.72862136
-0.011211868 -0.044847488 0.73149937
-0.011312759 -0.047513545 0.73393506
-0.011415271 -0.050227165 0.73640996
-0.011520457 -0.052994043 0.7389493
-0.011628192 -0.055815279 0.74155033
-0.011738183 -0.058690906 0.74420565
-0.011850272 -0.061621368 0.74691176
-0.011964525 -0.064608425 0.74967009
-0.012081525 -0.067656517 0.75249469
-0.01220173 -0.070770025 0.75539672
-0.012324351 -0.073946118 0.75835711
-0.012449524 -0.077187032 0.761379
-0.0070133251 0.07889995 0.6724667
-0.0070028468 0.077031344 0.67215049
-0.0070422962 0.075704694 0.67334104
-0.0070806886 0.074347258 0.67449957
-0.0071166926 0.072946101 0.6755861
-0.0071500749 0.071500748 0.67659348
-0.0071855509 0.07005915 0.6776641
-0.0072232052 0.068620473 0.6788004
-0.0072621261 0.067174673 0.67997497
-0.0073017348 0.065715611 0.68117023
-0.0061395578 0.05372116 0.64609849
-0.006096581 0.051820993 0.6448015
-0.0061310004 0.0505808 0.64584017
-0.0061658295 0.049326658 0.64689124
-0.0062010377 0.048058063 0.64795375
-0.0062366691 0.046775043 0.64902902
-0.0062730671 0.045479774 0.65012741
-0.00631011 0.044170797 0.65124536
-0.0063476143 0.042846382 0.65237713
-0.0063855462 0.041506082 0.65352178
-0.0064239339 0.040149629 0.65468025
-0.0064628068 0.038776875 0.65585339
-0.0065021329 0.037387311 0.65704012
-0.0065419609 0.035980821 0.65824205
-0.0065822587 0.034556866 0.6594581
-0.0066230777 0.033115387 0.66068995
-0.0066643846 0.031655848 0.66193646
-0.0067068604 0.030180901 0.66321826
-0.0067499047 0.028687119 0.66451728
-0.0067934818 0.027173936 0.6658324
-0.0068376493 0.025641233 0.66716522
-0.0068823937 0.024088413 0.6685155
-0.0069277282 0.022515178 0.66988361
-0.0069736396 0.020920932 0.67126906
-0.007020188 0.019305557 0.67267382
-0.0070673623 0.017668426 0.67409742
-0.0071153268 0.01600945 0.67554486
-0.007164536 0.014329106 0.67702991
-0.0072144051 0.012625247 0.67853481
-0.0072649992 0.010897547 0.6800617
-0.0073162811 0.0091453791 0.68160921
-0.0073683201 0.007368356 0.68317962
-0.0074210763 0.0055658221 0.68477172
-0.0074746222 0.0037373304 0.6863876
-0.0075289174 0.0018822849 0.68802607
-0.0075843525 2.9802322e-08 0.68969899
-0.0076411054 -0.0019102693 0.69141167
-0.0076987441 -0.0038493574 0.693151
-0.0077572586 -0.0058179498 0.69491684
-0.0078166397 -0.0078166127 0.69670886
-0.0078769661 -0.0098462105 0.69852942
-0.0079382323 -0.011907309 0.70037824
-0.0080004595 -0.014000803 0.70225608
-0.0080639943 -0.016127974 0.70417345
-0.0081292056 -0.018290669 0.70614141
-0.0081954477 -0.02048859 0.70814037
-0.0082628122 -0.022722691 0.71017331
-0.0083312588 -0.024993747 0.71223885
-0.0084008835 -0.027302861 0.71433997
-0.0084716463 -0.029650748 0.71647549
-0.008543794 -0.032039195 0.71865267
-0.0086181452 -0.034472555 0.72089648
-0.0086938022 -0.036948651 0.72317958
-0.0087708374 -0.039468735 0.72550434
-0.008849211 -0.042033762 0.72786945
-0.0089289984 -0.044644952 0.73027724
-0.009026614 -0.047389716 0.73322308
-0.0091101862 -0.050105989 0.73574507
-0.0091956593 -0.052875012 0.73832446
-0.0092827929 -0.055696756 0.74095398
-0.0093719447 -0.058574677 0.74364436
-0.0094634537 -0.06151244 0.7464059
-0.0095567657 -0.06450814 0.74922186
-0.0096520297 -0.067564219 0.75209665
-0.0097492598 -0.070682108 0.75503087
-0.0098490985 -0.073868215 0.75804377
-0.0099517945 -0.077126354 0.76114285
-0.0052706874 0.079060346 0.67289692
-0.0052122865 0.076446861 0.67054713
-0.0052417177 0.075131327 0.67173135
-0.0052721868 0.073810607 0.6729573
-0.005303537 0.072481662 0.67421877
-0.0053361342 0.071148485 0.67553037
-0.0053695384 0.069804043 0.6768744
-0.0054048225 0.06846109 0.67829418
-0.0054411059 0.067107022 0.67975408
-0.0054783998 0.065740824 0.68125468
-0.0046128896 0.053817034 0.64642924
-0.004556004 0.051634729 0.64414036
-0.004571503 0.050286561 0.64476395
-0.0045977291 0.049042463 0.64581925
-0.0046242722 0.047784179 0.64688724
-0.0046511097 0.046511114 0.6479671
-0.0046782745 0.045223355 0.64906013
-0.0047061127 0.043923736 0.65018022
-0.0047343588 0.042609245 0.65131676
-0.0047629313 0.04127875 0.65246648
-0.0047918656 0.039932251 0.65363067
-0.0048211538 0.038569301 0.65480912
-0.0048507866 0.037189394 0.65600145
-0.0048808013 0.035792589 0.65720916
-0.0049111904 0.03437838 0.65843189
-0.0049419599 0.032946408 0.65967
-0.004973101 0.031496286 0.660923
-0.0050048707 0.030029267 0.66220134
-0.0050373194 0.028544813 0.66350698
-0.0050701746 0.027040958 0.66482902
-0.0051034787 0.025517404 0.66616905
-0.0051372051 0.023973674 0.66752607
-0.0051713986 0.022409409 0.66890192
-0.0052060317 0.020824134 0.67029542
-0.0052411505 0.019217581 0.67170846
-0.0052767275 0.017589092 0.67314005
-0.0053127911 0.015938371 0.67459112
-0.0053499229 0.014266491 0.67608517
-0.0053875772 0.012571007 0.67760026
-0.0054257461 0.010851502 0.67913604
-0.0054644789 0.0091074407 0.68069458
-0.0055037695 0.0073383749 0.68227547
-0.0055436287 0.005543679 0.68387926
-0.0055840486 0.0037226975 0.68550569
-0.0056250836 0.0018750131 0.6871568
-0.0056670043 2.9802322e-08 0.68884349
-0.0057099015 -0.0019032657 0.69056964
-0.0057534762 -0.0038356185 0.69232291
-0.0057976977 -0.005797714 0.69410223
-0.0058426275 -0.0077901483 0.6959101
-0.0058882358 -0.0098137259 0.6977452
-0.0059345849 -0.011869162 0.69961023
-0.005981646 -0.013957143 0.70150375
-0.0060300166 -0.016080022 0.70345002
-0.0060793725 -0.018238097 0.70543593
-0.0061295689 -0.020431876 0.70745569
-0.0061805751 -0.022662103 0.70950806
-0.0062324367 -0.024929732 0.71159476
-0.0062851771 -0.027235776 0.71371686
-0.0063388166 -0.02958113 0.71587521
-0.006393217 -0.03196606 0.71806407
-0.006447617 -0.034387261 0.72025293
-0.0065016272 -0.036842555 0.72242618
-0.0065552043 -0.039331228 0.72458202
-0.0066078389 -0.041849613 0.72669983
-0.0066588428 -0.044392258 0.72875208
-0.0067614219 -0.047329903 0.73287952
-0.0068249046 -0.050049275 0.73543382
-0.0068897801 -0.052821606 0.73804426
-0.0069567384 -0.0556539 0.74073845
-0.0070249788 -0.058541477 0.74348426
-0.0070945704 -0.061486244 0.74628437
-0.0071656234 -0.064490616 0.74914342
-0.0072386381 -0.067560613 0.75208127
-0.0073137614 -0.070699662 0.75510395
-0.0073904241 -0.073904216 0.75818861
-0.0074687479 -0.077177018 0.76134008
-0.0035209372 0.0792211 0.67332828
-0.0034868319 0.076710314 0.67126977
-0.0035104267 0.075474173 0.67269391
-0.003535354 0.074242443 0.67419839
-0.0035655478 0.073093772 0.67602074
-0.0036454943 0.072909921 0.68084598
-0.0036698119 0.071561366 0.68231362
-0.0036944561 0.070194691 0.68380105
-0.0037186875 0.068795741 0.68526351
-0.0037432243 0.067378074 0.68674451
-0.0030807317 0.053912818 0.64675951
-0.0030426923 0.051725805 0.6444636
-0.0030325039 0.050036341 0.64384872
-0.0030500928 0.048801512 0.64491028
-0.0030678874 0.047552288 0.64598429
-0.0030858903 0.046288401 0.64707088
-0.0031040965 0.045009434 0.6481697
-0.0031225283 0.043715447 0.64928216
-0.0031413678 0.042408526 0.65041924
-0.0031605356 0.041086972 0.6515761
-0.003179929 0.039749116 0.65274656
-0.0031995717 0.038394898 0.65393209
-0.0032194483 0.037023664 0.65513182
-0.0032395842 0.035635471 0.65634704
-0.0032599627 0.034229606 0.65757704
-0.0032806101 0.032806128 0.65882319
-0.0033015094 0.031364381 0.66008461
-0.003322677 0.029904127 0.66136217
-0.0033443302 0.028426796 0.66266912
-0.0033663921 0.026931167 0.66400063
-0.0033887355 0.02541554 0.66534919
-0.0034113887 0.023879766 0.66671646
-0.0034343472 0.022323251 0.66810209
-0.0034576049 0.020745635 0.66950577
-0.0034811916 0.019146562 0.67092943
-0.0035051026 0.017525524 0.67237258
-0.0035293442 0.015882075 0.67383564
-0.0035541127 0.014216483 0.67533058
-0.0035794107 0.012527972 0.67685741
-0.0036050843 0.010815263 0.67840701
-0.0036311157 0.0090778172 0.67997813
-0.0036575391 0.007315129 0.68157291
-0.0036843363 0.0055265427 0.68319023
-0.003711543 0.0037115514 0.68483233
-0.0037391402 0.0018695891 0.68649799
-0.0037672932 -0 0.68819714
-0.0037961896 -0.0018981099 0.68994117
-0.0038255185 -0.0038254857 0.69171131
-0.0038553039 -0.005782932 0.69350904
-0.0038855567 -0.0077710748 0.69533497
-0.0039162883 -0.0097907186 0.69718981
-0.0039475099 -0.011842489 0.69907421
-0.0039792485 -0.013927341 0.70098984
-0.0040113255 -0.016045302 0.7029258
-0.0040434333 -0.018195421 0.70486367
-0.0040752129 -0.020376027 0.7067818
-0.0041068722 -0.022587776 0.70869255
-0.0041378979 -0.024827361 0.71056509
-0.0041683014 -0.027093947 0.7124002
-0.0041973935 -0.029381722 0.71415603
-0.0042246827 -0.031685084 0.71580309
-0.0042529791 -0.034023821 0.71751094
-0.0042816941 -0.036394387 0.719244
-0.0043126196 -0.038813561 0.72111052
-0.0043460517 -0.041287482 0.72312832
-0.0043799868 -0.043799847 0.72517645
-0.0044159563 -0.046367526 0.72734743
-0.0045502465 -0.050052702 0.73545259
-0.0045947684 -0.052839816 0.73813963
-0.0046401485 -0.055681765 0.74087864
-0.0046864552 -0.058580697 0.74367356
-0.0047338977 -0.061540633 0.74653691
-0.0047828588 -0.064568549 0.74949193
-0.0048328205 -0.067659497 0.75250739
-0.004883884 -0.070816249 0.75558937
-0.0049364283 -0.074046403 0.75876063
-0.0049905875 -0.077354074 0.76202953
-0.001774246 0.079841107 0.67499137
-0.0017854138 0.078558236 0.67633945
-0.0017967167 0.077258825 0.6777038
-0.0018081637 0.075942874 0.67908561
-0.0018197176 0.074608475 0.68048024
-0.0018313398 0.073253632 0.68188316
-0.0018431046 0.071881115 0.68330336
-0.0018550284 0.070491105 0.68474269
-0.0018671076 0.069083035 0.68620074
-0.0018793379 0.067656189 0.68767703
-0.0018917081 0.066209823 0.68917024
-0.001524034 0.051817149 0.64478809
-0.00150981 0.049823761 0.64307106
-0.0015186635 0.048597276 0.64413977
-0.0015276166 0.047356129 0.64522052
-0.0015366807 0.046100438 0.64631468
-0.0015458481 0.044829607 0.6474213
-0.0015551306 0.043543667 0.64854181
-0.0015645202 0.04224205 0.64967519
-0.0015740637 0.040925652 0.65082717
-0.0015838294 0.039595723 0.65200603
-0.001593722 0.038249344 0.65320015
-0.0016037392 0.036886007 0.65440941
-0.0016138778 0.035505325 0.65563321
-0.0016241507 0.034107178 0.65687323
-0.0016345553 0.032691121 0.65812922
-0.001645094 0.031256825 0.6594013
-0.0016557639 0.029803723 0.66068929
-0.0016665789 0.028331876 0.66199476
-0.0016776314 0.026842117 0.66332895
-0.001688906 0.025333613 0.66468984
-0.0017003269 0.023804605 0.66606855
-0.0017119095 0.022254854 0.66746664
-0.0017236451 0.020683765 0.66888332
-0.0017355486 0.01909104 0.67032009
-0.0017476114 0.017476112 0.67177629
-0.0017598495 0.015838683 0.67325354
-0.0017722539 0.014178008 0.67475086
-0.0017850188 0.01249519 0.67629176
-0.0017979821 0.010787934 0.6778565
-0.0018111351 0.0090557039 0.67944425
-0.0018244819 0.0072979629 0.68105531
-0.0018380267 0.0055140555 0.68269038
-0.0018517744 0.0037035644 0.68434983
-0.001865736 0.0018657744 0.68603516
-0.0018798957 5.9604645e-08 0.68774438
-0.0018941644 -0.0018941164 0.68946677
-0.0019084986 -0.0038169622 0.6911971
-0.0019226373 -0.0057678819 0.69290376
-0.0019367624 -0.0077470243 0.69460881
-0.0019505717 -0.0097528398 0.69627571
-0.0019642015 -0.011785179 0.69792104
-0.0019773508 -0.01384142 0.69950825
-0.0019896955 -0.01591754 0.70099843
-0.0020020274 -0.018018216 0.70248699
-0.0020147483 -0.020147443 0.70402253
-0.0020276401 -0.022304028 0.70557868
-0.0020424055 -0.024508864 0.7073611
-0.0020573961 -0.026746124 0.70917058
-0.0020725997 -0.029016376 0.71100581
-0.0020891631 -0.03133741 0.71300513
-0.0021061795 -0.033698857 0.71505928
-0.0021234662 -0.036098927 0.71714598
-0.0021416533 -0.038549751 0.71934128
-0.0021607794 -0.041054785 0.72165
-0.0021802504 -0.04360497 0.72400039
-0.0022003173 -0.046206623 0.72642267
-0.0022783244 -0.050123125 0.73583901
-0.0023010187 -0.052923411 0.73857844
-0.0023241693 -0.055780023 0.741373
-0.0023481653 -0.058704138 0.74426955
-0.0023726956 -0.061690062 0.74723065
-0.0023977554 -0.064739406 0.75025558
-0.0024235027 -0.06785807 0.75336355
-0.0024500969 -0.071052819 0.7565738
-0.0024772936 -0.074318767 0.7598567
-0.002505176 -0.077660441 0.76322246
0 0.08015117 0.67582309
0 0.078857929 0.67716157
0 0.077545375 0.67850816
0 0.07621637 0.67987162
0 0.074870408 0.68125141
0 0.073507607 0.68264961
0 0.072127372 0.68406558
0 0.070726544 0.68549067
0 0.069290876 0.68687892
0 0.067816168 0.68821341
0 0.066300064 0.6894815
0 0.064709038 0.69055825
0 0.049765468 0.64285791
0 0.048425138 0.64349055
0 0.04719159 0.64457983
0 0.045943409 0.64568281
0 0.044680119 0.64679903
0 0.04340139 0.6479283
0 0.042107105 0.64907193
0 0.040796936 0.65022957
0 0.039470434 0.65140092
0 0.038129956 0.65259969
0 0.036773682 0.6538198
0 0.035399973 0.65505499
0 0.034008592 0.65630662
0 0.032599092 0.65757388
0 0.031171352 0.6588583
0 0.029724717 0.66015893
0 0.028258979 0.66147751
0 0.026773721 0.66281283
0 0.025269926 0.66417718
0 0.023746848 0.66557038
0 0.02220273 0.66698277
0 0.020637184 0.66841489
0 0.019049734 0.66986692
0 0.017439961 0.67133957
0 0.01580739 0.67283374
0 0.014151365 0.67434853
0 0.012471497 0.67588359
0 0.010766536 0.6774261
0 0.0090364516 0.67897993
0 0.0072797835 0.68050659
0 0.0054978132 0.68203622
0 0.003690064 0.68353385
0 0.0018572807 0.68501365
0 2.9802322e-08 0.68644655
0 -0.0018804967 0.68781948
0 -0.00378263 0.68912542
0 -0.0057080388 0.69049531
0 -0.0076566637 0.69188184
0 -0.0096330047 0.69338274
0 -0.011639625 0.69499224
0 -0.01367411 0.69662321
0 -0.015739143 0.69830692
0 -0.017842233 0.70012677
0 -0.019977868 0.70197558
0 -0.022146791 0.70385325
0 -0.024358392 0.70584774
0 -0.026611447 0.70791984
0 -0.028903008 0.71002823
0 -0.031236887 0.71219593
0 -0.03362751 0.71452105
0 -0.036062777 0.7168895
0 -0.038543969 0.71930254
0 -0.041099876 0.72193652
0 -0.043709159 0.72462922
0 -0.046384096 0.72744274
0 -0.050257683 0.73657733
0 -0.053082138 0.73941118
0 -0.055969834 0.74232751
0 -0.058918983 0.74530697
0 -0.061933249 0.74835956
0 -0.065022618 0.75152183
0 -0.068181008 0.75475597
0 -0.071416825 0.75808907
0 -0.074737668 0.76154208
0 -0.078136921 0.76507783
0.0017971427 0.082668573 0.67775524
0.0017854266 0.0803442 0.67634094
0.0017950537 0.078982383 0.67750311
0.0018039199 0.077568561 0.67857331
0.0018108337 0.07605505 0.67940784
0.0018181836 0.074545592 0.68029505
0.0018263264 0.073053092 0.68127799
0.0018353636 0.071579188 0.68236887
0.0018445654 0.070093483 0.68347967
0.0018542034 0.068605542 0.68464309
0.0018639637 0.0671027 0.68582118
0.0018741781 0.065596253 0.68705416
0.0018851013 0.064093471 0.68837273
0.0015106761 0.049852312 0.6431756
0.0015088085 0.048281908 0.64295018
0.0015179171 0.047055423 0.6440497
0.0015271411 0.045814246 0.64516312
0.0015364732 0.04455775 0.64628959
0.0015459246 0.043285906 0.64743054
0.0015554883 0.041998208 0.64858496
0.0015651759 0.040694594 0.64975441
0.0015749803 0.03937453 0.6509378
0.001584913 0.038037926 0.6521368
0.001594982 0.036684573 0.65335226
0.001605324 0.035317153 0.65460068
0.001615801 0.033931851 0.65586531
0.0016264155 0.032528341 0.65714669
0.0016371707 0.031106263 0.65844488
0.0016480688 0.029665262 0.65976036
0.001659113 0.028204918 0.66109359
0.0016703119 0.026724994 0.66244543
0.0016816573 0.025224864 0.6638149
0.0016931349 0.023703903 0.66520035
0.0017046427 0.022160411 0.66658944
0.0017162726 0.020595312 0.66799331
0.0017276445 0.019004136 0.669366
0.0017390653 0.017390698 0.67074466
0.0017502891 0.015752614 0.67209947
0.0017613363 0.014090717 0.67343301
0.0017721471 0.012405038 0.67473799
0.0017825072 0.01069507 0.67598855
0.0017922503 0.0089612603 0.67716467
0.0018024318 0.0072097778 0.6783936
0.0018127362 0.0054382086 0.67963755
0.001823232 0.003646493 0.68090439
0.0018351685 0.0018351972 0.68234533
0.0018472554 -0 0.68380427
0.0018595026 -0.0018595159 0.68528277
0.0018725018 -0.0037449896 0.68685186
0.0018861601 -0.0056584477 0.68850058
0.0019000192 -0.0076000392 0.69017351
0.0019140836 -0.00957039 0.69187123
0.0019291681 -0.011574984 0.69369209
0.0019446661 -0.013612658 0.69556284
0.0019604228 -0.015683353 0.69746482
0.0019765773 -0.017789185 0.69941485
0.0019939218 -0.019939214 0.70150858
0.0020115813 -0.02212739 0.70364028
0.0020295482 -0.024354577 0.705809
0.0020488703 -0.026635289 0.70814145
0.0020688719 -0.028964192 0.71055579
0.0020892678 -0.03133902 0.71301782
0.002111851 -0.033789575 0.71574384
0.0021351192 -0.036297023 0.71855259
0.0021613115 -0.038903594 0.72171426
0.0021908276 -0.041625708 0.72527719
0.0022306673 -0.044613361 0.73008627
0.0022704571 -0.047679573 0.73488933
0.0022942557 -0.050473601 0.73776203
0.0023185583 -0.053326845 0.74069571
0.0023438095 -0.056251377 0.74374372
0.0023696166 -0.059240431 0.74685895
0.0023961018 -0.062298626 0.75005597
0.0024235614 -0.065436184 0.75337064
0.0024518978 -0.068653107 0.75679117
0.0024809418 -0.071947277 0.76029706
0.0025112994 -0.07533896 0.76396155
0.0036017883 0.082841158 0.67820811
0.0035498894 0.079872489 0.67507565
0.0035529896 0.078165799 0.67526275
0.0035717327 0.0767923 0.67639405
0.0035915764 0.075423151 0.67759168
0.0036125937 0.074058145 0.67886025
0.0036345976 0.072691977 0.68018824
0.0036574188 0.071319699 0.68156564
0.0036807724 0.069934666 0.68297517
0.0037044261 0.068531901 0.68440276
0.0037282747 0.067108959 0.68584216
0.0037523615 0.065666378 0.68729591
0.0037767764 0.064205229 0.68876958
0.0030266433 0.049939603 0.64349496
0.00301069 0.048171073 0.64253211
0.0030288326 0.046946913 0.64362711
0.0030473808 0.045710772 0.64474654
0.0030662515 0.044460684 0.64588553
0.0030853576 0.043195009 0.6470387
0.003104703 0.041913509 0.64820629
0.0031242929 0.040615857 0.64938861
0.003144131 0.039301664 0.65058601
0.0031642332 0.037970841 0.65179926
0.003184584 0.036622733 0.65302753
0.0032051976 0.03525719 0.65427172
0.0032259764 0.033872783 0.6555258
0.0032468578 0.032468617 0.65678608
0.003267979 0.031045794 0.65806091
0.0032885335 0.029596865 0.65930146
0.0033092175 0.028128356 0.66054982
0.0033296421 0.026637167 0.66178256
0.0033496253 0.025122166 0.66298866
0.0033694296 0.023586065 0.66418397
0.0033884025 0.022024661 0.6653291
0.0034063493 0.020438105 0.66641223
0.0034244284 0.018834352 0.66750348
0.0034430204 0.017215103 0.66862553
0.003461815 0.015578181 0.66975993
0.0034822577 0.013929039 0.67099375
0.0035040225 0.012264103 0.67230737
0.003526049 0.010578156 0.67363679
0.0035483663 0.0088708997 0.67498374
0.0035726889 0.0071454346 0.67645174
0.0035975415 0.0053963661 0.67795175
0.0036227421 0.0036227703 0.67947274
0.0036482986 0.0018242002 0.68101513
0.0036759726 2.9802322e-08 0.68268543
0.0037040969 -0.0018520057 0.68438292
0.0037326552 -0.0037326217 0.68610656
0.0037618831 -0.0056428015 0.68787062
0.0037932976 -0.0075865686 0.68976665
0.0038252261 -0.0095630586 0.69169372
0.0038576967 -0.011573076 0.69365346
0.0038921156 -0.013622373 0.69573087
0.0039281868 -0.015712708 0.69790798
0.0039649331 -0.017842174 0.70012575
0.0040043751 -0.020021886 0.7025063
0.0040461803 -0.02225396 0.70502949
0.0040902537 -0.024541497 0.70768958
0.0041404488 -0.026912928 0.71071911
0.0042031589 -0.029422104 0.714504
0.0042707119 -0.032030284 0.7185812
0.0043230713 -0.034584582 0.72174132
0.0043706326 -0.037150353 0.72461188
0.0044165021 -0.03974849 0.72738034
0.0044623888 -0.042392701 0.73014987
0.0045187487 -0.045187443 0.7335515
0.0045667337 -0.047950715 0.73644769
0.0046168566 -0.050785363 0.73947287
0.0046681138 -0.053683311 0.74256653
0.0047206776 -0.056648135 0.74573898
0.0047756238 -0.059695244 0.74905533
0.0048320969 -0.062817246 0.75246376
0.0048903283 -0.066019446 0.75597835
0.004951376 -0.069319248 0.75966287
0.0050140428 -0.0727036 0.76344514
0.0050802235 -0.076203316 0.76743948
0.0054395678 0.083406776 0.67969221
0.005335812 0.080037177 0.67551744
0.0053306012 0.078182161 0.67530775
0.0053634183 0.076875687 0.67662823
0.0053966613 0.075553268 0.67796582
0.0054301624 0.074212223 0.67931378
0.0054640016 0.072853357 0.68067533
0.0054982454 0.071477205 0.68205321
0.0055333902 0.070089608 0.68346733
0.0055692354 0.06868726 0.68490964
0.0056055691 0.067266852 0.68637156
0.0056423796 0.065827787 0.68785274
0.0056810095 0.064384758 0.68940705
0.0057210219 0.062931269 0.69101703
0.0045083035 0.04808858 0.64222097
0.0045358357 0.046870321 0.64332885
0.0045637055 0.045637101 0.64445025
0.0045919204 0.044388562 0.64558554
0.0046202443 0.043122351 0.64672518
0.0046487902 0.041839153 0.64787376
0.004677691 0.04054001 0.64903671
0.0047056996 0.039214194 0.65016359
0.0047339108 0.037871301 0.65129876
0.0047619184 0.036508083 0.65242577
0.0047891596 0.035120517 0.65352178
0.004816513 0.033715636 0.65462238
0.0048426958 0.032284647 0.65567595
0.0048676017 0.030828148 0.65667808
0.0048917765 0.029350668 0.65765083
0.0049170624 0.027863383 0.65866816
0.0049426109 0.026360661 0.65969622
0.0049687885 0.024843961 0.6607495
0.0049983216 0.023325533 0.66193783
0.005028191 0.021788865 0.6631397
0.0050584199 0.020233691 0.66435599
0.0050896867 0.018662214 0.66561407
0.0051233009 0.017077684 0.66696656
0.0051573617 0.015472084 0.66833711
0.0051918784 0.013845026 0.66972595
0.0052271881 0.012196809 0.67114669
0.0052651046 0.010530233 0.67267239
0.0053035556 0.0088392794 0.67421949
0.0053425729 0.0071234405 0.67578948
0.0053824191 0.0053824186 0.67739272
0.0054252553 0.0036168396 0.67911637
0.0054687792 0.0018229485 0.68086761
0.0055130068 -0 0.68264717
0.0055592111 -0.0018530488 0.6845063
0.0056082495 -0.0037388206 0.68647945
0.0056581604 -0.0056581497 0.68848765
0.0057100537 -0.0076133907 0.69057572
0.0057666712 -0.0096111 0.69285387
0.0058244453 -0.011648864 0.69517851
0.0058901762 -0.013743728 0.69782335
0.0059615956 -0.015897572 0.700697
0.0060596657 -0.01817897 0.70464301
0.0061404505 -0.020468146 0.70789355
0.006209543 -0.022768319 0.71067357
0.0062735663 -0.025094271 0.71324968
0.0063359272 -0.027455658 0.71575892
0.0063988585 -0.029861331 0.7182911
0.0064630797 -0.032315403 0.72087514
0.0065286043 -0.034819186 0.72351164
0.00659663 -0.037380874 0.72624874
0.0066665611 -0.039999366 0.72906262
0.0067379614 -0.042673767 0.73193556
0.0068278229 -0.045518816 0.73555124
0.0069045797 -0.048332036 0.73863977
0.0069835372 -0.051212579 0.7418167
0.0070663495 -0.054175347 0.74514884
0.0071512517 -0.057209969 0.74856508
0.0072401743 -0.060334772 0.75214303
0.0073324107 -0.063547581 0.75585437
0.0074289385 -0.066860408 0.75973833
0.0075300056 -0.070280075 0.76380497
0.0076369676 -0.073823959 0.76810873
0.007236368 0.083218247 0.67919761
0.0071290885 0.080202252 0.67596018
0.0071231262 0.078354388 0.6757803
0.0071676923 0.077052683 0.67712516
0.0072128968 0.07573545 0.67848933
0.0072612562 0.074427933 0.67994869
0.0073102959 0.073102951 0.68142861
0.0073599746 0.07175979 0.68292779
0.0074124741 0.070418477 0.68451214
0.0074677337 0.069076538 0.68617976
0.0075238231 0.067714453 0.68787229
0.0075804451 0.066328913 0.68958104
0.0076378975 0.064922154 0.69131482
0.0076919091 0.063458294 0.69294482
0.0060006189 0.048004985 0.64190561
0.0060324869 0.046751767 0.64286733
0.0060667726 0.045500815 0.64390194
0.0060999254 0.044224471 0.64490247
0.0061334432 0.04293412 0.6459139
0.0061655631 0.041617602 0.64688325
0.006196449 0.040276915 0.64781529
0.0062256111 0.038910091 0.64869535
0.0062563205 0.037537932 0.64962208
0.006287334 0.036152214 0.65055799
0.0063186563 0.034752607 0.65150321
0.0063529131 0.033352822 0.65253699
0.0063891131 0.031945586 0.65362942
0.0064257081 0.030522138 0.65473378
0.0064627444 0.029082358 0.65585154
0.0065021114 0.027634025 0.65703952
0.0065432442 0.026172996 0.65828079
0.0065849004 0.02469337 0.65953785
0.0066270689 0.02319476 0.66081047
0.0066706925 0.021679789 0.6621269
0.0067169899 0.020150989 0.66352403
0.0067639113 0.018600792 0.66494
0.0068114931 0.017028749 0.66637588
0.0068599605 0.015434921 0.66783857
0.0069121285 0.013824284 0.66941285
0.0069651213 0.012188971 0.67101204
0.0070189079 0.010528356 0.6726352
0.0070742569 0.0088427961 0.6743055
0.0071337898 0.0071337819 0.67610204
0.0071943328 0.0053957999 0.6779291
0.0072559128 0.0036279857 0.6797874
0.0073237782 0.0018309355 0.68183547
0.0073936349 2.9802322e-08 0.68394351
0.0074681514 -0.0018670261 0.68619227
0.0075517287 -0.0037758648 0.6887145
0.0076539922 -0.0057404339 0.69180053
0.0077706608 -0.0077706277 0.69532132
0.0078596743 -0.0098246038 0.69800764
0.0079416661 -0.011912495 0.70048189
0.0080191148 -0.014033437 0.70281911
0.0080949785 -0.016189933 0.70510846
0.0081719905 -0.01838696 0.70743251
0.0082505159 -0.020626247 0.70980227
0.0083305649 -0.022909045 0.71221793
0.008413774 -0.025241315 0.71472901
0.0084990226 -0.027621806 0.71730161
0.0085860537 -0.030051172 0.71992803
0.0086760521 -0.032535166 0.72264397
0.0087692235 -0.035076886 0.72545564
0.0088644186 -0.037673771 0.72832841
0.0089633483 -0.040335029 0.73131394
0.0090659074 -0.043063045 0.73440886
0.0091949832 -0.04597488 0.73830408
0.0093064029 -0.048858613 0.74166656
0.0094212228 -0.051816702 0.74513143
0.0095430501 -0.054872543 0.74880791
0.0096689565 -0.058013737 0.75260746
0.0098034116 -0.06127128 0.75666505
0.0099453656 -0.064644843 0.7609489
0.010096225 -0.068149537 0.7655015
0.010261877 -0.071833134 0.77050048
0.0090611205 0.083362311 0.67957568
0.0089297779 0.080368012 0.67640477
0.0089549329 0.07880342 0.67701209
0.0090194363 0.07756719 0.67856938
0.0090844808 0.076309711 0.68013966
0.0091504361 0.075033605 0.68173194
0.0092120962 0.073696792 0.68322057
0.009274317 0.072339714 0.68472272
0.0093357116 0.070951462 0.68620491
0.0093955956 0.069527447 0.68765068
0.0094562527 0.068085015 0.68911505
0.0095155258 0.066608667 0.69054604
0.009574227 0.065104783 0.6919632
0.0076066158 0.050203681 0.64446086
0.0075138174 0.048088431 0.6422205
0.0074784639 0.046366483 0.64136702
0.0075139073 0.045083463 0.6422227
0.0075496878 0.043788195 0.64308655
0.0075865472 0.042484671 0.64397639
0.0076278364 0.041190326 0.64497316
0.0076695536 0.039881706 0.6459803
0.0077117295 0.038558662 0.64699852
0.0077543962 0.037221134 0.64802861
0.0078009898 0.035884559 0.64915347
0.0078483438 0.034532756 0.65029669
0.0078962762 0.033164382 0.65145385
0.0079447981 0.03177923 0.65262532
0.0079954779 0.030382842 0.65384883
0.0080486471 0.028975129 0.65513241
0.0081025539 0.02754873 0.65643382
0.0081571611 0.02610296 0.65775222
0.0082126437 0.024637967 0.65909165
0.008272442 0.023162872 0.66053534
0.0083331447 0.021666199 0.66200078
0.0083947154 0.020147324 0.66348732
0.0084572034 0.018605858 0.66499585
0.0085251881 0.017050385 0.66663712
0.0085943332 0.015469819 0.66830647
0.0086646089 0.013863385 0.67000306
0.0087397061 0.012235641 0.67181605
0.0088192541 0.010583103 0.67373657
0.0089002326 0.0089002848 0.67569149
0.0089933686 0.0071946979 0.67794001
0.0090910168 0.0054545999 0.68029749
0.0092261601 0.003690511 0.68356013
0.0093477461 0.0018695593 0.68649548
0.0094465762 -0 0.6888814
0.0095371455 -0.0019073784 0.69106793
0.0096256891 -0.0038502514 0.6932056
0.0097129494 -0.0058277547 0.69531226
0.0098016141 -0.007841289 0.69745284
0.0098919524 -0.009891957 0.69963378
0.0099839717 -0.011980712 0.70185524
0.010079749 -0.014111608 0.7041676
0.010177587 -0.016284138 0.70652962
0.010277346 -0.018499196 0.708938
0.010380327 -0.020760626 0.71142411
0.010486975 -0.023071319 0.71399879
0.010595837 -0.025429964 0.716627
0.01070822 -0.02784133 0.71934021
0.010825215 -0.030310601 0.72216475
0.010944841 -0.0328345 0.72505271
0.011069885 -0.035423607 0.72807151
0.01119942 -0.03807798 0.73119879
0.011333412 -0.040800244 0.73443365
0.01150795 -0.043730229 0.7386474
0.011658049 -0.046632141 0.74227107
0.011814401 -0.049620479 0.74604577
0.011983322 -0.052726597 0.75012392
0.012162935 -0.055949479 0.7544601
0.012358505 -0.059320807 0.75918162
0.012578783 -0.062893897 0.7644996
0.012843809 -0.066787779 0.77089787
0.010746804 0.080601037 0.67702991
0.010812916 0.079294771 0.67835999
0.010879845 0.077972233 0.67970645
0.010945854 0.076620996 0.68103445
0.011010567 0.075238883 0.68233639
0.011076049 0.07384035 0.68365383
0.011141116 0.072417229 0.68496287
0.011205697 0.070969433 0.68626213
0.011271074 0.069504976 0.68757743
0.011337175 0.068023056 0.68890727
0.011404057 0.066523671 0.69025278
0.011471732 0.065006495 0.69161433
0.0091440361 0.050292224 0.64478469
0.0090322867 0.048172176 0.64253652
0.0089232894 0.046103716 0.64034367
0.0089476239 0.044738144 0.64083314
0.0089995246 0.043497741 0.64187735
0.0090520317 0.042242825 0.64293373
0.0091051543 0.040973216 0.6440025
0.0091589047 0.039688617 0.64508384
0.0092156129 0.038398415 0.64622468
0.0092744585 0.037097842 0.64740866
0.0093340911 0.035780668 0.64860833
0.009394465 0.034446388 0.64982289
0.0094556557 0.033094823 0.65105402
0.0095217228 0.031739116 0.65238315
0.0095886895 0.030364215 0.65373045
0.009656637 0.028969914 0.65509742
0.0097255213 0.027555674 0.65648329
0.0097994246 0.026131839 0.65797007
0.0098755322 0.02468884 0.65950125
0.0099528302 0.023223311 0.6610564
0.010032823 0.021737814 0.66266572
0.010120147 0.020240277 0.66442257
0.01020897 0.018716455 0.66620952
0.010304846 0.01717478 0.66813838
0.010410872 0.015616328 0.67027146
0.01053786 0.014050514 0.67282629
0.010687619 0.012468904 0.67583919
0.010806144 0.010806173 0.67822373
0.010913861 0.0090948939 0.68039083
0.011011818 0.0073412359 0.6823616
0.011109536 0.0055547953 0.68432748
0.011206158 0.0037353933 0.68627143
0.011304474 0.0018841028 0.68824935
0.011404576 5.9604645e-08 0.69026327
0.011506466 -0.0019177198 0.69231313
0.011612619 -0.0038708746 0.69444877
0.011720838 -0.0058604181 0.69662601
0.011831049 -0.0078873038 0.69884324
0.011944538 -0.0099537671 0.70112646
0.012062165 -0.012062132 0.703493
0.012182131 -0.014212489 0.70590645
0.012305113 -0.016406804 0.70838064
0.012433847 -0.0186508 0.71097064
0.012565302 -0.020942152 0.7136153
0.012701125 -0.023285389 0.71634787
0.012843157 -0.025686294 0.71920526
0.012988347 -0.028141379 0.72212625
0.013142088 -0.030664861 0.72521931
0.013300397 -0.033250958 0.72840422
0.013468064 -0.035914838 0.73177743
0.013642551 -0.03865388 0.73528785
0.013879642 -0.041638881 0.74005771
0.014085818 -0.044605076 0.74420571
0.014310276 -0.047700912 0.74872142
0.014564437 -0.050975531 0.75383478
0.014874293 -0.054539055 0.76006866
0.012553621 0.080701917 0.67730033
0.012612615 0.079279363 0.67831767
0.012683546 0.077913225 0.67954081
0.01275528 0.076531708 0.68077785
0.01282783 0.075134426 0.68202889
0.01290121 0.07372123 0.6832943
0.012974377 0.072285861 0.68455601
0.013048135 0.070832759 0.68582797
0.013122687 0.069362789 0.68711352
0.013198147 0.06787619 0.68841481
0.013274428 0.066372156 0.68973017
0.013351545 0.06485039 0.69106007
0.010686922 0.050381273 0.64511025
0.010686725 0.048853636 0.64510691
0.010428451 0.046183169 0.64065313
0.010406545 0.044599503 0.64027536
0.010470851 0.043379247 0.64138424
0.010535988 0.042143941 0.64250749
0.010601909 0.040893078 0.64364427
0.010672984 0.039642543 0.64486992
0.010745083 0.038375288 0.64611322
0.010818197 0.037090957 0.64737403
0.010892279 0.035788924 0.64865154
0.010970646 0.034479201 0.65000296
0.01105238 0.03315714 0.65141237
0.011135342 0.03181529 0.652843
0.011219558 0.030453116 0.65429521
0.011311994 0.02908802 0.65588927
0.011407083 0.027702928 0.657529
0.011503819 0.02629444 0.65919721
0.011616219 0.024891943 0.66113538
0.011731621 0.023463279 0.6631254
0.0118894 0.022080332 0.66584629
0.012043734 0.020646423 0.66850764
0.012161369 0.019110769 0.67053616
0.012273491 0.017533571 0.67246968
0.012378987 0.015915871 0.67428887
0.012483953 0.014267415 0.67609894
0.012588499 0.012588531 0.67790174
0.01269481 0.010881305 0.67973506
0.012802978 0.0091449916 0.68160039
0.012913149 0.0073789656 0.68350017
0.013027799 0.0055833757 0.68547726
0.013144503 0.0037555695 0.68748975
0.013263268 0.0018947721 0.68953776
0.013385273 2.9802322e-08 0.69164163
0.013511835 -0.0019302368 0.69382417
0.01364076 -0.0038973391 0.69604743
0.013772225 -0.0059024096 0.69831443
0.013910335 -0.0079487264 0.70069605
0.014051242 -0.010036588 0.70312589
0.014195263 -0.012167335 0.7056095
0.014347263 -0.014347255 0.70823056
0.014502492 -0.016574234 0.7109074
0.014664061 -0.018853813 0.71369362
0.014832978 -0.021189928 0.71660644
0.015007439 -0.023583055 0.71961492
0.01519297 -0.026045084 0.72281432
0.01538605 -0.028574079 0.72614384
0.015592497 -0.031184971 0.7297039
0.015813978 -0.033887088 0.73352325
0.01605309 -0.036692739 0.73764652
0.016417818 -0.039871812 0.74393606
0.016780589 -0.043150067 0.75019175
0.014376883 0.080869973 0.6777513
0.014386907 0.079127997 0.67790258
0.014466198 0.077755839 0.67909896
0.014546367 0.076368421 0.68030864
0.014627484 0.074965894 0.68153256
0.014709239 0.073546201 0.6827662
0.014790165 0.07210207 0.68398726
0.014872317 0.070643514 0.68522686
0.014955332 0.069168419 0.68647945
0.015039279 0.067676783 0.68774611
0.015124231 0.066168487 0.68902791
0.015210089 0.064642936 0.69032347
0.012235203 0.050470233 0.64543587
0.012200186 0.048800737 0.64490747
0.011938812 0.04626292 0.64096367
0.011890933 0.04459101 0.64024127
0.011969228 0.043388486 0.64142263
0.012050881 0.042178094 0.64265466
0.01213715 0.040962905 0.64395636
0.012224666 0.039730191 0.64527684
0.012313451 0.038479567 0.64661652
0.012407918 0.037223816 0.64804196
0.012508027 0.035960585 0.64955246
0.012609765 0.03467688 0.65108758
0.012720806 0.033392131 0.65276301
0.01284185 0.032104671 0.65458941
0.012983892 0.030836731 0.65673268
0.013153875 0.029596239 0.65929759
0.013298657 0.028259695 0.66148216
0.013423888 0.02684778 0.66337174
0.013537796 0.025383383 0.66509044
0.013650069 0.023887664 0.66678452
0.013760765 0.022361279 0.66845483
0.013871878 0.020807832 0.67013139
0.013984799 0.019229114 0.67183524
0.014099624 0.017624527 0.67356777
0.014216755 0.015993863 0.67533517
0.014338311 0.014338315 0.67716932
0.014461912 0.012654185 0.67903429
0.014587716 0.01094082 0.68093252
0.01471654 0.0091978312 0.68287635
0.014850358 0.007425189 0.68489552
0.014986631 0.0056200027 0.68695176
0.01512543 0.0037813485 0.68904603
0.015270259 0.0019088089 0.69123137
0.01541884 -0 0.69347322
0.015570279 -0.0019463003 0.69575828
0.0157288 -0.0039322078 0.69815016
0.015891971 -0.0059594214 0.70061225
0.01605895 -0.0080294609 0.70313179
0.016236056 -0.010147512 0.70580411
0.016417112 -0.012312829 0.70853603
0.016608659 -0.014532566 0.7114262
0.016807411 -0.016807377 0.71442509
0.017019222 -0.019146591 0.71762109
0.017240075 -0.021550089 0.72095358
0.017483065 -0.024039179 0.72461998
0.017746208 -0.026619315 0.72859049
0.018041918 -0.029318094 0.73305237
0.018398756 -0.032197773 0.7384367
0.016207699 0.081038505 0.67820334
0.016143495 0.078923762 0.6773423
0.016230481 0.077545613 0.67850894
0.016318349 0.076152325 0.67968744
0.016407175 0.074743837 0.68087876
0.016496731 0.073318809 0.68208003
0.016586414 0.07187447 0.68328285
0.016676707 0.070412815 0.6844939
0.016773736 0.0689587 0.68579525
0.016908897 0.067635596 0.68760806
0.017046252 0.066291004 0.68945038
0.017185794 0.064924121 0.69132191
0.013789048 0.050559849 0.64576375
0.013619688 0.048425555 0.64349222
0.013454438 0.046343058 0.64127582
0.013419116 0.044730395 0.64080209
0.013523164 0.043574661 0.64219761
0.01362884 0.042400837 0.64361495
0.013736765 0.041210294 0.64506251
0.013862184 0.040046304 0.64674461
0.013989914 0.038860917 0.64845777
0.014161404 0.037763774 0.65075785
0.014337059 0.036639154 0.65311384
0.014471363 0.035374492 0.65491515
0.014600769 0.034068435 0.65665078
0.014716863 0.032704145 0.65820783
0.014834769 0.03131786 0.65978926
0.014950013 0.029900074 0.66133487
0.015066556 0.028459102 0.662898
0.01518493 0.02699548 0.66448569
0.01530518 0.025508672 0.66609854
0.01542809 0.023999244 0.66774702
0.015555299 0.022468776 0.6694532
0.015684623 0.020912856 0.67118776
0.015816117 0.019330829 0.67295134
0.015950454 0.017722756 0.67475319
0.016090142 0.016090125 0.67662668
0.016232293 0.014428765 0.67853326
0.016376983 0.012737691 0.68047386
0.016527003 0.011018038 0.682486
0.016681587 0.0092675686 0.68455935
0.016839156 0.0074841082 0.68667269
0.017002169 0.0056673884 0.68885905
0.017171575 0.0038159192 0.69113117
0.017344456 0.001927197 0.69344997
0.017525425 -0 0.69587719
0.017712858 -0.001968056 0.69839102
0.017906407 -0.0039792061 0.70098698
0.018111659 -0.0060372055 0.70373988
0.018323237 -0.0081436336 0.7065776
0.018550737 -0.010305941 0.70962888
0.018789837 -0.012526542 0.71283579
0.019046612 -0.014813989 0.71627975
0.019331973 -0.017183959 0.72010708
