# .PCD v0.7 - Point Cloud Data file format
VERSION 0.7
FIELDS x y z
SIZE 4 4 4
TYPE F F F
COUNT 1 1 1
WIDTH 1319
HEIGHT 1
VIEWPOINT 0 0 0 1 0 0 0
POINTS 1319
DATA ascii
-0.087102398 0.022281975 0.70533693
-0.086135082 0.020031393 0.70262146
-0.085421719 0.01787895 0.70061886
-0.084863089 0.015788466 0.69905066
-0.084430501 0.013744473 0.69783628
-0.084082395 0.011732399 0.69685912
-0.083814785 0.0097458959 0.69610792
-0.083616093 0.0077781975 0.69555008
-0.083476268 0.0058238804 0.69515759
-0.083391502 0.0038786829 0.69491959
-0.083360158 0.0019386113 0.69483161
-0.083387293 -0 0.69490778
-0.083468169 -0.0019411445 0.69513488
-0.083603419 -0.0038885474 0.69551456
-0.083797485 -0.0058463514 0.69605929
-0.084059395 -0.0078195035 0.69679457
-0.084399693 -0.0098139644 0.69774985
-0.084822945 -0.011835784 0.69893801
-0.08536952 -0.013897389 0.70047235
-0.086062044 -0.016011566 0.70241642
-0.086993575 -0.018207997 0.70503139
-0.088394977 -0.020556986 0.70896542
-0.086542659 0.024726421 0.70955002
-0.085076757 0.022281975 0.70533693
-0.084131941 0.020031393 0.70262146
-0.083434835 0.01787889 0.70061797
-0.082889535 0.015788466 0.69905066
-0.082466997 0.013744473 0.69783628
-0.08212731 0.011732429 0.69686007
-0.081865609 0.0097458959 0.69610792
-0.081671216 0.0077781975 0.69554919
-0.081534959 0.0058238804 0.69515759
-0.081452161 0.0038786829 0.69491959
-0.081421554 0.0019386113 0.69483161
-0.081448056 -0 0.69490778
-0.081526734 -0.0019411147 0.69513392
-0.081659153 -0.0038885474 0.69551456
-0.081848711 -0.0058463514 0.69605929
-0.082104526 -0.0078195035 0.69679457
-0.082436591 -0.0098139048 0.6977489
-0.082850643 -0.011835814 0.69893891
-0.083384186 -0.013897389 0.70047235
-0.084060259 -0.016011477 0.70241547
-0.084970124 -0.018207937 0.70503044
-0.08633928 -0.020556986 0.70896542
-0.084481768 0.024726361 0.70954901
-0.083051123 0.022281975 0.70533693
-0.0821288 0.020031393 0.70262146
-0.081448287 0.01787889 0.70061797
-0.080915965 0.015788466 0.69905066
-0.080503181 0.013744414 0.69783539
-0.080171898 0.011732429 0.69686007
-0.079916112 0.0097458363 0.69610697
-0.079726659 0.0077781975 0.69554919
-0.079593651 0.0058238804 0.69515759
-0.079512827 0.0038786829 0.69491959
-0.079482943 0.0019386113 0.69483161
-0.079508819 -0 0.69490778
-0.079585627 -0.0019411147 0.69513392
-0.079714887 -0.0038885474 0.69551456
-0.079899929 -0.0058463514 0.69605929
-0.080149353 -0.0078194737 0.69679368
-0.080473818 -0.0098139048 0.6977489
-0.080878325 -0.011835843 0.69893986
-0.081398845 -0.013897389 0.70047235
-0.082058832 -0.016011477 0.70241547
-0.082946688 -0.018207848 0.70502943
-0.084283575 -0.020556986 0.70896542
-0.082420893 0.024726272 0.709548
-0.081025489 0.022281975 0.70533693
-0.08012566 0.020031393 0.70262146
-0.079461746 0.01787889 0.70061797
-0.078942098 0.015788406 0.69904977
-0.078539692 0.013744414 0.69783539
-0.078216799 0.011732489 0.69686091
-0.077966943 0.0097458363 0.69610697
-0.077781804 0.0077781975 0.6955483
-0.077652037 0.0058238804 0.69515669
-0.077573493 0.0038786829 0.69491959
-0.077544034 0.0019385815 0.69483072
-0.077569582 -0 0.69490778
-0.077644512 -0.0019411147 0.69513392
-0.077770323 -0.0038885474 0.69551361
-0.077951454 -0.0058463812 0.69606024
-0.078194484 -0.0078194737 0.69679368
-0.078510731 -0.0098138452 0.69774801
-0.078905992 -0.011835933 0.69894081
-0.079413503 -0.013897389 0.70047235
-0.08005739 -0.016011477 0.70241547
-0.080922946 -0.018207669 0.70502752
-0.082227886 -0.020556986 0.70896542
-0.080360375 0.024726272 0.709548
-0.078999855 0.022281975 0.70533693
-0.078122519 0.020031393 0.70262146
-0.077475205 0.01787889 0.70061797
-0.076968543 0.015788406 0.69904977
-0.076575898 0.013744384 0.69783449
-0.076261371 0.011732489 0.69686091
-0.076017469 0.0097458065 0.69610608
-0.075837262 0.0077781975 0.6955483
-0.075710736 0.0058238804 0.69515669
-0.075634152 0.0038786829 0.69491959
-0.075605437 0.0019385815 0.69483072
-0.075630344 -0 0.69490778
-0.075703107 -0.0019411445 0.69513303
-0.075826064 -0.0038885474 0.69551361
-0.076002672 -0.0058463812 0.69606024
-0.076239325 -0.0078194439 0.69679272
-0.07654766 -0.0098138452 0.69774711
-0.076933652 -0.011835963 0.69894171
-0.07742817 -0.013897389 0.70047235
-0.07805565 -0.016011417 0.70241451
-0.078899555 -0.01820761 0.70502651
-0.080172189 -0.020556986 0.70896542
-0.07829953 0.024726123 0.70954692
-0.076974213 0.022281975 0.70533693
-0.076119378 0.020031393 0.70262146
-0.075488359 0.017878801 0.70061696
-0.074994698 0.015788347 0.69904882
-0.074612409 0.013744384 0.69783449
-0.074305952 0.011732489 0.69686091
-0.0740683 0.0097458065 0.69610608
-0.073892429 0.0077781379 0.69554734
-0.073769443 0.0058238804 0.69515669
-0.07369481 0.0038786829 0.69491959
-0.073666833 0.0019385815 0.69483072
-0.073690817 -0 0.69490689
-0.073762 -0.0019411445 0.69513303
-0.073881522 -0.0038885176 0.69551271
-0.074053884 -0.0058463812 0.69606024
-0.074284472 -0.0078194439 0.69679272
-0.074584901 -0.0098138452 0.69774711
-0.074960992 -0.011835963 0.69894171
-0.075442836 -0.013897389 0.70047235
-0.076054223 -0.016011417 0.70241451
-0.076876178 -0.01820752 0.70502555
-0.078117132 -0.020557135 0.70896751
-0.076239012 0.024726123 0.70954692
-0.074948579 0.022281975 0.70533693
-0.074116237 0.020031393 0.70262146
-0.073501825 0.017878801 0.70061696
-0.073021151 0.015788347 0.69904882
-0.072648644 0.013744324 0.69783354
-0.072350815 0.011732519 0.69686186
-0.072118856 0.0097458065 0.69610512
-0.071947895 0.0077781379 0.69554734
-0.071828142 0.0058238804 0.69515669
-0.071755476 0.0038786829 0.69491959
-0.07172823 0.0019385815 0.69483072
-0.07175158 -0 0.69490689
-0.071820892 -0.0019411445 0.69513303
-0.07193727 -0.0038885176 0.69551271
-0.072105095 -0.0058463812 0.69606024
-0.072329618 -0.0078194439 0.69679272
-0.07262186 -0.0098137856 0.69774616
-0.072988622 -0.011835992 0.69894266
-0.073457494 -0.013897389 0.70047235
-0.074052498 -0.016011417 0.70241356
-0.074852817 -0.018207431 0.70502454
-0.076061726 -0.020557284 0.70896852
-0.074178196 0.024726063 0.70954591
-0.072922938 0.022281975 0.70533693
-0.072113097 0.020031393 0.70262146
-0.071515292 0.017878801 0.70061696
-0.071047612 0.015788347 0.69904882
-0.070685171 0.013744324 0.69783354
-0.070395388 0.011732519 0.69686186
-0.070169702 0.0097458065 0.69610512
-0.070003085 0.0077781081 0.69554645
-0.069886833 0.0058238804 0.69515669
-0.069816135 0.0038786829 0.69491959
-0.069789633 0.0019385815 0.69483072
-0.06981235 -0 0.69490689
-0.069879517 -0.0019411147 0.69513214
-0.069992743 -0.0038885176 0.69551182
-0.070156306 -0.0058463812 0.69606024
-0.070374489 -0.0078193843 0.69679177
-0.070658825 -0.0098137558 0.6977452
-0.071016237 -0.011836052 0.69894361
-0.071472153 -0.013897389 0.70047235
-0.072051078 -0.016011417 0.70241356
-0.07282947 -0.018207371 0.70502353
-0.074006312 -0.020557344 0.70896953
-0.072117396 0.024725944 0.7095449
-0.070897296 0.022281975 0.70533693
-0.070109956 0.020031393 0.70262146
-0.069528751 0.017878801 0.70061696
-0.069074064 0.015788347 0.69904882
-0.068721689 0.013744324 0.69783354
-0.068440229 0.011732608 0.69686276
-0.06822028 0.009745717 0.69610423
-0.06805829 0.0077781081 0.69554555
-0.067945533 0.0058238804 0.69515669
-0.067876801 0.0038786829 0.69491959
-0.06785129 0.0019386113 0.69483161
-0.06787312 -0 0.69490689
-0.067938417 -0.0019411147 0.69513214
-0.068048507 -0.0038885176 0.69551182
-0.068207525 -0.0058463812 0.69606024
-0.068419643 -0.0078193843 0.69679177
-0.068696082 -0.0098137558 0.6977452
-0.069043837 -0.011836112 0.69894457
-0.069486819 -0.013897389 0.70047235
-0.070049375 -0.016011298 0.70241261
-0.070806146 -0.018207341 0.70502251
-0.071950875 -0.020557404 0.70897055
-0.0700569 0.024725944 0.7095449
-0.068871662 0.022281975 0.70533693
-0.068106808 0.020031393 0.70262146
-0.067542218 0.017878801 0.70061696
-0.067100786 0.015788406 0.69904977
-0.066757955 0.013744235 0.69783258
-0.066484794 0.011732608 0.69686276
-0.066271126 0.009745717 0.69610423
-0.06611377 0.0077781081 0.69554555
-0.066004239 0.0058238804 0.69515669
-0.065937467 0.0038786829 0.69491959
-0.065912679 0.0019386113 0.69483161
-0.065933891 -0 0.69490689
-0.065997325 -0.0019411147 0.69513214
-0.066104263 -0.0038885176 0.69551182
-0.066258736 -0.0058463812 0.69606024
-0.066464536 -0.0078194141 0.69679087
-0.06673307 -0.0098136961 0.69774425
-0.067071415 -0.011836141 0.69894552
-0.067501485 -0.013897389 0.70047235
-0.068047971 -0.016011298 0.70241261
-0.068782836 -0.018207252 0.70502156
-0.069895424 -0.020557493 0.70897162
-0.067996122 0.024725854 0.70954382
-0.066846028 0.022281975 0.70533693
-0.066103935 0.020031482 0.70262247
-0.065555423 0.017878711 0.700616
-0.065127231 0.015788406 0.69904977
-0.064794481 0.013744235 0.69783258
-0.064529613 0.011732638 0.69686377
-0.064321727 0.0097456872 0.69610333
-0.064168997 0.0077780485 0.6955446
-0.064062931 0.0058238804 0.69515669
-0.063998125 0.0038786829 0.69491959
-0.063974075 0.0019386113 0.69483161
-0.063994408 -2.9802322e-08 0.694906
-0.064056225 -0.0019411147 0.69513214
-0.064159766 -0.0038884878 0.69551086
-0.064309947 -0.0058463812 0.69606024
-0.064509697 -0.0078194141 0.69679087
-0.06477008 -0.0098136663 0.69774336
-0.065098986 -0.011836201 0.69894642
-0.065516144 -0.013897389 0.70047235
-0.06604629 -0.016011238 0.70241165
-0.066759542 -0.018207163 0.70502061
-0.067839958 -0.020557582 0.70897263
-0.065935634 0.024725854 0.70954382
-0.064820386 0.022281975 0.70533693
-0.064100787 0.020031482 0.70262247
-0.06356889 0.017878711 0.700616
-0.06315393 0.015788466 0.69905066
-0.062830761 0.013744205 0.69783163
-0.062574171 0.011732638 0.69686377
-0.06237258 0.0097456872 0.69610333
-0.062224478 0.0077780485 0.6955446
-0.062121633 0.0058238804 0.69515669
-0.062058792 0.0038786829 0.69491959
-0.062035467 0.0019386113 0.69483161
-0.062055182 -2.9802322e-08 0.694906
-0.062114883 -0.0019411147 0.69513118
-0.062215529 -0.0038884878 0.69551086
-0.062361162 -0.0058463812 0.69606024
-0.062554613 -0.0078193247 0.69678998
-0.062807351 -0.0098136663 0.69774336
-0.063126534 -0.011836261 0.69894743
-0.063531056 -0.013897449 0.70047331
-0.064044885 -0.016011238 0.70241165
-0.064736262 -0.018207103 0.70501959
-0.065784469 -0.020557672 0.70897365
-0.063874878 0.024725735 0.70954287
-0.062794752 0.022281975 0.70533693
-0.062097635 0.020031482 0.70262247
-0.061582364 0.017878711 0.700616
-0.061180368 0.015788466 0.69905066
-0.060867544 0.013744235 0.69783258
-0.060618963 0.011732668 0.6968646
-0.060423203 0.0097456574 0.69610238
-0.060279727 0.0077779889 0.69554371
-0.060180098 0.0058238506 0.69515574
-0.060119454 0.0038786829 0.69491959
-0.06009686 0.0019386113 0.69483161
-0.060115956 -2.9802322e-08 0.694906
-0.060173795 -0.0019411147 0.69513118
-0.0602713 -0.0038884878 0.69551086
-0.060412377 -0.0058463812 0.69606024
-0.060599778 -0.0078193247 0.69678998
-0.060844384 -0.0098136663 0.69774246
-0.061154079 -0.01183629 0.69894838
-0.061545961 -0.013897479 0.70047426
-0.062043242 -0.016011149 0.70241058
-0.062712997 -0.018207014 0.70501864
-0.063729227 -0.020557821 0.70897573
-0.061814401 0.024725735 0.70954287
-0.060769118 0.022281975 0.70533693
-0.060094487 0.020031482 0.70262247
-0.059596073 0.017878801 0.70061696
-0.059207041 0.015788555 0.69905162
-0.058904074 0.013744235 0.69783258
-0.058663514 0.011732668 0.6968646
-0.058474295 0.0097456872 0.69610333
-0.058335222 0.0077779889 0.69554371
-0.058238808 0.0058238506 0.69515574
-0.058180116 0.0038786829 0.69491959
-0.058158249 0.0019386113 0.69483161
-0.058176734 -2.9802322e-08 0.694906
-0.058232706 -0.0019411147 0.69513118
-0.058326837 -0.003888458 0.69550997
-0.058463592 -0.0058463812 0.69606024
-0.058644723 -0.0078193247 0.69678903
-0.058881432 -0.0098136067 0.69774145
-0.059181597 -0.01183635 0.69894928
-0.059560604 -0.013897479 0.70047426
-0.060041845 -0.016011149 0.70241058
-0.060689509 -0.018206835 0.70501661
-0.061673697 -0.02055791 0.70897669
-0.059754163 0.024725854 0.70954382
-0.058743715 0.022282064 0.70533794
-0.05809157 0.020031571 0.70262349
-0.057609539 0.017878801 0.70061696
-0.057233471 0.015788555 0.69905162
-0.056940608 0.013744235 0.69783258
-0.056708284 0.011732727 0.69686556
-0.056525152 0.0097456872 0.69610333
-0.056390498 0.0077779889 0.69554281
-0.056297731 0.0058238804 0.69515669
-0.056240782 0.0038786829 0.69491959
-0.056219645 0.0019386113 0.69483161
-0.056237508 -2.9802322e-08 0.694906
-0.056291614 -0.0019411147 0.69513118
-0.056382604 -0.003888458 0.69550997
-0.056514807 -0.0058463812 0.69606024
-0.056689896 -0.0078193247 0.69678903
-0.056918714 -0.0098136067 0.69774145
-0.057208877 -0.01183635 0.69894928
-0.057575479 -0.013897568 0.70047522
-0.058040217 -0.016011089 0.70240968
-0.058666293 -0.018206775 0.7050156
-0.059618153 -0.020558 0.70897776
-0.057693679 0.024725854 0.70954382
-0.05671807 0.022282064 0.70533794
-0.05608841 0.020031571 0.70262349
-0.055623002 0.017878801 0.70061696
-0.055259902 0.015788555 0.69905162
-0.054977354 0.013744324 0.69783354
-0.054752827 0.011732727 0.69686556
-0.054576222 0.009745717 0.69610423
-0.054445997 0.0077779889 0.69554281
-0.054356426 0.0058238804 0.69515669
-0.054301441 0.0038786829 0.69491959
-0.054281034 0.0019386113 0.69483161
-0.054298073 -0 0.6949051
-0.054350525 -0.0019411147 0.69513118
-0.054438379 -0.003888458 0.69550997
-0.054566231 -0.005846411 0.69606113
-0.054735284 -0.0078193247 0.69678998
-0.054955788 -0.0098135471 0.6977405
-0.055236373 -0.01183638 0.69895023
-0.055590119 -0.013897568 0.70047522
-0.05603883 -0.016011089 0.70240968
-0.056643084 -0.018206716 0.70501465
-0.05756259 -0.020558119 0.70897877
-0.055633415 0.024725944 0.7095449
-0.054692429 0.022282064 0.70533794
-0.054085255 0.020031571 0.70262349
-0.053636678 0.01787889 0.70061797
-0.053286549 0.015788585 0.69905257
-0.053013872 0.013744324 0.69783354
-0.052797575 0.011732817 0.69686651
-0.052627072 0.009745717 0.69610423
-0.052501295 0.0077779591 0.69554186
-0.052415129 0.0058238804 0.69515669
-0.052362103 0.0038786829 0.69491959
-0.052342631 0.0019386113 0.6948325
-0.052358858 -0 0.6949051
-0.052409433 -0.0019411147 0.69513118
-0.052493948 -0.0038884878 0.69550908
-0.052617438 -0.005846411 0.69606113
-0.052780662 -0.0078194141 0.69679087
-0.052992873 -0.0098135173 0.6977396
-0.053263854 -0.01183641 0.69895113
-0.053604968 -0.013897628 0.70047617
-0.054037228 -0.016011059 0.70240867
-0.054619893 -0.018206626 0.70501369
-0.055507015 -0.020558208 0.70897979
-0.053573143 0.024726063 0.70954591
-0.05266678 0.022282064 0.70533794
-0.052082095 0.020031571 0.70262349
-0.051650137 0.01787889 0.70061797
-0.051312972 0.015788585 0.69905257
-0.0510506 0.013744384 0.69783449
-0.05084211 0.011732817 0.69686651
-0.050678115 0.0097458065 0.69610512
-0.050556798 0.0077779591 0.69554186
-0.050473828 0.0058238804 0.69515669
-0.050422963 0.0038786829 0.69492054
-0.050404016 0.0019386113 0.6948325
-0.05041964 -0 0.6949051
-0.050468538 -0.0019411147 0.69513214
-0.050549727 -0.0038884878 0.69550908
-0.050668642 -0.005846411 0.69606113
-0.050825819 -0.0078194141 0.69679087
-0.05103017 -0.0098135173 0.6977396
-0.05129132 -0.011836469 0.69895208
-0.051619805 -0.013897657 0.70047712
-0.05203585 -0.016011059 0.70240867
-0.052597366 -0.018206775 0.7050156
-0.053451419 -0.020558268 0.7089808
-0.051512852 0.024726123 0.70954692
-0.050641134 0.022282064 0.70533794
-0.050079141 0.020031631 0.70262438
-0.04966379 0.01787895 0.70061886
-0.049339592 0.015788645 0.69905353
-0.049087115 0.013744384 0.69783449
-0.048886642 0.011732817 0.69686651
-0.048728958 0.0097458065 0.69610512
-0.048612304 0.0077779591 0.69554186
-0.048532523 0.0058238804 0.69515669
-0.048483618 0.0038786829 0.69492054
-0.048465393 0.0019386113 0.6948325
-0.048480425 -0 0.6949051
-0.048527446 -0.0019411147 0.69513214
-0.048605509 -0.0038884878 0.69550908
-0.048719849 -0.005846411 0.69606113
-0.048871171 -0.0078193843 0.69679177
-0.049067669 -0.0098135471 0.6977405
-0.049318776 -0.011836529 0.69895303
-0.049634423 -0.013897657 0.70047712
-0.050034471 -0.016011059 0.70240867
-0.050574593 -0.018206835 0.70501661
-0.051396012 -0.020558447 0.70898283
-0.049452335 0.024726123 0.70954692
-0.048615489 0.022282064 0.70533794
-0.048075974 0.020031631 0.70262438
-0.047677238 0.01787895 0.70061886
-0.047366004 0.015788645 0.69905353
-0.047123812 0.013744414 0.69783539
-0.04693136 0.011732817 0.69686741
-0.046779986 0.0097458065 0.69610608
-0.046667632 0.0077779293 0.69554096
-0.046591222 0.0058238804 0.69515669
-0.046544272 0.0038786829 0.69492054
-0.046526778 0.0019386113 0.6948325
-0.046541203 -0 0.6949051
-0.046586525 -0.0019411445 0.69513303
-0.046661105 -0.0038883984 0.69550812
-0.046771236 -0.005846411 0.69606209
-0.046916328 -0.0078193843 0.69679177
-0.047105145 -0.0098136067 0.69774145
-0.047346212 -0.011836559 0.69895399
-0.047649242 -0.013897687 0.70047808
-0.048033286 -0.016011089 0.70240968
-0.048552003 -0.018207014 0.70501864
-0.049340378 -0.020558506 0.70898384
-0.047392018 0.024726272 0.709548
-0.04659003 0.022282153 0.70533895
-0.046072811 0.020031631 0.70262438
-0.045690686 0.01787895 0.70061886
-0.045392424 0.015788645 0.69905353
-0.045160323 0.013744414 0.69783539
-0.044975884 0.011732817 0.69686741
-0.044830989 0.0097458363 0.69610697
-0.044723149 0.0077779293 0.69554096
-0.044650096 0.0058238804 0.69515759
-0.044604927 0.0038786829 0.69492054
-0.044588163 0.0019386113 0.6948325
-0.044602163 -2.9802322e-08 0.694906
-0.044645417 -0.0019411445 0.69513303
-0.044716891 -0.0038883984 0.69550812
-0.044822436 -0.005846411 0.69606209
-0.044961654 -0.0078194439 0.69679272
-0.04514261 -0.0098136663 0.69774246
-0.045373634 -0.011836618 0.69895494
-0.045663852 -0.013897687 0.70047808
-0.046032079 -0.016011149 0.70241058
-0.046529189 -0.018207103 0.70501959
-0.047284722 -0.020558596 0.70898485
-0.045331679 0.024726361 0.70954901
-0.044564378 0.022282153 0.70533895
-0.044069644 0.020031631 0.70262438
-0.043704309 0.017879009 0.70061982
-0.043419011 0.015788734 0.69905448
-0.043185476 0.013740808 0.69777316
-0.042970035 0.011719078 0.69659096
-0.042822931 0.0097324848 0.69578385
-0.042718068 0.0077669024 0.69520849
-0.042349447 0.0057749152 0.69318593
-0.042008758 0.0038189888 0.6913166
-0.041927155 0.0019057691 0.69086885
-0.041996259 -2.9802322e-08 0.691248
-0.042307939 -0.0019231439 0.69295818
-0.042707961 -0.0038825572 0.69515312
-0.042816103 -0.0058386028 0.69574642
-0.042952262 -0.0078095198 0.69649345
-0.043166339 -0.0098105371 0.69766808
-0.043400694 -0.011836559 0.69895399
-0.043678645 -0.013897777 0.70047903
-0.04403086 -0.016011238 0.70241165
-0.04450636 -0.018207163 0.70502061
-0.045229051 -0.020558715 0.70898587
-0.043241769 0.024709582 0.70938009
-0.04243616 0.02222842 0.70474935
-0.041983277 0.019991994 0.70214611
-0.041646317 0.017848402 0.70020926
-0.041379642 0.01576367 0.69867641
-0.04117291 0.013724297 0.69748807
-0.041006926 0.011716247 0.69653398
-0.040876437 0.0097324848 0.69578385
-0.040776342 0.0077669024 0.69520849
-0.04042447 0.0057749152 0.69318593
-0.040099271 0.0038189888 0.6913166
-0.040021375 0.0019057691 0.69086885
-0.040087339 -2.9802322e-08 0.691248
-0.040384851 -0.0019231439 0.69295818
-0.040766533 -0.0038825572 0.6951521
-0.040869914 -0.0058386028 0.69574642
-0.040995408 -0.0078086853 0.69646776
-0.041155979 -0.009799093 0.69739068
-0.041362703 -0.011817902 0.69857901
-0.041622728 -0.013874263 0.70007372
-0.041948751 -0.015980512 0.70194769
-0.042389255 -0.01816684 0.70447969
-0.043094568 -0.020521283 0.708534
-0.042395558 0.029676884 0.71670073
-0.042133521 0.027386755 0.71511924
-0.041062318 0.024637401 0.70865393
-0.040415391 0.02222842 0.70474935
-0.039984073 0.019991994 0.70214611
-0.039663158 0.017848402 0.70020926
-0.039409183 0.01576367 0.69867641
-0.039212298 0.013724297 0.69748807
-0.039054215 0.011716247 0.69653398
-0.038929936 0.0097324848 0.69578385
-0.038834609 0.0077669024 0.69520849
-0.038499497 0.0057749152 0.69318593
-0.03818978 0.0038189888 0.6913166
-0.038115598 0.0019057691 0.69086885
-0.038178418 -2.9802322e-08 0.691248
-0.038461763 -0.0019231439 0.69295818
-0.038825266 -0.0038825572 0.6951521
-0.038923729 -0.0058386028 0.69574642
-0.039043244 -0.0078086853 0.69646776
-0.039196171 -0.009799093 0.69739068
-0.039393049 -0.011817902 0.69857901
-0.039640695 -0.013874263 0.70007372
-0.03995119 -0.015980512 0.70194769
-0.040370718 -0.01816684 0.70447969
-0.04097791 -0.020488977 0.70814449
-0.042086918 -0.023147821 0.71483797
-0.042348552 -0.025409162 0.71641707
-0.040275782 0.029676884 0.71670073
-0.040026847 0.027386755 0.71511924
-0.039009202 0.024637401 0.70865393
-0.038394623 0.02222842 0.70474935
-0.03798487 0.019991994 0.70214611
-0.037680004 0.017848402 0.70020926
-0.037438724 0.01576367 0.69867641
-0.037251681 0.013724297 0.69748807
-0.037101503 0.011716247 0.69653398
-0.036983438 0.0097324848 0.69578385
-0.03689288 0.0077669024 0.69520849
-0.03657452 0.0057749152 0.69318593
-0.036280293 0.0038189888 0.6913166
-0.036209818 0.0019057691 0.69086885
-0.036269493 -2.9802322e-08 0.691248
-0.036538675 -0.0019231439 0.69295818
-0.036884006 -0.0038825572 0.6951521
-0.036977541 -0.0058386028 0.69574642
-0.03709108 -0.0078086853 0.69646776
-0.037236363 -0.009799093 0.69739068
-0.037423398 -0.011817902 0.69857901
-0.037658658 -0.013874263 0.70007372
-0.03795363 -0.015980512 0.70194769
-0.03835218 -0.01816684 0.70447969
-0.038929015 -0.020488977 0.70814449
-0.039982568 -0.023147821 0.71483797
-0.040231124 -0.025409162 0.71641707
-0.038156003 0.029676884 0.71670073
-0.03792017 0.027386755 0.71511924
-0.036956087 0.024637401 0.70865393
-0.036373854 0.02222842 0.70474935
-0.035985667 0.019991994 0.70214611
-0.035696846 0.017848402 0.70020926
-0.035468265 0.01576367 0.69867641
-0.035291068 0.013724297 0.69748807
-0.035148796 0.011716247 0.69653398
-0.035036944 0.0097324848 0.69578385
-0.034951147 0.0077669024 0.69520849
-0.034649543 0.0057749152 0.69318593
-0.034370802 0.0038189888 0.6913166
-0.034304038 0.0019057691 0.69086885
-0.034360573 -2.9802322e-08 0.691248
-0.034615587 -0.0019231439 0.69295818
-0.034942605 -0.0038825274 0.69515121
-0.035031356 -0.0058386028 0.69574642
-0.03513892 -0.0078086853 0.69646776
-0.035276551 -0.009799093 0.69739068
-0.035453744 -0.011817902 0.69857901
-0.035676625 -0.013874263 0.70007372
-0.035956074 -0.015980512 0.70194769
-0.036333643 -0.01816684 0.70447969
-0.036880117 -0.020488977 0.70814449
-0.037878223 -0.023147821 0.71483797
-0.038113698 -0.025409162 0.71641707
-0.036036227 0.029676884 0.71670073
-0.035813645 0.027386904 0.71512026
-0.034902971 0.024637401 0.70865393
-0.034353081 0.02222842 0.70474935
-0.03398646 0.019991994 0.70214611
-0.033713687 0.017848402 0.70020926
-0.033497807 0.01576367 0.69867641
-0.033330452 0.013724297 0.69748807
-0.03319608 0.011716247 0.69653398
-0.033090446 0.0097324848 0.69578385
-0.033009417 0.0077669024 0.69520849
-0.03272457 0.0057749152 0.69318593
-0.032461312 0.0038189888 0.6913166
-0.032398257 0.0019057691 0.69086885
-0.032451656 -2.9802322e-08 0.691248
-0.032692496 -0.0019231439 0.69295818
-0.033001348 -0.0038825274 0.69515121
-0.033085171 -0.0058386028 0.69574642
-0.03318676 -0.0078086853 0.69646776
-0.033316743 -0.009799093 0.69739068
-0.033484094 -0.011817902 0.69857901
-0.033694591 -0.013874263 0.70007372
-0.033958513 -0.015980512 0.70194769
-0.034315109 -0.01816684 0.70447969
-0.034831222 -0.020488977 0.70814449
-0.035773728 -0.023147732 0.7148369
-0.035996269 -0.025409162 0.71641707
-0.033916447 0.029676884 0.71670073
-0.033706956 0.027386904 0.71512026
-0.032849856 0.024637401 0.70865393
-0.032332316 0.02222842 0.70474935
-0.031987257 0.019991994 0.70214611
-0.031730529 0.017848402 0.70020926
-0.031527344 0.01576367 0.69867641
-0.031369835 0.013724297 0.69748807
-0.031243373 0.011716247 0.69653398
-0.03114395 0.0097324848 0.69578385
-0.031067688 0.0077669024 0.69520849
-0.030799596 0.0057749152 0.69318593
-0.030551823 0.0038189888 0.6913166
-0.030492477 0.0019057691 0.69086885
-0.030542733 -2.9802322e-08 0.691248
-0.03076941 -0.0019231439 0.69295818
-0.031059973 -0.0038825274 0.69515026
-0.031138983 -0.0058386028 0.69574642
-0.031234596 -0.0078086853 0.69646776
-0.031356934 -0.009799093 0.69739068
-0.03151444 -0.011817902 0.69857901
-0.031712554 -0.013874263 0.70007372
-0.031960953 -0.015980512 0.70194769
-0.032296576 -0.01816684 0.70447969
-0.032782327 -0.020488977 0.70814449
-0.033669394 -0.023147732 0.7148369
-0.033878841 -0.025409162 0.71641707
-0.031796668 0.029676884 0.71670073
-0.031600274 0.027386904 0.71512026
-0.030796738 0.024637401 0.70865393
-0.030311543 0.02222842 0.70474935
-0.029988056 0.019991994 0.70214611
-0.029747371 0.017848402 0.70020926
-0.029556887 0.01576367 0.69867641
-0.029409222 0.013724297 0.69748807
-0.029290663 0.011716247 0.69653398
-0.029197453 0.0097324848 0.69578385
-0.029125957 0.0077669024 0.69520849
-0.028874623 0.0057749152 0.69318593
-0.028642334 0.0038189888 0.6913166
-0.028586699 0.0019057691 0.69086885
-0.028633814 -2.9802322e-08 0.691248
-0.028846322 -0.0019231439 0.69295818
-0.029118724 -0.0038825274 0.69515026
-0.029192796 -0.0058386028 0.69574642
-0.029282434 -0.0078086853 0.69646776
-0.029397128 -0.009799093 0.69739068
-0.029544787 -0.011817902 0.69857901
-0.029730521 -0.013874263 0.70007372
-0.029963393 -0.015980512 0.70194769
-0.030278036 -0.01816684 0.70447969
-0.030733433 -0.020488977 0.70814449
-0.031565055 -0.023147732 0.7148369
-0.031761415 -0.025409162 0.71641707
-0.02967689 0.029676884 0.71670073
-0.029493587 0.027386904 0.71512026
-0.028743623 0.024637401 0.70865393
-0.028290775 0.02222842 0.70474935
-0.027988853 0.019991994 0.70214611
-0.027764212 0.017848402 0.70020926
-0.02758643 0.01576367 0.69867641
-0.027448608 0.013724297 0.69748807
-0.02733795 0.011716247 0.69653398
-0.027250955 0.0097324848 0.69578385
-0.027184227 0.0077669024 0.69520849
-0.026949646 0.0057749152 0.69318593
-0.026732845 0.0038189888 0.6913166
-0.026680918 0.0019057691 0.69086885
-0.02672489 -2.9802322e-08 0.691248
-0.026923236 -0.0019231439 0.69295818
-0.027177475 -0.0038825274 0.69515026
-0.027246609 -0.0058386028 0.69574642
-0.02733027 -0.0078086853 0.69646776
-0.027437318 -0.009799093 0.69739068
-0.027575135 -0.011817902 0.69857901
-0.027748486 -0.013874263 0.70007372
-0.027965834 -0.015980512 0.70194769
-0.028259503 -0.01816684 0.70447969
-0.028684536 -0.020488977 0.70814449
-0.029460717 -0.023147732 0.7148369
-0.029643986 -0.025409162 0.71641707
-0.027557112 0.029676884 0.71670073
-0.027387017 0.027386993 0.71512133
-0.026690507 0.024637401 0.70865393
-0.026270004 0.02222842 0.70474935
-0.025989648 0.019991994 0.70214611
-0.025781054 0.017848402 0.70020926
-0.02561597 0.01576367 0.69867641
-0.025487993 0.013724297 0.69748807
-0.02538524 0.011716247 0.69653398
-0.025304459 0.0097324848 0.69578385
-0.025242494 0.0077669024 0.69520849
-0.025024673 0.0057749152 0.69318593
-0.024823356 0.0038189888 0.6913166
-0.02477514 0.0019057691 0.69086885
-0.024815971 -2.9802322e-08 0.691248
-0.025000148 -0.0019231439 0.69295818
-0.02523613 -0.0038824975 0.69514936
-0.025300423 -0.0058386028 0.69574642
-0.025378108 -0.0078086853 0.69646776
-0.02547751 -0.009799093 0.69739068
-0.025605481 -0.011817902 0.69857901
-0.025766451 -0.013874263 0.70007372
-0.025968274 -0.015980512 0.70194769
-0.026240967 -0.01816684 0.70447969
-0.026635639 -0.020488977 0.70814449
-0.027356382 -0.023147732 0.7148369
-0.027526559 -0.025409162 0.71641707
-0.025437335 0.029676884 0.71670073
-0.025280325 0.027386993 0.71512133
-0.024637392 0.024637401 0.70865393
-0.024249235 0.02222842 0.70474935
-0.023990445 0.019991994 0.70214611
-0.023797896 0.017848402 0.70020926
-0.023645511 0.01576367 0.69867641
-0.023527378 0.013724297 0.69748807
-0.02343253 0.011716247 0.69653398
-0.023357961 0.0097324848 0.69578385
-0.023300767 0.0077669024 0.69520849
-0.023099698 0.0057749152 0.69318593
-0.022913868 0.0038189888 0.6913166
-0.022869358 0.0019057691 0.69086885
-0.02290705 -2.9802322e-08 0.691248
-0.023077056 -0.0019231439 0.69295818
-0.02329489 -0.0038824975 0.69514936
-0.023354236 -0.0058386028 0.69574642
-0.023425948 -0.0078086853 0.69646776
-0.0235177 -0.009799093 0.69739068
-0.023635831 -0.011817902 0.69857901
-0.023784418 -0.013874263 0.70007372
-0.023970716 -0.015980512 0.70194769
-0.02422243 -0.01816684 0.70447969
-0.024586746 -0.020488977 0.70814449
-0.025252044 -0.023147732 0.7148369
-0.02540913 -0.025409162 0.71641707
-0.023317557 0.029676884 0.71670073
-0.023173632 0.027386993 0.71512133
-0.022584276 0.024637401 0.70865393
-0.022228464 0.02222842 0.70474935
-0.021991242 0.019991994 0.70214611
-0.021814737 0.017848402 0.70020926
-0.021675052 0.01576367 0.69867641
-0.021566762 0.013724297 0.69748807
-0.021479819 0.011716247 0.69653398
-0.021411465 0.0097324848 0.69578385
-0.021359034 0.0077669024 0.69520849
-0.021174723 0.0057749152 0.69318593
-0.021004379 0.0038189888 0.6913166
-0.020963578 0.0019057691 0.69086885
-0.02099813 -2.9802322e-08 0.691248
-0.02115397 -0.0019231439 0.69295818
-0.021353565 -0.0038824677 0.69514853
-0.021408051 -0.0058386028 0.69574642
-0.021473786 -0.0078086853 0.69646776
-0.021557894 -0.009799093 0.69739068
-0.021666177 -0.011817902 0.69857901
-0.021802381 -0.013874263 0.70007372
-0.021973155 -0.015980512 0.70194769
-0.022203894 -0.01816684 0.70447969
-0.02253785 -0.020488977 0.70814449
-0.023147706 -0.023147732 0.7148369
-0.023291703 -0.025409162 0.71641707
-0.021197779 0.029676884 0.71670073
-0.021067027 0.027387142 0.7151224
-0.020531159 0.024637401 0.70865393
-0.020207696 0.02222842 0.70474935
-0.019992037 0.019991994 0.70214611
-0.019831579 0.017848402 0.70020926
-0.019704591 0.01576367 0.69867641
-0.019606149 0.013724297 0.69748807
-0.019527107 0.011716247 0.69653398
-0.019464968 0.0097324848 0.69578385
-0.019417305 0.0077669024 0.69520849
-0.019249748 0.0057749152 0.69318593
-0.01909489 0.0038189888 0.6913166
-0.019057799 0.0019057691 0.69086885
-0.019089209 -2.9802322e-08 0.691248
-0.019230882 -0.0019231439 0.69295818
-0.019412333 -0.0038824677 0.69514853
-0.019461865 -0.0058386028 0.69574642
-0.019521622 -0.0078086853 0.69646776
-0.019598085 -0.009799093 0.69739068
-0.019696524 -0.011817902 0.69857901
-0.019820347 -0.013874263 0.70007372
-0.019975595 -0.015980512 0.70194769
-0.020185359 -0.01816684 0.70447969
-0.020488955 -0.020488977 0.70814449
-0.02104337 -0.023147732 0.7148369
-0.021174276 -0.025409162 0.71641707
-0.019078001 0.029676884 0.71670073
-0.018960325 0.027387142 0.7151224
-0.018478043 0.024637401 0.70865393
-0.018186927 0.02222842 0.70474935
-0.017992834 0.019991994 0.70214611
-0.017848423 0.017848402 0.70020926
-0.017734133 0.01576367 0.69867641
-0.017645534 0.013724297 0.69748807
-0.017574398 0.011716247 0.69653398
-0.017518472 0.0097324848 0.69578385
-0.017475573 0.0077669024 0.69520849
-0.017324772 0.0057749152 0.69318593
-0.017185401 0.0038189888 0.6913166
-0.017152019 0.0019057691 0.69086885
-0.017180286 -2.9802322e-08 0.691248
-0.017307794 -0.0019231439 0.69295818
-0.017471032 -0.0038824975 0.69514751
-0.017515678 -0.0058386028 0.69574642
-0.01756946 -0.0078086853 0.69646776
-0.017638275 -0.009799093 0.69739068
-0.017726872 -0.011817902 0.69857901
-0.017838312 -0.013874263 0.70007372
-0.017978037 -0.015980512 0.70194769
-0.018166821 -0.01816684 0.70447969
-0.018440058 -0.020488977 0.70814449
-0.018939033 -0.023147732 0.7148369
-0.019056849 -0.025409162 0.71641707
-0.016958224 0.029676884 0.71670073
-0.016853621 0.027387142 0.7151224
-0.016424928 0.024637401 0.70865393
-0.016166158 0.02222842 0.70474935
-0.015993629 0.019991994 0.70214611
-0.015865264 0.017848402 0.70020926
-0.015763672 0.01576367 0.69867641
-0.015684918 0.013724297 0.69748807
-0.015621686 0.011716247 0.69653398
-0.015571975 0.0097324848 0.69578385
-0.015533783 0.0077668428 0.6952076
-0.015399798 0.0057749152 0.69318593
-0.015275911 0.0038189888 0.6913166
-0.015246239 0.0019057691 0.69086885
-0.015271367 -2.9802322e-08 0.691248
-0.015384705 -0.0019231439 0.69295818
-0.015529806 -0.0038824975 0.69514751
-0.015569491 -0.0058386028 0.69574642
-0.015617298 -0.0078086853 0.69646776
-0.015678467 -0.009799093 0.69739068
-0.01575722 -0.011817902 0.69857901
-0.015856277 -0.013874263 0.70007372
-0.015980477 -0.015980512 0.70194769
-0.016148288 -0.01816684 0.70447969
-0.016391164 -0.020488977 0.70814449
-0.016834626 -0.023147613 0.71483576
-0.01693942 -0.025409162 0.71641707
-0.014838445 0.029676884 0.71670073
-0.014746918 0.027387142 0.7151224
-0.014371811 0.024637401 0.70865393
-0.014145387 0.02222842 0.70474935
-0.013994426 0.019991994 0.70214611
-0.013882106 0.017848402 0.70020926
-0.013793215 0.01576367 0.69867641
-0.013724304 0.013724297 0.69748807
-0.013668975 0.011716247 0.69653398
-0.013625477 0.0097324848 0.69578385
-0.013592008 0.0077668428 0.69520664
-0.013474823 0.0057749152 0.69318593
-0.013366423 0.0038189888 0.6913166
-0.013340459 0.0019057691 0.69086885
-0.013362445 -2.9802322e-08 0.691248
-0.013461618 -0.0019231439 0.69295818
-0.013588527 -0.0038824081 0.69514668
-0.013623305 -0.0058386028 0.69574642
-0.013665135 -0.0078086853 0.69646776
-0.013718659 -0.009799093 0.69739068
-0.013787568 -0.011817902 0.69857901
-0.013874243 -0.013874263 0.70007372
-0.013982917 -0.015980512 0.70194769
-0.014129751 -0.01816684 0.70447969
-0.014342268 -0.020488977 0.70814449
-0.014730297 -0.023147613 0.71483576
-0.014821993 -0.025409162 0.71641707
-0.012718667 0.029676884 0.71670073
-0.012640269 0.027387232 0.71512347
-0.012318696 0.024637401 0.70865393
-0.012124618 0.02222842 0.70474935
-0.011995222 0.019991994 0.70214611
-0.011898948 0.017848402 0.70020926
-0.011822755 0.01576367 0.69867641
-0.011763689 0.013724297 0.69748807
-0.011716265 0.011716247 0.69653398
-0.011678981 0.0097324848 0.69578385
-0.011650292 0.0077668428 0.69520664
-0.011549849 0.0057749152 0.69318593
-0.011456934 0.0038189888 0.6913166
-0.011434679 0.0019057691 0.69086885
-0.011453525 -2.9802322e-08 0.691248
-0.011538528 -0.0019231439 0.69295818
-0.011647264 -0.0038824379 0.69514579
-0.011677118 -0.0058386028 0.69574642
-0.011712974 -0.0078086853 0.69646776
-0.01175885 -0.009799093 0.69739068
-0.011817915 -0.011817902 0.69857901
-0.011892209 -0.013874263 0.70007372
-0.011985358 -0.015980512 0.70194769
-0.012111215 -0.01816684 0.70447969
-0.012293373 -0.020488977 0.70814449
-0.012625968 -0.023147613 0.71483576
-0.012704565 -0.025409162 0.71641707
-0.01059889 0.029676884 0.71670073
-0.010533557 0.027387232 0.71512347
-0.010265579 0.024637401 0.70865393
-0.010103848 0.02222842 0.70474935
-0.0099960184 0.019991994 0.70214611
-0.0099157896 0.017848402 0.70020926
-0.0098522957 0.01576367 0.69867641
-0.0098030744 0.013724297 0.69748807
-0.0097635537 0.011716247 0.69653398
-0.0097324839 0.0097324848 0.69578385
-0.0097085396 0.007766813 0.69520575
-0.0096248742 0.0057749152 0.69318593
-0.009547445 0.0038189888 0.6913166
-0.0095288996 0.0019057691 0.69086885
-0.0095446045 -2.9802322e-08 0.691248
-0.0096154409 -0.0019231439 0.69295818
-0.009706053 -0.0038824379 0.69514579
-0.0097309323 -0.0058386028 0.69574642
-0.009760811 -0.0078086853 0.69646776
-0.0097990427 -0.009799093 0.69739068
-0.0098482622 -0.011817902 0.69857901
-0.0099101737 -0.013874263 0.70007372
-0.0099877976 -0.015980512 0.70194769
-0.010092679 -0.01816684 0.70447969
-0.010244478 -0.020488977 0.70814449
-0.01052164 -0.023147613 0.71483576
-0.010587138 -0.025409162 0.71641707
-0.0084791118 0.029676884 0.71670073
-0.008426846 0.027387232 0.71512347
-0.0082124639 0.024637401 0.70865393
-0.008083079 0.02222842 0.70474935
-0.0079968143 0.019991994 0.70214611
-0.0079326322 0.017848402 0.70020926
-0.007881836 0.01576367 0.69867641
-0.0078424588 0.013724297 0.69748807
-0.0078108432 0.011716247 0.69653398
-0.0077859876 0.0097324848 0.69578385
-0.0077668014 0.0077667832 0.69520485
-0.0076998989 0.0057749152 0.69318593
-0.0076379557 0.0038189888 0.6913166
-0.0076231193 0.0019057691 0.69086885
-0.0076356833 -2.9802322e-08 0.691248
-0.0076923524 -0.0019231439 0.69295818
-0.0077648126 -0.0038824379 0.69514489
-0.0077847457 -0.0058386028 0.69574642
-0.007808649 -0.0078086853 0.69646776
-0.0078392336 -0.009799093 0.69739068
-0.0078786099 -0.011817902 0.69857901
-0.0079281386 -0.013874263 0.70007372
-0.0079902383 -0.015980512 0.70194769
-0.0080741439 -0.01816684 0.70447969
-0.0081955818 -0.020488977 0.70814449
-0.008417313 -0.023147613 0.71483576
-0.0084697101 -0.025409162 0.71641707
-0.0063593336 0.029676884 0.71670073
-0.0063201613 0.027387321 0.71512449
-0.0061593479 0.024637401 0.70865393
-0.0060623088 0.02222842 0.70474935
-0.0059976112 0.019991994 0.70214611
-0.0059494739 0.017848402 0.70020926
-0.0059113777 0.01576367 0.69867641
-0.0058818446 0.013724297 0.69748807
-0.0058581326 0.011716247 0.69653398
-0.0058394903 0.0097324848 0.69578385
-0.0058251009 0.0077667832 0.69520485
-0.0057749245 0.0057749152 0.69318593
-0.0057284669 0.0038189888 0.6913166
-0.0057173395 0.0019057691 0.69086885
-0.0057267626 -2.9802322e-08 0.691248
-0.005769264 -0.0019231439 0.69295818
-0.005823609 -0.0038824379 0.69514489
-0.005838559 -0.0058386028 0.69574642
-0.005856487 -0.0078086853 0.69646776
-0.005879425 -0.009799093 0.69739068
-0.0059089577 -0.011817902 0.69857901
-0.0059461044 -0.013874263 0.70007372
-0.0059926789 -0.015980512 0.70194769
-0.0060556075 -0.01816684 0.70447969
-0.0061466866 -0.020488977 0.70814449
-0.006312984 -0.023147613 0.71483576
-0.0063522826 -0.025409162 0.71641707
-0.0042395559 0.029676884 0.71670073
-0.0042134407 0.027387321 0.71512449
-0.004106232 0.024637401 0.70865393
-0.0040415395 0.02222842 0.70474935
-0.0039984072 0.019991994 0.70214611
-0.0039663161 0.017848402 0.70020926
-0.003940918 0.01576367 0.69867641
-0.0039212294 0.013724297 0.69748807
-0.0039054216 0.011716247 0.69653398
-0.0038929938 0.0097324848 0.69578385
-0.0038833856 0.0077667534 0.69520396
-0.0038499495 0.0057749152 0.69318593
-0.0038189779 0.0038189888 0.6913166
-0.0038115596 0.0019057691 0.69086885
-0.0038178416 -2.9802322e-08 0.691248
-0.0038461762 -0.0019231439 0.69295818
-0.0038823911 -0.0038824379 0.69514394
-0.0038923728 -0.0058386028 0.69574642
-0.0039043245 -0.0078086853 0.69646776
-0.0039196168 -0.009799093 0.69739068
-0.003939305 -0.011817902 0.69857901
-0.0039640693 -0.013874263 0.70007372
-0.0039951191 -0.015980512 0.70194769
-0.004037072 -0.01816684 0.70447969
-0.0040977909 -0.020488977 0.70814449
-0.0042086565 -0.023147613 0.71483576
-0.0042348551 -0.025409162 0.71641707
-0.002119778 0.029676884 0.71670073
-0.0021067203 0.027387321 0.71512449
-0.002053116 0.024637401 0.70865393
-0.0020207698 0.02222842 0.70474935
-0.0019992036 0.019991994 0.70214611
-0.0019831581 0.017848402 0.70020926
-0.001970459 0.01576367 0.69867641
-0.0019606147 0.013724297 0.69748807
-0.0019527108 0.011716247 0.69653398
-0.0019464969 0.0097324848 0.69578385
-0.0019416928 0.0077667534 0.69520396
-0.0019249747 0.0057749152 0.69318593
-0.0019094889 0.0038189888 0.6913166
-0.0019057798 0.0019057691 0.69086885
-0.0019089208 -2.9802322e-08 0.691248
-0.0019230881 -0.0019231439 0.69295818
-0.001941188 -0.0038824081 0.69514304
-0.0019461864 -0.0058386028 0.69574642
-0.0019521622 -0.0078086853 0.69646776
-0.0019598084 -0.009799093 0.69739068
-0.0019696525 -0.011817902 0.69857901
-0.0019820346 -0.013874263 0.70007372
-0.0019975596 -0.015980512 0.70194769
-0.002018536 -0.01816684 0.70447969
-0.0020488955 -0.020488977 0.70814449
-0.0021043282 -0.023147613 0.71483576
-0.0021174275 -0.025409162 0.71641707
0 0.029676884 0.71670073
0 0.027387321 0.71512449
0 0.024637401 0.70865393
0 0.02222842 0.70474935
0 0.019991994 0.70214611
0 0.017848402 0.70020926
0 0.01576367 0.69867641
0 0.013724297 0.69748807
0 0.011716247 0.69653398
0 0.0097324848 0.69578385
0 0.0077667236 0.69520307
0 0.0057749152 0.69318593
0 0.0038189888 0.6913166
0 0.0019057691 0.69086885
0 -2.9802322e-08 0.691248
0 -0.0019231439 0.69295818
0 -0.0038824081 0.69514304
0 -0.0058386028 0.69574642
0 -0.0078086853 0.69646776
0 -0.009799093 0.69739068
0 -0.011817902 0.69857901
0 -0.013874263 0.70007372
0 -0.015980512 0.70194769
0 -0.01816684 0.70447969
0 -0.020488977 0.70814449
0 -0.023147613 0.71483576
0 -0.025409162 0.71641707
0.002119778 0.029676884 0.71670073
0.0021067292 0.02738744 0.71512556
0.002053116 0.024637401 0.70865393
0.0020207698 0.02222842 0.70474935
0.0019992036 0.019991994 0.70214611
0.0019831581 0.017848402 0.70020926
0.001970459 0.01576367 0.69867641
0.0019606147 0.013724297 0.69748807
0.0019527108 0.011716247 0.69653398
0.0019464969 0.0097324848 0.69578385
0.0019416852 0.0077667236 0.69520307
0.0019249747 0.0057749152 0.69318593
0.0019094889 0.0038189888 0.6913166
0.0019057798 0.0019057691 0.69086885
0.0019089208 -2.9802322e-08 0.691248
0.0019230881 -0.0019231439 0.69295818
0.0019411804 -0.0038823783 0.69514215
0.0019461864 -0.0058386028 0.69574642
0.0019521622 -0.0078086853 0.69646776
0.0019598084 -0.009799093 0.69739068
0.0019696525 -0.011817902 0.69857901
0.0019820346 -0.013874263 0.70007372
0.0019975596 -0.015980512 0.70194769
0.002018536 -0.01816684 0.70447969
0.0020488955 -0.020488977 0.70814449
0.0021043282 -0.023147613 0.71483576
0.0021174275 -0.025409162 0.71641707
0.0042395559 0.029676884 0.71670073
0.0042134584 0.02738744 0.71512556
0.004106232 0.024637401 0.70865393
0.0040415395 0.02222842 0.70474935
0.0039984072 0.019991994 0.70214611
0.0039663161 0.017848402 0.70020926
0.003940918 0.01576367 0.69867641
0.0039212294 0.013724297 0.69748807
0.0039054216 0.011716247 0.69653398
0.0038929938 0.0097324848 0.69578385
0.0038833553 0.0077666938 0.69520211
0.0038499495 0.0057749152 0.69318593
0.0038189779 0.0038189888 0.6913166
0.0038115596 0.0019057691 0.69086885
0.0038178416 -2.9802322e-08 0.691248
0.0038461762 -0.0019231439 0.69295818
0.0038823609 -0.0038823783 0.69514215
0.0038923728 -0.0058386028 0.69574642
0.0039043245 -0.0078086853 0.69646776
0.0039196168 -0.009799093 0.69739068
0.003939305 -0.011817902 0.69857901
0.0039640693 -0.013874263 0.70007372
0.0039951191 -0.015980512 0.70194769
0.004037072 -0.01816684 0.70447969
0.0040977909 -0.020488977 0.70814449
0.0042086388 -0.023147523 0.71483469
0.0042348551 -0.025409162 0.71641707
0.0063593336 0.029676884 0.71670073
0.0063201878 0.02738744 0.71512556
0.0061593479 0.024637401 0.70865393
0.0060623088 0.02222842 0.70474935
0.0059976112 0.019991994 0.70214611
0.0059494739 0.017848402 0.70020926
0.0059113777 0.01576367 0.69867641
0.0058818446 0.013724297 0.69748807
0.0058581326 0.011716247 0.69653398
0.0058394903 0.0097324848 0.69578385
0.0058250106 0.007766664 0.69520122
0.0057749245 0.0057749152 0.69318593
0.0057284669 0.0038189888 0.6913166
0.0057173395 0.0019057691 0.69086885
0.0057267626 -2.9802322e-08 0.691248
0.005769264 -0.0019231439 0.69295818
0.0058235191 -0.0038823783 0.6951412
0.005838559 -0.0058386028 0.69574642
0.005856487 -0.0078086853 0.69646776
0.005879425 -0.009799093 0.69739068
0.0059089577 -0.011817902 0.69857901
0.0059461044 -0.013874263 0.70007372
0.0059926789 -0.015980512 0.70194769
0.0060556075 -0.01816684 0.70447969
0.0061466866 -0.020488977 0.70814449
0.006312958 -0.023147523 0.71483469
0.0063522826 -0.025409162 0.71641707
0.0084791118 0.029676884 0.71670073
0.0084269522 0.027387589 0.71512669
0.0082124639 0.024637401 0.70865393
0.008083079 0.02222842 0.70474935
0.0079968143 0.019991994 0.70214611
0.0079326322 0.017848402 0.70020926
0.007881836 0.01576367 0.69867641
0.0078424588 0.013724297 0.69748807
0.0078108432 0.011716247 0.69653398
0.0077859876 0.0097324848 0.69578385
0.0077666803 0.007766664 0.69520122
0.0076998989 0.0057749152 0.69318593
0.0076379557 0.0038189888 0.6913166
0.0076231193 0.0019057691 0.69086885
0.0076356833 -2.9802322e-08 0.691248
0.0076923524 -0.0019231439 0.69295818
0.0077646622 -0.0038823485 0.6951403
0.0077847457 -0.0058386028 0.69574642
0.007808649 -0.0078086853 0.69646776
0.0078392336 -0.009799093 0.69739068
0.0078786099 -0.011817902 0.69857901
0.0079281386 -0.013874263 0.70007372
0.0079902383 -0.015980512 0.70194769
0.0080741439 -0.01816684 0.70447969
0.0081955818 -0.020488977 0.70814449
0.0084172776 -0.023147523 0.71483469
0.0084697101 -0.025409162 0.71641707
0.01059889 0.029676884 0.71670073
0.01053369 0.027387589 0.71512669
0.010265579 0.024637401 0.70865393
0.010103848 0.02222842 0.70474935
0.0099960184 0.019991994 0.70214611
0.0099157896 0.017848402 0.70020926
0.0098522957 0.01576367 0.69867641
0.0098030744 0.013724297 0.69748807
0.0097635537 0.011716247 0.69653398
0.0097324839 0.0097324848 0.69578385
0.0097083133 0.0077666342 0.69520032
0.0096248742 0.0057749152 0.69318593
0.009547445 0.0038189888 0.6913166
0.0095288996 0.0019057691 0.69086885
0.0095446045 -2.9802322e-08 0.691248
0.0096154409 -0.0019231439 0.69295818
0.0097058276 -0.0038823485 0.6951403
0.0097309323 -0.0058386028 0.69574642
0.009760811 -0.0078086853 0.69646776
0.0097990427 -0.009799093 0.69739068
0.0098482622 -0.011817902 0.69857901
0.0099101737 -0.013874263 0.70007372
0.0099877976 -0.015980512 0.70194769
0.010092679 -0.01816684 0.70447969
0.010244478 -0.020488977 0.70814449
0.010521596 -0.023147523 0.71483469
0.010587138 -0.025409162 0.71641707
0.012718667 0.029676884 0.71670073
0.012640428 0.027387589 0.71512669
0.012318696 0.024637401 0.70865393
0.012124618 0.02222842 0.70474935
0.011995222 0.019991994 0.70214611
0.011898948 0.017848402 0.70020926
0.011822755 0.01576367 0.69867641
0.011763689 0.013724297 0.69748807
0.011716265 0.011716247 0.69653398
0.011678981 0.0097324848 0.69578385
0.011649976 0.0077666342 0.69520032
0.011549849 0.0057749152 0.69318593
0.011456934 0.0038189888 0.6913166
0.011434679 0.0019057691 0.69086885
0.011453525 -2.9802322e-08 0.691248
0.011538528 -0.0019231439 0.69295818
0.011646947 -0.0038823485 0.69513941
0.011677118 -0.0058386028 0.69574642
0.011712974 -0.0078086853 0.69646776
0.01175885 -0.009799093 0.69739068
0.011817915 -0.011817902 0.69857901
0.011892209 -0.013874263 0.70007372
0.011985358 -0.015980512 0.70194769
0.012111215 -0.01816684 0.70447969
0.012293373 -0.020488977 0.70814449
0.012625916 -0.023147523 0.71483469
0.012704565 -0.025409162 0.71641707
0.014838445 0.029676884 0.71670073
0.014747167 0.027387589 0.71512669
0.014371811 0.024637401 0.70865393
0.014145387 0.02222842 0.70474935
0.013994426 0.019991994 0.70214611
0.013882106 0.017848402 0.70020926
0.013793215 0.01576367 0.69867641
0.013724304 0.013724297 0.69748807
0.013668975 0.011716247 0.69653398
0.013625477 0.0097324848 0.69578385
0.013591585 0.0077666044 0.69519943
0.013474823 0.0057749152 0.69318593
0.013366423 0.0038189888 0.6913166
0.013340459 0.0019057691 0.69086885
0.013362445 -2.9802322e-08 0.691248
0.013461618 -0.0019231439 0.69295818
0.013588105 -0.0038823485 0.69513941
0.013623305 -0.0058386028 0.69574642
0.013665135 -0.0078086853 0.69646776
0.013718659 -0.009799093 0.69739068
0.013787568 -0.011817902 0.69857901
0.013874243 -0.013874263 0.70007372
0.013982917 -0.015980512 0.70194769
0.014129751 -0.01816684 0.70447969
0.014342268 -0.020488977 0.70814449
0.014730236 -0.023147523 0.71483469
0.014821993 -0.025409162 0.71641707
0.016958224 0.029676884 0.71670073
0.016853977 0.027387708 0.71512777
0.016424928 0.024637401 0.70865393
0.016166158 0.02222842 0.70474935
0.015993629 0.019991994 0.70214611
0.015865264 0.017848402 0.70020926
0.015763672 0.01576367 0.69867641
0.015684918 0.013724297 0.69748807
0.015621686 0.011716247 0.69653398
0.015571975 0.0097324848 0.69578385
0.01553318 0.0077666044 0.69519854
0.015399798 0.0057749152 0.69318593
0.015275911 0.0038189888 0.6913166
0.015246239 0.0019057691 0.69086885
0.015271367 -2.9802322e-08 0.691248
0.015384705 -0.0019231439 0.69295818
0.015529203 -0.0038823187 0.69513845
0.015569491 -0.0058386028 0.69574642
0.015617298 -0.0078086853 0.69646776
0.015678467 -0.009799093 0.69739068
0.01575722 -0.011817902 0.69857901
0.015856277 -0.013874263 0.70007372
0.015980477 -0.015980512 0.70194769
0.016148288 -0.01816684 0.70447969
0.016391164 -0.020488977 0.70814449
0.016834555 -0.023147523 0.71483469
0.01693942 -0.025409162 0.71641707
0.019078001 0.029676884 0.71670073
0.018960722 0.027387708 0.71512777
0.018478043 0.024637401 0.70865393
0.018186927 0.02222842 0.70474935
0.017992834 0.019991994 0.70214611
0.017848423 0.017848402 0.70020926
0.017734133 0.01576367 0.69867641
0.017645534 0.013724297 0.69748807
