# .PCD v0.7 - Point Cloud Data file format
VERSION 0.7
FIELDS x y z
SIZE 4 4 4
TYPE F F F
COUNT 1 1 1
WIDTH 1337
HEIGHT 1
VIEWPOINT 0 0 0 1 0 0 0
POINTS 1337
DATA ascii
-0.037753709 0.028870493 0.7288959
-0.038441271 0.076882571 0.75083792
-0.038228706 0.074068129 0.7492342
-0.038028952 0.071304291 0.74772722
-0.037831277 0.068569213 0.74623585
-0.037650332 0.065888107 0.74487066
-0.037471637 0.063233405 0.74352264
-0.037305929 0.060622156 0.74227244
-0.037146851 0.05804193 0.7410723
-0.036997668 0.055496514 0.73994684
-0.036859181 0.052985072 0.73890197
-0.036728803 0.050502121 0.73791832
-0.036612231 0.048053563 0.73703891
-0.036488082 0.04561013 0.73610222
-0.036326159 0.043137342 0.73488063
-0.036126662 0.0406425 0.73337555
-0.035894386 0.038137794 0.73162311
-0.035659518 0.035659522 0.72985119
-0.03542896 0.033214658 0.72811174
-0.0352294 0.030825764 0.72660619
-0.035041429 0.028471202 0.72518802
-0.034886438 0.0261648 0.72401875
-0.034764942 0.023900896 0.72310215
-0.0347021 0.021688819 0.722628
-0.036024336 0.079253554 0.75072235
-0.03580812 0.076390713 0.74898243
-0.035594653 0.073562294 0.74726456
-0.035393227 0.070786476 0.74564368
-0.035197038 0.068047643 0.74406481
-0.035007913 0.065348119 0.74254286
-0.034829374 0.062692881 0.74110603
-0.034652483 0.060064346 0.73968256
-0.03449085 0.057484776 0.73838186
-0.034330875 0.054929435 0.73709446
-0.034182023 0.05241248 0.73589665
-0.03403971 0.04992494 0.73475134
-0.033904545 0.047466397 0.73366368
-0.033780482 0.045040667 0.73266524
-0.033661399 0.042637795 0.73170692
-0.033556953 0.040268391 0.73086643
-0.033450764 0.037910908 0.73001188
-0.033314608 0.035535604 0.72891611
-0.033140145 0.033140153 0.72751218
-0.032936253 0.030740529 0.72587138
-0.032725576 0.028362185 0.72417593
-0.032518279 0.026014626 0.72250783
-0.032330293 0.02370894 0.72099495
-0.032156181 0.021437496 0.71959388
-0.032010667 0.019206405 0.71842283
-0.031883389 0.01700452 0.71739852
-0.031793572 0.014837027 0.71667576
-0.031828623 0.012731463 0.71695787
-0.033463538 0.078878373 0.74934995
-0.033248011 0.075995475 0.7474916
-0.033039287 0.073158473 0.74569196
-0.032836251 0.070363432 0.74394137
-0.032643903 0.067619532 0.74228287
-0.032453649 0.064907312 0.74064255
-0.032275856 0.062246323 0.73910952
-0.032101031 0.059616238 0.73760211
-0.03193333 0.057023793 0.73615617
-0.031774141 0.054469943 0.73478365
-0.031616393 0.051941246 0.73342347
-0.031472497 0.049456805 0.7321828
-0.031329766 0.046994686 0.73095214
-0.03119652 0.044566453 0.72980332
-0.0310695 0.042165786 0.72870809
-0.030947747 0.039789975 0.72765827
-0.03083685 0.03744477 0.72670215
-0.0307285 0.035118282 0.72576797
-0.030635104 0.032823354 0.72496259
-0.030542403 0.030542403 0.72416335
-0.030428573 0.028255105 0.72318196
-0.030275755 0.02595067 0.72186422
-0.030101165 0.023650944 0.72035891
-0.029912729 0.021366239 0.7187342
-0.02972714 0.019110322 0.717134
-0.02955107 0.016886353 0.71561587
-0.029395074 0.014697552 0.71427083
-0.029254511 0.012537628 0.71305895
-0.029131031 0.010403991 0.71199417
-0.029044187 0.0082983375 0.71124542
-0.029008105 0.0062160194 0.71093434
-0.031180233 0.081548333 0.75034297
-0.030961322 0.078594148 0.74831033
-0.03074808 0.075687587 0.74633026
-0.030545499 0.07283932 0.74444926
-0.03034557 0.070028275 0.74259275
-0.030157048 0.067273438 0.74084228
-0.029972097 0.064555317 0.73912489
-0.029794037 0.061879963 0.73747152
-0.029623343 0.059246689 0.73588657
-0.029454993 0.056644261 0.73432338
-0.029298175 0.05408895 0.7328673
-0.029143151 0.051560998 0.73142773
-0.028995056 0.04906857 0.73005271
-0.028853578 0.04660964 0.72873896
-0.028713854 0.044175178 0.72744155
-0.028586023 0.041779608 0.72625458
-0.028459202 0.039405078 0.72507703
-0.028340414 0.037060589 0.72397405
-0.028227516 0.034741551 0.72292566
-0.028118184 0.03244406 0.72191048
-0.02801959 0.030175 0.72099507
-0.027921805 0.027921826 0.72008705
-0.027838394 0.025696993 0.71931255
-0.027755955 0.02348581 0.71854705
-0.027660234 0.0212771 0.71765828
-0.027530288 0.019059449 0.71645164
-0.027381485 0.016850144 0.71506995
-0.027214115 0.014653772 0.71351582
-0.027048331 0.012483865 0.71197647
-0.026884884 0.010340363 0.71045876
-0.026745381 0.0082293749 0.70916343
-0.026610905 0.0061409771 0.70791483
-0.026500862 0.0040770769 0.70689303
-0.026408978 0.0020315051 0.70603985
-0.02634779 2.9802322e-08 0.70547163
-0.026413374 -0.0020318031 0.70608068
-0.028718155 0.081368119 0.74970329
-0.028507089 0.078394532 0.74758005
-0.028298968 0.075463921 0.74548662
-0.028102677 0.072598577 0.74351197
-0.027909996 0.069774985 0.74157375
-0.027724931 0.067001939 0.73971224
-0.027546475 0.064275116 0.73791707
-0.027371423 0.061585724 0.73615617
-0.027206227 0.058946848 0.73449439
-0.027043132 0.05633986 0.73285377
-0.026887758 0.053775549 0.73129082
-0.026737135 0.051246166 0.72977579
-0.026589606 0.048747629 0.72829163
-0.026451265 0.046289742 0.7269001
-0.026314242 0.043857068 0.72552174
-0.026184227 0.041458398 0.7242139
-0.02605922 0.039088845 0.72295642
-0.025935961 0.036742657 0.72171652
-0.025822969 0.034430653 0.72057992
-0.025710844 0.032138556 0.71945202
-0.025605476 0.029873073 0.71839207
-0.025505625 0.027631104 0.71738768
-0.025408057 0.025408059 0.71640623
-0.025320837 0.023210794 0.71552891
-0.025234319 0.021028668 0.71465856
-0.025158826 0.018869102 0.71389914
-0.025085878 0.016723931 0.71316528
-0.025004914 0.01458621 0.71235085
-0.024896152 0.012448072 0.71125692
-0.024768498 0.010320216 0.7099728
-0.024622943 0.0082076788 0.70850855
-0.024475198 0.0061188042 0.70702243
-0.024330299 0.0040550828 0.7055648
-0.024200367 0.0020167232 0.70425773
-0.02407828 2.9802322e-08 0.70302969
-0.023975309 -0.0019979179 0.70199388
-0.023881095 -0.0039801896 0.70104623
-0.023818288 -0.0059545636 0.70041442
-0.023801008 -0.0079336166 0.70024055
-0.026296675 0.081280619 0.74939269
-0.026092473 0.078277439 0.74715185
-0.025893372 0.075326174 0.74496692
-0.025702203 0.072433531 0.74286914
-0.02551762 0.069593519 0.74084359
-0.025337888 0.066799909 0.73887122
-0.025166996 0.064061463 0.73699594
-0.024998395 0.061359704 0.73514575
-0.02483876 0.05870983 0.73339397
-0.024682479 0.056096584 0.73167896
-0.024530996 0.053522229 0.73001665
-0.024386223 0.050989389 0.72842801
-0.024243254 0.048486501 0.72685909
-0.024108393 0.046025097 0.72537911
-0.023976278 0.043593258 0.72392941
-0.023847977 0.041191995 0.72252136
-0.023726463 0.038825154 0.72118795
-0.02360628 0.036482483 0.71986914
-0.023492724 0.034171283 0.71862298
-0.023382939 0.031885833 0.71741819
-0.023274861 0.029622555 0.71623224
-0.023175485 0.027389228 0.71514165
-0.023077052 0.025174975 0.7140615
-0.022984153 0.022984177 0.71304208
-0.022896377 0.020814896 0.71207887
-0.022809746 0.018662542 0.71112818
-0.022733059 0.016533136 0.71028662
-0.022656977 0.014418066 0.70945174
-0.022589095 0.012321383 0.7087068
-0.022524938 0.010238618 0.70800281
-0.022457018 0.008166194 0.70725745
-0.022366762 0.0061000586 0.706267
-0.02225741 0.0040468276 0.70506698
-0.022132466 0.002012074 0.70369589
-0.022001702 -0 0.70226097
-0.021873865 -0.0019885004 0.70085812
-0.021753952 -0.0039552748 0.69954216
-0.021646323 -0.0059035122 0.6983611
-0.021548441 -0.0078358054 0.69728702
-0.02146315 -0.0097559392 0.69635099
-0.021398813 -0.01167208 0.69564509
-0.021361025 -0.013593376 0.69523036
-0.023908582 0.081289202 0.74942297
-0.023710428 0.078244448 0.74703115
-0.023520838 0.075266689 0.74474251
-0.023336325 0.072342604 0.74251527
-0.023161005 0.069483072 0.74039894
-0.022988407 0.066666365 0.73831558
-0.022825647 0.063911825 0.73635089
-0.022665488 0.061196834 0.73441756
-0.022512015 0.058531225 0.73256493
-0.022363603 0.055909008 0.73077345
-0.022218022 0.053323299 0.72901618
-0.022080462 0.050785065 0.72735566
-0.021944597 0.048278123 0.72571564
-0.02181448 0.045810461 0.724145
-0.02168853 0.043377072 0.72262466
-0.021564305 0.040972203 0.72112507
-0.021448022 0.038606465 0.71972144
-0.021332983 0.036266118 0.71833277
-0.021222144 0.033955425 0.71699482
-0.021116281 0.031674445 0.71571696
-0.02101147 0.029416114 0.71445179
-0.020913111 0.027187049 0.71326452
-0.020817401 0.024980903 0.71210909
-0.020723337 0.022795677 0.71097374
-0.020636668 0.020636678 0.70992756
-0.020550808 0.018495768 0.70889109
-0.020469509 0.016375601 0.70790976
-0.020392923 0.014275074 0.70698529
-0.020316826 0.012190133 0.70606667
-0.020249732 0.010124862 0.70525682
-0.020183241 0.0080733299 0.70445418
-0.02012277 0.0060368478 0.70372415
-0.020066762 0.0040133297 0.70304817
-0.020010186 0.0020010769 0.70236522
-0.01993604 2.9802322e-08 0.70147014
-0.019842826 -0.0019842684 0.70034498
-0.019736459 -0.003947258 0.69906104
-0.019621987 -0.0058865845 0.69767922
-0.019510128 -0.0078040361 0.696329
-0.019400515 -0.0097002685 0.69500589
-0.019306345 -0.011583805 0.69386911
-0.019214487 -0.013450146 0.69276029
-0.019139884 -0.015311897 0.69185972
-0.019073782 -0.017166406 0.69106185
-0.019025624 -0.019025594 0.69048047
-0.019020922 -0.020923018 0.69042373
-0.021661388 0.084238768 0.75134993
-0.021521116 0.081301987 0.74946851
-0.021354159 0.078298569 0.74722928
-0.021175224 0.075289756 0.7448293
-0.020999165 0.072330475 0.742468
-0.020833043 0.069443494 0.74023986
-0.020670382 0.066604614 0.73805827
-0.020515196 0.063825071 0.73597682
-0.020364715 0.061094165 0.73395848
-0.020218693 0.058409572 0.73200005
-0.02007905 0.055775195 0.7301271
-0.019941321 0.05317688 0.72827983
-0.019811481 0.050629377 0.72653836
-0.01968375 0.048115849 0.72482526
-0.019560207 0.045640498 0.72316825
-0.019441726 0.043203861 0.72157913
-0.019324673 0.040796578 0.72000921
-0.019213939 0.038427889 0.71852398
-0.01910536 0.03608793 0.7170676
-0.01899928 0.033776522 0.71564496
-0.018898975 0.031498343 0.71429956
-0.018799799 0.029244125 0.71296942
-0.018704845 0.02701813 0.71169579
-0.018613536 0.024818063 0.71047115
-0.018523039 0.022639304 0.70925742
-0.01843855 0.020487279 0.70812428
-0.018355874 0.018355876 0.7070154
-0.01827468 0.016244173 0.70592636
-0.018199863 0.014155447 0.70492285
-0.018125582 0.012083739 0.70392662
-0.018055163 0.010030687 0.70298207
-0.017988952 0.0079951584 0.70209408
-0.017923154 0.0059743822 0.70121157
-0.017864496 0.0039699078 0.70042485
-0.017806994 0.0019785464 0.69965363
-0.017753638 -0 0.69893801
-0.017705197 -0.0019672513 0.69828832
-0.017656742 -0.0039237142 0.69763839
-0.01759644 -0.0058654249 0.69682956
-0.0175182 -0.0077858269 0.69578016
-0.017429782 -0.0096832216 0.69459432
-0.017331174 -0.011554122 0.69327176
-0.01723394 -0.013404161 0.69196761
-0.017138114 -0.015233815 0.69068235
-0.017053226 -0.017053187 0.68954384
-0.01697237 -0.018858194 0.6884594
-0.016903501 -0.020659834 0.68753576
-0.016839344 -0.022452474 0.68667519
-0.016796133 -0.024261057 0.68609565
-0.016774986 -0.026094377 0.685812
-0.019101126 0.083567411 0.74903464
-0.019003734 0.080765903 0.74756515
-0.01891805 0.078036964 0.74627227
-0.018811276 0.075245112 0.74466115
-0.018678728 0.072380066 0.74266112
-0.018527431 0.069477916 0.74037826
-0.018375782 0.066612184 0.73809004
-0.01822917 0.063802123 0.73587781
-0.018089043 0.061050564 0.73376352
-0.017951781 0.058343321 0.73169231
-0.017822059 0.055693954 0.72973502
-0.017694276 0.053082854 0.72780693
-0.017572477 0.050520927 0.7259692
-0.017453792 0.047997981 0.72417831
-0.0173382 0.045512795 0.7224341
-0.01722813 0.043070376 0.72077328
-0.01711945 0.040658683 0.7191335
-0.017015822 0.038285643 0.71756983
-0.01691494 0.035944283 0.71604764
-0.016815601 0.033631265 0.71454877
-0.016722102 0.031353951 0.71313792
-0.016629567 0.029101759 0.71174163
-0.016540101 0.026877642 0.71039176
-0.016454566 0.024681866 0.7091012
-0.016369915 0.022508651 0.70782387
-0.01628964 0.020362049 0.70661259
-0.016211661 0.018238097 0.70543599
-0.016134487 0.016134501 0.70427155
-0.016062751 0.014054924 0.70318913
-0.015992159 0.011994183 0.702124
-0.015922947 0.0099518895 0.70107967
-0.015859041 0.0079295337 0.70011538
-0.015795585 0.0059233606 0.69915783
-0.015735231 0.0039338171 0.69824719
-0.015678652 0.0019598603 0.69739342
-0.015622479 2.9802322e-08 0.6965459
-0.015571793 -0.0019464493 0.69578111
-0.015522639 -0.0038806498 0.69503939
-0.015476009 -0.0058034956 0.69433582
-0.015434596 -0.0077172816 0.69371098
-0.015393402 -0.0096208155 0.69308937
-0.015345307 -0.011508971 0.69236374
-0.015280285 -0.013370186 0.69138259
-0.015206564 -0.015206546 0.69027025
-0.015124231 -0.017014742 0.68902791
-0.015040522 -0.018800646 0.68776488
-0.014958405 -0.020567805 0.68652582
-0.014882214 -0.022323281 0.68537617
-0.014812933 -0.024071008 0.68433076
-0.014749346 -0.025811344 0.68337137
-0.01469439 -0.027551949 0.68254209
-0.014650129 -0.029300272 0.68187433
-0.01472022 -0.031280458 0.6829319
-0.016812244 0.086462975 0.75073767
-0.016663471 0.083317369 0.74817216
-0.016537193 0.080323517 0.74599457
-0.016428752 0.077449888 0.74412465
-0.016337484 0.074685633 0.74255073
-0.016263971 0.072026163 0.74128312
-0.016185282 0.069365531 0.73992616
-0.016082723 0.066628426 0.73815751
-0.015961353 0.063845456 0.73606455
-0.015832778 0.06106928 0.73384738
-0.015706187 0.058337301 0.73166442
-0.015586459 0.05566594 0.72959977
-0.015469364 0.053037822 0.72758055
-0.015356908 0.050458461 0.72564131
-0.015248397 0.047923565 0.72377014
-0.015142065 0.04542622 0.72193646
-0.015041339 0.042975277 0.72019947
-0.014942008 0.040556908 0.71848661
-0.014846748 0.038177341 0.7168439
-0.014754497 0.035832375 0.71525311
-0.014663386 0.033516318 0.71368194
-0.014577761 0.031238109 0.71220541
-0.014493069 0.028986186 0.71074492
-0.014410779 0.026762903 0.70932591
-0.014332233 0.024569541 0.70797139
-0.014254596 0.022400111 0.70663261
-0.014180207 0.020257443 0.7053498
-0.014108351 0.018139333 0.70411062
-0.014037276 0.01604262 0.70288509
-0.013970312 0.013970345 0.70173031
-0.013904812 0.011918426 0.70060086
-0.013839869 0.009885639 0.69948089
-0.013779864 0.0078742504 0.69844621
-0.01372054 0.0058802366 0.69742316
-0.013662416 0.003903538 0.69642085
-0.013608643 0.0019441247 0.69549352
-0.013555238 -0 0.69457263
-0.013504281 -0.0019291639 0.69369388
-0.013456653 -0.003844738 0.69287258
-0.013409358 -0.0057468414 0.69205701
-0.01336622 -0.0076377988 0.69131309
-0.013324827 -0.0095177591 0.69059932
-0.0132848 -0.011386961 0.6899091
-0.013249922 -0.013249904 0.68930763
-0.013215227 -0.015103102 0.68870932
-0.013176597 -0.016941309 0.68804318
-0.013124556 -0.018749356 0.68714577
-0.013064098 -0.02052927 0.68610322
-0.012996426 -0.022279561 0.68493629
-0.012925491 -0.024004489 0.68371308
-0.012856129 -0.025712252 0.68251693
-0.01278886 -0.027404666 0.68135685
-0.012778641 -0.029208302 0.68118066
-0.012941728 -0.031429917 0.68399304
-0.013109033 -0.0337089 0.68687814
-0.013339849 -0.036208153 0.69085836
-0.014350086 0.083708853 0.74952233
-0.014185254 0.080383122 0.74620616
-0.014053772 0.07729578 0.74356091
-0.013942296 0.07435891 0.74131823
-0.013845971 0.071537554 0.73938036
-0.013765155 0.068825811 0.7377544
-0.013701577 0.066224307 0.73647535
-0.013641808 0.063661784 0.73527288
-0.013565618 0.061045289 0.73374009
-0.01347169 0.058377355 0.73185033
-0.013366366 0.055693209 0.72973144
-0.013261153 0.053044647 0.72761476
-0.013159083 0.050443143 0.7255612
-0.013061696 0.047892898 0.72360194
-0.012965742 0.045380086 0.72167146
-0.012875435 0.042918146 0.71985459
-0.012786489 0.040490568 0.71806514
-0.01270075 0.038102239 0.71634024
-0.012618062 0.035751194 0.71467674
-0.012536445 0.033430547 0.71303469
-0.012459545 0.031148881 0.71148759
-0.012383738 0.028895438 0.70996249
-0.012309857 0.02667138 0.70847607
-0.012239445 0.024478912 0.7070595
-0.012169834 0.022311389 0.70565915
-0.012102964 0.020171583 0.70431376
-0.012038319 0.018057495 0.70301318
-0.01197441 0.015965879 0.70172745
-0.011913823 0.013899475 0.70050848
-0.011854641 0.011854619 0.69931787
-0.011796044 0.0098300576 0.69813901
-0.011741375 0.0078276098 0.69703913
-0.011687347 0.005843699 0.69595218
-0.011634039 0.0038780272 0.69487971
-0.011584657 0.0019308031 0.69388622
-0.011535736 2.9802322e-08 0.69290197
-0.011487885 -0.0019146502 0.69193935
-0.011443483 -0.0038144886 0.691046
-0.011399467 -0.0056996942 0.69016039
-0.01135729 -0.0075715184 0.68931198
-0.011317985 -0.0094316304 0.68852115
-0.011278951 -0.011278927 0.68773592
-0.011243004 -0.013116837 0.68701267
-0.011208835 -0.01494509 0.68632525
-0.011175081 -0.016762614 0.68564618
-0.011146328 -0.018577188 0.68506771
-0.011117682 -0.020382404 0.6844914
-0.011087339 -0.022174627 0.68388093
-0.011046624 -0.023934364 0.68306184
-0.010998062 -0.025662124 0.6820848
-0.01094362 -0.027359009 0.6809895
-0.011004391 -0.029344976 0.68221217
-0.011049104 -0.03130576 0.68311167
-0.011051748 -0.033155233 0.68316495
-0.011062906 -0.035032541 0.68338937
-0.011088445 -0.036961496 0.68390322
-0.011139339 -0.038987666 0.68492711
-0.01134253 -0.04158929 0.68901503
-0.012233892 0.083190471 0.75617319
-0.011781908 0.077760607 0.74526131
-0.011639121 0.074490368 0.74181408
-0.011526508 0.07146433 0.73909545
-0.011431181 0.068587065 0.73679405
-0.011350998 0.065835834 0.73485821
-0.011283064 0.063185215 0.73321813
-0.011225904 0.060619891 0.73183823
-0.011178054 0.058125883 0.73068297
-0.011123335 0.055616707 0.72936201
-0.011054525 0.053061724 0.72770077
-0.010973261 0.050476998 0.72573888
-0.01088811 0.04790771 0.72368312
-0.010804271 0.04537797 0.72165912
-0.010724792 0.042899221 0.71974027
-0.010647153 0.040459186 0.71786594
-0.010572106 0.038059592 0.71605408
-0.010500091 0.035700321 0.71431553
-0.010429095 0.033373117 0.71260154
-0.010361883 0.03108564 0.71097881
-0.010295828 0.028828353 0.7093842
-0.01023149 0.026601911 0.70783091
-0.010170182 0.02440843 0.7063508
-0.010109564 0.022241056 0.70488733
-0.01005132 0.02010262 0.7034812
-0.0099949799 0.017990977 0.70212108
-0.0099392692 0.015902847 0.70077604
-0.0098864017 0.013840973 0.69949979
-0.0098346351 0.0118016 0.69825
-0.0097834459 0.0097834468 0.69701421
-0.0097354008 0.0077883303 0.69585425
-0.0096879741 0.0058128238 0.6947093
-0.0096412683 0.0038565397 0.6935817
-0.0095975501 0.0019195378 0.69252622
-0.0095542632 2.9802322e-08 0.69148117
-0.0095117269 -0.001902312 0.6904543
-0.0094721131 -0.003788799 0.68949795
-0.0094328281 -0.0056596696 0.68854952
-0.0093945377 -0.0075156093 0.68762511
-0.0093589015 -0.0093588829 0.68676484
-0.009323569 -0.011188269 0.68591177
-0.0092896074 -0.013005435 0.68509185
-0.0092580495 -0.014812857 0.68432999
-0.0092267049 -0.016608059 0.68357331
-0.0091975331 -0.018395007 0.68286896
-0.0091700908 -0.020174205 0.68220645
-0.0091428123 -0.021942735 0.68154788
-0.0091193505 -0.023710281 0.68098152
-0.0090963384 -0.02546972 0.68042594
-0.0090868566 -0.027260542 0.680197
-0.0090797003 -0.029055029 0.68002427
-0.0090638446 -0.030817062 0.67964149
-0.0090518743 -0.032586753 0.67935252
-0.0090415375 -0.034357846 0.67910296
-0.0090373894 -0.036149561 0.67900276
-0.0090370951 -0.037955791 0.67899567
-0.0090425173 -0.039787084 0.67912662
-0.0090584299 -0.041668743 0.67951071
-0.0090908855 -0.043636233 0.68029428
-0.0091663273 -0.045831621 0.68211561
-0.0097776456 0.080665618 0.75588745
-0.0096455636 0.077164501 0.75190157
-0.0092998305 0.072073728 0.74146813
-0.00917021 0.068776608 0.73755652
-0.0090782437 0.065817326 0.73478115
-0.0090026585 0.06301865 0.73250014
-0.0089376112 0.060328931 0.73053718
-0.0088809785 0.057726353 0.72882819
-0.0088321464 0.055200934 0.72735453
-0.0087942304 0.052765429 0.72621024
-0.0087565621 0.050350249 0.72507358
-0.0087082516 0.047895402 0.72361565
-0.0086493557 0.045409143 0.72183836
-0.0085839918 0.042919993 0.7198658
-0.008518883 0.040464729 0.71790093
-0.008455541 0.038049966 0.71598941
-0.0083952108 0.035679668 0.71416879
-0.0083357692 0.033343107 0.71237499
-0.0082794242 0.031047821 0.71067464
-0.0082242079 0.028784752 0.70900834
-0.0081704892 0.026554108 0.70738727
-0.0081191473 0.024357468 0.70583785
-0.008068447 0.022188276 0.70430785
-0.0080198543 0.020049661 0.7028414
-0.0079727639 0.017938733 0.70142031
-0.0079261921 0.015852422 0.70001489
-0.0078820856 0.013793677 0.69868386
-0.0078387735 0.011758178 0.69737685
-0.0077959956 0.0097450316 0.69608587
-0.0077557852 0.0077557862 0.69487244
-0.0077159586 0.0057869852 0.69367057
-0.0076768622 0.0038384497 0.6924907
-0.0076399972 0.0019100308 0.69137824
-0.0076034842 -0 0.69027632
-0.0075678052 -0.0018919408 0.68919963
-0.0075341323 -0.0037670434 0.68818349
-0.0075007575 -0.0056255758 0.68717635
-0.0074681793 -0.007468164 0.68619311
-0.007437651 -0.0092970431 0.68527186
-0.007407371 -0.011111021 0.68435806
-0.0073778811 -0.01291126 0.68346822
-0.0073504332 -0.01470083 0.68263984
-0.0073231878 -0.016477168 0.68181765
-0.0072969166 -0.0182423 0.68102485
-0.007272576 -0.019999564 0.68029034
-0.0072483975 -0.021745145 0.6795606
-0.007225683 -0.023483455 0.67887521
-0.0072133127 -0.025246561 0.67850196
-0.0071990425 -0.026996404 0.67807126
-0.007181142 -0.028724551 0.677531
-0.0071633309 -0.030444145 0.67699355
-0.0071474705 -0.03216356 0.67651486
-0.0071335612 -0.033884376 0.67609513
-0.0071213269 -0.035606623 0.675726
-0.0071111806 -0.037333667 0.67541981
-0.0071031549 -0.039067358 0.67517757
-0.0070986957 -0.040817499 0.67504299
-0.0070966319 -0.04257977 0.67498076
-0.007100156 -0.044375956 0.67508709
-0.0071103219 -0.046217054 0.67539382
-0.0071303332 -0.048129737 0.67599773
-0.0071714674 -0.050200224 0.67723906
-0.0074687852 0.082156628 0.76134157
-0.0073387199 0.078279674 0.75610816
-0.0072278683 0.074688017 0.75164783
-0.0071296492 0.071296483 0.74769586
-0.0068904757 0.066607952 0.73807222
-0.0067802658 0.06328252 0.73363769
-0.0067080013 0.060372055 0.73073
-0.0066494625 0.057628661 0.7283746
-0.0065991818 0.054993212 0.72635144
-0.0065550897 0.052440733 0.72457731
-0.0065188794 0.049978077 0.72312033
-0.0064887838 0.047584414 0.72190946
-0.0064623291 0.045236319 0.72084492
-0.0064306301 0.042870879 0.71956944
-0.0063916654 0.040480584 0.71800166
-0.0063458649 0.038075238 0.71615875
-0.0062983888 0.035690874 0.71424854
-0.0062516187 0.033342004 0.71236664
-0.0062071541 0.031035781 0.71057749
-0.0061637992 0.028764427 0.70883298
-0.0061216191 0.026527017 0.70713586
-0.0060813921 0.024325579 0.70551723
-0.0060416907 0.022152871 0.70391977
-0.0060036797 0.020012289 0.70239031
-0.0059667379 0.017900229 0.70090389
-0.0059302244 0.015813947 0.6994347
-0.0058958214 0.013756961 0.69805044
-0.0058618616 0.011723727 0.69668394
-0.0058285389 0.0097142756 0.6953432
-0.0057969587 0.0077292919 0.69407254
-0.0057657189 0.0057657063 0.69281554
-0.0057352302 0.0038235188 0.6915887
-0.0057061901 0.0019021034 0.69042027
-0.0056774644 -0 0.68926442
-0.005649515 -0.0018831789 0.68813986
-0.0056228922 -0.0037485659 0.68706858
-0.0055965404 -0.0055965185 0.68600827
-0.0055709509 -0.007427901 0.68497866
-0.0055466397 -0.0092443526 0.68400043
-0.0055225194 -0.011045009 0.68302995
-0.0054990915 -0.012831181 0.6820873
-0.0054770205 -0.014605373 0.68119919
-0.0054551256 -0.016365349 0.68031818
-0.0054338379 -0.018112779 0.67946172
-0.0054139849 -0.019851238 0.67866284
-0.0053942567 -0.021577001 0.67786902
-0.0053752107 -0.023292601 0.67710268
-0.0053681368 -0.025051296 0.67681801
-0.0053505902 -0.026752949 0.676112
-0.0053346362 -0.028451383 0.67547011
-0.005319267 -0.030142486 0.67485166
-0.0053041368 -0.031824797 0.67424285
-0.0052911239 -0.033510417 0.67371923
-0.0052782306 -0.035188138 0.67320049
-0.0052665081 -0.036865532 0.67272884
-0.0052559599 -0.038543642 0.67230439
-0.0052471049 -0.040227801 0.67194808
-0.0052391198 -0.041912913 0.67162681
-0.0052332748 -0.043610632 0.67139167
-0.0052291183 -0.045318991 0.67122436
-0.0052271155 -0.047044009 0.67114377
-0.0052288086 -0.048802167 0.6712119
-0.0052342056 -0.05059734 0.67142904
-0.0052455645 -0.052455604 0.67188609
-0.0052681533 -0.054437548 0.672795
-0.0053297873 -0.056851029 0.67527503
-0.005036578 0.080585271 0.76480532
-0.0049126791 0.076146513 0.75732732
-0.0048237117 0.072355688 0.75195765
-0.0047503244 0.068879724 0.74752837
-0.0046854024 0.065595657 0.74360996
-0.0046232343 0.062413692 0.73985773
-0.0044570826 0.057942122 0.72982961
-0.0044068745 0.055085957 0.72679937
-0.0043666656 0.052400023 0.72437251
-0.004332223 0.049820572 0.72229373
-0.0043034023 0.047337443 0.72055423
-0.0042784354 0.044923604 0.71904731
-0.0042568869 0.042568862 0.71774673
-0.0042392504 0.040272892 0.71668231
-0.0042213858 0.037992477 0.71560407
-0.0041982741 0.03568536 0.71420914
-0.004170612 0.033364892 0.71253961
-0.0041401233 0.03105095 0.71069944
-0.0041098068 0.028768659 0.7088697
-0.0040802644 0.026521713 0.70708662
-0.0040521603 0.024312973 0.70539039
-0.0040244404 0.022134453 0.70371741
-0.0039980239 0.019990146 0.70212299
-0.0039722673 0.017875224 0.70056844
-0.0039469339 0.01578775 0.6990394
-0.0039229663 0.013730407 0.69759285
-0.0038992891 0.011697888 0.69616377
-0.0038762405 0.0096906126 0.69477272
-0.0038542198 0.0077084601 0.69344366
-0.0038324627 0.0057486892 0.69213051
-0.0038114002 0.003811419 0.69085926
-0.0037911416 0.0018956065 0.68963653
-0.0037710979 -0 0.68842679
-0.0037517708 -0.0018758476 0.68726027
-0.0037331285 -0.0037331283 0.68613517
-0.0037146844 -0.0055719912 0.68502194
-0.0036969264 -0.007393837 0.68395013
-0.003679825 -0.0091995597 0.68291795
-0.0036628807 -0.010988653 0.68189532
-0.0036465838 -0.012762994 0.68091166
-0.0036309443 -0.014523774 0.67996782
-0.003615452 -0.016269505 0.67903268
-0.0036004668 -0.018002361 0.6781283
-0.0035862734 -0.019724488 0.67727166
-0.0035721916 -0.021433115 0.67642176
-0.0035651792 -0.02317369 0.67599851
-0.0035523591 -0.024866521 0.67522478
-0.0035396433 -0.026547313 0.67445731
-0.0035276646 -0.028221309 0.67373431
-0.0035162857 -0.029888421 0.67304754
-0.0035049922 -0.031544894 0.6723659
-0.0034946371 -0.033199012 0.67174089
-0.0034847434 -0.034847438 0.67114383
-0.0034749904 -0.036487371 0.67055511
-0.0034664439 -0.03813085 0.67003936
-0.0034581427 -0.039768636 0.66953826
-0.0034504519 -0.04140541 0.66907406
-0.0034434823 -0.043043494 0.66865349
-0.0034376506 -0.044689447 0.66830146
-0.0034322273 -0.046335042 0.66797411
-0.0034282997 -0.047996163 0.66773713
-0.003425038 -0.049663007 0.66754019
-0.0034237253 -0.051355869 0.66746104
-0.0034239597 -0.05307135 0.66747516
-0.0034261756 -0.054818809 0.66760892
-0.0034318739 -0.056625932 0.66795284
-0.0034431743 -0.058533967 0.66863489
-0.0034687507 -0.060703099 0.67017853
-0.0024923233 0.074769706 0.76167095
-0.0024239724 0.070295215 0.75342029
-0.002379047 0.066613376 0.74799728
-0.0023419883 0.063233703 0.7435239
-0.0023098029 0.060054928 0.73963881
-0.0022806507 0.057016313 0.73611981
-0.0021990021 0.052776068 0.72626394
-0.0021717995 0.049951404 0.72298032
-0.0021511554 0.047325402 0.72048831
-0.002134263 0.044819564 0.71844923
-0.0021195265 0.042390585 0.71667039
-0.0021065075 0.040023655 0.71509886
-0.002095287 0.037715167 0.71374446
-0.0020864971 0.035470515 0.71268338
-0.0020782468 0.033251971 0.71168751
-0.0020681194 0.031021833 0.71046495
-0.0020558322 0.028781682 0.70898181
-0.002041464 0.026539028 0.70724738
-0.0020267202 0.024320662 0.7054677
-0.0020121878 0.022134095 0.70371348
-0.0019983414 0.019983441 0.7020421
-0.0019848573 0.01786375 0.70041442
-0.0019716548 0.015773237 0.69882071
-0.0019591332 0.013713926 0.6973092
-0.001946762 0.011680603 0.69581586
-0.0019348077 0.0096740127 0.69437289
-0.0019232878 0.0076931715 0.69298226
-0.0019119042 0.0057357252 0.69160813
-0.0019010011 0.0038020015 0.690292
-0.0018904144 0.0018904209 0.68901408
-0.0018799381 2.9802322e-08 0.68774951
-0.0018699475 -0.0018699467 0.68654358
-0.0018601938 -0.0037203729 0.68536615
-0.0018505416 -0.0055516064 0.68420106
-0.001841348 -0.0073653758 0.68309128
-0.0018323659 -0.0091618001 0.68200701
-0.0018234778 -0.01094085 0.68093413
-0.0018150046 -0.012704998 0.67991132
-0.0018067664 -0.014454126 0.67891693
-0.0017985962 -0.01618731 0.67793065
-0.0017907942 -0.017907917 0.6769889
-0.0017832567 -0.019615829 0.67607903
-0.0017788253 -0.021345854 0.67554408
-0.0017717518 -0.023032755 0.67469025
-0.0017648838 -0.024708331 0.67386127
-0.0017580687 -0.026371032 0.6730386
-0.0017515942 -0.028025478 0.67225707
-0.0017454107 -0.029671967 0.67151064
-0.0017392708 -0.031306863 0.67076945
-0.0017334681 -0.032935888 0.67006904
-0.0017279725 -0.034559458 0.66940558
-0.0017225472 -0.036173463 0.66875076
-0.0017174743 -0.037784427 0.66813838
-0.0017127007 -0.039392114 0.66756219
-0.0017079944 -0.040991813 0.66699409
-0.0017037835 -0.042594582 0.66648579
-0.001699761 -0.044193774 0.66600019
-0.0016959701 -0.045791179 0.6655426
-0.0016926081 -0.047393024 0.66513675
-0.0016896358 -0.048999429 0.66477805
-0.0016870153 -0.050610423 0.66446167
-0.0016849135 -0.052232265 0.66420794
-0.00168323 -0.053863347 0.66400474
-0.001682398 -0.055519134 0.66390431
-0.0016821095 -0.0571917 0.66386944
-0.0016829412 -0.058902919 0.66396987
-0.0016853107 -0.06067118 0.66425586
-0.0016897671 -0.062521398 0.66479385
-0.0016982092 -0.064531952 0.66581291
0 0.069326162 0.75969249
0 0.064614326 0.74969631
0 0.061033696 0.74418306
0 0.057758689 0.73970449
0 0.054677039 0.73582524
0 0.051737607 0.73235488
0 0.047791213 0.7230441
0 0.044986695 0.71940994
0 0.042419821 0.71684718
0 0.039966434 0.71473545
0 0.037589431 0.712901
0 0.035273522 0.71128494
0 0.033022374 0.70995522
0 0.030815691 0.70880651
0 0.028647959 0.70782888
0 0.026489317 0.70678574
0 0.024318963 0.70545083
0 0.022149295 0.70388067
0 0.019993097 0.70215869
0 0.017866492 0.70045149
0 0.015770823 0.69878411
0 0.013707608 0.6972
0 0.011671692 0.69563675
0 0.0096642673 0.6941365
0 0.0076832771 0.6926837
0 0.0057268143 0.69124889
0 0.003795296 0.68988562
0 0.0018865764 0.68854779
0 2.9802322e-08 0.68722552
0 -0.0018652678 0.68597972
0 -0.0037101209 0.68474847
0 -0.0055349767 0.68353224
0 -0.0073420405 0.68238598
0 -0.0091305077 0.68125147
0 -0.010900855 0.68012929
0 -0.012656391 0.67907292
0 -0.014395148 0.67802745
0 -0.016117424 0.67699277
0 -0.017827392 0.67601693
0 -0.019522637 0.67505664
0 -0.021238595 0.67446482
0 -0.022912264 0.67357159
0 -0.024572611 0.67269093
0 -0.026219249 0.67181754
0 -0.027857959 0.67099303
0 -0.029486299 0.67019236
0 -0.0311023 0.66939771
0 -0.032711595 0.66864413
0 -0.034313798 0.66792297
0 -0.035904855 0.66720682
0 -0.037490994 0.66652846
0 -0.03907299 0.66588736
0 -0.040646493 0.6652571
0 -0.042215914 0.66465753
0 -0.043784589 0.66410047
0 -0.045346051 0.66355252
0 -0.046909511 0.66305232
0 -0.048471391 0.66258013
0 -0.050030679 0.66212887
0 -0.051597595 0.66173649
0 -0.053165466 0.66137224
0 -0.05474326 0.66106629
0 -0.05632633 0.66079718
0 -0.05792585 0.66060007
0 -0.059541494 0.66046804
0 -0.061175406 0.66040266
0 -0.062854111 0.66048312
0 -0.064574763 0.66068929
0 -0.066367343 0.66110218
0 -0.068300605 0.66190904
0 -0.070617467 0.66378009
0.0023641307 0.05910328 0.74619675
0.0023166689 0.055600077 0.74046755
0.0022796532 0.05243206 0.73599935
0.0022476721 0.049448848 0.73213887
0.0022191121 0.046601385 0.72869146
0.002154351 0.043087035 0.72087407
0.0021138496 0.040163159 0.71598518
0.0020916609 0.0376499 0.71330667
0.0020736132 0.035251439 0.71112812
0.00205798 0.032927692 0.70924109
0.0020449683 0.030674577 0.70767039
0.0020334329 0.028468102 0.70627797
0.0020232373 0.026302099 0.70504725
0.0020152675 0.024183244 0.70408523
0.0020075538 0.022083104 0.70315409
0.0019977989 0.019978046 0.70197654
0.0019861099 0.017875016 0.70056564
0.0019726187 0.015780956 0.69893706
0.0019588494 0.013711989 0.69727492
0.001945271 0.011671662 0.69563586
0.0019323047 0.0096615255 0.6940707
0.0019196941 0.007678777 0.69254851
0.0019072691 0.0057218075 0.69104862
0.0018955494 0.0037911534 0.68963397
0.0018839658 0.0018839836 0.68823564
0.0018726488 -0 0.68686962
0.001861862 -0.0018618405 0.68556756
0.001851192 -0.0037023425 0.6842795
0.001840806 -0.0055224001 0.68302584
0.0018308708 -0.0073234737 0.68182659
0.0018210488 -0.0091052353 0.68064094
0.0018114694 -0.010868788 0.67948461
0.0018023149 -0.012616187 0.67837954
0.0017932524 -0.014346004 0.67728561
0.0017843824 -0.016059428 0.67621493
0.0017759525 -0.017759502 0.67519736
0.001770523 -0.019475698 0.67454195
0.0017623164 -0.021147788 0.67355132
0.0017545547 -0.022809207 0.6726144
0.0017468611 -0.024456024 0.6716857
0.0017392648 -0.026088983 0.67076874
0.0017321419 -0.027714252 0.669909
0.001725095 -0.029326588 0.66905832
0.0017180995 -0.03092581 0.66821384
0.0017115347 -0.032519162 0.66742146
0.0017051247 -0.034102499 0.66664767
0.0016987625 -0.035673976 0.66587967
0.0016927455 -0.037240416 0.66515338
0.0016869585 -0.038800031 0.66445482
0.0016812618 -0.040350288 0.66376722
0.0016757941 -0.041894853 0.66310716
0.0016706409 -0.043436617 0.66248506
0.001665619 -0.044971704 0.66187894
0.0016607542 -0.04650107 0.6612916
0.0016562901 -0.048032403 0.66075283
0.00165191 -0.049557298 0.66022408
0.0016478245 -0.051082522 0.65973091
0.001644029 -0.052608937 0.65927279
0.0016403425 -0.054131299 0.65882778
0.0016371973 -0.055664688 0.6584481
0.0016341335 -0.05719468 0.65807831
0.0016316822 -0.058740526 0.65778232
0.0016293337 -0.06028533 0.65749896
0.0016277437 -0.061854228 0.65730697
0.0016264155 -0.06343019 0.65714663
0.0016258924 -0.065035686 0.65708345
0.0016261459 -0.066671938 0.65711409
0.0016272354 -0.068343863 0.65724558
0.0016380335 -0.070435449 0.65854901
0.0016588875 -0.072991014 0.66106629
0.0046718405 0.053726196 0.74279141
0.0045742909 0.050317198 0.73690379
0.0044995281 0.047245055 0.73239148
0.0044358834 0.04435885 0.72855014
0.0043791435 0.041601896 0.72512567
0.0043259119 0.038933247 0.72191274
0.0041724551 0.035465866 0.71265084
0.0041262615 0.033010095 0.70986283
0.0040891343 0.030668527 0.70762193
0.0040586027 0.028410256 0.70577919
0.0040317695 0.026206523 0.70415974
0.0040077111 0.024046302 0.70270765
0.0039873985 0.021930724 0.7014817
0.0039705965 0.019853026 0.70046759
0.0039557172 0.017800748 0.69956958
0.0039388086 0.015755296 0.69854903
0.0039177602 0.013712168 0.69727862
0.0038931756 0.01167956 0.69579482
0.0038664609 0.0096661448 0.69418246
0.0038400071 0.0076800287 0.69258583
0.0038141164 0.0057212114 0.69102317
0.0037895481 0.0037895739 0.68954039
0.0037652946 0.0018826425 0.68807656
0.0037418669 2.9802322e-08 0.68666255
0.0037193093 -0.0018596351 0.68530107
0.0036970086 -0.0036970079 0.68395507
0.003675608 -0.00551337 0.68266344
0.0036548141 -0.0073095858 0.68140841
0.0036342673 -0.0090856254 0.68016833
0.0036145768 -0.010843724 0.67897987
0.0035954218 -0.012583941 0.67782378
0.003576481 -0.014305919 0.67668062
0.0035582706 -0.016012222 0.67558157
0.0035406076 -0.017703027 0.67451549
0.0035288713 -0.019408762 0.67380714
0.0035119911 -0.021071911 0.67278826
0.0034956748 -0.022721857 0.67180353
0.0034795091 -0.024356514 0.67082787
0.0034638401 -0.025978774 0.66988218
0.0034488465 -0.027590781 0.6689772
0.0034339821 -0.029188812 0.66808009
0.0034194321 -0.030774862 0.66720188
0.0034056536 -0.032353699 0.66637027
0.0033920319 -0.033920258 0.66554809
0.0033785873 -0.035475135 0.66473669
0.0033658824 -0.037024677 0.66396987
0.0033534751 -0.03856495 0.663221
0.0033412594 -0.040095091 0.66248381
0.00332962 -0.041620255 0.66178125
0.003318358 -0.043138623 0.66110152
0.0033074126 -0.044650048 0.66044092
0.0032968216 -0.046155483 0.65980172
0.0032867624 -0.047658056 0.65919459
0.0032770862 -0.049156249 0.65861052
0.0032675734 -0.050647348 0.65803641
0.0032589224 -0.052142739 0.65751421
0.0032504539 -0.053632498 0.65700316
0.0032424077 -0.055120885 0.65651751
0.0032350598 -0.056613564 0.65607405
0.0032277764 -0.058099955 0.65563446
0.003221656 -0.059600621 0.65526509
0.0032156 -0.061096385 0.6548996
0.0032106997 -0.062608629 0.65460378
0.00320605 -0.064120993 0.65432322
0.0032027052 -0.065655455 0.65412128
0.0032165716 -0.067547992 0.65495819
0.0032358235 -0.069570199 0.65612012
0.0032874211 -0.072323248 0.65923429
0.003357402 -0.075541556 0.66345811
0.0069328975 0.048530281 0.73977911
0.0067771738 0.045181185 0.73351336
0.0066623897 0.042195171 0.72889477
0.0065669627 0.03940177 0.7250551
0.0064824228 0.036733747 0.7216534
0.006405849 0.034164548 0.71857238
0.0061859488 0.030929744 0.70972425
0.0061081182 0.02850458 0.70659256
0.0060516773 0.026223987 0.70432162
0.0060044248 0.024017721 0.70242023
0.0059628505 0.021863818 0.70074749
0.0059264307 0.019754797 0.69928211
0.0058957753 0.017687321 0.69804859
0.0058686221 0.015649706 0.69695598
0.0058462457 0.013641268 0.69605565
0.0058241743 0.011648387 0.69516754
0.0057962872 0.0096604824 0.69404548
0.0057628411 0.0076838136 0.69269973
0.0057247966 0.0057248175 0.69116896
0.0056861313 0.0037907958 0.6896131
0.0056479839 0.0018827021 0.68807822
0.0056114784 -0 0.68660933
0.005576021 -0.0018586814 0.68518263
0.0055410094 -0.0036939681 0.68377388
0.0055078687 -0.0055078566 0.68244046
0.0054752822 -0.0073003471 0.68112922
0.005443099 -0.0090718269 0.67983425
0.0054126964 -0.010825366 0.67861092
0.0053826314 -0.012559444 0.6774013
0.0053529181 -0.014274448 0.67620569
0.0053249095 -0.0159747 0.67507875
0.005305599 -0.017685294 0.67430168
0.0052783419 -0.019353926 0.67320502
0.0052523557 -0.021009415 0.67215937
0.005226715 -0.02264908 0.67112768
0.0052013416 -0.024272919 0.67010677
0.005177177 -0.02588585 0.66913438
0.0051535373 -0.02748552 0.66818327
0.0051301648 -0.029070914 0.66724283
0.0051076636 -0.030645967 0.66633743
0.0050859274 -0.032210857 0.66546279
0.0050644097 -0.033762723 0.66459703
0.0050434633 -0.035304219 0.66375422
0.0050234627 -0.03683871 0.66294944
0.0050037028 -0.038361698 0.66215432
0.0049843467 -0.039874792 0.66137552
0.0049659116 -0.041382581 0.66063374
0.0049478407 -0.04288128 0.65990663
0.0049302406 -0.044372141 0.6591984
0.0049133445 -0.045857877 0.65851861
0.0048968992 -0.047336638 0.65785694
0.0048811031 -0.048811018 0.65722138
0.00486574 -0.050279289 0.65660316
0.0048509748 -0.051743716 0.65600908
0.0048369998 -0.05320698 0.65544671
0.0048231832 -0.054662704 0.65489078
0.0048104776 -0.056122184 0.65437955
0.0047981609 -0.057577908 0.65388393
0.0047862735 -0.059030682 0.65340567
0.0047756145 -0.060491085 0.65297675
0.0047649876 -0.061944798 0.65254921
0.0047558993 -0.063411951 0.65218353
0.0047664098 -0.065140903 0.65260637
0.0047841072 -0.066977471 0.65331852
0.0048676492 -0.069769636 0.65667999
0.005059869 -0.074211374 0.66441429
0.0050765187 -0.076147765 0.66508424
0.0051878053 -0.079546347 0.6695621
0.0091496268 0.043460757 0.73693538
0.0089265695 0.040169597 0.73020399
0.0087729143 0.03728494 0.72556698
0.0086447606 0.034579068 0.72169966
0.0085326843 0.031997591 0.71831739
0.008431674 0.029510856 0.71526921
0.0081559392 0.026506841 0.70694816
0.0080415728 0.024124742 0.70349681
0.0079627093 0.021897495 0.70111692
0.0078976052 0.019744039 0.69915223
0.0078406464 0.017641455 0.69743335
0.0077932943 0.015586615 0.69600439
0.0077504697 0.013563365 0.69471198
0.0077124797 0.011568725 0.69356561
0.0076828445 0.00960356 0.69267124
0.0076551046 0.0076551437 0.69183409
0.0076223644 0.0057168007 0.69084609
0.0075821686 0.0037910938 0.68963307
0.0075356076 0.0018838942 0.68822795
0.0074855248 -0 0.68671662
0.0074359379 -0.0018589199 0.68522018
0.0073873033 -0.0036936104 0.68375248
0.0073412126 -0.0055058897 0.6823616
0.0072956928 -0.0072956979 0.68098795
0.0072514433 -0.0090642869 0.67965257
0.0072090519 -0.010813564 0.67837334
0.0071671787 -0.012542546 0.67710966
0.0071265507 -0.01425305 0.67588353
0.0070874589 -0.015946776 0.67470396
0.0070603066 -0.017650753 0.67388451
0.007022602 -0.019312114 0.67274666
0.0069864686 -0.020959407 0.67165625
0.0069507291 -0.022589833 0.6705777
0.0069157113 -0.02420494 0.66952097
0.0068823467 -0.025808781 0.66851407
0.0068493253 -0.027397305 0.6675176
0.006816945 -0.02897197 0.66654038
0.0067859273 -0.030536652 0.66560435
0.0067554642 -0.032088459 0.66468507
0.0067255213 -0.033627599 0.66378146
0.0066966726 -0.035157502 0.66291088
0.0066686478 -0.036677539 0.66206509
0.0066409446 -0.038185418 0.66122913
0.0066141482 -0.039684862 0.66042048
0.0065883258 -0.041177005 0.65964127
0.0065628118 -0.042658269 0.65887129
0.0065380288 -0.044131666 0.65812337
0.0065142377 -0.045599639 0.6574055
0.0064908299 -0.047058523 0.656699
0.0064682793 -0.048512071 0.6560185
0.0064464663 -0.049960107 0.65536022
0.0064250892 -0.051400691 0.65471512
0.0064048567 -0.052840084 0.65410459
0.0063849962 -0.054272443 0.65350521
0.006365764 -0.055700451 0.65292484
0.0063478155 -0.057130337 0.65238321
0.0063299476 -0.058551997 0.65184397
0.0063133552 -0.059976831 0.65134323
0.0062974426 -0.061400041 0.65086311
0.0062988899 -0.062988862 0.65090668
0.0063140318 -0.064718783 0.65136361
0.006407666 -0.067280516 0.65418935
0.0070720576 -0.076024607 0.6742391
0.0070458911 -0.077504769 0.67344952
0.0070253629 -0.079035327 0.67282999
0.0069959438 -0.080453336 0.67194217
0.01134266 0.038565069 0.73465699
0.011027628 0.035288423 0.72705144
0.01083173 0.03249523 0.72232199
0.010671542 0.029880404 0.71845466
0.010531873 0.02738291 0.71508282
0.010406232 0.024974972 0.7120496
0.010283175 0.022623003 0.70907873
0.0099269254 0.01985389 0.70047808
0.0098240925 0.017683357 0.69799542
0.009740252 0.015584409 0.69597137
0.0096709346 0.013539344 0.69429791
0.0096095316 0.011531442 0.69281554
0.0095537165 0.0095537305 0.691468
0.0095075341 0.0076060593 0.69035304
0.0094673457 0.0056804419 0.68938285
0.0094326138 0.0037730634 0.68854439
0.0093972543 0.0018794537 0.68769068
0.0093525341 -0 0.68661106
0.009299621 -0.0018599033 0.68533361
0.0092399269 -0.003695935 0.68389249
0.0091794441 -0.0055076182 0.68243229
0.0091197817 -0.0072958171 0.68099189
0.009062564 -0.0090625286 0.67961055
0.0090070646 -0.010808468 0.6782707
0.0089522414 -0.012533098 0.67694712
0.0089000119 -0.014239997 0.67568618
0.0088489512 -0.01592809 0.6744535
0.0088128867 -0.017625719 0.67358279
0.0087645371 -0.019281983 0.67241549
0.0087173227 -0.020921558 0.67127573
0.0086705852 -0.02254352 0.67014736
0.0086258324 -0.024152309 0.66906691
0.0085822167 -0.025746644 0.66801393
0.0085390387 -0.027324915 0.6669715
0.008497362 -0.028891027 0.66596532
0.0084570609 -0.030445397 0.66499245
0.0084171696 -0.031985223 0.66402936
0.0083783818 -0.033513546 0.66309297
0.0083410619 -0.035032421 0.66219199
0.0083042663 -0.03653875 0.66130364
0.0082682315 -0.038033843 0.66043365
0.008233564 -0.039521098 0.65959668
0.0081996974 -0.040998489 0.65877914
0.0081662405 -0.042464435 0.65797138
0.0081340345 -0.043923765 0.6571939
0.0081027905 -0.045375586 0.65643954
0.0080718882 -0.046816915 0.65569353
0.0080421269 -0.048252761 0.654975
0.0080133285 -0.049682617 0.65427977
0.0079848878 -0.051103264 0.65359312
0.0079578124 -0.052521527 0.6529395
0.0079313982 -0.053933501 0.65230179
0.0079053342 -0.05533734 0.65167254
0.0078809792 -0.056743026 0.65108454
0.0078569464 -0.05814141 0.65050435
0.0078335255 -0.059534773 0.64993894
0.007820718 -0.061001569 0.64962971
0.0078330599 -0.062664449 0.64992774
0.0092144031 -0.075558096 0.6832763
0.0091478601 -0.07684201 0.68166977
0.0088570975 -0.076170996 0.67465007
0.0087900041 -0.077352002 0.67303038
0.0087435236 -0.078691691 0.6719082
0.0087905908 -0.080873415 0.6730445
0.013085266 0.03053233 0.72407609
0.012840686 0.027821511 0.71915555
0.012648523 0.025297105 0.71528953
0.012481457 0.02288267 0.71192849
0.012331447 0.020552427 0.70891047
0.012192423 0.018288672 0.70611346
0.011773792 0.015698433 0.69769132
0.011639317 0.013579249 0.69498587
0.01153884 0.011538833 0.69296443
0.011453349 0.009544462 0.69124448
0.011377174 0.0075847805 0.68971205
0.011310864 0.0056554079 0.68837792
0.01125371 0.0037512183 0.68722802
0.011201935 0.0018670261 0.68618643
0.011161163 2.9802322e-08 0.68536615
0.011122006 -0.0018536448 0.68457842
0.011074496 -0.0036914945 0.6836226
0.011016991 -0.0055084825 0.68246561
0.010950804 -0.0073004663 0.68113405
0.010880201 -0.0090668201 0.67971361
0.010810346 -0.010810286 0.67830825
0.01074169 -0.012531936 0.67692703
0.01067671 -0.014235586 0.67561966
0.010629495 -0.015944213 0.67466986
0.010567013 -0.017611653 0.6734128
0.010507101 -0.019262969 0.67220742
0.010447827 -0.02089563 0.67101496
0.01038965 -0.022510886 0.66984451
0.010334216 -0.024113148 0.66872925
0.010279511 -0.025698751 0.66762871
0.0102258 -0.027268797 0.66654813
0.010174302 -0.02882719 0.66551208
0.010123731 -0.030371189 0.66449463
0.010074099 -0.03190133 0.66349614
0.010026021 -0.033420056 0.66252887
0.0099792974 -0.034927517 0.66158885
0.0099333674 -0.036422372 0.66066486
0.0098883472 -0.037905335 0.6597591
0.0098452186 -0.039380848 0.65889138
0.0098027522 -0.040844798 0.65803707
0.0097609051 -0.042297244 0.65719515
0.009720861 -0.043743849 0.65638947
0.0096816123 -0.045180827 0.65559989
0.0096427407 -0.04660657 0.65481788
0.0096055632 -0.048027813 0.6540699
0.0095692817 -0.049441248 0.65333998
0.0095333038 -0.050844282 0.65261614
0.0094989771 -0.052244365 0.65192556
0.0094654942 -0.053637803 0.65125197
0.0094323047 -0.055021763 0.65058422
0.0094010551 -0.056406304 0.64995551
0.0093703335 -0.057783678 0.64933741
0.0093398402 -0.059152335 0.64872402
0.009345714 -0.060747132 0.64884216
0.0093732001 -0.062488005 0.64939511
0.011119658 -0.075984329 0.68453109
0.011047275 -0.077330887 0.68307489
0.010971254 -0.078627318 0.6815455
0.010893861 -0.079888269 0.67998844
0.010816656 -0.081124887 0.67843521
0.010737695 -0.082322299 0.67684668
0.015097422 0.02588132 0.72116661
0.014806142 0.023266792 0.71614367
0.014577518 0.020825028 0.71220124
0.01438326 0.018492788 0.70885134
0.014209142 0.016239047 0.70584881
0.014051299 0.014051348 0.70312685
0.013587209 0.011646211 0.69512397
0.013416138 0.0095829666 0.69217396
0.013292966 0.0075959861 0.69004995
0.013189746 0.0056527555 0.68826991
0.013098933 0.0037425756 0.68670392
0.013022809 0.0018604398 0.68539119
0.012952977 -0 0.68418694
0.012892329 -0.0018417537 0.68314117
0.01284241 -0.0036692619 0.68228036
0.012797505 -0.0054846108 0.68150592
0.012749337 -0.0072853267 0.68067539
0.012689015 -0.0090635717 0.67963517
0.012618613 -0.010815948 0.67842114
0.012539734 -0.012539744 0.6770609
0.012460193 -0.014240205 0.67568928
0.012402746 -0.015946358 0.67469859
0.012326663 -0.017609537 0.67338663
0.012253396 -0.01925531 0.67212313
0.012180992 -0.020881683 0.6708746
0.012111283 -0.022492349 0.66967249
0.012043775 -0.024087518 0.66850841
0.011977016 -0.025665045 0.66735715
0.011912572 -0.027228713 0.66624582
0.011850141 -0.028778851 0.66516924
0.011788479 -0.030313224 0.66410601
0.011728792 -0.031835258 0.66307664
0.011670794 -0.033345103 0.66207653
0.011613791 -0.034841359 0.66109359
0.01155841 -0.036326438 0.66013855
0.01150431 -0.037799865 0.65920562
0.011451577 -0.039262503 0.65829629
0.011400176 -0.04071489 0.65740991
0.011349566 -0.042155504 0.65653718
0.011300863 -0.043588996 0.65569729
0.011253189 -0.045012742 0.65487522
0.011205917 -0.046424508 0.65406001
0.01116096 -0.047832698 0.65328479
0.011116681 -0.049231023 0.65252119
0.011072716 -0.050618112 0.65176308
0.011031043 -0.052003473 0.65104437
0.010989991 -0.053379923 0.6503365
0.010949279 -0.054746389 0.64963448
0.010910771 -0.056112513 0.64897043
0.010872904 -0.057471037 0.6483174
0.01085528 -0.058928654 0.64801347
0.010863326 -0.060524225 0.64815223
0.012946034 -0.073977292 0.68406725
0.012899119 -0.075551957 0.68325824
0.012860282 -0.077161685 0.68258858
0.012832718 -0.078829512 0.68211323
0.012778874 -0.080324322 0.68118465
0.012697848 -0.081629023 0.67978746
0.012611752 -0.082877219 0.67830276
0.017081462 0.021351844 0.71856034
0.01672888 0.018820018 0.71324021
0.016464179 0.016464204 0.70924616
0.016240995 0.01421085 0.70587862
0.016043952 0.012032986 0.70290542
0.015865013 0.0099156499 0.70020545
0.015407327 0.0077036619 0.69329947
0.015150792 0.0056815445 0.68942869
0.015003653 0.0037509501 0.68720853
0.014881883 0.001860261 0.68537122
0.014780717 2.9802322e-08 0.68384469
0.014690399 -0.0018362999 0.68248188
0.01460752 -0.0036518872 0.68123138
0.01453971 -0.0054523349 0.68020821
0.014478075 -0.0072389841 0.67927814
0.01442699 -0.0090168417 0.67850739
0.014377709 -0.010783255 0.67776382
0.01431621 -0.012526661 0.67683583
0.01424316 -0.014243096 0.67573357
0.014184612 -0.015957654 0.67485017
0.01409466 -0.017618328 0.67349291
